# .PCD v0.7 - Point Cloud Data file format
VERSION 0.7
FIELDS x y z rgb
SIZE 4 4 4 4
TYPE F F F F
COUNT 1 1 1 1
WIDTH 842
HEIGHT 1
VIEWPOINT 0 0 0 1 0 0 0
POINTS 842
DATA ascii
0.0277749914776 -0.0920046592696 0.938 2.23081026249e-38
0.029510928445 -0.0920046592696 0.938 2.24924966872e-38
0.0312468654123 -0.0920046592696 0.938 2.30456704664e-38
0.0329828023797 -0.0920046592696 0.938 2.24003010573e-38
0.034718739347 -0.0920046592696 0.938 2.30456704664e-38
0.0364546763144 -0.0920046592696 0.938 2.30456704664e-38
0.0381906132817 -0.0920046592696 0.938 2.24924966872e-38
0.0399265502491 -0.0920046592696 0.938 2.27690835768e-38
0.0416624872164 -0.0920046592696 0.938 2.28612792067e-38
0.0433984241838 -0.0920046592696 0.938 2.25846923171e-38
0.0451343611511 -0.0920046592696 0.938 2.28612792067e-38
0.0468702981185 -0.0920046592696 0.938 2.26768851443e-38
0.0486062350858 -0.0920046592696 0.938 2.18471244756e-38
0.0503421720532 -0.0920046592696 0.938 2.22162629248e-38
0.0520781090205 -0.0920046592696 0.938 2.19396760352e-38
0.0538140459879 -0.0920046592696 0.938 2.16630891456e-38
0.0553723177646 -0.0917104012975 0.935 2.17545645081e-38
0.0571027026947 -0.0917104012975 0.935 2.12935863588e-38
0.0588330876248 -0.0917104012975 0.935 2.21233484288e-38
0.0604339250201 -0.0915142293162 0.933 2.2399938121e-38
0.0619607352526 -0.0912199713441 0.93 2.17542127822e-38
0.0633394911595 -0.0907295413906 0.925 2.21229981042e-38
0.0649107176896 -0.0905333694092 0.923 2.19386096471e-38
0.0666188944709 -0.0905333694092 0.923 2.24917834263e-38
0.0683270712523 -0.0905333694092 0.923 2.29509539006e-38
0.0700352480336 -0.0905333694092 0.923 2.11992341306e-38
-0.0220860040175 -0.0883440160698 0.918 2.35095268827e-38
-0.0203870806315 -0.0883440160698 0.918 1.89908606183e-38
-0.0186881572455 -0.0883440160698 0.918 2.01886849404e-38
-0.017026247441 -0.0885364866931 0.92 2.35080891505e-38
-0.0153236226969 -0.0885364866931 0.92 2.35088094179e-38
-0.0136209979528 -0.0885364866931 0.92 2.3231859592e-38
-0.0119183732087 -0.0885364866931 0.92 2.30474683323e-38
-0.0102490606878 -0.0888251926279 0.923 2.22177076635e-38
-0.00854088390653 -0.0888251926279 0.923 2.26786858129e-38
-0.00683270712523 -0.0888251926279 0.923 2.23091844273e-38
-0.00513563441834 -0.0890176632512 0.925 2.29545538363e-38
-0.00342375627889 -0.0890176632512 0.925 2.21237141677e-38
-0.00171187813945 -0.0890176632512 0.925 2.25846923171e-38
0.0 -0.089306369186 0.928 2.29534776391e-38
0.00171743017665 -0.089306369186 0.928 2.25846951197e-38
0.00343486035331 -0.089306369186 0.928 2.25846951197e-38
0.00515229052996 -0.089306369186 0.928 2.24003038599e-38
0.00688452613918 -0.0894988398093 0.93 2.26768907495e-38
0.00860565767397 -0.0894988398093 0.93 2.29534776391e-38
0.0103267892088 -0.0894988398093 0.93 2.17549344509e-38
0.0120479207436 -0.0894988398093 0.93 2.35080919531e-38
0.013813468576 -0.0897875457442 0.933 2.3045673269e-38
0.015540152148 -0.0897875457442 0.933 2.31378688988e-38
0.01726683572 -0.0897875457442 0.933 2.28612820092e-38
0.018993519292 -0.0897875457442 0.933 2.32300617261e-38
0.0207646191617 -0.0899800163674 0.935 2.30456704664e-38
0.0224950040919 -0.0899800163674 0.935 2.26768879469e-38
0.024225389022 -0.0899800163674 0.935 2.24003010573e-38
0.0260390545103 -0.0902687223023 0.938 2.25846895145e-38
0.0277749914776 -0.0902687223023 0.938 2.32300617261e-38
0.029510928445 -0.0902687223023 0.938 2.1939322908e-38
0.0312468654123 -0.0902687223023 0.938 2.35070087494e-38
0.0330531281843 -0.0904611929255 0.94 2.22159097976e-38
0.0347927665098 -0.0904611929255 0.94 2.34144529858e-38
0.0365324048353 -0.0904611929255 0.94 2.24003010573e-38
0.0382720431608 -0.0904611929255 0.94 2.28612792067e-38
0.0400116814863 -0.0904611929255 0.94 2.26768879469e-38
0.0417513198118 -0.0904611929255 0.94 2.29534748365e-38
0.0434909581373 -0.0904611929255 0.94 2.26768879469e-38
0.0452305964628 -0.0904611929255 0.94 2.28612792067e-38
0.0468702981185 -0.0902687223023 0.938 2.24002982547e-38
0.0486062350858 -0.0902687223023 0.938 2.11095594367e-38
0.0503421720532 -0.0902687223023 0.938 2.25850454443e-38
0.0520781090205 -0.0902687223023 0.938 2.24928498144e-38
0.0538140459879 -0.0902687223023 0.938 2.12943066262e-38
0.0553723177646 -0.0899800163674 0.935 2.29538265624e-38
0.0571027026947 -0.0899800163674 0.935 2.17552833742e-38
0.0588330876248 -0.0899800163674 0.935 2.20318716651e-38
0.060563472555 -0.0899800163674 0.935 2.24002982547e-38
0.0621606085921 -0.0897875457442 0.933 2.20315185379e-38
0.0635449165362 -0.089306369186 0.928 2.20315185379e-38
0.0650513692989 -0.0890176632512 0.925 2.1662738821e-38
0.0666188944709 -0.0888251926279 0.923 2.24924994898e-38
0.0683270712523 -0.0888251926279 0.923 2.25825315148e-38
0.0700352480336 -0.0888251926279 0.923 2.28587554681e-38
0.0715102392521 -0.0885364866931 0.92 2.29513140343e-38
0.0732128639962 -0.0885364866931 0.92 2.23070236251e-38
-0.0237071988825 -0.0863619387862 0.915 2.18489251441e-38
-0.0220138275337 -0.0863619387862 0.915 2.35080905518e-38
-0.0203870806315 -0.0866450926839 0.918 2.35084506855e-38
-0.0186881572455 -0.0866450926839 0.918 2.35091681503e-38
-0.017026247441 -0.086833861949 0.92 2.27701625766e-38
-0.0152903104736 -0.0866450926839 0.918 2.35077248129e-38
-0.0135913870877 -0.0866450926839 0.918 2.2586490183e-38
-0.0119183732087 -0.086833861949 0.92 2.26786858129e-38
-0.0102490606878 -0.0871170158466 0.923 2.23099032934e-38
-0.00854088390653 -0.0871170158466 0.923 2.31396639622e-38
-0.00683270712523 -0.0871170158466 0.923 2.29545538363e-38
-0.00513563441834 -0.0873057851117 0.925 2.25857713169e-38
-0.00342375627889 -0.0873057851117 0.925 2.31378660962e-38
-0.00171187813945 -0.0873057851117 0.925 2.27690835768e-38
0.0 -0.0875889390094 0.928 2.35077290168e-38
0.00171743017665 -0.0875889390094 0.928 2.32300617261e-38
0.00343486035331 -0.0875889390094 0.928 2.27690835768e-38
0.00515229052996 -0.0875889390094 0.928 2.30456704664e-38
0.00688452613918 -0.0877777082745 0.93 2.28612792067e-38
0.00860565767397 -0.0877777082745 0.93 2.30456704664e-38
0.010360101432 -0.0880608621722 0.933 2.1939322908e-38
0.012086785004 -0.0880608621722 0.933 2.35066486157e-38
0.013813468576 -0.0880608621722 0.933 2.27690863794e-38
0.0155734643713 -0.0882496314373 0.935 2.32300645287e-38
0.0173038493014 -0.0882496314373 0.935 2.32300645287e-38
0.0190342342316 -0.0882496314373 0.935 2.29534776391e-38
0.0207646191617 -0.0882496314373 0.935 2.28612820092e-38
0.0224950040919 -0.0882496314373 0.935 2.32300645287e-38
0.0243031175429 -0.0885327853349 0.938 2.27690863794e-38
0.0260390545103 -0.0885327853349 0.938 2.28612820092e-38
0.0277749914776 -0.0885327853349 0.938 2.3507011552e-38
0.029510928445 -0.0885327853349 0.938 2.29534776391e-38
0.0313134898588 -0.0887215546 0.94 2.22159097976e-38
0.0330531281843 -0.0887215546 0.94 2.35070059468e-38
0.0347927665098 -0.0887215546 0.94 2.35070059468e-38
0.0365324048353 -0.0887215546 0.94 2.34144501832e-38
0.0382720431608 -0.0887215546 0.94 2.27690835768e-38
0.0400116814863 -0.0887215546 0.94 2.33222601586e-38
0.0418845687048 -0.0890047084977 0.943 2.26768879469e-38
0.0436297590675 -0.0890047084977 0.943 2.25846923171e-38
0.0452305964628 -0.0887215546 0.94 2.18471272782e-38
0.0469702347883 -0.0887215546 0.94 2.33222545534e-38
0.0487098731137 -0.0887215546 0.94 2.2215906995e-38
0.0504495114392 -0.0887215546 0.94 2.23084585547e-38
0.0520781090205 -0.0885327853349 0.938 2.2124067295e-38
0.0538140459879 -0.0885327853349 0.938 2.22162629248e-38
0.0553723177646 -0.0882496314373 0.935 2.18474804054e-38
0.0571027026947 -0.0882496314373 0.935 2.19396760352e-38
0.0588330876248 -0.0882496314373 0.935 2.20318716651e-38
0.0604339250201 -0.0880608621722 0.933 2.2215906995e-38
0.0619607352526 -0.0877777082745 0.93 2.13861463262e-38
0.0635449165362 -0.0875889390094 0.928 2.32300617261e-38
0.0650513692989 -0.0873057851117 0.925 2.17549316483e-38
0.0666188944709 -0.0871170158466 0.923 2.34144529858e-38
0.0683270712523 -0.0871170158466 0.923 2.13850673264e-38
0.0700352480336 -0.0871170158466 0.923 2.2306300555e-38
0.0715102392521 -0.086833861949 0.92 2.1661654216e-38
0.0732128639962 -0.086833861949 0.92 2.30449516003e-38
0.0747526289822 -0.0866450926839 0.918 2.00946914446e-38
0.0762017106937 -0.0863619387862 0.915 2.28612764041e-38
0.0778950820425 -0.0863619387862 0.915 2.25850454443e-38
-0.0268866655242 -0.0840208297631 0.908 2.08344074767e-38
-0.0252062489289 -0.0840208297631 0.908 2.35080849466e-38
-0.0235258323337 -0.0840208297631 0.908 2.35091681503e-38
-0.0218454157384 -0.0840208297631 0.908 2.35077332207e-38
-0.020320456185 -0.0846685674374 0.915 2.18478531508e-38
-0.0186881572455 -0.0849461692979 0.918 2.25861342532e-38
-0.0169892338596 -0.0849461692979 0.918 2.27708814427e-38
-0.0152903104736 -0.0849461692979 0.918 2.32318539868e-38
-0.0135913870877 -0.0849461692979 0.918 2.24950148205e-38
-0.0119183732087 -0.0851312372049 0.92 2.33240552219e-38
-0.0102490606878 -0.0854088390653 0.923 2.28630770726e-38
-0.00854088390653 -0.0854088390653 0.923 2.2586490183e-38
-0.00683270712523 -0.0854088390653 0.923 2.28623582065e-38
-0.00513563441834 -0.0855939069723 0.925 2.25857713169e-38
-0.00342375627889 -0.0855939069723 0.925 2.24924966872e-38
-0.00171187813945 -0.0855939069723 0.925 2.26768879469e-38
0.0 -0.0858715088327 0.928 2.25846923171e-38
0.00171743017665 -0.0858715088327 0.928 2.3322257356e-38
0.00343486035331 -0.0858715088327 0.928 2.31378660962e-38
0.00515229052996 -0.0858715088327 0.928 2.35066486157e-38
0.00688452613918 -0.0860565767397 0.93 2.32300617261e-38
0.00860565767397 -0.0860565767397 0.93 2.35084492842e-38
0.010360101432 -0.0863341786002 0.933 2.35066486157e-38
0.012086785004 -0.0863341786002 0.933 2.30456704664e-38
0.013813468576 -0.0863341786002 0.933 2.28612820092e-38
0.0155734643713 -0.0865192465071 0.935 2.26768907495e-38
0.0173038493014 -0.0865192465071 0.935 2.28612820092e-38
0.0190342342316 -0.0865192465071 0.935 2.31378688988e-38
0.0207646191617 -0.0865192465071 0.935 2.28612820092e-38
0.0224950040919 -0.0865192465071 0.935 2.26768907495e-38
0.0243031175429 -0.0867968483676 0.938 2.31378688988e-38
0.0260390545103 -0.0867968483676 0.938 2.32300645287e-38
0.0277749914776 -0.0867968483676 0.938 2.23999479301e-38
0.0295738515333 -0.0869819162745 0.94 2.3045673269e-38
0.0313134898588 -0.0869819162745 0.94 2.34144529858e-38
0.0331586168913 -0.087259518135 0.943 2.24006541845e-38
0.034903807254 -0.087259518135 0.943 2.24928498144e-38
0.0366489976167 -0.087259518135 0.943 2.27690807742e-38
0.0383941879794 -0.087259518135 0.943 2.33222601586e-38
0.0401393783421 -0.087259518135 0.943 2.33219042288e-38
0.0418845687048 -0.087259518135 0.943 2.24003010573e-38
0.0436297590675 -0.087259518135 0.943 2.31378660962e-38
0.0452305964628 -0.0869819162745 0.94 2.1939322908e-38
0.0469702347883 -0.0869819162745 0.94 2.24002982547e-38
0.0487098731137 -0.0869819162745 0.94 2.19393201054e-38
0.0504495114392 -0.0869819162745 0.94 2.16630891456e-38
0.0520781090205 -0.0867968483676 0.938 2.23084585547e-38
0.0538140459879 -0.0867968483676 0.938 2.29538279637e-38
0.0553723177646 -0.0865192465071 0.935 2.12031899961e-38
0.0571027026947 -0.0865192465071 0.935 2.21251462948e-38
0.0588330876248 -0.0865192465071 0.935 2.19403991052e-38
0.0604339250201 -0.0863341786002 0.933 2.22169859948e-38
0.0619607352526 -0.0860565767397 0.93 2.17560078455e-38
0.0635449165362 -0.0858715088327 0.928 2.23091844273e-38
0.0650513692989 -0.0855939069723 0.925 2.19404019078e-38
0.0667632474384 -0.0855939069723 0.925 2.16638150182e-38
0.0684751255778 -0.0855939069723 0.925 2.23084585547e-38
0.0700352480336 -0.0854088390653 0.923 2.32304148533e-38
0.0717434248149 -0.0854088390653 0.923 2.2215906995e-38
0.0732128639962 -0.0851312372049 0.92 2.28612820092e-38
0.0747526289822 -0.0849461692979 0.918 2.24924994898e-38
0.0760351495774 -0.0844834995305 0.913 2.20307996718e-38
0.077724819568 -0.0844834995305 0.913 2.22155440587e-38
0.0794144895587 -0.0844834995305 0.913 2.21233470275e-38
-0.0417790799978 -0.0818869967957 0.903 2.34180403099e-38
-0.0401079167979 -0.0818869967957 0.903 2.32343735215e-38
-0.038436753598 -0.0818869967957 0.903 2.32343735215e-38
-0.0368877352167 -0.082159046619 0.906 2.34180445138e-38
-0.0352110199796 -0.082159046619 0.906 2.35098828126e-38
-0.0335343047424 -0.082159046619 0.906 2.35098828126e-38
-0.0318575895053 -0.082159046619 0.906 2.06503791533e-38
-0.0301808742682 -0.082159046619 0.906 2.04652690274e-38
-0.0285041590311 -0.082159046619 0.906 2.32300589235e-38
-0.0268866655242 -0.0823404131678 0.908 2.35088038127e-38
-0.0252062489289 -0.0823404131678 0.908 2.35070059468e-38
-0.0235258323337 -0.0823404131678 0.908 2.24003038599e-38
-0.0218454157384 -0.0823404131678 0.908 2.35088094179e-38
-0.020320456185 -0.0829751960887 0.915 2.32307875987e-38
-0.0186881572455 -0.0832472459119 0.918 2.3415894922e-38
-0.0169892338596 -0.0832472459119 0.918 2.19418410414e-38
-0.0152903104736 -0.0832472459119 0.918 2.31407373568e-38
-0.0135913870877 -0.0832472459119 0.918 2.29559929699e-38
-0.0119183732087 -0.0834286124608 0.92 2.34162508518e-38
-0.0102490606878 -0.083700662284 0.923 2.30474683323e-38
-0.00854088390653 -0.083700662284 0.923 2.34162508518e-38
-0.00683270712523 -0.083700662284 0.923 2.29545538363e-38
-0.00513563441834 -0.0838820288328 0.925 2.33233363558e-38
-0.00342375627889 -0.0838820288328 0.925 2.31378660962e-38
-0.00171187813945 -0.0838820288328 0.925 2.34144529858e-38
0.0 -0.0841540786561 0.928 2.27690835768e-38
0.00171743017665 -0.0841540786561 0.928 2.35077290168e-38
0.00343486035331 -0.0841540786561 0.928 2.26768879469e-38
0.00515229052996 -0.0841540786561 0.928 2.30456704664e-38
0.00688452613918 -0.0843354452049 0.93 2.22159097976e-38
0.00860565767397 -0.0843354452049 0.93 2.31378660962e-38
0.010360101432 -0.0846074950282 0.933 2.35073688831e-38
0.012086785004 -0.0846074950282 0.933 2.29534748365e-38
0.0138430794411 -0.084788861577 0.935 2.33222601586e-38
0.0155734643713 -0.084788861577 0.935 2.3507011552e-38
0.0173038493014 -0.084788861577 0.935 2.35080919531e-38
0.0190342342316 -0.084788861577 0.935 2.25846951197e-38
0.0207646191617 -0.084788861577 0.935 2.32300645287e-38
0.0224950040919 -0.084788861577 0.935 2.35062954885e-38
0.0243031175429 -0.0850609114002 0.938 2.26765348197e-38
0.0260390545103 -0.0850609114002 0.938 2.27687304496e-38
0.0277749914776 -0.0850609114002 0.938 2.35077332207e-38
0.0295738515333 -0.085242277949 0.94 2.33222601586e-38
0.0313134898588 -0.085242277949 0.94 2.27690835768e-38
0.0331586168913 -0.0855143277723 0.943 2.26772410741e-38
0.034903807254 -0.0855143277723 0.943 2.35091625451e-38
0.0366489976167 -0.0855143277723 0.943 2.31378632936e-38
0.0383941879794 -0.0855143277723 0.943 2.25846951197e-38
0.0401393783421 -0.0855143277723 0.943 2.23077523003e-38
0.0418845687048 -0.0855143277723 0.943 2.32300645287e-38
0.0436297590675 -0.0855143277723 0.943 2.29534748365e-38
0.0452305964628 -0.085242277949 0.94 2.28612792067e-38
0.0469702347883 -0.085242277949 0.94 2.30456676638e-38
0.0487098731137 -0.085242277949 0.94 2.23081026249e-38
0.0503421720532 -0.0850609114002 0.938 2.14786978859e-38
0.0520781090205 -0.0850609114002 0.938 2.22162629248e-38
0.0538140459879 -0.0850609114002 0.938 2.25850454443e-38
0.0553723177646 -0.084788861577 0.935 2.20325947351e-38
0.0571027026947 -0.084788861577 0.935 2.2124790365e-38
0.0588330876248 -0.084788861577 0.935 2.2124790365e-38
0.0604339250201 -0.0846074950282 0.933 2.2770159774e-38
0.0619607352526 -0.0843354452049 0.93 2.26779641441e-38
0.0635449165362 -0.0841540786561 0.928 2.24013772546e-38
0.0650513692989 -0.0838820288328 0.925 2.2493575687e-38
0.0667632474384 -0.0838820288328 0.925 2.20325975377e-38
0.0684751255778 -0.0838820288328 0.925 2.24031723179e-38
0.0700352480336 -0.083700662284 0.923 2.11124334998e-38
0.0717434248149 -0.083700662284 0.923 2.19411207739e-38
0.0732128639962 -0.0834286124608 0.92 2.27705255129e-38
0.074508339345 -0.0829751960887 0.915 2.35070157559e-38
0.0760351495774 -0.0827938295399 0.913 2.16620171523e-38
0.0774694258564 -0.0825217797166 0.91 2.29523930341e-38
0.0789795799773 -0.0823404131678 0.908 2.23073781536e-38
0.0806599965725 -0.0823404131678 0.908 2.18467643419e-38
-0.0417790799978 -0.0802158335958 0.903 2.35098828126e-38
-0.0400190842026 -0.0800381684051 0.901 2.35095268827e-38
-0.0383516223608 -0.0800381684051 0.901 2.35088094179e-38
-0.0368877352167 -0.0804823313819 0.906 2.34151802597e-38
-0.0352110199796 -0.0804823313819 0.906 2.04645697795e-38
-0.0335343047424 -0.0804823313819 0.906 1.99120980508e-38
-0.0318575895053 -0.0804823313819 0.906 2.35098730035e-38
-0.0301808742682 -0.0804823313819 0.906 2.30463781221e-38
-0.0285041590311 -0.0804823313819 0.906 2.29534748365e-38
-0.0268866655242 -0.0806599965725 0.908 2.35066528196e-38
-0.0252062489289 -0.0806599965725 0.908 2.35062898833e-38
-0.0235258323337 -0.0806599965725 0.908 2.26761718834e-38
-0.0218454157384 -0.0806599965725 0.908 2.3507011552e-38
-0.020320456185 -0.08128182474 0.915 2.29545566389e-38
-0.0186881572455 -0.081548322526 0.918 2.23091872299e-38
-0.0169892338596 -0.081548322526 0.918 2.35084506855e-38
-0.0152903104736 -0.081548322526 0.918 2.35095268827e-38
-0.0135913870877 -0.081548322526 0.918 2.35080905518e-38
-0.0119183732087 -0.0817259877167 0.92 2.21247959702e-38
-0.0102157484646 -0.0817259877167 0.92 2.33222601586e-38
-0.00854088390653 -0.0819924855027 0.923 2.33222601586e-38
-0.00683270712523 -0.0819924855027 0.923 2.22159126002e-38
-0.00513563441834 -0.0821701506934 0.925 2.34144557884e-38
-0.00342375627889 -0.0821701506934 0.925 2.3045673269e-38
-0.00171187813945 -0.0821701506934 0.925 2.35077318194e-38
0.0 -0.0824366484794 0.928 2.32311435285e-38
0.00171743017665 -0.0824366484794 0.928 2.35080919531e-38
0.00343486035331 -0.0824366484794 0.928 2.25857741195e-38
0.00515229052996 -0.0824366484794 0.928 2.34155319856e-38
0.00688452613918 -0.0826143136701 0.93 2.30467494662e-38
0.00860565767397 -0.0826143136701 0.93 2.31389422935e-38
0.010360101432 -0.0828808114561 0.933 2.35084450803e-38
0.012086785004 -0.0828808114561 0.933 2.30467466636e-38
0.0138430794411 -0.0830584766468 0.935 2.26772410741e-38
0.0155734643713 -0.0830584766468 0.935 2.27690807742e-38
0.0173038493014 -0.0830584766468 0.935 2.35066458131e-38
0.0190342342316 -0.0830584766468 0.935 2.34144501832e-38
0.0207646191617 -0.0830584766468 0.935 2.24924966872e-38
0.0224950040919 -0.0830584766468 0.935 2.35073688831e-38
0.0243031175429 -0.0833249744329 0.938 2.3507011552e-38
0.0260390545103 -0.0833249744329 0.938 2.35077318194e-38
0.0277749914776 -0.0833249744329 0.938 2.31378688988e-38
0.0295738515333 -0.0835026396236 0.94 2.28612792067e-38
0.0313134898588 -0.0835026396236 0.94 2.35066486157e-38
0.0331586168913 -0.0837691374096 0.943 2.3322257356e-38
0.034903807254 -0.0837691374096 0.943 2.34144529858e-38
0.0366489976167 -0.0837691374096 0.943 2.28612764041e-38
0.0383941879794 -0.0837691374096 0.943 2.28616323339e-38
0.0401393783421 -0.0837691374096 0.943 2.26772396728e-38
0.0418845687048 -0.0837691374096 0.943 2.3414806113e-38
0.0436297590675 -0.0837691374096 0.943 2.25850454443e-38
0.0452305964628 -0.0835026396236 0.94 2.1939322908e-38
0.0469702347883 -0.0835026396236 0.94 2.30456704664e-38
0.0487098731137 -0.0835026396236 0.94 2.29534776391e-38
0.0503421720532 -0.0833249744329 0.938 2.20315185379e-38
0.0520781090205 -0.0833249744329 0.938 2.2769436704e-38
0.0538140459879 -0.0833249744329 0.938 2.22162615235e-38
0.0553723177646 -0.0830584766468 0.935 2.14786978859e-38
0.0571027026947 -0.0830584766468 0.935 2.2769436704e-38
0.0588330876248 -0.0830584766468 0.935 2.2124067295e-38
0.0604339250201 -0.0828808114561 0.933 2.16627332158e-38
0.0619607352526 -0.0826143136701 0.93 2.31378632936e-38
0.0635449165362 -0.0824366484794 0.928 2.28612792067e-38
0.0650513692989 -0.0821701506934 0.925 2.24003010573e-38
0.0667632474384 -0.0821701506934 0.925 2.27690835768e-38
0.0684751255778 -0.0821701506934 0.925 2.25857741195e-38
0.0700352480336 -0.0819924855027 0.923 2.23091872299e-38
0.0717434248149 -0.0819924855027 0.923 2.14794265611e-38
0.0732128639962 -0.0817259877167 0.92 2.19404047104e-38
0.074508339345 -0.08128182474 0.915 2.28612820092e-38
0.0760351495774 -0.0811041595493 0.913 2.20315185379e-38
0.0774694258564 -0.0808376617632 0.91 2.24924938846e-38
0.0789795799773 -0.0806599965725 0.908 2.32296959872e-38
0.0806599965725 -0.0806599965725 0.908 2.22162629248e-38
0.0823404131678 -0.0806599965725 0.908 2.20318716651e-38
-0.0417790799978 -0.0785446703959 0.903 2.35098856151e-38
-0.0400190842026 -0.0783707065634 0.901 2.3139658357e-38
-0.0383516223608 -0.0783707065634 0.901 2.35073744883e-38
-0.036684160519 -0.0783707065634 0.901 1.68689402148e-38
-0.0350944271982 -0.0785446703959 0.903 2.35080919531e-38
-0.0334232639983 -0.0785446703959 0.903 2.35088094179e-38
-0.0318575895053 -0.0788056161447 0.906 2.29538265624e-38
-0.0301808742682 -0.0788056161447 0.906 2.32300589235e-38
-0.0285041590311 -0.0788056161447 0.906 2.26761830938e-38
-0.0268866655242 -0.0789795799773 0.908 2.31371528353e-38
-0.0252062489289 -0.0789795799773 0.908 2.28605631431e-38
-0.0235258323337 -0.0789795799773 0.908 2.23995849938e-38
-0.0218935333942 -0.0791535438098 0.91 2.34144557884e-38
-0.020320456185 -0.0795884533912 0.915 2.33233391584e-38
-0.0186881572455 -0.07984939914 0.918 2.27701653792e-38
-0.0169892338596 -0.07984939914 0.918 2.2678329883e-38
-0.0152903104736 -0.07984939914 0.918 2.2678329883e-38
-0.0135913870877 -0.07984939914 0.918 2.34144557884e-38
-0.0119183732087 -0.0800233629726 0.92 2.33222601586e-38
-0.0102157484646 -0.0800233629726 0.92 2.35077318194e-38
-0.00854088390653 -0.0802843087214 0.923 2.29534776391e-38
-0.00683270712523 -0.0802843087214 0.923 2.31378688988e-38
-0.00513563441834 -0.0804582725539 0.925 2.34144557884e-38
-0.00342375627889 -0.0804582725539 0.925 2.27690863794e-38
-0.00171187813945 -0.0804582725539 0.925 2.35088094179e-38
0.0 -0.0807192183028 0.928 2.25854181897e-38
0.00171743017665 -0.0807192183028 0.928 2.31389478987e-38
0.00343486035331 -0.0807192183028 0.928 2.30467522688e-38
0.00515229052996 -0.0807192183028 0.928 2.35080877492e-38
0.00688452613918 -0.0808931821353 0.93 2.33233363558e-38
0.00863341786002 -0.0811541278841 0.933 2.29545510337e-38
0.0103823095809 -0.0813280917167 0.935 2.29545510337e-38
0.012112694511 -0.0813280917167 0.935 2.30471025934e-38
0.0138430794411 -0.0813280917167 0.935 2.34148047117e-38
0.0155734643713 -0.0813280917167 0.935 2.26772410741e-38
0.0173038493014 -0.0813280917167 0.935 2.33226104832e-38
0.0190342342316 -0.0813280917167 0.935 2.29534720339e-38
0.0207646191617 -0.0813280917167 0.935 2.35088066153e-38
0.0224950040919 -0.0813280917167 0.935 2.26768879469e-38
0.0243031175429 -0.0815890374655 0.938 2.24003038599e-38
0.0260390545103 -0.0815890374655 0.938 2.31378688988e-38
0.0277749914776 -0.0815890374655 0.938 2.28612764041e-38
0.0295738515333 -0.0817630012981 0.94 2.35070059468e-38
0.0313134898588 -0.0817630012981 0.94 2.24003010573e-38
0.0331586168913 -0.0820239470469 0.943 2.32300645287e-38
0.034903807254 -0.0820239470469 0.943 2.35066514183e-38
0.0366489976167 -0.0820239470469 0.943 2.31378632936e-38
0.0383941879794 -0.0820239470469 0.943 2.35084422777e-38
0.0401393783421 -0.0820239470469 0.943 2.2585044043e-38
0.0418845687048 -0.0820239470469 0.943 2.28616309326e-38
0.0436297590675 -0.0820239470469 0.943 2.3414806113e-38
0.0453749494302 -0.0820239470469 0.943 2.29534748365e-38
0.0469702347883 -0.0817630012981 0.94 2.26768907495e-38
0.0487098731137 -0.0817630012981 0.94 2.27690863794e-38
0.0504495114392 -0.0817630012981 0.94 2.26768879469e-38
0.0520781090205 -0.0815890374655 0.938 2.24002982547e-38
0.0538140459879 -0.0815890374655 0.938 2.22162615235e-38
0.0553723177646 -0.0813280917167 0.935 2.29538279637e-38
0.0571027026947 -0.0813280917167 0.935 2.29538279637e-38
0.0588330876248 -0.0813280917167 0.935 2.2769436704e-38
0.0604339250201 -0.0811541278841 0.933 2.24002982547e-38
0.0619607352526 -0.0808931821353 0.93 2.19393201054e-38
0.0635449165362 -0.0807192183028 0.928 2.24924966872e-38
0.0650513692989 -0.0804582725539 0.925 2.24924966872e-38
0.0667632474384 -0.0804582725539 0.925 2.23081054275e-38
0.0684751255778 -0.0804582725539 0.925 2.20311654107e-38
0.0701870037173 -0.0804582725539 0.925 2.13857960016e-38
0.0717434248149 -0.0802843087214 0.923 2.24924994898e-38
0.0732128639962 -0.0800233629726 0.92 2.27690835768e-38
0.0747526289822 -0.07984939914 0.918 2.27690835768e-38
0.0762017106937 -0.0795884533912 0.915 2.20315157353e-38
0.077724819568 -0.0794144895587 0.913 2.26768851443e-38
0.0791535438098 -0.0791535438098 0.91 2.26768851443e-38
0.0806599965725 -0.0789795799773 0.908 2.23081054275e-38
0.0823404131678 -0.0789795799773 0.908 2.18471300808e-38
0.08420589767 -0.0791535438098 0.91 2.25846951197e-38
-0.0417790799978 -0.076873507196 0.903 2.33254943554e-38
-0.0400190842026 -0.0767032447216 0.901 2.35098730035e-38
-0.038223925505 -0.07644785101 0.898 1.54859805435e-38
-0.0365620157004 -0.07644785101 0.898 2.35088094179e-38
-0.0350944271982 -0.076873507196 0.903 2.09258982534e-38
-0.0334232639983 -0.076873507196 0.903 2.31389478987e-38
-0.0318575895053 -0.0771289009076 0.906 2.31389478987e-38
-0.0301808742682 -0.0771289009076 0.906 2.33219084327e-38
-0.0285041590311 -0.0771289009076 0.906 2.22148560212e-38
-0.026827443794 -0.0771289009076 0.906 2.35077332207e-38
-0.0252062489289 -0.077299163382 0.908 2.33222601586e-38
-0.0235258323337 -0.077299163382 0.908 2.32300645287e-38
-0.0218454157384 -0.077299163382 0.908 2.3507011552e-38
-0.020320456185 -0.0778950820425 0.915 2.32311435285e-38
-0.0186881572455 -0.0781504757541 0.918 2.31389478987e-38
-0.0169892338596 -0.0781504757541 0.918 2.28627211428e-38
-0.0153236226969 -0.0783207382285 0.92 2.3415894922e-38
-0.0136209979528 -0.0783207382285 0.92 2.31389478987e-38
-0.0119183732087 -0.0783207382285 0.92 2.35077304181e-38
-0.0102490606878 -0.0785761319401 0.923 2.30467522688e-38
-0.00854088390653 -0.0785761319401 0.923 2.25857741195e-38
-0.00684751255778 -0.0787463944145 0.925 2.34155347882e-38
-0.00513563441834 -0.0787463944145 0.925 2.35080905518e-38
-0.00342375627889 -0.0787463944145 0.925 2.30467522688e-38
-0.00171187813945 -0.0787463944145 0.925 2.35077304181e-38
0.0 -0.0790017881261 0.928 2.1571622191e-38
0.00171743017665 -0.0790017881261 0.928 2.35088094179e-38
0.00343486035331 -0.0790017881261 0.928 2.26779697493e-38
0.00515229052996 -0.0790017881261 0.928 2.34155319856e-38
0.00688452613918 -0.0791720506005 0.93 2.33233363558e-38
0.00863341786002 -0.0794274443121 0.933 2.35077248129e-38
0.0103823095809 -0.0795977067866 0.935 2.33233335532e-38
0.012112694511 -0.0795977067866 0.935 2.30467466636e-38
0.0138430794411 -0.0795977067866 0.935 2.3508082144e-38
0.0155734643713 -0.0795977067866 0.935 2.3508082144e-38
0.0173038493014 -0.0795977067866 0.935 2.31378632936e-38
0.0190953066409 -0.0798531004982 0.938 2.25846895145e-38
0.0208312436082 -0.0798531004982 0.938 2.24924938846e-38
0.0225671805756 -0.0798531004982 0.938 2.35080891505e-38
0.0243031175429 -0.0798531004982 0.938 2.35066486157e-38
0.0260390545103 -0.0798531004982 0.938 2.35073688831e-38
0.0278342132079 -0.0800233629726 0.94 2.25850454443e-38
0.0295738515333 -0.0800233629726 0.94 2.35070017429e-38
0.0313134898588 -0.0800233629726 0.94 2.31378632936e-38
0.0331586168913 -0.0802787566842 0.943 2.35077318194e-38
0.034903807254 -0.0802787566842 0.943 2.29534776391e-38
0.0366489976167 -0.0802787566842 0.943 2.31378660962e-38
0.0383941879794 -0.0802787566842 0.943 2.26768851443e-38
0.0401393783421 -0.0802787566842 0.943 2.28616323339e-38
0.0418845687048 -0.0802787566842 0.943 2.32304148533e-38
0.0436297590675 -0.0802787566842 0.943 2.24002982547e-38
0.0452305964628 -0.0800233629726 0.94 2.29534748365e-38
0.0469702347883 -0.0800233629726 0.94 2.23081054275e-38
0.0487098731137 -0.0800233629726 0.94 2.18471272782e-38
0.0503421720532 -0.0798531004982 0.938 2.20315185379e-38
0.0520781090205 -0.0798531004982 0.938 2.27690807742e-38
0.0538140459879 -0.0798531004982 0.938 2.20318716651e-38
0.0553723177646 -0.0795977067866 0.935 2.23084585547e-38
0.0571027026947 -0.0795977067866 0.935 2.24928498144e-38
0.0588330876248 -0.0795977067866 0.935 2.22162629248e-38
0.0604339250201 -0.0794274443121 0.933 2.35070059468e-38
0.0619607352526 -0.0791720506005 0.93 2.24924938846e-38
0.0635449165362 -0.0790017881261 0.928 2.26768879469e-38
0.0652623467129 -0.0790017881261 0.928 2.25846923171e-38
0.0667632474384 -0.0787463944145 0.925 2.26768879469e-38
0.0684751255778 -0.0787463944145 0.925 2.23081082301e-38
0.0701870037173 -0.0787463944145 0.925 2.32300645287e-38
0.0717434248149 -0.0785761319401 0.923 2.31378688988e-38
0.0732128639962 -0.0783207382285 0.92 2.32300617261e-38
0.0747526289822 -0.0781504757541 0.918 2.30456704664e-38
0.0762017106937 -0.0778950820425 0.915 2.24002982547e-38
0.0778950820425 -0.0778950820425 0.915 2.29534720339e-38
0.0794144895587 -0.077724819568 0.913 2.24924938846e-38
0.0808376617632 -0.0774694258564 0.91 2.3137512969e-38
0.0825217797166 -0.0774694258564 0.91 2.26761830938e-38
0.08420589767 -0.0774694258564 0.91 2.35073744883e-38
-0.0417790799978 -0.0752023439961 0.903 2.33254943554e-38
-0.0400190842026 -0.0750357828798 0.901 8.9400908232e-39
-0.038223925505 -0.0747859412054 0.898 2.35077220103e-38
-0.0365620157004 -0.0747859412054 0.898 2.17560106481e-38
-0.0350944271982 -0.0752023439961 0.903 2.28627211428e-38
-0.0334232639983 -0.0752023439961 0.903 2.24939386233e-38
-0.0318575895053 -0.0754521856705 0.906 2.23088313001e-38
-0.0301808742682 -0.0754521856705 0.906 2.28616505507e-38
-0.0285041590311 -0.0754521856705 0.906 2.3229356873e-38
-0.026827443794 -0.0754521856705 0.906 2.33229846299e-38
-0.0252062489289 -0.0756187467868 0.908 2.29545566389e-38
-0.0235258323337 -0.0756187467868 0.908 2.35077304181e-38
-0.0218454157384 -0.0756187467868 0.908 2.30467522688e-38
-0.020320456185 -0.0762017106937 0.915 2.34155347882e-38
-0.0186881572455 -0.0764515523681 0.918 2.31389478987e-38
-0.0169892338596 -0.0764515523681 0.918 2.31389478987e-38
-0.0153236226969 -0.0766181134844 0.92 2.29549167726e-38
-0.0136209979528 -0.0766181134844 0.92 2.30467522688e-38
-0.0119572374691 -0.0768679551588 0.923 2.32311435285e-38
-0.0102490606878 -0.0768679551588 0.923 2.31389478987e-38
-0.00855939069723 -0.0770345162751 0.925 2.30467522688e-38
-0.00684751255778 -0.0770345162751 0.925 2.24935784896e-38
-0.00513563441834 -0.0770345162751 0.925 2.29545566389e-38
-0.00342375627889 -0.0770345162751 0.925 2.32311435285e-38
-0.00171743017665 -0.0772843579495 0.928 2.35091681503e-38
0.0 -0.0772843579495 0.928 2.21247931676e-38
0.00171743017665 -0.0772843579495 0.928 2.35091681503e-38
0.00344226306959 -0.0774509190657 0.93 2.24013800572e-38
0.00516339460438 -0.0774509190657 0.93 2.35077276155e-38
0.00690673428801 -0.0777007607401 0.933 2.22169887974e-38
0.00863341786002 -0.0777007607401 0.933 2.31389450961e-38
0.0103823095809 -0.0778673218564 0.935 2.33233363558e-38
0.012112694511 -0.0778673218564 0.935 2.34155319856e-38
0.0138430794411 -0.0778673218564 0.935 2.32300589235e-38
0.0155734643713 -0.0778673218564 0.935 2.31378632936e-38
0.0173038493014 -0.0778673218564 0.935 2.35077262142e-38
0.0190953066409 -0.0781171635308 0.938 2.32300589235e-38
0.0208312436082 -0.0781171635308 0.938 2.35088066153e-38
0.0225671805756 -0.0781171635308 0.938 2.27690807742e-38
0.0243031175429 -0.0781171635308 0.938 2.35070059468e-38
0.0260390545103 -0.0781171635308 0.938 2.31378660962e-38
0.0278342132079 -0.0782837246471 0.94 2.24006527832e-38
0.0295738515333 -0.0782837246471 0.94 2.30460221923e-38
0.0313134898588 -0.0782837246471 0.94 2.35066458131e-38
0.0330531281843 -0.0782837246471 0.94 2.35077290168e-38
0.0347927665098 -0.0782837246471 0.94 2.24003038599e-38
0.0365324048353 -0.0782837246471 0.94 2.29534776391e-38
0.0382720431608 -0.0782837246471 0.94 2.24003010573e-38
0.0401393783421 -0.0785335663215 0.943 2.25846923171e-38
0.0418845687048 -0.0785335663215 0.943 2.35080863479e-38
0.0436297590675 -0.0785335663215 0.943 2.29534720339e-38
0.0452305964628 -0.0782837246471 0.94 2.29534720339e-38
0.0469702347883 -0.0782837246471 0.94 2.29534748365e-38
0.0487098731137 -0.0782837246471 0.94 2.24924966872e-38
0.0503421720532 -0.0781171635308 0.938 2.27690807742e-38
0.0520781090205 -0.0781171635308 0.938 2.29534720339e-38
0.0538140459879 -0.0781171635308 0.938 2.24924938846e-38
0.0553723177646 -0.0778673218564 0.935 2.31382192235e-38
0.0571027026947 -0.0778673218564 0.935 2.2769436704e-38
0.0588330876248 -0.0778673218564 0.935 2.24006541845e-38
0.0604339250201 -0.0777007607401 0.933 2.19393201054e-38
0.0619607352526 -0.0774509190657 0.93 2.26768851443e-38
0.0636818667874 -0.0774509190657 0.93 2.26768879469e-38
0.0652623467129 -0.0772843579495 0.928 2.24924966872e-38
0.0667632474384 -0.0770345162751 0.925 2.25846923171e-38
0.0684751255778 -0.0770345162751 0.925 2.35066486157e-38
0.0701870037173 -0.0770345162751 0.925 2.26768879469e-38
0.0717434248149 -0.0768679551588 0.923 2.35066486157e-38
0.0732128639962 -0.0766181134844 0.92 2.35070059468e-38
0.0747526289822 -0.0764515523681 0.918 2.27690807742e-38
0.0764515523681 -0.0764515523681 0.918 2.24002982547e-38
0.0778950820425 -0.0762017106937 0.915 2.23081026249e-38
0.0794144895587 -0.0760351495774 0.913 2.21237113651e-38
0.0811041595493 -0.0760351495774 0.913 2.28609260794e-38
0.0825217797166 -0.075785307903 0.91 2.25839874639e-38
0.08420589767 -0.075785307903 0.91 2.23995990068e-38
-0.0417790799978 -0.0735311807962 0.903 2.33254943554e-38
-0.0401079167979 -0.0735311807962 0.903 2.30094048621e-39
-0.0383516223608 -0.073368321038 0.901 2.35080919531e-38
-0.036684160519 -0.073368321038 0.901 2.24924994898e-38
-0.0350944271982 -0.0735311807962 0.903 2.27705255129e-38
-0.0334232639983 -0.0735311807962 0.903 2.29559957725e-38
-0.0317521007983 -0.0735311807962 0.903 2.29549167726e-38
-0.0301808742682 -0.0737754704334 0.906 2.33233363558e-38
-0.0285041590311 -0.0737754704334 0.906 2.32300589235e-38
-0.026827443794 -0.0737754704334 0.906 2.35088080166e-38
-0.0252062489289 -0.0739383301915 0.908 2.29549167726e-38
-0.0235258323337 -0.0739383301915 0.908 2.28627211428e-38
-0.0218454157384 -0.0739383301915 0.908 2.30471124025e-38
-0.020320456185 -0.074508339345 0.915 2.24017429935e-38
-0.0186881572455 -0.0747526289822 0.918 2.31389478987e-38
-0.0169892338596 -0.0747526289822 0.918 2.31389478987e-38
-0.0153236226969 -0.0749154887403 0.92 2.30467522688e-38
-0.0136209979528 -0.0749154887403 0.92 2.35088094179e-38
-0.0119572374691 -0.0751597783775 0.923 2.24017429935e-38
-0.0102490606878 -0.0751597783775 0.923 2.33236992921e-38
-0.00855939069723 -0.0753226381356 0.925 2.30471124025e-38
-0.00684751255778 -0.0753226381356 0.925 2.30471124025e-38
-0.00513563441834 -0.0753226381356 0.925 2.35088094179e-38
-0.00343486035331 -0.0755669277728 0.928 2.30471124025e-38
-0.00171743017665 -0.0755669277728 0.928 2.32315036622e-38
0.0 -0.0755669277728 0.928 2.28623582065e-38
0.00172113153479 -0.0757297875309 0.93 2.35084478829e-38
0.00344226306959 -0.0757297875309 0.93 2.25857713169e-38
0.00518005071601 -0.0759740771681 0.933 2.34155319856e-38
0.00690673428801 -0.0759740771681 0.933 2.34155319856e-38
0.00865192465071 -0.0761369369263 0.935 2.32311407259e-38
0.0103823095809 -0.0761369369263 0.935 2.33233363558e-38
0.012112694511 -0.0761369369263 0.935 2.35077276155e-38
0.0138430794411 -0.0761369369263 0.935 2.35070087494e-38
0.0155734643713 -0.0761369369263 0.935 2.35088066153e-38
0.0173593696735 -0.0763812265635 0.938 2.33222545534e-38
0.0190953066409 -0.0763812265635 0.938 2.35070059468e-38
0.0208312436082 -0.0763812265635 0.938 2.24924938846e-38
0.0225671805756 -0.0763812265635 0.938 2.35066458131e-38
0.0243031175429 -0.0763812265635 0.938 2.24924938846e-38
0.0260390545103 -0.0763812265635 0.938 2.35070059468e-38
0.0278342132079 -0.0765440863216 0.94 2.3138573752e-38
0.0295738515333 -0.0765440863216 0.94 2.34148047117e-38
0.0313134898588 -0.0765440863216 0.94 2.34144501832e-38
0.0330531281843 -0.0765440863216 0.94 2.3322257356e-38
0.0347927665098 -0.0765440863216 0.94 2.35088094179e-38
0.0365324048353 -0.0765440863216 0.94 2.23081082301e-38
0.0382720431608 -0.0765440863216 0.94 2.30456704664e-38
0.0401393783421 -0.0767883759588 0.943 2.26768879469e-38
0.0418845687048 -0.0767883759588 0.943 2.30456704664e-38
0.0434909581373 -0.0765440863216 0.94 2.28612764041e-38
0.0452305964628 -0.0765440863216 0.94 2.28612764041e-38
0.0469702347883 -0.0765440863216 0.94 2.24924938846e-38
0.0486062350858 -0.0763812265635 0.938 2.23081026249e-38
0.0503421720532 -0.0763812265635 0.938 2.21237113651e-38
0.0520781090205 -0.0763812265635 0.938 2.27690807742e-38
0.0538140459879 -0.0763812265635 0.938 2.24924966872e-38
0.0553723177646 -0.0761369369263 0.935 2.18474804054e-38
0.0571027026947 -0.0761369369263 0.935 2.24006541845e-38
0.0588330876248 -0.0761369369263 0.935 2.25850454443e-38
0.0604339250201 -0.0759740771681 0.933 2.28612764041e-38
0.0619607352526 -0.0757297875309 0.93 2.21237113651e-38
0.0636818667874 -0.0757297875309 0.93 2.26768879469e-38
0.0652623467129 -0.0755669277728 0.928 2.31378660962e-38
0.0667632474384 -0.0753226381356 0.925 2.29534748365e-38
0.0684751255778 -0.0753226381356 0.925 2.29534720339e-38
0.0701870037173 -0.0753226381356 0.925 2.28612764041e-38
0.0717434248149 -0.0751597783775 0.923 2.26768851443e-38
0.0732128639962 -0.0749154887403 0.92 2.24002982547e-38
0.0747526289822 -0.0747526289822 0.918 2.32300589235e-38
0.0764515523681 -0.0747526289822 0.918 2.35073660805e-38
0.0781504757541 -0.0747526289822 0.918 2.32300589235e-38
0.0795884533912 -0.074508339345 0.915 2.25846895145e-38
0.08128182474 -0.074508339345 0.915 2.30456704664e-38
0.0825217797166 -0.0741011899496 0.91 2.23999479301e-38
0.08420589767 -0.0741011899496 0.91 2.2676536221e-38
0.0858900156234 -0.0741011899496 0.91 2.31378688988e-38
-0.0417790799978 -0.0718600175963 0.903 2.32332987256e-38
-0.0401079167979 -0.0718600175963 0.903 2.29987269678e-39
-0.0383516223608 -0.0717008591963 0.901 2.35041458966e-38
-0.036684160519 -0.0717008591963 0.901 2.17542155848e-38
-0.0350944271982 -0.0718600175963 0.903 2.35095268827e-38
-0.0334232639983 -0.0718600175963 0.903 2.24950176231e-38
-0.0317521007983 -0.0718600175963 0.903 2.22184279309e-38
-0.0301808742682 -0.0720987551962 0.906 2.27705143025e-38
-0.0285041590311 -0.0720987551962 0.906 2.3046729848e-38
-0.026827443794 -0.0720987551962 0.906 2.33240524193e-38
-0.0252062489289 -0.0722579135962 0.908 2.35091681503e-38
-0.0235258323337 -0.0722579135962 0.908 2.28638001426e-38
-0.0218454157384 -0.0722579135962 0.908 2.33236992921e-38
-0.020320456185 -0.0728149679962 0.915 2.35080905518e-38
-0.0186881572455 -0.0730537055962 0.918 2.35084506855e-38
-0.0169892338596 -0.0730537055962 0.918 2.31389478987e-38
-0.0153236226969 -0.0732128639962 0.92 2.30467522688e-38
-0.0136654142505 -0.0734516015962 0.923 2.32315036622e-38
-0.0119572374691 -0.0734516015962 0.923 2.32315036622e-38
-0.0102490606878 -0.0734516015962 0.923 2.35084506855e-38
-0.00855939069723 -0.0736107599962 0.925 2.30471124025e-38
-0.00684751255778 -0.0736107599962 0.925 2.2678329883e-38
-0.00515229052996 -0.0738494975962 0.928 2.32315036622e-38
-0.00343486035331 -0.0738494975962 0.928 2.29549167726e-38
-0.00171743017665 -0.0738494975962 0.928 2.25861342532e-38
0.0 -0.0740086559961 0.93 2.25857713169e-38
0.001726683572 -0.0742473935961 0.933 2.35084450803e-38
0.00345336714401 -0.0742473935961 0.933 2.32311379233e-38
0.00518005071601 -0.0742473935961 0.933 2.35080877492e-38
0.00692153972057 -0.0744065519961 0.935 2.27701625766e-38
0.00865192465071 -0.0744065519961 0.935 2.35080905518e-38
0.0103823095809 -0.0744065519961 0.935 2.34155347882e-38
0.012112694511 -0.0744065519961 0.935 2.33233391584e-38
0.0138874957388 -0.0746452895961 0.938 2.32300617261e-38
0.0156234327062 -0.0746452895961 0.938 2.34144529858e-38
0.0173593696735 -0.0746452895961 0.938 2.32300617261e-38
0.0190953066409 -0.0746452895961 0.938 2.35066458131e-38
0.0208312436082 -0.0746452895961 0.938 2.31378632936e-38
0.0225671805756 -0.0746452895961 0.938 2.35066458131e-38
0.0243031175429 -0.0746452895961 0.938 2.35073618766e-38
0.0260390545103 -0.0746452895961 0.938 2.31382192235e-38
0.0278342132079 -0.0748044479961 0.94 2.34148047117e-38
0.0295738515333 -0.0748044479961 0.94 2.34148047117e-38
0.0313134898588 -0.0748044479961 0.94 2.32300589235e-38
0.0330531281843 -0.0748044479961 0.94 2.35070087494e-38
0.0347927665098 -0.0748044479961 0.94 2.31378688988e-38
0.0365324048353 -0.0748044479961 0.94 2.29534748365e-38
0.0382720431608 -0.0748044479961 0.94 2.29534748365e-38
0.0401393783421 -0.0750431855961 0.943 2.35084464816e-38
0.0418845687048 -0.0750431855961 0.943 2.24003010573e-38
0.0434909581373 -0.0748044479961 0.94 2.31378660962e-38
0.0452305964628 -0.0748044479961 0.94 2.30456676638e-38
0.0469702347883 -0.0748044479961 0.94 2.2124067295e-38
0.0486062350858 -0.0746452895961 0.938 2.15708935158e-38
0.0503421720532 -0.0746452895961 0.938 2.21237113651e-38
0.0520781090205 -0.0746452895961 0.938 2.24924966872e-38
0.0538140459879 -0.0746452895961 0.938 2.28612792067e-38
0.0553723177646 -0.0744065519961 0.935 2.28612764041e-38
0.0571027026947 -0.0744065519961 0.935 2.23084585547e-38
0.0588330876248 -0.0744065519961 0.935 2.20318716651e-38
0.0604339250201 -0.0742473935961 0.933 2.33222545534e-38
0.0619607352526 -0.0740086559961 0.93 2.24002982547e-38
0.0636818667874 -0.0740086559961 0.93 2.31378660962e-38
0.0652623467129 -0.0738494975962 0.928 2.27690835768e-38
0.0667632474384 -0.0736107599962 0.925 2.3322257356e-38
0.0684751255778 -0.0736107599962 0.925 2.26772410741e-38
0.0701870037173 -0.0736107599962 0.925 2.28616323339e-38
0.0717434248149 -0.0734516015962 0.923 2.32304148533e-38
0.0732128639962 -0.0732128639962 0.92 2.25850454443e-38
0.0749154887403 -0.0732128639962 0.92 2.35066458131e-38
0.0764515523681 -0.0730537055962 0.918 2.23081026249e-38
0.0781504757541 -0.0730537055962 0.918 2.32300589235e-38
0.0795884533912 -0.0728149679962 0.915 2.32300617261e-38
0.08128182474 -0.0728149679962 0.915 2.3230413452e-38
0.0825217797166 -0.0724170719962 0.91 2.32304148533e-38
0.0840208297631 -0.0722579135962 0.908 2.32300617261e-38
0.0857012463583 -0.0722579135962 0.908 2.28612764041e-38
-0.0417790799978 -0.0701888543963 0.903 2.35098856151e-38
-0.0401079167979 -0.0701888543963 0.903 2.48318215409e-39
-0.0383516223608 -0.0700333973545 0.901 2.35073744883e-38
-0.036684160519 -0.0700333973545 0.901 2.35088038127e-38
-0.0350944271982 -0.0701888543963 0.903 2.22180593895e-38
-0.0334232639983 -0.0701888543963 0.903 2.34176913866e-38
-0.0317521007983 -0.0701888543963 0.903 2.29563601101e-38
-0.0301808742682 -0.0704220399591 0.906 2.33240552219e-38
-0.0285670821194 -0.070577497001 0.908 2.3415157839e-38
-0.0268866655242 -0.070577497001 0.908 2.28641532698e-38
-0.025261769301 -0.0707329540428 0.91 2.30489102684e-38
-0.0235776513476 -0.0707329540428 0.91 2.23106263634e-38
-0.0218935333942 -0.0707329540428 0.91 2.34169739218e-38
-0.020320456185 -0.0711215966475 0.915 2.30471124025e-38
-0.0186881572455 -0.0713547822102 0.918 2.33233391584e-38
-0.017026247441 -0.0715102392521 0.92 2.31389478987e-38
-0.0153236226969 -0.0715102392521 0.92 2.35084506855e-38
-0.0136654142505 -0.0717434248149 0.923 2.35080905518e-38
-0.0119831469761 -0.0718988818567 0.925 2.35091681503e-38
-0.0102712688367 -0.0718988818567 0.925 2.31393080324e-38
-0.00855939069723 -0.0718988818567 0.925 2.32315036622e-38
-0.00686972070662 -0.0721320674195 0.928 2.33236992921e-38
-0.00515229052996 -0.0721320674195 0.928 2.33236992921e-38
-0.00343486035331 -0.0721320674195 0.928 2.35084506855e-38
-0.00172113153479 -0.0722875244614 0.93 2.35084506855e-38
0.0 -0.0722875244614 0.93 2.30467466636e-38
0.001726683572 -0.0725207100241 0.933 2.35077248129e-38
0.00345336714401 -0.0725207100241 0.933 2.32311379233e-38
0.00519115479043 -0.072676167066 0.935 2.31389450961e-38
0.00692153972057 -0.072676167066 0.935 2.28623582065e-38
0.00865192465071 -0.072676167066 0.935 2.32311435285e-38
0.0103823095809 -0.072676167066 0.935 2.35084506855e-38
0.012112694511 -0.072676167066 0.935 2.32307875987e-38
0.0138874957388 -0.0729093526288 0.938 2.35080919531e-38
0.0156234327062 -0.0729093526288 0.938 2.35073716857e-38
0.0173593696735 -0.0729093526288 0.938 2.34144529858e-38
0.0190953066409 -0.0729093526288 0.938 2.29534720339e-38
0.0208312436082 -0.0729093526288 0.938 2.35088066153e-38
0.0225671805756 -0.0729093526288 0.938 2.2769436704e-38
0.0243031175429 -0.0729093526288 0.938 2.33226104832e-38
0.0260390545103 -0.0729093526288 0.938 2.26772396728e-38
0.0278342132079 -0.0730648096706 0.94 2.30460235936e-38
0.0295738515333 -0.0730648096706 0.94 2.35073660805e-38
0.0313134898588 -0.0730648096706 0.94 2.35077290168e-38
0.0330531281843 -0.0730648096706 0.94 2.33222601586e-38
0.0347927665098 -0.0730648096706 0.94 2.34144557884e-38
0.0365324048353 -0.0730648096706 0.94 2.24003010573e-38
0.0383941879794 -0.0732979952334 0.943 2.30456676638e-38
0.0401393783421 -0.0732979952334 0.943 2.22162629248e-38
0.0418845687048 -0.0732979952334 0.943 2.35088094179e-38
0.0434909581373 -0.0730648096706 0.94 2.3322257356e-38
0.0452305964628 -0.0730648096706 0.94 2.2215906995e-38
0.0469702347883 -0.0730648096706 0.94 2.24006541845e-38
0.0486062350858 -0.0729093526288 0.938 2.21240658937e-38
0.0503421720532 -0.0729093526288 0.938 2.28616323339e-38
0.0520781090205 -0.0729093526288 0.938 2.27690835768e-38
0.0538140459879 -0.0729093526288 0.938 2.35066514183e-38
0.0553723177646 -0.072676167066 0.935 2.29534720339e-38
0.0571027026947 -0.072676167066 0.935 2.25850454443e-38
0.0588330876248 -0.072676167066 0.935 2.2124067295e-38
0.0604339250201 -0.0725207100241 0.933 2.27690807742e-38
0.0621606085921 -0.0725207100241 0.933 2.31378632936e-38
0.0636818667874 -0.0722875244614 0.93 2.23081054275e-38
0.0652623467129 -0.0721320674195 0.928 2.23081054275e-38
0.0667632474384 -0.0718988818567 0.925 2.24003010573e-38
0.0684751255778 -0.0718988818567 0.925 2.21240658937e-38
0.0701870037173 -0.0718988818567 0.925 2.26772396728e-38
0.0717434248149 -0.0717434248149 0.923 2.3230413452e-38
0.0732128639962 -0.0715102392521 0.92 2.24928498144e-38
0.0749154887403 -0.0715102392521 0.92 2.33226104832e-38
0.0764515523681 -0.0713547822102 0.918 2.31378632936e-38
0.0781504757541 -0.0713547822102 0.918 2.33222545534e-38
0.07984939914 -0.0713547822102 0.918 2.31378660962e-38
0.08128182474 -0.0711215966475 0.915 2.35073604753e-38
0.0825217797166 -0.0707329540428 0.91 2.35073618766e-38
0.0840208297631 -0.070577497001 0.908 2.29534776391e-38
0.0855124770932 -0.0704220399591 0.906 2.35066486157e-38
0.0871891923303 -0.0704220399591 0.906 2.35070003416e-38
0.0885716495954 -0.0701888543963 0.903 2.31385681468e-38
0.0902428127953 -0.0701888543963 0.903 2.28619840598e-38
-0.0417790799978 -0.0685176911964 0.903 2.33254943554e-38
-0.0401079167979 -0.0685176911964 0.903 1.84330149101e-38
-0.0383516223608 -0.0683659355127 0.901 1.21640610027e-38
-0.036684160519 -0.0683659355127 0.901 2.35095072646e-38
-0.0350944271982 -0.0685176911964 0.903 2.25879125009e-38
-0.0334232639983 -0.0685176911964 0.903 2.24039037957e-38
-0.0318575895053 -0.068745324722 0.906 2.24950316361e-38
-0.0301808742682 -0.068745324722 0.906 2.31389563064e-38
-0.0285670821194 -0.0688970804057 0.908 2.30456704664e-38
-0.0268866655242 -0.0688970804057 0.908 2.31411030957e-38
-0.025261769301 -0.0690488360894 0.91 2.29567146386e-38
-0.0235776513476 -0.0690488360894 0.91 2.27723233788e-38
-0.0218935333942 -0.0690488360894 0.91 2.3232582662e-38
-0.020320456185 -0.0694282252987 0.915 2.3415894922e-38
-0.0186881572455 -0.0696558588243 0.918 2.35080905518e-38
-0.017026247441 -0.069807614508 0.92 2.33233391584e-38
-0.0153236226969 -0.069807614508 0.92 2.35077304181e-38
-0.0136654142505 -0.0700352480336 0.923 2.30471124025e-38
-0.0119831469761 -0.0701870037173 0.925 2.3232582662e-38
-0.0102712688367 -0.0701870037173 0.925 2.31403870322e-38
-0.00855939069723 -0.0701870037173 0.925 2.35091681503e-38
-0.00686972070662 -0.0704146372428 0.928 2.33247782919e-38
-0.00515229052996 -0.0704146372428 0.928 2.29559957725e-38
