# .PCD v0.7 - Point Cloud Data file format
VERSION 0.7
FIELDS x y z rgb
SIZE 4 4 4 4
TYPE F F F F
COUNT 1 1 1 1
WIDTH 837
HEIGHT 1
VIEWPOINT 0 0 0 1 0 0 0
POINTS 837
DATA ascii
-0.0173242067712 -0.0267737741009 0.851 1.48085788529e-38
-0.0157122653015 -0.0267108510126 0.849 1.5261297749e-38
-0.0141410387714 -0.0267108510126 0.849 1.43454539143e-38
-0.0125698122412 -0.0267108510126 0.849 1.41617394817e-38
-0.0109726762041 -0.0266479279242 0.847 1.58187538963e-38
-0.00940515103207 -0.0266479279242 0.847 1.45258654864e-38
-0.00781911906936 -0.0265850048358 0.845 1.53541688048e-38
-0.00625529525549 -0.0265850048358 0.845 1.46155177595e-38
-0.00469147144162 -0.0265850048358 0.845 1.56282599818e-38
-0.00312764762774 -0.0265850048358 0.845 1.44311643349e-38
-0.00156012245573 -0.0265220817475 0.843 1.54460127087e-38
0.0 -0.0265220817475 0.843 1.48896159431e-38
0.00156012245573 -0.0265220817475 0.843 1.43360918393e-38
0.00312024491147 -0.0265220817475 0.843 1.25865342728e-38
0.00469147144162 -0.0265850048358 0.845 1.12061179582e-38
-0.0251988462126 -0.0251988462126 0.851 2.21219050914e-38
-0.0236239183244 -0.0251988462126 0.851 2.31349710136e-38
-0.0220489904361 -0.0251988462126 0.851 2.2855867392e-38
-0.0204740625478 -0.0251988462126 0.851 2.35048381381e-38
-0.0188991346595 -0.0251988462126 0.851 1.75906551668e-38
-0.0173242067712 -0.0251988462126 0.851 1.05733532288e-38
-0.0157122653015 -0.0251396244824 0.849 1.64655988726e-38
-0.0141410387714 -0.0251396244824 0.849 1.46198771991e-38
-0.0125402013761 -0.0250804027522 0.847 1.39755671717e-38
-0.0109726762041 -0.0250804027522 0.847 1.49886415016e-38
-0.00940515103207 -0.0250804027522 0.847 1.47099036189e-38
-0.00781911906936 -0.025021181022 0.845 1.5447821785e-38
-0.00625529525549 -0.025021181022 0.845 1.47116902744e-38
-0.00469147144162 -0.025021181022 0.845 1.3789378046e-38
-0.00312764762774 -0.025021181022 0.845 1.43393148257e-38
-0.00156382381387 -0.025021181022 0.845 1.4798123765e-38
0.0 -0.0249619592917 0.843 1.49843325089e-38
0.00156012245573 -0.0249619592917 0.843 1.42474947438e-38
0.00312024491147 -0.0249619592917 0.843 1.35088535077e-38
0.0046803673672 -0.0249619592917 0.843 1.636620197e-38
0.00624048982293 -0.0249619592917 0.843 1.42439046172e-38
0.00780061227866 -0.0249619592917 0.843 1.54410058693e-38
0.00933852658556 -0.0249027375615 0.841 1.27669696669e-38
0.0108949476832 -0.0249027375615 0.841 1.23981871475e-38
0.0124513687807 -0.0249027375615 0.841 1.08398367565e-38
0.0140077898783 -0.0249027375615 0.841 8.99987862348e-39
0.0155642109759 -0.0249027375615 0.841 9.46265043483e-39
-0.0251988462126 -0.0236239183244 0.851 2.24903274772e-38
-0.0236239183244 -0.0236239183244 0.851 2.20293465253e-38
-0.022126718957 -0.0237071988825 0.854 2.25817958331e-38
-0.0204740625478 -0.0236239183244 0.851 2.30388223208e-38
-0.0188991346595 -0.0236239183244 0.851 2.34958544136e-38
-0.0173242067712 -0.0236239183244 0.851 1.3435739359e-38
-0.0157492788829 -0.0236239183244 0.851 1.43490552514e-38
-0.0141410387714 -0.0235683979523 0.849 1.64641457261e-38
-0.0125402013761 -0.0235128775802 0.847 1.54499923963e-38
-0.0109726762041 -0.0235128775802 0.847 1.47113483576e-38
-0.00940515103207 -0.0235128775802 0.847 1.50786917435e-38
-0.00781911906936 -0.0234573572081 0.845 1.41578144447e-38
-0.00625529525549 -0.0234573572081 0.845 1.56336605861e-38
-0.00469147144162 -0.0234573572081 0.845 1.47113385485e-38
-0.00312764762774 -0.0234573572081 0.845 1.4800292975e-38
-0.00156382381387 -0.0234573572081 0.845 1.5441699512e-38
0.0 -0.023401836836 0.843 1.49843325089e-38
0.00156012245573 -0.023401836836 0.843 1.50779728774e-38
0.00312024491147 -0.023401836836 0.843 1.43396903737e-38
0.0046803673672 -0.023401836836 0.843 1.45222865701e-38
0.00622568439037 -0.0233463164639 0.841 1.3690730838e-38
0.00778210548797 -0.0233463164639 0.841 1.47956392628e-38
0.00933852658556 -0.0233463164639 0.841 1.50707870189e-38
0.0108949476832 -0.0233463164639 0.841 1.57154375618e-38
0.0124513687807 -0.0233463164639 0.841 1.61778324239e-38
0.0140077898783 -0.0233463164639 0.841 1.53495010796e-38
0.0155642109759 -0.0233463164639 0.841 1.37821753719e-38
0.0171206320735 -0.0233463164639 0.841 1.28616610094e-38
0.0187214694688 -0.023401836836 0.843 1.20337066143e-38
-0.0237627192546 -0.0221785379709 0.856 2.25814413046e-38
-0.0221785379709 -0.0221785379709 0.856 2.31360486121e-38
-0.0205462390315 -0.022126718957 0.854 2.12907024865e-38
-0.018965759106 -0.022126718957 0.854 2.33139770833e-38
-0.0173852791805 -0.022126718957 0.854 1.93405756696e-38
-0.0157492788829 -0.0220489904361 0.851 1.26924121809e-38
-0.0141743509946 -0.0220489904361 0.851 1.48057033884e-38
-0.0125698122412 -0.0219971714221 0.849 1.49893785846e-38
-0.0109726762041 -0.0219453524082 0.847 1.53563660407e-38
-0.00940515103207 -0.0219453524082 0.847 1.48939487579e-38
-0.00783762586006 -0.0219453524082 0.847 1.55393181669e-38
-0.00625529525549 -0.0218935333942 0.845 1.59098957497e-38
-0.00469147144162 -0.0218935333942 0.845 1.47124245548e-38
-0.00312764762774 -0.0218935333942 0.845 1.4432953793e-38
-0.00156382381387 -0.0218935333942 0.845 1.53513087546e-38
0.0 -0.0218417143803 0.843 1.47088246191e-38
0.00156012245573 -0.0218417143803 0.843 1.42482094061e-38
0.00312024491147 -0.0218417143803 0.843 1.41556536425e-38
0.0046803673672 -0.0218417143803 0.843 1.48914236181e-38
0.00622568439037 -0.0217898953663 0.841 1.49821801144e-38
0.00778210548797 -0.0217898953663 0.841 1.55335560277e-38
0.00933852658556 -0.0217898953663 0.841 1.55328385628e-38
0.0108949476832 -0.0217898953663 0.841 1.56239551929e-38
0.0124513687807 -0.0217898953663 0.841 1.40584273511e-38
0.0140077898783 -0.0217898953663 0.841 1.45194040992e-38
0.0155642109759 -0.0217898953663 0.841 1.52555243994e-38
0.0171206320735 -0.0217898953663 0.841 1.60842032657e-38
0.0187214694688 -0.0218417143803 0.843 1.59912845658e-38
0.0293610234403 -0.0216344383245 0.835 1.01937582904e-38
0.0309063404635 -0.0216344383245 0.835 9.27540893403e-39
0.0788111681819 -0.0216344383245 0.835 2.35088024114e-38
0.0803564852051 -0.0216344383245 0.835 2.3508082144e-38
0.0819018022283 -0.0216344383245 0.835 2.35026857436e-38
0.0834471192515 -0.0216344383245 0.835 2.34994473429e-38
0.0849924362746 -0.0216344383245 0.835 6.0665545611e-39
-0.0237627192546 -0.0205943566873 0.856 2.24881666749e-38
-0.0221785379709 -0.0205943566873 0.856 2.20300611875e-38
-0.0205943566873 -0.0205943566873 0.856 2.20315045249e-38
-0.0190101754037 -0.0205943566873 0.856 2.24885324138e-38
-0.01742599412 -0.0205943566873 0.856 2.07285449829e-38
-0.015804799255 -0.0205462390315 0.854 1.39878257306e-38
-0.0141743509946 -0.0204740625478 0.851 1.52713576707e-38
-0.0125994231063 -0.0204740625478 0.851 1.47160286945e-38
-0.0109985857111 -0.020425944892 0.849 1.50815770171e-38
-0.00940515103207 -0.0203778272361 0.847 1.50783400176e-38
-0.00783762586006 -0.0203778272361 0.847 1.5078337215e-38
-0.00627010068805 -0.0203778272361 0.847 1.44347628693e-38
-0.00470257551603 -0.0203778272361 0.847 1.45287493586e-38
-0.00313505034402 -0.0203778272361 0.847 1.46191401161e-38
-0.00156382381387 -0.0203297095803 0.845 1.48935648021e-38
0.0 -0.0203297095803 0.845 1.45251466203e-38
0.00156012245573 -0.0202815919245 0.843 1.42485625333e-38
0.00312024491147 -0.0202815919245 0.843 1.48932130762e-38
0.0046803673672 -0.0202815919245 0.843 1.4707382683e-38
0.00624048982293 -0.0202815919245 0.843 1.31389779755e-38
0.00778210548797 -0.0202334742687 0.841 1.53502381626e-38
0.00933852658556 -0.0202334742687 0.841 1.41509747069e-38
0.0108949476832 -0.0202334742687 0.841 1.49800193122e-38
0.0124513687807 -0.0202334742687 0.841 1.434005331e-38
0.0140077898783 -0.0202334742687 0.841 1.32355036176e-38
0.0155642109759 -0.0202334742687 0.841 1.38794296892e-38
0.0171206320735 -0.0202334742687 0.841 1.50750890052e-38
0.0186770531711 -0.0202334742687 0.841 1.57182948094e-38
0.0202334742687 -0.0202334742687 0.841 1.47952539058e-38
0.0217380763524 -0.0201853566129 0.839 1.47941721033e-38
0.0232352757197 -0.0201372389571 0.837 1.55306581424e-38
0.024784294101 -0.0201372389571 0.837 1.52594662519e-38
0.0278823308637 -0.0201372389571 0.837 1.44325866528e-38
0.0293610234403 -0.0200891213013 0.835 1.45233543595e-38
0.0309063404635 -0.0200891213013 0.835 1.47056016326e-38
0.0324516574867 -0.0200891213013 0.835 1.30446467667e-38
0.0339969745099 -0.0200891213013 0.835 1.55313994293e-38
0.035542291533 -0.0200891213013 0.835 1.39629793075e-38
0.0369987759609 -0.0200410036455 0.833 1.36856581376e-38
0.0385403916259 -0.0200410036455 0.833 1.44239476478e-38
0.0774509190657 -0.0201372389571 0.837 2.34933278725e-38
0.0788111681819 -0.0200891213013 0.835 1.90625384361e-38
0.0803564852051 -0.0200891213013 0.835 1.22339465597e-38
0.0819018022283 -0.0200891213013 0.835 8.81694751676e-39
0.0834471192515 -0.0200891213013 0.835 8.35703015038e-39
0.0849924362746 -0.0200891213013 0.835 1.42485737437e-38
-0.0237627192546 -0.0190101754037 0.856 2.31317382181e-38
-0.0221785379709 -0.0190101754037 0.856 2.15690830382e-38
-0.0205943566873 -0.0190101754037 0.856 2.12946583521e-38
-0.0190101754037 -0.0190101754037 0.856 2.23984947836e-38
-0.01742599412 -0.0190101754037 0.856 2.35012522153e-38
-0.0158418128364 -0.0190101754037 0.856 9.9355340159e-39
-0.0142243193295 -0.018965759106 0.854 1.45391876309e-38
-0.012643839404 -0.018965759106 0.854 1.55490151523e-38
-0.011024495218 -0.0188991346595 0.851 1.50840811374e-38
-0.00944956732974 -0.0188991346595 0.851 1.55414621536e-38
-0.00787463944145 -0.0188991346595 0.851 1.41567298397e-38
-0.0062849061206 -0.0188547183618 0.849 1.39741336433e-38
-0.00471367959045 -0.0188547183618 0.849 1.46212967144e-38
-0.0031424530603 -0.0188547183618 0.849 1.3606779047e-38
-0.00156382381387 -0.0187658857665 0.845 1.5264138181e-38
0.0 -0.0187658857665 0.845 1.56318515097e-38
0.00156382381387 -0.0187658857665 0.845 1.470953788e-38
0.00312024491147 -0.0187214694688 0.843 1.46169807151e-38
0.0046803673672 -0.0187214694688 0.843 1.41552794958e-38
0.00624048982293 -0.0187214694688 0.843 1.36925034806e-38
0.00780061227866 -0.0187214694688 0.843 1.46137437157e-38
0.00933852658556 -0.0186770531711 0.841 1.49818115729e-38
0.0108949476832 -0.0186770531711 0.841 1.43360890367e-38
0.0124513687807 -0.0186770531711 0.841 1.40645370125e-38
0.0140077898783 -0.0186770531711 0.841 1.38819408161e-38
0.0155642109759 -0.0186770531711 0.841 1.48031782486e-38
0.0171206320735 -0.0186770531711 0.841 1.41567298397e-38
0.0186770531711 -0.0186770531711 0.841 1.32336945413e-38
0.0202334742687 -0.0186770531711 0.841 1.42464073362e-38
0.0217380763524 -0.0186326368734 0.839 1.43375239663e-38
0.0232352757197 -0.0185882205758 0.837 1.44282818639e-38
0.024784294101 -0.0185882205758 0.837 1.55339035497e-38
0.0263333124823 -0.0185882205758 0.837 1.47977748417e-38
0.0278823308637 -0.0185882205758 0.837 1.42456772597e-38
0.0293610234403 -0.0185438042781 0.835 1.48924928088e-38
0.0309063404635 -0.0185438042781 0.835 1.43396903737e-38
0.0324516574867 -0.0185438042781 0.835 1.36021281374e-38
0.0339969745099 -0.0185438042781 0.835 1.39712595802e-38
0.035542291533 -0.0185438042781 0.835 1.40641600632e-38
0.0369987759609 -0.0184993879804 0.833 1.38722242125e-38
0.0385403916259 -0.0184993879804 0.833 1.57139788101e-38
0.0400820072909 -0.0184993879804 0.833 1.51629546228e-38
0.041623622956 -0.0184993879804 0.833 1.56246474343e-38
0.0521632402577 -0.0184105553851 0.829 1.35077380741e-38
0.0536974532065 -0.0184105553851 0.829 1.28620155379e-38
0.0712548455405 -0.0185882205758 0.837 1.05632470643e-38
0.0728038639218 -0.0185882205758 0.837 1.03802879316e-38
0.0741752171124 -0.0185438042781 0.835 1.04703395748e-38
0.0757205341356 -0.0185438042781 0.835 1.03774264801e-38
0.0774509190657 -0.0185882205758 0.837 1.11131950544e-38
0.0788111681819 -0.0185438042781 0.835 1.17571253299e-38
0.0803564852051 -0.0185438042781 0.835 1.28634700857e-38
0.0817056302469 -0.0184993879804 0.833 1.41549249673e-38
0.0832472459119 -0.0184993879804 0.833 1.6921872863e-38
0.084788861577 -0.0184993879804 0.833 1.62775824538e-38
-0.0222303569849 -0.0174667090596 0.858 2.11988613852e-38
-0.0205943566873 -0.01742599412 0.856 2.11088293602e-38
-0.0190101754037 -0.01742599412 0.856 2.08304502098e-38
-0.01742599412 -0.01742599412 0.856 2.34065342482e-38
-0.0158418128364 -0.01742599412 0.856 2.266320707e-38
-0.0142243193295 -0.0173852791805 0.854 1.17794326002e-38
-0.012643839404 -0.0173852791805 0.854 1.27885300451e-38
-0.0110633594785 -0.0173852791805 0.854 1.61943705484e-38
-0.00948287955299 -0.0173852791805 0.854 1.5451413313e-38
-0.00787463944145 -0.0173242067712 0.851 1.49872009668e-38
-0.00629971155316 -0.0173242067712 0.851 1.45269430849e-38
-0.00472478366487 -0.0173242067712 0.851 1.49897162976e-38
-0.00314985577658 -0.0173242067712 0.851 1.4989713495e-38
-0.00156752517201 -0.0172427768921 0.847 1.46198463705e-38
0.0 -0.0172020619526 0.845 1.22206132048e-38
0.00156382381387 -0.0172020619526 0.845 1.56311326436e-38
0.00312764762774 -0.0172020619526 0.845 1.46169779125e-38
0.0046803673672 -0.0171613470131 0.843 1.59991892905e-38
0.00624048982293 -0.0171613470131 0.843 1.52612613153e-38
0.00780061227866 -0.0171613470131 0.843 1.59051985973e-38
0.0093607347344 -0.0171613470131 0.843 1.50747260689e-38
0.0109208571901 -0.0171613470131 0.843 1.38758297535e-38
0.0124809796459 -0.0171613470131 0.843 1.5349150755e-38
0.0140411021016 -0.0171613470131 0.843 1.47044974094e-38
0.0156012245573 -0.0171613470131 0.843 1.48896131405e-38
0.0171206320735 -0.0171206320735 0.841 1.442900073e-38
0.0186770531711 -0.0171206320735 0.841 1.47055932248e-38
0.0202334742687 -0.0171206320735 0.841 1.52584096729e-38
0.0217380763524 -0.017079917134 0.839 1.49818255859e-38
0.0232907960918 -0.017079917134 0.839 1.48889110899e-38
0.0248435158313 -0.017079917134 0.839 1.42424542733e-38
0.0263333124823 -0.0170392021945 0.837 1.45193914875e-38
0.0278823308637 -0.0170392021945 0.837 1.433571489e-38
0.029431349245 -0.0170392021945 0.837 1.47052218807e-38
0.0309063404635 -0.0169984872549 0.835 1.52587642014e-38
0.0324516574867 -0.0169984872549 0.835 1.38758325561e-38
0.0339969745099 -0.0169984872549 0.835 1.50747232663e-38
0.035542291533 -0.0169984872549 0.835 1.29549300339e-38
0.0369987759609 -0.0169577723154 0.833 1.38786898036e-38
0.0385403916259 -0.0169577723154 0.833 1.36021057166e-38
0.0400820072909 -0.0169577723154 0.833 1.49843212985e-38
0.041623622956 -0.0169577723154 0.833 1.47077344089e-38
0.043165238621 -0.0169577723154 0.833 1.4061286e-38
0.044706854286 -0.0169577723154 0.833 1.41527655664e-38
0.0493317012812 -0.0169577723154 0.833 1.41531214962e-38
0.0507511721276 -0.0169170573759 0.831 1.48903193949e-38
0.0521632402577 -0.0168763424363 0.829 1.58108337574e-38
0.0536974532065 -0.0168763424363 0.829 1.48870823954e-38
0.0553649150483 -0.0169170573759 0.831 1.52547985268e-38
0.0569028293552 -0.0169170573759 0.831 1.55310322891e-38
0.0584407436621 -0.0169170573759 0.831 1.52547971255e-38
0.059978657969 -0.0169170573759 0.831 1.54402575759e-38
0.0615165722759 -0.0169170573759 0.831 1.59012455343e-38
0.0630544865828 -0.0169170573759 0.831 1.47949021798e-38
0.0645924008897 -0.0169170573759 0.831 1.50707702033e-38
0.0662894735965 -0.0169577723154 0.833 1.51629658332e-38
0.0678310892616 -0.0169577723154 0.833 1.48870978097e-38
0.0695392660429 -0.0169984872549 0.835 1.44271958576e-38
0.0710845830661 -0.0169984872549 0.835 1.47977748417e-38
0.0728038639218 -0.0170392021945 0.837 1.44297083858e-38
0.0741752171124 -0.0169984872549 0.835 1.48885229303e-38
0.0757205341356 -0.0169984872549 0.835 1.59012343239e-38
0.0774509190657 -0.0170392021945 0.837 1.36878203411e-38
0.0788111681819 -0.0169984872549 0.835 1.62696623149e-38
0.0803564852051 -0.0169984872549 0.835 1.5903037795e-38
0.0817056302469 -0.0169577723154 0.833 1.45255039514e-38
0.0832472459119 -0.0169577723154 0.833 1.46227372492e-38
0.084788861577 -0.0169577723154 0.833 1.45344974849e-38
-0.0205943566873 -0.0158418128364 0.856 2.23966899112e-38
-0.0190101754037 -0.0158418128364 0.856 2.25789301778e-38
-0.01742599412 -0.0158418128364 0.856 2.12860347614e-38
-0.0158788264178 -0.0158788264178 0.858 2.34976452731e-38
-0.0142576315527 -0.0158418128364 0.856 2.09129138219e-38
-0.0126734502691 -0.0158418128364 0.856 1.13173530303e-38
-0.0110633594785 -0.015804799255 0.854 1.35239314792e-38
-0.00948287955299 -0.015804799255 0.854 1.50840699271e-38
-0.0079023996275 -0.015804799255 0.854 1.48035299745e-38
-0.006321919702 -0.015804799255 0.854 1.5725490477e-38
-0.00472478366487 -0.0157492788829 0.851 1.44351117926e-38
-0.00314985577658 -0.0157492788829 0.851 1.46198589822e-38
-0.00157122653015 -0.0157122653015 0.849 1.48957270057e-38
0.0 -0.0156752517201 0.847 1.49861275722e-38
0.00156752517201 -0.0156752517201 0.847 1.4893569006e-38
0.00312764762774 -0.0156382381387 0.845 1.39716085035e-38
0.00469147144162 -0.0156382381387 0.845 1.48928389295e-38
0.00624048982293 -0.0156012245573 0.843 1.4062718127e-38
0.00780061227866 -0.0156012245573 0.843 1.47077344089e-38
0.0093607347344 -0.0156012245573 0.843 1.42453255338e-38
0.0109208571901 -0.0156012245573 0.843 1.47063092883e-38
0.0124809796459 -0.0156012245573 0.843 1.58086897707e-38
0.0140411021016 -0.0156012245573 0.843 1.59001637319e-38
0.0156012245573 -0.0156012245573 0.843 1.57168556759e-38
0.0171206320735 -0.0155642109759 0.841 1.48878236823e-38
0.0186770531711 -0.0155642109759 0.841 1.40591476186e-38
0.0202334742687 -0.0155642109759 0.841 1.47956364602e-38
0.0217898953663 -0.0155642109759 0.841 1.47034408304e-38
0.0232907960918 -0.0155271973945 0.839 1.52562544759e-38
0.0248435158313 -0.0155271973945 0.839 1.50758148778e-38
0.0263962355707 -0.0155271973945 0.839 1.4707382683e-38
0.0278823308637 -0.0154901838131 0.837 1.38761786768e-38
0.029431349245 -0.0154901838131 0.837 1.48888914717e-38
0.0309803676263 -0.0154901838131 0.837 1.51629658332e-38
0.0325293860076 -0.0154901838131 0.837 1.53455620296e-38
0.0339969745099 -0.0154531702318 0.835 1.60820368583e-38
0.035542291533 -0.0154531702318 0.835 1.58054359557e-38
0.0370876085562 -0.0154531702318 0.835 1.46112339901e-38
0.0385403916259 -0.0154161566504 0.833 1.35063255653e-38
0.0400820072909 -0.0154161566504 0.833 1.40602070002e-38
0.041623622956 -0.0154161566504 0.833 1.43371428131e-38
0.043165238621 -0.0154161566504 0.833 1.47052022626e-38
0.044706854286 -0.0154161566504 0.833 1.47966902367e-38
0.0462484699511 -0.0154161566504 0.833 1.47041484861e-38
0.0477900856161 -0.0154161566504 0.833 1.47956364602e-38
0.0493317012812 -0.0154161566504 0.833 1.48906977455e-38
0.0507511721276 -0.015379143069 0.831 1.41545634323e-38
0.0522890864345 -0.015379143069 0.831 1.4521901213e-38
0.0538270007414 -0.015379143069 0.831 1.38747395433e-38
0.0553649150483 -0.015379143069 0.831 1.63629509575e-38
0.0569028293552 -0.015379143069 0.831 1.43346499031e-38
0.0584407436621 -0.015379143069 0.831 1.52569551251e-38
0.059978657969 -0.015379143069 0.831 1.48892403951e-38
0.0615165722759 -0.015379143069 0.831 1.44304426662e-38
0.0630544865828 -0.015379143069 0.831 1.28638386272e-38
0.0645924008897 -0.015379143069 0.831 1.36935936908e-38
0.0662894735965 -0.0154161566504 0.833 1.4246401731e-38
0.0678310892616 -0.0154161566504 0.833 1.42471191959e-38
0.0695392660429 -0.0154531702318 0.835 1.35109946918e-38
0.0710845830661 -0.0154531702318 0.835 1.40663292732e-38
0.0726299000892 -0.0154531702318 0.835 1.46205848548e-38
0.0741752171124 -0.0154531702318 0.835 1.52659290405e-38
0.0757205341356 -0.0154531702318 0.835 1.43421678694e-38
0.0774509190657 -0.0154901838131 0.837 1.21269616258e-38
0.0788111681819 -0.0154531702318 0.835 1.6181419748e-38
0.0803564852051 -0.0154531702318 0.835 1.55374978802e-38
0.0817056302469 -0.0154161566504 0.833 1.48960927446e-38
0.0832472459119 -0.0154161566504 0.833 1.42568442072e-38
0.084788861577 -0.0154161566504 0.833 1.52753163389e-38
-0.0206424743431 -0.014290943776 0.858 2.19324747624e-38
-0.0190545917013 -0.014290943776 0.858 2.2023598399e-38
-0.0174667090596 -0.014290943776 0.858 2.22072721939e-38
-0.0159158399992 -0.0143242559993 0.86 2.22990992822e-38
-0.0143242559993 -0.0143242559993 0.86 2.25760322926e-38
-0.0127030611342 -0.014290943776 0.858 2.20145670304e-38
-0.0111151784924 -0.014290943776 0.858 1.42625783205e-38
-0.00950508770183 -0.0142576315527 0.856 1.4532338084e-38
-0.00792090641819 -0.0142576315527 0.856 1.46187869889e-38
-0.006321919702 -0.0142243193295 0.854 1.51708873734e-38
-0.0047414397765 -0.0142243193295 0.854 1.50801322784e-38
-0.00314985577658 -0.0141743509946 0.851 1.49879366485e-38
-0.00157492788829 -0.0141743509946 0.851 1.53560003018e-38
0.0 -0.0141410387714 0.849 1.52623613346e-38
0.00157122653015 -0.0141410387714 0.849 1.51697999658e-38
0.00313505034402 -0.0141077265481 0.847 1.48013691723e-38
0.00469147144162 -0.0140744143248 0.845 1.44318607802e-38
0.00625529525549 -0.0140744143248 0.845 1.45236962764e-38
0.00781911906936 -0.0140744143248 0.845 1.55374950776e-38
0.0093607347344 -0.0140411021016 0.843 1.47063064857e-38
0.0109208571901 -0.0140411021016 0.843 1.5074735878e-38
0.0124809796459 -0.0140411021016 0.843 1.35999561248e-38
0.0140411021016 -0.0140411021016 0.843 1.42464045336e-38
0.0156012245573 -0.0140411021016 0.843 1.41545746427e-38
0.0171206320735 -0.0140077898783 0.841 1.45240802321e-38
0.0186770531711 -0.0140077898783 0.841 1.35106485711e-38
0.0202815919245 -0.0140411021016 0.843 1.39709078543e-38
0.0217898953663 -0.0140077898783 0.841 1.3877268887e-38
0.0232907960918 -0.0139744776551 0.839 1.47977832495e-38
0.0248435158313 -0.0139744776551 0.839 1.47030764928e-38
0.0263962355707 -0.0139744776551 0.839 1.47023506202e-38
0.0279489553102 -0.0139744776551 0.839 1.36885504176e-38
0.029431349245 -0.0139411654318 0.837 1.49803682355e-38
0.0309803676263 -0.0139411654318 0.837 1.38754640146e-38
0.0325293860076 -0.0139411654318 0.837 1.40605713378e-38
0.0339969745099 -0.0139078532086 0.835 1.4246753457e-38
0.035542291533 -0.0139078532086 0.835 1.34184165074e-38
0.0370876085562 -0.0139078532086 0.835 1.5257654373e-38
0.0385403916259 -0.0138745409853 0.833 1.52562264499e-38
0.0400820072909 -0.0138745409853 0.833 1.44268427304e-38
0.041623622956 -0.0138745409853 0.833 1.45190523733e-38
0.043165238621 -0.0138745409853 0.833 1.36907336406e-38
0.044706854286 -0.0138745409853 0.833 1.461375913e-38
0.0462484699511 -0.0138745409853 0.833 1.42467590622e-38
0.0477900856161 -0.0138745409853 0.833 1.36024546399e-38
0.0494501447416 -0.0139078532086 0.835 1.52573222653e-38
0.0508733169462 -0.0138745409853 0.833 1.42424542733e-38
0.0524149326112 -0.0138745409853 0.833 1.41495327708e-38
0.0539565482763 -0.0138745409853 0.833 1.45179593604e-38
0.0554981639413 -0.0138745409853 0.833 1.48867474851e-38
0.0570397796063 -0.0138745409853 0.833 1.33208609109e-38
0.0585813952714 -0.0138745409853 0.833 1.48903320066e-38
0.059978657969 -0.0138412287621 0.831 1.40616377259e-38
0.0615165722759 -0.0138412287621 0.831 1.46119528562e-38
0.0632062422665 -0.0138745409853 0.833 1.45179593604e-38
0.0647478579315 -0.0138745409853 0.833 1.46101409773e-38
0.0662894735965 -0.0138745409853 0.833 1.55324490019e-38
0.0678310892616 -0.0138745409853 0.833 1.42427821771e-38
0.0695392660429 -0.0139078532086 0.835 1.45208138054e-38
0.0710845830661 -0.0139078532086 0.835 1.43375127559e-38
0.0726299000892 -0.0139078532086 0.835 1.43386001635e-38
0.0741752171124 -0.0139078532086 0.835 1.47991929557e-38
0.0759019006844 -0.0139411654318 0.837 1.47055553898e-38
0.0774509190657 -0.0139411654318 0.837 1.56253606953e-38
0.0788111681819 -0.0139078532086 0.835 1.52573082523e-38
0.0803564852051 -0.0139078532086 0.835 1.56297019179e-38
0.0819018022283 -0.0139078532086 0.835 1.45305612375e-38
0.0832472459119 -0.0138745409853 0.833 1.43548103841e-38
0.084788861577 -0.0138745409853 0.833 1.7680692797e-38
-0.0175074239991 -0.0127326719993 0.86 2.16551690067e-38
-0.0159158399992 -0.0127326719993 0.86 2.20246675897e-38
-0.0143242559993 -0.0127326719993 0.86 2.2301253078e-38
-0.0127326719993 -0.0127326719993 0.86 2.34979927951e-38
-0.0111410879994 -0.0127326719993 0.86 1.7865437184e-38
-0.0095495039995 -0.0127326719993 0.86 1.28800236245e-38
-0.00795791999959 -0.0127326719993 0.86 1.61929314149e-38
-0.00635153056711 -0.0127030611342 0.858 1.49890114444e-38
-0.00475254385092 -0.0126734502691 0.856 1.57251345472e-38
-0.003160959851 -0.012643839404 0.854 1.36053399135e-38
-0.0015804799255 -0.012643839404 0.854 1.53570736965e-38
0.0 -0.0125994231063 0.851 1.4712054612e-38
0.00157492788829 -0.0125994231063 0.851 1.44336726591e-38
0.0031424530603 -0.0125698122412 0.849 1.48021020514e-38
0.00470257551603 -0.0125402013761 0.847 1.47098924085e-38
0.00625529525549 -0.012510590511 0.845 1.48024257513e-38
0.00781911906936 -0.012510590511 0.845 1.41559773424e-38
0.00938294288323 -0.012510590511 0.845 1.45233459517e-38
0.0109467666971 -0.012510590511 0.845 1.40598804977e-38
0.0124809796459 -0.0124809796459 0.843 1.31386178418e-38
0.0140411021016 -0.0124809796459 0.843 1.45215494871e-38
0.0156012245573 -0.0124809796459 0.843 1.2492179242e-38
0.0171613470131 -0.0124809796459 0.843 1.58108673886e-38
0.0187214694688 -0.0124809796459 0.843 1.48889110899e-38
0.0202815919245 -0.0124809796459 0.843 1.47970783964e-38
0.0217898953663 -0.0124513687807 0.841 1.33226713886e-38
0.0233463164639 -0.0124513687807 0.841 1.38762151105e-38
0.0249027375615 -0.0124513687807 0.841 1.34119887514e-38
0.0263962355707 -0.0124217579156 0.839 1.4886390154e-38
0.0279489553102 -0.0124217579156 0.839 1.470342962e-38
0.0295016750496 -0.0124217579156 0.839 1.47963413134e-38
0.0309803676263 -0.0123921470505 0.837 1.4244246534e-38
0.0325293860076 -0.0123921470505 0.837 1.29531545887e-38
0.0340784043889 -0.0123921470505 0.837 1.45201257679e-38
0.035542291533 -0.0123625361854 0.835 1.45201285705e-38
0.0370876085562 -0.0123625361854 0.835 1.47037827472e-38
0.0386329255794 -0.0123625361854 0.835 1.50725652667e-38
0.0401782426026 -0.0123625361854 0.835 1.42438962094e-38
0.0417235596257 -0.0123625361854 0.835 1.40595133575e-38
0.0432688766489 -0.0123625361854 0.835 1.42446262859e-38
0.0448141936721 -0.0123625361854 0.835 1.41527837832e-38
0.0463595106953 -0.0123625361854 0.835 1.41524138404e-38
0.0479048277184 -0.0123625361854 0.835 1.44289923222e-38
0.0494501447416 -0.0123625361854 0.835 1.46130290535e-38
0.0509954617648 -0.0123625361854 0.835 1.43367966924e-38
0.052540778788 -0.0123625361854 0.835 1.4798123765e-38
0.0540860958111 -0.0123625361854 0.835 1.45215368754e-38
0.0556314128343 -0.0123625361854 0.835 1.41524054327e-38
0.0571767298575 -0.0123625361854 0.835 1.40587790771e-38
0.0587220468807 -0.0123625361854 0.835 1.50722121394e-38
0.0602673639038 -0.0123625361854 0.835 1.40584119369e-38
0.0616646266014 -0.0123329253203 0.833 1.49789375098e-38
0.0632062422665 -0.0123329253203 0.833 1.49789375098e-38
0.0647478579315 -0.0123329253203 0.833 1.45183110864e-38
0.0662894735965 -0.0123329253203 0.833 1.44275475835e-38
0.0679939490197 -0.0123625361854 0.835 1.42431535212e-38
0.0695392660429 -0.0123625361854 0.835 1.49810814964e-38
0.0710845830661 -0.0123625361854 0.835 1.47977748417e-38
0.0726299000892 -0.0123625361854 0.835 1.49818115729e-38
0.0741752171124 -0.0123625361854 0.835 1.40616377259e-38
0.0759019006844 -0.0123921470505 0.837 1.47984881026e-38
0.0774509190657 -0.0123921470505 0.837 1.57175815485e-38
0.0788111681819 -0.0123625361854 0.835 1.51647749095e-38
0.0803564852051 -0.0123625361854 0.835 1.5722987758e-38
0.0819018022283 -0.0123625361854 0.835 1.39813405213e-38
0.0834471192515 -0.0123625361854 0.835 1.51910394466e-38
-0.0175074239991 -0.0111410879994 0.86 2.19324719598e-38
-0.0159158399992 -0.0111410879994 0.86 2.14725728103e-38
-0.0143242559993 -0.0111410879994 0.86 2.16569640701e-38
-0.0127326719993 -0.0111410879994 0.86 2.1007641598e-38
-0.0111410879994 -0.0111410879994 0.86 2.26635629998e-38
-0.0095495039995 -0.0111410879994 0.86 1.76792340453e-38
-0.00795791999959 -0.0111410879994 0.86 1.42618664609e-38
-0.00636633599967 -0.0111410879994 0.86 1.56390415722e-38
-0.00476364792533 -0.0111151784924 0.858 1.42521512586e-38
-0.00316836256728 -0.0110892689855 0.856 1.60027920288e-38
-0.00158418128364 -0.0110892689855 0.856 1.50804812017e-38
0.0 -0.0110633594785 0.854 1.5171960768e-38
0.00157492788829 -0.011024495218 0.851 1.54471169319e-38
0.00314985577658 -0.011024495218 0.851 1.52627284748e-38
0.00471367959045 -0.0109985857111 0.849 1.51705160293e-38
0.00627010068805 -0.0109726762041 0.847 1.52637598304e-38
0.00781911906936 -0.0109467666971 0.845 1.45254675176e-38
0.00938294288323 -0.0109467666971 0.845 1.42471079855e-38
0.0109467666971 -0.0109467666971 0.845 1.39680393963e-38
0.012510590511 -0.0109467666971 0.845 1.48892628158e-38
0.0140744143248 -0.0109467666971 0.845 1.48881866186e-38
0.0156382381387 -0.0109467666971 0.845 1.5255898546e-38
0.0172020619526 -0.0109467666971 0.845 1.47027247669e-38
0.0187658857665 -0.0109467666971 0.845 1.38740360914e-38
0.0203297095803 -0.0109467666971 0.845 1.42438934068e-38
0.0218417143803 -0.0109208571901 0.843 1.34144970756e-38
0.023401836836 -0.0109208571901 0.843 1.35077829157e-38
0.0249619592917 -0.0109208571901 0.843 1.41502670512e-38
0.0264591586591 -0.0108949476832 0.841 1.46108808629e-38
0.0280155797567 -0.0108949476832 0.841 1.44275587939e-38
0.0295720008543 -0.0108949476832 0.841 1.4520830621e-38
0.0311284219519 -0.0108949476832 0.841 1.39683757079e-38
0.0326071145285 -0.0108690381762 0.839 1.38751080847e-38
0.034159834268 -0.0108690381762 0.839 1.48878320901e-38
0.0356274227702 -0.0108431286692 0.837 1.48871188292e-38
0.0371764411516 -0.0108431286692 0.837 1.43346499031e-38
0.0387254595329 -0.0108431286692 0.837 1.38743850147e-38
0.0402744779142 -0.0108431286692 0.837 1.50736540756e-38
0.0418234962955 -0.0108431286692 0.837 1.41527809806e-38
0.0433725146768 -0.0108431286692 0.837 1.47059575624e-38
0.0449215330581 -0.0108431286692 0.837 1.39676708548e-38
0.0464705514394 -0.0108431286692 0.837 1.45194040992e-38
0.0480195698208 -0.0108431286692 0.837 1.47956280525e-38
0.0495685882021 -0.0108431286692 0.837 1.44286349911e-38
0.0511176065834 -0.0108431286692 0.837 1.51672706221e-38
0.0526666249647 -0.0108431286692 0.837 1.44307761752e-38
0.054215643346 -0.0108431286692 0.837 1.42460289857e-38
0.0557646617273 -0.0108431286692 0.837 1.39683743066e-38
0.0573136801086 -0.0108431286692 0.837 1.43360862341e-38
0.05886269849 -0.0108431286692 0.837 1.35048864318e-38
0.0602673639038 -0.0108172191622 0.835 1.47945378422e-38
0.061812680927 -0.0108172191622 0.835 1.46108808629e-38
0.0633579979502 -0.0108172191622 0.835 1.42428172096e-38
0.0649033149734 -0.0108172191622 0.835 1.47959881862e-38
0.0664486319965 -0.0108172191622 0.835 1.50740072028e-38
0.0679939490197 -0.0108172191622 0.835 1.516620003e-38
0.0695392660429 -0.0108172191622 0.835 1.43364393613e-38
0.0710845830661 -0.0108172191622 0.835 1.44286377937e-38
0.0726299000892 -0.0108172191622 0.835 1.4796344116e-38
0.0743528823031 -0.0108431286692 0.837 1.3969094574e-38
0.0759019006844 -0.0108431286692 0.837 1.3876545817e-38
0.0774509190657 -0.0108431286692 0.837 1.59956215846e-38
0.0788111681819 -0.0108172191622 0.835 1.46141304741e-38
0.0803564852051 -0.0108172191622 0.835 1.64641555352e-38
0.0819018022283 -0.0108172191622 0.835 1.59210486842e-38
0.0834471192515 -0.0108172191622 0.835 1.64846607357e-38
-0.0143242559993 -0.0095495039995 0.86 2.10115932597e-38
-0.0127326719993 -0.0095495039995 0.86 2.26682503432e-38
-0.0111410879994 -0.0095495039995 0.86 2.33117938603e-38
-0.0095495039995 -0.0095495039995 0.86 2.25702729559e-38
-0.00795791999959 -0.0095495039995 0.86 1.62952234002e-38
-0.00636633599967 -0.0095495039995 0.86 1.32487809205e-38
-0.00477475199975 -0.0095495039995 0.86 1.59163403214e-38
-0.00318316799983 -0.0095495039995 0.86 1.48053418534e-38
-0.00159158399992 -0.0095495039995 0.86 1.4988277164e-38
0.0 -0.00952729585067 0.858 1.43404050359e-38
0.00158418128364 -0.00950508770183 0.856 1.5169819584e-38
0.00316836256728 -0.00950508770183 0.856 1.46166458048e-38
0.0047414397765 -0.00948287955299 0.854 1.46166261866e-38
0.00629971155316 -0.00944956732974 0.851 1.38793904529e-38
0.00787463944145 -0.00944956732974 0.851 1.47091413125e-38
0.00944956732974 -0.00944956732974 0.851 1.49850261516e-38
0.011024495218 -0.00944956732974 0.851 1.47992279882e-38
0.0125698122412 -0.0094273591809 0.849 1.39676736574e-38
0.0141077265481 -0.00940515103207 0.847 1.43353841835e-38
0.0156752517201 -0.00940515103207 0.847 1.47952847343e-38
0.0172427768921 -0.00940515103207 0.847 1.49793116565e-38
0.0188103020641 -0.00940515103207 0.847 1.35056024953e-38
0.0203778272361 -0.00940515103207 0.847 1.42445954573e-38
0.0218935333942 -0.00938294288323 0.845 1.43375099533e-38
0.0234573572081 -0.00938294288323 0.845 1.4246401731e-38
0.025021181022 -0.00938294288323 0.845 1.39676568418e-38
0.0265220817475 -0.0093607347344 0.843 1.44275559913e-38
0.0280822042032 -0.0093607347344 0.843 1.41524026301e-38
0.0296423266589 -0.0093607347344 0.843 1.46140968429e-38
0.0311284219519 -0.00933852658556 0.841 1.37846991104e-38
0.0326848430495 -0.00933852658556 0.841 1.43371568261e-38
0.034159834268 -0.00931631843672 0.839 1.45204774938e-38
0.0357125540074 -0.00931631843672 0.839 1.44272098706e-38
0.0373541063422 -0.00933852658556 0.841 1.37818264486e-38
0.0389105274398 -0.00933852658556 0.841 1.42435220627e-38
0.0403707132258 -0.00931631843672 0.839 1.39676596444e-38
0.0419234329653 -0.00931631843672 0.839 1.37843529897e-38
0.0434761527047 -0.00931631843672 0.839 1.369180143e-38
0.0450288724442 -0.00931631843672 0.839 1.38758325561e-38
0.0465815921836 -0.00931631843672 0.839 1.38740346901e-38
0.0480195698208 -0.00929411028789 0.837 1.41499027136e-38
0.0495685882021 -0.00929411028789 0.837 1.44279133224e-38
0.051239751402 -0.00931631843672 0.839 1.39683644975e-38
0.0527924711414 -0.00931631843672 0.839 1.4245668852e-38
0.0543451908809 -0.00931631843672 0.839 1.36006637805e-38
0.0557646617273 -0.00929411028789 0.837 1.47055876196e-38
0.0573136801086 -0.00929411028789 0.837 1.38751136899e-38
0.05886269849 -0.00929411028789 0.837 1.3689993755e-38
0.0604117168713 -0.00929411028789 0.837 1.45186642136e-38
0.061812680927 -0.00927190213905 0.835 1.38751136899e-38
0.0633579979502 -0.00927190213905 0.835 1.48889110899e-38
0.0649033149734 -0.00927190213905 0.835 1.41524194456e-38
0.0664486319965 -0.00927190213905 0.835 1.47970643834e-38
0.0681568087778 -0.00929411028789 0.837 1.47974203132e-38
0.0697058271592 -0.00929411028789 0.837 1.40594993445e-38
0.0712548455405 -0.00929411028789 0.837 1.48892628158e-38
0.0728038639218 -0.00929411028789 0.837 1.51658497054e-38
0.0743528823031 -0.00929411028789 0.837 1.54424393976e-38
0.0759019006844 -0.00929411028789 0.837 1.40598692873e-38
0.0774509190657 -0.00929411028789 0.837 1.57211968985e-38
0.0788111681819 -0.00927190213905 0.835 1.44358530795e-38
0.0803564852051 -0.00927190213905 0.835 1.5088774086e-38
0.0819018022283 -0.00927190213905 0.835 1.60182875872e-38
-0.0111410879994 -0.00795791999959 0.86 2.12856508056e-38
-0.0095495039995 -0.00795791999959 0.86 2.18370267188e-38
-0.00795791999959 -0.00795791999959 0.86 2.14653715375e-38
-0.00638114143223 -0.00797642679028 0.862 1.59292897205e-38
-0.00478585607417 -0.00797642679028 0.862 1.3801956101e-38
-0.00318316799983 -0.00795791999959 0.86 1.46241847905e-38
-0.00159158399992 -0.00795791999959 0.86 1.40677599989e-38
0.0 -0.00795791999959 0.86 1.48946508084e-38
0.00158418128364 -0.00792090641819 0.856 1.45248004996e-38
0.00316836256728 -0.00792090641819 0.856 1.39709078543e-38
0.0047414397765 -0.0079023996275 0.854 1.48002971789e-38
0.006321919702 -0.0079023996275 0.854 1.4154909553e-38
0.0079023996275 -0.0079023996275 0.854 1.4985023349e-38
0.00948287955299 -0.0079023996275 0.854 1.47080875361e-38
0.0110633594785 -0.0079023996275 0.854 1.48921424842e-38
0.012643839404 -0.0079023996275 0.854 1.40605839495e-38
0.0141743509946 -0.00787463944145 0.851 1.4520844634e-38
0.0157122653015 -0.00785613265075 0.849 1.37825663342e-38
0.0172834918317 -0.00785613265075 0.849 1.47959909888e-38
0.0188991346595 -0.00787463944145 0.851 1.44279105198e-38
0.020425944892 -0.00785613265075 0.849 1.43371428131e-38
0.0219453524082 -0.00783762586006 0.847 1.41534704195e-38
0.0234573572081 -0.00781911906936 0.845 1.37861312375e-38
0.025021181022 -0.00781911906936 0.845 1.33229950885e-38
0.0265850048358 -0.00781911906936 0.845 1.45215368754e-38
0.0280822042032 -0.00780061227866 0.843 1.37846879e-38
0.0296423266589 -0.00780061227866 0.843 1.43385805453e-38
0.0312024491147 -0.00780061227866 0.843 1.36939342063e-38
0.0327625715704 -0.00780061227866 0.843 1.38772506701e-38
0.0343226940261 -0.00780061227866 0.843 1.40602098028e-38
0.0358828164819 -0.00780061227866 0.843 1.39665806446e-38
0.0374429389376 -0.00780061227866 0.843 1.31368087654e-38
0.0389105274398 -0.00778210548797 0.841 1.3782894238e-38
0.0404669485374 -0.00778210548797 0.841 1.43367938898e-38
0.042023369635 -0.00778210548797 0.841 1.44300727234e-38
0.0435797907326 -0.00778210548797 0.841 1.37843501871e-38
0.0450288724442 -0.00776359869727 0.839 1.35992428639e-38
0.0465815921836 -0.00776359869727 0.839 1.47959909888e-38
0.0481343119231 -0.00776359869727 0.839 1.45186852331e-38
0.0496870316625 -0.00776359869727 0.839 1.39665694342e-38
0.051239751402 -0.00776359869727 0.839 1.47052050651e-38
0.0527924711414 -0.00776359869727 0.839 1.30464067976e-38
0.0544747384158 -0.00778210548797 0.841 1.3969094574e-38
0.0558979106203 -0.00776359869727 0.839 1.45215620988e-38
0.0574506303598 -0.00776359869727 0.839 1.43364561769e-38
0.0590033500993 -0.00776359869727 0.839 1.4244246534e-38
0.0605560698387 -0.00776359869727 0.839 1.44282622457e-38
0.0619607352526 -0.00774509190657 0.837 1.52591173286e-38
0.0635097536339 -0.00774509190657 0.837 1.359996173e-38
0.0650587720152 -0.00774509190657 0.837 1.47055876196e-38
0.0666077903965 -0.00774509190657 0.837 1.42442437314e-38
0.0681568087778 -0.00774509190657 0.837 1.50740044002e-38
0.0697058271592 -0.00774509190657 0.837 1.26769180237e-38
0.0712548455405 -0.00774509190657 0.837 1.50747260689e-38
0.0728038639218 -0.00774509190657 0.837 1.50747260689e-38
0.0745305474938 -0.00776359869727 0.839 1.47045170276e-38
0.0760832672332 -0.00776359869727 0.839 1.41535068533e-38
0.0774509190657 -0.00774509190657 0.837 1.37904822692e-38
0.078999937447 -0.00774509190657 0.837 1.34296086783e-38
0.0805489558284 -0.00774509190657 0.837 1.59264436833e-38
-0.00638114143223 -0.00638114143223 0.862 2.21100108701e-38
-0.00478585607417 -0.00638114143223 0.862 1.5834950104e-38
-0.00319057071611 -0.00638114143223 0.862 1.57355532013e-38
-0.00159528535806 -0.00638114143223 0.862 1.51777088943e-38
0.0 -0.00636633599967 0.86 1.34234695897e-38
0.00159158399992 -0.00636633599967 0.86 1.60027892262e-38
0.00317576528356 -0.00635153056711 0.858 1.48035299745e-38
0.00476364792533 -0.00635153056711 0.858 1.52623501242e-38
0.00633672513455 -0.00633672513455 0.856 1.52616242516e-38
0.00792090641819 -0.00633672513455 0.856 1.49850401646e-38
0.00950508770183 -0.00633672513455 0.856 1.40623790128e-38
0.0110633594785 -0.006321919702 0.854 1.39705575296e-38
0.012643839404 -0.006321919702 0.854 1.39701721726e-38
0.0142243193295 -0.006321919702 0.854 1.45222641493e-38
0.0157492788829 -0.00629971155316 0.851 1.42449654001e-38
0.0173242067712 -0.00629971155316 0.851 1.47052218807e-38
0.018965759106 -0.006321919702 0.854 1.43357120874e-38
0.0204740625478 -0.00629971155316 0.851 1.38761674664e-38
0.0219971714221 -0.0062849061206 0.849 1.35999421118e-38
0.0235128775802 -0.00627010068805 0.847 1.38768989442e-38
0.0250804027522 -0.00627010068805 0.847 1.43371456157e-38
0.0266479279242 -0.00627010068805 0.847 1.47984740896e-38
0.0281488286497 -0.00625529525549 0.845 1.43382148064e-38
0.0297126524636 -0.00625529525549 0.845 1.47073574596e-38
0.0312764762774 -0.00625529525549 0.845 1.3877602396e-38
0.0328403000913 -0.00625529525549 0.845 1.39687246313e-38
0.0343226940261 -0.00624048982293 0.843 1.44289895197e-38
0.0358828164819 -0.00624048982293 0.843 1.40587734719e-38
0.0374429389376 -0.00624048982293 0.843 1.45197404108e-38
0.0390030613933 -0.00624048982293 0.843 1.38754443964e-38
0.040563183849 -0.00624048982293 0.843 1.4798123765e-38
0.042023369635 -0.00622568439037 0.841 1.36928594104e-38
0.0435797907326 -0.00622568439037 0.841 1.46144625818e-38
0.0451362118302 -0.00622568439037 0.841 1.34152047314e-38
0.0466926329278 -0.00622568439037 0.841 1.41509747069e-38
0.0481343119231 -0.00621087895782 0.839 1.54409974615e-38
0.0496870316625 -0.00621087895782 0.839 1.47030554733e-38
0.0513618962206 -0.00622568439037 0.841 1.49807171588e-38
0.0529183173182 -0.00622568439037 0.841 1.44293426469e-38
0.0544747384158 -0.00622568439037 0.841 1.40605713378e-38
0.0560311595134 -0.00622568439037 0.841 1.26776509028e-38
0.057587580611 -0.00622568439037 0.841 1.4337175043e-38
0.0591440017085 -0.00622568439037 0.841 1.442900073e-38
0.0607004228061 -0.00622568439037 0.841 1.38761688677e-38
0.0622568439037 -0.00622568439037 0.841 1.37846991104e-38
0.0638132650013 -0.00622568439037 0.841 1.36003078507e-38
0.0652142290571 -0.00621087895782 0.839 1.3876531804e-38
0.0667669487965 -0.00621087895782 0.839 1.35073863482e-38
0.068319668536 -0.00621087895782 0.839 1.58122770948e-38
0.0698723882754 -0.00621087895782 0.839 1.46140968429e-38
0.0714251080149 -0.00621087895782 0.839 1.51687125582e-38
0.0729778277543 -0.00621087895782 0.839 1.38783366764e-38
0.0747082126845 -0.00622568439037 0.841 1.45233571621e-38
0.0762646337821 -0.00622568439037 0.841 1.62786754666e-38
0.0780061227866 -0.00624048982293 0.843 1.43494041747e-38
-0.00638114143223 -0.00478585607417 0.862 2.08210881348e-38
-0.00478585607417 -0.00478585607417 0.862 2.11855476485e-38
-0.00319057071611 -0.00478585607417 0.862 1.64792265002e-38
-0.00159528535806 -0.00478585607417 0.862 1.42629552698e-38
0.0 -0.00478585607417 0.862 1.4812875234e-38
0.00159528535806 -0.00478585607417 0.862 1.4718153063e-38
0.00318316799983 -0.00477475199975 0.86 1.36092929765e-38
0.00477475199975 -0.00477475199975 0.86 1.38822897394e-38
0.00633672513455 -0.00475254385092 0.856 1.46180611162e-38
0.00792090641819 -0.00475254385092 0.856 1.39716225165e-38
0.00952729585067 -0.00476364792533 0.858 1.43400561126e-38
0.0110892689855 -0.00475254385092 0.856 1.42482276229e-38
0.0126734502691 -0.00475254385092 0.856 1.36953733398e-38
0.0142576315527 -0.00475254385092 0.856 1.42474611127e-38
0.0158418128364 -0.00475254385092 0.856 1.4521901213e-38
0.01742599412 -0.00475254385092 0.856 1.34148375912e-38
0.0190101754037 -0.00475254385092 0.856 1.46137339066e-38
0.0205462390315 -0.0047414397765 0.854 1.35995819781e-38
0.022126718957 -0.0047414397765 0.854 1.41527655664e-38
0.0236239183244 -0.00472478366487 0.851 1.45219180286e-38
0.0251988462126 -0.00472478366487 0.851 1.38750884666e-38
0.0267737741009 -0.00472478366487 0.851 1.3782880225e-38
0.0282820775427 -0.00471367959045 0.849 1.42453003105e-38
0.0297829782682 -0.00470257551603 0.847 1.4061271987e-38
0.0313505034402 -0.00470257551603 0.847 1.43378644818e-38
0.0329180286122 -0.00470257551603 0.847 1.47981251663e-38
0.0344041239052 -0.00469147144162 0.845 1.45201061497e-38
0.0359679477191 -0.00469147144162 0.845 1.46115871173e-38
0.0375317715329 -0.00469147144162 0.845 1.49807185601e-38
0.0390030613933 -0.0046803673672 0.843 1.43364225457e-38
0.040563183849 -0.0046803673672 0.843 1.42449471832e-38
0.0421233063048 -0.0046803673672 0.843 1.35084639467e-38
0.0436834287605 -0.0046803673672 0.843 1.38772478675e-38
0.0451362118302 -0.00466926329278 0.841 1.34155564573e-38
0.0466926329278 -0.00466926329278 0.841 1.40587734719e-38
0.0482490540254 -0.00466926329278 0.841 1.3597079259e-38
0.049805475123 -0.00466926329278 0.841 1.38722242125e-38
0.0514840410392 -0.0046803673672 0.843 1.3503793419e-38
0.0530441634949 -0.0046803673672 0.843 1.4428263647e-38
0.0546042859506 -0.0046803673672 0.843 1.46140996455e-38
0.0561644084064 -0.0046803673672 0.843 1.29545923209e-38
0.0577245308621 -0.0046803673672 0.843 1.42460556103e-38
0.0592846533178 -0.0046803673672 0.843 1.40609370767e-38
0.0608447757736 -0.0046803673672 0.843 1.36003106533e-38
0.0624048982293 -0.0046803673672 0.843 1.40619936557e-38
0.063965020685 -0.0046803673672 0.843 1.38768807273e-38
0.0653696860989 -0.00466926329278 0.841 1.42453031131e-38
0.0669261071965 -0.00466926329278 0.841 1.41520284834e-38
0.0684825282941 -0.00466926329278 0.841 1.4798123765e-38
0.0698723882754 -0.00465815921836 0.839 1.39705224972e-38
0.0714251080149 -0.00465815921836 0.839 1.32347651333e-38
0.0729778277543 -0.00465815921836 0.839 1.55410992173e-38
0.0747082126845 -0.00466926329278 0.841 1.34231178638e-38
0.0762646337821 -0.00466926329278 0.841 1.32434111448e-38
-0.00319797343239 -0.00319797343239 0.864 2.1186972769e-38
-0.0015989867162 -0.00319797343239 0.864 1.73136829201e-38
0.0 -0.00319797343239 0.864 1.3620094185e-38
0.0015989867162 -0.00319797343239 0.864 1.47228404063e-38
0.00319057071611 -0.00319057071611 0.862 1.21381257707e-38
0.00478585607417 -0.00319057071611 0.862 1.45308989505e-38
0.00635153056711 -0.00317576528356 0.858 1.43439979652e-38
0.00793941320889 -0.00317576528356 0.858 1.44344013343e-38
0.00952729585067 -0.00317576528356 0.858 1.36046406656e-38
0.0111151784924 -0.00317576528356 0.858 1.34206095395e-38
0.0127030611342 -0.00317576528356 0.858 1.31432743566e-38
0.014290943776 -0.00317576528356 0.858 1.50775847178e-38
0.0158788264178 -0.00317576528356 0.858 1.42456772597e-38
0.0174667090596 -0.00317576528356 0.858 1.44297083858e-38
0.0190545917013 -0.00317576528356 0.858 1.4337147017e-38
0.0205943566873 -0.00316836256728 0.856 1.43371456157e-38
0.0221785379709 -0.00316836256728 0.856 1.37843389767e-38
0.0237071988825 -0.003160959851 0.854 1.39687414468e-38
0.025287678808 -0.003160959851 0.854 1.43357036796e-38
0.0268681587335 -0.003160959851 0.854 1.35052171382e-38
0.0283487019892 -0.00314985577658 0.851 1.41513096173e-38
0.0298533040729 -0.0031424530603 0.849 1.29531321679e-38
0.031424530603 -0.0031424530603 0.849 1.34137557887e-38
0.0329957571332 -0.0031424530603 0.849 1.45201089523e-38
0.0344855537843 -0.00313505034402 0.847 1.36896308187e-38
0.0360530789563 -0.00313505034402 0.847 1.31346619762e-38
0.0375317715329 -0.00312764762774 0.845 1.43353519537e-38
0.0390955953468 -0.00312764762774 0.845 1.3598501577e-38
0.040563183849 -0.00312024491147 0.843 1.37839690339e-38
0.0421233063048 -0.00312024491147 0.843 1.45229690025e-38
0.0436834287605 -0.00312024491147 0.843 1.40619936557e-38
0.0452435512162 -0.00312024491147 0.843 1.40612775922e-38
0.046803673672 -0.00312024491147 0.843 1.43357120874e-38
0.0483637961277 -0.00312024491147 0.843 1.3966216307e-38
0.0499239185834 -0.00312024491147 0.843 1.42402962736e-38
0.0516061858578 -0.00312764762774 0.845 1.37800285826e-38
0.0531700096716 -0.00312764762774 0.845 1.3689979742e-38
0.0547338334855 -0.00312764762774 0.845 1.35073849469e-38
0.0562976572994 -0.00312764762774 0.845 1.38768975429e-38
0.0578614811133 -0.00312764762774 0.845 1.4522638296e-38
0.0594253049271 -0.00312764762774 0.845 1.43382498389e-38
0.060989128741 -0.00312764762774 0.845 1.40616601467e-38
0.0624048982293 -0.00312024491147 0.843 1.35084639467e-38
0.063965020685 -0.00312024491147 0.843 1.44296943728e-38
0.0655251431408 -0.00312024491147 0.843 1.53505716716e-38
0.0670852655965 -0.00312024491147 0.843 1.44282622457e-38
0.0686453880522 -0.00312024491147 0.843 1.47062924728e-38
0.0700389493917 -0.00311284219519 0.841 1.3694669888e-38
0.0714251080149 -0.00310543947891 0.839 1.32362182798e-38
0.0729778277543 -0.00310543947891 0.839 1.60960890793e-38
0.00319057071611 -0.00159528535806 0.862 1.34317526649e-38
0.00478585607417 -0.00159528535806 0.862 1.26898688241e-38
0.00636633599967 -0.00159158399992 0.86 1.45294710273e-38
0.00795791999959 -0.00159158399992 0.86 1.37904682562e-38
0.0095495039995 -0.00159158399992 0.86 1.27766666523e-38
0.0111410879994 -0.00159158399992 0.86 1.34227423158e-38
0.0127326719993 -0.00159158399992 0.86 1.21294853644e-38
0.014290943776 -0.00158788264178 0.858 1.36021057166e-38
0.0158788264178 -0.00158788264178 0.858 1.38765430144e-38
0.0174667090596 -0.00158788264178 0.858 1.31386136379e-38
