# .PCD v0.7 - Point Cloud Data file format
VERSION 0.7
FIELDS x y z rgb
SIZE 4 4 4 4
TYPE F F F F
COUNT 1 1 1 1
WIDTH 835
HEIGHT 1
VIEWPOINT 0 0 0 1 0 0 0
POINTS 835
DATA ascii
-0.0358291467888 -0.0586295129272 0.88 2.00021328785e-38
-0.0342005492075 -0.0586295129272 0.88 1.95415176655e-38
-0.0325719516262 -0.0586295129272 0.88 1.96337132953e-38
-0.0310136798495 -0.0587627618202 0.882 2.0371634264e-38
-0.0293813809101 -0.0587627618202 0.882 1.96347852886e-38
-0.0277490819706 -0.0587627618202 0.882 2.07411314457e-38
-0.0261167830312 -0.0587627618202 0.882 2.02794358316e-38
-0.0245677646499 -0.0589626351597 0.885 1.9726264855e-38
-0.0229299136732 -0.0589626351597 0.885 2.01872430043e-38
-0.0213401803524 -0.0590958840527 0.887 2.0371634264e-38
-0.0196986280176 -0.0590958840527 0.887 2.07404167835e-38
-0.0180570756828 -0.0590958840527 0.887 1.96340692251e-38
-0.016415523348 -0.0590958840527 0.887 1.98184604849e-38
-0.0147739710132 -0.0590958840527 0.887 1.95418735953e-38
-0.0131324186784 -0.0590958840527 0.887 1.90812443693e-38
-0.0114908663436 -0.0590958840527 0.887 2.0187589125e-38
-0.00984931400879 -0.0590958840527 0.887 2.01875919276e-38
-0.00820776167399 -0.0590958840527 0.887 2.01875947302e-38
-0.00656620933919 -0.0590958840527 0.887 2.07407685094e-38
-0.00492465700439 -0.0590958840527 0.887 1.94496737615e-38
-0.0032831046696 -0.0590958840527 0.887 2.05560227212e-38
-0.0016415523348 -0.0590958840527 0.887 1.96340664225e-38
0.0 -0.0590958840527 0.887 2.0186171011e-38
0.0016415523348 -0.0590958840527 0.887 1.96329972318e-38
0.0032831046696 -0.0590958840527 0.887 2.02787225707e-38
0.00492465700439 -0.0590958840527 0.887 2.01865241382e-38
0.00656620933919 -0.0590958840527 0.887 1.99099372486e-38
0.00820776167399 -0.0590958840527 0.887 2.03709125953e-38
0.00984931400879 -0.0590958840527 0.887 2.00946830368e-38
0.0114908663436 -0.0590958840527 0.887 2.0002487407e-38
0.0131324186784 -0.0590958840527 0.887 1.99106533121e-38
0.0147739710132 -0.0590958840527 0.887 2.03716314614e-38
0.0163785097666 -0.0589626351597 0.885 1.95418693914e-38
0.0180163607432 -0.0589626351597 0.885 2.00950431706e-38
0.0195875872734 -0.0587627618202 0.882 2.02794344303e-38
0.021171768557 -0.0586295129272 0.88 1.9818456281e-38
0.0227485471244 -0.0584962640342 0.878 1.95418707927e-38
0.0243734433476 -0.0584962640342 0.878 1.95418707927e-38
0.0259095069754 -0.0582963906946 0.875 2.0371634264e-38
0.0274030049846 -0.0580298929086 0.871 2.02794386342e-38
0.0290149464543 -0.0580298929086 0.871 2.00950445719e-38
0.030626887924 -0.0580298929086 0.871 1.9818456281e-38
0.0321648022309 -0.0578966440156 0.869 1.9818456281e-38
0.0337730423424 -0.0578966440156 0.869 1.89886956122e-38
0.0352998525749 -0.0577633951226 0.867 2.00950431706e-38
0.0369043913283 -0.0577633951226 0.867 1.86199130927e-38
-0.081548322526 -0.0559645350669 0.864 6.45224935172e-39
-0.0799493358098 -0.0559645350669 0.864 2.35095170737e-38
-0.0783503490936 -0.0559645350669 0.864 1.72366129059e-38
-0.0767513623774 -0.0559645350669 0.864 1.84348043682e-38
-0.07541332141 -0.0561588563692 0.867 1.87113940604e-38
-0.0738087826566 -0.0561588563692 0.867 1.90801765798e-38
-0.0722042439032 -0.0561588563692 0.867 1.86191984305e-38
-0.0705997051498 -0.0561588563692 0.867 1.86191984305e-38
-0.0691543247964 -0.056288403904 0.869 1.88957853201e-38
-0.0675460846849 -0.056288403904 0.869 1.98177416187e-38
-0.066089600257 -0.0564179514389 0.871 1.86191984305e-38
-0.0644776587873 -0.0564179514389 0.871 1.90805395161e-38
-0.0630100702851 -0.0565474989738 0.873 1.92649307759e-38
-0.0613944274573 -0.0565474989738 0.873 1.92652839031e-38
-0.0597787846294 -0.0565474989738 0.873 1.94496737615e-38
-0.0582963906946 -0.0566770465087 0.875 1.89886956122e-38
-0.0566770465087 -0.0566770465087 0.875 1.97262620524e-38
-0.0550577023227 -0.0566770465087 0.875 1.92649307759e-38
-0.0534383581368 -0.0566770465087 0.875 1.94493248382e-38
-0.0519966791415 -0.056871367811 0.878 1.97255459889e-38
-0.0503717829183 -0.056871367811 0.878 1.9909934446e-38
-0.0487468866951 -0.056871367811 0.878 2.01865213356e-38
-0.047121990472 -0.056871367811 0.878 2.00021300759e-38
-0.0454970942488 -0.056871367811 0.878 1.93567606668e-38
-0.0438721980256 -0.056871367811 0.878 2.00021300759e-38
-0.0423435371141 -0.0570009153459 0.88 1.96333475564e-38
-0.0407149395328 -0.0570009153459 0.88 2.02787169655e-38
-0.0390863419515 -0.0570009153459 0.88 1.99102917771e-38
-0.0375428756073 -0.0571304628807 0.882 2.02790742966e-38
-0.0359105766679 -0.0571304628807 0.882 2.00021300759e-38
-0.0342782777284 -0.0571304628807 0.882 2.00028517446e-38
-0.032645978789 -0.0571304628807 0.882 1.98184604849e-38
-0.0310136798495 -0.0571304628807 0.882 2.01872430043e-38
-0.0293813809101 -0.0571304628807 0.882 2.02801532964e-38
-0.0277490819706 -0.0571304628807 0.882 1.98195310769e-38
-0.0261167830312 -0.0571304628807 0.882 1.97262620524e-38
-0.0245677646499 -0.0573247841831 0.885 2.06482211536e-38
-0.0229299136732 -0.0573247841831 0.885 2.01872430043e-38
-0.0213401803524 -0.0574543317179 0.887 2.0371634264e-38
-0.0196986280176 -0.0574543317179 0.887 2.0371634264e-38
-0.0180570756828 -0.0574543317179 0.887 2.00950473744e-38
-0.016415523348 -0.0574543317179 0.887 2.02794386342e-38
-0.0147739710132 -0.0574543317179 0.887 2.0371634264e-38
-0.0131324186784 -0.0574543317179 0.887 2.01875919276e-38
-0.0114908663436 -0.0574543317179 0.887 2.05563716445e-38
-0.00984931400879 -0.0574543317179 0.887 2.06485700769e-38
-0.00820776167399 -0.0574543317179 0.887 2.00953962978e-38
-0.00656620933919 -0.0574543317179 0.887 2.02797875575e-38
-0.00493576107881 -0.0575838792528 0.889 2.01875947302e-38
-0.0032831046696 -0.0574543317179 0.887 2.00032034705e-38
-0.0016415523348 -0.0574543317179 0.887 1.9818456281e-38
0.0 -0.0574543317179 0.887 2.00943313109e-38
0.0016415523348 -0.0574543317179 0.887 1.99099400512e-38
0.0032831046696 -0.0574543317179 0.887 2.02787197681e-38
0.00492465700439 -0.0574543317179 0.887 1.9909934446e-38
0.00656620933919 -0.0574543317179 0.887 1.95415092577e-38
0.00820776167399 -0.0574543317179 0.887 2.01868786667e-38
0.00984931400879 -0.0574543317179 0.887 2.03709125953e-38
0.0114908663436 -0.0574543317179 0.887 2.02787169655e-38
0.0131324186784 -0.0574543317179 0.887 2.00950473744e-38
0.0147739710132 -0.0574543317179 0.887 2.0371634264e-38
0.016415523348 -0.0574543317179 0.887 1.96340664225e-38
0.0180163607432 -0.0573247841831 0.885 2.00028475407e-38
0.0195875872734 -0.0571304628807 0.882 1.97262606511e-38
0.021171768557 -0.0570009153459 0.88 1.98184576823e-38
0.0228003661383 -0.0570009153459 0.88 1.9726264855e-38
0.0243734433476 -0.056871367811 0.878 1.9726264855e-38
0.0259095069754 -0.0566770465087 0.875 2.00946914446e-38
0.027465928073 -0.0565474989738 0.873 2.01868870745e-38
0.0290149464543 -0.0564179514389 0.871 2.00950445719e-38
0.030626887924 -0.0564179514389 0.871 1.9818456281e-38
0.0321648022309 -0.056288403904 0.869 1.91730868719e-38
0.0337730423424 -0.056288403904 0.869 2.01872388004e-38
0.0352998525749 -0.0561588563692 0.867 2.01872402017e-38
0.0367766944725 -0.0559645350669 0.864 1.87121101239e-38
0.0383756811887 -0.0559645350669 0.864 2.3414806113e-38
-0.0850405539305 -0.0545543176158 0.867 2.35098856151e-38
-0.083436015177 -0.0545543176158 0.867 2.31403870322e-38
-0.081548322526 -0.0543655483507 0.864 1.21683840084e-38
-0.0799493358098 -0.0543655483507 0.864 2.2124067295e-38
-0.0783503490936 -0.0543655483507 0.864 1.797418355e-38
-0.0770178601634 -0.0545543176158 0.867 1.9356766272e-38
-0.07541332141 -0.0545543176158 0.867 1.90798234526e-38
-0.0738087826566 -0.0545543176158 0.867 1.92645706422e-38
-0.0723708050195 -0.0546801637925 0.869 1.95411575318e-38
-0.0707625649079 -0.0546801637925 0.869 1.91723722097e-38
-0.0691543247964 -0.0546801637925 0.869 1.90801737772e-38
-0.0675460846849 -0.0546801637925 0.869 2.00021300759e-38
-0.066089600257 -0.0548060099692 0.871 1.95411519266e-38
-0.0644776587873 -0.0548060099692 0.871 2.01868870745e-38
-0.0630100702851 -0.054931856146 0.873 2.00946914446e-38
-0.0615350790666 -0.0550577023227 0.875 1.94496779654e-38
-0.0599157348806 -0.0550577023227 0.875 1.99106533121e-38
-0.0582963906946 -0.0550577023227 0.875 1.90808926434e-38
-0.0566770465087 -0.0550577023227 0.875 1.93574795329e-38
-0.0550577023227 -0.0550577023227 0.875 1.99103001849e-38
-0.0536215753646 -0.0552464715878 0.878 1.96337132953e-38
-0.0519966791415 -0.0552464715878 0.878 1.99099372486e-38
-0.0503717829183 -0.0552464715878 0.878 1.9633350359e-38
-0.0488579274393 -0.0553723177646 0.88 1.97255459889e-38
-0.047229329858 -0.0553723177646 0.88 1.9909934446e-38
-0.0456007322767 -0.0553723177646 0.88 1.96333475564e-38
-0.0439721346954 -0.0553723177646 0.88 2.01865213356e-38
-0.0424397724257 -0.0554981639413 0.882 2.00021300759e-38
-0.0408074734862 -0.0554981639413 0.882 2.01865213356e-38
-0.0391751745468 -0.0554981639413 0.882 2.02790742966e-38
-0.0375428756073 -0.0554981639413 0.882 1.98180961473e-38
-0.0359105766679 -0.0554981639413 0.882 2.00943257057e-38
-0.0342782777284 -0.0554981639413 0.882 1.99106561147e-38
-0.032645978789 -0.0554981639413 0.882 2.0371634264e-38
-0.0310136798495 -0.0554981639413 0.882 2.0002848942e-38
-0.0294813175799 -0.0556869332064 0.885 2.06489358158e-38
-0.0278434666032 -0.0556869332064 0.885 2.00039223366e-38
-0.0262056156265 -0.0556869332064 0.885 1.99106533121e-38
-0.0245677646499 -0.0556869332064 0.885 2.08326124134e-38
-0.0229299136732 -0.0556869332064 0.885 2.06482211536e-38
-0.0213401803524 -0.0558127793831 0.887 2.06482211536e-38
-0.0196986280176 -0.0558127793831 0.887 2.04638298939e-38
-0.0180570756828 -0.0558127793831 0.887 2.05560255238e-38
-0.016415523348 -0.0558127793831 0.887 2.05560255238e-38
-0.0147739710132 -0.0558127793831 0.887 2.04638298939e-38
-0.0131324186784 -0.0558127793831 0.887 2.00953991004e-38
-0.0114908663436 -0.0558127793831 0.887 2.00953962978e-38
-0.00984931400879 -0.0558127793831 0.887 2.03719831874e-38
-0.00822626846469 -0.0559386255599 0.889 2.00953962978e-38
-0.00658101477175 -0.0559386255599 0.889 2.03719803848e-38
-0.00493576107881 -0.0559386255599 0.889 2.07407629042e-38
-0.00329050738588 -0.0559386255599 0.889 2.00953962978e-38
-0.00164525369294 -0.0559386255599 0.889 2.02797847549e-38
0.0 -0.0558127793831 0.887 2.03712699264e-38
0.0016415523348 -0.0558127793831 0.887 2.04631082252e-38
0.0032831046696 -0.0558127793831 0.887 2.05556583836e-38
0.00492465700439 -0.0558127793831 0.887 2.00024846044e-38
0.00656620933919 -0.0558127793831 0.887 2.07400496433e-38
0.00820776167399 -0.0558127793831 0.887 2.0279071494e-38
0.00984931400879 -0.0558127793831 0.887 2.02787169655e-38
0.0114908663436 -0.0558127793831 0.887 2.06475022875e-38
0.0131324186784 -0.0558127793831 0.887 1.99103001849e-38
0.0147739710132 -0.0558127793831 0.887 2.02794386342e-38
0.016415523348 -0.0558127793831 0.887 2.01872402017e-38
0.0180163607432 -0.0556869332064 0.885 2.06482169497e-38
0.0196542117199 -0.0556869332064 0.885 1.99110078406e-38
0.0212198862128 -0.0554981639413 0.882 2.01872402017e-38
0.0228003661383 -0.0553723177646 0.88 1.9726264855e-38
0.0243734433476 -0.0552464715878 0.878 1.9818104555e-38
0.0259095069754 -0.0550577023227 0.875 1.97259117278e-38
0.027465928073 -0.054931856146 0.873 2.00024958148e-38
0.0290815709008 -0.054931856146 0.873 2.02794386342e-38
0.030626887924 -0.0548060099692 0.871 2.03716300601e-38
0.0321648022309 -0.0546801637925 0.869 2.02797903601e-38
0.0337730423424 -0.0546801637925 0.869 1.93574781316e-38
0.0352998525749 -0.0545543176158 0.867 1.99106533121e-38
0.0367766944725 -0.0543655483507 0.864 1.94496779654e-38
0.0383756811887 -0.0543655483507 0.864 1.99106561147e-38
0.0399746679049 -0.0543655483507 0.864 2.35080863479e-38
-0.0847462959584 -0.0527665616345 0.864 2.35095268827e-38
-0.0831473092422 -0.0527665616345 0.864 1.72395121924e-38
-0.081548322526 -0.0527665616345 0.864 1.78841599327e-38
-0.0799493358098 -0.0527665616345 0.864 2.12017578691e-38
-0.0786223989168 -0.0529497788624 0.867 1.88035896903e-38
-0.0770178601634 -0.0529497788624 0.867 1.95408044045e-38
-0.07541332141 -0.0529497788624 0.867 1.89876306254e-38
-0.073979045131 -0.053071923681 0.869 1.88954321929e-38
-0.0723708050195 -0.053071923681 0.869 1.91723750123e-38
-0.0707625649079 -0.053071923681 0.869 1.90801765798e-38
-0.0691543247964 -0.053071923681 0.869 1.88035868877e-38
-0.0677015417267 -0.0531940684996 0.871 1.95415092577e-38
-0.066089600257 -0.0531940684996 0.871 1.89883326759e-38
-0.0646257131129 -0.0533162133182 0.873 1.97259089252e-38
-0.0630100702851 -0.0533162133182 0.873 1.92649335785e-38
-0.0615350790666 -0.0534383581368 0.875 1.93574823355e-38
-0.0599157348806 -0.0534383581368 0.875 1.96340664225e-38
-0.0582963906946 -0.0534383581368 0.875 2.0002848942e-38
-0.0566770465087 -0.0534383581368 0.875 1.98184576823e-38
-0.0552464715878 -0.0536215753646 0.878 1.97259089252e-38
-0.0536215753646 -0.0536215753646 0.878 1.96337132953e-38
-0.0521151226019 -0.0537437201832 0.88 2.00943285083e-38
-0.0504865250206 -0.0537437201832 0.88 1.99099372486e-38
-0.0488579274393 -0.0537437201832 0.88 2.01865241382e-38
-0.047229329858 -0.0537437201832 0.88 2.03709153979e-38
-0.0456007322767 -0.0537437201832 0.88 2.01865213356e-38
-0.0439721346954 -0.0537437201832 0.88 2.04631082252e-38
-0.0424397724257 -0.0538658650018 0.882 2.02787169655e-38
-0.0408074734862 -0.0538658650018 0.882 2.00021300759e-38
-0.0391751745468 -0.0538658650018 0.882 1.98180933447e-38
-0.0375428756073 -0.0538658650018 0.882 2.00946802343e-38
-0.0359105766679 -0.0538658650018 0.882 2.07396951148e-38
-0.0342782777284 -0.0538658650018 0.882 2.04638298939e-38
-0.0327570195332 -0.0540490822297 0.885 2.04638298939e-38
-0.0311191685565 -0.0540490822297 0.885 2.0648218351e-38
-0.0294813175799 -0.0540490822297 0.885 2.0556740186e-38
-0.0278434666032 -0.0540490822297 0.885 2.00039223366e-38
-0.0262056156265 -0.0540490822297 0.885 1.96340664225e-38
-0.0245677646499 -0.0540490822297 0.885 2.10170036731e-38
-0.0229299136732 -0.0540490822297 0.885 2.04638298939e-38
-0.0213401803524 -0.0541712270483 0.887 2.11091993029e-38
-0.0197430443153 -0.0542933718669 0.889 2.05560255238e-38
-0.0180570756828 -0.0541712270483 0.887 2.02794386342e-38
-0.016415523348 -0.0541712270483 0.887 2.10170036731e-38
-0.0148072832364 -0.0542933718669 0.889 2.09248080432e-38
-0.0131324186784 -0.0541712270483 0.887 2.06482169497e-38
-0.0114908663436 -0.0541712270483 0.887 2.07407685094e-38
-0.00987152215763 -0.0542933718669 0.889 2.03719831874e-38
-0.00822626846469 -0.0542933718669 0.889 2.06485700769e-38
-0.00658101477175 -0.0542933718669 0.889 2.06485672744e-38
-0.00493576107881 -0.0542933718669 0.889 1.99113595666e-38
-0.00329050738588 -0.0542933718669 0.889 2.06489246055e-38
-0.00164525369294 -0.0542933718669 0.889 2.00957480237e-38
0.0 -0.0542933718669 0.889 2.03712643212e-38
0.00164525369294 -0.0542933718669 0.889 2.04634627537e-38
0.0032831046696 -0.0541712270483 0.887 2.03712643212e-38
0.00492465700439 -0.0541712270483 0.887 2.01872289913e-38
0.00656620933919 -0.0541712270483 0.887 2.06482071406e-38
0.00820776167399 -0.0541712270483 0.887 2.01868758641e-38
0.00984931400879 -0.0541712270483 0.887 2.02787169655e-38
0.0114908663436 -0.0541712270483 0.887 2.02787225707e-38
0.0131324186784 -0.0541712270483 0.887 2.03712811368e-38
0.0147739710132 -0.0541712270483 0.887 2.0555669594e-38
0.016415523348 -0.0541712270483 0.887 2.03716314614e-38
0.0180163607432 -0.0540490822297 0.885 2.046382569e-38
0.0196542117199 -0.0540490822297 0.885 1.95422253212e-38
0.0212198862128 -0.0538658650018 0.882 2.0002848942e-38
0.0228003661383 -0.0537437201832 0.88 1.9726264855e-38
0.0243734433476 -0.0536215753646 0.878 2.06478680264e-38
0.0259095069754 -0.0534383581368 0.875 2.0647870829e-38
0.027465928073 -0.0533162133182 0.873 2.04634767667e-38
0.0290815709008 -0.0533162133182 0.873 2.04638298939e-38
0.030626887924 -0.0531940684996 0.871 2.07404125796e-38
0.0321648022309 -0.053071923681 0.869 2.00032034705e-38
0.0337730423424 -0.053071923681 0.869 2.02794344303e-38
0.0352998525749 -0.0529497788624 0.867 2.01872402017e-38
0.0367766944725 -0.0527665616345 0.864 1.94496779654e-38
0.0383756811887 -0.0527665616345 0.864 1.80663903902e-38
0.0399746679049 -0.0527665616345 0.864 2.35084506855e-38
-0.0847462959584 -0.0511675749183 0.864 2.31425408279e-38
-0.0831473092422 -0.0511675749183 0.864 1.33673013433e-38
-0.081548322526 -0.0511675749183 0.864 2.03719943977e-38
-0.0799493358098 -0.0511675749183 0.864 1.97259117278e-38
-0.0786223989168 -0.051345240109 0.867 1.72384219822e-38
-0.0770178601634 -0.051345240109 0.867 1.85273685396e-38
-0.0755872852426 -0.0514636835694 0.869 1.91720190825e-38
-0.073979045131 -0.0514636835694 0.869 1.87113940604e-38
-0.0723708050195 -0.0514636835694 0.869 1.91727267382e-38
-0.0707625649079 -0.0514636835694 0.869 1.94493108252e-38
-0.0693134831964 -0.0515821270299 0.871 1.96337020849e-38
-0.0677015417267 -0.0515821270299 0.871 2.0002487407e-38
-0.0662413559407 -0.0517005704903 0.873 1.98177388162e-38
-0.0646257131129 -0.0517005704903 0.873 1.9080895446e-38
-0.0631544232525 -0.0518190139508 0.875 1.93574823355e-38
-0.0615350790666 -0.0518190139508 0.875 1.88965013836e-38
-0.0599157348806 -0.0518190139508 0.875 1.99106533121e-38
-0.0582963906946 -0.0518190139508 0.875 1.93574795329e-38
-0.056871367811 -0.0519966791415 0.878 2.02794358316e-38
-0.0552464715878 -0.0519966791415 0.878 2.02794358316e-38
-0.0536215753646 -0.0519966791415 0.878 1.9726264855e-38
-0.0521151226019 -0.0521151226019 0.88 1.97259089252e-38
-0.0504865250206 -0.0521151226019 0.88 2.07400608537e-38
-0.0488579274393 -0.0521151226019 0.88 1.96340692251e-38
-0.047229329858 -0.0521151226019 0.88 2.05560227212e-38
-0.0457043703046 -0.0522335660624 0.882 2.00028475407e-38
-0.0440720713651 -0.0522335660624 0.882 1.94496751628e-38
-0.0424397724257 -0.0522335660624 0.882 2.00950473744e-38
-0.0408074734862 -0.0522335660624 0.882 2.0555669594e-38
-0.0391751745468 -0.0522335660624 0.882 1.96340650212e-38
-0.0375428756073 -0.0522335660624 0.882 2.046382569e-38
-0.0359105766679 -0.0522335660624 0.882 2.03716314614e-38
-0.0343948705098 -0.0524112312531 0.885 2.00950445719e-38
-0.0327570195332 -0.0524112312531 0.885 2.05560227212e-38
-0.0311191685565 -0.0524112312531 0.885 2.05560255238e-38
-0.0294813175799 -0.0524112312531 0.885 2.05560227212e-38
-0.0278434666032 -0.0524112312531 0.885 2.09248052406e-38
-0.0262056156265 -0.0524112312531 0.885 2.06485812873e-38
-0.024623285022 -0.0525296747135 0.887 2.07407797198e-38
-0.0229817326872 -0.0525296747135 0.887 2.10173666094e-38
-0.0213882980082 -0.052648118174 0.889 2.05563884601e-38
-0.0197430443153 -0.052648118174 0.889 2.07407797198e-38
-0.0180977906223 -0.052648118174 0.889 2.09251709795e-38
-0.0164525369294 -0.052648118174 0.889 2.10173666094e-38
-0.0148072832364 -0.052648118174 0.889 2.03719972003e-38
-0.0131620295435 -0.052648118174 0.889 1.96340664225e-38
-0.0115167758506 -0.052648118174 0.889 2.0648218351e-38
-0.00987152215763 -0.052648118174 0.889 2.05556611862e-38
-0.00822626846469 -0.052648118174 0.889 2.0002487407e-38
-0.00658101477175 -0.052648118174 0.889 2.05556583836e-38
-0.00493576107881 -0.052648118174 0.889 2.00014056046e-38
-0.00329050738588 -0.052648118174 0.889 2.06471309434e-38
-0.00164525369294 -0.052648118174 0.889 2.08315222032e-38
0.0 -0.052648118174 0.889 2.10166393355e-38
0.00164525369294 -0.052648118174 0.889 2.02794344303e-38
0.0032831046696 -0.0525296747135 0.887 2.05560227212e-38
0.00492465700439 -0.0525296747135 0.887 2.0648218351e-38
0.00656620933919 -0.0525296747135 0.887 1.95418707927e-38
0.00820776167399 -0.0525296747135 0.887 2.06482211536e-38
0.00984931400879 -0.0525296747135 0.887 2.00024958148e-38
0.0114908663436 -0.0525296747135 0.887 2.08322592861e-38
0.0131324186784 -0.0525296747135 0.887 2.00939753811e-38
0.0147739710132 -0.0525296747135 0.887 2.03709182005e-38
0.016415523348 -0.0525296747135 0.887 2.01865241382e-38
0.0180163607432 -0.0524112312531 0.885 2.04638270913e-38
0.0196542117199 -0.0524112312531 0.885 2.05560213199e-38
0.0212198862128 -0.0522335660624 0.882 2.03716300601e-38
0.0228003661383 -0.0521151226019 0.88 1.99117267067e-38
0.0243734433476 -0.0519966791415 0.878 2.03727048561e-38
0.0259983395707 -0.0519966791415 0.878 2.11095622392e-38
0.0275288511614 -0.0518190139508 0.875 2.02798015705e-38
0.0290815709008 -0.0517005704903 0.873 2.04645459574e-38
0.030626887924 -0.0515821270299 0.871 2.08333270756e-38
0.0321648022309 -0.0514636835694 0.869 2.04645445561e-38
0.0337730423424 -0.0514636835694 0.869 2.0741132847e-38
0.0352998525749 -0.051345240109 0.867 2.0187603138e-38
0.0367766944725 -0.0511675749183 0.864 1.9911019051e-38
0.0382868485934 -0.0510491314578 0.862 1.97266305939e-38
0.0398821339514 -0.0510491314578 0.862 1.81600279562e-38
-0.0847462959584 -0.0495685882021 0.864 2.3142536624e-38
-0.0831473092422 -0.0495685882021 0.864 9.49400869187e-39
-0.081548322526 -0.0495685882021 0.864 2.32289799237e-38
-0.0802269376702 -0.0497407013555 0.867 2.00017825539e-38
-0.0786223989168 -0.0497407013555 0.867 1.82514977135e-38
-0.0770178601634 -0.0497407013555 0.867 2.00946914446e-38
-0.0755872852426 -0.0498554434579 0.869 1.91723750123e-38
-0.073979045131 -0.0498554434579 0.869 1.93567634694e-38
-0.0723708050195 -0.0498554434579 0.869 1.91727267382e-38
-0.0707625649079 -0.0498554434579 0.869 1.92649195655e-38
-0.0693134831964 -0.0499701855602 0.871 1.96337048875e-38
-0.0677015417267 -0.0499701855602 0.871 1.90801737772e-38
-0.0662413559407 -0.0500849276625 0.873 1.97255459889e-38
-0.0647737674385 -0.0501996697648 0.875 1.99106533121e-38
-0.0631544232525 -0.0501996697648 0.875 2.0002848942e-38
-0.0615350790666 -0.0501996697648 0.875 2.01872402017e-38
-0.0601211602573 -0.0503717829183 0.878 1.95418707927e-38
-0.0584962640342 -0.0503717829183 0.878 1.98184576823e-38
-0.056871367811 -0.0503717829183 0.878 2.00950445719e-38
-0.0552464715878 -0.0503717829183 0.878 1.99106533121e-38
-0.0537437201832 -0.0504865250206 0.88 1.99106533121e-38
-0.0521151226019 -0.0504865250206 0.88 1.94493220356e-38
-0.0506012671229 -0.0506012671229 0.882 1.99103001849e-38
-0.0489689681835 -0.0506012671229 0.882 2.00950473744e-38
-0.047336669244 -0.0506012671229 0.882 2.046382569e-38
-0.0457043703046 -0.0506012671229 0.882 2.046382569e-38
-0.0440720713651 -0.0506012671229 0.882 2.01872402017e-38
-0.0424397724257 -0.0506012671229 0.882 2.00946914446e-38
-0.0408074734862 -0.0506012671229 0.882 2.04634767667e-38
-0.0393084234398 -0.0507733802764 0.885 2.10170008705e-38
-0.0376705724632 -0.0507733802764 0.885 2.03716300601e-38
-0.0360327214865 -0.0507733802764 0.885 2.07404139809e-38
-0.0343948705098 -0.0507733802764 0.885 2.08326096108e-38
-0.0327570195332 -0.0507733802764 0.885 2.01872402017e-38
-0.0311191685565 -0.0507733802764 0.885 2.10170036731e-38
-0.0294813175799 -0.0507733802764 0.885 2.01872430043e-38
-0.0278434666032 -0.0507733802764 0.885 2.06482211536e-38
-0.0262648373568 -0.0508881223787 0.887 2.03719972003e-38
-0.024623285022 -0.0508881223787 0.887 2.06485840899e-38
-0.0229817326872 -0.0508881223787 0.887 2.06485840899e-38
-0.0213882980082 -0.0510028644811 0.889 2.06485840899e-38
-0.0197430443153 -0.0510028644811 0.889 2.1293953499e-38
-0.0180977906223 -0.0510028644811 0.889 2.08329753497e-38
-0.0164525369294 -0.0510028644811 0.889 2.05563884601e-38
-0.0148072832364 -0.0510028644811 0.889 2.11095622392e-38
-0.0131620295435 -0.0510028644811 0.889 2.08326124134e-38
-0.0115167758506 -0.0510028644811 0.889 2.05560227212e-38
-0.00987152215763 -0.0510028644811 0.889 2.05553038551e-38
-0.00822626846469 -0.0510028644811 0.889 2.05556611862e-38
-0.00658101477175 -0.0510028644811 0.889 2.05545821863e-38
-0.00493576107881 -0.0510028644811 0.889 2.18453210044e-38
-0.00329050738588 -0.0510028644811 0.889 2.10155575331e-38
-0.00164525369294 -0.0510028644811 0.889 2.0370188124e-38
0.0 -0.0510028644811 0.889 2.08322480758e-38
0.00164525369294 -0.0510028644811 0.889 2.07404139809e-38
0.0032831046696 -0.0508881223787 0.887 2.07404139809e-38
0.00492465700439 -0.0508881223787 0.887 2.07404167835e-38
0.00658101477175 -0.0510028644811 0.889 2.08326124134e-38
0.00822626846469 -0.0510028644811 0.889 2.1201039003e-38
0.00984931400879 -0.0508881223787 0.887 2.00946914446e-38
0.0114908663436 -0.0508881223787 0.887 2.10166505459e-38
0.0131324186784 -0.0508881223787 0.887 2.04631110278e-38
0.0147739710132 -0.0508881223787 0.887 2.08318907446e-38
0.016415523348 -0.0508881223787 0.887 2.06474994849e-38
0.0180570756828 -0.0508881223787 0.887 2.04638270913e-38
0.0196542117199 -0.0507733802764 0.885 1.99106519108e-38
0.0212198862128 -0.0506012671229 0.882 2.05560213199e-38
0.0228003661383 -0.0504865250206 0.88 2.07411314457e-38
0.0244289637197 -0.0504865250206 0.88 2.05570961158e-38
0.0259983395707 -0.0503717829183 0.878 2.08329725471e-38
0.0275288511614 -0.0501996697648 0.875 2.08329725471e-38
0.0290815709008 -0.0500849276625 0.873 2.12943066262e-38
0.030626887924 -0.0499701855602 0.871 2.07411314457e-38
0.0321648022309 -0.0498554434579 0.869 2.02801532964e-38
0.0335787210401 -0.0495685882021 0.864 2.01879590678e-38
0.0351777077563 -0.0495685882021 0.864 1.97266249887e-38
0.0367766944725 -0.0495685882021 0.864 1.96344321614e-38
0.0382868485934 -0.0494538460997 0.862 1.93589242717e-38
0.0398821339514 -0.0494538460997 0.862 1.93589270743e-38
0.0414774193095 -0.0494538460997 0.862 2.35091681503e-38
-0.0847462959584 -0.0479696014859 0.864 2.35098828126e-38
-0.0831473092422 -0.0479696014859 0.864 4.42145118346e-39
-0.081548322526 -0.0479696014859 0.864 2.35080891505e-38
-0.0802269376702 -0.0481361626021 0.867 2.0000703554e-38
-0.0786223989168 -0.0481361626021 0.867 1.81585832175e-38
-0.0771955253541 -0.0482472033463 0.869 1.95415176655e-38
-0.0755872852426 -0.0482472033463 0.869 1.95411575318e-38
-0.073979045131 -0.0482472033463 0.869 1.90801765798e-38
-0.0723708050195 -0.0482472033463 0.869 1.91727267382e-38
-0.0709254246661 -0.0483582440905 0.871 1.94493136278e-38
-0.0693134831964 -0.0483582440905 0.871 1.92649223681e-38
-0.0677015417267 -0.0483582440905 0.871 1.9909934446e-38
-0.0662413559407 -0.0484692848347 0.873 2.01865213356e-38
-0.0647737674385 -0.0485803255789 0.875 2.00950445719e-38
-0.0631544232525 -0.0485803255789 0.875 1.92652839031e-38
-0.0617460564805 -0.0487468866951 0.878 1.97262620524e-38
-0.0601211602573 -0.0487468866951 0.878 1.97262620524e-38
-0.0584962640342 -0.0487468866951 0.878 2.02794358316e-38
-0.0570009153459 -0.0488579274393 0.88 2.01872402017e-38
-0.0553723177646 -0.0488579274393 0.88 1.99106533121e-38
-0.0538658650018 -0.0489689681835 0.882 2.01872402017e-38
-0.0522335660624 -0.0489689681835 0.882 2.03712783342e-38
-0.0506012671229 -0.0489689681835 0.882 2.06478652238e-38
-0.0489689681835 -0.0489689681835 0.882 1.99106561147e-38
-0.047336669244 -0.0489689681835 0.882 2.07404139809e-38
-0.0458598273464 -0.0491355292998 0.885 2.02794358316e-38
-0.0442219763698 -0.0491355292998 0.885 2.0371634264e-38
-0.0425841253931 -0.0491355292998 0.885 2.02790827044e-38
-0.0409462744165 -0.0491355292998 0.885 2.0555669594e-38
-0.0393084234398 -0.0491355292998 0.885 2.01872402017e-38
-0.0376705724632 -0.0491355292998 0.885 2.06482169497e-38
-0.0360327214865 -0.0491355292998 0.885 2.05560227212e-38
-0.0343948705098 -0.0491355292998 0.885 2.04638270913e-38
-0.0327570195332 -0.0491355292998 0.885 2.09248052406e-38
-0.0311191685565 -0.0491355292998 0.885 2.10170036731e-38
-0.0294813175799 -0.0491355292998 0.885 2.08326124134e-38
-0.0278434666032 -0.0491355292998 0.885 2.12013949328e-38
-0.0262648373568 -0.0492465700439 0.887 2.07407797198e-38
-0.024623285022 -0.0492465700439 0.887 2.08329753497e-38
-0.0229817326872 -0.0492465700439 0.887 2.08329753497e-38
-0.0213882980082 -0.0493576107881 0.889 2.12017578691e-38
-0.0197430443153 -0.0493576107881 0.889 2.05563884601e-38
-0.0180977906223 -0.0493576107881 0.889 2.1293953499e-38
-0.0164525369294 -0.0493576107881 0.889 2.1293953499e-38
-0.0148072832364 -0.0493576107881 0.889 2.12017578691e-38
-0.0131620295435 -0.0493576107881 0.889 2.11091993029e-38
-0.0115167758506 -0.0493576107881 0.889 2.07404167835e-38
-0.00987152215763 -0.0493576107881 0.889 2.08326096108e-38
-0.00822626846469 -0.0493576107881 0.889 2.06474994849e-38
-0.00658101477175 -0.0493576107881 0.889 2.03712699264e-38
-0.00493576107881 -0.0493576107881 0.889 2.09233647058e-38
-0.00329050738588 -0.0493576107881 0.889 2.10155603357e-38
-0.00164525369294 -0.0493576107881 0.889 2.14765356824e-38
0.0 -0.0493576107881 0.889 2.07400496433e-38
0.00164525369294 -0.0493576107881 0.889 2.08326082095e-38
0.00329050738588 -0.0493576107881 0.889 2.09248038393e-38
0.00493576107881 -0.0493576107881 0.889 2.06482169497e-38
0.00658101477175 -0.0493576107881 0.889 2.10170008705e-38
0.00822626846469 -0.0493576107881 0.889 2.12013921302e-38
0.00987152215763 -0.0493576107881 0.889 2.04638298939e-38
0.0115167758506 -0.0493576107881 0.889 2.12935905627e-38
0.0131620295435 -0.0493576107881 0.889 2.02790742966e-38
0.0148072832364 -0.0493576107881 0.889 2.05556611862e-38
0.016415523348 -0.0492465700439 0.887 2.09244437056e-38
0.0180570756828 -0.0492465700439 0.887 2.05560213199e-38
0.0196542117199 -0.0491355292998 0.885 2.0648218351e-38
0.0212920626966 -0.0491355292998 0.885 2.05560227212e-38
0.0228521851523 -0.0489689681835 0.882 2.02801546977e-38
0.0244289637197 -0.0488579274393 0.88 2.05567415873e-38
0.0259983395707 -0.0487468866951 0.878 2.11095594367e-38
0.0275288511614 -0.0485803255789 0.875 2.08329725471e-38
0.0290815709008 -0.0484692848347 0.873 2.12021109963e-38
0.030626887924 -0.0483582440905 0.871 2.0556740186e-38
0.0321648022309 -0.0482472033463 0.869 2.08333270756e-38
0.0335787210401 -0.0479696014859 0.864 2.10177197366e-38
0.0350962778772 -0.0478585607417 0.862 2.10173638068e-38
0.0366915632353 -0.0478585607417 0.862 2.02798015705e-38
0.038198015998 -0.0477475199975 0.86 2.01886821378e-38
0.0396970660444 -0.0476364792533 0.858 1.91745302093e-38
0.0412849486862 -0.0476364792533 0.858 1.9543318334e-38
-0.0847462959584 -0.0463706147697 0.864 2.31396611596e-38
-0.0831473092422 -0.0463706147697 0.864 3.86612080594e-39
-0.081548322526 -0.0463706147697 0.864 2.35066542209e-38
-0.0802269376702 -0.0465316238487 0.867 2.04609642385e-38
-0.0786223989168 -0.0465316238487 0.867 1.91723750123e-38
-0.0771955253541 -0.0466389632348 0.869 1.9356766272e-38
-0.0755872852426 -0.0466389632348 0.869 1.99099400512e-38
-0.073979045131 -0.0466389632348 0.869 1.91723722097e-38
-0.0723708050195 -0.0466389632348 0.869 1.94489590993e-38
-0.0709254246661 -0.0467463026208 0.871 2.06474994849e-38
-0.0694726415964 -0.0468536420069 0.873 1.98177388162e-38
-0.0678569987686 -0.0468536420069 0.873 1.97255431863e-38
-0.0663931116244 -0.0469609813929 0.875 1.97255431863e-38
-0.0647737674385 -0.0469609813929 0.875 1.94496751628e-38
-0.0633709527037 -0.047121990472 0.878 2.00950445719e-38
-0.0617460564805 -0.047121990472 0.878 2.02794358316e-38
-0.0601211602573 -0.047121990472 0.878 2.02794358316e-38
-0.0586295129272 -0.047229329858 0.88 1.98184576823e-38
-0.0570009153459 -0.047229329858 0.88 2.0002848942e-38
-0.0553723177646 -0.047229329858 0.88 1.99106533121e-38
-0.0538658650018 -0.047336669244 0.882 1.99106533121e-38
-0.0522335660624 -0.047336669244 0.882 2.04634739641e-38
-0.0507733802764 -0.0474976783231 0.885 2.0371634264e-38
-0.0489689681835 -0.047336669244 0.882 1.99106561147e-38
-0.047336669244 -0.047336669244 0.882 2.06482211536e-38
-0.0458598273464 -0.0474976783231 0.885 2.09248080432e-38
-0.0442219763698 -0.0474976783231 0.885 2.06482211536e-38
-0.0425841253931 -0.0474976783231 0.885 2.08326124134e-38
-0.0409462744165 -0.0474976783231 0.885 2.03712783342e-38
-0.0393084234398 -0.0474976783231 0.885 2.05560227212e-38
-0.0376705724632 -0.0474976783231 0.885 2.06482169497e-38
-0.0360327214865 -0.0474976783231 0.885 2.05560227212e-38
-0.0343948705098 -0.0474976783231 0.885 2.07404139809e-38
-0.0327570195332 -0.0474976783231 0.885 2.01872402017e-38
-0.0311191685565 -0.0474976783231 0.885 2.05560255238e-38
-0.0295479420264 -0.0476050177091 0.887 2.04638298939e-38
-0.0279063896916 -0.0476050177091 0.887 2.09248080432e-38
-0.0262648373568 -0.0476050177091 0.887 2.12017550665e-38
-0.024623285022 -0.0476050177091 0.887 2.06485812873e-38
-0.0229817326872 -0.0476050177091 0.887 2.12017550665e-38
-0.0213882980082 -0.0477123570952 0.889 2.12939506964e-38
-0.0197430443153 -0.0477123570952 0.889 2.05563856575e-38
-0.0180977906223 -0.0477123570952 0.889 2.13861463262e-38
-0.0164525369294 -0.0477123570952 0.889 2.11095594367e-38
-0.0148072832364 -0.0477123570952 0.889 2.12939506964e-38
-0.0131620295435 -0.0477123570952 0.889 2.07407769172e-38
-0.0115426853575 -0.0478196964812 0.891 2.08329725471e-38
-0.00989373030646 -0.0478196964812 0.891 2.05560255238e-38
-0.00824477525538 -0.0478196964812 0.891 2.03716314614e-38
-0.00658101477175 -0.0477123570952 0.889 2.08318907446e-38
-0.00493576107881 -0.0477123570952 0.889 2.10166393355e-38
-0.00329050738588 -0.0477123570952 0.889 2.15687341148e-38
-0.00164525369294 -0.0477123570952 0.889 2.1476538485e-38
0.0 -0.0477123570952 0.889 2.08322452732e-38
0.00164525369294 -0.0477123570952 0.889 2.05563772497e-38
0.00329050738588 -0.0477123570952 0.889 2.15705291782e-38
0.00493576107881 -0.0477123570952 0.889 2.10169994692e-38
0.00658101477175 -0.0477123570952 0.889 2.03716300601e-38
0.00822626846469 -0.0477123570952 0.889 2.10169994692e-38
0.00987152215763 -0.0477123570952 0.889 2.08326082095e-38
0.0115167758506 -0.0477123570952 0.889 2.08326082095e-38
0.0131620295435 -0.0477123570952 0.889 2.12010277926e-38
0.0148072832364 -0.0477123570952 0.889 2.09244381004e-38
0.016415523348 -0.0476050177091 0.887 2.0924440903e-38
0.0180570756828 -0.0476050177091 0.887 2.02794344303e-38
0.0196542117199 -0.0474976783231 0.885 2.08326096108e-38
0.0212920626966 -0.0474976783231 0.885 2.11091993029e-38
0.0228521851523 -0.047336669244 0.882 2.09251681769e-38
0.0244289637197 -0.047229329858 0.88 2.10173638068e-38
0.0259983395707 -0.047121990472 0.878 2.13861491288e-38
0.0276232357939 -0.047121990472 0.878 2.11095594367e-38
0.0291481953473 -0.0469609813929 0.875 2.13865022561e-38
0.030626887924 -0.0467463026208 0.871 2.0556740186e-38
0.0321648022309 -0.0466389632348 0.869 2.08333270756e-38
0.0335787210401 -0.0463706147697 0.864 2.04645459574e-38
0.0350962778772 -0.0462632753836 0.862 2.04641900276e-38
0.0366064319981 -0.0461559359976 0.86 2.00954103108e-38
0.038198015998 -0.0461559359976 0.86 2.01879576665e-38
0.0396970660444 -0.0460485966116 0.858 1.9267081769e-38
0.041092478063 -0.0458339178395 0.854 1.93589242717e-38
0.0426729579885 -0.0458339178395 0.854 2.35091681503e-38
-0.0847462959584 -0.0447716280535 0.864 2.35084492842e-38
-0.0831473092422 -0.0447716280535 0.864 5.1550617581e-39
-0.081548322526 -0.0447716280535 0.864 2.35023340177e-38
-0.0802269376702 -0.0449270850953 0.867 1.99992658218e-38
-0.0788037654657 -0.0450307231232 0.869 1.92649307759e-38
-0.0771955253541 -0.0450307231232 0.869 2.00024958148e-38
-0.0755872852426 -0.0450307231232 0.869 1.96337132953e-38
-0.0741493076054 -0.0451343611511 0.871 2.00946914446e-38
-0.0725373661358 -0.0451343611511 0.871 1.94493220356e-38
-0.0710882844242 -0.045237999179 0.873 1.90805395161e-38
-0.0694726415964 -0.045237999179 0.873 1.9080895446e-38
-0.0678569987686 -0.045237999179 0.873 1.94496751628e-38
-0.0663931116244 -0.0453416372069 0.875 1.99106533121e-38
-0.0647737674385 -0.0453416372069 0.875 1.93574795329e-38
-0.0633709527037 -0.0454970942488 0.878 2.00950445719e-38
-0.0617460564805 -0.0454970942488 0.878 2.02794358316e-38
-0.0601211602573 -0.0454970942488 0.878 2.05560227212e-38
-0.0586295129272 -0.0456007322767 0.88 2.03716314614e-38
-0.0570009153459 -0.0456007322767 0.88 2.05560227212e-38
-0.0554981639413 -0.0457043703046 0.882 2.02794358316e-38
-0.0538658650018 -0.0457043703046 0.882 2.02794358316e-38
-0.0522335660624 -0.0457043703046 0.882 2.00950473744e-38
-0.0507733802764 -0.0458598273464 0.885 2.04638298939e-38
-0.0491355292998 -0.0458598273464 0.885 2.05560255238e-38
-0.0474976783231 -0.0458598273464 0.885 2.00024958148e-38
-0.0458598273464 -0.0458598273464 0.885 2.00024958148e-38
-0.0442219763698 -0.0458598273464 0.885 2.14779818224e-38
-0.0425841253931 -0.0458598273464 0.885 2.04638298939e-38
-0.0409462744165 -0.0458598273464 0.885 2.04638298939e-38
-0.0393084234398 -0.0458598273464 0.885 2.01872402017e-38
-0.0376705724632 -0.0458598273464 0.885 2.046382569e-38
-0.0360327214865 -0.0458598273464 0.885 2.03716314614e-38
-0.0343948705098 -0.0458598273464 0.885 2.10170008705e-38
-0.0327570195332 -0.0458598273464 0.885 2.07404139809e-38
-0.0311894943612 -0.0459634653743 0.887 2.12013949328e-38
-0.0295479420264 -0.0459634653743 0.887 2.10170036731e-38
-0.0279063896916 -0.0459634653743 0.887 2.09248080432e-38
-0.0262648373568 -0.0459634653743 0.887 2.09251681769e-38
-0.024623285022 -0.0459634653743 0.887 2.08329725471e-38
-0.0229817326872 -0.0459634653743 0.887 2.16627332158e-38
-0.0213882980082 -0.0460671034023 0.889 2.14783419561e-38
-0.0197430443153 -0.0460671034023 0.889 2.1570537586e-38
-0.0180977906223 -0.0460671034023 0.889 2.12017550665e-38
-0.0164525369294 -0.0460671034023 0.889 2.07407769172e-38
-0.0148405954597 -0.0461707414302 0.891 2.11095594367e-38
-0.0131916404086 -0.0461707414302 0.891 2.11095622392e-38
-0.0115426853575 -0.0461707414302 0.891 2.06485840899e-38
-0.00989373030646 -0.0461707414302 0.891 2.12017550665e-38
-0.00824477525538 -0.0461707414302 0.891 2.11091993029e-38
-0.00659582020431 -0.0461707414302 0.891 2.05560227212e-38
-0.00493576107881 -0.0460671034023 0.889 2.05553038551e-38
-0.00329050738588 -0.0460671034023 0.889 2.10166393355e-38
-0.00164525369294 -0.0460671034023 0.889 2.14776174848e-38
0.0 -0.0460671034023 0.889 2.14779776185e-38
0.00164525369294 -0.0460671034023 0.889 2.15701732484e-38
0.00329050738588 -0.0460671034023 0.889 2.13857819886e-38
0.00493576107881 -0.0460671034023 0.889 2.09248038393e-38
0.00658101477175 -0.0460671034023 0.889 2.12013907289e-38
0.00822626846469 -0.0460671034023 0.889 2.13861379185e-38
0.00987152215763 -0.0460671034023 0.889 2.11095510289e-38
0.0115167758506 -0.0460671034023 0.889 2.00953991004e-38
0.0131620295435 -0.0460671034023 0.889 2.11088293602e-38
0.0148072832364 -0.0460671034023 0.889 2.15698075095e-38
0.016415523348 -0.0459634653743 0.887 2.0924440903e-38
0.0180570756828 -0.0459634653743 0.887 2.09248038393e-38
0.0196542117199 -0.0458598273464 0.885 2.10170008705e-38
0.0212920626966 -0.0458598273464 0.885 2.10170036731e-38
0.0228521851523 -0.0457043703046 0.882 2.12017550665e-38
0.0244289637197 -0.0456007322767 0.88 2.16627360184e-38
0.026057561301 -0.0456007322767 0.88 2.14783447587e-38
0.0276232357939 -0.0454970942488 0.878 2.13861463262e-38
0.0291481953473 -0.0453416372069 0.875 2.11099153665e-38
0.0306972137286 -0.045237999179 0.873 2.07411314457e-38
0.0322388293937 -0.0451343611511 0.871 2.08333270756e-38
0.0335787210401 -0.0447716280535 0.864 2.0741132847e-38
0.0350962778772 -0.0446679900256 0.862 2.09251681769e-38
0.0366064319981 -0.0445643519977 0.86 2.05563884601e-38
0.038198015998 -0.0445643519977 0.86 2.07411314457e-38
0.039604532091 -0.0443570759419 0.856 1.95425882575e-38
0.041092478063 -0.044253437914 0.854 1.96344293588e-38
0.0426729579885 -0.044253437914 0.854 2.12950353014e-38
-0.085745662656 -0.042872831328 0.858 2.35084506855e-38
-0.0841577800142 -0.042872831328 0.858 2.35088094179e-38
-0.0829548386189 -0.0430727046675 0.862 4.1409126322e-39
-0.081548322526 -0.0431726413373 0.864 2.35059381574e-38
-0.0802269376702 -0.0433225463419 0.867 1.98155976321e-38
-0.0788037654657 -0.0434224830117 0.869 1.86202830355e-38
-0.0771955253541 -0.0434224830117 0.869 1.95415176655e-38
-0.0757612490751 -0.0435224196815 0.871 2.00946914446e-38
-0.0741493076054 -0.0435224196815 0.871 2.01868898771e-38
-0.0725373661358 -0.0435224196815 0.871 1.97259117278e-38
-0.0710882844242 -0.0436223563512 0.873 1.98181073576e-38
-0.0694726415964 -0.0436223563512 0.873 1.97259089252e-38
-0.0680124558104 -0.043722293021 0.875 1.97262620524e-38
-0.0663931116244 -0.043722293021 0.875 2.00028475407e-38
-0.0647737674385 -0.043722293021 0.875 1.98184576823e-38
-0.0633709527037 -0.0438721980256 0.878 2.03716314614e-38
-0.0617460564805 -0.0438721980256 0.878 2.01872402017e-38
-0.0602581105085 -0.0439721346954 0.88 2.02794358316e-38
-0.0586295129272 -0.0439721346954 0.88 2.02794358316e-38
-0.0570009153459 -0.0439721346954 0.88 2.00950445719e-38
-0.0554981639413 -0.0440720713651 0.882 2.03716314614e-38
-0.0538658650018 -0.0440720713651 0.882 2.04638270913e-38
-0.0524112312531 -0.0442219763698 0.885 2.10170008705e-38
-0.0507733802764 -0.0442219763698 0.885 2.06482211536e-38
-0.0491355292998 -0.0442219763698 0.885 2.04634739641e-38
-0.0474976783231 -0.0442219763698 0.885 2.07400608537e-38
-0.0458598273464 -0.0442219763698 0.885 2.08322564835e-38
-0.0442219763698 -0.0442219763698 0.885 2.11088433731e-38
-0.0425841253931 -0.0442219763698 0.885 2.06482211536e-38
-0.0409462744165 -0.0442219763698 0.885 2.0648218351e-38
-0.0393972560352 -0.0443219130396 0.887 2.06482169497e-38
-0.0377557037004 -0.0443219130396 0.887 2.11091950991e-38
-0.0361141513656 -0.0443219130396 0.887 2.11091965003e-38
-0.0344725990308 -0.0443219130396 0.887 2.09248052406e-38
-0.032831046696 -0.0443219130396 0.887 2.12013921302e-38
-0.0311894943612 -0.0443219130396 0.887 2.14779818224e-38
-0.0295479420264 -0.0443219130396 0.887 2.12013949328e-38
-0.0279063896916 -0.0443219130396 0.887 2.14779818224e-38
-0.0262648373568 -0.0443219130396 0.887 2.12021109963e-38
-0.024623285022 -0.0443219130396 0.887 2.06489372171e-38
-0.0229817326872 -0.0443219130396 0.887 2.16630891456e-38
-0.0213882980082 -0.0444218497093 0.889 2.14786978859e-38
-0.0197430443153 -0.0444218497093 0.889 2.16630891456e-38
-0.0180977906223 -0.0444218497093 0.889 2.20318716651e-38
-0.0164895505108 -0.0445217863791 0.891 2.18474804054e-38
-0.0148405954597 -0.0445217863791 0.891 2.15708935158e-38
-0.0131916404086 -0.0445217863791 0.891 2.13872281287e-38
-0.0115426853575 -0.0445217863791 0.891 2.11095622392e-38
-0.00989373030646 -0.0445217863791 0.891 2.07407797198e-38
-0.00824477525538 -0.0445217863791 0.891 2.09251681769e-38
-0.00659582020431 -0.0445217863791 0.891 2.15701774523e-38
-0.00494686515323 -0.0445217863791 0.891 2.13857833899e-38
-0.00329791010215 -0.0445217863791 0.891 2.14772601537e-38
-0.00164895505108 -0.0445217863791 0.891 2.15694557836e-38
0.0 -0.0445217863791 0.891 2.05560227212e-38
0.00164525369294 -0.0444218497093 0.889 2.07404139809e-38
0.00329050738588 -0.0444218497093 0.889 2.09248052406e-38
0.00493576107881 -0.0444218497093 0.889 2.10170008705e-38
0.00658101477175 -0.0444218497093 0.889 2.12935863588e-38
0.00822626846469 -0.0444218497093 0.889 2.11091950991e-38
0.00987152215763 -0.0444218497093 0.889 2.11091950991e-38
0.0115167758506 -0.0444218497093 0.889 2.12017466587e-38
0.0131620295435 -0.0444218497093 0.889 2.0924440903e-38
0.0148072832364 -0.0444218497093 0.889 2.03712671238e-38
0.016415523348 -0.0443219130396 0.887 2.14776174848e-38
0.0180570756828 -0.0443219130396 0.887 2.12013907289e-38
0.0196542117199 -0.0442219763698 0.885 2.12935877601e-38
0.0212920626966 -0.0442219763698 0.885 2.12013921302e-38
0.0228521851523 -0.0440720713651 0.882 2.10177197366e-38
0.0244844840917 -0.0440720713651 0.882 2.14786978859e-38
0.026057561301 -0.0439721346954 0.88 2.16627360184e-38
0.0276232357939 -0.0438721980256 0.878 2.17549288457e-38
0.0291481953473 -0.043722293021 0.875 2.16630891456e-38
0.030626887924 -0.0435224196815 0.871 2.13865008548e-38
0.0322388293937 -0.0435224196815 0.871 2.09255227054e-38
0.0335787210401 -0.0431726413373 0.864 2.12943066262e-38
0.0350962778772 -0.0430727046675 0.862 2.08329725471e-38
0.0366064319981 -0.0429727679978 0.86 2.05563884601e-38
0.038198015998 -0.0429727679978 0.86 2.0002848942e-38
0.039604532091 -0.0427728946582 0.856 2.06489372171e-38
0.041092478063 -0.0426729579885 0.854 1.97266249887e-38
0.0426729579885 -0.0426729579885 0.854 2.05563912627e-38
-0.0853459159769 -0.041092478063 0.854 2.32325854646e-38
-0.0837654360515 -0.041092478063 0.854 2.35084492842e-38
-0.0827623679957 -0.0413811839978 0.86 2.38919566479e-39
-0.0813595532609 -0.0414774193095 0.862 2.35070157559e-38
-0.0802269376702 -0.0417180075885 0.867 2.00007077579e-38
-0.0788037654657 -0.0418142429001 0.869 1.92667314444e-38
-0.0771955253541 -0.0418142429001 0.869 1.88046686901e-38
-0.0757612490751 -0.0419104782118 0.871 2.00954103108e-38
-0.0741493076054 -0.0419104782118 0.871 2.00954131133e-38
-0.0725373661358 -0.0419104782118 0.871 2.00028615537e-38
-0.0710882844242 -0.0420067135234 0.873 1.97262746641e-38
-0.0696317999964 -0.042102948835 0.875 1.96344321614e-38
-0.0680124558104 -0.042102948835 0.875 1.97266249887e-38
-0.0663931116244 -0.042102948835 0.875 2.00035664068e-38
-0.0649958489268 -0.0422473018025 0.878 2.01872402017e-38
-0.0633709527037 -0.0422473018025 0.878 2.05560227212e-38
-0.0618867080898 -0.0423435371141 0.88 2.01872402017e-38
-0.0602581105085 -0.0423435371141 0.88 2.00950445719e-38
-0.0586295129272 -0.0423435371141 0.88 2.08326096108e-38
-0.0571304628807 -0.0424397724257 0.882 2.0648218351e-38
-0.0554981639413 -0.0424397724257 0.882 2.0648218351e-38
-0.0540490822297 -0.0425841253931 0.885 2.0648218351e-38
-0.0524112312531 -0.0425841253931 0.885 2.03716300601e-38
-0.0507733802764 -0.0425841253931 0.885 2.0648218351e-38
-0.0491355292998 -0.0425841253931 0.885 2.07400608537e-38
-0.0474976783231 -0.0425841253931 0.885 2.06478680264e-38
-0.0458598273464 -0.0425841253931 0.885 2.08322592861e-38
-0.0442219763698 -0.0425841253931 0.885 2.03712783342e-38
-0.0425841253931 -0.0425841253931 0.885 2.07404167835e-38
-0.0409462744165 -0.0425841253931 0.885 2.09248052406e-38
-0.0393972560352 -0.0426803607048 0.887 2.10169994692e-38
-0.0377557037004 -0.0426803607048 0.887 2.09248038393e-38
-0.0361141513656 -0.0426803607048 0.887 2.10170008705e-38
-0.0344725990308 -0.0426803607048 0.887 2.11091965003e-38
-0.032831046696 -0.0426803607048 0.887 2.12013921302e-38
-0.0311894943612 -0.0426803607048 0.887 2.13857861925e-38
-0.0295479420264 -0.0426803607048 0.887 2.12013949328e-38
-0.0279063896916 -0.0426803607048 0.887 2.15701774523e-38
-0.0262648373568 -0.0426803607048 0.887 2.15708935158e-38
-0.024623285022 -0.0426803607048 0.887 2.09255241067e-38
-0.0229817326872 -0.0426803607048 0.887 2.18474804054e-38
-0.0213882980082 -0.0427765960164 0.889 2.20318716651e-38
-0.0197430443153 -0.0427765960164 0.889 2.15708935158e-38
-0.0180977906223 -0.0427765960164 0.889 2.16630891456e-38
-0.0164895505108 -0.042872831328 0.891 2.12943066262e-38
-0.0148405954597 -0.042872831328 0.891 2.12943066262e-38
-0.0131916404086 -0.042872831328 0.891 2.09262499793e-38
-0.011581549618 -0.0430171842954 0.894 2.12950324988e-38
-0.00992704252972 -0.0430171842954 0.894 2.1293953499e-38
-0.00827253544143 -0.0430171842954 0.894 2.11095622392e-38
-0.00661802835314 -0.0430171842954 0.894 2.09251681769e-38
-0.00494686515323 -0.042872831328 0.891 2.09248080432e-38
-0.00329791010215 -0.042872831328 0.891 2.11091965003e-38
-0.00164895505108 -0.042872831328 0.891 2.11091965003e-38
0.0 -0.042872831328 0.891 2.16620171523e-38
0.00164895505108 -0.042872831328 0.891 2.14776258926e-38
0.00329791010215 -0.042872831328 0.891 2.1201039003e-38
0.00494686515323 -0.042872831328 0.891 2.11091993029e-38
0.00659582020431 -0.042872831328 0.891 2.12935905627e-38
0.00824477525538 -0.042872831328 0.891 2.13857833899e-38
0.00987152215763 -0.0427765960164 0.889 2.12935877601e-38
0.0115167758506 -0.0427765960164 0.889 2.11091950991e-38
0.0131620295435 -0.0427765960164 0.889 2.11088349653e-38
0.0148072832364 -0.0427765960164 0.889 2.12006732641e-38
0.0164525369294 -0.0427765960164 0.889 2.17538470433e-38
0.0180570756828 -0.0426803607048 0.887 2.12935877601e-38
0.0196542117199 -0.0425841253931 0.885 2.12013907289e-38
0.0212920626966 -0.0425841253931 0.885 2.13857819886e-38
0.0228521851523 -0.0424397724257 0.882 2.1202109595e-38
0.0244844840917 -0.0424397724257 0.882 2.20318702638e-38
0.026057561301 -0.0423435371141 0.88 2.25846895145e-38
0.0276232357939 -0.0422473018025 0.878 2.18471244756e-38
