# .PCD v0.7 - Point Cloud Data file format
VERSION 0.7
FIELDS x y z rgb
SIZE 4 4 4 4
TYPE F F F F
COUNT 1 1 1 1
WIDTH 838
HEIGHT 1
VIEWPOINT 0 0 0 1 0 0 0
POINTS 838
DATA ascii
0.0241791220453 -0.0483582440905 0.871 1.9818456281e-38
0.0257318417847 -0.0482472033463 0.869 1.97262620524e-38
0.0273400818963 -0.0482472033463 0.869 1.99106533121e-38
0.0288816975613 -0.0481361626021 0.867 1.95418735953e-38
0.0303807476077 -0.0479696014859 0.864 1.97259089252e-38
0.0319797343239 -0.0479696014859 0.864 2.01868870745e-38
0.0335009925192 -0.0478585607417 0.862 1.99103001849e-38
0.0350962778772 -0.0478585607417 0.862 1.96340664225e-38
0.0366915632353 -0.0478585607417 0.862 1.93574795329e-38
0.0382868485934 -0.0478585607417 0.862 1.96340692251e-38
0.0397895999979 -0.0477475199975 0.86 1.92652867057e-38
0.0412849486862 -0.0476364792533 0.858 1.96340692251e-38
0.042872831328 -0.0476364792533 0.858 1.94496751628e-38
0.0443570759419 -0.0475254385092 0.856 2.03716314614e-38
0.0459412572255 -0.0475254385092 0.856 1.89886956122e-38
-0.0801325530377 -0.0455655693744 0.849 2.29545566389e-38
-0.0785613265075 -0.0455655693744 0.849 1.22580657089e-38
-0.0771714665262 -0.0456729087604 0.851 2.35070143546e-38
-0.075863036424 -0.0458339178395 0.854 1.92649363811e-38
-0.0742825564985 -0.0458339178395 0.854 1.83433402161e-38
-0.0728723390474 -0.0459412572255 0.856 1.78819991305e-38
-0.0712881577637 -0.0459412572255 0.856 1.93571264057e-38
-0.0698668362382 -0.0460485966116 0.858 1.9080895446e-38
-0.0684381119964 -0.0461559359976 0.86 1.91723694071e-38
-0.0670019850384 -0.0462632753836 0.862 1.93571179979e-38
-0.0657860888896 -0.0465316238487 0.867 1.91727239356e-38
-0.0641815501362 -0.0465316238487 0.867 1.90808912421e-38
-0.0628657173177 -0.0467463026208 0.871 1.92652839031e-38
-0.0613944274573 -0.0468536420069 0.873 1.92652839031e-38
-0.0597787846294 -0.0468536420069 0.873 1.96340692251e-38
-0.0582963906946 -0.0469609813929 0.875 2.00950473744e-38
-0.056871367811 -0.047121990472 0.878 1.94496779654e-38
-0.0552464715878 -0.047121990472 0.878 2.01872402017e-38
-0.0537437201832 -0.047229329858 0.88 1.95418707927e-38
-0.0521151226019 -0.047229329858 0.88 2.01872430043e-38
-0.0506012671229 -0.047336669244 0.882 1.97259089252e-38
-0.0491355292998 -0.0474976783231 0.885 2.01872430043e-38
-0.0474976783231 -0.0474976783231 0.885 2.00950473744e-38
-0.0459634653743 -0.0476050177091 0.887 2.00950473744e-38
-0.0443219130396 -0.0476050177091 0.887 2.01872430043e-38
-0.0426803607048 -0.0476050177091 0.887 2.02790827044e-38
-0.0411313423234 -0.0477123570952 0.889 2.03712783342e-38
-0.0395749212258 -0.0478196964812 0.891 1.99106561147e-38
-0.0379259661748 -0.0478196964812 0.891 2.07404139809e-38
-0.0363991559423 -0.0479807055603 0.894 2.05560227212e-38
-0.034744648854 -0.0479807055603 0.894 2.07404139809e-38
-0.0330901417657 -0.0479807055603 0.894 2.08326096108e-38
-0.0314356346774 -0.0479807055603 0.894 2.08326096108e-38
-0.0297811275891 -0.0479807055603 0.894 2.04638270913e-38
-0.0281266205009 -0.0479807055603 0.894 2.03716314614e-38
-0.0264721134126 -0.0479807055603 0.894 2.04638298939e-38
-0.0248176063243 -0.0479807055603 0.894 2.05560255238e-38
-0.023163099236 -0.0479807055603 0.894 2.09248080432e-38
-0.0215085921477 -0.0479807055603 0.894 2.10170036731e-38
-0.0198540850594 -0.0479807055603 0.894 2.04638298939e-38
-0.0181995779711 -0.0479807055603 0.894 2.09248080432e-38
-0.0165450708829 -0.0479807055603 0.894 2.07404167835e-38
-0.0148905637946 -0.0479807055603 0.894 2.12935905627e-38
-0.0132360567063 -0.0479807055603 0.894 2.07404167835e-38
-0.0115426853575 -0.0478196964812 0.891 2.08322564835e-38
-0.00989373030646 -0.0478196964812 0.891 2.08322564835e-38
-0.00822626846469 -0.0477123570952 0.889 2.0555669594e-38
-0.00658101477175 -0.0477123570952 0.889 2.08326124134e-38
-0.00492465700439 -0.0476050177091 0.887 2.08326096108e-38
-0.0032831046696 -0.0476050177091 0.887 2.0648218351e-38
-0.0016415523348 -0.0476050177091 0.887 2.06482169497e-38
0.0 -0.0476050177091 0.887 2.07414845729e-38
0.00163785097666 -0.0474976783231 0.885 2.02805064236e-38
0.0032645978789 -0.047336669244 0.882 2.09258758326e-38
0.00489689681835 -0.047336669244 0.882 2.03727020535e-38
0.0065291957578 -0.047336669244 0.882 2.05570961158e-38
0.00814298790655 -0.047229329858 0.88 2.07414873755e-38
0.00974937733903 -0.047121990472 0.878 2.04649004859e-38
0.0113742735622 -0.047121990472 0.878 2.05570961158e-38
0.0129991697854 -0.047121990472 0.878 2.037198599e-38
0.0146240660085 -0.047121990472 0.878 2.04641816198e-38
0.0162489622317 -0.047121990472 0.878 2.02797903601e-38
0.0178127860456 -0.0469609813929 0.875 2.05563772497e-38
0.0194321302315 -0.0469609813929 0.875 2.05563772497e-38
0.0210033567617 -0.0468536420069 0.873 2.02797903601e-38
0.0225671805756 -0.0467463026208 0.871 2.02794344303e-38
0.0241791220453 -0.0467463026208 0.871 2.03716300601e-38
0.0257910635149 -0.0467463026208 0.871 2.05560227212e-38
0.0273400818963 -0.0466389632348 0.869 1.98184576823e-38
0.0289483220078 -0.0466389632348 0.869 1.98184604849e-38
0.0304862363147 -0.0465316238487 0.867 1.95418735953e-38
0.0319797343239 -0.0463706147697 0.864 2.02794386342e-38
0.0335009925192 -0.0462632753836 0.862 2.00950473744e-38
0.0350962778772 -0.0462632753836 0.862 1.98184576823e-38
0.0366915632353 -0.0462632753836 0.862 1.95418707927e-38
0.038198015998 -0.0461559359976 0.86 1.95418707927e-38
0.0397895999979 -0.0461559359976 0.86 1.96340664225e-38
0.0412849486862 -0.0460485966116 0.858 1.95418707927e-38
0.0427728946582 -0.0459412572255 0.856 1.91730882732e-38
0.0443570759419 -0.0459412572255 0.856 1.92652839031e-38
0.0458339178395 -0.0458339178395 0.854 1.86199130927e-38
0.047414397765 -0.0458339178395 0.854 1.76057611642e-38
-0.0817037795678 -0.0439943428442 0.849 2.35084506855e-38
-0.0801325530377 -0.0439943428442 0.849 9.49219681295e-39
-0.0785613265075 -0.0439943428442 0.849 2.35080919531e-38
-0.0771714665262 -0.0440979808721 0.851 2.09222969164e-38
-0.075863036424 -0.044253437914 0.854 1.88957965305e-38
-0.074456520331 -0.0443570759419 0.856 1.88043183655e-38
-0.0728723390474 -0.0443570759419 0.856 1.86195641694e-38
-0.07145471888 -0.0444607139698 0.858 1.90805395161e-38
-0.0698668362382 -0.0444607139698 0.858 1.91730910758e-38
-0.0685972703964 -0.0446679900256 0.862 1.85273573292e-38
-0.0670019850384 -0.0446679900256 0.862 1.98180933447e-38
-0.0657860888896 -0.0449270850953 0.867 1.97258977148e-38
-0.0641815501362 -0.0449270850953 0.867 1.90808926434e-38
-0.0628657173177 -0.0451343611511 0.871 1.97262620524e-38
-0.0613944274573 -0.045237999179 0.873 1.94496751628e-38
-0.0599157348806 -0.0453416372069 0.875 1.99106533121e-38
-0.0582963906946 -0.0453416372069 0.875 2.00950445719e-38
-0.056871367811 -0.0454970942488 0.878 1.99106533121e-38
-0.0552464715878 -0.0454970942488 0.878 2.00950445719e-38
-0.0537437201832 -0.0456007322767 0.88 1.92652867057e-38
-0.0522335660624 -0.0457043703046 0.882 1.9818104555e-38
-0.0507733802764 -0.0458598273464 0.885 1.96337132953e-38
-0.0491355292998 -0.0458598273464 0.885 2.04634739641e-38
-0.0474976783231 -0.0458598273464 0.885 1.99103001849e-38
-0.0459634653743 -0.0459634653743 0.887 1.97259117278e-38
-0.0443219130396 -0.0459634653743 0.887 2.0555669594e-38
-0.0427765960164 -0.0460671034023 0.889 2.04634739641e-38
-0.0412238762769 -0.0461707414302 0.891 2.03712783342e-38
-0.0281266205009 -0.046326198472 0.894 2.07404167835e-38
-0.0264721134126 -0.046326198472 0.894 2.05560255238e-38
-0.0248176063243 -0.046326198472 0.894 2.10170036731e-38
-0.023163099236 -0.046326198472 0.894 2.12935905627e-38
-0.0181995779711 -0.046326198472 0.894 2.06482211536e-38
-0.0165450708829 -0.046326198472 0.894 2.05560255238e-38
-0.0148905637946 -0.046326198472 0.894 2.12013949328e-38
-0.0132360567063 -0.046326198472 0.894 2.08322564835e-38
-0.011581549618 -0.046326198472 0.894 2.04634767667e-38
-0.00989373030646 -0.0461707414302 0.891 2.06478652238e-38
-0.00822626846469 -0.0460671034023 0.889 2.07404167835e-38
-0.00658101477175 -0.0460671034023 0.889 2.08326124134e-38
-0.00493576107881 -0.0460671034023 0.889 2.08326124134e-38
-0.0032831046696 -0.0459634653743 0.887 2.11091993029e-38
-0.0016415523348 -0.0459634653743 0.887 2.04638298939e-38
0.0 -0.0459634653743 0.887 2.08336830054e-38
0.00163785097666 -0.0458598273464 0.885 2.08336830054e-38
0.0032645978789 -0.0457043703046 0.882 2.10180742651e-38
0.00489689681835 -0.0457043703046 0.882 2.07414873755e-38
0.0065291957578 -0.0457043703046 0.882 2.04649004859e-38
0.00814298790655 -0.0456007322767 0.88 2.10180742651e-38
0.00977158548786 -0.0456007322767 0.88 2.09258786352e-38
0.0113742735622 -0.0454970942488 0.878 1.96351398172e-38
0.0129991697854 -0.0454970942488 0.878 2.00950431706e-38
0.0146240660085 -0.0454970942488 0.878 2.06482169497e-38
0.0162489622317 -0.0454970942488 0.878 2.046382569e-38
0.0178127860456 -0.0453416372069 0.875 2.03716300601e-38
0.0194321302315 -0.0453416372069 0.875 2.00950431706e-38
0.0210033567617 -0.045237999179 0.873 2.02794344303e-38
0.0226189995895 -0.045237999179 0.873 2.00953991004e-38
0.0241791220453 -0.0451343611511 0.871 1.99110078406e-38
0.0257910635149 -0.0451343611511 0.871 1.97262620524e-38
0.0274030049846 -0.0451343611511 0.871 2.0002848942e-38
0.0289483220078 -0.0450307231232 0.869 2.01872402017e-38
0.0305565621193 -0.0450307231232 0.869 2.0002848942e-38
0.0319797343239 -0.0447716280535 0.864 1.96340664225e-38
0.0335009925192 -0.0446679900256 0.862 1.96340664225e-38
0.0350962778772 -0.0446679900256 0.862 1.99106533121e-38
0.0366915632353 -0.0446679900256 0.862 2.00950445719e-38
0.038198015998 -0.0445643519977 0.86 1.9818456281e-38
0.0397895999979 -0.0445643519977 0.86 1.93574781316e-38
0.0412849486862 -0.0444607139698 0.858 2.06482169497e-38
0.0427728946582 -0.0443570759419 0.856 1.99106519108e-38
0.0443570759419 -0.0443570759419 0.856 1.94496737615e-38
0.0458339178395 -0.044253437914 0.854 1.92652825018e-38
0.047414397765 -0.044253437914 0.854 1.91730868719e-38
-0.083275006098 -0.0424231163141 0.849 2.35091681503e-38
-0.0817037795678 -0.0424231163141 0.849 7.64828421569e-39
-0.0801325530377 -0.0424231163141 0.849 2.35080919531e-38
-0.0785613265075 -0.0424231163141 0.849 1.97244725943e-38
-0.0771714665262 -0.0425230529838 0.851 1.75117774775e-38
-0.075863036424 -0.0426729579885 0.854 1.8896151059e-38
-0.0742825564985 -0.0426729579885 0.854 1.91734568147e-38
-0.0730426015218 -0.042872831328 0.858 1.92649335785e-38
-0.07145471888 -0.042872831328 0.858 1.94493220356e-38
-0.0700296959964 -0.0429727679978 0.86 1.95418735953e-38
-0.0685972703964 -0.0430727046675 0.862 1.94489562967e-38
-0.0671574420802 -0.0431726413373 0.864 1.97259005174e-38
-0.0657860888896 -0.0433225463419 0.867 1.92649223681e-38
-0.0643296044618 -0.0434224830117 0.869 1.93574823355e-38
-0.0630100702851 -0.0436223563512 0.873 1.9726264855e-38
-0.0613944274573 -0.0436223563512 0.873 1.95418707927e-38
-0.0599157348806 -0.043722293021 0.875 1.94496737615e-38
-0.0582963906946 -0.043722293021 0.875 1.94496737615e-38
-0.056871367811 -0.0438721980256 0.878 1.95418707927e-38
-0.0552464715878 -0.0438721980256 0.878 2.01872430043e-38
-0.0537437201832 -0.0439721346954 0.88 2.01868870745e-38
-0.0522335660624 -0.0440720713651 0.882 2.06482211536e-38
-0.0507733802764 -0.0442219763698 0.885 2.05560255238e-38
-0.0491355292998 -0.0442219763698 0.885 2.03712783342e-38
-0.0476050177091 -0.0443219130396 0.887 2.03712811368e-38
-0.0459634653743 -0.0443219130396 0.887 2.06478680264e-38
-0.0443219130396 -0.0443219130396 0.887 2.07400608537e-38
-0.0427765960164 -0.0444218497093 0.889 2.04638298939e-38
-0.0412238762769 -0.0445217863791 0.891 2.01872430043e-38
-0.00989373030646 -0.0445217863791 0.891 2.12932346329e-38
-0.00822626846469 -0.0444218497093 0.889 2.08326124134e-38
-0.00658101477175 -0.0444218497093 0.889 2.11091965003e-38
-0.00493576107881 -0.0444218497093 0.889 2.09248080432e-38
-0.0032831046696 -0.0443219130396 0.887 2.12013949328e-38
-0.0016415523348 -0.0443219130396 0.887 2.06478652238e-38
0.0 -0.0443219130396 0.887 2.06489372171e-38
0.00163785097666 -0.0442219763698 0.885 2.10177197366e-38
0.0032645978789 -0.0440720713651 0.882 2.05567415873e-38
0.00489689681835 -0.0440720713651 0.882 2.0741132847e-38
0.0065291957578 -0.0440720713651 0.882 2.09255227054e-38
0.00814298790655 -0.0439721346954 0.88 2.08333270756e-38
0.00977158548786 -0.0439721346954 0.88 2.08336830054e-38
0.0114001830692 -0.0439721346954 0.88 2.07414873755e-38
0.0129991697854 -0.0438721980256 0.878 2.07404125796e-38
0.0146240660085 -0.0438721980256 0.878 2.0648218351e-38
0.0162489622317 -0.0438721980256 0.878 2.08326096108e-38
0.0178738584549 -0.0438721980256 0.878 2.04638298939e-38
0.0194321302315 -0.043722293021 0.875 2.06482211536e-38
0.0210514744175 -0.043722293021 0.875 2.01872402017e-38
0.0226189995895 -0.0436223563512 0.873 2.05563772497e-38
0.0242346424173 -0.0436223563512 0.873 2.04641816198e-38
0.0257910635149 -0.0435224196815 0.871 2.04638270913e-38
0.0274030049846 -0.0435224196815 0.871 2.0648218351e-38
0.0289483220078 -0.0434224830117 0.869 1.96340650212e-38
0.0305565621193 -0.0434224830117 0.869 2.00028475407e-38
0.0320907750681 -0.0433225463419 0.867 2.05560213199e-38
0.0335787210401 -0.0431726413373 0.864 2.02794344303e-38
0.0350962778772 -0.0430727046675 0.862 1.93574795329e-38
0.0366915632353 -0.0430727046675 0.862 1.9726264855e-38
0.0382868485934 -0.0430727046675 0.862 1.96340650212e-38
0.0397895999979 -0.0429727679978 0.86 1.97266165809e-38
0.0412849486862 -0.042872831328 0.858 1.99110078406e-38
0.042872831328 -0.042872831328 0.858 1.93578340615e-38
0.0443570759419 -0.0427728946582 0.856 1.94496737615e-38
0.0458339178395 -0.0426729579885 0.854 2.02794344303e-38
0.047414397765 -0.0426729579885 0.854 1.94496751628e-38
0.0489948776905 -0.0426729579885 0.854 1.93574795329e-38
0.050575357616 -0.0426729579885 0.854 1.80667435175e-38
-0.0848462326281 -0.0408518897839 0.849 2.35091681503e-38
-0.083275006098 -0.0408518897839 0.849 1.16126962998e-38
-0.0817037795678 -0.0408518897839 0.849 2.35080919531e-38
-0.0801325530377 -0.0408518897839 0.849 2.02776463734e-38
-0.0787463944145 -0.0409481250955 0.851 1.86181250359e-38
-0.0771714665262 -0.0409481250955 0.851 1.89876278228e-38
-0.075863036424 -0.041092478063 0.854 1.8527365737e-38
-0.0742825564985 -0.041092478063 0.854 1.89890627524e-38
-0.0730426015218 -0.0412849486862 0.858 1.89886998161e-38
-0.07145471888 -0.0412849486862 0.858 1.88043085564e-38
-0.0700296959964 -0.0413811839978 0.86 1.86199172966e-38
-0.0687564287964 -0.0415736546211 0.864 1.92645678396e-38
-0.067390627643 -0.0417180075885 0.867 1.95411547292e-38
-0.0657860888896 -0.0417180075885 0.867 1.92645678396e-38
-0.0643296044618 -0.0418142429001 0.869 1.9818104555e-38
-0.0630100702851 -0.0420067135234 0.873 1.9726264855e-38
-0.0615350790666 -0.042102948835 0.875 2.00950445719e-38
-0.0599157348806 -0.042102948835 0.875 1.99106519108e-38
-0.0582963906946 -0.042102948835 0.875 2.00032034705e-38
-0.056871367811 -0.0422473018025 0.878 2.00950431706e-38
-0.0552464715878 -0.0422473018025 0.878 2.01872430043e-38
-0.0537437201832 -0.0423435371141 0.88 2.00946914446e-38
-0.0522335660624 -0.0424397724257 0.882 2.01872402017e-38
-0.0507733802764 -0.0425841253931 0.885 2.07404139809e-38
-0.0491355292998 -0.0425841253931 0.885 2.0371634264e-38
-0.0476050177091 -0.0426803607048 0.887 2.01868898771e-38
-0.0459634653743 -0.0426803607048 0.887 2.05556723966e-38
-0.0443219130396 -0.0426803607048 0.887 2.03712783342e-38
-0.0427765960164 -0.0427765960164 0.889 2.10170036731e-38
-0.00824477525538 -0.042872831328 0.891 2.12013949328e-38
-0.00658101477175 -0.0427765960164 0.889 2.10170008705e-38
-0.00493576107881 -0.0427765960164 0.889 2.08326124134e-38
-0.00329050738588 -0.0427765960164 0.889 2.1201039003e-38
-0.0016415523348 -0.0426803607048 0.887 2.06478680264e-38
0.0 -0.0426803607048 0.887 2.11095622392e-38
0.0016415523348 -0.0426803607048 0.887 2.14783447587e-38
0.00327570195332 -0.0425841253931 0.885 2.07407797198e-38
0.00489689681835 -0.0424397724257 0.882 2.11095594367e-38
0.0065291957578 -0.0424397724257 0.882 2.05563856575e-38
0.00816149469725 -0.0424397724257 0.882 2.12021109963e-38
0.00977158548786 -0.0423435371141 0.88 2.14786978859e-38
0.0114001830692 -0.0423435371141 0.88 2.0556740186e-38
0.0130287806505 -0.0423435371141 0.88 2.09248052406e-38
0.0146240660085 -0.0422473018025 0.878 2.06482211536e-38
0.0162489622317 -0.0422473018025 0.878 2.11088433731e-38
0.0178738584549 -0.0422473018025 0.878 2.08322564835e-38
0.0194987546781 -0.0422473018025 0.878 2.10166477433e-38
0.0210514744175 -0.042102948835 0.875 2.04638270913e-38
0.0226189995895 -0.0420067135234 0.873 2.10169994692e-38
0.0242346424173 -0.0420067135234 0.873 2.01875919276e-38
0.0257910635149 -0.0419104782118 0.871 2.07404139809e-38
0.0274030049846 -0.0419104782118 0.871 2.03716314614e-38
0.0290149464543 -0.0419104782118 0.871 2.06482169497e-38
0.0305565621193 -0.0418142429001 0.869 2.04641816198e-38
0.0321648022309 -0.0418142429001 0.869 2.00032006679e-38
0.0335787210401 -0.0415736546211 0.864 2.06485728795e-38
0.0351777077563 -0.0415736546211 0.864 2.00950445719e-38
0.0366915632353 -0.0414774193095 0.862 2.0371634264e-38
0.0382868485934 -0.0414774193095 0.862 2.00032034705e-38
0.0397895999979 -0.0413811839978 0.86 1.94500268887e-38
0.0412849486862 -0.0412849486862 0.858 2.04641788172e-38
0.042872831328 -0.0412849486862 0.858 1.98188122108e-38
0.0443570759419 -0.0411887133746 0.856 1.97262606511e-38
0.0458339178395 -0.041092478063 0.854 1.97262606511e-38
0.047414397765 -0.041092478063 0.854 1.96340664225e-38
0.0489948776905 -0.041092478063 0.854 1.94496751628e-38
0.050575357616 -0.041092478063 0.854 1.93567606668e-38
-0.0848462326281 -0.0392806632538 0.849 1.28119583541e-38
-0.083275006098 -0.0392806632538 0.849 2.30442355368e-38
-0.0817037795678 -0.0392806632538 0.849 2.12910794358e-38
-0.0801325530377 -0.0392806632538 0.849 1.79727556269e-38
-0.0787463944145 -0.0393731972073 0.851 1.94486059721e-38
-0.0771714665262 -0.0393731972073 0.851 1.99095841214e-38
-0.075863036424 -0.0395119981375 0.854 1.85280818005e-38
-0.074456520331 -0.039604532091 0.856 1.93581983991e-38
-0.0730426015218 -0.0396970660444 0.858 1.96340692251e-38
-0.07145471888 -0.0396970660444 0.858 1.98184604849e-38
-0.0700296959964 -0.0397895999979 0.86 1.9726264855e-38
-0.0687564287964 -0.0399746679049 0.864 1.99099400512e-38
-0.067390627643 -0.0401134688351 0.867 2.02787225707e-38
-0.0657860888896 -0.0401134688351 0.867 1.95411575318e-38
-0.0643296044618 -0.0402060027886 0.869 2.0555669594e-38
-0.0630100702851 -0.0403910706956 0.873 1.96340692251e-38
-0.0613944274573 -0.0403910706956 0.873 1.99106533121e-38
-0.0599157348806 -0.0404836046491 0.875 1.9634420951e-38
-0.0582963906946 -0.0404836046491 0.875 1.97266165809e-38
-0.056871367811 -0.0406224055793 0.878 2.02794344303e-38
-0.0552464715878 -0.0406224055793 0.878 2.0371634264e-38
-0.0537437201832 -0.0407149395328 0.88 2.00946914446e-38
-0.0522335660624 -0.0408074734862 0.882 2.02794344303e-38
-0.0507733802764 -0.0409462744165 0.885 2.046382569e-38
-0.0491355292998 -0.0409462744165 0.885 2.06482211536e-38
-0.0476050177091 -0.04103880837 0.887 2.09244521134e-38
-0.0459634653743 -0.04103880837 0.887 2.12932346329e-38
-0.0443219130396 -0.04103880837 0.887 2.07404167835e-38
-0.0427765960164 -0.0411313423234 0.889 2.13857833899e-38
-0.00658101477175 -0.0411313423234 0.889 2.12935877601e-38
-0.00493576107881 -0.0411313423234 0.889 2.13857861925e-38
-0.00329050738588 -0.0411313423234 0.889 2.1846408412e-38
-0.0016415523348 -0.04103880837 0.887 2.10166505459e-38
0.0 -0.04103880837 0.887 2.13857960016e-38
0.0016415523348 -0.04103880837 0.887 2.13857960016e-38
0.00327570195332 -0.0409462744165 0.885 2.11095650418e-38
0.00491355292998 -0.0409462744165 0.885 2.12939563016e-38
0.0065291957578 -0.0408074734862 0.882 2.05563884601e-38
0.00816149469725 -0.0408074734862 0.882 2.08329725471e-38
0.00977158548786 -0.0407149395328 0.88 2.11095594367e-38
0.0114001830692 -0.0407149395328 0.88 2.09255241067e-38
0.0130287806505 -0.0407149395328 0.88 2.12935905627e-38
0.0146573782318 -0.0407149395328 0.88 2.1201039003e-38
0.0162489622317 -0.0406224055793 0.878 2.08322592861e-38
0.0178738584549 -0.0406224055793 0.878 2.02790883096e-38
0.0194987546781 -0.0406224055793 0.878 2.13854330653e-38
0.0210514744175 -0.0404836046491 0.875 2.04638298939e-38
0.0226189995895 -0.0403910706956 0.873 2.046382569e-38
0.0242346424173 -0.0403910706956 0.873 2.11095482263e-38
0.0258502852452 -0.0403910706956 0.873 2.09248052406e-38
0.0274030049846 -0.0402985367421 0.871 2.04638270913e-38
0.0290149464543 -0.0402985367421 0.871 2.06482169497e-38
0.0305565621193 -0.0402060027886 0.869 2.00032006679e-38
0.0321648022309 -0.0402060027886 0.869 2.00953962978e-38
0.0335787210401 -0.0399746679049 0.864 2.00953991004e-38
0.0351777077563 -0.0399746679049 0.864 2.0002848942e-38
0.0366915632353 -0.0398821339514 0.862 2.04638298939e-38
0.0382868485934 -0.0398821339514 0.862 2.00953962978e-38
0.0397895999979 -0.0397895999979 0.86 1.9911005038e-38
0.0412849486862 -0.0396970660444 0.858 2.06485700769e-38
0.042872831328 -0.0396970660444 0.858 1.94500296913e-38
0.0443570759419 -0.039604532091 0.856 1.99106519108e-38
0.0458339178395 -0.0395119981375 0.854 2.01872388004e-38
0.047414397765 -0.0395119981375 0.854 2.0002848942e-38
0.048822764537 -0.0393731972073 0.851 1.99106533121e-38
0.0503976924253 -0.0393731972073 0.851 1.94489562967e-38
0.0521558375415 -0.0395119981375 0.854 2.02790742966e-38
-0.0864174591583 -0.0377094367236 0.849 1.88975929951e-38
-0.0848462326281 -0.0377094367236 0.849 1.81593048862e-38
-0.083275006098 -0.0377094367236 0.849 2.17542127822e-38
-0.0817037795678 -0.0377094367236 0.849 1.84351701071e-38
-0.0801325530377 -0.0377094367236 0.849 1.84351729097e-38
-0.0787463944145 -0.037798269319 0.851 1.8619566972e-38
-0.0771714665262 -0.037798269319 0.851 1.9080905255e-38
-0.075863036424 -0.037931518212 0.854 1.88046686901e-38
-0.074456520331 -0.0380203508073 0.856 1.94503926276e-38
-0.0730426015218 -0.0381091834027 0.858 1.88972188484e-38
-0.07145471888 -0.0381091834027 0.858 1.88972202497e-38
-0.0700296959964 -0.038198015998 0.86 1.95425896588e-38
-0.0689951663964 -0.0385089300817 0.867 1.96347852886e-38
-0.067390627643 -0.0385089300817 0.867 1.97262620524e-38
-0.0659378445733 -0.0385977626771 0.869 1.96340664225e-38
-0.0643296044618 -0.0385977626771 0.869 1.99092141786e-38
-0.0630100702851 -0.0387754278677 0.873 2.00936054383e-38
-0.0613944274573 -0.0387754278677 0.873 1.9632627289e-38
-0.0599157348806 -0.0388642604631 0.875 2.06467792175e-38
-0.0582963906946 -0.0388642604631 0.875 2.01865213356e-38
-0.056871367811 -0.0389975093561 0.878 2.05560227212e-38
-0.0552464715878 -0.0389975093561 0.878 2.04638270913e-38
-0.0537437201832 -0.0390863419515 0.88 2.04645459574e-38
-0.0522335660624 -0.0391751745468 0.882 2.04641816198e-38
-0.0507733802764 -0.0393084234398 0.885 2.01868730615e-38
-0.0491355292998 -0.0393084234398 0.885 2.12010277926e-38
-0.0476050177091 -0.0393972560352 0.887 2.09240863745e-38
-0.0459634653743 -0.0393972560352 0.887 2.1292868894e-38
-0.0443219130396 -0.0393972560352 0.887 2.09240863745e-38
-0.00493576107881 -0.0394860886305 0.889 2.15701746497e-38
-0.00329050738588 -0.0394860886305 0.889 2.15701746497e-38
-0.00164525369294 -0.0394860886305 0.889 2.16623688782e-38
0.0 -0.0393972560352 0.887 2.15708921145e-38
0.0016415523348 -0.0393972560352 0.887 2.14786978859e-38
0.0032831046696 -0.0393972560352 0.887 2.18474790041e-38
0.00491355292998 -0.0393084234398 0.885 2.12943066262e-38
0.0065291957578 -0.0391751745468 0.882 2.17552847755e-38
0.00816149469725 -0.0391751745468 0.882 2.11099153665e-38
0.0097937936367 -0.0391751745468 0.882 2.0741132847e-38
0.0114001830692 -0.0390863419515 0.88 2.12021109963e-38
0.0130287806505 -0.0390863419515 0.88 2.09255241067e-38
0.0146573782318 -0.0390863419515 0.88 2.10177197366e-38
0.0162489622317 -0.0389975093561 0.878 2.09251681769e-38
0.0178738584549 -0.0389975093561 0.878 2.10173638068e-38
0.0194987546781 -0.0389975093561 0.878 2.06485812873e-38
0.0210514744175 -0.0388642604631 0.875 2.06489372171e-38
0.0226189995895 -0.0387754278677 0.873 2.0741132847e-38
0.0242346424173 -0.0387754278677 0.873 2.08333270756e-38
0.0258502852452 -0.0387754278677 0.873 2.07407769172e-38
0.0274030049846 -0.0386865952724 0.871 2.06485840899e-38
0.0290149464543 -0.0386865952724 0.871 2.05563856575e-38
0.0305565621193 -0.0385977626771 0.869 2.05567415873e-38
0.0321648022309 -0.0385977626771 0.869 2.0556740186e-38
0.0335787210401 -0.0383756811887 0.864 2.07414873755e-38
0.0351777077563 -0.0383756811887 0.864 2.02805092262e-38
0.0366915632353 -0.0382868485934 0.862 2.07414845729e-38
0.0382868485934 -0.0382868485934 0.862 2.06485728795e-38
0.0397895999979 -0.038198015998 0.86 2.00024846044e-38
0.0412849486862 -0.0381091834027 0.858 2.09244437056e-38
0.042872831328 -0.0381091834027 0.858 2.05556611862e-38
0.0443570759419 -0.0380203508073 0.856 2.04631082252e-38
0.0458339178395 -0.037931518212 0.854 2.01865213356e-38
0.0472478366487 -0.037798269319 0.851 2.00021328785e-38
0.048822764537 -0.037798269319 0.851 2.00943285083e-38
0.0503976924253 -0.037798269319 0.851 1.99106561147e-38
0.0521558375415 -0.037931518212 0.854 1.94496751628e-38
-0.0862138844606 -0.0360530789563 0.847 1.13364723465e-38
-0.0846463592886 -0.0360530789563 0.847 2.35073716857e-38
-0.083275006098 -0.0361382101935 0.849 1.96344321614e-38
-0.0817037795678 -0.0361382101935 0.849 1.93578424692e-38
-0.0801325530377 -0.0361382101935 0.849 1.9265649642e-38
-0.0787463944145 -0.0362233414307 0.851 1.92656524446e-38
-0.0771714665262 -0.0362233414307 0.851 1.96340790342e-38
-0.075863036424 -0.0363510382865 0.854 1.94503940289e-38
-0.074456520331 -0.0364361695237 0.856 1.93581969978e-38
-0.0730426015218 -0.0365213007609 0.858 1.97269795172e-38
-0.07145471888 -0.0365213007609 0.858 1.94503926276e-38
-0.0700296959964 -0.0366064319981 0.86 1.96347838873e-38
-0.0687564287964 -0.0367766944725 0.864 1.95425882575e-38
-0.067390627643 -0.0369043913283 0.867 1.95425882575e-38
-0.0659378445733 -0.0369895225655 0.869 1.98191751471e-38
-0.0644776587873 -0.0370746538027 0.871 2.03698363981e-38
-0.0630100702851 -0.0371597850399 0.873 2.00932495085e-38
-0.0613944274573 -0.0371597850399 0.873 2.03698363981e-38
-0.0599157348806 -0.0372449162771 0.875 2.09230101773e-38
-0.0584962640342 -0.0373726131329 0.878 2.06474994849e-38
-0.056871367811 -0.0373726131329 0.878 2.0002487407e-38
-0.0553723177646 -0.0374577443701 0.88 2.03716300601e-38
-0.0538658650018 -0.0375428756073 0.882 2.06482169497e-38
-0.0524112312531 -0.0376705724632 0.885 2.02797903601e-38
-0.0507733802764 -0.0376705724632 0.885 2.09251597691e-38
-0.0491355292998 -0.0376705724632 0.885 2.09251597691e-38
0.0016415523348 -0.0377557037004 0.887 2.13868567846e-38
0.0032831046696 -0.0377557037004 0.887 2.14786964846e-38
0.00492465700439 -0.0377557037004 0.887 2.13865008548e-38
0.00655140390664 -0.0376705724632 0.885 2.1202109595e-38
0.00818925488329 -0.0376705724632 0.885 2.13865022561e-38
0.0097937936367 -0.0375428756073 0.882 2.12943066262e-38
0.0114260925761 -0.0375428756073 0.882 2.13865022561e-38
0.0130287806505 -0.0374577443701 0.88 2.09255241067e-38
0.0146573782318 -0.0374577443701 0.88 2.12021109963e-38
0.0162489622317 -0.0373726131329 0.878 2.12021109963e-38
0.0178738584549 -0.0373726131329 0.878 2.12943066262e-38
0.0194987546781 -0.0373726131329 0.878 2.13865022561e-38
0.0211236509012 -0.0373726131329 0.878 2.12021109963e-38
0.0226708186035 -0.0372449162771 0.875 2.09255241067e-38
0.0242901627894 -0.0372449162771 0.875 2.05567415873e-38
0.0258502852452 -0.0371597850399 0.873 2.09251709795e-38
0.027465928073 -0.0371597850399 0.873 2.08329753497e-38
0.0290149464543 -0.0370746538027 0.871 2.06485812873e-38
0.030626887924 -0.0370746538027 0.871 2.05567415873e-38
0.0321648022309 -0.0369895225655 0.869 2.03723489263e-38
0.0337730423424 -0.0369895225655 0.869 2.09258786352e-38
0.0351777077563 -0.0367766944725 0.864 2.08336802028e-38
0.0367766944725 -0.0367766944725 0.864 2.06492889431e-38
0.0382868485934 -0.0366915632353 0.862 2.04634627537e-38
0.0398821339514 -0.0366915632353 0.862 2.10166393355e-38
0.0413811839978 -0.0366064319981 0.86 2.04631082252e-38
0.042872831328 -0.0365213007609 0.858 2.01865213356e-38
0.0443570759419 -0.0364361695237 0.856 2.00021300759e-38
0.0458339178395 -0.0363510382865 0.854 2.00021328785e-38
0.0472478366487 -0.0362233414307 0.851 1.99099372486e-38
0.048822764537 -0.0362233414307 0.851 2.01865241382e-38
0.0503976924253 -0.0362233414307 0.851 1.99106533121e-38
0.0519726203136 -0.0362233414307 0.851 2.01872402017e-38
-0.0875741335768 -0.0344041239052 0.845 8.57168245044e-39
-0.086010309763 -0.0344041239052 0.845 2.35084506855e-38
-0.0846463592886 -0.0344855537843 0.847 1.95422393342e-38
-0.0830788341166 -0.0344855537843 0.847 1.82514977135e-38
-0.0817037795678 -0.0345669836633 0.849 1.94500380991e-38
-0.0803213223028 -0.0346484135424 0.851 1.93578424692e-38
-0.0787463944145 -0.0346484135424 0.851 1.91734540121e-38
-0.0774435163495 -0.034770558361 0.854 1.90812583823e-38
-0.075863036424 -0.034770558361 0.854 2.00035678081e-38
-0.074456520331 -0.03485198824 0.856 1.90816115095e-38
-0.0730426015218 -0.0349334181191 0.858 1.93581983991e-38
-0.0716212799963 -0.0350148479982 0.86 2.00035678081e-38
-0.0701925557545 -0.0350962778772 0.862 2.00035678081e-38
-0.0687564287964 -0.0351777077563 0.864 1.99113721782e-38
-0.067390627643 -0.0352998525749 0.867 2.00035678081e-38
-0.0659378445733 -0.035381282454 0.869 2.03723503276e-38
-0.0644776587873 -0.035462712333 0.871 2.06478680264e-38
-0.0630100702851 -0.0355441422121 0.873 2.00939753811e-38
-0.0615350790666 -0.0356255720912 0.875 2.05553094603e-38
-0.0599157348806 -0.0356255720912 0.875 2.02787197681e-38
-0.0584962640342 -0.0357477169098 0.878 2.00021300759e-38
-0.056871367811 -0.0357477169098 0.878 2.10166393355e-38
-0.0553723177646 -0.0358291467888 0.88 2.07400496433e-38
-0.0538658650018 -0.0359105766679 0.882 2.11077531629e-38
-0.0522335660624 -0.0359105766679 0.882 2.06485728795e-38
0.0032831046696 -0.0361141513656 0.887 2.17552833742e-38
0.00492465700439 -0.0361141513656 0.887 2.14786964846e-38
0.00656620933919 -0.0361141513656 0.887 2.18474804054e-38
0.00820776167399 -0.0361141513656 0.887 2.18474804054e-38
0.00982710585995 -0.0360327214865 0.885 2.13861463262e-38
0.0114649568366 -0.0360327214865 0.885 2.16627332158e-38
0.0130583915156 -0.0359105766679 0.882 2.14786978859e-38
0.014690690455 -0.0359105766679 0.882 2.17552847755e-38
0.0162859758131 -0.0358291467888 0.88 2.15708935158e-38
0.0178738584549 -0.0357477169098 0.878 2.13865022561e-38
0.0194987546781 -0.0357477169098 0.878 2.13865022561e-38
0.0211236509012 -0.0357477169098 0.878 2.12943066262e-38
0.0226708186035 -0.0356255720912 0.875 2.12021109963e-38
0.0242901627894 -0.0356255720912 0.875 2.10177197366e-38
0.0258502852452 -0.0355441422121 0.873 2.07407797198e-38
0.027465928073 -0.0355441422121 0.873 2.07407769172e-38
0.0290149464543 -0.035462712333 0.871 2.09251681769e-38
0.030626887924 -0.035462712333 0.871 2.11099153665e-38
0.0321648022309 -0.035381282454 0.869 2.08333270756e-38
0.0337730423424 -0.035381282454 0.869 2.06492917457e-38
0.0352998525749 -0.0352998525749 0.867 2.05570933132e-38
0.0367766944725 -0.0351777077563 0.864 2.04648976833e-38
0.0382868485934 -0.0350962778772 0.862 2.10166393355e-38
0.0398821339514 -0.0350962778772 0.862 2.09244437056e-38
0.0413811839978 -0.0350148479982 0.86 2.07396951148e-38
0.042872831328 -0.0349334181191 0.858 2.02787169655e-38
0.0443570759419 -0.03485198824 0.856 2.06474994849e-38
0.0458339178395 -0.034770558361 0.854 2.07396979174e-38
0.0472478366487 -0.0346484135424 0.851 2.02787197681e-38
0.048822764537 -0.0346484135424 0.851 2.04631110278e-38
0.0502792489648 -0.0345669836633 0.849 2.01872402017e-38
0.0517283306764 -0.0344855537843 0.847 2.04645445561e-38
0.0532958558484 -0.0344855537843 0.847 2.03723489263e-38
-0.0889269799768 -0.0327625715704 0.843 1.20758212384e-38
-0.087366857521 -0.0327625715704 0.843 2.34141012599e-38
-0.086010309763 -0.0328403000913 0.845 2.17545799224e-38
-0.0846463592886 -0.0329180286122 0.847 1.76057751772e-38
-0.0830788341166 -0.0329180286122 0.847 2.00954103108e-38
-0.0817037795678 -0.0329957571332 0.849 1.93581983991e-38
-0.0803213223028 -0.0330734856541 0.851 1.92660027692e-38
-0.0787463944145 -0.0330734856541 0.851 1.91734512095e-38
-0.0774435163495 -0.0331900784355 0.854 1.88968643199e-38
-0.0760407016146 -0.0332678069564 0.856 1.91738071393e-38
-0.0746304841636 -0.0333455354773 0.858 1.99113721782e-38
-0.0732128639962 -0.0334232639983 0.86 1.91738071393e-38
-0.0716212799963 -0.0334232639983 0.86 2.00035678081e-38
-0.0701925557545 -0.0335009925192 0.862 2.02801546977e-38
-0.0689951663964 -0.0336953138215 0.867 2.01879590678e-38
-0.067390627643 -0.0336953138215 0.867 2.0095763438e-38
-0.0659378445733 -0.0337730423424 0.869 2.00035678081e-38
-0.0644776587873 -0.0338507708634 0.871 2.0463839703e-38
-0.0630100702851 -0.0339284993843 0.873 2.03716440731e-38
-0.0615350790666 -0.0340062279052 0.875 2.07407825224e-38
-0.0599157348806 -0.0340062279052 0.875 2.02794386342e-38
-0.0584962640342 -0.0341228206866 0.878 2.01865213356e-38
-0.056871367811 -0.0341228206866 0.878 2.10155575331e-38
-0.0553723177646 -0.0342005492075 0.88 2.06471309434e-38
-0.0538658650018 -0.0342782777284 0.882 2.13839743136e-38
-0.0522335660624 -0.0342782777284 0.882 2.13854218549e-38
0.0114649568366 -0.0343948705098 0.885 2.17549288457e-38
0.0131028078133 -0.0343948705098 0.885 2.09255241067e-38
0.014690690455 -0.0342782777284 0.882 2.13865022561e-38
0.0162859758131 -0.0342005492075 0.88 2.13865022561e-38
0.0179145733944 -0.0342005492075 0.88 2.12943066262e-38
0.0194987546781 -0.0341228206866 0.878 2.13865022561e-38
0.0211236509012 -0.0341228206866 0.878 2.11099153665e-38
0.0227485471244 -0.0341228206866 0.878 2.11099153665e-38
0.0243734433476 -0.0341228206866 0.878 2.13865022561e-38
0.0259095069754 -0.0340062279052 0.875 2.10173638068e-38
0.027465928073 -0.0339284993843 0.873 2.10173638068e-38
0.0290815709008 -0.0339284993843 0.873 2.10177197366e-38
0.030626887924 -0.0338507708634 0.871 2.11099153665e-38
0.0322388293937 -0.0338507708634 0.871 2.1202109595e-38
0.0337730423424 -0.0337730423424 0.869 2.08336830054e-38
0.0352998525749 -0.0336953138215 0.867 2.10180742651e-38
0.0367766944725 -0.0335787210401 0.864 2.05570961158e-38
0.0383756811887 -0.0335787210401 0.864 2.08322480758e-38
0.0398821339514 -0.0335009925192 0.862 2.05556611862e-38
0.0413811839978 -0.0334232639983 0.86 2.09240863745e-38
0.0429727679978 -0.0334232639983 0.86 2.05553038551e-38
0.0443570759419 -0.0332678069564 0.856 2.07396951148e-38
0.0458339178395 -0.0331900784355 0.854 2.11084804368e-38
0.0472478366487 -0.0330734856541 0.851 2.04631110278e-38
0.048822764537 -0.0330734856541 0.851 2.07396979174e-38
0.0502792489648 -0.0329957571332 0.849 2.05560227212e-38
0.0517283306764 -0.0329180286122 0.847 2.1110269895e-38
0.0532958558484 -0.0329180286122 0.847 2.08344060754e-38
0.0548633810204 -0.0329180286122 0.847 2.16638150182e-38
-0.0904871024325 -0.0312024491147 0.843 1.89897704081e-38
-0.0889269799768 -0.0312024491147 0.843 1.70529405123e-38
-0.087366857521 -0.0312024491147 0.843 2.27690863794e-38
-0.0858067350653 -0.0312024491147 0.843 1.8619928507e-38
-0.0844464859491 -0.0312764762774 0.845 1.91734568147e-38
-0.0830788341166 -0.0313505034402 0.847 1.89890599498e-38
-0.0815113089446 -0.0313505034402 0.847 1.91738071393e-38
-0.0803213223028 -0.0314985577658 0.851 1.95425896588e-38
-0.0787463944145 -0.0314985577658 0.851 1.89890599498e-38
-0.0774435163495 -0.03160959851 0.854 1.9265649642e-38
-0.0760407016146 -0.0316836256728 0.856 1.97266249887e-38
-0.0746304841636 -0.0317576528356 0.858 1.96344293588e-38
-0.0732128639962 -0.0318316799983 0.86 2.00954075082e-38
-0.0716212799963 -0.0318316799983 0.86 1.97266249887e-38
-0.0701925557545 -0.0319057071611 0.862 2.00954075082e-38
-0.0689951663964 -0.0320907750681 0.867 2.00954075082e-38
-0.067390627643 -0.0320907750681 0.867 2.00032118783e-38
-0.0659378445733 -0.0321648022309 0.869 2.03719943977e-38
-0.0644776587873 -0.0322388293937 0.871 2.00039405535e-38
-0.0630100702851 -0.0323128565565 0.873 2.04649187028e-38
-0.0615350790666 -0.0323868837192 0.875 2.04641956328e-38
-0.0601211602573 -0.0324979244634 0.878 2.01868870745e-38
-0.0584962640342 -0.0324979244634 0.878 2.11091965003e-38
-0.056871367811 -0.0324979244634 0.878 2.06478540134e-38
-0.0553723177646 -0.0325719516262 0.88 2.15690872421e-38
0.0114649568366 -0.0327570195332 0.885 2.25846923171e-38
0.0131028078133 -0.0327570195332 0.885 2.14786978859e-38
0.014690690455 -0.032645978789 0.882 2.17552847755e-38
0.0162859758131 -0.0325719516262 0.88 2.12943066262e-38
0.0179145733944 -0.0325719516262 0.88 2.19396760352e-38
0.0194987546781 -0.0324979244634 0.878 2.17552847755e-38
0.0211236509012 -0.0324979244634 0.878 2.12943066262e-38
0.0227485471244 -0.0324979244634 0.878 2.18474804054e-38
0.0243734433476 -0.0324979244634 0.878 2.16630891456e-38
0.0259095069754 -0.0323868837192 0.875 2.16630891456e-38
0.027465928073 -0.0323128565565 0.873 2.12021109963e-38
0.0290815709008 -0.0323128565565 0.873 2.09255241067e-38
0.0306972137286 -0.0323128565565 0.873 2.10177197366e-38
0.0322388293937 -0.0322388293937 0.871 2.11099139652e-38
0.0338507708634 -0.0322388293937 0.871 2.1202109595e-38
0.035381282454 -0.0321648022309 0.869 2.14786964846e-38
0.0369043913283 -0.0320907750681 0.867 2.08333270756e-38
0.0383756811887 -0.0319797343239 0.864 2.12013907289e-38
0.0399746679049 -0.0319797343239 0.864 2.11091950991e-38
0.0414774193095 -0.0319057071611 0.862 2.05560227212e-38
0.0429727679978 -0.0318316799983 0.86 2.11091965003e-38
0.0443570759419 -0.0316836256728 0.856 2.07404139809e-38
0.0458339178395 -0.03160959851 0.854 2.08326124134e-38
0.0472478366487 -0.0314985577658 0.851 2.12935905627e-38
0.048822764537 -0.0314985577658 0.851 2.15701774523e-38
0.0502792489648 -0.031424530603 0.849 2.01879590678e-38
0.051850475495 -0.031424530603 0.849 2.04649004859e-38
0.0534217020251 -0.031424530603 0.849 2.13875798546e-38
0.0549929285553 -0.031424530603 0.849 2.16645338844e-38
-0.0920472248882 -0.0296423266589 0.843 2.35070003416e-38
-0.0904871024325 -0.0296423266589 0.843 1.44711097489e-38
-0.0889269799768 -0.0296423266589 0.843 2.35087996088e-38
-0.087366857521 -0.0296423266589 0.843 1.97266277913e-38
-0.0858067350653 -0.0296423266589 0.843 1.91734568147e-38
-0.0844464859491 -0.0297126524636 0.845 1.94500409017e-38
-0.0828826621352 -0.0297126524636 0.845 1.94503940289e-38
-0.0815113089446 -0.0297829782682 0.847 1.89894158796e-38
-0.0801325530377 -0.0298533040729 0.849 1.96344293588e-38
-0.0787463944145 -0.0299236298775 0.851 1.97266277913e-38
-0.0776248828983 -0.0300994443891 0.856 2.00954131133e-38
-0.0760407016146 -0.0300994443891 0.856 1.9542233729e-38
-0.0746304841636 -0.0301697701938 0.858 2.00954075082e-38
-0.0732128639962 -0.0302400959984 0.86 1.98188206186e-38
-0.0716212799963 -0.0302400959984 0.86 1.96344293588e-38
-0.0701925557545 -0.0303104218031 0.862 2.08329725471e-38
-0.0689951663964 -0.0304862363147 0.867 2.03719943977e-38
-0.067390627643 -0.0304862363147 0.867 2.00954075082e-38
-0.0659378445733 -0.0305565621193 0.869 2.08329725471e-38
-0.0644776587873 -0.030626887924 0.871 2.02798043731e-38
-0.0630100702851 -0.0306972137286 0.873 2.08326222224e-38
-0.0617460564805 -0.0308730282403 0.878 2.09251737821e-38
-0.0601211602573 -0.0308730282403 0.878 2.09251681769e-38
-0.0553723177646 -0.0309433540449 0.88 2.13861351159e-38
0.014690690455 -0.0310136798495 0.882 2.24928498144e-38
0.0163229893945 -0.0310136798495 0.882 2.20318716651e-38
0.0179145733944 -0.0309433540449 0.88 2.2124067295e-38
0.0194987546781 -0.0308730282403 0.878 2.16630891456e-38
0.0211236509012 -0.0308730282403 0.878 2.17552847755e-38
0.0227485471244 -0.0308730282403 0.878 2.12943066262e-38
0.0243734433476 -0.0308730282403 0.878 2.14786978859e-38
0.0259095069754 -0.0307675395333 0.875 2.08333284769e-38
0.0275288511614 -0.0307675395333 0.875 2.18474790041e-38
0.0290815709008 -0.0306972137286 0.873 2.12943052249e-38
0.0306972137286 -0.0306972137286 0.873 2.12943052249e-38
0.0322388293937 -0.030626887924 0.871 2.10177183353e-38
0.0338507708634 -0.030626887924 0.871 2.15708921145e-38
0.035381282454 -0.0305565621193 0.869 2.10177183353e-38
0.0369895225655 -0.0305565621193 0.869 2.1202109595e-38
0.0383756811887 -0.0303807476077 0.864 2.19389557678e-38
0.0399746679049 -0.0303807476077 0.864 2.10169994692e-38
0.0414774193095 -0.0303104218031 0.862 2.19389571691e-38
0.0429727679978 -0.0302400959984 0.86 2.07404139809e-38
0.0443570759419 -0.0300994443891 0.856 2.07404139809e-38
0.0459412572255 -0.0300994443891 0.856 2.06482211536e-38
0.0472478366487 -0.0299236298775 0.851 2.09248080432e-38
0.048822764537 -0.0299236298775 0.851 2.14779818224e-38
0.0503976924253 -0.0299236298775 0.851 2.08329725471e-38
0.051850475495 -0.0298533040729 0.849 2.02812336975e-38
0.0534217020251 -0.0298533040729 0.849 2.1940755035e-38
0.0549929285553 -0.0298533040729 0.849 2.30471124025e-38
-0.0920472248882 -0.0280822042032 0.843 1.81589363447e-38
-0.0904871024325 -0.0280822042032 0.843 1.98177388162e-38
-0.0889269799768 -0.0280822042032 0.843 2.21219092953e-38
-0.087366857521 -0.0280822042032 0.843 1.84355232343e-38
-0.0858067350653 -0.0280822042032 0.843 1.98191765484e-38
-0.0842466126096 -0.0280822042032 0.843 1.90816115095e-38
-0.0828826621352 -0.0281488286497 0.845 1.98191751471e-38
-0.0815113089446 -0.0282154530962 0.847 1.89894158796e-38
-0.0801325530377 -0.0282820775427 0.849 1.94500380991e-38
-0.0787463944145 -0.0283487019892 0.851 1.97266305939e-38
-0.0776248828983 -0.0285152631055 0.856 1.99106659238e-38
-0.0762183668053 -0.028581887552 0.858 2.01876059406e-38
-0.0746304841636 -0.028581887552 0.858 1.9542233729e-38
-0.0732128639962 -0.0286485119985 0.86 2.02797987679e-38
-0.0716212799963 -0.0286485119985 0.86 2.04641900276e-38
-0.0701925557545 -0.028715136445 0.862 2.0187603138e-38
-0.0689951663964 -0.0288816975613 0.867 2.02797987679e-38
-0.067390627643 -0.0288816975613 0.867 2.02797987679e-38
-0.0659378445733 -0.0289483220078 0.869 2.05563856575e-38
-0.0644776587873 -0.0290149464543 0.871 2.06478652238e-38
-0.0630100702851 -0.0290815709008 0.873 2.11088433731e-38
-0.0617460564805 -0.0292481320171 0.878 2.10170036731e-38
-0.0601211602573 -0.0292481320171 0.878 2.09251681769e-38
0.0163229893945 -0.0293813809101 0.882 2.17552847755e-38
0.0179145733944 -0.0293147564636 0.88 2.13865022561e-38
0.0195431709757 -0.0293147564636 0.88 2.22162629248e-38
0.0211236509012 -0.0292481320171 0.878 2.20318716651e-38
0.0227485471244 -0.0292481320171 0.878 2.24006541845e-38
0.0243734433476 -0.0292481320171 0.878 2.19396760352e-38
0.0259983395707 -0.0292481320171 0.878 2.22162615235e-38
0.0275288511614 -0.0291481953473 0.875 2.16630877443e-38
0.0291481953473 -0.0291481953473 0.875 2.12943052249e-38
0.0306972137286 -0.0290815709008 0.873 2.18474790041e-38
0.0322388293937 -0.0290149464543 0.871 2.12943052249e-38
0.0338507708634 -0.0290149464543 0.871 2.19396760352e-38
0.035462712333 -0.0290149464543 0.871 2.10177197366e-38
0.0369895225655 -0.0289483220078 0.869 2.15708935158e-38
0.0385089300817 -0.0288816975613 0.867 2.11099139652e-38
0.0399746679049 -0.0287817608915 0.864 2.07411314457e-38
0.0414774193095 -0.028715136445 0.862 2.12021109963e-38
0.0429727679978 -0.0286485119985 0.86 2.05567415873e-38
0.0444607139698 -0.028581887552 0.858 2.16630891456e-38
0.0459412572255 -0.0285152631055 0.856 2.12939506964e-38
0.047414397765 -0.028448638659 0.854 2.12939506964e-38
0.048822764537 -0.0283487019892 0.851 2.17549288457e-38
0.0502792489648 -0.0282820775427 0.849 2.09262499793e-38
0.051850475495 -0.0282820775427 0.849 2.23091844273e-38
0.0531700096716 -0.0281488286497 0.845 2.2586490183e-38
0.0547338334855 -0.0281488286497 0.845 2.35091681503e-38
-0.091828844758 -0.0264591586591 0.841 6.17350446249e-39
-0.0902724236604 -0.0264591586591 0.841 2.35077276155e-38
-0.0887160025628 -0.0264591586591 0.841 2.03698363981e-38
-0.087366857521 -0.0265220817475 0.843 1.88043043525e-38
-0.0858067350653 -0.0265220817475 0.843 1.95429441873e-38
-0.0842466126096 -0.0265220817475 0.843 1.9081966038e-38
-0.0828826621352 -0.0265850048358 0.845 1.96351398172e-38
-0.0815113089446 -0.0266479279242 0.847 1.98191765484e-38
-0.0801325530377 -0.0267108510126 0.849 1.97266277913e-38
-0.079023996275 -0.0268681587335 0.854 2.00028615537e-38
-0.0776248828983 -0.0269310818219 0.856 2.01872570173e-38
-0.0762183668053 -0.0269940049102 0.858 1.96344321614e-38
-0.0748044479961 -0.0270569279986 0.86 1.96344293588e-38
-0.0732128639962 -0.0270569279986 0.86 2.06485812873e-38
-0.0717878411125 -0.027119851087 0.862 2.00032118783e-38
-0.0703554155126 -0.0271827741753 0.864 2.05563856575e-38
-0.0689951663964 -0.0272771588079 0.867 2.06485812873e-38
-0.067390627643 -0.0272771588079 0.867 2.06485812873e-38
-0.0659378445733 -0.0273400818963 0.869 2.08329725471e-38
-0.0644776587873 -0.0274030049846 0.871 2.09248080432e-38
-0.0630100702851 -0.027465928073 0.873 2.13850645238e-38
0.0179145733944 -0.0276861588823 0.88 2.23084585547e-38
0.0195431709757 -0.0276861588823 0.88 2.19396760352e-38
0.0211236509012 -0.0276232357939 0.878 2.16630891456e-38
0.0227485471244 -0.0276232357939 0.878 2.18474804054e-38
0.0243734433476 -0.0276232357939 0.878 2.18474804054e-38
0.0259983395707 -0.0276232357939 0.878 2.17552833742e-38
0.0276232357939 -0.0276232357939 0.878 2.22162615235e-38
0.0291481953473 -0.0275288511614 0.875 2.22162615235e-38
0.0306972137286 -0.027465928073 0.873 2.19396746339e-38
0.0322388293937 -0.0274030049846 0.871 2.13865022561e-38
0.0338507708634 -0.0274030049846 0.871 2.18474804054e-38
0.035462712333 -0.0274030049846 0.871 2.20318716651e-38
0.0369895225655 -0.0273400818963 0.869 2.19396760352e-38
0.0385089300817 -0.0272771588079 0.867 2.17552833742e-38
0.0399746679049 -0.0271827741753 0.864 2.18474790041e-38
0.0415736546211 -0.0271827741753 0.864 2.13865022561e-38
0.0430727046675 -0.027119851087 0.862 2.14786978859e-38
0.0445643519977 -0.0270569279986 0.86 2.12021109963e-38
0.0460485966116 -0.0269940049102 0.858 2.12939506964e-38
0.0475254385092 -0.0269310818219 0.856 2.1570537586e-38
0.048822764537 -0.0267737741009 0.851 2.20315157353e-38
0.0502792489648 -0.0267108510126 0.849 2.25857741195e-38
0.051850475495 -0.0267108510126 0.849 2.23091872299e-38
0.0531700096716 -0.0265850048358 0.845 2.27705255129e-38
0.0547338334855 -0.0265850048358 0.845 8.2869287934e-40
0.0562976572994 -0.0265850048358 0.845 1.53956136081e-38
-0.091828844758 -0.0249027375615 0.841 1.03226707426e-38
-0.0902724236604 -0.0249027375615 0.841 2.35073632779e-38
-0.0887160025628 -0.0249027375615 0.841 1.88043057538e-38
-0.087366857521 -0.0249619592917 0.843 1.87117569967e-38
-0.0858067350653 -0.0249619592917 0.843 1.96340692251e-38
-0.0844464859491 -0.025021181022 0.845 1.97259005174e-38
-0.0830788341166 -0.0250804027522 0.847 2.03705440538e-38
-0.0815113089446 -0.0250804027522 0.847 1.99095659045e-38
-0.0803213223028 -0.0251988462126 0.851 1.99102917771e-38
-0.079023996275 -0.025287678808 0.854 2.04641928302e-38
-0.0776248828983 -0.0253469005382 0.856 2.00039405535e-38
-0.0762183668053 -0.0254061222684 0.858 2.0187603138e-38
-0.0748044479961 -0.0254653439987 0.86 2.0741132847e-38
-0.0732128639962 -0.0254653439987 0.86 2.00035678081e-38
-0.0717878411125 -0.0255245657289 0.862 2.02801546977e-38
-0.0703554155126 -0.0255837874591 0.864 2.01879590678e-38
-0.0689951663964 -0.0256726200545 0.867 2.06485812873e-38
-0.067390627643 -0.0256726200545 0.867 2.03719943977e-38
-0.0659378445733 -0.0257318417847 0.869 2.11095594367e-38
-0.0644776587873 -0.0257910635149 0.871 2.05563856575e-38
-0.0630100702851 -0.0258502852452 0.873 2.1754568712e-38
0.0195431709757 -0.026057561301 0.88 2.23084585547e-38
0.0211236509012 -0.0259983395707 0.878 2.28616323339e-38
0.0227485471244 -0.0259983395707 0.878 2.26772410741e-38
0.0243734433476 -0.0259983395707 0.878 2.24006541845e-38
0.0259983395707 -0.0259983395707 0.878 2.19396760352e-38
