# .PCD v0.7 - Point Cloud Data file format
VERSION 0.7
FIELDS x y z rgb
SIZE 4 4 4 4
TYPE F F F F
COUNT 1 1 1 1
WIDTH 846
HEIGHT 1
VIEWPOINT 0 0 0 1 0 0 0
POINTS 846
DATA ascii
0.0240958414871 -0.0860565767397 0.93 1.87103066528e-38
0.0258169730219 -0.0860565767397 0.93 2.08308005344e-38
0.0275381045567 -0.0860565767397 0.93 2.09229989669e-38
0.0292592360915 -0.0860565767397 0.93 1.9908849841e-38
0.0309803676263 -0.0860565767397 0.93 2.02776323605e-38
0.0327014991611 -0.0860565767397 0.93 1.92624014321e-38
0.0344226306959 -0.0860565767397 0.93 2.073753151e-38
0.0361437622307 -0.0860565767397 0.93 2.02765533606e-38
0.0378648937655 -0.0860565767397 0.93 1.98148563452e-38
0.0395860253003 -0.0860565767397 0.93 2.00914460374e-38
0.0413071568351 -0.0860565767397 0.93 1.99077736438e-38
0.0429357544164 -0.0858715088327 0.928 2.073753151e-38
0.044653184593 -0.0858715088327 0.928 1.88014204802e-38
0.0463706147697 -0.0858715088327 0.928 2.02769064879e-38
0.0480880449463 -0.0858715088327 0.928 2.00925152281e-38
0.049805475123 -0.0858715088327 0.928 1.97233795815e-38
0.0515229052996 -0.0858715088327 0.928 2.01840032023e-38
0.0532403354763 -0.0858715088327 0.928 1.99996147451e-38
0.054957765653 -0.0858715088327 0.928 2.06449841542e-38
0.0566751958296 -0.0858715088327 0.928 2.03687489905e-38
0.0582038567412 -0.0855939069723 0.925 1.99995993309e-38
0.0599157348806 -0.0855939069723 0.925 2.03683818503e-38
0.06162761302 -0.0855939069723 0.925 1.97223005816e-38
0.0633394911595 -0.0855939069723 0.925 2.09208437699e-38
0.0649107176896 -0.0854088390653 0.923 2.03676643855e-38
0.0666188944709 -0.0854088390653 0.923 2.04602117413e-38
0.0683270712523 -0.0854088390653 0.923 2.00024846044e-38
0.0700352480336 -0.0854088390653 0.923 2.01872402017e-38
0.0717434248149 -0.0854088390653 0.923 1.98166654215e-38
0.0734516015962 -0.0854088390653 0.923 1.99081421853e-38
0.0749154887403 -0.0851312372049 0.92 2.03684000672e-38
0.0766181134844 -0.0851312372049 0.92 1.96319112255e-38
0.0783207382285 -0.0851312372049 0.92 1.90794521085e-38
0.0800233629726 -0.0851312372049 0.92 1.98180933447e-38
0.0817259877167 -0.0851312372049 0.92 2.00892852352e-38
0.0832472459119 -0.0849461692979 0.918 2.09176067704e-38
0.0846685674374 -0.0846685674374 0.915 2.06417331417e-38
0.0863619387862 -0.0846685674374 0.915 2.06428079377e-38
0.0880553101349 -0.0846685674374 0.915 2.1842069992e-38
0.0895525095023 -0.0844834995305 0.913 1.91694757258e-38
0.0912421794929 -0.0844834995305 0.913 2.02761862204e-38
0.092626487437 -0.08420589767 0.91 2.16591220697e-38
0.0943106053904 -0.08420589767 0.91 2.22112084413e-38
0.0957837459299 -0.0840208297631 0.908 2.35033933994e-38
0.0974641625252 -0.0840208297631 0.908 2.02736736923e-38
0.0991445791204 -0.0840208297631 0.908 2.10112387312e-38
-0.016841179534 -0.0825217797166 0.91 2.3509166749e-38
-0.0152403421387 -0.0829751960887 0.915 2.35088066153e-38
-0.01354697079 -0.0829751960887 0.915 1.49291956182e-38
-0.0118535994412 -0.0829751960887 0.915 2.09201136934e-38
-0.0101602280925 -0.0829751960887 0.915 1.9815212275e-38
-0.00849461692979 -0.0832472459119 0.918 2.13843428551e-38
-0.00681049897639 -0.0834286124608 0.92 2.073970072e-38
-0.00512453034392 -0.083700662284 0.923 1.95408016019e-38
-0.00342375627889 -0.0838820288328 0.925 1.98173884915e-38
-0.00171187813945 -0.0838820288328 0.925 2.03698392007e-38
0.0 -0.0841540786561 0.928 1.95408016019e-38
0.00171743017665 -0.0841540786561 0.928 2.00017825539e-38
0.00343486035331 -0.0841540786561 0.928 1.98159465554e-38
0.00515229052996 -0.0841540786561 0.928 2.03683972646e-38
0.00688452613918 -0.0843354452049 0.93 1.99999692736e-38
0.00863341786002 -0.0846074950282 0.933 2.00006895411e-38
0.010360101432 -0.0846074950282 0.933 1.9724818715e-38
0.012086785004 -0.0846074950282 0.933 1.94500296913e-38
0.013813468576 -0.0846074950282 0.933 2.018650452e-38
0.015540152148 -0.0846074950282 0.933 2.04623753461e-38
0.01726683572 -0.0846074950282 0.933 2.08308061396e-38
0.018993519292 -0.0846074950282 0.933 1.97241040528e-38
0.020720202864 -0.0846074950282 0.933 2.01847290749e-38
0.022446886436 -0.0846074950282 0.933 2.01850850047e-38
0.024173570008 -0.0846074950282 0.933 1.94475157619e-38
0.02590025358 -0.0846074950282 0.933 2.03698251877e-38
0.027626937152 -0.0846074950282 0.933 2.01857884565e-38
0.0292592360915 -0.0843354452049 0.93 2.00013971968e-38
0.0309803676263 -0.0843354452049 0.93 2.02776267553e-38
0.0327014991611 -0.0843354452049 0.93 2.0184710858e-38
0.0345336714401 -0.0846074950282 0.933 2.11063112268e-38
0.0362603550121 -0.0846074950282 0.933 2.08297271398e-38
0.0378648937655 -0.0843354452049 0.93 2.03680301244e-38
0.0395860253003 -0.0843354452049 0.93 2.05524241867e-38
0.0413071568351 -0.0843354452049 0.93 2.08297271398e-38
0.0429357544164 -0.0841540786561 0.928 1.95389855191e-38
0.044653184593 -0.0841540786561 0.928 2.03691021177e-38
0.0463706147697 -0.0841540786561 0.928 2.09222744956e-38
0.0480880449463 -0.0841540786561 0.928 2.00925138268e-38
0.049805475123 -0.0841540786561 0.928 2.09219199671e-38
0.0515229052996 -0.0841540786561 0.928 1.99077736438e-38
0.0532403354763 -0.0841540786561 0.928 2.02761988321e-38
0.054957765653 -0.0841540786561 0.928 1.94478857047e-38
0.0566751958296 -0.0841540786561 0.928 1.98166654215e-38
0.0582038567412 -0.0838820288328 0.925 1.9355320132e-38
0.0599157348806 -0.0838820288328 0.925 2.05531402502e-38
0.06162761302 -0.0838820288328 0.925 1.98152234854e-38
0.0633394911595 -0.0838820288328 0.925 1.99988986816e-38
0.0650513692989 -0.0838820288328 0.925 1.98148605491e-38
0.0667632474384 -0.0838820288328 0.925 1.99996007321e-38
0.0684751255778 -0.0838820288328 0.925 1.98166542111e-38
0.0701870037173 -0.0838820288328 0.925 1.97241026515e-38
0.0717434248149 -0.083700662284 0.923 1.99074191153e-38
0.0734516015962 -0.083700662284 0.923 2.03676812011e-38
0.0749154887403 -0.0834286124608 0.92 1.99981826181e-38
0.0766181134844 -0.0834286124608 0.92 2.05520724608e-38
0.0783207382285 -0.0834286124608 0.92 1.97230250529e-38
0.0800233629726 -0.0834286124608 0.92 1.99084939112e-38
0.081548322526 -0.0832472459119 0.918 2.00918075724e-38
0.0832472459119 -0.0832472459119 0.918 2.03687517931e-38
0.0846685674374 -0.0829751960887 0.915 1.9815212275e-38
0.0863619387862 -0.0829751960887 0.915 2.03683818503e-38
0.0880553101349 -0.0829751960887 0.915 1.99999552607e-38
0.0895525095023 -0.0827938295399 0.913 2.00917949607e-38
0.0912421794929 -0.0827938295399 0.913 1.97230124413e-38
0.092626487437 -0.0825217797166 0.91 1.96308182127e-38
0.0943106053904 -0.0825217797166 0.91 1.9907403701e-38
0.0957837459299 -0.0823404131678 0.908 1.99988846686e-38
0.0974641625252 -0.0823404131678 0.908 2.09204878401e-38
0.0993629592506 -0.0825217797166 0.91 2.1289986423e-38
0.101047077204 -0.0825217797166 0.91 2.0554570976e-38
0.103069869427 -0.0827938295399 0.913 1.72369646318e-38
-0.016841179534 -0.0808376617632 0.91 2.35077220103e-38
-0.0151570615806 -0.0808376617632 0.91 2.30434984538e-38
-0.0135173599249 -0.0811041595493 0.913 1.53901849779e-38
-0.0118276899343 -0.0811041595493 0.913 2.3134620689e-38
-0.0101602280925 -0.08128182474 0.915 2.08304502098e-38
-0.00849461692979 -0.081548322526 0.918 2.0370188124e-38
-0.00679569354383 -0.081548322526 0.918 1.96337020849e-38
-0.00512453034392 -0.0819924855027 0.923 1.91734428017e-38
-0.00342375627889 -0.0821701506934 0.925 1.99106519108e-38
-0.00171187813945 -0.0821701506934 0.925 1.91730882732e-38
0.0 -0.0824366484794 0.928 2.01854451384e-38
0.00171743017665 -0.0824366484794 0.928 2.00932523111e-38
0.00343486035331 -0.0824366484794 0.928 1.84333680373e-38
0.00516339460438 -0.0826143136701 0.93 2.11070413033e-38
0.00688452613918 -0.0826143136701 0.93 1.95397155956e-38
0.00863341786002 -0.0828808114561 0.933 2.04616718943e-38
0.010360101432 -0.0828808114561 0.933 2.00928865722e-38
0.012086785004 -0.0828808114561 0.933 1.99092141786e-38
0.0138430794411 -0.0830584766468 0.935 1.96322601488e-38
0.0155734643713 -0.0830584766468 0.935 2.0462018015e-38
0.0173038493014 -0.0830584766468 0.935 2.05542164474e-38
0.018993519292 -0.0828808114561 0.933 2.03698279903e-38
0.020720202864 -0.0828808114561 0.933 2.01850822021e-38
0.022446886436 -0.0828808114561 0.933 1.98162996826e-38
0.024173570008 -0.0828808114561 0.933 2.01850822021e-38
0.02590025358 -0.0828808114561 0.933 2.01850850047e-38
0.027626937152 -0.0828808114561 0.933 2.04605900919e-38
0.0293536207241 -0.0828808114561 0.933 2.00921649035e-38
0.0310803042961 -0.0828808114561 0.933 2.13828981164e-38
0.0328069878681 -0.0828808114561 0.933 1.94471458191e-38
0.0345336714401 -0.0828808114561 0.933 2.03691021177e-38
0.0362603550121 -0.0828808114561 0.933 2.04609446204e-38
0.0378648937655 -0.0826143136701 0.93 1.96308294231e-38
0.0395860253003 -0.0826143136701 0.93 2.02762044373e-38
0.0413071568351 -0.0826143136701 0.93 2.10141183995e-38
0.0429357544164 -0.0824366484794 0.928 1.92623986295e-38
0.044653184593 -0.0824366484794 0.928 2.073753151e-38
0.0463706147697 -0.0824366484794 0.928 1.98155780139e-38
0.0480880449463 -0.0824366484794 0.928 1.9999966471e-38
0.049805475123 -0.0824366484794 0.928 1.99077708412e-38
0.0515229052996 -0.0824366484794 0.928 1.90783632996e-38
0.0532403354763 -0.0824366484794 0.928 1.99081239684e-38
0.054957765653 -0.0824366484794 0.928 2.02772806345e-38
0.0566751958296 -0.0824366484794 0.928 2.0737902854e-38
0.0582038567412 -0.0821701506934 0.925 1.97230278555e-38
0.0599157348806 -0.0821701506934 0.925 2.06449813516e-38
0.06162761302 -0.0821701506934 0.925 2.0368394462e-38
0.0633394911595 -0.0821701506934 0.925 1.99996119425e-38
0.0650513692989 -0.0821701506934 0.925 2.03687517931e-38
0.0667632474384 -0.0821701506934 0.925 1.98155780139e-38
0.0684751255778 -0.0821701506934 0.925 2.08297271398e-38
0.0700352480336 -0.0819924855027 0.923 2.03687461879e-38
0.0717434248149 -0.0819924855027 0.923 1.98155752113e-38
0.0734516015962 -0.0819924855027 0.923 1.98152206828e-38
0.0749154887403 -0.0817259877167 0.92 1.99067002492e-38
0.0766181134844 -0.0817259877167 0.92 1.99996175477e-38
0.0783207382285 -0.0817259877167 0.92 1.97230306581e-38
0.07984939914 -0.081548322526 0.918 2.03680441374e-38
0.081548322526 -0.081548322526 0.918 1.99088582488e-38
0.0832472459119 -0.081548322526 0.918 1.9632627289e-38
0.0846685674374 -0.08128182474 0.915 2.0093604037e-38
0.0863619387862 -0.08128182474 0.915 2.00014056046e-38
0.0880553101349 -0.08128182474 0.915 1.95389855191e-38
0.0897486814837 -0.08128182474 0.915 2.03676671881e-38
0.0912421794929 -0.0811041595493 0.913 2.01814780624e-38
0.0929318494835 -0.0811041595493 0.913 2.05488214484e-38
0.0946215194741 -0.0811041595493 0.913 2.05517053206e-38
0.0963111894648 -0.0811041595493 0.913 1.9907056179e-38
0.0980008594554 -0.0811041595493 0.913 1.99992504075e-38
0.0993629592506 -0.0808376617632 0.91 1.99992504075e-38
0.101047077204 -0.0808376617632 0.91 1.91702086049e-38
0.103069869427 -0.0811041595493 0.913 2.20282731306e-38
0.104759539418 -0.0811041595493 0.913 2.20286416721e-38
0.106449209408 -0.0811041595493 0.913 1.14265099768e-38
0.107546662097 -0.0806599965725 0.908 2.28609120665e-38
-0.0184845825479 -0.0789795799773 0.908 2.35077276155e-38
-0.0168041659526 -0.0789795799773 0.908 2.35087968062e-38
-0.0151237493574 -0.0789795799773 0.908 1.29005358314e-38
-0.0134729436272 -0.0791535438098 0.91 2.34108502475e-38
-0.0118276899343 -0.0794144895587 0.913 1.98163024852e-38
-0.0101602280925 -0.0795884533912 0.915 1.98170171474e-38
-0.00849461692979 -0.07984939914 0.918 2.00024846044e-38
-0.00679569354383 -0.07984939914 0.918 1.97258949122e-38
-0.00512453034392 -0.0802843087214 0.923 1.97266165809e-38
-0.00342375627889 -0.0804582725539 0.925 2.00950431706e-38
-0.00171187813945 -0.0804582725539 0.925 2.01879576665e-38
0.0 -0.0807192183028 0.928 2.03698363981e-38
0.00171743017665 -0.0807192183028 0.928 2.04616718943e-38
0.00343486035331 -0.0807192183028 0.928 2.0000693745e-38
0.00516339460438 -0.0808931821353 0.93 2.0000693745e-38
0.00690673428801 -0.0811541278841 0.933 2.00928893748e-38
0.00863341786002 -0.0811541278841 0.933 2.01850850047e-38
0.0103823095809 -0.0813280917167 0.935 1.98163024852e-38
0.012112694511 -0.0813280917167 0.935 1.96319112255e-38
0.0138430794411 -0.0813280917167 0.935 1.95400673215e-38
0.0155734643713 -0.0813280917167 0.935 1.97244557787e-38
0.0173038493014 -0.0813280917167 0.935 2.03698279903e-38
0.0190342342316 -0.0813280917167 0.935 1.96319070216e-38
0.0207646191617 -0.0813280917167 0.935 1.98162996826e-38
0.0224950040919 -0.0813280917167 0.935 2.02772806345e-38
0.024225389022 -0.0813280917167 0.935 2.04613159645e-38
0.02590025358 -0.0811541278841 0.933 2.0092533445e-38
0.027626937152 -0.0811541278841 0.933 2.06449869568e-38
0.0293536207241 -0.0811541278841 0.933 1.98152234854e-38
0.0310803042961 -0.0811541278841 0.933 2.01843577308e-38
0.0328069878681 -0.0811541278841 0.933 2.10144715268e-38
0.0345336714401 -0.0811541278841 0.933 2.03691021177e-38
0.0362603550121 -0.0811541278841 0.933 1.97233795815e-38
0.0378648937655 -0.0808931821353 0.93 2.01840060049e-38
0.0395860253003 -0.0808931821353 0.93 2.036804694e-38
0.0413071568351 -0.0808931821353 0.93 2.03687517931e-38
0.0430282883699 -0.0808931821353 0.93 2.04609446204e-38
0.044653184593 -0.0807192183028 0.928 2.03687517931e-38
0.0463706147697 -0.0807192183028 0.928 2.01840032023e-38
0.0480880449463 -0.0807192183028 0.928 2.01843605334e-38
0.049805475123 -0.0807192183028 0.928 2.073753151e-38
0.0515229052996 -0.0807192183028 0.928 2.02769064879e-38
0.0532403354763 -0.0807192183028 0.928 2.06456848034e-38
0.054957765653 -0.0807192183028 0.928 1.95389911243e-38
0.0566751958296 -0.0807192183028 0.928 1.95386365958e-38
0.0583926260063 -0.0807192183028 0.928 2.06449813516e-38
0.0601100561829 -0.0807192183028 0.928 2.01840032023e-38
0.06162761302 -0.0804582725539 0.925 2.05531430528e-38
0.0633394911595 -0.0804582725539 0.925 1.91702058023e-38
0.0650513692989 -0.0804582725539 0.925 2.11985096593e-38
0.0667632474384 -0.0804582725539 0.925 2.02765533606e-38
0.0684751255778 -0.0804582725539 0.925 1.99077680386e-38
0.0700352480336 -0.0802843087214 0.923 2.01843549282e-38
0.0717434248149 -0.0802843087214 0.923 1.97233795815e-38
0.0734516015962 -0.0802843087214 0.923 1.97233795815e-38
0.0749154887403 -0.0800233629726 0.92 2.06453386827e-38
0.0766181134844 -0.0800233629726 0.92 2.01840032023e-38
0.0783207382285 -0.0800233629726 0.92 1.99996147451e-38
0.07984939914 -0.07984939914 0.918 2.11059651061e-38
0.081548322526 -0.07984939914 0.918 2.02762016347e-38
0.0832472459119 -0.07984939914 0.918 1.96319084229e-38
0.0846685674374 -0.0795884533912 0.915 1.98162982813e-38
0.0863619387862 -0.0795884533912 0.915 1.99084939112e-38
0.0880553101349 -0.0795884533912 0.915 2.05531402502e-38
0.0897486814837 -0.0795884533912 0.915 2.02754743608e-38
0.0914420528324 -0.0795884533912 0.915 2.09190431013e-38
0.0929318494835 -0.0794144895587 0.913 2.11949097235e-38
0.0946215194741 -0.0794144895587 0.913 2.00907285726e-38
0.0963111894648 -0.0794144895587 0.913 2.06446212179e-38
0.0980008594554 -0.0794144895587 0.913 1.99070547777e-38
0.0993629592506 -0.0791535438098 0.91 1.94460766284e-38
0.101047077204 -0.0791535438098 0.91 2.12899906269e-38
0.102731195157 -0.0791535438098 0.91 1.96301161622e-38
0.104185828906 -0.0789795799773 0.908 2.01829368141e-38
0.105866245501 -0.0789795799773 0.908 2.28562555517e-38
0.107546662097 -0.0789795799773 0.908 1.16126850894e-38
-0.0184845825479 -0.077299163382 0.908 2.35088094179e-38
-0.0168041659526 -0.077299163382 0.908 1.19807417363e-38
-0.0151237493574 -0.077299163382 0.908 2.16591248723e-38
-0.0134729436272 -0.0774694258564 0.91 2.10144897436e-38
-0.0118276899343 -0.077724819568 0.913 1.96322713592e-38
-0.0101602280925 -0.0778950820425 0.915 1.9632627289e-38
-0.00849461692979 -0.0781504757541 0.918 2.06478540134e-38
-0.00681049897639 -0.0783207382285 0.92 1.97258977148e-38
-0.00512453034392 -0.0785761319401 0.923 1.98180933447e-38
-0.00342375627889 -0.0787463944145 0.925 1.92652825018e-38
-0.00171187813945 -0.0787463944145 0.925 1.99106533121e-38
0.0 -0.0790017881261 0.928 2.00932495085e-38
0.00171743017665 -0.0790017881261 0.928 1.91709330762e-38
0.00344226306959 -0.0791720506005 0.93 2.02772806345e-38
0.00516339460438 -0.0791720506005 0.93 2.03694762644e-38
0.00690673428801 -0.0794274443121 0.933 2.0000693745e-38
0.00863341786002 -0.0794274443121 0.933 2.01850850047e-38
0.0103823095809 -0.0795977067866 0.935 2.02772806345e-38
0.012112694511 -0.0795977067866 0.935 2.01850850047e-38
0.0138430794411 -0.0795977067866 0.935 2.073825458e-38
0.0155734643713 -0.0795977067866 0.935 2.01850808008e-38
0.0173038493014 -0.0795977067866 0.935 2.09226458397e-38
0.0190342342316 -0.0795977067866 0.935 1.96319084229e-38
0.0207646191617 -0.0795977067866 0.935 2.07382587839e-38
0.0224950040919 -0.0795977067866 0.935 2.04613159645e-38
0.024225389022 -0.0795977067866 0.935 2.00925362476e-38
0.0259557739521 -0.0795977067866 0.935 2.00003406177e-38
0.0276861588823 -0.0795977067866 0.935 2.00918131776e-38
0.0293536207241 -0.0794274443121 0.933 2.0368394462e-38
0.0310803042961 -0.0794274443121 0.933 2.10141183995e-38
0.0328069878681 -0.0794274443121 0.933 2.03691021177e-38
0.0345336714401 -0.0794274443121 0.933 2.08297243372e-38
0.0362603550121 -0.0794274443121 0.933 2.08297271398e-38
0.0379870385841 -0.0794274443121 0.933 2.0737179784e-38
0.0395860253003 -0.0791720506005 0.93 2.0644631027e-38
0.0413071568351 -0.0791720506005 0.93 2.03687517931e-38
0.0430282883699 -0.0791720506005 0.93 2.01843577308e-38
0.044653184593 -0.0790017881261 0.928 2.01843605334e-38
0.0463706147697 -0.0790017881261 0.928 2.0460947423e-38
0.0480880449463 -0.0790017881261 0.928 1.99077736438e-38
0.049805475123 -0.0790017881261 0.928 2.073753151e-38
0.0515229052996 -0.0790017881261 0.928 2.01843549282e-38
0.0532403354763 -0.0790017881261 0.928 2.01847094567e-38
0.054957765653 -0.0790017881261 0.928 2.04609446204e-38
0.0566751958296 -0.0790017881261 0.928 2.00921649035e-38
0.0583926260063 -0.0790017881261 0.928 2.07375343126e-38
0.0601100561829 -0.0790017881261 0.928 1.96311867542e-38
0.06162761302 -0.0787463944145 0.925 2.08297271398e-38
0.0633394911595 -0.0787463944145 0.925 2.00921621009e-38
0.0650513692989 -0.0787463944145 0.925 2.09219199671e-38
0.0667632474384 -0.0787463944145 0.925 1.97233767789e-38
0.0684751255778 -0.0787463944145 0.925 1.99999636685e-38
0.0701870037173 -0.0787463944145 0.925 2.04609418178e-38
0.0718988818567 -0.0787463944145 0.925 2.01843577308e-38
0.0734516015962 -0.0785761319401 0.923 2.02765533606e-38
0.0751597783775 -0.0785761319401 0.923 2.08297271398e-38
0.0766181134844 -0.0783207382285 0.92 2.03687489905e-38
0.0783207382285 -0.0783207382285 0.92 1.94467954945e-38
0.0800233629726 -0.0783207382285 0.92 2.03687517931e-38
0.081548322526 -0.0781504757541 0.918 2.07368168477e-38
0.0832472459119 -0.0781504757541 0.918 2.01836430686e-38
0.0846685674374 -0.0778950820425 0.915 2.0460947423e-38
0.0863619387862 -0.0778950820425 0.915 2.05538633202e-38
0.0880553101349 -0.0778950820425 0.915 1.95400673215e-38
0.0897486814837 -0.0778950820425 0.915 2.05531402502e-38
0.0914420528324 -0.0778950820425 0.915 2.02761904243e-38
0.0931354241812 -0.0778950820425 0.915 1.9905610039e-38
0.0946215194741 -0.077724819568 0.913 2.0368032927e-38
0.0963111894648 -0.077724819568 0.913 2.01840032023e-38
0.0980008594554 -0.077724819568 0.913 2.01843605334e-38
0.0993629592506 -0.0774694258564 0.91 1.95389911243e-38
0.101047077204 -0.0774694258564 0.91 1.97230250529e-38
0.102505412311 -0.077299163382 0.908 1.92620525088e-38
0.104185828906 -0.077299163382 0.908 2.12900032386e-38
0.105866245501 -0.077299163382 0.908 1.92617007829e-38
0.107546662097 -0.077299163382 0.908 2.35084408764e-38
-0.0184845825479 -0.0756187467868 0.908 1.98188094082e-38
-0.0168041659526 -0.0756187467868 0.908 1.71433438814e-38
-0.0151237493574 -0.0756187467868 0.908 2.1106316832e-38
-0.0134729436272 -0.075785307903 0.91 2.00925362476e-38
-0.0118276899343 -0.0760351495774 0.913 2.09240919797e-38
-0.0101602280925 -0.0762017106937 0.915 1.94489590993e-38
-0.00849461692979 -0.0764515523681 0.918 1.96337048875e-38
-0.00681049897639 -0.0766181134844 0.92 2.05556611862e-38
-0.00512453034392 -0.0768679551588 0.923 2.01868786667e-38
-0.00342375627889 -0.0770345162751 0.925 1.97255431863e-38
-0.00171743017665 -0.0772843579495 0.928 2.01865241382e-38
0.0 -0.0772843579495 0.928 1.99088582488e-38
0.00172113153479 -0.0774509190657 0.93 2.03694762644e-38
0.00344226306959 -0.0774509190657 0.93 2.14758238228e-38
0.00518005071601 -0.0777007607401 0.933 1.94475199658e-38
0.00692153972057 -0.0778673218564 0.935 2.05538675241e-38
0.00865192465071 -0.0778673218564 0.935 2.05538675241e-38
0.0103823095809 -0.0778673218564 0.935 1.97241068554e-38
0.012112694511 -0.0778673218564 0.935 2.01850850047e-38
0.0138430794411 -0.0778673218564 0.935 2.00928865722e-38
0.0155734643713 -0.0778673218564 0.935 1.97241040528e-38
0.0173038493014 -0.0778673218564 0.935 2.03694762644e-38
0.0190342342316 -0.0778673218564 0.935 1.96319112255e-38
0.0207646191617 -0.0778673218564 0.935 2.08300984839e-38
0.0224950040919 -0.0778673218564 0.935 1.99081449879e-38
0.024225389022 -0.0778673218564 0.935 2.04613187671e-38
0.0259557739521 -0.0778673218564 0.935 2.05535143969e-38
0.0276861588823 -0.0778673218564 0.935 2.06449841542e-38
0.0293536207241 -0.0777007607401 0.933 2.04605900919e-38
0.0310803042961 -0.0777007607401 0.933 2.02765533606e-38
0.0328069878681 -0.0777007607401 0.933 2.09219199671e-38
0.0345336714401 -0.0777007607401 0.933 2.03687489905e-38
0.0362603550121 -0.0777007607401 0.933 1.99999692736e-38
0.0378648937655 -0.0774509190657 0.93 2.03683972646e-38
0.0395860253003 -0.0774509190657 0.93 2.04602397672e-38
0.0413071568351 -0.0774509190657 0.93 2.1013763871e-38
0.0430282883699 -0.0774509190657 0.93 2.02765561632e-38
0.044653184593 -0.0772843579495 0.928 2.06453386827e-38
0.0463706147697 -0.0772843579495 0.928 2.09219255723e-38
0.0480880449463 -0.0772843579495 0.928 2.00921621009e-38
0.049805475123 -0.0772843579495 0.928 2.073753151e-38
0.0515229052996 -0.0772843579495 0.928 2.0276550558e-38
0.0532403354763 -0.0772843579495 0.928 2.07375287074e-38
0.054957765653 -0.0772843579495 0.928 2.04609418178e-38
0.0566751958296 -0.0772843579495 0.928 1.99077708412e-38
0.0583926260063 -0.0772843579495 0.928 2.05531402502e-38
0.0601100561829 -0.0772843579495 0.928 1.94467926919e-38
0.06162761302 -0.0770345162751 0.925 1.97233795815e-38
0.0633394911595 -0.0770345162751 0.925 2.01843549282e-38
0.0650513692989 -0.0770345162751 0.925 2.04612977476e-38
0.0667632474384 -0.0770345162751 0.925 2.05534919761e-38
0.0684751255778 -0.0770345162751 0.925 2.07378846372e-38
0.0701870037173 -0.0770345162751 0.925 2.00921592983e-38
0.0718988818567 -0.0770345162751 0.925 2.01843577308e-38
0.0736107599962 -0.0770345162751 0.925 2.02765533606e-38
0.0751597783775 -0.0768679551588 0.923 1.9999966471e-38
0.0768679551588 -0.0768679551588 0.923 2.11985068567e-38
0.0785761319401 -0.0768679551588 0.923 1.99999636685e-38
0.0800233629726 -0.0766181134844 0.92 2.06456890073e-38
0.0817259877167 -0.0766181134844 0.92 2.11048790998e-38
0.0832472459119 -0.0764515523681 0.918 2.05517067219e-38
0.0846685674374 -0.0762017106937 0.915 2.0460947423e-38
0.0863619387862 -0.0762017106937 0.915 2.00006895411e-38
0.0880553101349 -0.0762017106937 0.915 1.9724818715e-38
0.0897486814837 -0.0762017106937 0.915 2.0370188124e-38
0.0914420528324 -0.0762017106937 0.915 2.03698251877e-38
0.0931354241812 -0.0762017106937 0.915 2.0276550558e-38
0.0946215194741 -0.0760351495774 0.913 2.05531430528e-38
0.0963111894648 -0.0760351495774 0.913 2.01843605334e-38
0.0980008594554 -0.0760351495774 0.913 1.98155780139e-38
0.0993629592506 -0.075785307903 0.91 1.99074163127e-38
0.101047077204 -0.075785307903 0.91 2.0737179784e-38
0.102505412311 -0.0756187467868 0.908 2.00918131776e-38
0.104185828906 -0.0756187467868 0.908 1.88007184297e-38
0.105866245501 -0.0756187467868 0.908 2.15665873256e-38
0.107546662097 -0.0756187467868 0.908 2.34122837758e-38
-0.0184845825479 -0.0739383301915 0.908 1.31796366504e-38
-0.0168041659526 -0.0739383301915 0.908 2.35052080809e-38
-0.0151237493574 -0.0739383301915 0.908 2.18442504124e-38
-0.0134729436272 -0.0741011899496 0.91 2.00010594839e-38
-0.0118276899343 -0.0743454795868 0.913 2.05549535304e-38
-0.0101602280925 -0.074508339345 0.915 2.00943313109e-38
-0.00849461692979 -0.0747526289822 0.918 2.06474994849e-38
-0.00681049897639 -0.0749154887403 0.92 2.00943257057e-38
-0.00510787423229 -0.0749154887403 0.92 1.98177388162e-38
-0.00342375627889 -0.0753226381356 0.925 2.08318935472e-38
-0.00171743017665 -0.0755669277728 0.928 1.91712960125e-38
0.0 -0.0757297875309 0.93 2.02772806345e-38
0.00172113153479 -0.0757297875309 0.93 1.94475199658e-38
0.00345336714401 -0.0759740771681 0.933 2.01850850047e-38
0.00519115479043 -0.0761369369263 0.935 2.07382587839e-38
0.00692153972057 -0.0761369369263 0.935 2.0000693745e-38
0.00865192465071 -0.0761369369263 0.935 2.00928893748e-38
0.0103823095809 -0.0761369369263 0.935 2.08304544137e-38
0.012112694511 -0.0761369369263 0.935 2.04616718943e-38
0.0138430794411 -0.0761369369263 0.935 2.0646063154e-38
0.0155734643713 -0.0761369369263 0.935 2.10148456734e-38
0.0173038493014 -0.0761369369263 0.935 1.96319112255e-38
0.0190342342316 -0.0761369369263 0.935 2.04613159645e-38
0.0207646191617 -0.0761369369263 0.935 1.98159465554e-38
0.0224950040919 -0.0761369369263 0.935 2.0092533445e-38
0.024225389022 -0.0761369369263 0.935 2.02769275073e-38
0.0259557739521 -0.0761369369263 0.935 2.11066881761e-38
0.0276861588823 -0.0761369369263 0.935 1.98152206828e-38
0.0293536207241 -0.0759740771681 0.933 2.07375343126e-38
0.0310803042961 -0.0759740771681 0.933 2.05531402502e-38
0.0328069878681 -0.0759740771681 0.933 2.06453358801e-38
0.0345336714401 -0.0759740771681 0.933 2.10141183995e-38
0.0362603550121 -0.0759740771681 0.933 1.96311867542e-38
0.0378648937655 -0.0757297875309 0.93 2.08293754139e-38
0.0395860253003 -0.0757297875309 0.93 2.05527913269e-38
0.0413071568351 -0.0757297875309 0.93 1.97230250529e-38
0.0430282883699 -0.0757297875309 0.93 2.05527857217e-38
0.044653184593 -0.0755669277728 0.928 2.07375343126e-38
0.0463706147697 -0.0755669277728 0.928 2.09219255723e-38
0.0480880449463 -0.0755669277728 0.928 1.9999966471e-38
0.049805475123 -0.0755669277728 0.928 2.04609446204e-38
0.0515229052996 -0.0755669277728 0.928 2.06453358801e-38
0.0532403354763 -0.0755669277728 0.928 1.99077708412e-38
0.054957765653 -0.0755669277728 0.928 1.95389855191e-38
0.0566751958296 -0.0755669277728 0.928 2.07375287074e-38
0.0583926260063 -0.0755669277728 0.928 2.08297271398e-38
0.0601100561829 -0.0755669277728 0.928 2.07375343126e-38
0.06162761302 -0.0753226381356 0.925 2.09219255723e-38
0.0633394911595 -0.0753226381356 0.925 2.05531374476e-38
0.0650513692989 -0.0753226381356 0.925 2.0830080267e-38
0.0667632474384 -0.0753226381356 0.925 1.96315328749e-38
0.0684751255778 -0.0753226381356 0.925 2.16598409358e-38
0.0701870037173 -0.0753226381356 0.925 2.04609418178e-38
0.0718988818567 -0.0753226381356 0.925 2.05531402502e-38
0.0736107599962 -0.0753226381356 0.925 2.01843605334e-38
0.0753226381356 -0.0753226381356 0.925 1.88014260854e-38
0.0768679551588 -0.0751597783775 0.923 2.09219199671e-38
0.0785761319401 -0.0751597783775 0.923 1.93549501892e-38
0.0802843087214 -0.0751597783775 0.923 2.0645687606e-38
0.0817259877167 -0.0749154887403 0.92 2.1749169509e-38
0.0832472459119 -0.0747526289822 0.918 2.05517067219e-38
0.0849461692979 -0.0747526289822 0.918 2.04602285568e-38
0.0866450926839 -0.0747526289822 0.918 2.02772764306e-38
0.0880553101349 -0.074508339345 0.915 2.04623837539e-38
0.0897486814837 -0.074508339345 0.915 1.97258977148e-38
0.0914420528324 -0.074508339345 0.915 2.05549353136e-38
0.0931354241812 -0.074508339345 0.915 2.01861527941e-38
0.0946215194741 -0.0743454795868 0.913 2.10141155969e-38
0.0963111894648 -0.0743454795868 0.913 2.04609446204e-38
0.0980008594554 -0.0743454795868 0.913 2.0460947423e-38
0.0993629592506 -0.0741011899496 0.91 2.04605900919e-38
0.101047077204 -0.0741011899496 0.91 2.14747448229e-38
0.102505412311 -0.0739383301915 0.908 1.94464437686e-38
0.104185828906 -0.0739383301915 0.908 2.12903563658e-38
0.105633059939 -0.0737754704334 0.906 2.14747476255e-38
0.107309775176 -0.0737754704334 0.906 2.16594878086e-38
-0.0201205828455 -0.0720987551962 0.906 1.76035807438e-38
-0.0184438676083 -0.0720987551962 0.906 1.9631181149e-38
-0.0167671523712 -0.0720987551962 0.906 2.27658381695e-38
-0.0151237493574 -0.0722579135962 0.908 1.89861914918e-38
-0.0135173599249 -0.0726558095962 0.913 2.00017839552e-38
-0.0118276899343 -0.0726558095962 0.913 1.98181101602e-38
-0.0101602280925 -0.0728149679962 0.915 1.98173884915e-38
-0.00849461692979 -0.0730537055962 0.918 2.03709153979e-38
-0.00681049897639 -0.0732128639962 0.92 1.95411547292e-38
-0.00510787423229 -0.0732128639962 0.92 1.97244669891e-38
-0.00342375627889 -0.0736107599962 0.925 2.083081735e-38
-0.00171743017665 -0.0738494975962 0.928 1.97244725943e-38
0.0 -0.0740086559961 0.93 2.04616718943e-38
0.001726683572 -0.0742473935961 0.933 1.97241068554e-38
0.00345336714401 -0.0742473935961 0.933 2.05538675241e-38
0.00519115479043 -0.0744065519961 0.935 2.08304544137e-38
0.00692153972057 -0.0744065519961 0.935 1.99084981151e-38
0.00865192465071 -0.0744065519961 0.935 2.05538675241e-38
0.0103823095809 -0.0744065519961 0.935 2.01850850047e-38
0.012112694511 -0.0744065519961 0.935 2.04616718943e-38
0.0138430794411 -0.0744065519961 0.935 2.00928893748e-38
0.0155734643713 -0.0744065519961 0.935 2.05538675241e-38
0.0173038493014 -0.0744065519961 0.935 2.0000693745e-38
0.0190342342316 -0.0744065519961 0.935 2.10148456734e-38
0.0207646191617 -0.0744065519961 0.935 1.94475199658e-38
0.0224950040919 -0.0744065519961 0.935 2.02772806345e-38
0.024225389022 -0.0744065519961 0.935 1.97241068554e-38
0.0259557739521 -0.0744065519961 0.935 2.03691203346e-38
0.0276861588823 -0.0744065519961 0.935 2.04605900919e-38
0.0294165438124 -0.0744065519961 0.935 2.06453358801e-38
0.0311469287426 -0.0744065519961 0.935 2.0460947423e-38
0.0328773136727 -0.0744065519961 0.935 2.10141212021e-38
0.0345336714401 -0.0742473935961 0.933 2.00921649035e-38
0.0362603550121 -0.0742473935961 0.933 2.1013763871e-38
0.0378648937655 -0.0740086559961 0.93 2.04605928945e-38
0.0395860253003 -0.0740086559961 0.93 2.05527885243e-38
0.0413071568351 -0.0740086559961 0.93 1.99074191153e-38
0.0430282883699 -0.0740086559961 0.93 2.02762016347e-38
0.044653184593 -0.0738494975962 0.928 2.00921649035e-38
0.0463706147697 -0.0738494975962 0.928 2.02765533606e-38
0.0481916829742 -0.0740086559961 0.93 2.073753151e-38
0.049912814509 -0.0740086559961 0.93 2.04609446204e-38
0.0516339460438 -0.0740086559961 0.93 2.02765561632e-38
0.0533550775786 -0.0740086559961 0.93 1.99999692736e-38
0.054957765653 -0.0738494975962 0.928 2.07375287074e-38
0.0566751958296 -0.0738494975962 0.928 2.10141155969e-38
0.0583926260063 -0.0738494975962 0.928 2.05531430528e-38
0.0601100561829 -0.0738494975962 0.928 2.0368394462e-38
0.0618274863596 -0.0738494975962 0.928 2.02761988321e-38
0.0635449165362 -0.0738494975962 0.928 2.00921621009e-38
0.0650513692989 -0.0736107599962 0.925 2.0830080267e-38
0.0667632474384 -0.0736107599962 0.925 2.06456848034e-38
0.0684751255778 -0.0736107599962 0.925 2.09222744956e-38
0.0701870037173 -0.0736107599962 0.925 2.00925152281e-38
0.0718988818567 -0.0736107599962 0.925 2.02765533606e-38
0.0736107599962 -0.0736107599962 0.925 2.05527857217e-38
0.0753226381356 -0.0736107599962 0.925 2.12903535632e-38
0.0770345162751 -0.0736107599962 0.925 2.08297299424e-38
0.0785761319401 -0.0734516015962 0.923 2.07375287074e-38
0.0802843087214 -0.0734516015962 0.923 2.0645687606e-38
0.0819924855027 -0.0734516015962 0.923 1.99063359116e-38
0.0832472459119 -0.0730537055962 0.918 2.15658586504e-38
0.0849461692979 -0.0730537055962 0.918 2.03687517931e-38
0.0866450926839 -0.0730537055962 0.918 2.11992327293e-38
0.0880553101349 -0.0728149679962 0.915 2.01868758641e-38
0.0897486814837 -0.0728149679962 0.915 1.97258977148e-38
0.0914420528324 -0.0728149679962 0.915 2.0923717833e-38
0.0931354241812 -0.0728149679962 0.915 2.00010426683e-38
0.0946215194741 -0.0726558095962 0.913 1.96322573462e-38
0.0963111894648 -0.0726558095962 0.913 2.09229989669e-38
0.0980008594554 -0.0726558095962 0.913 2.04616676904e-38
0.0993629592506 -0.0724170719962 0.91 1.96319084229e-38
0.101047077204 -0.0724170719962 0.91 1.98163024852e-38
0.101940955195 -0.0718600175963 0.903 2.02772806345e-38
0.10338263419 -0.0717008591963 0.901 1.97241068554e-38
0.104700317688 -0.0714621215963 0.898 2.09226500436e-38
0.106362227492 -0.0714621215963 0.898 2.03698251877e-38
-0.020053958399 -0.0701888543963 0.903 1.51139245908e-38
-0.018382795199 -0.0701888543963 0.903 2.3507720609e-38
-0.0167671523712 -0.0704220399591 0.906 2.00921649035e-38
-0.0151237493574 -0.070577497001 0.908 2.0553162671e-38
-0.0135173599249 -0.0709661396056 0.913 2.05553206706e-38
-0.0118276899343 -0.0709661396056 0.913 2.00021440889e-38
-0.0101602280925 -0.0711215966475 0.915 1.96337160979e-38
-0.00849461692979 -0.0713547822102 0.918 1.98177444213e-38
-0.00681049897639 -0.0715102392521 0.92 2.05553066577e-38
-0.00510787423229 -0.0715102392521 0.92 1.96322741618e-38
-0.00342375627889 -0.0718988818567 0.925 2.02769275073e-38
-0.00172113153479 -0.0722875244614 0.93 2.01847346801e-38
0.0 -0.0725207100241 0.933 2.05535115943e-38
0.001726683572 -0.0725207100241 0.933 1.98163024852e-38
0.00346076986028 -0.072676167066 0.935 2.02772806345e-38
0.00519115479043 -0.072676167066 0.935 2.0000693745e-38
0.00692153972057 -0.072676167066 0.935 2.01850850047e-38
0.00865192465071 -0.072676167066 0.935 2.07382587839e-38
0.0103823095809 -0.072676167066 0.935 2.07382587839e-38
0.012112694511 -0.072676167066 0.935 2.00928893748e-38
0.0138430794411 -0.072676167066 0.935 2.07382559813e-38
0.0155734643713 -0.072676167066 0.935 2.06460603514e-38
0.0173038493014 -0.072676167066 0.935 2.00928865722e-38
0.0190342342316 -0.072676167066 0.935 2.02772778319e-38
0.0207646191617 -0.072676167066 0.935 2.00928865722e-38
0.0224950040919 -0.072676167066 0.935 1.98162996826e-38
0.024225389022 -0.072676167066 0.935 2.02772778319e-38
0.0259557739521 -0.072676167066 0.935 2.01850822021e-38
0.0276861588823 -0.072676167066 0.935 2.02765561632e-38
0.0294165438124 -0.072676167066 0.935 2.11063140294e-38
0.0311469287426 -0.072676167066 0.935 1.99077736438e-38
0.0328773136727 -0.072676167066 0.935 2.07375343126e-38
0.0346076986028 -0.072676167066 0.935 2.00918075724e-38
0.036338083533 -0.072676167066 0.935 2.08293726113e-38
0.0379870385841 -0.0725207100241 0.933 2.0368394462e-38
0.0397137221561 -0.0725207100241 0.933 2.0368394462e-38
0.0414404057281 -0.0725207100241 0.933 2.10137694762e-38
0.0430282883699 -0.0722875244614 0.93 2.11059623035e-38
0.0447494199046 -0.0722875244614 0.93 2.06449813516e-38
0.0464705514394 -0.0722875244614 0.93 2.073753151e-38
0.0481916829742 -0.0722875244614 0.93 2.11985068567e-38
0.049912814509 -0.0722875244614 0.93 2.06453358801e-38
0.0516339460438 -0.0722875244614 0.93 2.03687517931e-38
0.0533550775786 -0.0722875244614 0.93 2.1013763871e-38
0.054957765653 -0.0721320674195 0.928 2.04609446204e-38
0.0566751958296 -0.0721320674195 0.928 2.05531402502e-38
0.0583926260063 -0.0721320674195 0.928 2.04605900919e-38
0.0601100561829 -0.0721320674195 0.928 2.00918131776e-38
0.0618274863596 -0.0721320674195 0.928 2.02762044373e-38
0.0635449165362 -0.0721320674195 0.928 1.97230250529e-38
0.0652623467129 -0.0721320674195 0.928 2.10141155969e-38
0.0667632474384 -0.0718988818567 0.925 1.97237313074e-38
0.0684751255778 -0.0718988818567 0.925 2.00925110242e-38
0.0701870037173 -0.0718988818567 0.925 2.09222744956e-38
0.0718988818567 -0.0718988818567 0.925 1.97233795815e-38
0.0736107599962 -0.0718988818567 0.925 2.0091810375e-38
0.0753226381356 -0.0718988818567 0.925 2.12903563658e-38
0.0770345162751 -0.0718988818567 0.925 2.05527913269e-38
0.0787463944145 -0.0718988818567 0.925 2.05527857217e-38
0.0802843087214 -0.0717434248149 0.923 2.09219227697e-38
0.0819924855027 -0.0717434248149 0.923 2.09212067062e-38
0.0834286124608 -0.0715102392521 0.92 2.09212081075e-38
0.0849461692979 -0.0713547822102 0.918 1.99084939112e-38
0.0866450926839 -0.0713547822102 0.918 2.00014084072e-38
0.0883440160698 -0.0713547822102 0.918 2.00946802343e-38
0.0897486814837 -0.0711215966475 0.915 1.95404274553e-38
0.0914420528324 -0.0711215966475 0.915 2.06464120773e-38
0.0931354241812 -0.0711215966475 0.915 2.04609418178e-38
0.0948287955299 -0.0711215966475 0.915 2.06464092747e-38
0.0963111894648 -0.0709661396056 0.913 2.02776267553e-38
0.0980008594554 -0.0709661396056 0.913 2.01854367306e-38
0.0993629592506 -0.0707329540428 0.91 2.03694734618e-38
0.100824995716 -0.070577497001 0.908 2.02769247047e-38
0.101940955195 -0.0701888543963 0.903 1.97241068554e-38
0.10338263419 -0.0700333973545 0.901 2.11992341306e-38
0.104700317688 -0.0698002117917 0.898 2.14758210202e-38
0.106362227492 -0.0698002117917 0.898 2.10159134629e-38
0.108024137297 -0.0698002117917 0.898 2.35077276155e-38
-0.0216770039431 -0.0683659355127 0.901 1.64050277465e-38
-0.0199429176548 -0.0681383019871 0.898 2.03676475699e-38
-0.0182810078502 -0.0681383019871 0.898 2.22112056387e-38
-0.0167116319991 -0.0685176911964 0.903 2.110524624e-38
-0.0151237493574 -0.0688970804057 0.908 2.00921873243e-38
-0.0134729436272 -0.0690488360894 0.91 2.00021496941e-38
-0.0118276899343 -0.069276469615 0.913 2.03709266083e-38
-0.0101602280925 -0.0694282252987 0.915 2.00946970498e-38
-0.00849461692979 -0.0696558588243 0.918 2.02787225707e-38
-0.00681049897639 -0.069807614508 0.92 2.04620348306e-38
-0.00510787423229 -0.069807614508 0.92 2.02776435708e-38
-0.00342375627889 -0.0701870037173 0.925 2.13832750657e-38
-0.00172113153479 -0.0705663929266 0.93 1.9539365271e-38
0.0 -0.0707940264521 0.933 1.99081421853e-38
0.00173038493014 -0.0709457821358 0.935 1.95397155956e-38
0.00346076986028 -0.0709457821358 0.935 2.08304544137e-38
0.00519115479043 -0.0709457821358 0.935 2.07382587839e-38
0.00692153972057 -0.0709457821358 0.935 2.03694762644e-38
0.00865192465071 -0.0709457821358 0.935 2.05538675241e-38
0.0103823095809 -0.0709457821358 0.935 2.0000693745e-38
0.012112694511 -0.0709457821358 0.935 2.07382587839e-38
0.0138430794411 -0.0709457821358 0.935 2.0922647241e-38
0.0155734643713 -0.0709457821358 0.935 2.05538633202e-38
0.0173038493014 -0.0709457821358 0.935 2.073825458e-38
0.0190342342316 -0.0709457821358 0.935 2.08304502098e-38
0.0207646191617 -0.0709457821358 0.935 1.98162982813e-38
0.0224950040919 -0.0709457821358 0.935 1.95400673215e-38
0.024225389022 -0.0709457821358 0.935 2.055421925e-38
0.0259557739521 -0.0709457821358 0.935 2.03698279903e-38
0.0276861588823 -0.0709457821358 0.935 2.08297271398e-38
0.0294165438124 -0.0709457821358 0.935 2.12907052891e-38
0.0311469287426 -0.0709457821358 0.935 2.06453386827e-38
0.0328773136727 -0.0709457821358 0.935 2.05527857217e-38
0.0346076986028 -0.0709457821358 0.935 2.11981551308e-38
0.036338083533 -0.0709457821358 0.935 2.1013763871e-38
0.0379870385841 -0.0707940264521 0.933 2.09215682412e-38
0.0397137221561 -0.0707940264521 0.933 2.11981551308e-38
0.0414404057281 -0.0707940264521 0.933 2.03684000672e-38
0.0430282883699 -0.0705663929266 0.93 2.07371825866e-38
0.0447494199046 -0.0705663929266 0.93 2.05527857217e-38
0.0464705514394 -0.0705663929266 0.93 2.04609446204e-38
0.0483471400161 -0.0707940264521 0.933 2.10141155969e-38
0.0500738235881 -0.0707940264521 0.933 2.073753151e-38
0.0518005071601 -0.0707940264521 0.933 2.05531430528e-38
0.0533550775786 -0.0705663929266 0.93 2.11981579334e-38
0.0550762091134 -0.0705663929266 0.93 2.10141183995e-38
0.0567973406482 -0.0705663929266 0.93 2.06453386827e-38
0.058518472183 -0.0705663929266 0.93 2.09215710438e-38
0.0601100561829 -0.0704146372428 0.928 2.11056091763e-38
0.0618274863596 -0.0704146372428 0.928 2.09212207192e-38
0.0635449165362 -0.0704146372428 0.928 2.0737179784e-38
0.0652623467129 -0.0704146372428 0.928 2.12907052891e-38
0.0669797768895 -0.0704146372428 0.928 2.0645687606e-38
0.0686972070662 -0.0704146372428 0.928 2.09226276228e-38
0.0701870037173 -0.0701870037173 0.925 2.15676439046e-38
0.0718988818567 -0.0701870037173 0.925 2.10141212021e-38
0.0736107599962 -0.0701870037173 0.925 2.0460595697e-38
0.0753226381356 -0.0701870037173 0.925 2.036804694e-38
0.0770345162751 -0.0701870037173 0.925 2.08290250893e-38
0.0787463944145 -0.0701870037173 0.925 2.02762016347e-38
0.0804582725539 -0.0701870037173 0.925 2.12903507606e-38
0.0819924855027 -0.0700352480336 0.923 2.08293726113e-38
0.083700662284 -0.0700352480336 0.923 2.12903507606e-38
0.0849461692979 -0.0696558588243 0.918 2.08311690759e-38
0.0866450926839 -0.0696558588243 0.918 2.02790742966e-38
0.0883440160698 -0.0696558588243 0.918 2.00024846044e-38
0.0900429394558 -0.0696558588243 0.918 2.02779924942e-38
0.0914420528324 -0.0694282252987 0.915 2.0830803337e-38
0.0931354241812 -0.0694282252987 0.915 2.08293642035e-38
0.0948287955299 -0.0694282252987 0.915 1.99092015669e-38
0.0963111894648 -0.069276469615 0.913 2.00010398657e-38
0.0980008594554 -0.069276469615 0.913 2.02776323605e-38
0.0993629592506 -0.0690488360894 0.91 2.07382587839e-38
0.100602914227 -0.068745324722 0.906 2.08300984839e-38
0.101715172348 -0.0683659355127 0.901 2.00928893748e-38
0.103038407883 -0.0681383019871 0.898 2.13836253903e-38
0.104700317688 -0.0681383019871 0.898 2.12914283591e-38
0.106362227492 -0.0681383019871 0.898 2.13846959823e-38
0.108024137297 -0.0681383019871 0.898 2.35070059468e-38
-0.02321491825 -0.066328337857 0.896 2.35087968062e-38
-0.0215567098035 -0.066328337857 0.896 1.58536588398e-38
-0.0199429176548 -0.0664763921826 0.898 2.35080625258e-38
-0.0182810078502 -0.0664763921826 0.898 2.00961151639e-38
-0.0166190980456 -0.0664763921826 0.898 2.01868926797e-38
-0.0150904371341 -0.0670686094849 0.906 2.02769387177e-38
-0.0134729436272 -0.067364718136 0.91 2.03712839394e-38
-0.0118276899343 -0.0675867996244 0.913 2.03712783342e-38
-0.0101602280925 -0.06773485395 0.915 2.00021356811e-38
-0.00849461692979 -0.0679569354383 0.918 2.02776407682e-38
-0.00681049897639 -0.0681049897639 0.92 2.03691203346e-38
-0.00510787423229 -0.0681049897639 0.92 2.00925362476e-38
-0.00342375627889 -0.0684751255778 0.925 1.99992644205e-38
-0.00172113153479 -0.0688452613918 0.93 2.08283076245e-38
0.0 -0.0690673428801 0.933 2.07382587839e-38
0.00173038493014 -0.0692153972057 0.935 2.04616690917e-38
0.00346076986028 -0.0692153972057 0.935 2.05538675241e-38
0.00519115479043 -0.0692153972057 0.935 1.98163024852e-38
0.00692153972057 -0.0692153972057 0.935 2.00003378151e-38
0.00865192465071 -0.0692153972057 0.935 2.11988810034e-38
0.0103823095809 -0.0692153972057 0.935 2.05535115943e-38
0.012112694511 -0.0692153972057 0.935 2.06457072242e-38
0.0138430794411 -0.0692153972057 0.935 2.00928865722e-38
0.0155734643713 -0.0692153972057 0.935 2.04616690917e-38
0.0173038493014 -0.0692153972057 0.935 2.03694734618e-38
0.0190342342316 -0.0692153972057 0.935 2.0922647241e-38
0.0207646191617 -0.0692153972057 0.935 2.00928851709e-38
0.0224950040919 -0.0692153972057 0.935 2.00932411007e-38
0.024225389022 -0.0692153972057 0.935 2.08308005344e-38
0.0259557739521 -0.0692153972057 0.935 1.96326146773e-38
0.0276861588823 -0.0692153972057 0.935 2.13839743136e-38
0.0294165438124 -0.0692153972057 0.935 1.89868907398e-38
0.0311469287426 -0.0692153972057 0.935 2.04620208176e-38
0.0328773136727 -0.0692153972057 0.935 2.03698279903e-38
0.0346076986028 -0.0692153972057 0.935 2.09226458397e-38
0.036338083533 -0.0692153972057 0.935 1.97241026515e-38
0.0380684684631 -0.0692153972057 0.935 1.90787346437e-38
0.0397988533933 -0.0692153972057 0.935 2.06460603514e-38
0.0415292383234 -0.0692153972057 0.935 2.16584172166e-38
0.0431670893001 -0.0690673428801 0.933 2.06446198166e-38
0.0448937728721 -0.0690673428801 0.933 2.13832540462e-38
0.0466204564441 -0.0690673428801 0.933 2.01854311254e-38
0.0483471400161 -0.0690673428801 0.933 2.0830803337e-38
0.0500738235881 -0.0690673428801 0.933 2.11992327293e-38
0.0518005071601 -0.0690673428801 0.933 1.98155724087e-38
0.0535271907321 -0.0690673428801 0.933 2.10137512593e-38
0.0550762091134 -0.0688452613918 0.93 1.98159269372e-38
0.0567973406482 -0.0688452613918 0.93 2.02776295579e-38
0.058518472183 -0.0688452613918 0.93 1.9539712793e-38
0.0602396037178 -0.0688452613918 0.93 1.97237509256e-38
0.0618274863596 -0.0686972070662 0.928 2.03691259398e-38
0.0635449165362 -0.0686972070662 0.928 2.06457100268e-38
0.0652623467129 -0.0686972070662 0.928 2.01847290749e-38
0.0669797768895 -0.0686972070662 0.928 2.01850850047e-38
0.0686972070662 -0.0686972070662 0.928 2.00010454709e-38
0.0701870037173 -0.0684751255778 0.925 2.02776323605e-38
0.0718988818567 -0.0684751255778 0.925 2.08304502098e-38
0.0736107599962 -0.0684751255778 0.925 2.07382559813e-38
0.0753226381356 -0.0684751255778 0.925 2.18446035396e-38
0.0770345162751 -0.0684751255778 0.925 2.04616690917e-38
0.0787463944145 -0.0684751255778 0.925 2.10148428709e-38
0.0804582725539 -0.0684751255778 0.925 2.03694720605e-38
0.0821701506934 -0.0684751255778 0.925 2.05545835876e-38
0.083700662284 -0.0683270712523 0.923 1.9633350359e-38
0.0849461692979 -0.0679569354383 0.918 2.02787197681e-38
0.0866450926839 -0.0679569354383 0.918 2.1660931146e-38
0.0883440160698 -0.0679569354383 0.918 2.00936054383e-38
0.0900429394558 -0.0679569354383 0.918 2.12914283591e-38
0.0914420528324 -0.06773485395 0.915 2.05531430528e-38
0.0931354241812 -0.06773485395 0.915 1.99077736438e-38
0.0948287955299 -0.06773485395 0.915 2.12899892256e-38
0.0963111894648 -0.0675867996244 0.913 1.99992476049e-38
0.0980008594554 -0.0675867996244 0.913 2.05524213841e-38
0.0993629592506 -0.067364718136 0.91 1.95397113917e-38
0.100602914227 -0.0670686094849 0.906 1.9632627289e-38
0.101376498078 -0.0664763921826 0.898 2.06464232877e-38
0.103038407883 -0.0664763921826 0.898 2.07396979174e-38
0.104700317688 -0.0664763921826 0.898 2.1385070129e-38
0.106362227492 -0.0664763921826 0.898 2.11995970669e-38
-0.023163099236 -0.0645257764432 0.894 1.68667541892e-38
-0.0215085921477 -0.0645257764432 0.894 1.83422359929e-38
-0.0198985013571 -0.0646701294106 0.896 2.20322261936e-38
-0.0181385055618 -0.064309246992 0.891 1.94514828378e-38
-0.0164895505108 -0.064309246992 0.891 2.08322704965e-38
-0.0150904371341 -0.0653918942478 0.906 2.08293964334e-38
-0.0134729436272 -0.0656806001826 0.91 2.00024986174e-38
-0.0118276899343 -0.0658971296338 0.913 2.06482211536e-38
-0.0101602280925 -0.0660414826012 0.915 2.08318935472e-38
-0.00849461692979 -0.0662580120524 0.918 2.0462032028e-38
-0.00681049897639 -0.0664023650198 0.92 2.03691203346e-38
-0.00512453034392 -0.0666188944709 0.923 2.07368266568e-38
-0.00342375627889 -0.0667632474384 0.925 2.07361105933e-38
-0.00172113153479 -0.067124129857 0.93 2.07361105933e-38
0.0 -0.0673406593081 0.933 2.10137666736e-38
0.00173038493014 -0.0674850122756 0.935 2.05538647215e-38
0.00346076986028 -0.0674850122756 0.935 2.01850850047e-38
0.00519115479043 -0.0674850122756 0.935 2.07382587839e-38
0.00692153972057 -0.0674850122756 0.935 2.10144897436e-38
0.00865192465071 -0.0674850122756 0.935 2.0737902854e-38
0.0103823095809 -0.0674850122756 0.935 2.04613159645e-38
0.012112694511 -0.0674850122756 0.935 2.18442504124e-38
0.0138430794411 -0.0674850122756 0.935 2.0000693745e-38
0.0155734643713 -0.0674850122756 0.935 2.14758210202e-38
0.0173038493014 -0.0674850122756 0.935 2.01850850047e-38
0.0190342342316 -0.0674850122756 0.935 2.04616718943e-38
0.0207646191617 -0.0674850122756 0.935 2.06460589501e-38
0.0224950040919 -0.0674850122756 0.935 2.07386105098e-38
0.024225389022 -0.0674850122756 0.935 2.07386049046e-38
0.0259557739521 -0.0674850122756 0.935 2.06467638032e-38
0.0276861588823 -0.0674850122756 0.935 2.03698223851e-38
0.0294165438124 -0.0674850122756 0.935 2.0830803337e-38
0.0311469287426 -0.0674850122756 0.935 2.10151945968e-38
0.0328773136727 -0.0674850122756 0.935 2.09230017695e-38
0.0346076986028 -0.0674850122756 0.935 2.05538633202e-38
0.036338083533 -0.0674850122756 0.935 2.12914283591e-38
