# .PCD v0.7 - Point Cloud Data file format
VERSION 0.7
FIELDS x y z rgb
SIZE 4 4 4 4
TYPE F F F F
COUNT 1 1 1 1
WIDTH 846
HEIGHT 1
VIEWPOINT 0 0 0 1 0 0 0
POINTS 846
DATA ascii
-0.0842466126096 -0.0218417143803 0.843 1.8161468491e-38
-0.0830788341166 -0.0219453524082 0.847 1.50253779422e-38
-0.0815113089446 -0.0219453524082 0.847 2.26761690808e-38
-0.0799437837726 -0.0219453524082 0.847 1.95418707927e-38
-0.0785613265075 -0.0219971714221 0.849 2.0279085507e-38
-0.0769900999774 -0.0219971714221 0.849 2.00957816548e-38
-0.0755965386379 -0.0220489904361 0.851 2.03719972003e-38
-0.0742825564985 -0.022126718957 0.854 2.08326096108e-38
-0.0732128639962 -0.0222821759988 0.86 2.05567415873e-38
-0.0719544022288 -0.0223858140267 0.864 2.08333284769e-38
-0.0705997051498 -0.0224635425477 0.867 2.05578205871e-38
-0.0691543247964 -0.0225153615616 0.869 2.08344074767e-38
-0.0677015417267 -0.0225671805756 0.871 2.10191588701e-38
-0.066089600257 -0.0225671805756 0.871 2.18489195389e-38
-0.0647737674385 -0.0226708186035 0.875 2.12031899961e-38
0.0244844840917 -0.0228521851523 0.882 2.32318539868e-38
0.0261167830312 -0.0228521851523 0.882 2.23102522167e-38
0.0276861588823 -0.0228003661383 0.88 2.31400128855e-38
0.0292481320171 -0.0227485471244 0.878 2.27712331686e-38
0.0307675395333 -0.0226708186035 0.875 2.32318539868e-38
0.0323128565565 -0.0226189995895 0.873 2.35095240801e-38
0.0338507708634 -0.0225671805756 0.871 2.35095268827e-38
0.035381282454 -0.0225153615616 0.869 2.35088066153e-38
0.0367766944725 -0.0223858140267 0.864 2.35080905518e-38
0.0382868485934 -0.0223339950128 0.862 2.29545510337e-38
0.0398821339514 -0.0223339950128 0.862 2.25857713169e-38
0.0414774193095 -0.0223339950128 0.862 2.24946434764e-38
0.0430727046675 -0.0223339950128 0.862 2.22180593895e-38
0.0446679900256 -0.0223339950128 0.862 2.29552698998e-38
-0.0842466126096 -0.0202815919245 0.843 1.29959950854e-38
-0.0826864901538 -0.0202815919245 0.843 1.94489703097e-38
-0.0811263676981 -0.0202815919245 0.843 2.20307996718e-38
-0.0799437837726 -0.0203778272361 0.847 1.92660027692e-38
-0.0785613265075 -0.020425944892 0.849 2.02798015705e-38
-0.0769900999774 -0.020425944892 0.849 1.98184716952e-38
-0.0755965386379 -0.0204740625478 0.851 2.01868870745e-38
-0.0742825564985 -0.0205462390315 0.854 2.08326124134e-38
-0.0732128639962 -0.0206905919989 0.86 2.07407769172e-38
-0.0719544022288 -0.0207868273105 0.864 2.08329725471e-38
-0.0705997051498 -0.0208590037943 0.867 2.09262471767e-38
-0.0689951663964 -0.0208590037943 0.867 2.12950296962e-38
-0.0675460846849 -0.0209071214501 0.869 2.10191616727e-38
-0.066089600257 -0.0209552391059 0.871 2.1480139822e-38
-0.0646257131129 -0.0210033567617 0.873 2.1940755035e-38
-0.0631544232525 -0.0210514744175 0.875 2.21251462948e-38
0.0276861588823 -0.021171768557 0.88 2.30485403256e-38
0.0292481320171 -0.0211236509012 0.878 2.31407373568e-38
0.0307675395333 -0.0210514744175 0.875 2.35098828126e-38
0.0322388293937 -0.0209552391059 0.871 2.33251314191e-38
0.0337730423424 -0.0209071214501 0.869 2.35095268827e-38
0.035381282454 -0.0209071214501 0.869 2.32325798594e-38
0.0367766944725 -0.0207868273105 0.864 2.31403842296e-38
0.0382868485934 -0.0207387096547 0.862 2.28627099324e-38
0.0398821339514 -0.0207387096547 0.862 2.27698108507e-38
0.0414774193095 -0.0207387096547 0.862 2.22184097141e-38
0.0430727046675 -0.0207387096547 0.862 2.18489195389e-38
-0.0826864901538 -0.0187214694688 0.843 2.25814637254e-38
-0.0811263676981 -0.0187214694688 0.843 2.20315185379e-38
-0.0799437837726 -0.0188103020641 0.847 1.83465646039e-38
-0.0783762586006 -0.0188103020641 0.847 2.13872281287e-38
-0.0769900999774 -0.0188547183618 0.849 2.03705664746e-38
-0.0755965386379 -0.0188991346595 0.851 2.11088433731e-38
-0.0740216107496 -0.0188991346595 0.851 2.05560255238e-38
-0.0730426015218 -0.0190545917013 0.858 2.06485812873e-38
-0.0719544022288 -0.0191878405943 0.864 2.08329725471e-38
-0.0705997051498 -0.0192544650409 0.867 2.09262471767e-38
-0.0689951663964 -0.0192544650409 0.867 2.16638122156e-38
-0.0675460846849 -0.0192988813385 0.869 2.12035529324e-38
-0.066089600257 -0.0193432976362 0.871 2.16645310818e-38
-0.0646257131129 -0.0193877139339 0.873 2.18489195389e-38
0.0292481320171 -0.0194987546781 0.878 2.3417327049e-38
0.0307675395333 -0.0194321302315 0.875 2.35098828126e-38
0.0322388293937 -0.0193432976362 0.871 2.35095268827e-38
0.0337730423424 -0.0192988813385 0.869 2.35095268827e-38
0.0351777077563 -0.0191878405943 0.864 2.3509166749e-38
0.0367766944725 -0.0191878405943 0.864 2.34169711192e-38
0.0382868485934 -0.0191434242967 0.862 2.30470983895e-38
0.0398821339514 -0.0191434242967 0.862 2.34148215273e-38
0.0414774193095 -0.0191434242967 0.862 2.25871922335e-38
0.0430727046675 -0.0191434242967 0.862 2.24020989233e-38
-0.0824903181724 -0.0171206320735 0.841 2.35041416927e-38
-0.0809338970749 -0.0171206320735 0.841 2.01876059406e-38
-0.0799437837726 -0.0172427768921 0.847 1.90852086426e-38
-0.0783762586006 -0.0172427768921 0.847 2.0006088744e-38
-0.0768087334286 -0.0172427768921 0.847 2.03705650733e-38
-0.0755965386379 -0.0173242067712 0.851 2.11081273096e-38
-0.0740216107496 -0.0173242067712 0.851 2.07400608537e-38
-0.0730426015218 -0.0174667090596 0.858 2.10173666094e-38
-0.0719544022288 -0.0175888538782 0.864 2.15705403886e-38
-0.0705997051498 -0.0176499262875 0.867 2.13872281287e-38
-0.0689951663964 -0.0176499262875 0.867 2.10184456092e-38
-0.0675460846849 -0.017690641227 0.869 2.13879469948e-38
-0.066089600257 -0.0177313561665 0.871 2.13879469948e-38
-0.0646257131129 -0.0177720711061 0.873 2.15723326493e-38
0.0292481320171 -0.0178738584549 0.878 2.35098856151e-38
0.0307675395333 -0.0178127860456 0.875 2.35098856151e-38
0.0322388293937 -0.0177313561665 0.871 2.35098856151e-38
0.0337730423424 -0.017690641227 0.869 2.35098856151e-38
0.0351777077563 -0.0175888538782 0.864 2.34176899853e-38
0.0366064319981 -0.0175074239991 0.86 2.33254943554e-38
0.038198015998 -0.0175074239991 0.86 2.35091583412e-38
0.0398821339514 -0.0175481389386 0.862 2.25854181897e-38
0.0414774193095 -0.0175481389386 0.862 2.33244069478e-38
-0.0824903181724 -0.0155642109759 0.841 2.35055808263e-38
-0.0809338970749 -0.0155642109759 0.841 2.02798015705e-38
-0.0799437837726 -0.0156752517201 0.847 1.98238526814e-38
-0.0783762586006 -0.0156752517201 0.847 2.04670668934e-38
-0.0768087334286 -0.0156752517201 0.847 2.13832750657e-38
-0.0755965386379 -0.0157492788829 0.851 2.10159316798e-38
-0.0740216107496 -0.0157492788829 0.851 2.08322564835e-38
-0.0728723390474 -0.0158418128364 0.856 2.08329753497e-38
-0.0717878411125 -0.0159528535806 0.862 2.1293953499e-38
-0.0703554155126 -0.015989867162 0.864 2.12028368689e-38
-0.0689951663964 -0.016045387534 0.867 2.16638150182e-38
-0.0675460846849 -0.0160824011154 0.869 2.17567295142e-38
-0.066089600257 -0.0161194146968 0.871 2.16645338844e-38
0.0306972137286 -0.0161564282782 0.873 2.35098856151e-38
0.0323128565565 -0.0161564282782 0.873 2.35098856151e-38
0.0337730423424 -0.0160824011154 0.869 2.35098856151e-38
0.0351777077563 -0.015989867162 0.864 2.34176899853e-38
0.0366064319981 -0.0159158399992 0.86 2.33254943554e-38
0.038198015998 -0.0159158399992 0.86 2.35095240801e-38
0.0397895999979 -0.0159158399992 0.86 2.31392982233e-38
0.0411887133746 -0.0158418128364 0.856 2.31396639622e-38
0.0427728946582 -0.0158418128364 0.856 2.20333164038e-38
-0.0824903181724 -0.0140077898783 0.841 2.35030682981e-38
-0.0809338970749 -0.0140077898783 0.841 2.01876059406e-38
-0.0799437837726 -0.0141077265481 0.847 1.93635933981e-38
-0.0783762586006 -0.0141077265481 0.847 2.04674270271e-38
-0.0768087334286 -0.0141077265481 0.847 2.07379056566e-38
-0.0755965386379 -0.0141743509946 0.851 2.15691054589e-38
-0.0740216107496 -0.0141743509946 0.851 2.15698215225e-38
-0.072702076573 -0.0142243193295 0.854 2.1293953499e-38
-0.0716212799963 -0.0143242559993 0.86 2.16627360184e-38
-0.0703554155126 -0.0143908804458 0.864 2.17560106481e-38
-0.0689951663964 -0.0144408487806 0.867 2.17560106481e-38
-0.0675460846849 -0.0144741610039 0.869 2.21255120337e-38
0.0275288511614 -0.0145740976737 0.875 2.35098856151e-38
0.0291481953473 -0.0145740976737 0.875 2.35098856151e-38
0.030626887924 -0.0145074732272 0.871 2.35098856151e-38
0.0322388293937 -0.0145074732272 0.871 2.35098856151e-38
0.0337730423424 -0.0144741610039 0.869 2.35098856151e-38
0.0350962778772 -0.0143575682225 0.862 2.34176899853e-38
0.0363510382865 -0.0142243193295 0.854 2.33254943554e-38
0.037931518212 -0.0142243193295 0.854 2.33236992921e-38
0.0395119981375 -0.0142243193295 0.854 2.29552586895e-38
0.0411887133746 -0.0142576315527 0.856 2.2770173787e-38
0.0427728946582 -0.0142576315527 0.856 2.33236992921e-38
0.0443570759419 -0.0142576315527 0.856 2.35095212775e-38
-0.0799437837726 -0.0125402013761 0.847 2.04674298297e-38
-0.0783762586006 -0.0125402013761 0.847 2.05592597206e-38
-0.0769900999774 -0.0125698122412 0.849 2.08322620887e-38
-0.0755965386379 -0.0125994231063 0.851 2.06485868925e-38
-0.0740216107496 -0.0125994231063 0.851 2.17549316483e-38
-0.072702076573 -0.012643839404 0.854 2.13872281287e-38
-0.0716212799963 -0.0127326719993 0.86 2.17560106481e-38
-0.0703554155126 -0.0127918937296 0.864 2.14794237585e-38
-0.0689951663964 -0.0128363100272 0.867 2.22169887974e-38
0.0290815709008 -0.0129251426226 0.873 2.35098856151e-38
0.030626887924 -0.0128955317575 0.871 2.35098856151e-38
0.0321648022309 -0.0128659208924 0.869 2.35098856151e-38
0.0335787210401 -0.0127918937296 0.864 2.33254943554e-38
0.0350148479982 -0.0127326719993 0.86 2.31411030957e-38
0.0363510382865 -0.012643839404 0.854 2.27723205762e-38
0.037931518212 -0.012643839404 0.854 2.3417327049e-38
0.0395119981375 -0.012643839404 0.854 2.3509166749e-38
0.0411887133746 -0.0126734502691 0.856 2.24024478466e-38
0.0427728946582 -0.0126734502691 0.856 2.35073744883e-38
0.0443570759419 -0.0126734502691 0.856 2.35077276155e-38
0.0459412572255 -0.0126734502691 0.856 1.47228123804e-39
0.0476364792533 -0.0127030611342 0.858 2.34169739218e-38
-0.0785613265075 -0.0109985857111 0.849 2.05581807208e-38
-0.0769900999774 -0.0109985857111 0.849 2.08326222224e-38
-0.0755965386379 -0.011024495218 0.851 2.1662738821e-38
-0.0740216107496 -0.011024495218 0.851 2.12950324988e-38
-0.072702076573 -0.0110633594785 0.854 2.12950324988e-38
-0.0716212799963 -0.0111410879994 0.86 2.12950324988e-38
-0.0703554155126 -0.0111929070134 0.864 2.20325975377e-38
-0.0689951663964 -0.0112317712738 0.867 2.21247931676e-38
0.0290815709008 -0.0113094997948 0.873 2.35098856151e-38
0.0305565621193 -0.0112576807808 0.869 2.35098856151e-38
0.0321648022309 -0.0112576807808 0.869 2.35098856151e-38
0.0335009925192 -0.0111669975064 0.862 2.34176899853e-38
0.0350148479982 -0.0111410879994 0.86 2.35098856151e-38
0.0363510382865 -0.0110633594785 0.854 2.35098856151e-38
0.037931518212 -0.0110633594785 0.854 2.29567090334e-38
0.0396970660444 -0.0111151784924 0.858 2.30481885997e-38
0.0411887133746 -0.0110892689855 0.856 2.35095128698e-38
0.0427728946582 -0.0110892689855 0.856 2.35077332207e-38
0.0443570759419 -0.0110892689855 0.856 2.31385919688e-38
0.0459412572255 -0.0110892689855 0.856 1.74886532503e-39
0.0476364792533 -0.0111151784924 0.858 2.35091681503e-38
-0.0799437837726 -0.00940515103207 0.847 2.07422216559e-38
-0.0783762586006 -0.00940515103207 0.847 2.08347676104e-38
-0.0769900999774 -0.0094273591809 0.849 2.12936003718e-38
-0.0755965386379 -0.00944956732974 0.851 2.13861519314e-38
-0.0740216107496 -0.00944956732974 0.851 2.11106412391e-38
-0.072702076573 -0.00948287955299 0.854 2.24013800572e-38
-0.07145471888 -0.00952729585067 0.858 2.19404019078e-38
-0.0701925557545 -0.00957171214834 0.862 2.25857713169e-38
-0.0687564287964 -0.00959392029717 0.864 2.23091844273e-38
0.0290149464543 -0.0096716488181 0.871 2.35098856151e-38
0.0305565621193 -0.00964944066926 0.869 2.35098856151e-38
0.0319057071611 -0.00957171214834 0.862 2.35098856151e-38
0.0333455354773 -0.00952729585067 0.858 2.34176899853e-38
0.034770558361 -0.00948287955299 0.854 2.35098856151e-38
0.0363510382865 -0.00948287955299 0.854 2.34176899853e-38
0.037798269319 -0.00944956732974 0.851 2.33254943554e-38
0.0393731972073 -0.00944956732974 0.851 2.31407373568e-38
0.0411887133746 -0.00950508770183 0.856 2.31396611596e-38
0.0427728946582 -0.00950508770183 0.856 2.35084450803e-38
0.0443570759419 -0.00950508770183 0.856 1.47484379254e-38
0.0459412572255 -0.00950508770183 0.856 7.37350920501e-39
0.0476364792533 -0.00952729585067 0.858 2.35091681503e-38
-0.0799437837726 -0.00783762586006 0.847 2.07422216559e-38
-0.0783762586006 -0.00783762586006 0.847 2.09269632403e-38
-0.0769900999774 -0.00785613265075 0.849 2.15701872614e-38
-0.0755965386379 -0.00787463944145 0.851 2.18471300808e-38
-0.0740216107496 -0.00787463944145 0.851 2.12028368689e-38
-0.072702076573 -0.0079023996275 0.854 2.21247931676e-38
-0.0712881577637 -0.00792090641819 0.856 2.16638150182e-38
-0.0700296959964 -0.00795791999959 0.86 2.20325975377e-38
-0.0687564287964 -0.00799493358098 0.864 2.23091844273e-38
0.0303807476077 -0.00799493358098 0.864 2.35098856151e-38
0.0319057071611 -0.00797642679028 0.862 2.35098856151e-38
0.0333455354773 -0.00793941320889 0.858 2.34176899853e-38
0.034770558361 -0.0079023996275 0.854 2.35098856151e-38
0.0363510382865 -0.0079023996275 0.854 2.33254943554e-38
0.037798269319 -0.00787463944145 0.851 2.33251384256e-38
0.0393731972073 -0.00787463944145 0.851 2.34173228451e-38
0.0409481250955 -0.00787463944145 0.851 2.34158977245e-38
0.0427728946582 -0.00792090641819 0.856 2.35091569399e-38
0.0443570759419 -0.00792090641819 0.856 3.6736160281e-40
0.0459412572255 -0.00792090641819 0.856 1.8068196664e-38
0.0476364792533 -0.00793941320889 0.858 2.35084506855e-38
-0.0799437837726 -0.00627010068805 0.847 2.04656347663e-38
-0.0783762586006 -0.00627010068805 0.847 2.13879413896e-38
-0.0768087334286 -0.00627010068805 0.847 2.1109209112e-38
-0.0754188734472 -0.0062849061206 0.849 2.13861519314e-38
-0.0738476469171 -0.0062849061206 0.849 2.1848206278e-38
-0.072702076573 -0.006321919702 0.854 2.16638150182e-38
-0.0712881577637 -0.00633672513455 0.856 2.19404019078e-38
-0.0698668362382 -0.00635153056711 0.858 2.2493575687e-38
-0.0684381119964 -0.00636633599967 0.86 2.22169887974e-38
0.0289483220078 -0.00643296044618 0.869 2.35098856151e-38
0.0303104218031 -0.00638114143223 0.862 2.35098856151e-38
0.0319057071611 -0.00638114143223 0.862 2.35098856151e-38
0.0333455354773 -0.00635153056711 0.858 2.35098856151e-38
0.03485198824 -0.00633672513455 0.856 2.35098856151e-38
0.0363510382865 -0.006321919702 0.854 2.34176899853e-38
0.037798269319 -0.00629971155316 0.851 2.27719688503e-38
0.0393731972073 -0.00629971155316 0.851 2.35098786087e-38
0.0409481250955 -0.00629971155316 0.851 2.35091681503e-38
0.0427728946582 -0.00633672513455 0.856 2.32314896492e-38
0.0443570759419 -0.00633672513455 0.856 1.74850519132e-39
0.0459412572255 -0.00633672513455 0.856 2.21251603078e-38
-0.0803564852051 -0.00463595106953 0.835 2.18467783548e-38
-0.0788111681819 -0.00463595106953 0.835 2.09266129156e-38
-0.0783762586006 -0.00470257551603 0.847 2.16645282792e-38
-0.0768087334286 -0.00470257551603 0.847 2.17545785211e-38
-0.0754188734472 -0.00471367959045 0.849 2.22159126002e-38
-0.0738476469171 -0.00471367959045 0.849 2.20325975377e-38
-0.072702076573 -0.0047414397765 0.854 2.21247931676e-38
-0.0712881577637 -0.00475254385092 0.856 2.22169887974e-38
-0.0698668362382 -0.00476364792533 0.858 2.25857713169e-38
-0.0684381119964 -0.00477475199975 0.86 2.34155319856e-38
0.0302400959984 -0.00477475199975 0.86 2.35098856151e-38
0.0317576528356 -0.00476364792533 0.858 2.35098856151e-38
0.0333455354773 -0.00476364792533 0.858 2.35098856151e-38
0.034770558361 -0.0047414397765 0.854 2.35098856151e-38
0.0363510382865 -0.0047414397765 0.854 2.34176899853e-38
0.037931518212 -0.0047414397765 0.854 2.35095268827e-38
0.039604532091 -0.00475254385092 0.856 2.35098828126e-38
0.0411887133746 -0.00475254385092 0.856 2.35091681503e-38
0.0427728946582 -0.00475254385092 0.856 1.91748861391e-38
0.0443570759419 -0.00475254385092 0.856 2.30167336531e-39
0.0459412572255 -0.00475254385092 0.856 2.35077332207e-38
-0.0803564852051 -0.00309063404635 0.835 2.24921477639e-38
-0.0788111681819 -0.00309063404635 0.835 2.06500260261e-38
-0.0781911906936 -0.00312764762774 0.845 2.13882987207e-38
-0.0766273668797 -0.00312764762774 0.845 2.22159126002e-38
-0.0752412082565 -0.00313505034402 0.847 2.28612820092e-38
-0.0738476469171 -0.0031424530603 0.849 2.2493575687e-38
-0.072702076573 -0.003160959851 0.854 2.26779669467e-38
-0.0711215966475 -0.003160959851 0.854 2.25857713169e-38
-0.0697039764801 -0.00316836256728 0.856 2.25857713169e-38
-0.0682789535964 -0.00317576528356 0.858 2.27701625766e-38
0.0301697701938 -0.00317576528356 0.858 2.35098856151e-38
0.0317576528356 -0.00317576528356 0.858 2.35098856151e-38
0.0332678069564 -0.00316836256728 0.856 2.35098856151e-38
0.034770558361 -0.003160959851 0.854 2.35098856151e-38
0.0363510382865 -0.003160959851 0.854 2.34176899853e-38
0.037931518212 -0.003160959851 0.854 2.29563587088e-38
0.039604532091 -0.00316836256728 0.856 2.26794116855e-38
0.0411887133746 -0.00316836256728 0.856 2.31396611596e-38
0.0427728946582 -0.00316836256728 0.856 1.3804233211e-39
0.0443570759419 -0.00316836256728 0.856 1.78834424679e-38
-0.0809338970749 -0.00155642109759 0.841 2.35070157559e-38
-0.0793774759773 -0.00155642109759 0.841 2.12031998052e-38
-0.0780061227866 -0.00156012245573 0.843 2.16648856103e-38
-0.0766273668797 -0.00156382381387 0.845 2.22159126002e-38
-0.0752412082565 -0.00156752517201 0.847 2.3045673269e-38
-0.0738476469171 -0.00157122653015 0.849 2.31389450961e-38
-0.072702076573 -0.0015804799255 0.854 2.26779669467e-38
-0.0711215966475 -0.0015804799255 0.854 2.26779669467e-38
-0.0697039764801 -0.00158418128364 0.856 2.33233363558e-38
-0.0682789535964 -0.00158788264178 0.858 2.34155319856e-38
0.0287817608915 -0.0015989867162 0.864 2.35098856151e-38
0.0300994443891 -0.00158418128364 0.856 2.35098856151e-38
0.0316836256728 -0.00158418128364 0.856 2.35098856151e-38
0.0331900784355 -0.0015804799255 0.854 2.35098856151e-38
0.0346484135424 -0.00157492788829 0.851 2.35098856151e-38
0.0362233414307 -0.00157492788829 0.851 2.34176899853e-38
0.037798269319 -0.00157492788829 0.851 2.35095268827e-38
0.0393731972073 -0.00157492788829 0.851 2.35091681503e-38
-0.0811263676981 0.0 0.843 2.34083447258e-38
-0.0795662452424 0.0 0.843 2.35041388901e-38
-0.0780061227866 0.0 0.843 2.2124067295e-38
-0.0766273668797 0.0 0.845 2.11163893654e-38
-0.0752412082565 0.0 0.847 2.34140998586e-38
-0.0738476469171 0.0 0.849 2.30449403899e-38
-0.072702076573 0.0 0.854 2.2401360439e-38
-0.0711215966475 0.0 0.854 2.32311435285e-38
-0.069541116722 0.0 0.854 2.33233447636e-38
-0.0682789535964 0.0 0.858 2.32322113179e-38
0.0300291185845 0.0 0.854 2.35095268827e-38
0.0314985577658 0.0 0.851 2.35095268827e-38
0.0330734856541 0.0 0.851 2.35095268827e-38
0.0345669836633 0.0 0.849 2.35098856151e-38
0.0361382101935 0.0 0.849 2.3418050119e-38
0.0377094367236 0.0 0.849 2.32343735215e-38
-0.0811263676981 0.00156012245573 0.843 4.13766021846e-39
-0.0795662452424 0.00156012245573 0.843 2.35055808263e-38
-0.0780061227866 0.00156012245573 0.843 2.35077304181e-38
-0.0766273668797 0.00156382381387 0.845 2.27726723022e-38
-0.0752412082565 0.00156752517201 0.847 2.19418466466e-38
-0.0738476469171 0.00157122653015 0.849 2.25868363037e-38
-0.072702076573 0.0015804799255 0.854 2.31421596747e-38
-0.0711215966475 0.0015804799255 0.854 2.25882950554e-38
-0.069541116722 0.0015804799255 0.854 2.28645260152e-38
0.0300291185845 0.0015804799255 0.854 2.35095268827e-38
0.0314985577658 0.00157492788829 0.851 2.35095268827e-38
0.0330734856541 0.00157492788829 0.851 2.35095268827e-38
0.0345669836633 0.00157122653015 0.849 2.35098856151e-38
0.0361382101935 0.00157122653015 0.849 2.3418050119e-38
-0.0806488924981 0.00298699601845 0.807 2.24971756228e-38
-0.0791553944889 0.00298699601845 0.807 2.35091681503e-38
-0.0811263676981 0.00312024491147 0.843 7.91947610619e-39
-0.0795662452424 0.00312024491147 0.843 2.20405471039e-39
-0.0780061227866 0.00312024491147 0.843 2.35008990881e-38
-0.0766273668797 0.00312764762774 0.845 2.35066542209e-38
-0.0752412082565 0.00313505034402 0.847 2.33229832286e-38
-0.0736736830845 0.00313505034402 0.847 2.24046086488e-38
-0.072702076573 0.003160959851 0.854 2.3234366515e-38
-0.0711215966475 0.003160959851 0.854 2.25897341889e-38
0.0301697701938 0.00317576528356 0.858 2.35095268827e-38
0.03160959851 0.003160959851 0.854 2.35095268827e-38
0.0331900784355 0.003160959851 0.854 2.35095268827e-38
0.0363510382865 0.003160959851 0.854 2.32343791267e-38
-0.0806488924981 0.00448049402767 0.807 2.32343791267e-38
-0.0791553944889 0.00448049402767 0.807 2.34169739218e-38
-0.0776618964797 0.00448049402767 0.807 2.05535143969e-38
-0.0761683984705 0.00448049402767 0.807 1.14193129078e-38
-0.0781911906936 0.00469147144162 0.845 4.96094408573e-39
-0.0766273668797 0.00469147144162 0.845 1.25188277349e-38
-0.0752412082565 0.00470257551603 0.847 2.35044990239e-38
-0.0736736830845 0.00470257551603 0.847 2.35084450803e-38
-0.0722764203869 0.00471367959045 0.849 2.3508082144e-38
-0.0711215966475 0.0047414397765 0.854 2.35088094179e-38
-0.0806488924981 0.0059739920369 0.807 2.33262132215e-38
-0.0791553944889 0.0059739920369 0.807 2.35098856151e-38
-0.0776618964797 0.0059739920369 0.807 2.35077332207e-38
-0.0761683984705 0.0059739920369 0.807 1.66762658799e-38
-0.0781911906936 0.00625529525549 0.845 1.3994320749e-38
-0.0766273668797 0.00625529525549 0.845 9.19403553221e-39
-0.0752412082565 0.00627010068805 0.847 5.2357233003e-39
-0.0738476469171 0.0062849061206 0.849 1.17844926889e-38
-0.0722764203869 0.0062849061206 0.849 2.34991040248e-38
-0.0806488924981 0.00746749004612 0.807 2.35095268827e-38
-0.0791553944889 0.00746749004612 0.807 2.35098856151e-38
-0.0776618964797 0.00746749004612 0.807 2.35091681503e-38
-0.0761683984705 0.00746749004612 0.807 2.20275682775e-38
-0.0746749004612 0.00746749004612 0.807 1.38138867561e-38
-0.0768087334286 0.00783762586006 0.847 1.51881934094e-38
-0.0752412082565 0.00783762586006 0.847 1.53704042488e-38
-0.0738476469171 0.00785613265075 0.849 1.17744229582e-38
-0.0724466828613 0.00787463944145 0.851 5.32648259924e-39
-0.0793515664703 0.00898319620418 0.809 2.35091639464e-38
-0.0776618964797 0.00896098805535 0.807 2.32333015282e-38
-0.0761683984705 0.00896098805535 0.807 2.35088094179e-38
-0.0746749004612 0.00896098805535 0.807 1.8797489838e-38
-0.0769900999774 0.0094273591809 0.849 1.39946906918e-38
-0.0754188734472 0.0094273591809 0.849 1.28821928345e-38
-0.0738476469171 0.0094273591809 0.849 1.65671537749e-38
-0.0793515664703 0.0104803955715 0.809 2.3508805214e-38
-0.0776618964797 0.0104544860646 0.807 2.32340175917e-38
-0.0761683984705 0.0104544860646 0.807 2.2864881945e-38
-0.0746749004612 0.0104544860646 0.807 2.31350032435e-38
-0.073181402452 0.0104544860646 0.807 1.51060759181e-38
-0.0713325740614 0.0104026670506 0.803 1.54686997308e-38
-0.0698464787685 0.0104026670506 0.803 1.36208480836e-38
-0.0687009084243 0.0104544860646 0.807 1.58306817488e-38
-0.0793515664703 0.0119775949389 0.809 2.35080905518e-38
-0.0776618964797 0.0119479840738 0.807 2.35080905518e-38
-0.0761683984705 0.0119479840738 0.807 2.35088094179e-38
-0.0746749004612 0.0119479840738 0.807 2.28612820092e-38
-0.073181402452 0.0119479840738 0.807 2.06464260903e-38
-0.0713325740614 0.0118887623436 0.803 1.49205972508e-38
-0.0698464787685 0.0118887623436 0.803 1.47318899918e-38
-0.0683603834755 0.0118887623436 0.803 1.4913395978e-38
-0.0667910076244 0.011873956911 0.802 1.42640608943e-38
-0.0653067630106 0.011873956911 0.802 1.46292504845e-38
-0.0638225183967 0.011873956911 0.802 1.44441487664e-38
-0.0793515664703 0.0134747943063 0.809 2.35080919531e-38
-0.0778543671029 0.0134747943063 0.809 2.27698094494e-38
-0.0763571677356 0.0134747943063 0.809 2.35077318194e-38
-0.0746749004612 0.013441482083 0.807 2.28605603405e-38
-0.073181402452 0.013441482083 0.807 2.30453047275e-38
-0.0715102392521 0.0134081698598 0.805 1.70439806099e-38
-0.070020442601 0.0134081698598 0.805 1.48262436213e-38
-0.0683603834755 0.0133748576365 0.803 1.51928541281e-38
-0.0667910076244 0.0133582015249 0.802 1.48193926731e-38
-0.0653067630106 0.0133582015249 0.802 1.4631774223e-38
-0.0636633599967 0.0133248893016 0.8 1.47210957897e-38
-0.0621828167409 0.0133248893016 0.8 1.45374107844e-38
-0.0778543671029 0.0149719936736 0.809 2.32307875987e-38
-0.0763571677356 0.0149719936736 0.809 2.33222601586e-38
-0.0748599683682 0.0149719936736 0.809 2.322934286e-38
-0.073181402452 0.0149349800922 0.807 2.2031152799e-38
-0.0716879044428 0.0149349800922 0.807 1.99041933262e-38
-0.070020442601 0.0148979665109 0.805 1.51064192363e-38
-0.0683603834755 0.0148609529295 0.803 1.48265841368e-38
-0.0667910076244 0.0148424461388 0.802 1.55594702402e-38
-0.0653067630106 0.0148424461388 0.802 1.44488122877e-38
-0.0636633599967 0.0148054325574 0.8 1.43544642634e-38
-0.0621828167409 0.0148054325574 0.8 1.39853146038e-38
-0.0608540291689 0.0148424461388 0.802 1.37094325673e-38
-0.0592217302295 0.0148054325574 0.8 1.43533600402e-38
-0.0577411869737 0.0148054325574 0.8 1.3061902356e-38
-0.0564012953273 0.0148424461388 0.802 1.40749780873e-38
-0.0549170507134 0.0148424461388 0.802 1.40731802214e-38
-0.0534328060995 0.0148424461388 0.802 1.33359711123e-38
-0.0519485614857 0.0148424461388 0.802 1.37047508291e-38
-0.0503384706951 0.0148054325574 0.8 1.3060456216e-38
-0.0488579274393 0.0148054325574 0.8 1.35221504289e-38
-0.0750450362752 0.0165099079805 0.811 2.33215384899e-38
-0.0735441355497 0.0165099079805 0.811 2.00943257057e-38
-0.0720432348242 0.0165099079805 0.811 1.8615242565e-38
-0.0701944064336 0.0164284781015 0.807 1.69528387565e-38
-0.0685306459499 0.0163877631619 0.805 1.4367758382e-38
-0.0668742881826 0.0163470482224 0.803 1.5746374028e-38
-0.0653067630106 0.0163266907526 0.802 1.45442365093e-38
-0.0638225183967 0.0163266907526 0.802 1.45406463826e-38
-0.0623382737828 0.0163266907526 0.802 1.40782262972e-38
-0.0608540291689 0.0163266907526 0.802 1.37090808414e-38
-0.0592217302295 0.0162859758131 0.8 1.40782094816e-38
-0.0577411869737 0.0162859758131 0.8 1.35243140337e-38
-0.0564012953273 0.0163266907526 0.802 1.36154306637e-38
-0.0549170507134 0.0163266907526 0.802 1.36136341991e-38
-0.0534328060995 0.0163266907526 0.802 1.29671857902e-38
-0.0519485614857 0.0163266907526 0.802 1.25072866407e-38
-0.0503384706951 0.0162859758131 0.8 1.28760691602e-38
-0.0488579274393 0.0162859758131 0.8 1.30611778847e-38
-0.0473773841836 0.0162859758131 0.8 1.44415998045e-38
-0.0458968409278 0.0162859758131 0.8 1.26895199008e-38
-0.0752301041821 0.0180552250037 0.813 2.24914176874e-38
-0.0737255020985 0.0180552250037 0.813 2.14772601537e-38
-0.0722209000148 0.0180552250037 0.813 2.12907052891e-38
-0.0705423340987 0.018010808706 0.811 2.03665881883e-38
-0.0687009084243 0.0179219761107 0.807 2.08239692044e-38
-0.0670408492988 0.017877559813 0.805 1.80541416404e-38
-0.0655510526477 0.017877559813 0.805 1.41776077855e-38
-0.0639020975967 0.0178331435154 0.803 1.44513164081e-38
-0.0624160023037 0.0178331435154 0.803 1.3711238841e-38
-0.0609299070108 0.0178331435154 0.803 1.42633406269e-38
-0.0594438117178 0.0178331435154 0.803 1.30647792218e-38
-0.0579577164249 0.0178331435154 0.803 1.35253930335e-38
-0.0564012953273 0.0178109353665 0.802 1.3247008278e-38
-0.0549170507134 0.0178109353665 0.802 1.3522156034e-38
-0.0534994305461 0.0178331435154 0.803 1.20463084914e-38
-0.0519485614857 0.0178109353665 0.802 1.33370473095e-38
-0.0504643168718 0.0178109353665 0.802 1.25998452069e-38
-0.0488579274393 0.0177665190688 0.8 1.2507649577e-38
-0.0473773841836 0.0177665190688 0.8 1.25083754496e-38
-0.0458968409278 0.0177665190688 0.8 1.25090943158e-38
-0.0444162976721 0.0177665190688 0.8 1.27849623392e-38
0.0146203646504 0.0175444375805 0.79 2.35059395587e-38
0.0160824011154 0.0175444375805 0.79 2.34987452924e-38
0.0175444375805 0.0175444375805 0.79 2.27579488592e-38
0.0251063122592 0.0177221027712 0.798 5.32646998755e-39
-0.0756002399961 0.019656062399 0.817 2.25836133172e-38
-0.0740882351961 0.019656062399 0.817 2.03701923279e-38
-0.0723985652055 0.0196079447432 0.815 1.99077708412e-38
-0.0707162979312 0.0195598270874 0.813 1.94457136921e-38
-0.0692116958476 0.0195598270874 0.813 1.94428396289e-38
-0.0672074104151 0.0194154741199 0.807 1.93470384581e-38
-0.0653881928896 0.0193192388083 0.803 1.68545110445e-38
-0.0636633599967 0.0192470623246 0.8 1.46389362595e-38
-0.0621828167409 0.0192470623246 0.8 1.31612992587e-38
-0.0608540291689 0.0192951799804 0.802 1.37123262486e-38
-0.059369784555 0.0192951799804 0.802 1.32502564878e-38
-0.0578855399412 0.0192951799804 0.802 1.29733038593e-38
-0.0564012953273 0.0192951799804 0.802 1.31562531829e-38
-0.0549170507134 0.0192951799804 0.802 1.2693117034e-38
-0.0534994305461 0.0193192388083 0.803 1.35217987029e-38
-0.0519485614857 0.0192951799804 0.802 1.29686277264e-38
-0.0504643168718 0.0192951799804 0.802 1.25998480095e-38
-0.0489800722579 0.0192951799804 0.802 1.28760789693e-38
-0.0473773841836 0.0192470623246 0.8 1.33356432084e-38
-0.0458968409278 0.0192470623246 0.8 1.31494666945e-38
-0.0444162976721 0.0192470623246 0.8 1.31498240256e-38
-0.0429357544164 0.0192470623246 0.8 1.28735832567e-38
-0.0415588491885 0.0192951799804 0.802 1.31505078592e-38
-0.0400746045747 0.0192951799804 0.802 1.28742600839e-38
-0.0384941246492 0.0192470623246 0.8 1.33345109593e-38
-0.0370135813934 0.0192470623246 0.8 1.29657284398e-38
-0.0355330381377 0.0192470623246 0.8 1.29671885928e-38
-0.0340524948819 0.0192470623246 0.8 1.26909702447e-38
-0.0324905217471 0.0191989446688 0.798 1.26902499773e-38
-0.0310136798495 0.0191989446688 0.798 1.31505092605e-38
0.0116962917203 0.0190064740455 0.79 7.25575248986e-39
0.0131583281854 0.0190064740455 0.79 7.34794531713e-39
0.0146203646504 0.0190064740455 0.79 7.07135142105e-39
0.0160824011154 0.0190064740455 0.79 6.97951172099e-39
0.0175444375805 0.0190064740455 0.79 7.8060466007e-39
0.0191989446688 0.0191989446688 0.798 8.35777844376e-39
0.0206757865664 0.0191989446688 0.798 9.09497213857e-39
0.022152628464 0.0191989446688 0.798 1.14002090059e-38
0.0236294703616 0.0191989446688 0.798 1.30593814201e-38
0.0251063122592 0.0191989446688 0.798 1.42579274109e-38
0.0265831541568 0.0191989446688 0.798 1.50876880797e-38
-0.0756002399961 0.0211680671989 0.817 2.15683823889e-38
-0.0740882351961 0.0211680671989 0.817 1.97248229189e-38
-0.0725762303962 0.0211680671989 0.817 2.01843577308e-38
-0.0708902617637 0.0211162481849 0.815 1.86155984948e-38
-0.069381958322 0.0211162481849 0.815 1.8890390321e-38
-0.0675405326476 0.021012610157 0.811 1.8518722528e-38
-0.0653881928896 0.0208053341012 0.803 1.83321564531e-38
-0.0635042015967 0.0206757865664 0.798 1.64853613849e-38
-0.0620273596991 0.0206757865664 0.798 1.48229771946e-38
-0.0608540291689 0.0207794245943 0.802 1.2976922012e-38
-0.059369784555 0.0207794245943 0.802 1.34360938876e-38
-0.0578855399412 0.0207794245943 0.802 1.30658666294e-38
-0.0564012953273 0.0207794245943 0.802 1.36175970712e-38
-0.0549170507134 0.0207794245943 0.802 1.30626212221e-38
-0.0534994305461 0.0208053341012 0.803 1.35218015055e-38
-0.0520133352531 0.0208053341012 0.803 1.37061955679e-38
-0.0504643168718 0.0207794245943 0.802 1.23229051901e-38
-0.0489800722579 0.0207794245943 0.802 1.22307109615e-38
-0.047495827644 0.0207794245943 0.802 1.31508609864e-38
-0.0460115830302 0.0207794245943 0.802 1.28724832374e-38
-0.0444162976721 0.0207276055803 0.8 1.32405609037e-38
-0.0429357544164 0.0207276055803 0.8 1.32402049739e-38
-0.0415588491885 0.0207794245943 0.802 1.25966194178e-38
-0.0400746045747 0.0207794245943 0.802 1.28735552307e-38
-0.0384941246492 0.0207276055803 0.8 1.31501449229e-38
-0.0370135813934 0.0207276055803 0.8 1.30565213699e-38
-0.0355330381377 0.0207276055803 0.8 1.20481133638e-38
-0.0340524948819 0.0207276055803 0.8 1.2142104057e-38
-0.0324905217471 0.0206757865664 0.798 1.22332206871e-38
-0.0310136798495 0.0206757865664 0.798 1.22332206871e-38
-0.0294628107892 0.0206239675524 0.796 1.26016430728e-38
-0.0279896702497 0.0206239675524 0.796 1.33384892456e-38
-0.0250433891708 0.0206239675524 0.796 1.26920436394e-38
-0.0235702486313 0.0206239675524 0.796 1.26001997354e-38
-0.0220971080919 0.0206239675524 0.796 1.30604590186e-38
-0.0206757865664 0.0206757865664 0.798 1.31526560498e-38
-0.0191989446688 0.0206757865664 0.798 1.26916779005e-38
-0.00738420948799 0.0206757865664 0.798 1.41581969992e-38
-0.00590736759039 0.0206757865664 0.798 1.43436574497e-38
-0.00443052569279 0.0206757865664 0.798 1.46205960652e-38
-0.00296108651147 0.0207276055803 0.8 1.47131462235e-38
-0.00148054325574 0.0207276055803 0.8 1.46209505937e-38
0.0 0.0207276055803 0.8 1.36990055054e-38
0.00148054325574 0.0207276055803 0.8 1.34224200171e-38
0.00883884323675 0.0206239675524 0.796 1.40692173493e-38
0.0102601647623 0.0205203295245 0.792 1.39770203182e-38
0.0116962917203 0.0204685105106 0.79 1.32387518274e-38
0.0131583281854 0.0204685105106 0.79 1.42518247561e-38
0.0146203646504 0.0204685105106 0.79 1.40677880249e-38
0.0161638309945 0.0205721485385 0.794 1.45287661742e-38
0.0176332701758 0.0205721485385 0.794 1.42518275587e-38
0.0191989446688 0.0206757865664 0.798 1.45284144483e-38
0.0206757865664 0.0206757865664 0.798 1.51741355832e-38
0.022152628464 0.0206757865664 0.798 1.49897303105e-38
0.0236294703616 0.0206757865664 0.798 1.33320180493e-38
0.0251063122592 0.0206757865664 0.798 1.39799083943e-38
-0.0756002399961 0.0226800719988 0.817 2.11995998695e-38
-0.0740882351961 0.0226800719988 0.817 2.01858010682e-38
-0.0725762303962 0.0226800719988 0.817 2.01843605334e-38
-0.0683603834755 0.0222914293942 0.803 1.91666240834e-38
-0.0667910076244 0.0222636692081 0.802 1.7966990685e-38
-0.0649810434943 0.022152628464 0.798 1.63052903283e-38
-0.0635042015967 0.022152628464 0.798 1.65793520781e-38
-0.0620273596991 0.022152628464 0.798 1.5470141667e-38
-0.0605505178015 0.022152628464 0.798 1.37166478531e-38
-0.0594438117178 0.0222914293942 0.803 1.29754800758e-38
-0.0579577164249 0.0222914293942 0.803 1.27896454787e-38
-0.0564716211319 0.0222914293942 0.803 1.31573433931e-38
-0.054985525839 0.0222914293942 0.803 1.31551797883e-38
-0.0534994305461 0.0222914293942 0.803 1.26005682769e-38
-0.0520133352531 0.0222914293942 0.803 1.31530217887e-38
-0.0505272399602 0.0222914293942 0.803 1.26916877096e-38
-0.0490411446672 0.0222914293942 0.803 1.28768034406e-38
-0.047495827644 0.0222636692081 0.802 1.29682605862e-38
-0.0460115830302 0.0222636692081 0.802 1.23225394512e-38
-0.0445828587884 0.0222914293942 0.803 1.27828169513e-38
-0.0430967634954 0.0222914293942 0.803 1.21378104785e-38
-0.0416106682025 0.0222914293942 0.803 1.1125442403e-38
-0.0401245729095 0.0222914293942 0.803 1.23250533806e-38
-0.0385903599608 0.0222636692081 0.802 1.18647940974e-38
-0.0371061153469 0.0222636692081 0.802 1.25094558508e-38
-0.0355330381377 0.0222081488361 0.8 1.25984032708e-38
-0.0340524948819 0.0222081488361 0.8 1.29668242552e-38
-0.0325719516262 0.0222081488361 0.8 1.27827931292e-38
-0.0310136798495 0.022152628464 0.798 1.25994808693e-38
-0.0294628107892 0.0220971080919 0.796 1.25072866407e-38
-0.0279896702497 0.0220971080919 0.796 1.23232583173e-38
-0.0265165297102 0.0220971080919 0.796 1.23239813873e-38
-0.0250433891708 0.0220971080919 0.796 1.21395929302e-38
-0.0235702486313 0.0220971080919 0.796 1.25998480095e-38
-0.0220971080919 0.0220971080919 0.796 1.31523057252e-38
-0.0206757865664 0.022152628464 0.798 1.36122048747e-38
-0.0191989446688 0.022152628464 0.798 1.29653991347e-38
-0.0177221027712 0.022152628464 0.798 1.30568730958e-38
-0.0162452608736 0.022152628464 0.798 1.32398224195e-38
-0.014768418976 0.022152628464 0.798 1.32394566806e-38
-0.0133248893016 0.0222081488361 0.8 1.3514963169e-38
-0.0118147351808 0.022152628464 0.798 1.3520362372e-38
-0.0103378932832 0.022152628464 0.798 1.28764320965e-38
-0.00886105138558 0.022152628464 0.798 1.26920380342e-38
-0.00738420948799 0.022152628464 0.798 1.27845881925e-38
-0.00590736759039 0.022152628464 0.798 1.32448474757e-38
-0.00443052569279 0.022152628464 0.798 1.28760677589e-38
-0.00295368379519 0.022152628464 0.798 1.29682647901e-38
-0.0014768418976 0.022152628464 0.798 1.24147378837e-38
0.0 0.022152628464 0.798 1.25977012202e-38
0.0014768418976 0.022152628464 0.798 1.22282026373e-38
0.00295368379519 0.022152628464 0.798 1.31501561333e-38
0.00736570269729 0.0220971080919 0.796 1.29657536632e-38
0.00883884323675 0.0220971080919 0.796 1.27813624035e-38
0.0102601647623 0.0219860673477 0.792 1.28735552307e-38
0.0117259025854 0.0219860673477 0.792 1.27806393335e-38
0.0131583281854 0.0219305469756 0.79 1.29661053891e-38
0.0146203646504 0.0219305469756 0.79 1.27820672566e-38
0.0161638309945 0.0220415877198 0.794 1.2690234563e-38
0.0176332701758 0.0220415877198 0.794 1.25984060734e-38
0.0191989446688 0.022152628464 0.798 1.26913275758e-38
0.0206757865664 0.022152628464 0.798 1.32452118133e-38
0.022152628464 0.022152628464 0.798 1.35225035561e-38
0.0236294703616 0.022152628464 0.798 1.28742853072e-38
0.0251063122592 0.022152628464 0.798 1.34303429587e-38
0.0265831541568 0.022152628464 0.798 1.29772709353e-38
-0.0683603834755 0.0237775246871 0.803 1.85219707379e-38
-0.0667910076244 0.023747913822 0.802 1.77833182914e-38
-0.0649810434943 0.0236294703616 0.798 1.68606319162e-38
-0.0635042015967 0.0236294703616 0.798 1.59372336815e-38
-0.0620273596991 0.0236294703616 0.798 1.39993275884e-38
-0.0605505178015 0.0236294703616 0.798 1.47361779651e-38
-0.0579577164249 0.0237775246871 0.803 1.23344112518e-38
-0.0564716211319 0.0237775246871 0.803 1.24240887483e-38
-0.054985525839 0.0237775246871 0.803 1.30665840942e-38
-0.0536326794391 0.0238367464174 0.805 1.27871203389e-38
-0.052142882788 0.0238367464174 0.805 1.24161798198e-38
-0.0505272399602 0.0237775246871 0.803 1.26916891108e-38
-0.0490411446672 0.0237775246871 0.803 1.27838875433e-38
-0.0475550493743 0.0237775246871 0.803 1.30604590186e-38
-0.0460689540813 0.0237775246871 0.803 1.25069307109e-38
-0.0446938995326 0.0238367464174 0.805 1.27831686772e-38
-0.0432041028815 0.0238367464174 0.805 1.25062300617e-38
-0.0417143062304 0.0238367464174 0.805 1.23225562668e-38
-0.0401245729095 0.0237775246871 0.803 1.26916891108e-38
-0.0385903599608 0.023747913822 0.802 1.22310626874e-38
-0.0371061153469 0.023747913822 0.802 1.26009214041e-38
-0.035621870733 0.023747913822 0.802 1.2782078467e-38
-0.0341376261192 0.023747913822 0.802 1.27820756644e-38
-0.0325719516262 0.0236886920918 0.8 1.26902373656e-38
-0.0310914083705 0.0236886920918 0.8 1.25065621694e-38
-0.0295368379519 0.0236294703616 0.798 1.26909534292e-38
-0.0280599960544 0.0236294703616 0.798 1.25984032708e-38
-0.0265165297102 0.0235702486313 0.796 1.24147378837e-38
-0.0250433891708 0.0235702486313 0.796 1.26913275758e-38
-0.0235702486313 0.0235702486313 0.796 1.28735580333e-38
-0.0220971080919 0.0235702486313 0.796 1.2689163971e-38
-0.0206757865664 0.0236294703616 0.798 1.18597578308e-38
-0.0191989446688 0.0236294703616 0.798 1.25965997997e-38
-0.0177221027712 0.0236294703616 0.798 1.30575751464e-38
-0.0162452608736 0.0236294703616 0.798 1.25962340608e-38
-0.014768418976 0.0236294703616 0.798 1.30572122101e-38
-0.0133248893016 0.0236886920918 0.8 1.26880737608e-38
-0.0118147351808 0.0236294703616 0.798 1.24132931449e-38
-0.0103378932832 0.0236294703616 0.798 1.24140120111e-38
-0.00886105138558 0.0236294703616 0.798 1.21374237202e-38
-0.00738420948799 0.0236294703616 0.798 1.25065621694e-38
-0.00590736759039 0.0236294703616 0.798 1.25987577993e-38
-0.00443052569279 0.0236294703616 0.798 1.26905989006e-38
-0.00295368379519 0.0236294703616 0.798 1.26902457734e-38
-0.0014768418976 0.0236294703616 0.798 1.32427048904e-38
0.0 0.0236294703616 0.798 1.36107685437e-38
0.0014768418976 0.0236294703616 0.798 1.29646788673e-38
0.00295368379519 0.0236294703616 0.798 1.30568730958e-38
0.00443052569279 0.0236294703616 0.798 1.30568702932e-38
0.00590736759039 0.0236294703616 0.798 1.28728349633e-38
0.00736570269729 0.0235702486313 0.796 1.33330914439e-38
0.00883884323675 0.0235702486313 0.796 1.30565045543e-38
0.0102860742692 0.0235110269011 0.794 1.32408958141e-38
0.0117259025854 0.0234518051709 0.792 1.28757132304e-38
0.0131916404086 0.0234518051709 0.792 1.2784233664e-38
0.0146943918132 0.0235110269011 0.794 1.23228911771e-38
0.0161638309945 0.0235110269011 0.794 1.29675403187e-38
0.0176776864735 0.0235702486313 0.796 1.19533883902e-38
0.019150827013 0.0235702486313 0.796 1.28749887591e-38
0.0206239675524 0.0235702486313 0.796 1.26920380342e-38
0.022152628464 0.0236294703616 0.798 1.26009214041e-38
0.0236294703616 0.0236294703616 0.798 1.21417551337e-38
0.0251063122592 0.0236294703616 0.798 1.29751157382e-38
0.0265831541568 0.0236294703616 0.798 1.31648991945e-38
-0.0667910076244 0.0252321584359 0.802 1.68613591901e-38
-0.0653067630106 0.0252321584359 0.802 1.59386770189e-38
-0.0553963765925 0.0254523892452 0.809 1.22386212914e-38
-0.0537659283321 0.0253894661568 0.807 1.23283001892e-38
-0.0522724303229 0.0253894661568 0.807 1.26034493466e-38
-0.0506530861369 0.0253265430684 0.805 1.30637114324e-38
-0.0491632894858 0.0253265430684 0.805 1.23261463934e-38
-0.0476734928347 0.0253265430684 0.805 1.2416532947e-38
-0.0461836961836 0.0253265430684 0.805 1.21388670576e-38
-0.0446938995326 0.0253265430684 0.805 1.2506578985e-38
-0.0432041028815 0.0253265430684 0.805 1.23221905279e-38
-0.0417143062304 0.0253265430684 0.805 1.26898940475e-38
-0.0401245729095 0.0252636199801 0.803 1.28746398358e-38
-0.0386384776166 0.0252636199801 0.803 1.21374279241e-38
-0.0371523823236 0.0252636199801 0.803 1.23218149799e-38
-0.035621870733 0.0252321584359 0.802 1.19530366643e-38
-0.0341376261192 0.0252321584359 0.802 1.25062076409e-38
-0.0325719516262 0.0251692353475 0.8 1.29671843889e-38
-0.0310914083705 0.0251692353475 0.8 1.25072824368e-38
-0.0295368379519 0.0251063122592 0.798 1.20463042875e-38
-0.0280599960544 0.0251063122592 0.798 1.21385041213e-38
-0.0265831541568 0.0251063122592 0.798 1.22303466239e-38
-0.0251063122592 0.0251063122592 0.798 1.21381537967e-38
-0.0236294703616 0.0251063122592 0.798 1.25976872073e-38
-0.022152628464 0.0251063122592 0.798 1.26895199008e-38
-0.0206757865664 0.0251063122592 0.798 1.21363419178e-38
-0.0191989446688 0.0251063122592 0.798 1.24132847372e-38
-0.0177665190688 0.0251692353475 0.8 1.28742600839e-38
-0.0162859758131 0.0251692353475 0.8 1.25054775644e-38
-0.0148054325574 0.0251692353475 0.8 1.26902317604e-38
-0.0133248893016 0.0251692353475 0.8 1.25058433033e-38
-0.0118443460459 0.0251692353475 0.8 1.25047755139e-38
-0.0103378932832 0.0251063122592 0.798 1.25958949465e-38
-0.00886105138558 0.0251063122592 0.798 1.2411856814e-38
-0.00738420948799 0.0251063122592 0.798 1.2688440901e-38
-0.00592217302295 0.0251692353475 0.8 1.24118540114e-38
-0.00444162976721 0.0251692353475 0.8 1.25040524439e-38
-0.00296108651147 0.0251692353475 0.8 1.26880877738e-38
-0.0014768418976 0.0251063122592 0.798 1.27802862063e-38
0.0 0.0251063122592 0.798 1.29657564658e-38
0.0014768418976 0.0251063122592 0.798 1.21359929944e-38
0.00295368379519 0.0251063122592 0.798 1.24125770814e-38
0.00443052569279 0.0251063122592 0.798 1.27817155307e-38
0.00590736759039 0.0251063122592 0.798 1.23207373814e-38
0.00738420948799 0.0251063122592 0.798 1.29650277906e-38
0.00886105138558 0.0251063122592 0.798 1.30572234205e-38
0.0103119837762 0.0250433891708 0.796 1.27806365309e-38
0.0117851243157 0.0250433891708 0.796 1.22303438213e-38
0.0132582648551 0.0250433891708 0.796 1.27835176005e-38
0.0147314053946 0.0250433891708 0.796 1.25984032708e-38
0.016204545934 0.0250433891708 0.796 1.28746286254e-38
0.0176776864735 0.0250433891708 0.796 1.27824329955e-38
0.019150827013 0.0250433891708 0.796 1.27827945305e-38
0.0206239675524 0.0250433891708 0.796 1.27853154664e-38
0.022152628464 0.0251063122592 0.798 1.33388521819e-38
0.0236294703616 0.0251063122592 0.798 1.32509767552e-38
0.0251063122592 0.0251063122592 0.798 1.34382490846e-38
-0.0476734928347 0.0268163397195 0.805 1.21431942672e-38
-0.0461836961836 0.0268163397195 0.805 1.16807741818e-38
-0.0446938995326 0.0268163397195 0.805 1.19566394027e-38
-0.0432041028815 0.0268163397195 0.805 1.16789679081e-38
-0.0417143062304 0.0268163397195 0.805 1.25072866407e-38
-0.0401245729095 0.026749715273 0.803 1.25984018695e-38
-0.0386384776166 0.026749715273 0.803 1.25051272398e-38
-0.0371523823236 0.026749715273 0.803 1.30572220192e-38
-0.035621870733 0.0267164030498 0.802 1.25973228697e-38
-0.0341376261192 0.0267164030498 0.802 1.2413650476e-38
-0.0325719516262 0.0266497786033 0.8 1.25058433033e-38
-0.0310914083705 0.0266497786033 0.8 1.25065621694e-38
-0.0296848922775 0.0267164030498 0.802 1.20463042875e-38
-0.0282006476636 0.0267164030498 0.802 1.213850272e-38
-0.0267164030498 0.0267164030498 0.802 1.21388670576e-38
-0.0251692353475 0.0266497786033 0.8 1.19544786005e-38
-0.0236886920918 0.0266497786033 0.8 1.2321463254e-38
-0.0222081488361 0.0266497786033 0.8 1.23218191838e-38
-0.0207794245943 0.0267164030498 0.802 1.22296207513e-38
-0.0192470623246 0.0266497786033 0.8 1.222961935e-38
-0.0177665190688 0.0266497786033 0.8 1.213777965e-38
-0.0163266907526 0.0267164030498 0.802 1.21374251215e-38
-0.0148424461388 0.0267164030498 0.802 1.22296235539e-38
-0.0133582015249 0.0267164030498 0.802 1.2321463254e-38
-0.011873956911 0.0267164030498 0.802 1.32409098271e-38
-0.0103638027902 0.0266497786033 0.8 1.28714084415e-38
-0.00888325953442 0.0266497786033 0.8 1.25029804506e-38
-0.00740271627868 0.0266497786033 0.8 1.25951732778e-38
-0.00592217302295 0.0266497786033 0.8 1.28721160972e-38
-0.00444162976721 0.0266497786033 0.8 1.26877248375e-38
-0.00296108651147 0.0266497786033 0.8 1.29643117271e-38
-0.00148054325574 0.0266497786033 0.8 1.27795645375e-38
0.0 0.0266497786033 0.8 1.27820756644e-38
0.00148054325574 0.0266497786033 0.8 1.21374251215e-38
0.00295368379519 0.0265831541568 0.798 1.20452294916e-38
0.00443052569279 0.0265831541568 0.798 1.23218191838e-38
0.00592217302295 0.0266497786033 0.8 1.29671885928e-38
0.00740271627868 0.0266497786033 0.8 1.23218191838e-38
0.00890546768326 0.0267164030498 0.802 1.21374279241e-38
0.0103638027902 0.0266497786033 0.8 1.26906017032e-38
0.0118443460459 0.0266497786033 0.8 1.30579492931e-38
0.0132915770784 0.0265831541568 0.798 1.2411856814e-38
0.014768418976 0.0265831541568 0.798 1.30572234205e-38
0.0162452608736 0.0265831541568 0.798 1.30590198851e-38
0.0177221027712 0.0265831541568 0.798 1.20463070901e-38
0.0191989446688 0.0265831541568 0.798 1.20477476249e-38
0.0206757865664 0.0265831541568 0.798 1.26030822064e-38
0.022152628464 0.0265831541568 0.798 1.37108717008e-38
0.0236294703616 0.0265831541568 0.798 1.30701826287e-38
-0.0432041028815 0.0283061363706 0.805 1.15892820038e-38
-0.0417143062304 0.0283061363706 0.805 1.23250393677e-38
-0.0401245729095 0.028235810566 0.803 1.25065565642e-38
-0.0386384776166 0.028235810566 0.803 1.24129288073e-38
-0.0371523823236 0.028235810566 0.803 1.27806351296e-38
-0.0356662870307 0.028235810566 0.803 1.24118526101e-38
-0.0341801917378 0.028235810566 0.803 1.24122085399e-38
-0.0326940964448 0.028235810566 0.803 1.25044041698e-38
-0.0312080011519 0.028235810566 0.803 1.25973200671e-38
-0.0297219058589 0.028235810566 0.803 1.25058461059e-38
-0.028235810566 0.028235810566 0.803 1.24132931449e-38
-0.0268163397195 0.0283061363706 0.805 1.22296207513e-38
-0.0252636199801 0.028235810566 0.803 1.22296235539e-38
-0.0237775246871 0.028235810566 0.803 1.24136588838e-38
-0.0222914293942 0.028235810566 0.803 1.22289074904e-38
-0.0208571531152 0.0283061363706 0.805 1.23211003177e-38
-0.0193192388083 0.028235810566 0.803 1.25054915774e-38
-0.0178331435154 0.028235810566 0.803 1.21359901918e-38
-0.0163470482224 0.028235810566 0.803 1.23203842542e-38
-0.0148609529295 0.028235810566 0.803 1.23200297256e-38
-0.0133582015249 0.0282006476636 0.802 1.25966222204e-38
-0.011873956911 0.0282006476636 0.802 1.2687022787e-38
-0.0103638027902 0.028130321859 0.8 1.23182374649e-38
