# .PCD v0.7 - Point Cloud Data file format
VERSION 0.7
FIELDS x y z rgb
SIZE 4 4 4 4
TYPE F F F F
COUNT 1 1 1 1
WIDTH 841
HEIGHT 1
VIEWPOINT 0 0 0 1 0 0 0
POINTS 841
DATA ascii
0.0825217797166 -0.0522076565554 0.91 2.07378846372e-38
0.08420589767 -0.0522076565554 0.91 2.12910584163e-38
0.0857012463583 -0.0520929144531 0.908 2.07386049046e-38
0.0873816629536 -0.0520929144531 0.908 2.13839771162e-38
0.0888659075675 -0.0519781723508 0.906 2.10159134629e-38
0.0905426228046 -0.0519781723508 0.906 2.19375138317e-38
0.0919139759952 -0.0518060591973 0.903 2.15687313122e-38
0.0933778631393 -0.051691317095 0.901 2.10159134629e-38
0.0947288588602 -0.0515192039415 0.898 2.10159134629e-38
0.0961760898927 -0.0514044618392 0.896 2.12925003525e-38
0.0970699678833 -0.0510028644811 0.889 2.18463943991e-38
0.0987152215763 -0.0510028644811 0.889 2.19385900289e-38
0.100360475269 -0.0510028644811 0.889 2.14783279431e-38
-0.023163099236 -0.0496352126486 0.894 2.10166393355e-38
-0.0215085921477 -0.0496352126486 0.894 1.97277067911e-38
-0.0198985013571 -0.0497462533928 0.896 1.96358769002e-38
-0.0182402929107 -0.0497462533928 0.896 2.15701872614e-38
-0.0166190980456 -0.0498572941369 0.898 2.15691054589e-38
-0.015007156576 -0.0500238552532 0.901 2.11070413033e-38
-0.0133693055993 -0.0501348959974 0.903 2.10155603357e-38
-0.0117629161668 -0.0504124978578 0.908 2.11088349653e-38
-0.0101047077204 -0.050523538602 0.91 2.09244437056e-38
-0.00844834995305 -0.0506900997183 0.913 2.12010305952e-38
-0.006773485395 -0.0508011404625 0.915 2.17542043744e-38
-0.00508011404625 -0.0508011404625 0.915 2.12010305952e-38
-0.00339784677192 -0.0509677015787 0.918 2.09244437056e-38
-0.00169892338596 -0.0509677015787 0.918 2.15698131147e-38
0.0 -0.0510787423229 0.92 2.11999529967e-38
0.0017026247441 -0.0510787423229 0.92 2.15687355161e-38
0.00341635356261 -0.0512453034392 0.923 2.13843400525e-38
0.00513563441834 -0.0513563441834 0.925 2.12925003525e-38
0.00684751255778 -0.0513563441834 0.925 2.20300653914e-38
0.00855939069723 -0.0513563441834 0.925 2.12003047226e-38
0.0102712688367 -0.0513563441834 0.925 2.15687313122e-38
0.0119831469761 -0.0513563441834 0.925 2.16609297447e-38
0.0136950251156 -0.0513563441834 0.925 2.13839799188e-38
0.015406903255 -0.0513563441834 0.925 2.16602108786e-38
0.0171187813945 -0.0513563441834 0.925 2.0922647241e-38
0.0188306595339 -0.0513563441834 0.925 2.08304544137e-38
0.0205425376733 -0.0513563441834 0.925 2.15680194526e-38
0.0222544158128 -0.0513563441834 0.925 2.11992341306e-38
0.0239662939522 -0.0513563441834 0.925 2.09226458397e-38
0.0256781720917 -0.0513563441834 0.925 2.1291784289e-38
0.0273900502311 -0.0513563441834 0.925 2.10148414696e-38
0.0291963130031 -0.0515229052996 0.928 2.18449580681e-38
0.0309137431798 -0.0515229052996 0.928 2.15683683759e-38
0.0326311733564 -0.0515229052996 0.928 2.11073902266e-38
0.0342375627889 -0.0513563441834 0.925 2.15683683759e-38
0.0359494409284 -0.0513563441834 0.925 2.14761755487e-38
0.0376613190678 -0.0513563441834 0.925 2.13836253903e-38
0.0393731972073 -0.0513563441834 0.925 2.13836281929e-38
0.0409962427514 -0.0512453034392 0.923 2.08304516111e-38
0.0427044195327 -0.0512453034392 0.923 2.16602108786e-38
0.044412596314 -0.0512453034392 0.923 2.08308061396e-38
0.0461207730953 -0.0512453034392 0.923 2.14761755487e-38
0.0478289498766 -0.0512453034392 0.923 2.23059334149e-38
0.0495371266579 -0.0512453034392 0.923 2.10151945968e-38
0.0512453034392 -0.0512453034392 0.923 2.11995858565e-38
0.0529534802205 -0.0512453034392 0.923 2.11995858565e-38
0.0546616570018 -0.0512453034392 0.923 2.1659485006e-38
0.0563698337831 -0.0512453034392 0.923 2.11063112268e-38
0.0578892412993 -0.0510787423229 0.92 2.12907024865e-38
0.0595918660434 -0.0510787423229 0.92 2.09219199671e-38
0.0611612418945 -0.0509677015787 0.918 2.15672893761e-38
0.0628601652804 -0.0509677015787 0.918 2.11063112268e-38
0.0645590886664 -0.0509677015787 0.918 2.11985068567e-38
0.0660414826012 -0.0508011404625 0.915 2.09219199671e-38
0.06773485395 -0.0508011404625 0.915 2.09230017695e-38
0.0694282252987 -0.0508011404625 0.915 2.14761755487e-38
0.0711215966475 -0.0508011404625 0.915 2.1291784289e-38
0.0728149679962 -0.0508011404625 0.915 2.03698279903e-38
0.0743454795868 -0.0506900997183 0.913 2.18449580681e-38
0.0760351495774 -0.0506900997183 0.913 2.09229989669e-38
0.077724819568 -0.0506900997183 0.913 2.11995858565e-38
0.0794144895587 -0.0506900997183 0.913 2.13839771162e-38
0.0808376617632 -0.050523538602 0.91 2.21204631553e-38
0.0825217797166 -0.050523538602 0.91 2.10141155969e-38
0.0840208297631 -0.0504124978578 0.908 2.17516806359e-38
0.0857012463583 -0.0504124978578 0.908 2.00010454709e-38
0.0873816629536 -0.0504124978578 0.908 2.09230017695e-38
0.0888659075675 -0.0503014571137 0.906 2.10155603357e-38
0.0902428127953 -0.0501348959974 0.903 2.19375166343e-38
0.0919139759952 -0.0501348959974 0.903 2.09233661071e-38
0.0933778631393 -0.0500238552532 0.901 2.11077531629e-38
0.0947288588602 -0.0498572941369 0.898 2.06471309434e-38
0.0961760898927 -0.0497462533928 0.896 2.17534785018e-38
0.0970699678833 -0.0493576107881 0.889 2.2583959438e-38
0.0987152215763 -0.0493576107881 0.889 2.20307856588e-38
0.100360475269 -0.0493576107881 0.889 2.24002870444e-38
-0.02321491825 -0.0480880449463 0.896 2.10187973351e-38
-0.0215567098035 -0.0480880449463 0.896 2.14801426246e-38
-0.0198985013571 -0.0480880449463 0.896 2.01890506793e-38
-0.0182402929107 -0.0480880449463 0.896 2.15705431912e-38
-0.0166190980456 -0.0481953843324 0.898 2.06475050901e-38
-0.015007156576 -0.0483563934114 0.901 2.1475467893e-38
-0.0133693055993 -0.0484637327975 0.903 2.1015561737e-38
-0.0117370066599 -0.0486247418765 0.906 2.12006732641e-38
-0.0101047077204 -0.0488394206486 0.91 2.13850645238e-38
-0.00844834995305 -0.0490004297277 0.913 2.14772601537e-38
-0.006773485395 -0.0491077691137 0.915 2.1292868894e-38
-0.00508011404625 -0.0491077691137 0.915 2.08318907446e-38
-0.00339784677192 -0.0492687781928 0.918 2.1292868894e-38
-0.00169892338596 -0.0492687781928 0.918 2.09240863745e-38
0.0 -0.0493761175788 0.92 2.16605780188e-38
0.0017026247441 -0.0493761175788 0.92 2.11995998695e-38
0.00341635356261 -0.0495371266579 0.923 2.12921486266e-38
0.00513563441834 -0.0496444660439 0.925 2.07389706435e-38
0.00684751255778 -0.0496444660439 0.925 2.16612800693e-38
0.00855939069723 -0.0496444660439 0.925 2.10159106603e-38
0.0102712688367 -0.0496444660439 0.925 2.19378697615e-38
0.0119831469761 -0.0496444660439 0.925 2.14768916122e-38
0.0136950251156 -0.0496444660439 0.925 2.23981318473e-38
0.015406903255 -0.0496444660439 0.925 2.1383623989e-38
0.0171187813945 -0.0496444660439 0.925 2.28587554681e-38
0.0188306595339 -0.0496444660439 0.925 2.0922647241e-38
0.0205425376733 -0.0496444660439 0.925 2.156801665e-38
0.0222544158128 -0.0496444660439 0.925 2.17524079098e-38
0.0239662939522 -0.0496444660439 0.925 2.11070370994e-38
0.0256781720917 -0.0496444660439 0.925 2.11070370994e-38
0.0273900502311 -0.0496444660439 0.925 2.19367991695e-38
0.0291963130031 -0.049805475123 0.928 2.19367977682e-38
0.0309137431798 -0.049805475123 0.928 2.11073930292e-38
0.0326311733564 -0.049805475123 0.928 2.18449552655e-38
0.0342375627889 -0.0496444660439 0.925 2.16605640058e-38
0.0359494409284 -0.0496444660439 0.925 2.15683711785e-38
0.0376613190678 -0.0496444660439 0.925 2.156801665e-38
0.0393731972073 -0.0496444660439 0.925 2.15680194526e-38
0.0409962427514 -0.0495371266579 0.923 2.15680152487e-38
0.0427044195327 -0.0495371266579 0.923 2.18449580681e-38
0.044412596314 -0.0495371266579 0.923 2.13839799188e-38
0.0461207730953 -0.0495371266579 0.923 2.11073930292e-38
0.0478289498766 -0.0495371266579 0.923 2.17527624383e-38
0.0495371266579 -0.0495371266579 0.923 2.10151945968e-38
0.0512453034392 -0.0495371266579 0.923 2.16605640058e-38
0.0529534802205 -0.0495371266579 0.923 2.11073902266e-38
0.0546616570018 -0.0495371266579 0.923 2.19360746982e-38
0.0563698337831 -0.0495371266579 0.923 2.17516806359e-38
0.0578892412993 -0.0493761175788 0.92 2.13828981164e-38
0.0595918660434 -0.0493761175788 0.92 2.12907024865e-38
0.0611612418945 -0.0492687781928 0.918 2.04609418178e-38
0.0628601652804 -0.0492687781928 0.918 2.18442321955e-38
0.0645590886664 -0.0492687781928 0.918 2.19364278254e-38
0.0662580120524 -0.0492687781928 0.918 2.0830080267e-38
0.06773485395 -0.0491077691137 0.915 2.11995858565e-38
0.0694282252987 -0.0491077691137 0.915 2.14761727461e-38
0.0711215966475 -0.0491077691137 0.915 2.19371508954e-38
0.0728149679962 -0.0491077691137 0.915 2.06464120773e-38
0.074508339345 -0.0491077691137 0.915 2.13839799188e-38
0.0760351495774 -0.0490004297277 0.913 2.1291784289e-38
0.077724819568 -0.0490004297277 0.913 2.06464148799e-38
0.0794144895587 -0.0490004297277 0.913 2.16602108786e-38
0.0811041595493 -0.0490004297277 0.913 2.07375343126e-38
0.0825217797166 -0.0488394206486 0.91 2.11985124619e-38
0.0840208297631 -0.0487320812626 0.908 2.13829037216e-38
0.0857012463583 -0.0487320812626 0.908 2.11070370994e-38
0.0871891923303 -0.0486247418765 0.906 2.14758210202e-38
0.0888659075675 -0.0486247418765 0.906 2.14765398863e-38
0.0902428127953 -0.0484637327975 0.903 2.14761839565e-38
0.0919139759952 -0.0484637327975 0.903 2.14761839565e-38
0.0933778631393 -0.0483563934114 0.901 2.10155575331e-38
0.0947288588602 -0.0481953843324 0.898 2.13846959823e-38
0.0961760898927 -0.0480880449463 0.896 2.14768916122e-38
0.0972883480135 -0.0478196964812 0.891 2.2583959438e-38
0.0989373030646 -0.0478196964812 0.891 2.31371360197e-38
0.100586258116 -0.0478196964812 0.891 2.23080942171e-38
-0.023163099236 -0.046326198472 0.894 2.08347676104e-38
-0.0215085921477 -0.046326198472 0.894 2.08347732156e-38
-0.0198985013571 -0.0464298364999 0.896 2.06496658923e-38
-0.0182402929107 -0.0464298364999 0.896 2.13861519314e-38
-0.0166190980456 -0.0465334745278 0.898 2.10159316798e-38
-0.015007156576 -0.0466889315697 0.901 2.12917954993e-38
-0.0133693055993 -0.0467925695976 0.903 2.13850673264e-38
-0.0117370066599 -0.0469480266394 0.906 2.08318935472e-38
-0.0100824995716 -0.0470516646673 0.908 2.07396979174e-38
-0.00844834995305 -0.0473107597371 0.913 2.06475022875e-38
-0.00675867996244 -0.0473107597371 0.913 2.03709153979e-38
-0.00508011404625 -0.047414397765 0.915 2.11084804368e-38
-0.00339784677192 -0.0475698548068 0.918 2.12928716966e-38
-0.00169892338596 -0.0475698548068 0.918 2.08318935472e-38
0.0 -0.0475698548068 0.918 2.17527764513e-38
0.0017026247441 -0.0476734928347 0.92 2.12917954993e-38
0.00341635356261 -0.0478289498766 0.923 2.13839883266e-38
0.00513563441834 -0.0479325879045 0.925 2.24906876109e-38
0.00684751255778 -0.0479325879045 0.925 2.06471281408e-38
0.00855939069723 -0.0479325879045 0.925 2.12924975499e-38
0.0102712688367 -0.0479325879045 0.925 2.24910407381e-38
0.0119831469761 -0.0479325879045 0.925 2.07393237707e-38
0.0137394414132 -0.0480880449463 0.928 2.08304502098e-38
0.015406903255 -0.0479325879045 0.925 2.156801665e-38
0.0171187813945 -0.0479325879045 0.925 2.10148414696e-38
0.0188306595339 -0.0479325879045 0.925 2.10148414696e-38
0.0205425376733 -0.0479325879045 0.925 2.10148414696e-38
0.0222544158128 -0.0479325879045 0.925 2.1383623989e-38
0.0239662939522 -0.0479325879045 0.925 2.04616690917e-38
0.0256781720917 -0.0479325879045 0.925 2.11992341306e-38
0.0273900502311 -0.0479325879045 0.925 2.11070413033e-38
0.0291019283706 -0.0479325879045 0.925 2.156801665e-38
0.03081380651 -0.0479325879045 0.925 2.10151973994e-38
0.0325256846495 -0.0479325879045 0.925 2.17527596357e-38
0.0342375627889 -0.0479325879045 0.925 2.14761727461e-38
0.0359494409284 -0.0479325879045 0.925 2.23981318473e-38
0.0376613190678 -0.0479325879045 0.925 2.09226458397e-38
0.0393731972073 -0.0479325879045 0.925 2.12914297604e-38
0.0409962427514 -0.0478289498766 0.923 2.15683711785e-38
0.0427044195327 -0.0478289498766 0.923 2.17527596357e-38
0.044412596314 -0.0478289498766 0.923 2.20293465253e-38
0.0461207730953 -0.0478289498766 0.923 2.07386105098e-38
0.0478289498766 -0.0478289498766 0.923 2.04620236202e-38
0.0495371266579 -0.0478289498766 0.923 2.1291784289e-38
0.0512453034392 -0.0478289498766 0.923 2.11073930292e-38
0.0529534802205 -0.0478289498766 0.923 2.04620236202e-38
0.0546616570018 -0.0478289498766 0.923 2.17516834385e-38
0.0563698337831 -0.0478289498766 0.923 2.2028270328e-38
0.0580780105644 -0.0478289498766 0.923 2.15672921787e-38
0.0595918660434 -0.0476734928347 0.92 2.18438762657e-38
0.0612944907875 -0.0476734928347 0.92 2.10144715268e-38
0.0628601652804 -0.0475698548068 0.918 2.16598409358e-38
0.0645590886664 -0.0475698548068 0.918 2.00925138268e-38
0.0662580120524 -0.0475698548068 0.918 2.2028622054e-38
0.0679569354383 -0.0475698548068 0.918 2.10151945968e-38
0.0694282252987 -0.047414397765 0.915 2.06464120773e-38
0.0711215966475 -0.047414397765 0.915 2.13839771162e-38
0.0728149679962 -0.047414397765 0.915 2.12917814864e-38
0.074508339345 -0.047414397765 0.915 2.14761755487e-38
0.0762017106937 -0.047414397765 0.915 2.17527624383e-38
0.077724819568 -0.0473107597371 0.913 2.12914283591e-38
0.0794144895587 -0.0473107597371 0.913 2.12914283591e-38
0.0811041595493 -0.0473107597371 0.913 2.16594906112e-38
0.0825217797166 -0.0471553026952 0.91 2.06453386827e-38
0.0840208297631 -0.0470516646673 0.908 2.1013763871e-38
0.0857012463583 -0.0470516646673 0.908 2.13836253903e-38
0.0871891923303 -0.0469480266394 0.906 2.0646063154e-38
0.0888659075675 -0.0469480266394 0.906 2.18449664759e-38
0.0902428127953 -0.0467925695976 0.903 2.11995970669e-38
0.0919139759952 -0.0467925695976 0.903 2.11995998695e-38
0.0933778631393 -0.0466889315697 0.901 2.11077531629e-38
0.0947288588602 -0.0465334745278 0.898 2.13846959823e-38
0.0961760898927 -0.0464298364999 0.896 2.24910435407e-38
0.0976159182089 -0.046326198472 0.894 2.20307884614e-38
0.0992704252972 -0.046326198472 0.894 2.25839622406e-38
0.100924932385 -0.046326198472 0.894 2.23077382873e-38
-0.0287817608915 -0.0431726413373 0.864 2.35077332207e-38
-0.027119851087 -0.0430727046675 0.862 4.32205147819e-39
-0.0254653439987 -0.0429727679978 0.86 2.35084478829e-38
-0.023163099236 -0.0446716913837 0.894 2.19411179714e-38
-0.0215085921477 -0.0446716913837 0.894 2.02808805703e-38
-0.0198540850594 -0.0446716913837 0.894 2.09251709795e-38
-0.0182402929107 -0.0447716280535 0.896 2.21229981042e-38
-0.0166746184177 -0.0450214697279 0.901 2.16613010888e-38
-0.0150404687992 -0.0451214063976 0.903 2.09237360499e-38
-0.0133693055993 -0.0451214063976 0.903 2.18460482783e-38
-0.0117370066599 -0.0452713114023 0.906 2.09240919797e-38
-0.0100824995716 -0.0453712480721 0.908 2.15694613887e-38
-0.00844834995305 -0.0456210897465 0.913 2.05553094603e-38
-0.00675867996244 -0.0456210897465 0.913 2.09240919797e-38
-0.00508011404625 -0.0457210264162 0.915 2.16616570186e-38
-0.00339784677192 -0.0458709314209 0.918 2.17538526485e-38
-0.00169892338596 -0.0458709314209 0.918 2.12006788693e-38
0.0 -0.0458709314209 0.918 2.12917983019e-38
0.0017026247441 -0.0459708680906 0.92 2.13839911292e-38
0.00340524948819 -0.0459708680906 0.92 2.03698363981e-38
0.00512453034392 -0.0461207730953 0.923 2.23062991538e-38
0.00684751255778 -0.046220709765 0.925 2.00939571642e-38
0.0120220112366 -0.0463706147697 0.928 2.18456741316e-38
0.0137394414132 -0.0463706147697 0.928 2.13836253903e-38
0.015406903255 -0.046220709765 0.925 2.19367991695e-38
0.0171187813945 -0.046220709765 0.925 2.23055802876e-38
0.0188306595339 -0.046220709765 0.925 2.18449580681e-38
0.0205425376733 -0.046220709765 0.925 2.17527624383e-38
0.0222544158128 -0.046220709765 0.925 2.2028993398e-38
0.0239662939522 -0.046220709765 0.925 2.10148428709e-38
0.0256781720917 -0.046220709765 0.925 2.10148456734e-38
0.0273900502311 -0.046220709765 0.925 2.0646063154e-38
0.0291019283706 -0.046220709765 0.925 2.18446035396e-38
0.03081380651 -0.046220709765 0.925 2.11992327293e-38
0.0325256846495 -0.046220709765 0.925 2.17527596357e-38
0.0342375627889 -0.046220709765 0.925 2.15683683759e-38
0.0359494409284 -0.046220709765 0.925 2.21215421551e-38
0.0376613190678 -0.046220709765 0.925 2.16605668084e-38
0.0393731972073 -0.046220709765 0.925 2.16602108786e-38
0.0409962427514 -0.0461207730953 0.923 2.18449580681e-38
0.0427044195327 -0.0461207730953 0.923 2.11073902266e-38
0.044412596314 -0.0461207730953 0.923 2.18449552655e-38
0.0461207730953 -0.0461207730953 0.923 2.15683683759e-38
0.0478289498766 -0.0461207730953 0.923 2.13839799188e-38
0.0495371266579 -0.0461207730953 0.923 2.17527624383e-38
0.0512453034392 -0.0461207730953 0.923 2.15680152487e-38
0.0529534802205 -0.0461207730953 0.923 2.09226458397e-38
0.0546616570018 -0.0461207730953 0.923 2.10141212021e-38
0.0563698337831 -0.0461207730953 0.923 2.13829037216e-38
0.0580780105644 -0.0461207730953 0.923 2.11063140294e-38
0.0595918660434 -0.0459708680906 0.92 2.12907024865e-38
0.0612944907875 -0.0459708680906 0.92 2.17520365657e-38
0.0629971155316 -0.0459708680906 0.92 2.19364264241e-38
0.0645590886664 -0.0458709314209 0.918 2.14754482748e-38
0.0662580120524 -0.0458709314209 0.918 2.1567641102e-38
0.0679569354383 -0.0458709314209 0.918 2.03698251877e-38
0.0696558588243 -0.0458709314209 0.918 2.23059362174e-38
0.0711215966475 -0.0457210264162 0.915 2.01854367306e-38
0.0728149679962 -0.0457210264162 0.915 2.16605668084e-38
0.074508339345 -0.0457210264162 0.915 2.11995886591e-38
0.0762017106937 -0.0457210264162 0.915 2.14761727461e-38
0.077724819568 -0.0456210897465 0.913 2.11995858565e-38
0.0794144895587 -0.0456210897465 0.913 2.09230017695e-38
0.0811041595493 -0.0456210897465 0.913 2.12907080917e-38
0.0825217797166 -0.0454711847418 0.91 2.14750993515e-38
0.0840208297631 -0.0453712480721 0.908 2.13829037216e-38
0.0857012463583 -0.0453712480721 0.908 2.11992341306e-38
0.0871891923303 -0.0452713114023 0.906 2.16602122799e-38
0.0888659075675 -0.0452713114023 0.906 2.16605752162e-38
0.0902428127953 -0.0451214063976 0.903 2.13839883266e-38
0.0917104012975 -0.0450214697279 0.901 2.14761839565e-38
0.0930669490556 -0.0448715647232 0.898 2.25832391706e-38
0.0947288588602 -0.0448715647232 0.898 2.14768888096e-38
0.0961760898927 -0.0447716280535 0.896 2.23988479108e-38
0.0976159182089 -0.0446716913837 0.894 2.24917666107e-38
0.0992704252972 -0.0446716913837 0.894 2.24917694133e-38
0.100924932385 -0.0446716913837 0.894 2.25843265782e-38
-0.0303807476077 -0.0415736546211 0.864 2.3418050119e-38
-0.0287817608915 -0.0415736546211 0.864 2.04649187028e-38
-0.027119851087 -0.0414774193095 0.862 1.04116405834e-38
-0.0254653439987 -0.0413811839978 0.86 2.35059297496e-38
-0.0238737599988 -0.0413811839978 0.86 2.08329753497e-38
-0.0222821759988 -0.0413811839978 0.86 2.12017578691e-38
-0.0215085921477 -0.0430171842954 0.894 2.1846408412e-38
-0.0198540850594 -0.0430171842954 0.894 2.10166477433e-38
-0.0182402929107 -0.0431134196071 0.896 2.08322564835e-38
-0.0166746184177 -0.0433540078861 0.901 2.12010418056e-38
-0.0150404687992 -0.0434502431977 0.903 2.0279085507e-38
-0.0133693055993 -0.0434502431977 0.903 2.17538526485e-38
-0.0117370066599 -0.0435945961652 0.906 2.05553094603e-38
-0.0100824995716 -0.0436908314768 0.908 2.22148307978e-38
-0.00844834995305 -0.0439314197559 0.913 2.09240919797e-38
-0.00675867996244 -0.0439314197559 0.913 2.02787225707e-38
-0.00508011404625 -0.0440276550675 0.915 2.14772657589e-38
-0.00339784677192 -0.0441720080349 0.918 2.17538526485e-38
-0.00169892338596 -0.0441720080349 0.918 2.073970072e-38
0.0 -0.0441720080349 0.918 2.14761867591e-38
0.0017026247441 -0.0442682433465 0.92 2.14761867591e-38
0.00340524948819 -0.0442682433465 0.92 2.14765398863e-38
0.00512453034392 -0.044412596314 0.923 2.14765356824e-38
0.00684751255778 -0.0445088316256 0.925 2.17534756992e-38
0.0171187813945 -0.0445088316256 0.925 2.23055802876e-38
0.0188306595339 -0.0445088316256 0.925 2.15683711785e-38
0.0205425376733 -0.0445088316256 0.925 2.0830803337e-38
0.0222544158128 -0.0445088316256 0.925 2.12914283591e-38
0.0239662939522 -0.0445088316256 0.925 2.11070385007e-38
0.0256781720917 -0.0445088316256 0.925 2.13836281929e-38
0.0273900502311 -0.0445088316256 0.925 2.09222941138e-38
0.0291019283706 -0.0445088316256 0.925 2.23055844915e-38
0.03081380651 -0.0445088316256 0.925 2.19367977682e-38
0.0325256846495 -0.0445088316256 0.925 2.23059334149e-38
0.0342375627889 -0.0445088316256 0.925 2.15683683759e-38
0.0359494409284 -0.0445088316256 0.925 2.21215421551e-38
0.0376613190678 -0.0445088316256 0.925 2.16605668084e-38
0.0393731972073 -0.0445088316256 0.925 2.13839799188e-38
0.0409962427514 -0.044412596314 0.923 2.14761727461e-38
0.0427044195327 -0.044412596314 0.923 2.22137349824e-38
0.044412596314 -0.044412596314 0.923 2.20293465253e-38
0.0461207730953 -0.044412596314 0.923 2.15683683759e-38
0.0478289498766 -0.044412596314 0.923 2.16605668084e-38
0.0495371266579 -0.044412596314 0.923 2.19367977682e-38
0.0512453034392 -0.044412596314 0.923 2.22133846578e-38
0.0529534802205 -0.044412596314 0.923 2.17524065085e-38
0.0546616570018 -0.044412596314 0.923 2.20279157995e-38
0.0563698337831 -0.044412596314 0.923 2.11985124619e-38
0.0578892412993 -0.0442682433465 0.92 2.16594878086e-38
0.0595918660434 -0.0442682433465 0.92 2.12907024865e-38
0.0612944907875 -0.0442682433465 0.92 2.20286234553e-38
0.0629971155316 -0.0442682433465 0.92 2.11988613852e-38
0.0645590886664 -0.0441720080349 0.918 2.16598367319e-38
0.0662580120524 -0.0441720080349 0.918 2.11988585826e-38
0.0679569354383 -0.0441720080349 0.918 2.21215449577e-38
0.0696558588243 -0.0441720080349 0.918 2.23055802876e-38
0.0713547822102 -0.0441720080349 0.918 2.073825458e-38
0.0728149679962 -0.0440276550675 0.915 2.22137405876e-38
0.074508339345 -0.0440276550675 0.915 2.11073902266e-38
0.0762017106937 -0.0440276550675 0.915 2.13839771162e-38
0.077724819568 -0.0439314197559 0.913 2.14761699435e-38
0.0794144895587 -0.0439314197559 0.913 2.15683655733e-38
0.0808376617632 -0.0437870667884 0.91 2.10141183995e-38
0.0825217797166 -0.0437870667884 0.91 2.1382900919e-38
0.0840208297631 -0.0436908314768 0.908 2.09219227697e-38
0.0857012463583 -0.0436908314768 0.908 2.14758196189e-38
0.0871891923303 -0.0435945961652 0.906 2.16602108786e-38
0.0885716495954 -0.0434502431977 0.903 2.17531267759e-38
0.0902428127953 -0.0434502431977 0.903 2.19375180356e-38
0.0917104012975 -0.0433540078861 0.901 2.11999529967e-38
0.0930669490556 -0.0432096549187 0.898 2.0278348424e-38
0.0945178814462 -0.0431134196071 0.896 2.23988451082e-38
0.0959614111206 -0.0430171842954 0.894 2.32286085796e-38
0.0976159182089 -0.0430171842954 0.894 2.32293316496e-38
0.0994925067855 -0.0431134196071 0.896 2.22151825237e-38
0.101150715232 -0.0431134196071 0.896 2.23999353184e-38
-0.0303807476077 -0.0399746679049 0.864 2.3418050119e-38
-0.0287817608915 -0.0399746679049 0.864 1.53041228314e-38
-0.027119851087 -0.0398821339514 0.862 1.55785517214e-38
-0.0254653439987 -0.0397895999979 0.86 2.27683675133e-38
-0.0238737599988 -0.0397895999979 0.86 2.07400608537e-38
-0.0222821759988 -0.0397895999979 0.86 2.15694613887e-38
-0.0215085921477 -0.0413626772071 0.894 2.1385070129e-38
-0.0198540850594 -0.0413626772071 0.894 2.01865269408e-38
-0.0182810078502 -0.0415477451141 0.898 2.12006788693e-38
-0.0166746184177 -0.0416865460443 0.901 2.10166505459e-38
-0.0150404687992 -0.0417790799978 0.903 2.08322592861e-38
-0.0133693055993 -0.0417790799978 0.903 2.20300836083e-38
-0.0117370066599 -0.041917880928 0.906 2.06471491603e-38
-0.0100824995716 -0.0420104148815 0.908 2.20300836083e-38
-0.008420589767 -0.042102948835 0.91 2.12003229395e-38
-0.00675867996244 -0.0422417497652 0.913 2.12925185693e-38
-0.00508011404625 -0.0423342837187 0.915 2.14769098291e-38
-0.0033867426975 -0.0423342837187 0.915 2.15691054589e-38
-0.00169892338596 -0.042473084649 0.918 2.17534967187e-38
0.0 -0.042473084649 0.918 2.23981430577e-38
0.0017026247441 -0.0425656186024 0.92 2.13839883266e-38
0.00340524948819 -0.0425656186024 0.92 2.20297122642e-38
0.00512453034392 -0.0427044195327 0.923 2.19378697615e-38
0.0358717124074 -0.0427044195327 0.923 2.23059334149e-38
0.0375798891887 -0.0427044195327 0.923 2.11995886591e-38
0.03928806597 -0.0427044195327 0.923 2.18449580681e-38
0.0409962427514 -0.0427044195327 0.923 2.11995858565e-38
0.0427044195327 -0.0427044195327 0.923 2.19371480928e-38
0.044412596314 -0.0427044195327 0.923 2.20293465253e-38
0.0461207730953 -0.0427044195327 0.923 2.09229989669e-38
0.0478289498766 -0.0427044195327 0.923 2.11995886591e-38
0.0495371266579 -0.0427044195327 0.923 2.15680152487e-38
0.0512453034392 -0.0427044195327 0.923 2.2028993398e-38
0.0529534802205 -0.0427044195327 0.923 2.10148428709e-38
0.0546616570018 -0.0427044195327 0.923 2.1013763871e-38
0.0563698337831 -0.0427044195327 0.923 2.14750993515e-38
0.0578892412993 -0.0425656186024 0.92 2.13829037216e-38
0.0595918660434 -0.0425656186024 0.92 2.18438762657e-38
0.0612944907875 -0.0425656186024 0.92 2.20286234553e-38
0.0629971155316 -0.0425656186024 0.92 2.14754482748e-38
0.0645590886664 -0.042473084649 0.918 2.16598367319e-38
0.0662580120524 -0.042473084649 0.918 2.07378804333e-38
0.0679569354383 -0.042473084649 0.918 2.14758196189e-38
0.0696558588243 -0.042473084649 0.918 2.11070413033e-38
0.0713547822102 -0.042473084649 0.918 2.11070385007e-38
0.0728149679962 -0.0423342837187 0.915 2.17527624383e-38
0.074508339345 -0.0423342837187 0.915 2.17527596357e-38
0.0762017106937 -0.0423342837187 0.915 2.14761699435e-38
0.077724819568 -0.0422417497652 0.913 2.14765272746e-38
0.0794144895587 -0.0422417497652 0.913 2.17531141642e-38
0.0808376617632 -0.042102948835 0.91 2.10141155969e-38
0.0825217797166 -0.042102948835 0.91 2.20282675254e-38
0.0840208297631 -0.0420104148815 0.908 2.21204631553e-38
0.0857012463583 -0.0420104148815 0.908 2.14761755487e-38
0.0871891923303 -0.041917880928 0.906 2.11073930292e-38
0.0885716495954 -0.0417790799978 0.903 2.16609297447e-38
0.0902428127953 -0.0417790799978 0.903 2.19375166343e-38
0.0914050392511 -0.0415477451141 0.898 2.11999515954e-38
0.0930669490556 -0.0415477451141 0.898 2.12003047226e-38
0.0945178814462 -0.0414552111606 0.896 2.33208014069e-38
0.0959614111206 -0.0413626772071 0.894 2.27676304303e-38
0.0976159182089 -0.0413626772071 0.894 2.21229840912e-38
0.0992704252972 -0.0413626772071 0.894 2.25839650432e-38
0.100924932385 -0.0413626772071 0.894 2.15701746497e-38
-0.0303807476077 -0.0383756811887 0.864 2.32343763241e-38
-0.0287817608915 -0.0383756811887 0.864 9.49578693962e-39
-0.0271827741753 -0.0383756811887 0.864 1.99113707769e-38
-0.0255245657289 -0.0382868485934 0.862 2.22151825237e-38
-0.0238737599988 -0.038198015998 0.86 2.05567415873e-38
-0.0222821759988 -0.038198015998 0.86 2.12971904984e-38
-0.0209071214501 -0.0385977626771 0.869 1.94532807038e-38
-0.0198540850594 -0.0397081701189 0.894 2.12950353014e-38
-0.0182810078502 -0.0398858353096 0.898 2.14769126317e-38
-0.0166190980456 -0.0398858353096 0.898 2.16602248916e-38
-0.015007156576 -0.0400190842026 0.901 2.21215589707e-38
-0.0133693055993 -0.0401079167979 0.903 2.23992220575e-38
-0.0117370066599 -0.0402411656909 0.906 2.09240891771e-38
-0.0100824995716 -0.0403299982863 0.908 2.14765398863e-38
-0.008420589767 -0.0404188308816 0.91 2.13843400525e-38
-0.00675867996244 -0.0405520797746 0.913 2.2306652281e-38
-0.00508011404625 -0.04064091237 0.915 2.07386105098e-38
-0.0033867426975 -0.04064091237 0.915 2.13839799188e-38
-0.00169892338596 -0.040774161263 0.918 2.17524065085e-38
0.0 -0.040774161263 0.918 2.1476538485e-38
0.0017026247441 -0.0408629938583 0.92 2.17542043744e-38
0.0409962427514 -0.0409962427514 0.923 2.17524065085e-38
0.0427044195327 -0.0409962427514 0.923 2.16602122799e-38
0.044412596314 -0.0409962427514 0.923 2.23055816889e-38
0.0461207730953 -0.0409962427514 0.923 2.20289947993e-38
0.0478289498766 -0.0409962427514 0.923 2.26743642084e-38
0.0495371266579 -0.0409962427514 0.923 2.16602122799e-38
0.0512453034392 -0.0409962427514 0.923 2.20289976019e-38
0.0529534802205 -0.0409962427514 0.923 2.17524107124e-38
0.0546616570018 -0.0409962427514 0.923 2.15680194526e-38
0.0563698337831 -0.0409962427514 0.923 2.156801665e-38
0.0578892412993 -0.0408629938583 0.92 2.17527624383e-38
0.0595918660434 -0.0408629938583 0.92 2.03698223851e-38
0.0612944907875 -0.0408629938583 0.92 2.14765272746e-38
0.0629971155316 -0.0408629938583 0.92 2.19364278254e-38
0.0645590886664 -0.040774161263 0.918 2.19360746982e-38
0.0662580120524 -0.040774161263 0.918 2.27654808384e-38
0.0679569354383 -0.040774161263 0.918 2.1750601636e-38
0.0696558588243 -0.040774161263 0.918 2.15662075737e-38
0.0713547822102 -0.040774161263 0.918 2.18435133294e-38
0.0728149679962 -0.04064091237 0.915 2.23966871086e-38
0.074508339345 -0.04064091237 0.915 2.19357089593e-38
0.0762017106937 -0.04064091237 0.915 2.09219199671e-38
0.077724819568 -0.0405520797746 0.913 2.21215421551e-38
0.0794144895587 -0.0405520797746 0.913 2.18449552655e-38
0.0808376617632 -0.0404188308816 0.91 2.09237150304e-38
0.0823404131678 -0.0403299982863 0.908 2.07393265733e-38
0.0840208297631 -0.0403299982863 0.908 2.09233619032e-38
0.0857012463583 -0.0403299982863 0.908 2.22141035239e-38
0.0871891923303 -0.0402411656909 0.906 2.10151973994e-38
0.0885716495954 -0.0401079167979 0.903 2.13839799188e-38
0.0902428127953 -0.0401079167979 0.903 2.27658325644e-38
0.0914050392511 -0.0398858353096 0.898 2.16598409358e-38
0.0930669490556 -0.0398858353096 0.898 2.08308061396e-38
0.0945178814462 -0.0397970027142 0.896 2.28605491302e-38
0.0961760898927 -0.0397970027142 0.896 2.3415157839e-38
0.0978342983391 -0.0397970027142 0.896 2.32318427765e-38
-0.0319057071611 -0.0366915632353 0.862 2.35098856151e-38
-0.0303104218031 -0.0366915632353 0.862 2.34180473164e-38
-0.0287817608915 -0.0367766944725 0.864 4.51649845569e-39
-0.0271827741753 -0.0367766944725 0.864 2.11088321627e-38
-0.0255245657289 -0.0366915632353 0.862 2.25807252411e-38
-0.0239292803708 -0.0366915632353 0.862 2.1476538485e-38
-0.0223858140267 -0.0367766944725 0.864 2.17560078455e-38
-0.0209071214501 -0.0369895225655 0.869 2.00968522469e-38
-0.0196986280176 -0.0377557037004 0.887 2.16623828912e-38
-0.0182402929107 -0.0381387942678 0.896 2.16602248916e-38
-0.0166190980456 -0.038223925505 0.898 2.15680292617e-38
-0.0149571882411 -0.038223925505 0.898 2.12010418056e-38
-0.0133396947342 -0.0383516223608 0.901 2.09237388525e-38
-0.0116981423994 -0.038436753598 0.903 2.10159316798e-38
-0.0100602914227 -0.0385644504538 0.906 2.14772629563e-38
-0.00840208297631 -0.038649581691 0.908 2.13843428551e-38
-0.0067364718136 -0.0387347129282 0.91 2.11077531629e-38
-0.00506900997183 -0.038862409784 0.913 2.14761755487e-38
-0.0033867426975 -0.0389475410212 0.915 2.11070370994e-38
-0.00169337134875 -0.0389475410212 0.915 2.19367991695e-38
0.0 -0.039075237877 0.918 2.11077559655e-38
0.0578892412993 -0.0391603691142 0.92 2.19375138317e-38
0.0595918660434 -0.0391603691142 0.92 2.11995830539e-38
0.0612944907875 -0.0391603691142 0.92 2.17531141642e-38
0.0629971155316 -0.0391603691142 0.92 2.11063112268e-38
0.0645590886664 -0.039075237877 0.918 2.19360775008e-38
0.0662580120524 -0.039075237877 0.918 2.12903563658e-38
0.0679569354383 -0.039075237877 0.918 2.16584060062e-38
0.0696558588243 -0.039075237877 0.918 2.19353474243e-38
0.0713547822102 -0.039075237877 0.918 2.15662075737e-38
0.0728149679962 -0.0389475410212 0.915 2.12903423528e-38
0.074508339345 -0.0389475410212 0.915 2.19360718956e-38
0.0762017106937 -0.0389475410212 0.915 2.18438790683e-38
0.077724819568 -0.038862409784 0.913 2.09230017695e-38
0.0794144895587 -0.038862409784 0.913 2.08304502098e-38
0.0808376617632 -0.0387347129282 0.91 2.08315222032e-38
0.0823404131678 -0.038649581691 0.908 2.12010277926e-38
0.0840208297631 -0.038649581691 0.908 2.16609297447e-38
0.0857012463583 -0.038649581691 0.908 2.23977773188e-38
0.0871891923303 -0.0385644504538 0.906 2.11992327293e-38
0.0885716495954 -0.038436753598 0.903 2.19360746982e-38
0.0900429394558 -0.0383516223608 0.901 2.18438762657e-38
0.0914050392511 -0.038223925505 0.898 2.20279045891e-38
0.0928596729998 -0.0381387942678 0.896 2.11073930292e-38
0.0939904379114 -0.0379259661748 0.891 2.35059185392e-38
0.0956393929625 -0.0379259661748 0.891 2.28619840598e-38
0.0972883480135 -0.0379259661748 0.891 2.17574315648e-38
0.0989373030646 -0.0379259661748 0.891 2.26786689973e-38
-0.0318316799983 -0.0350148479982 0.86 2.35098856151e-38
-0.0302400959984 -0.0350148479982 0.86 2.35098828126e-38
-0.0287817608915 -0.0351777077563 0.864 4.05372244045e-39
-0.0271827741753 -0.0351777077563 0.864 2.23970528475e-38
-0.0255837874591 -0.0351777077563 0.864 2.33168511465e-38
-0.0239848007429 -0.0351777077563 0.864 2.13821848555e-38
-0.0225153615616 -0.035381282454 0.869 2.15683795863e-38
-0.0211236509012 -0.0357477169098 0.878 2.15691054589e-38
-0.0196542117199 -0.0360327214865 0.885 2.24896254266e-38
-0.0181995779711 -0.0363991559423 0.894 2.19364516475e-38
-0.0165820844643 -0.0364805858214 0.896 2.1569824325e-38
-0.0149571882411 -0.0365620157004 0.898 2.05596282621e-38
-0.0133396947342 -0.036684160519 0.901 2.12936017731e-38
-0.0116981423994 -0.0367655903981 0.903 2.16613052927e-38
-0.0100602914227 -0.0368877352167 0.906 2.12925185693e-38
-0.00840208297631 -0.0369691650957 0.908 2.16605780188e-38
-0.0067364718136 -0.0370505949748 0.91 2.11995970669e-38
-0.00506900997183 -0.0371727397934 0.913 2.24899757513e-38
-0.0033867426975 -0.0372541696725 0.915 2.13832722631e-38
-0.00169337134875 -0.0372541696725 0.915 2.20286444747e-38
0.0645590886664 -0.0373763144911 0.918 2.15672949813e-38
0.0662580120524 -0.0373763144911 0.918 2.18435273424e-38
0.0679569354383 -0.0373763144911 0.918 2.12896262893e-38
0.0696558588243 -0.0373763144911 0.918 2.19357117619e-38
0.0711215966475 -0.0372541696725 0.915 2.14747336126e-38
0.0728149679962 -0.0372541696725 0.915 2.17509645723e-38
0.074508339345 -0.0372541696725 0.915 2.2028270328e-38
0.0762017106937 -0.0372541696725 0.915 2.19360775008e-38
0.077724819568 -0.0371727397934 0.913 2.18438818709e-38
0.0794144895587 -0.0371727397934 0.913 2.17524065085e-38
0.0808376617632 -0.0370505949748 0.91 2.04623837539e-38
0.0823404131678 -0.0369691650957 0.908 2.16609269421e-38
0.0840208297631 -0.0369691650957 0.908 2.17531253746e-38
0.0855124770932 -0.0368877352167 0.906 2.18446063422e-38
0.0869004863955 -0.0367655903981 0.903 2.11992369332e-38
0.088375477614 -0.036684160519 0.901 2.17524079098e-38
0.0900429394558 -0.036684160519 0.901 2.22126643904e-38
0.0912014645534 -0.0364805858214 0.896 2.25814441072e-38
0.0928596729998 -0.0364805858214 0.896 2.26743628071e-38
0.0939904379114 -0.0362770111237 0.891 2.30449431925e-38
0.0956393929625 -0.0362770111237 0.891 2.31385709494e-38
0.0972883480135 -0.0362770111237 0.891 2.27708646271e-38
-0.0318316799983 -0.0334232639983 0.86 2.33262132215e-38
-0.0302400959984 -0.0334232639983 0.86 2.35098828126e-38
-0.0287817608915 -0.0335787210401 0.864 7.55499837562e-39
-0.0272771588079 -0.0336953138215 0.867 2.07346546442e-38
-0.0256726200545 -0.0336953138215 0.867 2.35030374696e-38
-0.0240680813011 -0.0336953138215 0.867 2.05545821863e-38
-0.0226189995895 -0.0339284993843 0.873 2.1754568712e-38
-0.021171768557 -0.0342005492075 0.88 2.10159316798e-38
-0.0196542117199 -0.0343948705098 0.885 2.21208401046e-38
-0.0181995779711 -0.034744648854 0.894 2.13832750657e-38
-0.0165820844643 -0.0348223773749 0.896 2.12939563016e-38
-0.0149238760178 -0.0348223773749 0.896 2.08369312152e-38
-0.0132952784365 -0.0349001058959 0.898 2.08340571521e-38
-0.0116722328924 -0.0350166986772 0.901 2.11088461757e-38
-0.0100269791995 -0.0350944271982 0.903 2.16616570186e-38
-0.00840208297631 -0.0352887485005 0.908 2.24914176874e-38
-0.00672166638105 -0.0352887485005 0.908 2.11995970669e-38
-0.00506900997183 -0.0354830698028 0.913 2.14761839565e-38
-0.00169337134875 -0.0355607983237 0.915 2.19364460423e-38
0.0679569354383 -0.0356773911051 0.918 2.12907080917e-38
0.0696558588243 -0.0356773911051 0.918 2.22126643904e-38
0.0711215966475 -0.0355607983237 0.915 2.16594906112e-38
0.0728149679962 -0.0355607983237 0.915 2.19360775008e-38
0.074508339345 -0.0355607983237 0.915 2.16594906112e-38
0.0762017106937 -0.0355607983237 0.915 2.1106316832e-38
0.077724819568 -0.0354830698028 0.913 2.11059595009e-38
0.0794144895587 -0.0354830698028 0.913 2.14747420203e-38
0.0808376617632 -0.0353664770214 0.91 2.12921444227e-38
0.0823404131678 -0.0352887485005 0.908 2.23055802876e-38
0.0840208297631 -0.0352887485005 0.908 2.17524079098e-38
0.0855124770932 -0.0352110199796 0.906 2.17524107124e-38
0.0869004863955 -0.0350944271982 0.903 2.12910766332e-38
0.088375477614 -0.0350166986772 0.901 2.20289976019e-38
0.0897431294465 -0.0349001058959 0.898 2.12914297604e-38
0.0912014645534 -0.0348223773749 0.896 2.15680152487e-38
0.092652396944 -0.034744648854 0.894 2.35048437433e-38
0.0943069040323 -0.034744648854 0.894 2.3137498956e-38
0.0976159182089 -0.034744648854 0.894 2.28630630596e-38
-0.0304862363147 -0.0320907750681 0.867 2.35098828126e-38
-0.0288816975613 -0.0320907750681 0.867 1.54831036778e-38
-0.0272771588079 -0.0320907750681 0.867 1.13292612646e-38
-0.0257318417847 -0.0321648022309 0.869 2.35087968062e-38
-0.0242346424173 -0.0323128565565 0.873 2.000644047e-38
-0.0226708186035 -0.0323868837192 0.875 2.09287611062e-38
-0.021171768557 -0.0325719516262 0.88 2.10191644753e-38
-0.0196542117199 -0.0327570195332 0.885 2.16613010888e-38
-0.0181995779711 -0.0330901417657 0.894 2.14754706956e-38
-0.0165820844643 -0.0331641689285 0.896 2.14772657589e-38
-0.0149238760178 -0.0331641689285 0.896 2.11106412391e-38
-0.0132952784365 -0.0332381960913 0.898 2.18474790041e-38
-0.0116722328924 -0.0333492368355 0.901 2.15705291782e-38
-0.0100269791995 -0.0334232639983 0.903 2.17549204379e-38
-0.00840208297631 -0.0336083319052 0.908 2.13854218549e-38
-0.00672166638105 -0.0336083319052 0.908 2.19385956341e-38
-0.0050523538602 -0.033682359068 0.91 2.18453210044e-38
0.0711215966475 -0.033867426975 0.915 2.17524065085e-38
0.0728149679962 -0.033867426975 0.915 2.22133846578e-38
0.074508339345 -0.033867426975 0.915 2.16594906112e-38
0.0760351495774 -0.0337933998122 0.913 2.14750993515e-38
0.077724819568 -0.0337933998122 0.913 2.1751686241e-38
0.0791535438098 -0.033682359068 0.91 2.15672949813e-38
0.0808376617632 -0.033682359068 0.91 2.11995886591e-38
0.0823404131678 -0.0336083319052 0.908 2.17527624383e-38
0.0840208297631 -0.0336083319052 0.908 2.12914297604e-38
0.0852293231956 -0.0334232639983 0.903 2.22133888617e-38
0.0867080157722 -0.0333492368355 0.901 2.15676635228e-38
0.0880812196419 -0.0332381960913 0.898 2.2120837302e-38
0.0897431294465 -0.0332381960913 0.898 2.23977801214e-38
0.0909978898557 -0.0330901417657 0.894 2.19375180356e-38
0.0923414828603 -0.0329791010215 0.891 2.32289771211e-38
0.0939904379114 -0.0329791010215 0.891 2.29531076963e-38
-0.0304862363147 -0.0304862363147 0.867 2.26797620101e-38
-0.0288816975613 -0.0304862363147 0.867 2.35080849466e-38
-0.0272771588079 -0.0304862363147 0.867 6.44217401576e-39
-0.0257910635149 -0.030626887924 0.871 2.35069961377e-38
-0.0242346424173 -0.0306972137286 0.873 2.1110269895e-38
-0.0226708186035 -0.0307675395333 0.875 2.10209567361e-38
-0.021171768557 -0.0309433540449 0.88 2.05603443256e-38
-0.0196542117199 -0.0311191685565 0.885 2.06496658923e-38
-0.0180570756828 -0.0311894943612 0.887 2.14772657589e-38
-0.0165450708829 -0.0314356346774 0.894 2.15683823889e-38
-0.0149238760178 -0.0315059604821 0.896 2.14772629563e-38
-0.0132952784365 -0.0315762862867 0.898 2.19393060924e-38
-0.0116722328924 -0.0316817749937 0.901 2.11106216209e-38
-0.0100269791995 -0.0317521007983 0.903 2.13864896444e-38
-0.00840208297631 -0.03192791531 0.908 2.17549148327e-38
-0.00672166638105 -0.03192791531 0.908 2.12932206199e-38
-0.0050523538602 -0.0319982411146 0.91 2.14776118796e-38
0.0760351495774 -0.0321037298216 0.913 2.12907052891e-38
0.077724819568 -0.0321037298216 0.913 2.2028270328e-38
0.0791535438098 -0.0319982411146 0.91 2.14750965489e-38
0.0808376617632 -0.0319982411146 0.91 2.24896016046e-38
0.0823404131678 -0.03192791531 0.908 2.2304854415e-38
0.0840208297631 -0.03192791531 0.908 2.14758196189e-38
0.0850405539305 -0.0316817749937 0.901 2.14758210202e-38
0.0864193098374 -0.0315762862867 0.898 2.11992369332e-38
0.0878850476605 -0.0315059604821 0.896 2.18449664759e-38
0.089543256107 -0.0315059604821 0.896 2.27669227746e-38
0.0909978898557 -0.0314356346774 0.894 2.24906918148e-38
0.0921342068045 -0.0312598201658 0.889 2.35066444118e-38
0.0937794604974 -0.0312598201658 0.889 2.35077220103e-38
-0.0289483220078 -0.0289483220078 0.869 2.35070045455e-38
-0.0273400818963 -0.0289483220078 0.869 8.47119673886e-39
-0.0258502852452 -0.0290815709008 0.873 1.30741384942e-38
-0.0242346424173 -0.0290815709008 0.873 2.35052094822e-38
-0.0226708186035 -0.0291481953473 0.875 2.19360775008e-38
-0.021171768557 -0.0293147564636 0.88 2.30474655297e-38
-0.0196542117199 -0.0294813175799 0.885 2.04659906961e-38
-0.0180570756828 -0.0295479420264 0.887 2.23073865614e-38
-0.0165450708829 -0.0297811275891 0.894 2.23059446252e-38
-0.0149238760178 -0.0298477520357 0.896 2.21211932318e-38
-0.0132656675714 -0.0298477520357 0.896 2.16627192028e-38
-0.011633368632 -0.0299143764822 0.898 2.12950128806e-38
-0.0100269791995 -0.0300809375984 0.903 2.15712452417e-38
-0.00838357618561 -0.0301808742682 0.906 2.14783335483e-38
-0.00672166638105 -0.0302474987147 0.908 2.046382569e-38
0.0808376617632 -0.0303141231612 0.91 2.20282591177e-38
0.0823404131678 -0.0302474987147 0.908 2.16598395345e-38
0.0835581599956 -0.0300809375984 0.903 2.17516806359e-38
0.0850405539305 -0.0300143131519 0.901 2.15680152487e-38
0.0864193098374 -0.0299143764822 0.898 2.17524079098e-38
0.0878850476605 -0.0298477520357 0.896 2.20297136655e-38
0.0893433827674 -0.0297811275891 0.894 2.28601946016e-38
0.0909978898557 -0.0297811275891 0.894 2.24917694133e-38
0.0921342068045 -0.0296145664729 0.889 2.35066430105e-38
0.0937794604974 -0.0296145664729 0.889 2.2769436704e-38
-0.0259983395707 -0.0276232357939 0.878 6.06114274643e-39
-0.0243734433476 -0.0276232357939 0.878 1.65675055009e-38
-0.0227485471244 -0.0276232357939 0.878 2.3504856355e-38
-0.0212920626966 -0.0278434666032 0.885 2.24899757513e-38
-0.0196986280176 -0.0279063896916 0.887 2.12028368689e-38
-0.0180977906223 -0.0279693127799 0.889 2.15705403886e-38
-0.0165450708829 -0.0281266205009 0.894 2.12928716966e-38
-0.0148905637946 -0.0281266205009 0.894 2.19371621058e-38
-0.0132656675714 -0.0281895435892 0.896 2.15705263756e-38
-0.011633368632 -0.0282524666776 0.898 2.14790496118e-38
-0.0100269791995 -0.0284097743985 0.903 2.16630891456e-38
-0.00838357618561 -0.0285041590311 0.906 2.12932346329e-38
0.0808376617632 -0.0286300052078 0.91 2.17516694255e-38
0.0823404131678 -0.0285670821194 0.908 2.1567641102e-38
0.0835581599956 -0.0284097743985 0.903 2.18442321955e-38
0.0850405539305 -0.0283468513102 0.901 2.1937153698e-38
0.0862268392141 -0.0281895435892 0.896 2.18453210044e-38
0.0876888756792 -0.0281266205009 0.894 2.17531253746e-38
0.0888436994186 -0.0279693127799 0.889 2.27683563029e-38
0.0904889531116 -0.0279693127799 0.889 2.28605519327e-38
0.0921342068045 -0.0279693127799 0.889 2.35088038127e-38
0.0937794604974 -0.0279693127799 0.889 2.26772410741e-38
-0.0262648373568 -0.0262648373568 0.887 1.49119624497e-38
-0.0229817326872 -0.0262648373568 0.887 7.806048002e-39
-0.0213401803524 -0.0262648373568 0.887 2.04469232279e-38
-0.0197430443153 -0.026324059087 0.889 2.35052066796e-38
-0.0180977906223 -0.026324059087 0.889 2.35048437433e-38
-0.0165450708829 -0.0264721134126 0.894 2.24899729487e-38
-0.0148905637946 -0.0264721134126 0.894 2.14812188219e-38
-0.0132360567063 -0.0264721134126 0.894 2.11106440417e-38
-0.011607459125 -0.0265313351428 0.896 2.13854302627e-38
-0.0100269791995 -0.0267386111986 0.903 2.10170008705e-38
0.0806599965725 -0.0268866655242 0.908 2.12924961486e-38
0.082159046619 -0.026827443794 0.906 2.08315179993e-38
0.0833730920887 -0.0266793894684 0.901 2.2213014715e-38
0.0847574000328 -0.026590556873 0.898 2.14754496761e-38
0.0860343685909 -0.0264721134126 0.894 2.30424194539e-38
0.0873946177071 -0.0263832808172 0.891 2.26747187369e-38
0.0888436994186 -0.026324059087 0.889 2.24917666107e-38
0.0904889531116 -0.026324059087 0.889 2.35077150038e-38
0.0921342068045 -0.026324059087 0.889 2.35062828768e-38
-0.024623285022 -0.024623285022 0.887 1.37930270272e-38
-0.0229817326872 -0.024623285022 0.887 1.67324859743e-38
-0.0213401803524 -0.024623285022 0.887 1.06529567907e-38
-0.0197430443153 -0.0246788053941 0.889 7.80603539031e-39
-0.0180977906223 -0.0246788053941 0.889 1.67518883528e-38
-0.0164895505108 -0.0247343257662 0.891 2.34998130818e-38
-0.0148405954597 -0.0247343257662 0.891 2.3503044476e-38
-0.0131916404086 -0.0247343257662 0.891 2.35077276155e-38
-0.011581549618 -0.0248176063243 0.894 2.2215906995e-38
0.0818869967957 -0.0250674479987 0.903 2.10155491253e-38
0.0833730920887 -0.0250119276266 0.901 2.21208190851e-38
0.0845686307677 -0.0248731266964 0.896 2.19364278254e-38
0.0860343685909 -0.0248176063243 0.894 2.24892456748e-38
0.0871984457257 -0.0246788053941 0.889 2.34122837758e-38
0.0886438260791 -0.024623285022 0.887 2.33215272795e-38
0.0902853784139 -0.024623285022 0.887 2.35077164051e-38
0.0919269307487 -0.024623285022 0.887 2.21251462948e-38
-0.0231797553476 -0.0216344383245 0.835 1.05676079051e-38
-0.0230335517011 -0.0230335517011 0.889 1.47985245364e-38
-0.0213882980082 -0.0230335517011 0.889 1.67357005529e-38
-0.0184105553851 -0.0214789812826 0.829 1.42507261381e-38
-0.0168763424363 -0.0214789812826 0.829 1.16685268332e-38
-0.0164895505108 -0.0230853707151 0.891 1.01019129852e-38
-0.0148072832364 -0.0230335517011 0.889 1.11153558566e-38
-0.0131620295435 -0.0230335517011 0.889 1.73047104061e-38
-0.011581549618 -0.023163099236 0.894 2.34972963497e-38
0.0818869967957 -0.0233962847988 0.903 2.11988585826e-38
0.0833730920887 -0.0233444657848 0.901 2.18442307942e-38
0.0845686307677 -0.02321491825 0.896 2.21208190851e-38
0.085745662656 -0.0230853707151 0.891 2.2859107194e-38
0.0870022737443 -0.0229817326872 0.887 2.27683563029e-38
0.0884439527396 -0.0229299136732 0.885 2.35073618766e-38
0.0900818037162 -0.0229299136732 0.885 2.3323689483e-38
0.0917196546929 -0.0229299136732 0.885 2.2771953436e-38
0.0928300621347 -0.0228003661383 0.88 2.21251448935e-38
-0.0231797553476 -0.0200891213013 0.835 1.22436729723e-38
-0.0216344383245 -0.0200891213013 0.835 1.44405320151e-38
-0.0200410036455 -0.0200410036455 0.833 1.4524084436e-38
-0.0184105553851 -0.0199447683338 0.829 1.43375239663e-38
-0.0168763424363 -0.0199447683338 0.829 1.66427678401e-38
-0.0153421294876 -0.0199447683338 0.829 1.47999328413e-38
-0.0138079165388 -0.0199447683338 0.829 1.51701558956e-38
-0.0123033144552 -0.0199928859897 0.831 1.22152406265e-38
-0.0107654001483 -0.0199928859897 0.831 1.16631416432e-38
0.0817056302469 -0.0216770039431 0.901 2.22130105111e-38
0.0830954902282 -0.0216048274593 0.898 2.2673991463e-38
0.0843798615026 -0.0215085921477 0.894 2.29513000213e-38
0.0855531920328 -0.0213882980082 0.889 2.24906876109e-38
0.0870022737443 -0.0213401803524 0.887 2.32296945859e-38
0.0881441427303 -0.0212198862128 0.882 2.35066458131e-38
0.0895728669721 -0.021171768557 0.88 2.26786830103e-38
0.0912014645534 -0.021171768557 0.88 2.35098758061e-38
0.0928300621347 -0.021171768557 0.88 2.35091569399e-38
-0.0263333124823 -0.0185882205758 0.837 2.27683535003e-38
-0.024784294101 -0.0185882205758 0.837 2.32343791267e-38
-0.0231797553476 -0.0185438042781 0.835 1.74174210454e-38
-0.0216344383245 -0.0185438042781 0.835 1.13137993374e-38
-0.0200410036455 -0.0184993879804 0.833 1.60932150161e-38
-0.0184549716828 -0.0184549716828 0.831 1.70119245062e-38
-0.0168763424363 -0.0184105553851 0.829 1.47109854213e-38
-0.0153421294876 -0.0184105553851 0.829 1.53592260909e-38
-0.0138079165388 -0.0184105553851 0.829 1.47138566819e-38
-0.0123033144552 -0.0184549716828 0.831 1.59073790177e-38
-0.0107654001483 -0.0184549716828 0.831 1.59062944127e-38
0.0814335804237 -0.0199429176548 0.898 2.21208176838e-38
0.0830954902282 -0.0199429176548 0.898 2.19371480928e-38
0.0843798615026 -0.0198540850594 0.894 2.26754348004e-38
0.0855531920328 -0.0197430443153 0.889 2.12010277926e-38
0.0868061017629 -0.0196542117199 0.885 2.3508082144e-38
