# .PCD v0.7 - Point Cloud Data file format
VERSION 0.7
FIELDS x y z rgb
SIZE 4 4 4 4
TYPE F F F F
COUNT 1 1 1 1
WIDTH 838
HEIGHT 1
VIEWPOINT 0 0 0 1 0 0 0
POINTS 838
DATA ascii
0.00656620933919 -0.0344725990308 0.887 2.09255241067e-38
0.00820776167399 -0.0344725990308 0.887 2.19396760352e-38
0.00984931400879 -0.0344725990308 0.887 2.09255241067e-38
0.0114908663436 -0.0344725990308 0.887 2.17552847755e-38
0.0131028078133 -0.0343948705098 0.885 2.13861463262e-38
0.0147406587899 -0.0343948705098 0.885 2.12017578691e-38
0.0163229893945 -0.0342782777284 0.882 2.16627360184e-38
0.0179145733944 -0.0342005492075 0.88 2.1293953499e-38
0.0195431709757 -0.0342005492075 0.88 2.1293953499e-38
0.0211236509012 -0.0341228206866 0.878 2.14783447587e-38
0.0227485471244 -0.0341228206866 0.878 2.07407797198e-38
0.0243734433476 -0.0341228206866 0.878 2.12017578691e-38
0.0259983395707 -0.0341228206866 0.878 2.17549288457e-38
0.0275288511614 -0.0340062279052 0.875 2.1570537586e-38
0.0291481953473 -0.0340062279052 0.875 2.12939506964e-38
0.0306972137286 -0.0339284993843 0.873 2.13865022561e-38
0.0323128565565 -0.0339284993843 0.873 2.11099153665e-38
0.0338507708634 -0.0338507708634 0.871 2.13865022561e-38
0.035462712333 -0.0338507708634 0.871 2.07411314457e-38
0.0369895225655 -0.0337730423424 0.869 2.00035664068e-38
0.0385977626771 -0.0337730423424 0.869 2.06482169497e-38
0.0401134688351 -0.0336953138215 0.867 2.03716300601e-38
0.0415736546211 -0.0335787210401 0.864 2.10170008705e-38
0.0430727046675 -0.0335009925192 0.862 2.08326096108e-38
0.0445643519977 -0.0334232639983 0.86 2.07404167835e-38
0.0460485966116 -0.0333455354773 0.858 2.13857861925e-38
0.047414397765 -0.0331900784355 0.854 2.12932346329e-38
0.048822764537 -0.0330734856541 0.851 2.1201039003e-38
0.0503976924253 -0.0330734856541 0.851 2.14797754844e-38
0.0519726203136 -0.0330734856541 0.851 2.18485692143e-38
-0.0851960109723 -0.0309803676263 0.837 2.35095184749e-38
-0.083646992591 -0.0309803676263 0.837 1.88982950457e-38
-0.0822941461911 -0.0310543947891 0.839 1.82514837005e-38
-0.0809338970749 -0.0311284219519 0.841 2.21222610212e-38
-0.0795662452424 -0.0312024491147 0.843 1.76053982279e-38
-0.0783762586006 -0.0313505034402 0.847 1.99102917771e-38
-0.0774435163495 -0.03160959851 0.854 1.85277216668e-38
-0.075863036424 -0.03160959851 0.854 1.90812555797e-38
-0.074456520331 -0.0316836256728 0.856 1.98188206186e-38
-0.0730426015218 -0.0317576528356 0.858 1.96344293588e-38
-0.07145471888 -0.0317576528356 0.858 1.92656468394e-38
-0.0700296959964 -0.0318316799983 0.86 1.96344293588e-38
-0.0687564287964 -0.0319797343239 0.864 1.97266249887e-38
-0.067390627643 -0.0320907750681 0.867 2.04641900276e-38
-0.0657860888896 -0.0320907750681 0.867 2.03719943977e-38
-0.0643296044618 -0.0321648022309 0.869 1.9265649642e-38
-0.0627213643502 -0.0321648022309 0.869 2.03719972003e-38
-0.0613944274573 -0.0323128565565 0.873 1.93578452718e-38
-0.0599157348806 -0.0323868837192 0.875 2.00954075082e-38
-0.0584962640342 -0.0324979244634 0.878 2.08329725471e-38
-0.056871367811 -0.0324979244634 0.878 2.05567415873e-38
-0.0554981639413 -0.032645978789 0.882 2.0741132847e-38
0.0016415523348 -0.032831046696 0.887 2.13865022561e-38
0.0032831046696 -0.032831046696 0.887 2.15708935158e-38
0.00492465700439 -0.032831046696 0.887 2.10177197366e-38
0.00656620933919 -0.032831046696 0.887 2.14786978859e-38
0.00820776167399 -0.032831046696 0.887 2.13865022561e-38
0.00984931400879 -0.032831046696 0.887 2.18474804054e-38
0.0114908663436 -0.032831046696 0.887 2.16630891456e-38
0.0131028078133 -0.0327570195332 0.885 2.12028368689e-38
0.0147406587899 -0.0327570195332 0.885 2.12950324988e-38
0.0163229893945 -0.032645978789 0.882 2.14794237585e-38
0.0179145733944 -0.0325719516262 0.88 2.12950324988e-38
0.0195431709757 -0.0325719516262 0.88 2.16638150182e-38
0.021171768557 -0.0325719516262 0.88 2.15716193884e-38
0.0227485471244 -0.0324979244634 0.878 2.12028368689e-38
0.0243734433476 -0.0324979244634 0.878 2.14794237585e-38
0.0259983395707 -0.0324979244634 0.878 2.18471244756e-38
0.0276232357939 -0.0324979244634 0.878 2.12017550665e-38
0.0292481320171 -0.0324979244634 0.878 2.1570537586e-38
0.0307675395333 -0.0323868837192 0.875 2.14786978859e-38
0.0323128565565 -0.0323128565565 0.873 2.09255241067e-38
0.0339284993843 -0.0323128565565 0.873 2.17552847755e-38
0.035462712333 -0.0322388293937 0.871 2.09255227054e-38
0.0370746538027 -0.0322388293937 0.871 2.10177183353e-38
0.0385977626771 -0.0321648022309 0.869 2.14786964846e-38
0.0402060027886 -0.0321648022309 0.869 2.02801532964e-38
0.0417180075885 -0.0320907750681 0.867 2.09255227054e-38
0.0430727046675 -0.0319057071611 0.862 2.05567415873e-38
0.0445643519977 -0.0318316799983 0.86 2.09255241067e-38
0.0460485966116 -0.0317576528356 0.858 2.14783419561e-38
0.0472478366487 -0.0314985577658 0.851 2.18471244756e-38
0.0487080224347 -0.031424530603 0.849 2.26768851443e-38
0.0502792489648 -0.031424530603 0.849 2.1756362374e-38
0.051850475495 -0.031424530603 0.849 2.35091681503e-38
-0.0865377532978 -0.0293610234403 0.835 2.35098828126e-38
-0.0849924362746 -0.0293610234403 0.835 2.35095212775e-38
-0.083646992591 -0.029431349245 0.837 1.37342635761e-38
-0.0822941461911 -0.0295016750496 0.839 2.3507359074e-38
-0.0809338970749 -0.0295720008543 0.841 1.89872536761e-38
-0.0795662452424 -0.0296423266589 0.843 1.90794521085e-38
-0.0783762586006 -0.0297829782682 0.847 1.94489590993e-38
-0.0774435163495 -0.0300291185845 0.854 1.88039526266e-38
-0.075863036424 -0.0300291185845 0.854 1.95422365316e-38
-0.074456520331 -0.0300994443891 0.856 1.94500409017e-38
-0.0730426015218 -0.0301697701938 0.858 1.9265649642e-38
-0.0716212799963 -0.0302400959984 0.86 1.97266277913e-38
-0.0701925557545 -0.0303104218031 0.862 2.06485840899e-38
-0.0687564287964 -0.0303807476077 0.864 2.00032146809e-38
-0.067390627643 -0.0304862363147 0.867 2.00954103108e-38
-0.0657860888896 -0.0304862363147 0.867 2.00954103108e-38
-0.0643296044618 -0.0305565621193 0.869 1.98188262238e-38
-0.0627213643502 -0.0305565621193 0.869 2.04641956328e-38
-0.0615350790666 -0.0307675395333 0.875 2.02798015705e-38
-0.0601211602573 -0.0308730282403 0.878 2.04641928302e-38
-0.0584962640342 -0.0308730282403 0.878 2.05563856575e-38
-0.0570009153459 -0.0309433540449 0.88 2.13865022561e-38
-0.0554981639413 -0.0310136798495 0.882 2.12943052249e-38
0.0147406587899 -0.0311191685565 0.885 2.16638122156e-38
0.0163785097666 -0.0311191685565 0.885 2.15716165858e-38
0.0179145733944 -0.0309433540449 0.88 2.15716165858e-38
0.0195431709757 -0.0309433540449 0.88 2.18482034754e-38
0.021171768557 -0.0309433540449 0.88 2.16638122156e-38
0.0228003661383 -0.0309433540449 0.88 2.15716165858e-38
0.0243734433476 -0.0308730282403 0.878 2.20325947351e-38
0.0259983395707 -0.0308730282403 0.878 2.18471244756e-38
0.0276232357939 -0.0308730282403 0.878 2.13861463262e-38
0.0292481320171 -0.0308730282403 0.878 2.16627332158e-38
0.0307675395333 -0.0307675395333 0.875 2.15708935158e-38
0.0323868837192 -0.0307675395333 0.875 2.12943066262e-38
0.0339284993843 -0.0306972137286 0.873 2.16630891456e-38
0.035462712333 -0.030626887924 0.871 2.14786964846e-38
0.0370746538027 -0.030626887924 0.871 2.1202109595e-38
0.0385977626771 -0.0305565621193 0.869 2.09258786352e-38
0.0402060027886 -0.0305565621193 0.869 2.13865008548e-38
0.0415736546211 -0.0303807476077 0.864 2.12943052249e-38
0.0430727046675 -0.0303104218031 0.862 2.13865008548e-38
0.0445643519977 -0.0302400959984 0.86 2.0741132847e-38
0.0460485966116 -0.0301697701938 0.858 2.2124067295e-38
0.0472478366487 -0.0299236298775 0.851 2.23081026249e-38
0.0487080224347 -0.0298533040729 0.849 2.24002982547e-38
0.0502792489648 -0.0298533040729 0.849 2.1295385626e-38
0.051850475495 -0.0298533040729 0.849 2.29542007091e-38
-0.088083070321 -0.0278157064172 0.835 2.25879293165e-38
-0.0865377532978 -0.0278157064172 0.835 2.3509166749e-38
-0.0849924362746 -0.0278157064172 0.835 2.0187603138e-38
-0.083646992591 -0.0278823308637 0.837 1.76979581954e-38
-0.0822941461911 -0.0279489553102 0.839 2.14765398863e-38
-0.0807414264516 -0.0279489553102 0.839 1.88028666202e-38
-0.0797550145075 -0.0281488286497 0.845 1.95400757293e-38
-0.0781911906936 -0.0281488286497 0.845 1.92642147124e-38
-0.0774435163495 -0.028448638659 0.854 1.95415232707e-38
-0.075863036424 -0.028448638659 0.854 1.94500437043e-38
-0.0746304841636 -0.028581887552 0.858 1.94500409017e-38
-0.0730426015218 -0.028581887552 0.858 1.97266277913e-38
-0.0716212799963 -0.0286485119985 0.86 1.9911019051e-38
-0.0701925557545 -0.028715136445 0.862 2.00032146809e-38
-0.0687564287964 -0.0287817608915 0.864 2.00032146809e-38
-0.067390627643 -0.0288816975613 0.867 2.06485840899e-38
-0.0657860888896 -0.0288816975613 0.867 2.05563884601e-38
-0.0643296044618 -0.0289483220078 0.869 2.00964921132e-38
-0.0628657173177 -0.0290149464543 0.871 2.05571143327e-38
-0.0615350790666 -0.0291481953473 0.875 2.07418615222e-38
-0.0601211602573 -0.0292481320171 0.878 2.07418587196e-38
-0.0584962640342 -0.0292481320171 0.878 2.03730733976e-38
-0.0570009153459 -0.0293147564636 0.88 2.09266031066e-38
0.0147406587899 -0.0294813175799 0.885 2.18489195389e-38
0.0163785097666 -0.0294813175799 0.885 2.13879413896e-38
0.0179552883339 -0.0293813809101 0.882 2.14801370194e-38
0.0195431709757 -0.0293147564636 0.88 2.21255064285e-38
0.021171768557 -0.0293147564636 0.88 2.15723326493e-38
0.0228003661383 -0.0293147564636 0.88 2.15723326493e-38
0.0244289637197 -0.0293147564636 0.88 2.16645282792e-38
0.0259983395707 -0.0292481320171 0.878 2.19393201054e-38
0.0276232357939 -0.0292481320171 0.878 2.17549288457e-38
0.0292481320171 -0.0292481320171 0.878 2.17549288457e-38
0.0307675395333 -0.0291481953473 0.875 2.16630891456e-38
0.0323868837192 -0.0291481953473 0.875 2.14786978859e-38
0.0339284993843 -0.0290815709008 0.873 2.14786978859e-38
0.0355441422121 -0.0290815709008 0.873 2.17552833742e-38
0.0370746538027 -0.0290149464543 0.871 2.12943052249e-38
0.0385977626771 -0.0289483220078 0.869 2.12953814221e-38
0.0402060027886 -0.0289483220078 0.869 2.15719683117e-38
0.0415736546211 -0.0287817608915 0.864 2.12031885948e-38
0.0430727046675 -0.028715136445 0.862 2.10187973351e-38
0.0445643519977 -0.0286485119985 0.86 2.27705143025e-38
0.0460485966116 -0.028581887552 0.858 2.21251462948e-38
0.0470257551603 -0.0282154530962 0.847 2.21251462948e-38
0.0480195698208 -0.0278823308637 0.837 2.20329506649e-38
0.0495685882021 -0.0278823308637 0.837 2.2770159774e-38
0.0511176065834 -0.0278823308637 0.837 2.35077332207e-38
-0.088083070321 -0.026270389394 0.835 2.34176899853e-38
-0.0865377532978 -0.026270389394 0.835 2.33236992921e-38
-0.0849924362746 -0.026270389394 0.835 1.05992604348e-38
-0.083646992591 -0.0263333124823 0.837 2.32289799237e-38
-0.0822941461911 -0.0263962355707 0.839 1.89869019502e-38
-0.0807414264516 -0.0263962355707 0.839 1.92634916423e-38
-0.0797550145075 -0.0265850048358 0.845 1.89869075554e-38
-0.0781911906936 -0.0265850048358 0.845 1.96330000344e-38
-0.0774435163495 -0.0268681587335 0.854 2.00028657576e-38
-0.0760407016146 -0.0269310818219 0.856 1.9634434964e-38
-0.0746304841636 -0.0269940049102 0.858 1.95422365316e-38
-0.0732128639962 -0.0270569279986 0.86 1.9911019051e-38
-0.0716212799963 -0.0270569279986 0.86 1.9911019051e-38
-0.0701925557545 -0.027119851087 0.862 2.01876059406e-38
-0.0687564287964 -0.0271827741753 0.864 2.00032146809e-38
-0.067390627643 -0.0272771588079 0.867 2.05563884601e-38
-0.0657860888896 -0.0272771588079 0.867 2.04641928302e-38
-0.0643296044618 -0.0273400818963 0.869 2.00039405535e-38
-0.0628657173177 -0.0274030049846 0.871 2.06493099625e-38
-0.0615350790666 -0.0275288511614 0.875 2.05574702625e-38
-0.0601211602573 -0.0276232357939 0.878 2.07418587196e-38
-0.0586295129272 -0.0276861588823 0.88 2.06496602872e-38
-0.0570009153459 -0.0276861588823 0.88 2.1295385626e-38
0.0179552883339 -0.0277490819706 0.882 2.17570812401e-38
0.0195431709757 -0.0276861588823 0.88 2.20336681297e-38
0.021171768557 -0.0276861588823 0.88 2.16648856103e-38
0.0228003661383 -0.0276861588823 0.88 2.20336681297e-38
0.0244289637197 -0.0276861588823 0.88 2.15726899804e-38
0.0259983395707 -0.0276232357939 0.878 2.21237113651e-38
0.0276232357939 -0.0276232357939 0.878 2.24002982547e-38
0.0292481320171 -0.0276232357939 0.878 2.23081026249e-38
0.0307675395333 -0.0275288511614 0.875 2.24928498144e-38
0.0323868837192 -0.0275288511614 0.875 2.19396760352e-38
0.0339284993843 -0.027465928073 0.873 2.20318716651e-38
0.0355441422121 -0.027465928073 0.873 2.19396746339e-38
0.0370746538027 -0.0274030049846 0.871 2.17552833742e-38
0.0385977626771 -0.0273400818963 0.869 2.18485552013e-38
0.0402060027886 -0.0273400818963 0.869 2.15719683117e-38
0.0417180075885 -0.0272771588079 0.867 2.12953814221e-38
0.0430727046675 -0.027119851087 0.862 2.15719711143e-38
0.0445643519977 -0.0270569279986 0.86 2.14797754844e-38
0.0460485966116 -0.0269940049102 0.858 2.24939288142e-38
0.0470257551603 -0.0266479279242 0.847 2.27705157038e-38
0.0480195698208 -0.0263333124823 0.837 2.25861244441e-38
0.0495685882021 -0.0263333124823 0.837 2.35077248129e-38
-0.088083070321 -0.0247250723708 0.835 2.22205859306e-38
-0.0865377532978 -0.0247250723708 0.835 2.0465285843e-38
-0.0849924362746 -0.0247250723708 0.835 1.59462580436e-38
-0.083646992591 -0.024784294101 0.837 2.21233610405e-38
-0.0822941461911 -0.0248435158313 0.839 1.92649307759e-38
-0.0807414264516 -0.0248435158313 0.839 1.89886998161e-38
-0.0799437837726 -0.0250804027522 0.847 1.91727379486e-38
-0.0783762586006 -0.0250804027522 0.847 1.94496891758e-38
-0.0771714665262 -0.0251988462126 0.851 1.97259229382e-38
-0.0760407016146 -0.0253469005382 0.856 1.97277067911e-38
-0.0746304841636 -0.0254061222684 0.858 1.98198996184e-38
-0.0732128639962 -0.0254653439987 0.86 1.98188206186e-38
-0.0716212799963 -0.0254653439987 0.86 2.00954075082e-38
-0.0701925557545 -0.0255245657289 0.862 2.04638298939e-38
-0.0687564287964 -0.0255837874591 0.864 2.09248080432e-38
-0.067390627643 -0.0256726200545 0.867 2.05560255238e-38
-0.0657860888896 -0.0256726200545 0.867 2.10170036731e-38
-0.0643296044618 -0.0257318417847 0.869 2.10173638068e-38
-0.0628657173177 -0.0257910635149 0.871 2.06485812873e-38
-0.0615350790666 -0.0259095069754 0.875 2.02797987679e-38
-0.0601211602573 -0.0259983395707 0.878 2.14783419561e-38
-0.0584962640342 -0.0259983395707 0.878 2.18471244756e-38
0.0179552883339 -0.0261167830312 0.882 2.27705143025e-38
0.0195431709757 -0.026057561301 0.88 2.14797754844e-38
0.021171768557 -0.026057561301 0.88 2.24017317831e-38
0.0228003661383 -0.026057561301 0.88 2.16641667442e-38
0.0244289637197 -0.026057561301 0.88 2.21251448935e-38
0.0259983395707 -0.0259983395707 0.878 2.1570537586e-38
0.0276232357939 -0.0259983395707 0.878 2.18471244756e-38
0.0292481320171 -0.0259983395707 0.878 2.18471244756e-38
0.0307675395333 -0.0259095069754 0.875 2.23081026249e-38
0.0323868837192 -0.0259095069754 0.875 2.17549288457e-38
0.0340062279052 -0.0259095069754 0.875 2.23081026249e-38
0.0355441422121 -0.0258502852452 0.873 2.17549288457e-38
0.0370746538027 -0.0257910635149 0.871 2.19393201054e-38
0.0385977626771 -0.0257318417847 0.869 2.2032946461e-38
0.0402060027886 -0.0257318417847 0.869 2.14797726818e-38
0.0417180075885 -0.0256726200545 0.867 2.18485594052e-38
0.0430727046675 -0.0255245657289 0.862 2.22169887974e-38
0.0445643519977 -0.0254653439987 0.86 2.35091681503e-38
0.0460485966116 -0.0254061222684 0.858 2.17560106481e-38
0.0476364792533 -0.0254061222684 0.858 2.25857685143e-38
-0.088083070321 -0.0231797553476 0.835 2.3418050119e-38
-0.0865377532978 -0.0231797553476 0.835 6.08204871822e-39
-0.0849924362746 -0.0231797553476 0.835 2.25839874639e-38
-0.0838468659305 -0.0232907960918 0.839 2.02794484433e-38
-0.0822941461911 -0.0232907960918 0.839 1.92656468394e-38
-0.0809338970749 -0.0233463164639 0.841 1.90816115095e-38
-0.0797550145075 -0.0234573572081 0.845 1.91734540121e-38
-0.0783762586006 -0.0235128775802 0.847 1.94496877745e-38
-0.0771714665262 -0.0236239183244 0.851 1.9726278868e-38
-0.075863036424 -0.0237071988825 0.854 1.98188234212e-38
-0.0746304841636 -0.0238182396267 0.858 1.98184576823e-38
-0.0730426015218 -0.0238182396267 0.858 2.02794358316e-38
-0.0716212799963 -0.0238737599988 0.86 2.04645459574e-38
-0.0701925557545 -0.0239292803708 0.862 2.02801546977e-38
-0.0687564287964 -0.0239848007429 0.864 2.05567415873e-38
-0.067390627643 -0.0240680813011 0.867 2.05567415873e-38
-0.0657860888896 -0.0240680813011 0.867 2.02801546977e-38
-0.0643296044618 -0.0241236016732 0.869 2.10177183353e-38
-0.0628657173177 -0.0241791220453 0.871 2.16630891456e-38
-0.0615350790666 -0.0242901627894 0.875 2.0741132847e-38
0.0195431709757 -0.0244289637197 0.88 2.20329492636e-38
0.021171768557 -0.0244289637197 0.88 2.27705143025e-38
0.0228003661383 -0.0244289637197 0.88 2.21251448935e-38
0.0244289637197 -0.0244289637197 0.88 2.25861230428e-38
0.026057561301 -0.0244289637197 0.88 2.24002982547e-38
0.0276232357939 -0.0243734433476 0.878 2.26768851443e-38
0.0292481320171 -0.0243734433476 0.878 2.24924938846e-38
0.0307675395333 -0.0242901627894 0.875 2.29534720339e-38
0.0323868837192 -0.0242901627894 0.875 2.26768851443e-38
0.0340062279052 -0.0242901627894 0.875 2.20315157353e-38
0.0355441422121 -0.0242346424173 0.873 2.21237113651e-38
0.0370746538027 -0.0241791220453 0.871 2.2215906995e-38
0.0385977626771 -0.0241236016732 0.869 2.13875798546e-38
0.0402060027886 -0.0241236016732 0.869 2.24017317831e-38
0.0417180075885 -0.0240680813011 0.867 2.24013772546e-38
0.0430727046675 -0.0239292803708 0.862 2.27701653792e-38
0.0445643519977 -0.0238737599988 0.86 2.34155347882e-38
0.0461559359976 -0.0238737599988 0.86 2.28623582065e-38
0.0477475199975 -0.0238737599988 0.86 2.15716165858e-38
-0.0876611154931 -0.0215308002966 0.831 2.25857713169e-38
-0.0861232011862 -0.0215308002966 0.831 1.24428213062e-38
-0.08539958567 -0.0217380763524 0.839 2.28609274807e-38
-0.0838468659305 -0.0217380763524 0.839 1.89890627524e-38
-0.0822941461911 -0.0217380763524 0.839 1.94503940289e-38
-0.0811263676981 -0.0218417143803 0.843 1.93581969978e-38
-0.0797550145075 -0.0218935333942 0.845 1.95425896588e-38
-0.0785613265075 -0.0219971714221 0.849 1.9911019051e-38
-0.0771714665262 -0.0220489904361 0.851 2.01872528134e-38
-0.075863036424 -0.022126718957 0.854 1.99099372486e-38
-0.074456520331 -0.0221785379709 0.856 2.00943257057e-38
-0.0730426015218 -0.0222303569849 0.858 2.06474994849e-38
-0.0716212799963 -0.0222821759988 0.86 2.08326096108e-38
-0.0701925557545 -0.0223339950128 0.862 2.09255241067e-38
-0.0687564287964 -0.0223858140267 0.864 1.98202555482e-38
-0.067390627643 -0.0224635425477 0.867 2.0650016217e-38
-0.0659378445733 -0.0225153615616 0.869 2.08344074767e-38
-0.0643296044618 -0.0225153615616 0.869 2.14786964846e-38
-0.0628657173177 -0.0225671805756 0.871 2.14790524144e-38
-0.0615350790666 -0.0226708186035 0.875 2.15708921145e-38
0.0195431709757 -0.0228003661383 0.88 2.22173419246e-38
0.021171768557 -0.0228003661383 0.88 2.2678320074e-38
0.0228003661383 -0.0228003661383 0.88 2.24939288142e-38
0.0244289637197 -0.0228003661383 0.88 2.3323689483e-38
0.026057561301 -0.0228003661383 0.88 2.26779641441e-38
0.0276861588823 -0.0228003661383 0.88 2.26779641441e-38
0.0292481320171 -0.0227485471244 0.878 2.2124790365e-38
0.0307675395333 -0.0226708186035 0.875 2.22169859948e-38
0.0323868837192 -0.0226708186035 0.875 2.18482034754e-38
0.0339284993843 -0.0226189995895 0.873 2.22169859948e-38
0.0355441422121 -0.0226189995895 0.873 2.19403991052e-38
0.0370746538027 -0.0225671805756 0.871 2.24935728844e-38
0.0385977626771 -0.0225153615616 0.869 2.24017317831e-38
0.0402060027886 -0.0225153615616 0.869 2.20333107986e-38
0.0417180075885 -0.0224635425477 0.867 2.24942917505e-38
0.0430727046675 -0.0223339950128 0.862 2.35084464816e-38
0.0445643519977 -0.0222821759988 0.86 2.35084506855e-38
0.0461559359976 -0.0222821759988 0.86 2.35080905518e-38
-0.0903001838465 -0.019896650678 0.827 2.35084478829e-38
-0.0887696722558 -0.019896650678 0.827 2.35080905518e-38
-0.0872391606652 -0.019896650678 0.827 1.29952678115e-38
-0.0857086490746 -0.019896650678 0.827 2.29527615756e-38
-0.084178137484 -0.019896650678 0.827 2.12939563016e-38
-0.0838468659305 -0.0201853566129 0.839 1.83436905408e-38
-0.0822941461911 -0.0201853566129 0.839 1.95425882575e-38
-0.0811263676981 -0.0202815919245 0.843 1.93585529276e-38
-0.0799437837726 -0.0203778272361 0.847 1.95425882575e-38
-0.0785613265075 -0.020425944892 0.849 1.99113721782e-38
-0.0771714665262 -0.0204740625478 0.851 2.0187603138e-38
-0.075863036424 -0.0205462390315 0.854 2.02776407682e-38
-0.074456520331 -0.0205943566873 0.856 2.1107401437e-38
-0.0730426015218 -0.0206424743431 0.858 2.06475022875e-38
-0.0716212799963 -0.0206905919989 0.86 2.07404167835e-38
-0.0701925557545 -0.0207387096547 0.862 2.07407769172e-38
-0.0687564287964 -0.0207868273105 0.864 2.13872253261e-38
-0.067390627643 -0.0208590037943 0.867 2.00972053741e-38
-0.0657860888896 -0.0208590037943 0.867 2.04670668934e-38
-0.0643296044618 -0.0209071214501 0.869 2.08344032728e-38
-0.0628657173177 -0.0209552391059 0.871 2.1110269895e-38
0.0292481320171 -0.0211236509012 0.878 2.2770159774e-38
0.0307675395333 -0.0210514744175 0.875 2.31389422935e-38
0.0323868837192 -0.0210514744175 0.875 2.24935728844e-38
0.0339284993843 -0.0210033567617 0.873 2.28623554039e-38
0.035462712333 -0.0209552391059 0.871 2.26779641441e-38
0.0370746538027 -0.0209552391059 0.871 2.25857685143e-38
0.0385977626771 -0.0209071214501 0.869 2.22177020583e-38
0.0402060027886 -0.0209071214501 0.869 2.29552698998e-38
0.0417180075885 -0.0208590037943 0.867 2.34162480492e-38
0.0431726413373 -0.0207868273105 0.864 2.35084464816e-38
0.0445643519977 -0.0206905919989 0.86 2.2586490183e-38
0.0461559359976 -0.0206905919989 0.86 2.32315036622e-38
-0.0900818037162 -0.0183217227897 0.825 2.35091681503e-38
-0.0885549934838 -0.0183217227897 0.825 2.35084506855e-38
-0.0870281832513 -0.0183217227897 0.825 3.12925641627e-39
-0.0850868209072 -0.0182328901944 0.821 2.35084506855e-38
-0.083567413391 -0.0182328901944 0.821 1.93578452718e-38
-0.0838468659305 -0.0186326368734 0.839 1.92656468394e-38
-0.0822941461911 -0.0186326368734 0.839 1.95425882575e-38
-0.0811263676981 -0.0187214694688 0.843 2.01879576665e-38
-0.0799437837726 -0.0188103020641 0.847 1.92660013679e-38
-0.0785613265075 -0.0188547183618 0.849 2.02801546977e-38
-0.0769900999774 -0.0188547183618 0.849 2.05567415873e-38
-0.0755965386379 -0.0188991346595 0.851 2.06464232877e-38
-0.0742825564985 -0.018965759106 0.854 2.10152058072e-38
-0.0728723390474 -0.0190101754037 0.856 2.08318935472e-38
-0.0716212799963 -0.019099007999 0.86 2.06482211536e-38
-0.0703554155126 -0.0191878405943 0.864 2.11095594367e-38
-0.0687564287964 -0.0191878405943 0.864 2.09262471767e-38
-0.067390627643 -0.0192544650409 0.867 2.01904800038e-38
-0.0657860888896 -0.0192544650409 0.867 2.03748712635e-38
-0.0643296044618 -0.0192988813385 0.869 2.04656235559e-38
-0.0628657173177 -0.0193432976362 0.871 2.2585044043e-38
0.0307675395333 -0.0194321302315 0.875 2.24942917505e-38
0.0323868837192 -0.0194321302315 0.875 2.32318567894e-38
0.0339284993843 -0.0193877139339 0.873 2.26786830103e-38
0.035462712333 -0.0193432976362 0.871 2.30474655297e-38
0.0370746538027 -0.0193432976362 0.871 2.24942917505e-38
0.0385977626771 -0.0192988813385 0.869 2.286307427e-38
0.0402060027886 -0.0192988813385 0.869 2.3508443679e-38
0.0417180075885 -0.0192544650409 0.867 2.35095240801e-38
0.0433225463419 -0.0192544650409 0.867 2.35088066153e-38
0.0446679900256 -0.0191434242967 0.862 2.35084464816e-38
0.0462632753836 -0.0191434242967 0.862 2.23095473636e-38
-0.0900818037162 -0.0167949125573 0.825 2.35091681503e-38
-0.0885549934838 -0.0167949125573 0.825 2.35062898833e-38
-0.0870281832513 -0.0167949125573 0.825 8.1088994287e-39
-0.0850868209072 -0.0167134826782 0.821 2.35062898833e-38
-0.083567413391 -0.0167134826782 0.821 1.93578452718e-38
-0.08404673927 -0.0171206320735 0.841 1.98188206186e-38
-0.0824903181724 -0.0171206320735 0.841 1.99113721782e-38
-0.0811263676981 -0.0171613470131 0.843 1.99113721782e-38
-0.0797550145075 -0.0172020619526 0.845 2.00035678081e-38
-0.0783762586006 -0.0172427768921 0.847 1.98191765484e-38
-0.0769900999774 -0.0172834918317 0.849 1.99113721782e-38
-0.0755965386379 -0.0173242067712 0.851 2.00943285083e-38
-0.0742825564985 -0.0173852791805 0.854 2.05542304604e-38
-0.0728723390474 -0.01742599412 0.856 2.04631138304e-38
-0.0716212799963 -0.0175074239991 0.86 2.09244521134e-38
-0.0703554155126 -0.0175888538782 0.864 2.08329753497e-38
-0.0687564287964 -0.0175888538782 0.864 2.10184456092e-38
-0.067390627643 -0.0176499262875 0.867 2.09262499793e-38
-0.0659378445733 -0.017690641227 0.869 2.1203555735e-38
-0.0643296044618 -0.017690641227 0.869 2.12031899961e-38
-0.0628657173177 -0.0177313561665 0.871 2.14786978859e-38
0.0307675395333 -0.0178127860456 0.875 2.31396611596e-38
0.0323868837192 -0.0178127860456 0.875 2.26786830103e-38
0.0339284993843 -0.0177720711061 0.873 2.286307427e-38
0.035462712333 -0.0177313561665 0.871 2.34162480492e-38
0.0370746538027 -0.0177313561665 0.871 2.34162480492e-38
0.0385977626771 -0.017690641227 0.869 2.34169711192e-38
0.0402060027886 -0.017690641227 0.869 2.35095268827e-38
0.0417180075885 -0.0176499262875 0.867 2.35098828126e-38
0.0433225463419 -0.0176499262875 0.867 2.33251314191e-38
0.0447716280535 -0.0175888538782 0.864 2.35095268827e-38
0.0463706147697 -0.0175888538782 0.864 2.21262351037e-38
-0.0913865324604 -0.0152310887434 0.823 2.31418219618e-38
-0.089863423586 -0.0152310887434 0.823 2.3509166749e-38
-0.0885549934838 -0.0152681023248 0.825 2.11113601052e-38
-0.0870281832513 -0.0152681023248 0.825 1.27197599217e-38
-0.085294096963 -0.0152310887434 0.823 2.32300645287e-38
-0.0837709880887 -0.0152310887434 0.823 1.8989065555e-38
-0.08404673927 -0.0155642109759 0.841 1.95422365316e-38
-0.0824903181724 -0.0155642109759 0.841 2.00954103108e-38
-0.0811263676981 -0.0156012245573 0.843 2.03719972003e-38
-0.0797550145075 -0.0156382381387 0.845 2.00954075082e-38
-0.0783762586006 -0.0156752517201 0.847 2.05563856575e-38
-0.0769900999774 -0.0157122653015 0.849 2.05567415873e-38
-0.0755965386379 -0.0157492788829 0.851 2.07400608537e-38
-0.0740216107496 -0.0157492788829 0.851 2.10166477433e-38
-0.072702076573 -0.015804799255 0.854 2.09244521134e-38
-0.0716212799963 -0.0159158399992 0.86 2.06478652238e-38
-0.0703554155126 -0.015989867162 0.864 2.07407797198e-38
-0.0687564287964 -0.015989867162 0.864 2.13861491288e-38
-0.067390627643 -0.016045387534 0.867 2.1293953499e-38
-0.0659378445733 -0.0160824011154 0.869 2.13861491288e-38
-0.0643296044618 -0.0160824011154 0.869 2.18471272782e-38
0.0307675395333 -0.0161934418596 0.875 2.30474655297e-38
0.0323868837192 -0.0161934418596 0.875 2.32318567894e-38
0.0339284993843 -0.0161564282782 0.873 2.3508443679e-38
0.035462712333 -0.0161194146968 0.871 2.34162480492e-38
0.0370746538027 -0.0161194146968 0.871 2.31396611596e-38
0.0385977626771 -0.0160824011154 0.869 2.35095268827e-38
0.0401134688351 -0.016045387534 0.867 2.35091681503e-38
0.0415736546211 -0.015989867162 0.864 2.3509166749e-38
0.0431726413373 -0.015989867162 0.864 2.35095226788e-38
0.0449270850953 -0.016045387534 0.867 2.35098828126e-38
0.0465316238487 -0.016045387534 0.867 2.35091681503e-38
-0.0913865324604 -0.0137079798691 0.823 2.32343791267e-38
-0.089863423586 -0.0137079798691 0.823 2.31418219618e-38
-0.0885549934838 -0.0137412920923 0.825 1.79774289572e-38
-0.0870281832513 -0.0137412920923 0.825 1.22605796383e-38
-0.0855013730188 -0.0137412920923 0.825 2.33222601586e-38
-0.084178137484 -0.0137746043156 0.827 1.92656524446e-38
-0.0830473725724 -0.0138412287621 0.831 1.99110218536e-38
-0.0822941461911 -0.0139744776551 0.839 2.01876087432e-38
-0.0809338970749 -0.0140077898783 0.841 2.00032174835e-38
-0.0797550145075 -0.0140744143248 0.845 2.01876059406e-38
-0.0783762586006 -0.0141077265481 0.847 2.04641900276e-38
-0.0768087334286 -0.0141077265481 0.847 2.05563856575e-38
-0.0754188734472 -0.0141410387714 0.849 2.07407797198e-38
-0.0740216107496 -0.0141743509946 0.851 2.08329753497e-38
-0.072702076573 -0.0142243193295 0.854 2.09251709795e-38
-0.07145471888 -0.014290943776 0.858 2.14783447587e-38
-0.0703554155126 -0.0143908804458 0.864 2.09244521134e-38
-0.0687564287964 -0.0143908804458 0.864 2.17542127822e-38
-0.067390627643 -0.0144408487806 0.867 2.17542127822e-38
0.0339284993843 -0.0145407854504 0.873 2.33251314191e-38
0.035462712333 -0.0145074732272 0.871 2.35098828126e-38
0.0369895225655 -0.0144741610039 0.869 2.35098828126e-38
0.0385977626771 -0.0144741610039 0.869 2.35095268827e-38
0.0401134688351 -0.0144408487806 0.867 2.35091681503e-38
0.0415736546211 -0.0143908804458 0.864 2.34169711192e-38
0.0431726413373 -0.0143908804458 0.864 2.32329357893e-38
0.0449270850953 -0.0144408487806 0.867 2.27719576399e-38
0.0465316238487 -0.0144408487806 0.867 2.18496482141e-38
-0.0913865324604 -0.0121848709947 0.823 2.28659553396e-38
-0.089863423586 -0.0121848709947 0.823 2.35095240801e-38
-0.0885549934838 -0.0122144818598 0.825 2.06482211536e-38
-0.0870281832513 -0.0122144818598 0.825 8.38404438217e-39
-0.0857086490746 -0.0122440927249 0.827 2.3322257356e-38
-0.0845852868793 -0.0123033144552 0.831 1.88039554291e-38
-0.0830473725724 -0.0123033144552 0.831 2.15676635228e-38
-0.0822941461911 -0.0124217579156 0.839 2.06457072242e-38
-0.0809338970749 -0.0124513687807 0.841 2.03712783342e-38
-0.0797550145075 -0.012510590511 0.845 2.09269660429e-38
-0.0781911906936 -0.012510590511 0.845 2.04674270271e-38
-0.0768087334286 -0.0125402013761 0.847 1.98216946817e-38
-0.0754188734472 -0.0125698122412 0.849 2.11106384365e-38
-0.0740216107496 -0.0125994231063 0.851 2.10173638068e-38
-0.072702076573 -0.012643839404 0.854 2.1570537586e-38
-0.07145471888 -0.0127030611342 0.858 2.12017550665e-38
-0.0701925557545 -0.0127622828645 0.862 2.14783419561e-38
-0.0687564287964 -0.0127918937296 0.864 2.1570537586e-38
-0.067390627643 -0.0128363100272 0.867 2.19393201054e-38
-0.0657860888896 -0.0128363100272 0.867 2.16627332158e-38
0.035462712333 -0.0128955317575 0.871 2.35098856151e-38
0.0369895225655 -0.0128659208924 0.869 2.35098856151e-38
0.0385089300817 -0.0128363100272 0.867 2.33240622284e-38
0.0401134688351 -0.0128363100272 0.867 2.29563460971e-38
0.0417180075885 -0.0128363100272 0.867 2.30499612423e-38
0.0433225463419 -0.0128363100272 0.867 2.350988001e-38
0.0449270850953 -0.0128363100272 0.867 2.27716143218e-38
-0.0913865324604 -0.0106617621204 0.823 2.3418050119e-38
-0.089863423586 -0.0106617621204 0.823 2.35095240801e-38
-0.0885549934838 -0.0106876716274 0.825 2.35084478829e-38
-0.0870281832513 -0.0106876716274 0.825 6.81563687208e-39
-0.0857086490746 -0.0107135811343 0.827 2.35095268827e-38
-0.0845852868793 -0.0107654001483 0.831 2.07433006557e-38
-0.0834471192515 -0.0108172191622 0.835 2.03705622707e-38
-0.0822941461911 -0.0108690381762 0.839 2.10152086097e-38
-0.0809338970749 -0.0108949476832 0.841 2.08329753497e-38
-0.0795662452424 -0.0109208571901 0.843 2.02826756336e-38
-0.0781911906936 -0.0109467666971 0.845 2.01894010039e-38
-0.0768087334286 -0.0109726762041 0.847 2.10170036731e-38
-0.0754188734472 -0.0109985857111 0.849 2.14783419561e-38
-0.0740216107496 -0.011024495218 0.851 2.08329725471e-38
-0.072702076573 -0.0110633594785 0.854 2.18471244756e-38
-0.07145471888 -0.0111151784924 0.858 2.13861463262e-38
-0.0700296959964 -0.0111410879994 0.86 2.17549288457e-38
-0.0685972703964 -0.0111669975064 0.862 2.17549288457e-38
0.035462712333 -0.0112835902878 0.871 2.35098856151e-38
0.0369043913283 -0.0112317712738 0.867 2.35098856151e-38
0.0385089300817 -0.0112317712738 0.867 2.35091681503e-38
0.0401134688351 -0.0112317712738 0.867 2.35095226788e-38
0.0433225463419 -0.0112317712738 0.867 2.31414548216e-38
-0.0913865324604 -0.00913865324604 0.823 2.3418050119e-38
-0.089863423586 -0.00913865324604 0.823 2.31407401594e-38
-0.0885549934838 -0.00916086139487 0.825 2.35070059468e-38
-0.0872391606652 -0.00918306954371 0.827 9.39963544419e-39
-0.0859159251304 -0.00920527769254 0.829 1.42917617623e-38
-0.0845852868793 -0.00922748584138 0.831 2.32336616619e-38
-0.083646992591 -0.00929411028789 0.837 2.03734391365e-38
-0.0822941461911 -0.00931631843672 0.839 2.12950324988e-38
-0.0807414264516 -0.00931631843672 0.839 2.08347732156e-38
-0.0795662452424 -0.0093607347344 0.843 2.06503791533e-38
-0.0780061227866 -0.0093607347344 0.843 2.10170036731e-38
-0.0768087334286 -0.00940515103207 0.847 2.15669404528e-38
-0.0754188734472 -0.0094273591809 0.849 2.14772629563e-38
-0.0740216107496 -0.00944956732974 0.851 2.06485812873e-38
-0.072702076573 -0.00948287955299 0.854 2.16627332158e-38
-0.07145471888 -0.00952729585067 0.858 2.12939506964e-38
-0.0700296959964 -0.0095495039995 0.86 2.17549288457e-38
-0.0685972703964 -0.00957171214834 0.862 2.19393201054e-38
0.0367766944725 -0.00959392029717 0.864 2.35098856151e-38
0.0383756811887 -0.00959392029717 0.864 2.35098758061e-38
-0.0916086139487 -0.00763405116239 0.825 2.24964525528e-38
-0.0900818037162 -0.00763405116239 0.825 2.27723205762e-38
-0.0887696722558 -0.00765255795309 0.827 2.35095268827e-38
-0.0874501380792 -0.00767106474379 0.829 2.35080877492e-38
-0.0861232011862 -0.00768957153448 0.831 2.80259692865e-45
-0.084788861577 -0.00770807832518 0.833 1.91759777507e-38
-0.083646992591 -0.00774509190657 0.837 2.27690863794e-38
-0.0822941461911 -0.00776359869727 0.839 2.09251737821e-38
-0.0807414264516 -0.00776359869727 0.839 2.12964716323e-38
-0.0793774759773 -0.00778210548797 0.841 2.02830385699e-38
-0.0780061227866 -0.00780061227866 0.843 2.08329753497e-38
-0.0766273668797 -0.00781911906936 0.845 2.19368019721e-38
-0.0754188734472 -0.00785613265075 0.849 2.12935905627e-38
-0.0740216107496 -0.00787463944145 0.851 2.13861463262e-38
-0.072702076573 -0.0079023996275 0.854 2.17549288457e-38
-0.07145471888 -0.00793941320889 0.858 2.1570537586e-38
-0.0698668362382 -0.00793941320889 0.858 2.24002982547e-38
-0.0685972703964 -0.00797642679028 0.862 2.27690807742e-38
0.0367766944725 -0.00799493358098 0.864 2.35098856151e-38
0.0383756811887 -0.00799493358098 0.864 2.35098687996e-38
-0.0907369441069 -0.00615165722759 0.831 2.3418050119e-38
-0.0891990298 -0.00615165722759 0.831 2.35098856151e-38
-0.0876611154931 -0.00615165722759 0.831 2.35095268827e-38
-0.086330477242 -0.00616646266014 0.833 1.69600456345e-38
-0.0849924362746 -0.0061812680927 0.835 2.02219559699e-39
-0.0838468659305 -0.00621087895782 0.839 2.0182217948e-38
-0.0822941461911 -0.00621087895782 0.839 2.35041360875e-38
-0.0807414264516 -0.00621087895782 0.839 2.13854330653e-38
-0.0793774759773 -0.00622568439037 0.841 2.0190124074e-38
-0.0780061227866 -0.00624048982293 0.843 2.10198847427e-38
-0.0766273668797 -0.00625529525549 0.845 2.0558186326e-38
-0.0754188734472 -0.0062849061206 0.849 2.09251681769e-38
-0.0742825564985 -0.006321919702 0.854 2.14783419561e-38
-0.0728723390474 -0.00633672513455 0.856 2.14783419561e-38
-0.07145471888 -0.00635153056711 0.858 2.18471244756e-38
-0.0698668362382 -0.00635153056711 0.858 2.14783419561e-38
-0.0684381119964 -0.00636633599967 0.86 2.23081026249e-38
0.0369043913283 -0.00641815501362 0.867 2.35098856151e-38
0.0385089300817 -0.00641815501362 0.867 2.350988001e-38
-0.0894137085721 -0.00462484699511 0.833 2.35098856151e-38
-0.0878720929071 -0.00462484699511 0.833 2.35098856151e-38
-0.086330477242 -0.00462484699511 0.833 2.35052164887e-38
-0.0851960109723 -0.00464705514394 0.837 1.23441516774e-38
-0.083646992591 -0.00464705514394 0.837 3.39793577862e-39
-0.0820979742097 -0.00464705514394 0.837 1.58429080779e-38
-0.0807414264516 -0.00465815921836 0.839 2.35062982911e-38
-0.0793774759773 -0.00466926329278 0.841 2.33208224263e-38
-0.0781911906936 -0.00469147144162 0.845 1.99124609871e-38
-0.0768087334286 -0.00470257551603 0.847 2.0928407979e-38
-0.0755965386379 -0.00472478366487 0.851 2.2124790365e-38
-0.0742825564985 -0.0047414397765 0.854 2.19393201054e-38
-0.0728723390474 -0.00475254385092 0.856 2.20315157353e-38
-0.07145471888 -0.00476364792533 0.858 2.21237113651e-38
-0.0698668362382 -0.00476364792533 0.858 2.21237113651e-38
-0.0684381119964 -0.00477475199975 0.86 2.24002982547e-38
-0.0869523054094 -0.00310543947891 0.839 2.35091681503e-38
-0.08539958567 -0.00310543947891 0.839 1.90765906571e-38
-0.083646992591 -0.00309803676263 0.837 1.53812124638e-38
-0.0820979742097 -0.00309803676263 0.837 6.34064433682e-39
-0.0807414264516 -0.00310543947891 0.839 6.15841107673e-39
-0.0795662452424 -0.00312024491147 0.843 2.35055808263e-38
-0.0781911906936 -0.00312764762774 0.845 2.35066570235e-38
-0.0769900999774 -0.0031424530603 0.849 2.24003038599e-38
-0.0755965386379 -0.00314985577658 0.851 2.19393201054e-38
-0.0742825564985 -0.003160959851 0.854 2.1570537586e-38
-0.0728723390474 -0.00316836256728 0.856 2.21237113651e-38
-0.07145471888 -0.00317576528356 0.858 2.24002982547e-38
-0.0698668362382 -0.00317576528356 0.858 2.24924938846e-38
-0.0830788341166 -0.00156752517201 0.847 1.59261129769e-38
-0.0799437837726 -0.00156752517201 0.847 4.77547102359e-39
-0.0783762586006 -0.00156752517201 0.847 1.17880954273e-38
-0.0769900999774 -0.00157122653015 0.849 2.35070157559e-38
-0.0755965386379 -0.00157492788829 0.851 2.35073702844e-38
-0.0742825564985 -0.0015804799255 0.854 2.29534720339e-38
-0.0728723390474 -0.00158418128364 0.856 2.21237113651e-38
-0.0815113089446 0.0 0.847 1.44538611661e-38
-0.0799437837726 0.0 0.847 1.5558765387e-38
-0.0783762586006 0.0 0.847 8.3671377162e-39
-0.0769900999774 0.0 0.849 5.14279899524e-39
-0.0755965386379 0.0 0.851 1.54744730805e-38
-0.0742825564985 0.0 0.854 2.35070129533e-38
-0.0728723390474 0.0 0.856 2.35077290168e-38
-0.0795477384517 0.0015009007255 0.811 1.92591868535e-38
-0.0780468377262 0.0015009007255 0.811 1.56577993534e-38
-0.0765459370007 0.0015009007255 0.811 1.46382482219e-38
-0.0785613265075 0.00157122653015 0.849 1.57413475704e-38
-0.0769900999774 0.00157122653015 0.849 1.48183024629e-38
-0.0755965386379 0.00157492788829 0.851 8.17914932332e-39
-0.0740216107496 0.00157492788829 0.851 4.49994491694e-39
-0.0812485125167 0.00300920416729 0.813 2.35091681503e-38
-0.0795477384517 0.00300180145101 0.811 2.35055780237e-38
-0.0780468377262 0.00300180145101 0.811 1.59397812421e-38
-0.0765459370007 0.00300180145101 0.811 1.40901093081e-38
-0.0752301041821 0.00300920416729 0.813 1.50981375623e-38
-0.0737255020985 0.00300920416729 0.813 1.53711203123e-38
-0.0722209000148 0.00300920416729 0.813 1.78535751925e-38
-0.0705423340987 0.00300180145101 0.811 1.38891645096e-38
-0.0690414333731 0.00300180145101 0.811 9.10038675584e-39
-0.0797439104331 0.00451380625093 0.813 2.31407499685e-38
-0.0782393083494 0.00451380625093 0.813 2.15698271276e-38
-0.0767347062658 0.00451380625093 0.813 1.51085772359e-38
-0.0752301041821 0.00451380625093 0.813 1.4271613893e-38
-0.0737255020985 0.00451380625093 0.813 1.62026816496e-38
-0.0722209000148 0.00451380625093 0.813 1.58321012642e-38
-0.0705423340987 0.00450270217651 0.811 1.41718610605e-38
-0.0690414333731 0.00450270217651 0.811 1.39874740047e-38
-0.0677070937639 0.00451380625093 0.813 1.51856612631e-38
-0.0814483858562 0.00603321376713 0.815 2.30507081344e-38
-0.0797439104331 0.00601840833457 0.813 2.27744813785e-38
-0.0782393083494 0.00601840833457 0.813 2.35095268827e-38
-0.0767347062658 0.00601840833457 0.813 1.96308350283e-38
-0.0752301041821 0.00601840833457 0.813 1.46439963482e-38
-0.0737255020985 0.00601840833457 0.813 1.62981198841e-38
-0.0722209000148 0.00601840833457 0.813 1.353440058e-38
-0.0705423340987 0.00600360290201 0.811 1.36258773438e-38
-0.0690414333731 0.00600360290201 0.811 1.47282746418e-38
-0.0677070937639 0.00601840833457 0.813 1.47232439803e-38
-0.0814483858562 0.00754151720891 0.815 2.32343791267e-38
-0.0799400824144 0.00754151720891 0.815 2.30507067331e-38
-0.0782393083494 0.00752301041821 0.813 2.2312061293e-38
-0.0767347062658 0.00752301041821 0.813 2.35070101507e-38
-0.0752301041821 0.00752301041821 0.813 1.78751621953e-38
-0.0737255020985 0.00752301041821 0.813 1.44596078911e-38
-0.0722209000148 0.00752301041821 0.813 1.48251365955e-38
-0.0705423340987 0.00750450362752 0.811 1.52839567452e-38
-0.0690414333731 0.00750450362752 0.811 1.44509646822e-38
-0.0678736548802 0.00754151720891 0.815 1.53686133893e-38
-0.0816482591957 0.00907202879953 0.817 2.35095268827e-38
-0.0801362543958 0.00907202879953 0.817 2.31411030957e-38
-0.0784317789727 0.00904982065069 0.815 2.35095268827e-38
-0.0769234755309 0.00904982065069 0.815 2.35088094179e-38
-0.0754151720891 0.00904982065069 0.815 2.24896198215e-38
-0.0739068686473 0.00904982065069 0.815 1.65858653133e-38
-0.0723985652055 0.00904982065069 0.815 1.51946379811e-38
-0.0707162979312 0.00902761250186 0.813 1.4546390305e-38
-0.0692116958476 0.00902761250186 0.813 1.55587513741e-38
-0.0677070937639 0.00902761250186 0.813 1.47282760431e-38
-0.0660396319221 0.00900540435302 0.811 1.44498940901e-38
-0.0645387311966 0.00900540435302 0.811 1.40811087681e-38
-0.0816482591957 0.0105840335994 0.817 2.3508805214e-38
-0.0801362543958 0.0105840335994 0.817 2.35088038127e-38
-0.0786242495959 0.0105840335994 0.817 2.34155319856e-38
-0.0769234755309 0.0105581240925 0.815 2.27690835768e-38
-0.0754151720891 0.0105581240925 0.815 2.35084506855e-38
-0.0739068686473 0.0105581240925 0.815 2.35059339535e-38
-0.0723985652055 0.0105581240925 0.815 2.02707912214e-38
-0.0707162979312 0.0105322145855 0.813 1.54740975325e-38
-0.0692116958476 0.0105322145855 0.813 1.43673982482e-38
-0.0675405326476 0.0105063050785 0.811 1.37198792474e-38
-0.065876772164 0.0104803955715 0.809 1.45464057193e-38
-0.0643795727966 0.0104803955715 0.809 1.47282760431e-38
-0.0628823734293 0.0104803955715 0.809 1.38956301008e-38
-0.0816482591957 0.0120960383994 0.817 2.34155319856e-38
-0.0801362543958 0.0120960383994 0.817 2.33240552219e-38
-0.0788167202191 0.0121256492645 0.819 2.2586490183e-38
-0.077112244796 0.0120960383994 0.817 2.30474683323e-38
-0.0754151720891 0.0120664275343 0.815 2.31389450961e-38
-0.0739068686473 0.0120664275343 0.815 2.35080877492e-38
-0.0722209000148 0.0120368166691 0.813 2.35084478829e-38
-0.0707162979312 0.0120368166691 0.813 1.75096054649e-38
-0.0690414333731 0.012007205804 0.811 1.38170985322e-38
-0.0675405326476 0.012007205804 0.811 1.46407481384e-38
-0.0657139124059 0.0119479840738 0.807 1.46357244834e-38
-0.0642204143967 0.0119479840738 0.807 1.49105163096e-38
-0.0627269163874 0.0119479840738 0.807 1.36194033449e-38
-0.0610816626945 0.0119183732087 0.805 1.40825198756e-38
-0.0594438117178 0.0118887623436 0.803 1.30680134186e-38
-0.0579577164249 0.0118887623436 0.803 1.34353638111e-38
-0.0816482591957 0.0136080431993 0.817 2.32311407259e-38
-0.0801362543958 0.0136080431993 0.817 2.35088080166e-38
-0.0786242495959 0.0136080431993 0.817 2.2586490183e-38
-0.077112244796 0.0136080431993 0.817 2.3231859592e-38
-0.0754151720891 0.013574730976 0.815 2.30474683323e-38
-0.0739068686473 0.013574730976 0.815 2.27708814427e-38
-0.0722209000148 0.0135414187528 0.813 2.28609260794e-38
-0.0705423340987 0.0135081065295 0.811 2.33197336174e-38
-0.0690414333731 0.0135081065295 0.811 1.87049060485e-38
-0.0673739715314 0.0134747943063 0.809 1.47351017679e-38
-0.0657139124059 0.013441482083 0.807 1.49133931754e-38
-0.0642204143967 0.013441482083 0.807 1.4450259829e-38
-0.0625714593456 0.0134081698598 0.805 1.4543160312e-38
-0.0610816626945 0.0134081698598 0.805 1.38984915522e-38
-0.0594438117178 0.0133748576365 0.803 1.38963335526e-38
-0.0579577164249 0.0133748576365 0.803 1.35264776385e-38
-0.0564716211319 0.0133748576365 0.803 1.26956407725e-38
-0.0549170507134 0.0133582015249 0.802 1.32480998895e-38
-0.0534328060995 0.0133582015249 0.802 1.31541091963e-38
-0.0519485614857 0.0133582015249 0.802 1.31533931328e-38
0.0175888538782 0.0131916404086 0.792 2.34176899853e-38
0.0190545917013 0.0131916404086 0.792 2.35098856151e-38
-0.0816482591957 0.0151200479992 0.817 2.31389450961e-38
-0.0801362543958 0.0151200479992 0.817 2.34155319856e-38
-0.0786242495959 0.0151200479992 0.817 2.26779669467e-38
-0.077112244796 0.0151200479992 0.817 2.34155319856e-38
-0.0752301041821 0.0150460208364 0.813 2.30467494662e-38
-0.0737255020985 0.0150460208364 0.813 2.21247931676e-38
-0.0720432348242 0.015009007255 0.811 2.31371528353e-38
-0.0703683702661 0.0149719936736 0.809 2.22133888617e-38
-0.0687009084243 0.0149349800922 0.807 2.17506044386e-38
-0.0672074104151 0.0149349800922 0.807 1.80588261811e-38
-0.0657139124059 0.0149349800922 0.807 1.49187881745e-38
-0.0642204143967 0.0149349800922 0.807 1.30709225142e-38
-0.0625714593456 0.0148979665109 0.805 1.3898513973e-38
-0.0610816626945 0.0148979665109 0.805 1.39899725199e-38
-0.0595918660434 0.0148979665109 0.805 1.36193921345e-38
-0.0579577164249 0.0148609529295 0.803 1.38941839607e-38
-0.0564716211319 0.0148609529295 0.803 1.28793159687e-38
-0.0549170507134 0.0148424461388 0.802 1.34314121494e-38
-0.0534328060995 0.0148424461388 0.802 1.28775223067e-38
-0.0519485614857 0.0148424461388 0.802 1.27846134159e-38
-0.0503384706951 0.0148054325574 0.8 1.3060122707e-38
-0.0488579274393 0.0148054325574 0.8 1.28753755174e-38
-0.0473773841836 0.0148054325574 0.8 1.40739074953e-38
0.0175888538782 0.0146573782318 0.792 2.35062898833e-38
0.0190545917013 0.0146573782318 0.792 2.33233363558e-38
-0.0786242495959 0.0166320527991 0.817 2.25857713169e-38
-0.0767347062658 0.0165506229201 0.813 2.35070087494e-38
-0.0750450362752 0.0165099079805 0.811 2.31378660962e-38
-0.0735441355497 0.0165099079805 0.811 2.23081054275e-38
-0.0720432348242 0.0165099079805 0.811 2.1937167711e-38
-0.0703683702661 0.016469193041 0.809 2.09230129799e-38
-0.0687009084243 0.0164284781015 0.807 1.99084981151e-38
-0.0672074104151 0.0164284781015 0.807 2.01825682726e-38
-0.0657139124059 0.0164284781015 0.807 1.82432258487e-38
-0.0642204143967 0.0164284781015 0.807 1.55641575835e-38
-0.0627269163874 0.0164284781015 0.807 1.34386162248e-38
-0.0612334183782 0.0164284781015 0.807 1.36204823447e-38
-0.059739920369 0.0164284781015 0.807 1.36190390073e-38
-0.0581020693923 0.0163877631619 0.805 1.35264832437e-38
-0.0566122727412 0.0163877631619 0.805 1.33410129842e-38
-0.054985525839 0.0163470482224 0.803 1.32480998895e-38
-0.0534994305461 0.0163470482224 0.803 1.30626324325e-38
-0.0519485614857 0.0163266907526 0.802 1.31537560691e-38
-0.0503384706951 0.0162859758131 0.8 1.29686501471e-38
-0.0488579274393 0.0162859758131 0.8 1.28753811226e-38
-0.0473773841836 0.0162859758131 0.8 1.37962444085e-38
-0.0458968409278 0.0162859758131 0.8 1.30586681592e-38
0.016123116055 0.016123116055 0.792 2.35091681503e-38
0.0175888538782 0.016123116055 0.792 2.35091681503e-38
0.0190545917013 0.016123116055 0.792 2.35080849466e-38
-0.0786242495959 0.0181440575991 0.817 2.35077290168e-38
-0.0767347062658 0.0180552250037 0.813 2.26761690808e-38
-0.0750450362752 0.018010808706 0.811 2.33215384899e-38
-0.0733627690008 0.0179663924084 0.809 2.26761690808e-38
-0.0718655696335 0.0179663924084 0.809 2.1475467893e-38
-0.0701944064336 0.0179219761107 0.807 2.02769247047e-38
-0.0687009084243 0.0179219761107 0.807 1.8802513493e-38
-0.0672074104151 0.0179219761107 0.807 1.9263128706e-38
-0.0657139124059 0.0179219761107 0.807 1.80613485184e-38
-0.0642204143967 0.0179219761107 0.807 1.75960515672e-38
-0.0628823734293 0.0179663924084 0.809 1.47325920423e-38
-0.0613851740619 0.0179663924084 0.809 1.38981594445e-38
-0.0598879746946 0.0179663924084 0.809 1.28829201084e-38
-0.0582464223598 0.0179219761107 0.807 1.2697802976e-38
-0.0566122727412 0.017877559813 0.805 1.25126914489e-38
-0.0551224760902 0.017877559813 0.805 1.29733094645e-38
-0.0534994305461 0.0178331435154 0.803 1.24190580868e-38
-0.0519485614857 0.0178109353665 0.802 1.27860483455e-38
-0.0504643168718 0.0178109353665 0.802 1.26005836912e-38
-0.0489800722579 0.0178109353665 0.802 1.278426169e-38
-0.0473773841836 0.0177665190688 0.8 1.34281891629e-38
-0.0458968409278 0.0177665190688 0.8 1.25987802201e-38
-0.0444162976721 0.0177665190688 0.8 1.30590324968e-38
-0.0429357544164 0.0177665190688 0.8 1.3334547393e-38
0.0146573782318 0.0175888538782 0.792 2.2591527851e-38
0.016123116055 0.0175888538782 0.792 2.24996951574e-38
