# .PCD v0.7 - Point Cloud Data file format
VERSION 0.7
FIELDS x y z rgb
SIZE 4 4 4 4
TYPE F F F F
COUNT 1 1 1 1
WIDTH 844
HEIGHT 1
VIEWPOINT 0 0 0 1 0 0 0
POINTS 844
DATA ascii
-0.0357125540074 -0.0155271973945 0.839 1.2969001873e-38
-0.0340784043889 -0.0154901838131 0.837 1.50819399534e-38
-0.0325293860076 -0.0154901838131 0.837 1.74743417891e-38
-0.0309803676263 -0.0154901838131 0.837 1.59984844374e-38
-0.0293610234403 -0.0154531702318 0.835 1.58166043045e-38
-0.0278157064172 -0.0154531702318 0.835 1.54496182496e-38
-0.026270389394 -0.0154531702318 0.835 1.65570448078e-38
-0.0246658506406 -0.0154161566504 0.833 1.39762972482e-38
-0.0231242349755 -0.0154161566504 0.833 1.47131406184e-38
-0.0215308002966 -0.015379143069 0.831 1.47131322106e-38
-0.0199928859897 -0.015379143069 0.831 1.48964444705e-38
-0.0184549716828 -0.015379143069 0.831 1.50804840043e-38
-0.0169170573759 -0.015379143069 0.831 1.47117042874e-38
-0.0153421294876 -0.0153421294876 0.829 1.36986285561e-38
-0.0138079165388 -0.0153421294876 0.829 1.46216526442e-38
-0.0122737035901 -0.0153421294876 0.829 1.58126372285e-38
-0.0107394906413 -0.0153421294876 0.829 1.61781855511e-38
-0.00920527769254 -0.0153421294876 0.829 1.64547752433e-38
-0.00767106474379 -0.0153421294876 0.829 1.60856381953e-38
-0.00613685179503 -0.0153421294876 0.829 1.59005280695e-38
-0.00460263884627 -0.0153421294876 0.829 1.65462548097e-38
-0.00306842589751 -0.0153421294876 0.829 1.65455359435e-38
-0.00153421294876 -0.0153421294876 0.829 1.46094249138e-38
0.0 -0.0153051159062 0.827 1.23070565045e-38
0.00153051159062 -0.0153051159062 0.827 1.22163056133e-38
0.00305362046496 -0.0152681023248 0.825 1.10202791571e-38
0.00458043069744 -0.0152681023248 0.825 1.01019129852e-38
0.066328337857 -0.0165820844643 0.896 2.35073604753e-38
0.0679865463034 -0.0165820844643 0.896 2.35084408764e-38
0.0696447547499 -0.0165820844643 0.896 2.29527419574e-38
-0.0404669485374 -0.0140077898783 0.841 2.3503396202e-38
-0.0389105274398 -0.0140077898783 0.841 2.29516573524e-38
-0.0373541063422 -0.0140077898783 0.841 2.18399260053e-38
-0.0357125540074 -0.0139744776551 0.839 1.42716124917e-38
-0.034159834268 -0.0139744776551 0.839 1.35232462442e-38
-0.0325293860076 -0.0139411654318 0.837 1.57276582857e-38
-0.0309803676263 -0.0139411654318 0.837 1.52652283912e-38
-0.029431349245 -0.0139411654318 0.837 1.65577580687e-38
-0.0278157064172 -0.0139078532086 0.835 1.3978794362e-38
-0.026270389394 -0.0139078532086 0.835 1.39802320942e-38
-0.0247250723708 -0.0139078532086 0.835 1.46213121287e-38
-0.0231242349755 -0.0138745409853 0.833 1.4528037499e-38
-0.0215826193105 -0.0138745409853 0.833 1.47109826187e-38
-0.0200410036455 -0.0138745409853 0.833 1.51705188319e-38
-0.0184993879804 -0.0138745409853 0.833 1.4616275862e-38
-0.0169170573759 -0.0138412287621 0.831 1.5538952428e-38
-0.015379143069 -0.0138412287621 0.831 1.38797828164e-38
-0.0138079165388 -0.0138079165388 0.829 1.58169616356e-38
-0.0122737035901 -0.0138079165388 0.829 1.49850401646e-38
-0.0107394906413 -0.0138079165388 0.829 1.54442232506e-38
-0.00920527769254 -0.0138079165388 0.829 1.54449449193e-38
-0.00767106474379 -0.0138079165388 0.829 1.45237102893e-38
-0.00613685179503 -0.0138079165388 0.829 1.36024770607e-38
-0.00460263884627 -0.0138079165388 0.829 1.5171237698e-38
-0.00306842589751 -0.0138079165388 0.829 1.48957256044e-38
-0.00153421294876 -0.0138079165388 0.829 1.4342907755e-38
0.0 -0.0137746043156 0.827 1.50772357944e-38
0.00153051159062 -0.0137746043156 0.827 1.54442232506e-38
0.00305362046496 -0.0137412920923 0.825 1.64576563129e-38
0.00458043069744 -0.0137412920923 0.825 1.56275299053e-38
0.00610724092991 -0.0137412920923 0.825 1.53512947416e-38
0.0076155443717 -0.0137079798691 0.823 1.29549272313e-38
0.00913865324604 -0.0137079798691 0.823 1.15730857961e-38
0.0106617621204 -0.0137079798691 0.823 1.08366151713e-38
0.0592568931318 -0.0136746676458 0.821 2.35091583412e-38
0.060776300648 -0.0136746676458 0.821 2.35088038127e-38
-0.0389105274398 -0.0124513687807 0.841 2.21215449577e-38
-0.0373541063422 -0.0124513687807 0.841 2.35077150038e-38
-0.0357125540074 -0.0124217579156 0.839 1.92566392929e-38
-0.034159834268 -0.0124217579156 0.839 1.39867327178e-38
-0.0325293860076 -0.0123921470505 0.837 1.56372577192e-38
-0.0309803676263 -0.0123921470505 0.837 1.59134816725e-38
-0.029431349245 -0.0123921470505 0.837 1.46248980515e-38
-0.0278823308637 -0.0123921470505 0.837 1.49936805709e-38
-0.026270389394 -0.0123625361854 0.835 1.51748376338e-38
-0.0247250723708 -0.0123625361854 0.835 1.38815778798e-38
-0.0231797553476 -0.0123625361854 0.835 1.51715922265e-38
-0.0216344383245 -0.0123625361854 0.835 1.50786721254e-38
-0.0200410036455 -0.0123329253203 0.833 1.54470945111e-38
-0.0184993879804 -0.0123329253203 0.833 1.62764992501e-38
-0.0169170573759 -0.0123033144552 0.831 1.56307781151e-38
-0.015379143069 -0.0123033144552 0.831 1.49854143113e-38
-0.0138412287621 -0.0123033144552 0.831 1.50772540113e-38
-0.0122737035901 -0.0122737035901 0.829 1.43396679529e-38
-0.0107394906413 -0.0122737035901 0.829 1.47999328413e-38
-0.00920527769254 -0.0122737035901 0.829 1.52605592647e-38
-0.00767106474379 -0.0122737035901 0.829 1.42464073362e-38
-0.00613685179503 -0.0122737035901 0.829 1.3325518827e-38
-0.00460263884627 -0.0122737035901 0.829 1.46173338423e-38
-0.00306842589751 -0.0122737035901 0.829 1.36039119903e-38
-0.00153421294876 -0.0122737035901 0.829 1.46184380655e-38
0.0 -0.0122440927249 0.827 1.48953794836e-38
0.00153051159062 -0.0122440927249 0.827 1.41556508399e-38
0.00305362046496 -0.0122144818598 0.825 1.59966823675e-38
0.00458043069744 -0.0122144818598 0.825 1.48896131405e-38
0.00610724092991 -0.0122144818598 0.825 1.38768947403e-38
0.0076155443717 -0.0121848709947 0.823 1.63690508097e-38
0.00913865324604 -0.0121848709947 0.823 1.4156355693e-38
0.0106617621204 -0.0121848709947 0.823 1.61835833528e-38
0.0121848709947 -0.0121848709947 0.823 1.49846744257e-38
0.0137412920923 -0.0122144818598 0.825 1.53520276207e-38
0.0153051159062 -0.0122440927249 0.827 1.34152145404e-38
0.0167949125573 -0.0122144818598 0.825 1.2861326099e-38
0.0183217227897 -0.0122144818598 0.825 1.35066927055e-38
0.0198485330222 -0.0122144818598 0.825 1.32304603444e-38
0.0378926539515 -0.0121256492645 0.819 2.00802874977e-38
0.0394083601096 -0.0121256492645 0.819 2.07271044481e-38
0.0409240662676 -0.0121256492645 0.819 2.34933418855e-38
0.0424397724257 -0.0121256492645 0.819 2.3402228058e-38
0.0439554785838 -0.0121256492645 0.819 2.34991082287e-38
0.0454711847418 -0.0121256492645 0.819 2.35001816233e-38
0.0469868908999 -0.0121256492645 0.819 2.35026997566e-38
0.0580187888342 -0.0122144818598 0.825 2.26642664517e-38
0.0592568931318 -0.0121552601296 0.821 1.88828008885e-38
0.060776300648 -0.0121552601296 0.821 1.3526109097e-38
0.0624474638479 -0.0121848709947 0.823 8.26520726591e-39
0.0639705727222 -0.0121848709947 0.823 8.99989684036e-39
-0.0373541063422 -0.0108949476832 0.841 2.2583959438e-38
-0.0357976852446 -0.0108949476832 0.841 2.35019542658e-38
-0.0342412641471 -0.0108949476832 0.841 1.3161648182e-38
-0.0326071145285 -0.0108690381762 0.839 1.43511950341e-38
-0.0310543947891 -0.0108690381762 0.839 1.54546615228e-38
-0.0295016750496 -0.0108690381762 0.839 1.54546615228e-38
-0.0278823308637 -0.0108431286692 0.837 1.52684751998e-38
-0.0263333124823 -0.0108431286692 0.837 1.58194937819e-38
-0.0247250723708 -0.0108172191622 0.835 1.61850336967e-38
-0.0231797553476 -0.0108172191622 0.835 1.52627144618e-38
-0.0216344383245 -0.0108172191622 0.835 1.46176995812e-38
-0.0200891213013 -0.0108172191622 0.835 1.48020880384e-38
-0.0185438042781 -0.0108172191622 0.835 1.52630689903e-38
-0.0169577723154 -0.0107913096553 0.833 1.48939319423e-38
-0.0154161566504 -0.0107913096553 0.833 1.52623655385e-38
-0.0138412287621 -0.0107654001483 0.831 1.4708119766e-38
-0.0123033144552 -0.0107654001483 0.831 1.49857632346e-38
-0.0107654001483 -0.0107654001483 0.831 1.53534681555e-38
-0.00920527769254 -0.0107394906413 0.829 1.49836192479e-38
-0.00767106474379 -0.0107394906413 0.829 1.53516786974e-38
-0.00613685179503 -0.0107394906413 0.829 1.53520276207e-38
-0.00460263884627 -0.0107394906413 0.829 1.49843184959e-38
-0.00306842589751 -0.0107394906413 0.829 1.37857921232e-38
-0.00153421294876 -0.0107394906413 0.829 1.50765505595e-38
0.0 -0.0107135811343 0.827 1.39719868541e-38
0.00153051159062 -0.0107135811343 0.827 1.53531150283e-38
0.00305362046496 -0.0106876716274 0.825 1.53505940924e-38
0.00458043069744 -0.0106876716274 0.825 1.51662028326e-38
0.00610724092991 -0.0106876716274 0.825 1.3693946818e-38
0.0076155443717 -0.0106617621204 0.823 1.54488993835e-38
0.00913865324604 -0.0106617621204 0.823 1.32362042668e-38
0.0106617621204 -0.0106617621204 0.823 1.40645229995e-38
0.0121848709947 -0.0106617621204 0.823 1.5355259015e-38
0.0137412920923 -0.0106876716274 0.825 1.47095406826e-38
0.0153051159062 -0.0107135811343 0.827 1.57211954972e-38
0.0167949125573 -0.0106876716274 0.825 1.55350105755e-38
0.0183217227897 -0.0106876716274 0.825 1.55339273718e-38
0.0198485330222 -0.0106876716274 0.825 1.52566033992e-38
0.0213753432547 -0.0106876716274 0.825 1.43342757564e-38
0.0229021534872 -0.0106876716274 0.825 1.58086869681e-38
0.0244289637197 -0.0106876716274 0.825 1.57200800637e-38
0.0259557739521 -0.0106876716274 0.825 1.4521901213e-38
0.0304621774868 -0.0106617621204 0.823 1.60888751948e-38
0.0319852863611 -0.0106617621204 0.823 1.42471093868e-38
0.0335083952355 -0.0106617621204 0.823 1.36035336398e-38
0.0350315041098 -0.0106617621204 0.823 1.24982650812e-38
0.0365546129841 -0.0106617621204 0.823 1.21248148366e-38
0.0378926539515 -0.0106099431064 0.819 1.08365913492e-38
0.0394083601096 -0.0106099431064 0.819 1.12957856456e-38
0.0409240662676 -0.0106099431064 0.819 1.05611030776e-38
0.0424397724257 -0.0106099431064 0.819 1.10210106349e-38
0.0439554785838 -0.0106099431064 0.819 1.12057578245e-38
0.0454711847418 -0.0106099431064 0.819 1.07447782739e-38
0.0469868908999 -0.0106099431064 0.819 1.13897847466e-38
0.0485025970579 -0.0106099431064 0.819 1.03774362892e-38
0.0501404480346 -0.0106358526134 0.821 1.08391361073e-38
0.0516598555508 -0.0106358526134 0.821 1.09313317371e-38
0.0564919786017 -0.0106876716274 0.825 1.14819747713e-38
0.0578781372249 -0.0106617621204 0.823 1.10202651442e-38
0.0594012460992 -0.0106617621204 0.823 1.22152126005e-38
0.0609243549736 -0.0106617621204 0.823 1.3602825984e-38
0.0624474638479 -0.0106617621204 0.823 1.60006340292e-38
0.0639705727222 -0.0106617621204 0.823 1.57236954137e-38
0.0654936815966 -0.0106617621204 0.823 1.64677456619e-38
-0.0374429389376 -0.0093607347344 0.843 2.32260946502e-38
-0.0357976852446 -0.00933852658556 0.841 2.35033990046e-38
-0.0342412641471 -0.00933852658556 0.841 1.96232610101e-38
-0.0326848430495 -0.00933852658556 0.841 1.13184530496e-38
-0.0311284219519 -0.00933852658556 0.841 1.5735927348e-38
-0.0295720008543 -0.00933852658556 0.841 1.60982330659e-38
-0.0279489553102 -0.00931631843672 0.839 1.49897275079e-38
-0.0263333124823 -0.00929411028789 0.837 1.58194881767e-38
-0.024784294101 -0.00929411028789 0.837 1.52627284748e-38
-0.0232352757197 -0.00929411028789 0.837 1.5722987758e-38
-0.0216862573384 -0.00929411028789 0.837 1.50779728774e-38
-0.0201372389571 -0.00929411028789 0.837 1.53552730279e-38
-0.0185438042781 -0.00927190213905 0.835 1.46180639188e-38
-0.0169984872549 -0.00927190213905 0.835 1.49864933111e-38
-0.0154161566504 -0.00924969399022 0.833 1.43407721761e-38
-0.0138745409853 -0.00924969399022 0.833 1.4985788458e-38
-0.0123033144552 -0.00922748584138 0.831 1.54478245876e-38
-0.0107654001483 -0.00922748584138 0.831 1.5539304154e-38
-0.00924969399022 -0.00924969399022 0.833 1.51687293738e-38
-0.00768957153448 -0.00922748584138 0.831 1.46137577287e-38
-0.00615165722759 -0.00922748584138 0.831 1.50747260689e-38
-0.00461374292069 -0.00922748584138 0.831 1.51676377623e-38
-0.00306842589751 -0.00920527769254 0.829 1.48903446183e-38
-0.00153421294876 -0.00920527769254 0.829 1.50751086234e-38
0.0 -0.00918306954371 0.827 1.46173478553e-38
0.00153051159062 -0.00918306954371 0.827 1.53534667542e-38
0.00306102318124 -0.00918306954371 0.827 1.3230810669e-38
0.00458043069744 -0.00916086139487 0.825 1.47059435494e-38
0.00610724092991 -0.00916086139487 0.825 1.56307781151e-38
0.00763405116239 -0.00916086139487 0.825 1.47117014848e-38
0.00916086139487 -0.00916086139487 0.825 1.31443785797e-38
0.0106876716274 -0.00916086139487 0.825 1.40645370125e-38
0.0122144818598 -0.00916086139487 0.825 1.29596187785e-38
0.0137746043156 -0.00918306954371 0.827 1.39734175798e-38
0.0153051159062 -0.00918306954371 0.827 1.66449496618e-38
0.0167949125573 -0.00916086139487 0.825 1.30486026323e-38
0.0183217227897 -0.00916086139487 0.825 1.48914250194e-38
0.019896650678 -0.00918306954371 0.827 1.47981349754e-38
0.0213753432547 -0.00916086139487 0.825 1.47970461665e-38
0.0229021534872 -0.00916086139487 0.825 1.49807185601e-38
0.0244289637197 -0.00916086139487 0.825 1.47985021156e-38
0.0258928508638 -0.00913865324604 0.823 1.43378953104e-38
0.0274159597381 -0.00913865324604 0.823 1.46134060027e-38
0.0289390686124 -0.00913865324604 0.823 1.45204915068e-38
0.0304621774868 -0.00913865324604 0.823 1.5166214043e-38
0.0319852863611 -0.00913865324604 0.823 1.4798499313e-38
0.0335083952355 -0.00913865324604 0.823 1.35091884181e-38
0.0350315041098 -0.00913865324604 0.823 1.48010006308e-38
0.0365546129841 -0.00913865324604 0.823 1.5074707852e-38
0.0380777218585 -0.00913865324604 0.823 1.59959438832e-38
0.0395045954212 -0.0091164450972 0.821 1.47981251663e-38
0.0410240029374 -0.0091164450972 0.821 1.51672678195e-38
0.0425434104536 -0.0091164450972 0.821 1.4614815709e-38
0.0439554785838 -0.00909423694836 0.819 1.47984881026e-38
0.0454711847418 -0.00909423694836 0.819 1.53512989455e-38
0.0469868908999 -0.00909423694836 0.819 1.57190010638e-38
0.0485025970579 -0.00909423694836 0.819 1.59034119417e-38
0.0501404480346 -0.0091164450972 0.821 1.5442436595e-38
0.0516598555508 -0.0091164450972 0.821 1.55357014156e-38
0.0533088106019 -0.00913865324604 0.823 1.39687274338e-38
0.0549651683692 -0.00916086139487 0.825 1.55356888039e-38
0.0564919786017 -0.00916086139487 0.825 1.46126535055e-38
0.0578781372249 -0.00913865324604 0.823 1.64547696381e-38
0.0594012460992 -0.00913865324604 0.823 1.67306404642e-38
0.0609243549736 -0.00913865324604 0.823 1.38772464662e-38
0.0624474638479 -0.00913865324604 0.823 1.59080726604e-38
0.0639705727222 -0.00913865324604 0.823 1.40677712093e-38
0.0654936815966 -0.00913865324604 0.823 1.49054618261e-38
-0.0358828164819 -0.00780061227866 0.843 2.2579283305e-38
-0.0343226940261 -0.00780061227866 0.843 2.35051940679e-38
-0.0327625715704 -0.00780061227866 0.843 2.21150569458e-38
-0.0312024491147 -0.00780061227866 0.843 1.26992294979e-38
-0.0295720008543 -0.00778210548797 0.841 1.56390527825e-38
-0.0280155797567 -0.00778210548797 0.841 1.69261916649e-38
-0.0263962355707 -0.00776359869727 0.839 1.5452497918e-38
-0.0248435158313 -0.00776359869727 0.839 1.49875835213e-38
-0.0232907960918 -0.00776359869727 0.839 1.55389622371e-38
-0.0217380763524 -0.00776359869727 0.839 1.49861387826e-38
-0.0201853566129 -0.00776359869727 0.839 1.48953738784e-38
-0.0185882205758 -0.00774509190657 0.837 1.48957298083e-38
-0.0170392021945 -0.00774509190657 0.837 1.61861126965e-38
-0.0154531702318 -0.00772658511588 0.835 1.5356357633e-38
-0.0139078532086 -0.00772658511588 0.835 1.48950249551e-38
-0.0123625361854 -0.00772658511588 0.835 1.45269444862e-38
-0.0108172191622 -0.00772658511588 0.835 1.36971838174e-38
-0.00924969399022 -0.00770807832518 0.833 1.57229765476e-38
-0.00770807832518 -0.00770807832518 0.833 1.39698204467e-38
-0.00616646266014 -0.00770807832518 0.833 1.57200954779e-38
-0.00461374292069 -0.00768957153448 0.831 1.47981363767e-38
-0.00307582861379 -0.00768957153448 0.831 1.35070444314e-38
-0.00153421294876 -0.00767106474379 0.829 1.53506053028e-38
0.0 -0.00767106474379 0.829 1.39716085035e-38
0.00153421294876 -0.00767106474379 0.829 1.40630810633e-38
0.00306102318124 -0.00765255795309 0.827 1.41531214962e-38
0.00459153477185 -0.00765255795309 0.827 1.47988552428e-38
0.00612204636247 -0.00765255795309 0.827 1.56314997838e-38
0.00763405116239 -0.00763405116239 0.825 1.48957410186e-38
0.00916086139487 -0.00763405116239 0.825 1.59095398199e-38
0.0106876716274 -0.00763405116239 0.825 1.360285401e-38
0.0122440927249 -0.00765255795309 0.827 1.33280481708e-38
0.0137746043156 -0.00765255795309 0.827 1.33284139097e-38
0.0153051159062 -0.00765255795309 0.827 1.46180821357e-38
0.0168356274968 -0.00765255795309 0.827 1.39712735932e-38
0.0183661390874 -0.00765255795309 0.827 1.37857893206e-38
0.019896650678 -0.00765255795309 0.827 1.38779709375e-38
0.0214271622687 -0.00765255795309 0.827 1.47992027648e-38
0.0229021534872 -0.00763405116239 0.825 1.45222557415e-38
0.0244289637197 -0.00763405116239 0.825 1.46148339259e-38
0.0258928508638 -0.0076155443717 0.823 1.41542201142e-38
0.0274159597381 -0.0076155443717 0.823 1.46148381298e-38
0.0289390686124 -0.0076155443717 0.823 1.47059575624e-38
0.0304621774868 -0.0076155443717 0.823 1.41517089873e-38
0.0319852863611 -0.0076155443717 0.823 1.48896271534e-38
0.0335083952355 -0.0076155443717 0.823 1.47981391793e-38
0.0350315041098 -0.0076155443717 0.823 1.44304244493e-38
0.0365546129841 -0.0076155443717 0.823 1.5445666588e-38
0.0380777218585 -0.0076155443717 0.823 1.37868683204e-38
0.0396008307328 -0.0076155443717 0.823 1.45244333594e-38
0.0410240029374 -0.007597037581 0.821 1.44322349269e-38
0.0425434104536 -0.007597037581 0.821 1.45237102893e-38
0.0440628179698 -0.007597037581 0.821 1.406273214e-38
0.045582225486 -0.007597037581 0.821 1.48917739427e-38
0.0471016330022 -0.007597037581 0.821 1.52594774623e-38
0.0486210405184 -0.007597037581 0.821 1.42449766105e-38
0.0501404480346 -0.007597037581 0.821 1.44297223987e-38
0.0517857017275 -0.0076155443717 0.823 1.51687125582e-38
0.0533088106019 -0.0076155443717 0.823 1.4524408136e-38
0.0549651683692 -0.00763405116239 0.825 1.43410930735e-38
0.0564919786017 -0.00763405116239 0.825 1.51708565448e-38
0.0580187888342 -0.00763405116239 0.825 1.48006461023e-38
0.0595455990667 -0.00763405116239 0.825 1.53534681555e-38
0.0609243549736 -0.0076155443717 0.823 1.41538347571e-38
0.0624474638479 -0.0076155443717 0.823 1.53559834863e-38
0.0639705727222 -0.0076155443717 0.823 1.54553887967e-38
-0.0344041239052 -0.00625529525549 0.845 2.2308807478e-38
-0.0328403000913 -0.00625529525549 0.845 2.30427711799e-38
-0.0312024491147 -0.00624048982293 0.843 2.00809951534e-38
-0.0295720008543 -0.00622568439037 0.841 1.42607972702e-38
-0.0280155797567 -0.00622568439037 0.841 1.60078324994e-38
-0.0264591586591 -0.00622568439037 0.841 1.5640843642e-38
-0.0249027375615 -0.00622568439037 0.841 1.55432712299e-38
-0.0232907960918 -0.00621087895782 0.839 1.53567219706e-38
-0.0217380763524 -0.00621087895782 0.839 1.54492693263e-38
-0.0202334742687 -0.00622568439037 0.841 1.64637715794e-38
-0.0186326368734 -0.00621087895782 0.839 1.36978984796e-38
-0.017079917134 -0.00621087895782 0.839 1.54496182496e-38
-0.0154901838131 -0.00619607352526 0.837 1.41585249031e-38
-0.0139411654318 -0.00619607352526 0.837 1.54492693263e-38
-0.0123625361854 -0.0061812680927 0.835 1.5358498817e-38
-0.0108172191622 -0.0061812680927 0.835 1.41585108901e-38
-0.00927190213905 -0.0061812680927 0.835 1.5171223685e-38
-0.00770807832518 -0.00616646266014 0.833 1.45240592127e-38
-0.00616646266014 -0.00616646266014 0.833 1.50750777948e-38
-0.00462484699511 -0.00616646266014 0.833 1.61807092897e-38
-0.00307582861379 -0.00615165722759 0.831 1.44289895197e-38
-0.0015379143069 -0.00615165722759 0.831 1.50743589287e-38
0.0 -0.00613685179503 0.829 1.40634355919e-38
0.00153421294876 -0.00613685179503 0.829 1.47088050009e-38
0.00306102318124 -0.00612204636247 0.827 1.49828793623e-38
0.00459153477185 -0.00612204636247 0.827 1.44300727234e-38
0.00612204636247 -0.00612204636247 0.827 1.39719784463e-38
0.00765255795309 -0.00612204636247 0.827 1.27752415318e-38
0.00918306954371 -0.00612204636247 0.827 1.53545709774e-38
0.0107135811343 -0.00612204636247 0.827 1.63665663076e-38
0.0122440927249 -0.00612204636247 0.827 1.62772349318e-38
0.0137746043156 -0.00612204636247 0.827 1.60935653408e-38
0.0153051159062 -0.00612204636247 0.827 1.52627312774e-38
0.0168356274968 -0.00612204636247 0.827 1.34184529412e-38
0.0183661390874 -0.00612204636247 0.827 1.53534681555e-38
0.019896650678 -0.00612204636247 0.827 1.47080861348e-38
0.0214271622687 -0.00612204636247 0.827 1.40619936557e-38
0.0229576738593 -0.00612204636247 0.827 1.40616377259e-38
0.0244289637197 -0.00610724092991 0.825 1.51687125582e-38
0.0259557739521 -0.00610724092991 0.825 1.42474695205e-38
0.0274159597381 -0.00609243549736 0.823 1.4062718127e-38
0.0289390686124 -0.00609243549736 0.823 1.47988552428e-38
0.0304621774868 -0.00609243549736 0.823 1.46130402639e-38
0.0319852863611 -0.00609243549736 0.823 1.47967182627e-38
0.0335083952355 -0.00609243549736 0.823 1.4520483099e-38
0.0350315041098 -0.00609243549736 0.823 1.48888886691e-38
0.0365546129841 -0.00609243549736 0.823 1.45208474366e-38
0.0380777218585 -0.00609243549736 0.823 1.43368219158e-38
0.0396008307328 -0.00609243549736 0.823 1.51662168456e-38
0.0410240029374 -0.0060776300648 0.821 1.53502437678e-38
0.0425434104536 -0.0060776300648 0.821 1.52569691381e-38
0.0440628179698 -0.0060776300648 0.821 1.47030764928e-38
0.045582225486 -0.0060776300648 0.821 1.54406457356e-38
0.0472163751045 -0.00609243549736 0.823 1.52551782786e-38
0.0487394839789 -0.00609243549736 0.823 1.5257696412e-38
0.0502625928532 -0.00609243549736 0.823 1.47974315236e-38
0.0519115479043 -0.00610724092991 0.825 1.51669188962e-38
0.0534383581368 -0.00610724092991 0.825 1.56289634336e-38
0.0550984172622 -0.00612204636247 0.827 1.47080833322e-38
0.0566289288529 -0.00612204636247 0.827 1.48928389295e-38
0.0580187888342 -0.00610724092991 0.825 1.4340039297e-38
0.0595455990667 -0.00610724092991 0.825 1.51701699086e-38
0.0610724092991 -0.00610724092991 0.825 1.62747111932e-38
0.0625992195316 -0.00610724092991 0.825 1.55421880262e-38
0.0641260297641 -0.00610724092991 0.825 1.42611756208e-38
-0.0345669836633 -0.00471367959045 0.849 2.1570523573e-38
-0.0329180286122 -0.00470257551603 0.847 2.1845309794e-38
-0.0312764762774 -0.00469147144162 0.845 2.35012339984e-38
-0.0296423266589 -0.0046803673672 0.843 1.74033646205e-38
-0.0280155797567 -0.00466926329278 0.841 1.44473437269e-38
-0.0264591586591 -0.00466926329278 0.841 1.38012484453e-38
-0.0249027375615 -0.00466926329278 0.841 1.55465040255e-38
-0.0233463164639 -0.00466926329278 0.841 1.50833678765e-38
-0.0217898953663 -0.00466926329278 0.841 1.48060523117e-38
-0.0202815919245 -0.0046803673672 0.843 1.5912751596e-38
-0.0186770531711 -0.00466926329278 0.841 1.48975178651e-38
-0.0171206320735 -0.00466926329278 0.841 1.54496154471e-38
-0.0155642109759 -0.00466926329278 0.841 1.43425532265e-38
-0.0139744776551 -0.00465815921836 0.839 1.5080121068e-38
-0.0123921470505 -0.00464705514394 0.837 1.52652241873e-38
-0.0108431286692 -0.00464705514394 0.837 1.47120420004e-38
-0.00927190213905 -0.00463595106953 0.835 1.49871841512e-38
-0.00772658511588 -0.00463595106953 0.835 1.48931962606e-38
-0.0061812680927 -0.00463595106953 0.835 1.52594690545e-38
-0.00462484699511 -0.00462484699511 0.833 1.47977748417e-38
-0.00308323133007 -0.00462484699511 0.833 1.40602041976e-38
-0.00154161566504 -0.00462484699511 0.833 1.55364020648e-38
0.0 -0.00461374292069 0.831 1.40634327893e-38
0.0015379143069 -0.00461374292069 0.831 1.40630782608e-38
0.00306842589751 -0.00460263884627 0.829 1.47062924728e-38
0.00460263884627 -0.00460263884627 0.829 1.43378756922e-38
0.00613685179503 -0.00460263884627 0.829 1.4340039297e-38
0.00767106474379 -0.00460263884627 0.829 1.35113632333e-38
0.00920527769254 -0.00460263884627 0.829 1.35088507051e-38
0.0107394906413 -0.00460263884627 0.829 1.40591504212e-38
0.0122737035901 -0.00460263884627 0.829 1.34170124064e-38
0.0138079165388 -0.00460263884627 0.829 1.27730835321e-38
0.0153421294876 -0.00460263884627 0.829 1.25876202791e-38
0.0168763424363 -0.00460263884627 0.829 1.38779905557e-38
0.0184105553851 -0.00460263884627 0.829 1.42467590622e-38
0.0199447683338 -0.00460263884627 0.829 1.44304202454e-38
0.0214789812826 -0.00460263884627 0.829 1.45218984104e-38
0.0229576738593 -0.00459153477185 0.827 1.44289895197e-38
0.0244881854499 -0.00459153477185 0.827 1.50757896544e-38
0.0259557739521 -0.00458043069744 0.825 1.44311250985e-38
0.0274825841846 -0.00458043069744 0.825 1.47087881853e-38
0.0290093944171 -0.00458043069744 0.825 1.48002789621e-38
0.0305362046496 -0.00458043069744 0.825 1.41531327066e-38
0.0320630148821 -0.00458043069744 0.825 1.50733051522e-38
0.0335898251145 -0.00458043069744 0.825 1.49803794459e-38
0.0350315041098 -0.00456932662302 0.823 1.47963273004e-38
0.0365546129841 -0.00456932662302 0.823 1.406345521e-38
0.0380777218585 -0.00456932662302 0.823 1.39716225165e-38
0.0396008307328 -0.00456932662302 0.823 1.4709176345e-38
0.0410240029374 -0.0045582225486 0.821 1.46155359764e-38
0.0425434104536 -0.0045582225486 0.821 1.43382288194e-38
0.0440628179698 -0.0045582225486 0.821 1.44300685195e-38
0.045582225486 -0.0045582225486 0.821 1.4707382683e-38
0.0472163751045 -0.00456932662302 0.823 1.46148367285e-38
0.0487394839789 -0.00456932662302 0.823 1.43407721761e-38
0.0502625928532 -0.00456932662302 0.823 1.42496527435e-38
0.0519115479043 -0.00458043069744 0.825 1.42489254696e-38
0.0534383581368 -0.00458043069744 0.825 1.45269430849e-38
0.0550984172622 -0.00459153477185 0.827 1.44354663212e-38
0.0566289288529 -0.00459153477185 0.827 1.40681271391e-38
0.0581594404435 -0.00459153477185 0.827 1.37004334286e-38
0.0596899520341 -0.00459153477185 0.827 1.43461699778e-38
0.0612204636247 -0.00459153477185 0.827 1.38823121602e-38
0.0627509752153 -0.00459153477185 0.827 1.53628428422e-38
0.064281486806 -0.00459153477185 0.827 1.36219270834e-38
-0.0345669836633 -0.0031424530603 0.849 2.21193813529e-38
-0.0329957571332 -0.0031424530603 0.849 2.19339110933e-38
-0.0312764762774 -0.00312764762774 0.845 2.35019570684e-38
-0.0296423266589 -0.00312024491147 0.843 2.25745959616e-38
-0.0280822042032 -0.00312024491147 0.843 1.71292916604e-38
-0.0264591586591 -0.00311284219519 0.841 1.56498427807e-38
-0.0249027375615 -0.00311284219519 0.841 1.48121773873e-38
-0.023401836836 -0.00312024491147 0.843 1.58230923164e-38
-0.0218417143803 -0.00312024491147 0.843 1.5269551397e-38
-0.0203297095803 -0.00312764762774 0.845 1.55446935479e-38
-0.0187214694688 -0.00312024491147 0.843 1.52666661234e-38
-0.0171613470131 -0.00312024491147 0.843 1.52652283912e-38
-0.0156012245573 -0.00312024491147 0.843 1.48942948786e-38
-0.0140077898783 -0.00311284219519 0.841 1.51701685073e-38
-0.0124513687807 -0.00311284219519 0.841 1.39734175798e-38
-0.0108690381762 -0.00310543947891 0.839 1.42507121251e-38
-0.00931631843672 -0.00310543947891 0.839 1.4341461615e-38
-0.00774509190657 -0.00309803676263 0.837 1.47999272361e-38
-0.0061812680927 -0.00309063404635 0.835 1.47981391793e-38
-0.00463595106953 -0.00309063404635 0.835 1.53509626339e-38
-0.00309063404635 -0.00309063404635 0.835 1.41527669677e-38
-0.00154531702318 -0.00309063404635 0.835 1.44307733726e-38
0.0 -0.00308323133007 0.833 1.47095252683e-38
0.00154161566504 -0.00308323133007 0.833 1.46162548425e-38
0.00308323133007 -0.00308323133007 0.833 1.47984881026e-38
0.00461374292069 -0.00307582861379 0.831 1.42456772597e-38
0.00615165722759 -0.00307582861379 0.831 1.4154923566e-38
0.00768957153448 -0.00307582861379 0.831 1.44307929908e-38
0.00920527769254 -0.00306842589751 0.829 1.3689993755e-38
0.0107394906413 -0.00306842589751 0.829 1.47001926205e-38
0.0122737035901 -0.00306842589751 0.829 1.62722000664e-38
0.0138079165388 -0.00306842589751 0.829 1.35074143742e-38
0.0153421294876 -0.00306842589751 0.829 1.4982544452e-38
0.0168763424363 -0.00306842589751 0.829 1.37836369262e-38
0.0184105553851 -0.00306842589751 0.829 1.5258752991e-38
0.0199447683338 -0.00306842589751 0.829 1.44279077172e-38
0.0214789812826 -0.00306842589751 0.829 1.44279133224e-38
0.0230131942314 -0.00306842589751 0.829 1.51644105719e-38
0.0245474071801 -0.00306842589751 0.829 1.31371745043e-38
0.0260186970405 -0.00306102318124 0.827 1.48910326558e-38
0.0275492086311 -0.00306102318124 0.827 1.41545354063e-38
0.0290093944171 -0.00305362046496 0.825 1.43396567426e-38
0.0305362046496 -0.00305362046496 0.825 1.40609342741e-38
0.0320630148821 -0.00305362046496 0.825 1.47052358937e-38
0.0335898251145 -0.00305362046496 0.825 1.49810871016e-38
0.035116635347 -0.00305362046496 0.825 1.44286041626e-38
0.0366434455795 -0.00305362046496 0.825 1.49835954259e-38
0.038170255812 -0.00305362046496 0.825 1.4615538779e-38
0.0396970660444 -0.00305362046496 0.825 1.49832338909e-38
0.0411239396072 -0.00304621774868 0.823 1.43374959403e-38
0.0426470484815 -0.00304621774868 0.823 1.44286125704e-38
0.0441701573558 -0.00304621774868 0.823 1.50736316548e-38
0.0456932662302 -0.00304621774868 0.823 1.47981349754e-38
0.0472163751045 -0.00304621774868 0.823 1.47063092883e-38
0.0488579274393 -0.00305362046496 0.825 1.47999412491e-38
0.0503847376718 -0.00305362046496 0.825 1.48010174463e-38
0.052037394081 -0.00306102318124 0.827 1.41549277699e-38
0.0535679056716 -0.00306102318124 0.827 1.41549277699e-38
0.0550984172622 -0.00306102318124 0.827 1.45233543595e-38
0.0566289288529 -0.00306102318124 0.827 1.43404050359e-38
0.0581594404435 -0.00306102318124 0.827 1.41581745784e-38
0.0596899520341 -0.00306102318124 0.827 1.52656025379e-38
0.0612204636247 -0.00306102318124 0.827 1.48067921973e-38
0.0627509752153 -0.00306102318124 0.827 1.49065422272e-38
-0.0295720008543 -0.00155642109759 0.841 2.26729096606e-38
-0.0280155797567 -0.00155642109759 0.841 2.33121581979e-38
-0.0264591586591 -0.00155642109759 0.841 1.71274937945e-38
-0.0249027375615 -0.00155642109759 0.841 1.3707637504e-38
-0.023401836836 -0.00156012245573 0.843 1.58248999914e-38
-0.0218935333942 -0.00156382381387 0.845 1.53631931669e-38
-0.0203297095803 -0.00156382381387 0.845 1.52684751998e-38
-0.0187658857665 -0.00156382381387 0.845 1.48982535468e-38
-0.0172020619526 -0.00156382381387 0.845 1.54489133965e-38
-0.0156382381387 -0.00156382381387 0.845 1.52620096086e-38
-0.0140411021016 -0.00156012245573 0.843 1.52602187492e-38
-0.0124513687807 -0.00155642109759 0.841 1.52620124112e-38
-0.0108949476832 -0.00155642109759 0.841 1.50783260046e-38
-0.00933852658556 -0.00155642109759 0.841 1.54467385813e-38
-0.00776359869727 -0.00155271973945 0.839 1.498396677e-38
-0.00619607352526 -0.00154901838131 0.837 1.58115862547e-38
-0.00464705514394 -0.00154901838131 0.837 1.51665839858e-38
-0.00309803676263 -0.00154901838131 0.837 1.38761926898e-38
-0.00154901838131 -0.00154901838131 0.837 1.41549137569e-38
0.0 -0.00154531702318 0.835 1.36031791113e-38
0.00154531702318 -0.00154531702318 0.835 1.47084504724e-38
0.00309063404635 -0.00154531702318 0.835 1.46140968429e-38
0.00462484699511 -0.00154161566504 0.833 1.43375099533e-38
0.00616646266014 -0.00154161566504 0.833 1.4614815709e-38
0.00770807832518 -0.00154161566504 0.833 1.47062952754e-38
0.00922748584138 -0.0015379143069 0.831 1.46101437799e-38
0.0107654001483 -0.0015379143069 0.831 1.47902190404e-38
0.0123033144552 -0.0015379143069 0.831 1.36882014943e-38
0.0138412287621 -0.0015379143069 0.831 1.46112452005e-38
0.015379143069 -0.0015379143069 0.831 1.55332014992e-38
0.0169170573759 -0.0015379143069 0.831 1.45194040992e-38
0.0184549716828 -0.0015379143069 0.831 1.41506075667e-38
0.0199928859897 -0.0015379143069 0.831 1.37811019773e-38
0.0215308002966 -0.0015379143069 0.831 1.4609792054e-38
0.0230687146034 -0.0015379143069 0.831 1.48856740905e-38
0.0246066289103 -0.0015379143069 0.831 1.4610529137e-38
0.0260816201289 -0.00153421294876 0.829 1.47963413134e-38
0.0276158330776 -0.00153421294876 0.829 1.46144485688e-38
0.0290797202217 -0.00153051159062 0.827 1.43393036153e-38
0.0306102318124 -0.00153051159062 0.827 1.48917767453e-38
0.032140743403 -0.00153051159062 0.827 1.40605839495e-38
0.0336712549936 -0.00153051159062 0.827 1.47981209624e-38
0.0352017665842 -0.00153051159062 0.827 1.46144149376e-38
0.0367322781748 -0.00153051159062 0.827 1.50765169283e-38
0.0382627897654 -0.00153051159062 0.827 1.46155499894e-38
0.0397933013561 -0.00153051159062 0.827 1.48910494714e-38
0.0413238129467 -0.00153051159062 0.827 1.45222557415e-38
0.0428543245373 -0.00153051159062 0.827 1.43375071507e-38
0.0442774967419 -0.00152681023248 0.825 1.4613745117e-38
0.0458043069744 -0.00152681023248 0.825 1.44304468701e-38
0.0474458593092 -0.00153051159062 0.827 1.42460696233e-38
0.0489763708998 -0.00153051159062 0.827 1.43403938255e-38
0.0505068824904 -0.00153051159062 0.827 1.44329425826e-38
0.052037394081 -0.00153051159062 0.827 1.47999328413e-38
0.0535679056716 -0.00153051159062 0.827 1.50750890052e-38
0.0552316661553 -0.00153421294876 0.829 1.52594830675e-38
0.056765879104 -0.00153421294876 0.829 1.53531178309e-38
0.0583000920528 -0.00153421294876 0.829 1.47095434852e-38
0.0598343050015 -0.00153421294876 0.829 1.64630555159e-38
0.0613685179503 -0.00153421294876 0.829 1.57323414252e-38
-0.0280822042032 0.0 0.843 2.32224919118e-38
-0.0265220817475 0.0 0.843 2.23912949121e-38
-0.0249619592917 0.0 0.843 1.70363925787e-38
-0.023401836836 0.0 0.843 1.3896344763e-38
-0.0219453524082 0.0 0.847 1.44437550016e-38
-0.020425944892 0.0 0.849 1.54528636569e-38
-0.0188547183618 0.0 0.849 1.47113385485e-38
-0.0172427768921 0.0 0.847 1.71073459252e-38
-0.0156752517201 0.0 0.847 1.42507205329e-38
-0.0140744143248 0.0 0.845 1.53592260909e-38
-0.012510590511 0.0 0.845 1.45287521612e-38
-0.0109208571901 0.0 0.843 1.45280332951e-38
-0.0093607347344 0.0 0.843 1.52648780666e-38
-0.00778210548797 0.0 0.841 1.39723441852e-38
-0.00622568439037 0.0 0.841 1.49850625854e-38
-0.00465815921836 0.0 0.839 1.45230054362e-38
-0.00310543947891 0.0 0.839 1.36928804298e-38
-0.00155271973945 0.0 0.839 1.46151870531e-38
0.0 0.0 0.837 1.38765290014e-38
0.00154901838131 0.0 0.837 1.53505716716e-38
0.00309803676263 0.0 0.837 1.44275615965e-38
0.00464705514394 0.0 0.837 1.4798123765e-38
0.0061812680927 0.0 0.835 1.36914244807e-38
0.00772658511588 0.0 0.835 1.47073462492e-38
0.00924969399022 0.0 0.833 1.43378504688e-38
0.0107913096553 0.0 0.833 1.40601817768e-38
0.0123329253203 0.0 0.833 1.49814374262e-38
0.0138745409853 0.0 0.833 1.48888914717e-38
0.0154161566504 0.0 0.833 1.48885341406e-38
0.0169577723154 0.0 0.833 1.28605876148e-38
0.0184993879804 0.0 0.833 1.42435220627e-38
0.0200410036455 0.0 0.833 1.43349988265e-38
0.0215826193105 0.0 0.833 1.45193914875e-38
0.0231242349755 0.0 0.833 1.36892776915e-38
0.0246658506406 0.0 0.833 1.6453355728e-38
0.0261445432172 0.0 0.831 1.45172475008e-38
0.0276824575241 0.0 0.831 1.43346442979e-38
0.0291500460264 0.0 0.829 1.36910699522e-38
0.0306842589751 0.0 0.829 1.41527655664e-38
0.032140743403 0.0 0.827 1.51672678195e-38
0.0336712549936 0.0 0.827 1.44289685002e-38
0.0352017665842 0.0 0.827 1.39679749366e-38
0.0367322781748 0.0 0.827 1.45226200791e-38
0.0383553237189 0.0 0.829 1.41542117064e-38
0.0398895366677 0.0 0.829 1.49828933753e-38
0.0414237496164 0.0 0.829 1.48910494714e-38
0.0429579625652 0.0 0.829 1.50757896544e-38
0.044492175514 0.0 0.829 1.47073602622e-38
0.0460263884627 0.0 0.829 1.42471051829e-38
0.0475606014115 0.0 0.829 1.41538375597e-38
0.0490948143602 0.0 0.829 1.42489114566e-38
0.050629027309 0.0 0.829 1.45251382125e-38
0.0521632402577 0.0 0.829 1.4154923566e-38
0.0536974532065 0.0 0.829 1.50765281387e-38
0.0552316661553 0.0 0.829 1.44322405321e-38
0.056765879104 0.0 0.829 1.48950221525e-38
0.0583000920528 0.0 0.829 1.44362048054e-38
0.0598343050015 0.0 0.829 1.56369059933e-38
-0.0267108510126 0.00157122653015 0.849 2.14722224857e-38
-0.0251396244824 0.00157122653015 0.849 2.3497287942e-38
-0.0235683979523 0.00157122653015 0.849 1.74037345633e-38
-0.0219971714221 0.00157122653015 0.849 1.43555152373e-38
-0.0204740625478 0.00157492788829 0.851 1.53639050265e-38
-0.0188991346595 0.00157492788829 0.851 1.62815383194e-38
-0.0172834918317 0.00157122653015 0.849 1.59116753988e-38
-0.0157122653015 0.00157122653015 0.849 1.58198399026e-38
-0.0141077265481 0.00156752517201 0.847 1.48993241388e-38
-0.0125402013761 0.00156752517201 0.847 1.43447140287e-38
-0.0109467666971 0.00156382381387 0.845 1.44361935951e-38
-0.00938294288323 0.00156382381387 0.845 1.48960955472e-38
-0.00781911906936 0.00156382381387 0.845 1.42500100746e-38
-0.00624048982293 0.00156012245573 0.843 1.46169947281e-38
-0.00466926329278 0.00155642109759 0.841 1.42467702725e-38
-0.00311284219519 0.00155642109759 0.841 1.47073854856e-38
-0.00155642109759 0.00155642109759 0.841 1.53516730922e-38
0.0 0.00155271973945 0.839 1.44300573091e-38
0.00154901838131 0.00154901838131 0.837 1.48906669169e-38
0.00309803676263 0.00154901838131 0.837 1.37829180601e-38
0.00464705514394 0.00154901838131 0.837 1.42453143234e-38
0.00619607352526 0.00154901838131 0.837 1.37843529897e-38
0.00774509190657 0.00154901838131 0.837 1.43389308699e-38
0.00927190213905 0.00154531702318 0.835 1.43393050166e-38
0.0108172191622 0.00154531702318 0.835 1.36017385764e-38
0.0123625361854 0.00154531702318 0.835 1.29542125691e-38
0.0139078532086 0.00154531702318 0.835 1.41513208276e-38
0.0154531702318 0.00154531702318 0.835 1.433571489e-38
0.0169577723154 0.00154161566504 0.833 1.41513236302e-38
0.0184993879804 0.00154161566504 0.833 1.53498696211e-38
0.0200410036455 0.00154161566504 0.833 1.35981526537e-38
0.0215826193105 0.00154161566504 0.833 1.53498696211e-38
0.0231797553476 0.00154531702318 0.835 1.37821865823e-38
0.0246658506406 0.00154161566504 0.833 1.3503080158e-38
0.0262074663056 0.00154161566504 0.833 1.35030815593e-38
0.0277490819706 0.00154161566504 0.833 1.38729430786e-38
0.029220371831 0.0015379143069 0.831 1.35055996927e-38
0.0306842589751 0.00153421294876 0.829 1.47052218807e-38
0.0322184719239 0.00153421294876 0.829 1.46123017796e-38
0.0337526848727 0.00153421294876 0.829 1.40587622615e-38
0.0352868978214 0.00153421294876 0.829 1.23985192552e-38
0.0368211107702 0.00153421294876 0.829 1.4889981682e-38
0.0383553237189 0.00153421294876 0.829 1.38758409638e-38
0.0398895366677 0.00153421294876 0.829 1.35070584444e-38
0.0414237496164 0.00153421294876 0.829 1.39680281859e-38
0.0430616005931 0.0015379143069 0.831 1.40609230637e-38
0.0445995149 0.0015379143069 0.831 1.43382148064e-38
0.0461374292069 0.0015379143069 0.831 1.41538207441e-38
0.0476753435138 0.0015379143069 0.831 1.47984740896e-38
0.0492132578207 0.0015379143069 0.831 1.41563514891e-38
0.0507511721276 0.0015379143069 0.831 1.4156355693e-38
0.0522890864345 0.0015379143069 0.831 1.48921284712e-38
0.0536974532065 0.00153421294876 0.829 1.47995811154e-38
0.0552316661553 0.00153421294876 0.829 1.50772540113e-38
0.056765879104 0.00153421294876 0.829 1.42518163483e-38
0.0583000920528 0.00153421294876 0.829 1.36107685437e-38
0.0598343050015 0.00153421294876 0.829 1.58270635962e-38
-0.0236239183244 0.00314985577658 0.851 2.2293337143e-38
-0.0220489904361 0.00314985577658 0.851 1.92472786191e-38
-0.0204740625478 0.00314985577658 0.851 1.46331769228e-38
-0.0188991346595 0.00314985577658 0.851 1.48132451767e-38
-0.0172834918317 0.0031424530603 0.849 1.50858762008e-38
-0.0157122653015 0.0031424530603 0.849 1.48993269414e-38
-0.0141410387714 0.0031424530603 0.849 1.55436173506e-38
-0.0125402013761 0.00313505034402 0.847 1.52652283912e-38
-0.0109726762041 0.00313505034402 0.847 1.47113385485e-38
-0.00940515103207 0.00313505034402 0.847 1.42489254696e-38
-0.00783762586006 0.00313505034402 0.847 1.52627172644e-38
-0.00625529525549 0.00312764762774 0.845 1.49854115087e-38
-0.00469147144162 0.00312764762774 0.845 1.43386001635e-38
-0.00311284219519 0.00311284219519 0.841 1.44300713221e-38
-0.00155642109759 0.00311284219519 0.841 1.4061286e-38
0.0 0.00311284219519 0.841 1.4154186483e-38
0.00155271973945 0.00310543947891 0.839 1.43385749401e-38
0.00309803676263 0.00309803676263 0.837 1.42449752092e-38
0.00464705514394 0.00309803676263 0.837 1.48917739427e-38
0.00619607352526 0.00309803676263 0.837 1.46144850026e-38
0.00774509190657 0.00309803676263 0.837 1.39705337076e-38
0.00929411028789 0.00309803676263 0.837 1.4338968705e-38
0.0108172191622 0.00309063404635 0.835 1.39709078543e-38
0.0123625361854 0.00309063404635 0.835 1.40602098028e-38
0.0139078532086 0.00309063404635 0.835 1.48888858666e-38
0.0154531702318 0.00309063404635 0.835 1.433571489e-38
0.0169984872549 0.00309063404635 0.835 1.51654755587e-38
0.0185438042781 0.00309063404635 0.835 1.47966958419e-38
0.0200891213013 0.00309063404635 0.835 1.48888914717e-38
0.0216344383245 0.00309063404635 0.835 1.44279133224e-38
0.0231797553476 0.00309063404635 0.835 1.47963385108e-38
0.0247250723708 0.00309063404635 0.835 1.51640224122e-38
0.026270389394 0.00309063404635 0.835 1.53476920032e-38
0.0277490819706 0.00308323133007 0.833 1.45190187421e-38
0.0292906976357 0.00308323133007 0.833 1.4611585716e-38
0.0307582861379 0.00307582861379 0.831 1.50729310056e-38
0.0322962004448 0.00307582861379 0.831 1.47037953589e-38
0.0338341147517 0.00307582861379 0.831 1.47030778941e-38
0.0352868978214 0.00306842589751 0.829 1.4886390154e-38
0.0368211107702 0.00306842589751 0.829 1.42439074198e-38
0.0384478576724 0.00307582861379 0.831 1.45208614496e-38
0.0399857719793 0.00307582861379 0.831 1.4889643969e-38
0.0415236862862 0.00307582861379 0.831 1.42439074198e-38
0.0430616005931 0.00307582861379 0.831 1.47974175106e-38
0.044706854286 0.00308323133007 0.833 1.4798123765e-38
0.0462484699511 0.00308323133007 0.833 1.47052022626e-38
0.0479048277184 0.00309063404635 0.835 1.48895963249e-38
0.0493317012812 0.00308323133007 0.833 1.49846744257e-38
0.0508733169462 0.00308323133007 0.833 1.4246753457e-38
0.0524149326112 0.00308323133007 0.833 1.50754407311e-38
0.0538270007414 0.00307582861379 0.831 1.51683636349e-38
0.0553649150483 0.00307582861379 0.831 1.53549241046e-38
0.0569028293552 0.00307582861379 0.831 1.37944395361e-38
0.0584407436621 0.00307582861379 0.831 1.47228796427e-38
-0.0204740625478 0.00472478366487 0.851 1.85133051082e-38
-0.0188991346595 0.00472478366487 0.851 1.5558366017e-38
-0.0173242067712 0.00472478366487 0.851 1.39856453102e-38
-0.0157492788829 0.00472478366487 0.851 1.46263399876e-38
-0.0141743509946 0.00472478366487 0.851 1.37933451219e-38
-0.0125698122412 0.00471367959045 0.849 1.48971689418e-38
-0.0109726762041 0.00470257551603 0.847 1.4896089942e-38
-0.00940515103207 0.00470257551603 0.847 1.36049909902e-38
-0.00785613265075 0.00471367959045 0.849 1.48024551786e-38
-0.00627010068805 0.00470257551603 0.847 1.3694669888e-38
-0.00470257551603 0.00470257551603 0.847 1.39705323063e-38
-0.00312764762774 0.00469147144162 0.845 1.36935796778e-38
-0.00156012245573 0.0046803673672 0.843 1.4800283166e-38
0.0 0.00466926329278 0.841 1.48917515219e-38
0.00155271973945 0.00465815921836 0.839 1.4707007135e-38
0.00310543947891 0.00465815921836 0.839 1.44293664689e-38
0.00465815921836 0.00465815921836 0.839 1.36918028313e-38
0.00619607352526 0.00464705514394 0.837 1.4337175043e-38
0.00774509190657 0.00464705514394 0.837 1.42453283364e-38
0.00929411028789 0.00464705514394 0.837 1.42449752092e-38
0.0108431286692 0.00464705514394 0.837 1.36006862013e-38
0.0123921470505 0.00464705514394 0.837 1.4613383582e-38
0.0139411654318 0.00464705514394 0.837 1.36914216781e-38
0.0154901838131 0.00464705514394 0.837 1.33226419613e-38
0.0169984872549 0.00463595106953 0.835 1.43367938898e-38
0.0185438042781 0.00463595106953 0.835 1.49821661014e-38
0.0200891213013 0.00463595106953 0.835 1.35992316535e-38
0.0216344383245 0.00463595106953 0.835 1.35992316535e-38
0.0231797553476 0.00463595106953 0.835 1.3875461212e-38
0.0247250723708 0.00463595106953 0.835 1.35974127681e-38
0.026270389394 0.00463595106953 0.835 1.48881487836e-38
0.0278157064172 0.00463595106953 0.835 1.49807171588e-38
0.0293610234403 0.00463595106953 0.835 1.44271958576e-38
0.0308323133007 0.00462484699511 0.833 1.396623032e-38
0.0323739289658 0.00462484699511 0.833 1.44268567434e-38
0.0339155446308 0.00462484699511 0.833 1.41495537903e-38
0.0354571602958 0.00462484699511 0.833 1.31354032631e-38
0.0369987759609 0.00462484699511 0.833 1.44286490041e-38
0.0385403916259 0.00462484699511 0.833 1.31386318547e-38
0.0400820072909 0.00462484699511 0.833 1.40602350262e-38
0.041623622956 0.00462484699511 0.833 1.43364561769e-38
0.043165238621 0.00462484699511 0.833 1.49818087703e-38
0.0448141936721 0.00463595106953 0.835 1.43357120874e-38
0.0463595106953 0.00463595106953 0.835 1.55342552756e-38
0.0479048277184 0.00463595106953 0.835 1.48888914717e-38
0.0494501447416 0.00463595106953 0.835 1.46155359764e-38
0.0509954617648 0.00463595106953 0.835 1.45233403466e-38
0.052540778788 0.00463595106953 0.835 1.44307929908e-38
0.0539565482763 0.00462484699511 0.833 1.49850583815e-38
0.0554981639413 0.00462484699511 0.833 1.48053530638e-38
0.0570397796063 0.00462484699511 0.833 1.43522992573e-38
-0.018965759106 0.006321919702 0.854 1.84221884781e-38
-0.0173852791805 0.006321919702 0.854 1.50059153078e-38
-0.015804799255 0.006321919702 0.854 1.40785668127e-38
-0.0142243193295 0.006321919702 0.854 1.3705829829e-38
-0.0125994231063 0.00629971155316 0.851 1.45319891607e-38
-0.011024495218 0.00629971155316 0.851 1.49915253739e-38
-0.00944956732974 0.00629971155316 0.851 1.35153190988e-38
-0.00787463944145 0.00629971155316 0.851 1.41596067055e-38
-0.00629971155316 0.00629971155316 0.851 1.36053511239e-38
-0.00470257551603 0.00627010068805 0.847 1.48028097071e-38
-0.00312024491147 0.00624048982293 0.843 1.31425638982e-38
-0.00156012245573 0.00624048982293 0.843 1.43407427489e-38
0.0 0.00624048982293 0.843 1.40616391272e-38
0.00155642109759 0.00622568439037 0.841 1.5259114526e-38
0.00311284219519 0.00622568439037 0.841 1.42442577444e-38
0.00466926329278 0.00622568439037 0.841 1.46123242003e-38
0.00622568439037 0.00622568439037 0.841 1.37829124549e-38
0.00776359869727 0.00621087895782 0.839 1.44289923222e-38
0.00931631843672 0.00621087895782 0.839 1.5720081465e-38
0.0108690381762 0.00621087895782 0.839 1.46133807794e-38
0.0124217579156 0.00621087895782 0.839 1.3876531804e-38
0.0139744776551 0.00621087895782 0.839 1.43375099533e-38
0.0155271973945 0.00621087895782 0.839 1.4245317126e-38
0.0170392021945 0.00619607352526 0.837 1.40609258663e-38
0.0185882205758 0.00619607352526 0.837 1.35995917872e-38
0.0201372389571 0.00619607352526 0.837 1.40605699365e-38
0.0216862573384 0.00619607352526 0.837 1.39683743066e-38
0.0232352757197 0.00619607352526 0.837 1.37839844482e-38
0.024784294101 0.00619607352526 0.837 1.39683644975e-38
0.0263333124823 0.00619607352526 0.837 1.40605601274e-38
0.0278823308637 0.00619607352526 0.837 1.36914272833e-38
0.029431349245 0.00619607352526 0.837 1.38751080847e-38
0.0309063404635 0.0061812680927 0.835 1.29531573913e-38
0.0324516574867 0.0061812680927 0.835 1.36903650991e-38
0.0339969745099 0.0061812680927 0.835 1.45201285705e-38
0.0354571602958 0.00616646266014 0.833 1.47956364602e-38
0.0369987759609 0.00616646266014 0.833 1.50750749922e-38
0.0386329255794 0.0061812680927 0.835 1.4614815709e-38
0.0401782426026 0.0061812680927 0.835 1.5352029022e-38
0.0417235596257 0.0061812680927 0.835 1.43378770935e-38
0.0432688766489 0.0061812680927 0.835 1.46137437157e-38
0.0449215330581 0.00619607352526 0.837 1.39687302364e-38
0.0464705514394 0.00619607352526 0.837 1.4520830621e-38
0.0480195698208 0.00619607352526 0.837 1.27687661316e-38
0.0495685882021 0.00619607352526 0.837 1.43403938255e-38
0.0511176065834 0.00619607352526 0.837 1.37886577786e-38
0.0526666249647 0.00619607352526 0.837 1.53563520278e-38
0.0540860958111 0.0061812680927 0.835 1.46213149313e-38
0.0556314128343 0.0061812680927 0.835 1.5641233203e-38
-0.0173852791805 0.0079023996275 0.854 1.8329278186e-38
-0.015804799255 0.0079023996275 0.854 1.45453042987e-38
-0.0142243193295 0.0079023996275 0.854 1.31598559213e-38
-0.012643839404 0.0079023996275 0.854 1.11268731287e-38
-0.0110633594785 0.0079023996275 0.854 1.2507649577e-38
-0.00948287955299 0.0079023996275 0.854 1.38891448915e-38
