# .PCD v0.7 - Point Cloud Data file format
VERSION 0.7
FIELDS x y z rgb
SIZE 4 4 4 4
TYPE F F F F
COUNT 1 1 1 1
WIDTH 835
HEIGHT 1
VIEWPOINT 0 0 0 1 0 0 0
POINTS 835
DATA ascii
-0.0659378445733 -0.0611131242387 0.869 2.20300864109e-38
-0.0643296044618 -0.0611131242387 0.869 2.05542304604e-38
-0.0627213643502 -0.0611131242387 0.869 1.79727500217e-38
-0.061253775848 -0.061253775848 0.871 1.81582202812e-38
-0.0596418343783 -0.061253775848 0.871 1.82511319746e-38
-0.0581631418016 -0.0613944274573 0.873 1.76979581954e-38
-0.0566770465087 -0.0615350790666 0.875 1.83426087383e-38
-0.0550577023227 -0.0615350790666 0.875 1.88950608488e-38
-0.0536215753646 -0.0617460564805 0.878 1.91709288723e-38
-0.0519966791415 -0.0617460564805 0.878 1.90794521085e-38
-0.0503717829183 -0.0617460564805 0.878 2.0093604037e-38
-0.0488579274393 -0.0618867080898 0.88 1.90794535098e-38
-0.047336669244 -0.0620273596991 0.882 1.94482360293e-38
-0.0457043703046 -0.0620273596991 0.882 1.9632627289e-38
-0.0442219763698 -0.062238337113 0.885 1.98166626189e-38
-0.0425841253931 -0.062238337113 0.885 1.94478800995e-38
-0.0409462744165 -0.062238337113 0.885 2.03698363981e-38
-0.0393084234398 -0.062238337113 0.885 1.95415092577e-38
-0.0376705724632 -0.062238337113 0.885 1.94493136278e-38
-0.0359105766679 -0.0620273596991 0.882 1.9909934446e-38
-0.0342782777284 -0.0620273596991 0.882 1.9909934446e-38
-0.0325719516262 -0.0618867080898 0.88 1.90801737772e-38
-0.0309433540449 -0.0618867080898 0.88 1.91727267382e-38
-0.0293147564636 -0.0618867080898 0.88 1.92649167629e-38
-0.0276861588823 -0.0618867080898 0.88 1.92652726927e-38
-0.026057561301 -0.0618867080898 0.88 1.98180961473e-38
-0.0244289637197 -0.0618867080898 0.88 1.96333475564e-38
-0.0228003661383 -0.0618867080898 0.88 1.95411547292e-38
-0.0212198862128 -0.0620273596991 0.882 1.97255487915e-38
-0.0195875872734 -0.0620273596991 0.882 1.94489619019e-38
-0.0179145733944 -0.0618867080898 0.88 1.94489619019e-38
-0.0162859758131 -0.0618867080898 0.88 1.9633350359e-38
-0.0146573782318 -0.0618867080898 0.88 1.96333475564e-38
-0.0130287806505 -0.0618867080898 0.88 1.92652867057e-38
-0.0113742735622 -0.0617460564805 0.878 1.96340664225e-38
-0.00974937733903 -0.0617460564805 0.878 1.94496737615e-38
-0.00814298790655 -0.0618867080898 0.88 1.93578340615e-38
-0.00651439032524 -0.0618867080898 0.88 1.94500296913e-38
-0.00488579274393 -0.0618867080898 0.88 1.94496737615e-38
-0.00324979244634 -0.0617460564805 0.878 1.94496751628e-38
-0.00162489622317 -0.0617460564805 0.878 1.95418735953e-38
0.0 -0.0617460564805 0.878 1.90808926434e-38
0.00162489622317 -0.0617460564805 0.878 1.92652825018e-38
0.00324979244634 -0.0617460564805 0.878 1.95422253212e-38
0.00487468866951 -0.0617460564805 0.878 1.9265635629e-38
0.00649958489268 -0.0617460564805 0.878 1.87124646524e-38
0.00809672092981 -0.0615350790666 0.875 1.93574781316e-38
0.00971606511577 -0.0615350790666 0.875 1.91730910758e-38
0.0113094997948 -0.0613944274573 0.873 1.90805395161e-38
0.0128955317575 -0.061253775848 0.871 1.98184604849e-38
0.0145074732272 -0.061253775848 0.871 1.94496779654e-38
0.0161194146968 -0.061253775848 0.871 1.96340692251e-38
0.0177313561665 -0.061253775848 0.871 1.95415176655e-38
0.0193432976362 -0.061253775848 0.871 1.94496779654e-38
0.0209071214501 -0.0611131242387 0.869 1.93574795329e-38
0.0225153615616 -0.0611131242387 0.869 1.91730868719e-38
0.0241236016732 -0.0611131242387 0.869 1.88046602823e-38
0.0257318417847 -0.0611131242387 0.869 1.8896137046e-38
0.0273400818963 -0.0611131242387 0.869 1.85273545266e-38
-0.067390627643 -0.059367933876 0.867 1.75132166111e-38
-0.0657860888896 -0.059367933876 0.867 2.18464112146e-38
-0.0643296044618 -0.0595048841271 0.869 1.79738318241e-38
-0.0627213643502 -0.0595048841271 0.869 1.82504159111e-38
-0.061253775848 -0.0596418343783 0.871 1.88965041862e-38
-0.0596418343783 -0.0596418343783 0.871 1.81596552108e-38
-0.0581631418016 -0.0597787846294 0.873 1.85277188642e-38
-0.0566770465087 -0.0599157348806 0.875 1.90801737772e-38
-0.0550577023227 -0.0599157348806 0.875 1.92631245021e-38
-0.0536215753646 -0.0601211602573 0.878 1.94460766284e-38
-0.0519966791415 -0.0601211602573 0.878 1.88950608488e-38
-0.0504865250206 -0.0602581105085 0.88 1.97259005174e-38
-0.0489689681835 -0.0603950607596 0.882 1.91723694071e-38
-0.047336669244 -0.0603950607596 0.882 1.91723694071e-38
-0.0457043703046 -0.0603950607596 0.882 1.95411519266e-38
-0.0442219763698 -0.0606004861364 0.885 1.98177416187e-38
-0.0425841253931 -0.0606004861364 0.885 1.9633350359e-38
-0.0409462744165 -0.0606004861364 0.885 1.9633350359e-38
-0.0393084234398 -0.0606004861364 0.885 1.98177388162e-38
-0.0376705724632 -0.0606004861364 0.885 1.95411519266e-38
-0.0360327214865 -0.0606004861364 0.885 1.94489562967e-38
-0.0343948705098 -0.0606004861364 0.885 1.97255431863e-38
-0.0327570195332 -0.0606004861364 0.885 2.0002487407e-38
-0.0310136798495 -0.0603950607596 0.882 2.00946830368e-38
-0.0293813809101 -0.0603950607596 0.882 2.00946802343e-38
-0.0277490819706 -0.0603950607596 0.882 1.99102861719e-38
-0.0261167830312 -0.0603950607596 0.882 1.95415036525e-38
-0.0244844840917 -0.0603950607596 0.882 1.98180961473e-38
-0.0228521851523 -0.0603950607596 0.882 2.00021328785e-38
-0.0212198862128 -0.0603950607596 0.882 2.00939781837e-38
-0.0195875872734 -0.0603950607596 0.882 1.96330014357e-38
-0.0179552883339 -0.0603950607596 0.882 1.96329972318e-38
-0.0163229893945 -0.0603950607596 0.882 1.9909934446e-38
-0.014690690455 -0.0603950607596 0.882 1.97258949122e-38
-0.0130287806505 -0.0602581105085 0.88 2.0002848942e-38
-0.0114001830692 -0.0602581105085 0.88 1.96340664225e-38
-0.00977158548786 -0.0602581105085 0.88 1.93574781316e-38
-0.00814298790655 -0.0602581105085 0.88 1.98188122108e-38
-0.00651439032524 -0.0602581105085 0.88 1.99110078406e-38
-0.00488579274393 -0.0602581105085 0.88 1.9818456281e-38
-0.00325719516262 -0.0602581105085 0.88 1.93574795329e-38
-0.00162489622317 -0.0601211602573 0.878 1.92652867057e-38
0.0 -0.0601211602573 0.878 1.98184604849e-38
0.00162489622317 -0.0601211602573 0.878 1.95418735953e-38
0.00324979244634 -0.0601211602573 0.878 1.91730868719e-38
0.00487468866951 -0.0601211602573 0.878 1.91734428017e-38
0.00649958489268 -0.0601211602573 0.878 1.93578340615e-38
0.00809672092981 -0.0599157348806 0.875 2.01875947302e-38
0.00971606511577 -0.0599157348806 0.875 2.0002848942e-38
0.0113354093017 -0.0599157348806 0.875 1.89886970135e-38
0.0128659208924 -0.0595048841271 0.869 1.92652867057e-38
0.0144741610039 -0.0595048841271 0.869 1.92652867057e-38
0.0161194146968 -0.0596418343783 0.871 1.93574823355e-38
0.0177313561665 -0.0596418343783 0.871 1.93574823355e-38
0.0193432976362 -0.0596418343783 0.871 1.88965041862e-38
0.0209071214501 -0.0595048841271 0.869 1.93574795329e-38
0.0225153615616 -0.0595048841271 0.869 1.96340650212e-38
0.0241236016732 -0.0595048841271 0.869 1.93574781316e-38
0.0257318417847 -0.0595048841271 0.869 2.04634655563e-38
0.0272771588079 -0.059367933876 0.867 1.92652825018e-38
0.0288816975613 -0.059367933876 0.867 1.88964999823e-38
0.0304862363147 -0.059367933876 0.867 1.88972202497e-38
0.0320907750681 -0.059367933876 0.867 1.88046686901e-38
0.0337730423424 -0.0595048841271 0.869 1.92667258392e-38
0.035381282454 -0.0595048841271 0.869 1.97277067911e-38
-0.0703554155126 -0.057563521783 0.864 2.35091681503e-38
-0.0687564287964 -0.057563521783 0.864 8.38656531811e-39
-0.067390627643 -0.0577633951226 0.867 2.35084506855e-38
-0.0657860888896 -0.0577633951226 0.867 1.76976050682e-38
-0.0641815501362 -0.0577633951226 0.867 1.84348071708e-38
-0.0628657173177 -0.0580298929086 0.871 1.8343330407e-38
-0.061253775848 -0.0580298929086 0.871 1.82514949109e-38
-0.0597787846294 -0.0581631418016 0.873 1.84362421004e-38
-0.0582963906946 -0.0582963906946 0.875 1.83433276044e-38
-0.0566770465087 -0.0582963906946 0.875 1.87106709904e-38
-0.0552464715878 -0.0584962640342 0.878 1.88014260854e-38
-0.0537437201832 -0.0586295129272 0.88 1.96304678881e-38
-0.0522335660624 -0.0587627618202 0.882 1.86184739592e-38
-0.0506012671229 -0.0587627618202 0.882 1.88961398486e-38
-0.0491355292998 -0.0589626351597 0.885 1.93567606668e-38
-0.0474976783231 -0.0589626351597 0.885 1.95411519266e-38
-0.0458598273464 -0.0589626351597 0.885 1.98177388162e-38
-0.0442219763698 -0.0589626351597 0.885 1.9633350359e-38
-0.0425841253931 -0.0589626351597 0.885 1.9633350359e-38
-0.0409462744165 -0.0589626351597 0.885 1.98177416187e-38
-0.0393084234398 -0.0589626351597 0.885 1.94496779654e-38
-0.0376705724632 -0.0589626351597 0.885 1.99106561147e-38
-0.0360327214865 -0.0589626351597 0.885 1.97262620524e-38
-0.0343948705098 -0.0589626351597 0.885 1.96340650212e-38
-0.0327570195332 -0.0589626351597 0.885 1.96340650212e-38
-0.0311191685565 -0.0589626351597 0.885 1.94496737615e-38
-0.0294813175799 -0.0589626351597 0.885 2.00028475407e-38
-0.0278434666032 -0.0589626351597 0.885 1.93574781316e-38
-0.0262056156265 -0.0589626351597 0.885 1.98184464719e-38
-0.0245677646499 -0.0589626351597 0.885 1.97258977148e-38
-0.0229299136732 -0.0589626351597 0.885 2.00021328785e-38
-0.0213401803524 -0.0590958840527 0.887 1.96330000344e-38
-0.0196986280176 -0.0590958840527 0.887 2.0093979585e-38
-0.0180163607432 -0.0589626351597 0.885 1.92642147124e-38
-0.0163785097666 -0.0589626351597 0.885 1.98180961473e-38
-0.0147739710132 -0.0590958840527 0.887 1.9726250842e-38
-0.0131324186784 -0.0590958840527 0.887 2.0002848942e-38
-0.0114908663436 -0.0590958840527 0.887 1.96340664225e-38
-0.00977158548786 -0.0586295129272 0.88 1.94496737615e-38
-0.00814298790655 -0.0586295129272 0.88 1.95422253212e-38
-0.00651439032524 -0.0586295129272 0.88 1.8989051542e-38
-0.00488579274393 -0.0586295129272 0.88 1.96340650212e-38
-0.00325719516262 -0.0586295129272 0.88 2.03716314614e-38
-0.00162859758131 -0.0586295129272 0.88 1.95418735953e-38
0.0 -0.0586295129272 0.88 1.99103001849e-38
0.00162859758131 -0.0586295129272 0.88 1.98184604849e-38
0.00324979244634 -0.0584962640342 0.878 1.96340664225e-38
0.00487468866951 -0.0584962640342 0.878 1.97266165809e-38
0.00649958489268 -0.0584962640342 0.878 1.95422225186e-38
0.00809672092981 -0.0582963906946 0.875 1.91734428017e-38
0.00971606511577 -0.0582963906946 0.875 1.94496737615e-38
0.0113354093017 -0.0582963906946 0.875 1.96340664225e-38
0.0128659208924 -0.0578966440156 0.869 1.98184604849e-38
0.0144741610039 -0.0578966440156 0.869 1.9726264855e-38
0.0161194146968 -0.0580298929086 0.871 1.91730910758e-38
0.0177313561665 -0.0580298929086 0.871 2.01872402017e-38
0.0193432976362 -0.0580298929086 0.871 1.98184576823e-38
0.0209071214501 -0.0578966440156 0.869 1.96340650212e-38
0.0225153615616 -0.0578966440156 0.869 1.91730868719e-38
0.0241236016732 -0.0578966440156 0.869 1.96340650212e-38
0.0257318417847 -0.0578966440156 0.869 2.00950431706e-38
0.0272771588079 -0.0577633951226 0.867 1.89886970135e-38
0.0288816975613 -0.0577633951226 0.867 1.90808926434e-38
0.0304862363147 -0.0577633951226 0.867 1.93574795329e-38
0.0320907750681 -0.0577633951226 0.867 1.95425896588e-38
0.0336953138215 -0.0577633951226 0.867 1.88968643199e-38
0.0351777077563 -0.057563521783 0.864 1.9542233729e-38
0.0367766944725 -0.057563521783 0.864 1.76061255018e-38
0.0383756811887 -0.057563521783 0.864 2.00010538787e-38
-0.0717878411125 -0.055834987532 0.862 2.35091681503e-38
-0.0701925557545 -0.055834987532 0.862 5.43594222618e-39
-0.0687564287964 -0.0559645350669 0.864 2.35088066153e-38
-0.0671574420802 -0.0559645350669 0.864 1.91730910758e-38
-0.0657860888896 -0.0561588563692 0.867 1.71455032823e-38
-0.0641815501362 -0.0561588563692 0.867 1.76972421319e-38
-0.0628657173177 -0.0564179514389 0.871 1.80660246513e-38
-0.061253775848 -0.0564179514389 0.871 1.85277216668e-38
-0.0597787846294 -0.0565474989738 0.873 1.90816115095e-38
-0.0582963906946 -0.0566770465087 0.875 1.84355232343e-38
-0.056871367811 -0.056871367811 0.878 1.90801737772e-38
-0.0553723177646 -0.0570009153459 0.88 1.89865376126e-38
-0.0538658650018 -0.0571304628807 0.882 2.00921649035e-38
-0.0524112312531 -0.0573247841831 0.885 1.93571179979e-38
-0.0507733802764 -0.0573247841831 0.885 1.93574781316e-38
-0.0491355292998 -0.0573247841831 0.885 2.0002848942e-38
-0.0474976783231 -0.0573247841831 0.885 1.94496751628e-38
-0.0458598273464 -0.0573247841831 0.885 1.96340664225e-38
-0.0442219763698 -0.0573247841831 0.885 1.96340692251e-38
-0.0425841253931 -0.0573247841831 0.885 1.91730910758e-38
-0.0409462744165 -0.0573247841831 0.885 1.95418735953e-38
-0.0393084234398 -0.0573247841831 0.885 2.01868870745e-38
-0.0376705724632 -0.0573247841831 0.885 1.99103001849e-38
-0.0360327214865 -0.0573247841831 0.885 1.95418707927e-38
-0.0344725990308 -0.0574543317179 0.887 2.00950431706e-38
-0.032831046696 -0.0574543317179 0.887 1.96340650212e-38
-0.0311894943612 -0.0574543317179 0.887 1.94496737615e-38
-0.0295479420264 -0.0574543317179 0.887 1.99106533121e-38
-0.0279063896916 -0.0574543317179 0.887 1.98184576823e-38
-0.0262648373568 -0.0574543317179 0.887 2.01868758641e-38
-0.024623285022 -0.0574543317179 0.887 1.95415064551e-38
-0.0229817326872 -0.0574543317179 0.887 1.95411519266e-38
-0.0213401803524 -0.0574543317179 0.887 1.98177444213e-38
-0.0196986280176 -0.0574543317179 0.887 2.00939753811e-38
-0.0180570756828 -0.0574543317179 0.887 1.98177416187e-38
-0.016415523348 -0.0574543317179 0.887 1.99102917771e-38
-0.0147739710132 -0.0574543317179 0.887 2.00946802343e-38
-0.0131324186784 -0.0574543317179 0.887 1.98184576823e-38
-0.0114908663436 -0.0574543317179 0.887 1.94496751628e-38
-0.00982710585995 -0.0573247841831 0.885 2.01872388004e-38
-0.00818925488329 -0.0573247841831 0.885 1.99110078406e-38
-0.0065291957578 -0.0571304628807 0.882 2.05563772497e-38
-0.00489689681835 -0.0571304628807 0.882 1.96340650212e-38
-0.00325719516262 -0.0570009153459 0.88 1.99106533121e-38
-0.00162859758131 -0.0570009153459 0.88 1.98184604849e-38
0.0 -0.0570009153459 0.88 1.9818104555e-38
0.00162859758131 -0.0570009153459 0.88 1.94496779654e-38
0.00325719516262 -0.0570009153459 0.88 1.92652839031e-38
0.00487468866951 -0.056871367811 0.878 1.9634420951e-38
0.00649958489268 -0.056871367811 0.878 2.01875947302e-38
0.00809672092981 -0.0566770465087 0.875 1.98188122108e-38
0.00971606511577 -0.0566770465087 0.875 1.97262606511e-38
0.0113354093017 -0.0566770465087 0.875 1.98184576823e-38
0.0129251426226 -0.0565474989738 0.873 1.90805395161e-38
0.0145407854504 -0.0565474989738 0.873 1.96337132953e-38
0.0161564282782 -0.0565474989738 0.873 1.95418735953e-38
0.0177720711061 -0.0565474989738 0.873 1.96340664225e-38
0.0193432976362 -0.0564179514389 0.871 1.95418693914e-38
0.0209552391059 -0.0564179514389 0.871 1.97262606511e-38
0.0225153615616 -0.056288403904 0.869 2.00950445719e-38
0.0241236016732 -0.056288403904 0.869 2.0002848942e-38
0.0257318417847 -0.056288403904 0.869 2.01872402017e-38
0.0273400818963 -0.056288403904 0.869 1.97262620524e-38
0.0289483220078 -0.056288403904 0.869 1.98184576823e-38
0.0304862363147 -0.0561588563692 0.867 1.96340664225e-38
0.0320907750681 -0.0561588563692 0.867 1.91730882732e-38
0.0336953138215 -0.0561588563692 0.867 1.99106533121e-38
0.0351777077563 -0.0559645350669 0.864 1.93574795329e-38
0.0367766944725 -0.0559645350669 0.864 1.93574795329e-38
0.0382868485934 -0.055834987532 0.862 1.95400757293e-38
0.0398821339514 -0.055834987532 0.862 1.88947063203e-38
-0.0728723390474 -0.0538621636437 0.856 2.21255120337e-38
-0.0712881577637 -0.0538621636437 0.856 1.45636697164e-38
-0.0700296959964 -0.0541138559972 0.86 2.32289799237e-38
-0.0685972703964 -0.0542397021739 0.862 2.21226295627e-38
-0.0671574420802 -0.0543655483507 0.864 1.68681975266e-38
-0.0657860888896 -0.0545543176158 0.867 1.81596538095e-38
-0.0641815501362 -0.0545543176158 0.867 1.92634888397e-38
-0.0628657173177 -0.0548060099692 0.871 1.91709330762e-38
-0.061253775848 -0.0548060099692 0.871 1.88035896903e-38
-0.0597787846294 -0.054931856146 0.873 1.87121101239e-38
-0.0584962640342 -0.0552464715878 0.878 1.79752639511e-38
-0.056871367811 -0.0552464715878 0.878 1.95418707927e-38
-0.0554981639413 -0.0554981639413 0.882 1.94493136278e-38
-0.0540490822297 -0.0556869332064 0.885 1.89872564787e-38
-0.0524112312531 -0.0556869332064 0.885 2.03712699264e-38
-0.0507733802764 -0.0556869332064 0.885 1.93574781316e-38
-0.0491355292998 -0.0556869332064 0.885 1.96340664225e-38
-0.0474976783231 -0.0556869332064 0.885 1.95418707927e-38
-0.0458598273464 -0.0556869332064 0.885 1.98184576823e-38
-0.0442219763698 -0.0556869332064 0.885 1.98184604849e-38
-0.0425841253931 -0.0556869332064 0.885 1.93574823355e-38
-0.0409462744165 -0.0556869332064 0.885 1.96340692251e-38
-0.0393972560352 -0.0558127793831 0.887 2.02798043731e-38
-0.0377557037004 -0.0558127793831 0.887 2.01876059406e-38
-0.0361141513656 -0.0558127793831 0.887 2.00954075082e-38
-0.0344725990308 -0.0558127793831 0.887 1.96347838873e-38
-0.032831046696 -0.0558127793831 0.887 1.9727335447e-38
-0.0311894943612 -0.0558127793831 0.887 1.96347838873e-38
-0.0295479420264 -0.0558127793831 0.887 1.99113721782e-38
-0.0279063896916 -0.0558127793831 0.887 2.0187603138e-38
-0.0262648373568 -0.0558127793831 0.887 2.00943257057e-38
-0.024623285022 -0.0558127793831 0.887 2.02787169655e-38
-0.0229817326872 -0.0558127793831 0.887 2.02790742966e-38
-0.0213401803524 -0.0558127793831 0.887 2.00024846044e-38
-0.0196986280176 -0.0558127793831 0.887 1.99102889745e-38
-0.0180570756828 -0.0558127793831 0.887 1.99102889745e-38
-0.016415523348 -0.0558127793831 0.887 1.98180961473e-38
-0.0147739710132 -0.0558127793831 0.887 2.02787169655e-38
-0.0131324186784 -0.0558127793831 0.887 2.00028517446e-38
-0.0114908663436 -0.0558127793831 0.887 1.95418707927e-38
-0.00982710585995 -0.0556869332064 0.885 2.03716300601e-38
-0.00818925488329 -0.0556869332064 0.885 1.97266165809e-38
-0.00655140390664 -0.0556869332064 0.885 1.97266165809e-38
-0.00489689681835 -0.0554981639413 0.882 2.00028475407e-38
-0.00325719516262 -0.0553723177646 0.88 1.96340664225e-38
-0.00162859758131 -0.0553723177646 0.88 1.99106561147e-38
0.0 -0.0553723177646 0.88 2.02794386342e-38
0.00162859758131 -0.0553723177646 0.88 2.02794358316e-38
0.00325719516262 -0.0553723177646 0.88 2.00950431706e-38
0.00487468866951 -0.0552464715878 0.878 1.97266165809e-38
0.00649958489268 -0.0552464715878 0.878 1.95422253212e-38
0.00812448111586 -0.0552464715878 0.878 1.94496737615e-38
0.00971606511577 -0.0550577023227 0.875 1.94496751628e-38
0.0113354093017 -0.0550577023227 0.875 1.9726264855e-38
0.0129547534877 -0.0550577023227 0.875 1.95415204681e-38
0.0145407854504 -0.054931856146 0.873 1.9818104555e-38
0.0161564282782 -0.054931856146 0.873 2.00950473744e-38
0.0177720711061 -0.054931856146 0.873 2.02794344303e-38
0.0193877139339 -0.054931856146 0.873 1.98188122108e-38
0.0209552391059 -0.0548060099692 0.871 1.95418693914e-38
0.0225671805756 -0.0548060099692 0.871 1.94496751628e-38
0.0241791220453 -0.0548060099692 0.871 1.96340692251e-38
0.0257318417847 -0.0546801637925 0.869 1.9080895446e-38
0.0273400818963 -0.0546801637925 0.869 1.92652867057e-38
0.0289483220078 -0.0546801637925 0.869 1.96340664225e-38
0.0305565621193 -0.0546801637925 0.869 1.96340664225e-38
0.0320907750681 -0.0545543176158 0.867 1.98184576823e-38
0.0335787210401 -0.0543655483507 0.864 1.86191956279e-38
0.0351777077563 -0.0543655483507 0.864 2.00943257057e-38
0.0367766944725 -0.0543655483507 0.864 1.93567606668e-38
0.0382868485934 -0.0542397021739 0.862 1.9080895446e-38
0.0398821339514 -0.0542397021739 0.862 1.85277216668e-38
0.0414774193095 -0.0542397021739 0.862 1.94496779654e-38
-0.0728723390474 -0.0522779823601 0.856 2.22169887974e-38
-0.0712881577637 -0.0522779823601 0.856 1.38257445437e-38
-0.0698668362382 -0.0524001271787 0.858 2.35084450803e-38
-0.0684381119964 -0.0525222719973 0.86 1.50235660633e-38
-0.0670019850384 -0.0526444168159 0.862 1.91730868719e-38
-0.0657860888896 -0.0529497788624 0.867 1.78830669199e-38
-0.0641815501362 -0.0529497788624 0.867 1.90787374463e-38
-0.0628657173177 -0.0531940684996 0.871 1.91698540764e-38
-0.0613944274573 -0.0533162133182 0.873 1.89869019502e-38
-0.0599157348806 -0.0534383581368 0.875 1.88965013836e-38
-0.0584962640342 -0.0536215753646 0.878 1.88972202497e-38
-0.056871367811 -0.0536215753646 0.878 1.871282899e-38
-0.0554981639413 -0.0538658650018 0.882 1.88964999823e-38
-0.0540490822297 -0.0540490822297 0.885 1.88039442188e-38
-0.0524112312531 -0.0540490822297 0.885 1.99106519108e-38
-0.0507733802764 -0.0540490822297 0.885 1.94496737615e-38
-0.0492465700439 -0.0541712270483 0.887 1.95418707927e-38
-0.0476050177091 -0.0541712270483 0.887 2.0002848942e-38
-0.0459634653743 -0.0541712270483 0.887 2.02794358316e-38
-0.0443219130396 -0.0541712270483 0.887 1.98184604849e-38
-0.0425841253931 -0.0540490822297 0.885 2.00950473744e-38
-0.0409462744165 -0.0540490822297 0.885 1.99106561147e-38
-0.0393972560352 -0.0541712270483 0.887 2.04641956328e-38
-0.0377557037004 -0.0541712270483 0.887 1.97266305939e-38
-0.0361141513656 -0.0541712270483 0.887 1.97266249887e-38
-0.0344725990308 -0.0541712270483 0.887 2.01879576665e-38
-0.032831046696 -0.0541712270483 0.887 2.01883135963e-38
-0.0311894943612 -0.0541712270483 0.887 2.03723489263e-38
-0.0295479420264 -0.0541712270483 0.887 2.0095763438e-38
-0.0279063896916 -0.0541712270483 0.887 1.99110162484e-38
-0.0262648373568 -0.0541712270483 0.887 2.02783666409e-38
-0.024623285022 -0.0541712270483 0.887 2.01865241382e-38
-0.0229817326872 -0.0541712270483 0.887 1.98180933447e-38
-0.0213882980082 -0.0542933718669 0.889 2.03716188498e-38
-0.0196986280176 -0.0541712270483 0.887 2.03716188498e-38
-0.0180570756828 -0.0541712270483 0.887 1.98180905421e-38
-0.016415523348 -0.0541712270483 0.887 2.02787169655e-38
-0.0147739710132 -0.0541712270483 0.887 2.083154042e-38
-0.0131324186784 -0.0541712270483 0.887 2.0555669594e-38
-0.0114908663436 -0.0541712270483 0.887 2.01872402017e-38
-0.00982710585995 -0.0540490822297 0.885 2.03716300601e-38
-0.00818925488329 -0.0540490822297 0.885 2.02797903601e-38
-0.00655140390664 -0.0540490822297 0.885 1.98188122108e-38
-0.00489689681835 -0.0538658650018 0.882 1.97262606511e-38
-0.0032645978789 -0.0538658650018 0.882 2.02794358316e-38
-0.00162859758131 -0.0537437201832 0.88 2.01872430043e-38
0.0 -0.0537437201832 0.88 1.99106533121e-38
0.00162859758131 -0.0537437201832 0.88 1.9818456281e-38
0.00325719516262 -0.0537437201832 0.88 1.97266165809e-38
0.00487468866951 -0.0536215753646 0.878 2.00032006679e-38
0.00649958489268 -0.0536215753646 0.878 2.037198599e-38
0.00812448111586 -0.0536215753646 0.878 2.03716300601e-38
0.00971606511577 -0.0534383581368 0.875 2.00028517446e-38
0.0113354093017 -0.0534383581368 0.875 2.00946914446e-38
0.0129547534877 -0.0534383581368 0.875 2.02790883096e-38
0.0145407854504 -0.0533162133182 0.873 2.00024958148e-38
0.0161564282782 -0.0533162133182 0.873 2.00028517446e-38
0.0177720711061 -0.0533162133182 0.873 1.96340650212e-38
0.0193877139339 -0.0533162133182 0.873 1.97266165809e-38
0.0209552391059 -0.0531940684996 0.871 2.01872388004e-38
0.0225671805756 -0.0531940684996 0.871 1.95418707927e-38
0.0241791220453 -0.0531940684996 0.871 2.02794386342e-38
0.0257318417847 -0.053071923681 0.869 2.02794386342e-38
0.0273400818963 -0.053071923681 0.869 2.00950473744e-38
0.0289483220078 -0.053071923681 0.869 1.98184604849e-38
0.0305565621193 -0.053071923681 0.869 2.01872402017e-38
0.0320907750681 -0.0529497788624 0.867 1.9909934446e-38
0.0335787210401 -0.0527665616345 0.864 1.95411519266e-38
0.0351777077563 -0.0527665616345 0.864 2.00021300759e-38
0.0367766944725 -0.0527665616345 0.864 1.93567606668e-38
0.0382868485934 -0.0526444168159 0.862 1.89901389496e-38
0.0398821339514 -0.0526444168159 0.862 1.96355083587e-38
0.0414774193095 -0.0526444168159 0.862 1.84369651704e-38
0.0430727046675 -0.0526444168159 0.862 1.88979433197e-38
-0.0746304841636 -0.0508122445369 0.858 2.35088094179e-38
-0.0730426015218 -0.0508122445369 0.858 6.45045989358e-39
-0.07145471888 -0.0508122445369 0.858 2.35070157559e-38
-0.0698668362382 -0.0508122445369 0.858 1.84351757123e-38
-0.0684381119964 -0.0509306879973 0.86 1.78819991305e-38
-0.0670019850384 -0.0510491314578 0.862 1.88961482564e-38
-0.0657860888896 -0.051345240109 0.867 1.9080895446e-38
-0.0641815501362 -0.051345240109 0.867 1.898725788e-38
-0.0628657173177 -0.0515821270299 0.871 1.84333680373e-38
-0.0613944274573 -0.0517005704903 0.873 1.88947119255e-38
-0.0599157348806 -0.0518190139508 0.875 1.87110437358e-38
-0.0584962640342 -0.0519966791415 0.878 1.87114052708e-38
-0.056871367811 -0.0519966791415 0.878 1.89887110265e-38
-0.0554981639413 -0.0522335660624 0.882 1.97262746641e-38
-0.0540490822297 -0.0524112312531 0.885 1.88968699251e-38
-0.0524112312531 -0.0524112312531 0.885 1.95418735953e-38
-0.0507733802764 -0.0524112312531 0.885 1.9726264855e-38
-0.0492465700439 -0.0525296747135 0.887 1.98184604849e-38
-0.0476050177091 -0.0525296747135 0.887 1.98184604849e-38
-0.0459634653743 -0.0525296747135 0.887 1.96340692251e-38
-0.0443219130396 -0.0525296747135 0.887 1.98184604849e-38
-0.0425841253931 -0.0524112312531 0.885 2.00028517446e-38
-0.0409462744165 -0.0524112312531 0.885 2.01872430043e-38
-0.0393972560352 -0.0525296747135 0.887 1.9911019051e-38
-0.0377557037004 -0.0525296747135 0.887 2.00032146809e-38
-0.0361141513656 -0.0525296747135 0.887 2.00032118783e-38
-0.0344725990308 -0.0525296747135 0.887 2.0095763438e-38
-0.032831046696 -0.0525296747135 0.887 1.99113721782e-38
-0.0311894943612 -0.0525296747135 0.887 2.03723503276e-38
-0.0295479420264 -0.0525296747135 0.887 2.02801532964e-38
-0.0279063896916 -0.0525296747135 0.887 2.00035678081e-38
-0.0262648373568 -0.0525296747135 0.887 2.03712811368e-38
-0.024623285022 -0.0525296747135 0.887 2.00024986174e-38
-0.0229817326872 -0.0525296747135 0.887 2.01872430043e-38
-0.0213882980082 -0.052648118174 0.889 1.96340650212e-38
-0.0197430443153 -0.052648118174 0.889 2.10169994692e-38
-0.0180570756828 -0.0525296747135 0.887 2.01872388004e-38
-0.016415523348 -0.0525296747135 0.887 2.05560255238e-38
-0.0147739710132 -0.0525296747135 0.887 1.99103001849e-38
-0.0131324186784 -0.0525296747135 0.887 2.0002848942e-38
-0.0114908663436 -0.0525296747135 0.887 2.02794358316e-38
-0.00984931400879 -0.0525296747135 0.887 2.01868870745e-38
-0.00820776167399 -0.0525296747135 0.887 2.0279085507e-38
-0.00655140390664 -0.0524112312531 0.885 2.05556723966e-38
-0.00489689681835 -0.0522335660624 0.882 1.96340664225e-38
-0.0032645978789 -0.0522335660624 0.882 2.037198599e-38
-0.00162859758131 -0.0521151226019 0.88 2.03719803848e-38
0.0 -0.0521151226019 0.88 2.00953962978e-38
0.00162859758131 -0.0521151226019 0.88 2.00032034705e-38
0.00325719516262 -0.0521151226019 0.88 2.01875919276e-38
0.00487468866951 -0.0519966791415 0.878 2.02797875575e-38
0.00649958489268 -0.0519966791415 0.878 1.97266165809e-38
0.00812448111586 -0.0519966791415 0.878 1.99106533121e-38
0.00971606511577 -0.0518190139508 0.875 1.9818104555e-38
0.0113354093017 -0.0518190139508 0.875 1.99103029875e-38
0.0129547534877 -0.0518190139508 0.875 2.07400608537e-38
0.0145740976737 -0.0518190139508 0.875 2.00950473744e-38
0.0161934418596 -0.0518190139508 0.875 2.01872402017e-38
0.0177720711061 -0.0517005704903 0.873 2.01872388004e-38
0.0193877139339 -0.0517005704903 0.873 2.04641816198e-38
0.0210033567617 -0.0517005704903 0.873 2.01875919276e-38
0.0225671805756 -0.0515821270299 0.871 2.02797875575e-38
0.0241791220453 -0.0515821270299 0.871 2.10173525964e-38
0.0257910635149 -0.0515821270299 0.871 1.99110078406e-38
0.0273400818963 -0.0514636835694 0.869 1.9818456281e-38
0.0289483220078 -0.0514636835694 0.869 1.93574781316e-38
0.0305565621193 -0.0514636835694 0.869 1.95418693914e-38
0.0321648022309 -0.0514636835694 0.869 1.92652825018e-38
0.0336953138215 -0.051345240109 0.867 2.02794344303e-38
0.0351777077563 -0.0511675749183 0.864 1.99106519108e-38
0.0367766944725 -0.0511675749183 0.864 1.9818456281e-38
0.0383756811887 -0.0511675749183 0.864 1.99106561147e-38
0.0398821339514 -0.0510491314578 0.862 1.9172735146e-38
0.0414774193095 -0.0510491314578 0.862 1.95415176655e-38
0.0430727046675 -0.0510491314578 0.862 1.89883438863e-38
-0.0746304841636 -0.0492243618951 0.858 1.53005186917e-38
-0.0730426015218 -0.0492243618951 0.858 2.35059325522e-38
-0.07145471888 -0.0492243618951 0.858 1.93571320109e-38
-0.0698668362382 -0.0492243618951 0.858 1.80663931928e-38
-0.0684381119964 -0.0493391039974 0.86 1.88039582317e-38
-0.0670019850384 -0.0494538460997 0.862 1.80663903902e-38
-0.0657860888896 -0.0497407013555 0.867 1.86195613668e-38
-0.0641815501362 -0.0497407013555 0.867 1.86184753605e-38
-0.0628657173177 -0.0499701855602 0.871 1.92634888397e-38
-0.0613944274573 -0.0500849276625 0.873 2.00939753811e-38
-0.0599157348806 -0.0501996697648 0.875 1.88954363968e-38
-0.0584962640342 -0.0503717829183 0.878 1.95411659395e-38
-0.0570009153459 -0.0504865250206 0.88 1.91731022862e-38
-0.0554981639413 -0.0506012671229 0.882 1.96340790342e-38
-0.0540490822297 -0.0507733802764 0.885 1.92656524446e-38
-0.0524112312531 -0.0507733802764 0.885 1.96340692251e-38
-0.0508881223787 -0.0508881223787 0.887 1.98184604849e-38
-0.0492465700439 -0.0508881223787 0.887 1.99106561147e-38
-0.0476050177091 -0.0508881223787 0.887 1.99106561147e-38
-0.0459634653743 -0.0508881223787 0.887 1.99106561147e-38
-0.0443219130396 -0.0508881223787 0.887 2.00028517446e-38
-0.0426803607048 -0.0508881223787 0.887 2.01872430043e-38
-0.04103880837 -0.0508881223787 0.887 2.00950473744e-38
-0.0393972560352 -0.0508881223787 0.887 2.02797987679e-38
-0.0377557037004 -0.0508881223787 0.887 2.03719943977e-38
-0.0361141513656 -0.0508881223787 0.887 2.0187603138e-38
-0.0344725990308 -0.0508881223787 0.887 1.98191765484e-38
-0.032831046696 -0.0508881223787 0.887 1.97269809185e-38
-0.0311894943612 -0.0508881223787 0.887 2.0095763438e-38
-0.0295479420264 -0.0508881223787 0.887 1.98191751471e-38
-0.0279063896916 -0.0508881223787 0.887 2.00035664068e-38
-0.026324059087 -0.0510028644811 0.889 2.03712783342e-38
-0.024623285022 -0.0508881223787 0.887 2.0279085507e-38
-0.0229817326872 -0.0508881223787 0.887 2.04638298939e-38
-0.0213882980082 -0.0510028644811 0.889 1.99106533121e-38
-0.0197430443153 -0.0510028644811 0.889 2.0648218351e-38
-0.0180570756828 -0.0508881223787 0.887 2.01872402017e-38
-0.016415523348 -0.0508881223787 0.887 2.00024958148e-38
-0.0147739710132 -0.0508881223787 0.887 2.00946914446e-38
-0.0131324186784 -0.0508881223787 0.887 2.0648218351e-38
-0.0114908663436 -0.0508881223787 0.887 2.04638298939e-38
-0.00984931400879 -0.0508881223787 0.887 1.98181073576e-38
-0.00820776167399 -0.0508881223787 0.887 2.01868926797e-38
-0.00655140390664 -0.0507733802764 0.885 2.04634795693e-38
-0.00491355292998 -0.0507733802764 0.885 2.09248080432e-38
-0.0032645978789 -0.0506012671229 0.882 2.03719831874e-38
-0.00163229893945 -0.0506012671229 0.882 1.9911356764e-38
0.0 -0.0504865250206 0.88 2.02797875575e-38
0.00162859758131 -0.0504865250206 0.88 2.01875947302e-38
0.00325719516262 -0.0504865250206 0.88 2.04641788172e-38
0.00487468866951 -0.0503717829183 0.878 2.02797875575e-38
0.00649958489268 -0.0503717829183 0.878 2.037198599e-38
0.00812448111586 -0.0503717829183 0.878 2.04638270913e-38
0.00974937733903 -0.0503717829183 0.878 2.02790827044e-38
0.0113742735622 -0.0503717829183 0.878 2.03712839394e-38
0.0129547534877 -0.0501996697648 0.875 2.01872430043e-38
0.0145740976737 -0.0501996697648 0.875 2.02794358316e-38
0.0161934418596 -0.0501996697648 0.875 2.046382569e-38
0.0178127860456 -0.0501996697648 0.875 2.00028475407e-38
0.0193877139339 -0.0500849276625 0.873 2.00032034705e-38
0.0210033567617 -0.0500849276625 0.873 2.037198599e-38
0.0226189995895 -0.0500849276625 0.873 1.95422225186e-38
0.0241791220453 -0.0499701855602 0.871 2.00953962978e-38
0.0257910635149 -0.0499701855602 0.871 2.01875947302e-38
0.0274030049846 -0.0499701855602 0.871 2.02794344303e-38
0.0290149464543 -0.0499701855602 0.871 1.99106519108e-38
0.0305565621193 -0.0498554434579 0.869 1.96340650212e-38
0.0321648022309 -0.0498554434579 0.869 1.96340650212e-38
0.0337730423424 -0.0498554434579 0.869 1.97262606511e-38
0.0352998525749 -0.0497407013555 0.867 1.92652825018e-38
0.0367766944725 -0.0495685882021 0.864 1.99106519108e-38
0.0383756811887 -0.0495685882021 0.864 2.02787197681e-38
0.0398821339514 -0.0494538460997 0.862 1.97259089252e-38
0.0414774193095 -0.0494538460997 0.862 1.97259089252e-38
0.0430727046675 -0.0494538460997 0.862 1.89883438863e-38
0.0445643519977 -0.0493391039974 0.86 1.88046714927e-38
0.0461559359976 -0.0493391039974 0.86 1.91734540121e-38
-0.0776248828983 -0.0475254385092 0.856 2.350988001e-38
-0.0760407016146 -0.0475254385092 0.856 2.35091625451e-38
-0.074456520331 -0.0475254385092 0.856 1.30881795048e-38
-0.0730426015218 -0.0476364792533 0.858 2.28605603405e-38
-0.07145471888 -0.0476364792533 0.858 1.92649335785e-38
-0.0698668362382 -0.0476364792533 0.858 1.84351729097e-38
-0.0684381119964 -0.0477475199975 0.86 1.88039554291e-38
-0.0670019850384 -0.0478585607417 0.862 1.84351701071e-38
-0.0659378445733 -0.0482472033463 0.869 1.93574823355e-38
-0.0643296044618 -0.0482472033463 0.869 1.91723722097e-38
-0.0630100702851 -0.0484692848347 0.873 1.88957853201e-38
-0.0613944274573 -0.0484692848347 0.873 1.91723750123e-38
-0.0599157348806 -0.0485803255789 0.875 1.91727379486e-38
-0.0584962640342 -0.0487468866951 0.878 1.96337160979e-38
-0.0570009153459 -0.0488579274393 0.88 1.90805395161e-38
-0.0554981639413 -0.0489689681835 0.882 1.9542233729e-38
-0.0540490822297 -0.0491355292998 0.885 1.97269809185e-38
-0.0524112312531 -0.0491355292998 0.885 1.9726264855e-38
-0.0508881223787 -0.0492465700439 0.887 2.00028517446e-38
-0.0492465700439 -0.0492465700439 0.887 2.00028517446e-38
-0.0476050177091 -0.0492465700439 0.887 2.00950473744e-38
-0.0459634653743 -0.0492465700439 0.887 2.07404167835e-38
-0.0443219130396 -0.0492465700439 0.887 2.00028517446e-38
-0.0426803607048 -0.0492465700439 0.887 2.00950473744e-38
-0.04103880837 -0.0492465700439 0.887 2.00950473744e-38
-0.0393972560352 -0.0492465700439 0.887 2.00954075082e-38
-0.0377557037004 -0.0492465700439 0.887 2.03719943977e-38
-0.0361141513656 -0.0492465700439 0.887 2.04641900276e-38
-0.0344725990308 -0.0492465700439 0.887 2.01879590678e-38
-0.032831046696 -0.0492465700439 0.887 2.12943066262e-38
-0.0311894943612 -0.0492465700439 0.887 2.0095763438e-38
-0.0295479420264 -0.0492465700439 0.887 2.09255227054e-38
-0.0279063896916 -0.0492465700439 0.887 2.10177183353e-38
-0.026324059087 -0.0493576107881 0.889 2.06482211536e-38
-0.024623285022 -0.0492465700439 0.887 2.07400608537e-38
-0.0229817326872 -0.0492465700439 0.887 2.10170036731e-38
-0.0213882980082 -0.0493576107881 0.889 2.0648218351e-38
-0.0197430443153 -0.0493576107881 0.889 1.9818456281e-38
-0.0180570756828 -0.0492465700439 0.887 2.05560227212e-38
-0.016415523348 -0.0492465700439 0.887 2.02790827044e-38
-0.0147739710132 -0.0492465700439 0.887 2.01868898771e-38
-0.0131324186784 -0.0492465700439 0.887 1.96340692251e-38
-0.0114908663436 -0.0492465700439 0.887 2.01872430043e-38
-0.00984931400879 -0.0492465700439 0.887 2.03712811368e-38
-0.00820776167399 -0.0492465700439 0.887 2.09244577186e-38
-0.00656620933919 -0.0492465700439 0.887 1.99103029875e-38
-0.00491355292998 -0.0491355292998 0.885 2.05560255238e-38
-0.00327570195332 -0.0491355292998 0.885 1.99110078406e-38
-0.00163229893945 -0.0489689681835 0.882 2.04645333457e-38
0.0 -0.0489689681835 0.882 2.04641816198e-38
0.00162859758131 -0.0488579274393 0.88 2.01875947302e-38
0.00325719516262 -0.0488579274393 0.88 2.05563744471e-38
0.00488579274393 -0.0488579274393 0.88 2.00953962978e-38
0.00651439032524 -0.0488579274393 0.88 2.02797903601e-38
0.00812448111586 -0.0487468866951 0.878 2.03716314614e-38
0.00974937733903 -0.0487468866951 0.878 2.02790827044e-38
0.0113742735622 -0.0487468866951 0.878 2.0279085507e-38
0.0129991697854 -0.0487468866951 0.878 2.01872402017e-38
0.0146240660085 -0.0487468866951 0.878 2.02797903601e-38
0.0162489622317 -0.0487468866951 0.878 2.01875947302e-38
0.0178127860456 -0.0485803255789 0.875 2.00032034705e-38
0.0194321302315 -0.0485803255789 0.875 2.046382569e-38
0.0210514744175 -0.0485803255789 0.875 2.00950431706e-38
0.0226189995895 -0.0484692848347 0.873 2.01872388004e-38
0.0242346424173 -0.0484692848347 0.873 2.046382569e-38
0.0257910635149 -0.0483582440905 0.871 2.02794358316e-38
0.0274030049846 -0.0483582440905 0.871 2.0002848942e-38
0.0290149464543 -0.0483582440905 0.871 1.96340664225e-38
0.0305565621193 -0.0482472033463 0.869 2.02794358316e-38
0.0321648022309 -0.0482472033463 0.869 2.04638270913e-38
0.0337730423424 -0.0482472033463 0.869 2.03716314614e-38
0.0351777077563 -0.0479696014859 0.864 1.97262620524e-38
0.0367766944725 -0.0479696014859 0.864 1.95418707927e-38
0.0383756811887 -0.0479696014859 0.864 1.9633350359e-38
0.0398821339514 -0.0478585607417 0.862 1.97259089252e-38
0.0414774193095 -0.0478585607417 0.862 1.95415176655e-38
0.0429727679978 -0.0477475199975 0.86 1.93571264057e-38
0.0445643519977 -0.0477475199975 0.86 1.94500409017e-38
0.0461559359976 -0.0477475199975 0.86 1.95422365316e-38
0.0477475199975 -0.0477475199975 0.86 1.92667286418e-38
-0.0776248828983 -0.0459412572255 0.856 2.35098786087e-38
-0.0760407016146 -0.0459412572255 0.856 7.46496074539e-39
-0.074456520331 -0.0459412572255 0.856 2.35088038127e-38
-0.0730426015218 -0.0460485966116 0.858 1.77901566279e-38
-0.07145471888 -0.0460485966116 0.858 1.88961482564e-38
-0.0698668362382 -0.0460485966116 0.858 1.88039526266e-38
-0.0685972703964 -0.0462632753836 0.862 1.90805395161e-38
-0.0671574420802 -0.0463706147697 0.864 1.86199172966e-38
-0.0657860888896 -0.0465316238487 0.867 1.92652839031e-38
-0.0643296044618 -0.0466389632348 0.869 1.898798095e-38
-0.0630100702851 -0.0468536420069 0.873 1.91723722097e-38
-0.0615350790666 -0.0469609813929 0.875 1.92652867057e-38
-0.0599157348806 -0.0469609813929 0.875 1.9080895446e-38
-0.0584962640342 -0.047121990472 0.878 1.98184604849e-38
-0.0570009153459 -0.047229329858 0.88 1.95418707927e-38
-0.0554981639413 -0.047336669244 0.882 2.00950431706e-38
-0.0540490822297 -0.0474976783231 0.885 1.97266165809e-38
-0.0524112312531 -0.0474976783231 0.885 1.97262620524e-38
-0.0508881223787 -0.0476050177091 0.887 1.99106561147e-38
-0.0492465700439 -0.0476050177091 0.887 2.00028517446e-38
-0.0476050177091 -0.0476050177091 0.887 2.00028517446e-38
-0.0459634653743 -0.0476050177091 0.887 2.0371634264e-38
-0.0443219130396 -0.0476050177091 0.887 2.01872430043e-38
-0.0426803607048 -0.0476050177091 0.887 2.08326124134e-38
-0.0411313423234 -0.0477123570952 0.889 2.00950473744e-38
-0.0394860886305 -0.0477123570952 0.889 2.00032118783e-38
-0.0378408349376 -0.0477123570952 0.889 2.0187603138e-38
-0.0361955812446 -0.0477123570952 0.889 2.02797987679e-38
-0.0345503275517 -0.0477123570952 0.889 2.03723503276e-38
-0.0329050738588 -0.0477123570952 0.889 2.02801546977e-38
-0.0312598201658 -0.0477123570952 0.889 1.97269809185e-38
-0.0296145664729 -0.0477123570952 0.889 2.01879576665e-38
-0.0279693127799 -0.0477123570952 0.889 2.03723489263e-38
-0.026324059087 -0.0477123570952 0.889 2.06482211536e-38
-0.024623285022 -0.0476050177091 0.887 2.04638298939e-38
-0.0229817326872 -0.0476050177091 0.887 2.07404139809e-38
-0.0213882980082 -0.0477123570952 0.889 2.08326082095e-38
-0.0197430443153 -0.0477123570952 0.889 2.00950431706e-38
-0.0180570756828 -0.0476050177091 0.887 2.0648218351e-38
-0.016415523348 -0.0476050177091 0.887 2.06478652238e-38
-0.0147739710132 -0.0476050177091 0.887 2.03712811368e-38
-0.0131324186784 -0.0476050177091 0.887 2.08326124134e-38
-0.0114908663436 -0.0476050177091 0.887 2.08326124134e-38
-0.00984931400879 -0.0476050177091 0.887 2.01868870745e-38
-0.00820776167399 -0.0476050177091 0.887 2.01868898771e-38
-0.00656620933919 -0.0476050177091 0.887 2.11088461757e-38
-0.00492465700439 -0.0476050177091 0.887 2.04638298939e-38
-0.00327570195332 -0.0474976783231 0.885 2.05563772497e-38
-0.00163785097666 -0.0474976783231 0.885 2.06485700769e-38
0.0 -0.047336669244 0.882 2.1017355399e-38
0.00163229893945 -0.047336669244 0.882 2.02794344303e-38
0.00325719516262 -0.047229329858 0.88 2.08329641393e-38
0.00488579274393 -0.047229329858 0.88 2.05563744471e-38
0.00651439032524 -0.047229329858 0.88 2.04641816198e-38
0.00814298790655 -0.047229329858 0.88 2.0648218351e-38
0.00974937733903 -0.047121990472 0.878 2.06482211536e-38
0.0113742735622 -0.047121990472 0.878 2.0924454916e-38
0.0129991697854 -0.047121990472 0.878 2.01875947302e-38
0.0146240660085 -0.047121990472 0.878 2.08329613367e-38
0.0162489622317 -0.047121990472 0.878 2.08329613367e-38
0.0178738584549 -0.047121990472 0.878 2.08329641393e-38
0.0194321302315 -0.0469609813929 0.875 2.09248052406e-38
0.0210514744175 -0.0469609813929 0.875 2.05560227212e-38
0.0226708186035 -0.0469609813929 0.875 2.05560255238e-38
0.0242346424173 -0.0468536420069 0.873 2.0555669594e-38
0.0258502852452 -0.0468536420069 0.873 2.0371634264e-38
0.0274030049846 -0.0467463026208 0.871 2.0371634264e-38
0.0290149464543 -0.0467463026208 0.871 2.00950473744e-38
0.030626887924 -0.0467463026208 0.871 2.02794386342e-38
0.0321648022309 -0.0466389632348 0.869 1.9726264855e-38
0.0337730423424 -0.0466389632348 0.869 2.00028517446e-38
0.0351777077563 -0.0463706147697 0.864 2.02794386342e-38
0.0367766944725 -0.0463706147697 0.864 2.05560255238e-38
0.0383756811887 -0.0463706147697 0.864 2.00021328785e-38
0.0398821339514 -0.0462632753836 0.862 2.00950473744e-38
0.0414774193095 -0.0462632753836 0.862 1.93574823355e-38
0.0429727679978 -0.0461559359976 0.86 1.98184604849e-38
0.0445643519977 -0.0461559359976 0.86 1.9542233729e-38
0.0460485966116 -0.0460485966116 0.858 1.88968643199e-38
0.0475254385092 -0.0459412572255 0.856 1.92667258392e-38
0.0491096197928 -0.0459412572255 0.856 1.98198996184e-38
-0.0776248828983 -0.0443570759419 0.856 1.97269795172e-38
-0.0760407016146 -0.0443570759419 0.856 1.79745436837e-38
-0.074456520331 -0.0443570759419 0.856 2.12013921302e-38
-0.0730426015218 -0.0444607139698 0.858 1.93574823355e-38
-0.07145471888 -0.0444607139698 0.858 1.87117569967e-38
-0.0698668362382 -0.0444607139698 0.858 1.83429744772e-38
-0.0685972703964 -0.0446679900256 0.862 1.89886998161e-38
-0.067390627643 -0.0449270850953 0.867 1.91730882732e-38
-0.0657860888896 -0.0449270850953 0.867 1.88964999823e-38
-0.0646257131129 -0.045237999179 0.873 1.84355260369e-38
-0.0631544232525 -0.0453416372069 0.875 1.98184604849e-38
-0.0615350790666 -0.0453416372069 0.875 1.94496751628e-38
-0.0599157348806 -0.0453416372069 0.875 1.98184576823e-38
-0.0584962640342 -0.0454970942488 0.878 1.97262606511e-38
-0.0570009153459 -0.0456007322767 0.88 1.98188122108e-38
-0.0554981639413 -0.0457043703046 0.882 2.01868758641e-38
-0.0540490822297 -0.0458598273464 0.885 1.99102861719e-38
-0.0524112312531 -0.0458598273464 0.885 2.04638270913e-38
-0.0508881223787 -0.0459634653743 0.887 1.9726264855e-38
-0.0492465700439 -0.0459634653743 0.887 2.0371634264e-38
-0.0476050177091 -0.0459634653743 0.887 2.00950473744e-38
-0.0459634653743 -0.0459634653743 0.887 2.07404167835e-38
-0.0443219130396 -0.0459634653743 0.887 2.07404167835e-38
-0.0427765960164 -0.0460671034023 0.889 2.05560255238e-38
-0.0411313423234 -0.0460671034023 0.889 2.00950473744e-38
-0.0395749212258 -0.0461707414302 0.891 1.98188206186e-38
-0.0378408349376 -0.0460671034023 0.889 2.02797987679e-38
-0.0361955812446 -0.0460671034023 0.889 2.04641900276e-38
-0.0345503275517 -0.0460671034023 0.889 2.05567415873e-38
-0.0329050738588 -0.0460671034023 0.889 2.10177197366e-38
-0.0312598201658 -0.0460671034023 0.889 2.03723503276e-38
-0.0296145664729 -0.0460671034023 0.889 2.08333270756e-38
-0.0279693127799 -0.0460671034023 0.889 2.06489358158e-38
-0.026324059087 -0.0460671034023 0.889 2.02794358316e-38
-0.024623285022 -0.0459634653743 0.887 2.0648218351e-38
-0.0229817326872 -0.0459634653743 0.887 2.12013907289e-38
-0.0213882980082 -0.0460671034023 0.889 2.11095510289e-38
-0.0197430443153 -0.0460671034023 0.889 1.9818456281e-38
-0.0180977906223 -0.0460671034023 0.889 2.0648218351e-38
-0.0164525369294 -0.0460671034023 0.889 2.07400608537e-38
-0.0147739710132 -0.0459634653743 0.887 2.00946942472e-38
-0.0131324186784 -0.0459634653743 0.887 2.0371634264e-38
-0.0114908663436 -0.0459634653743 0.887 2.04638270913e-38
-0.00984931400879 -0.0459634653743 0.887 2.00950473744e-38
-0.00820776167399 -0.0459634653743 0.887 2.07400608537e-38
-0.00656620933919 -0.0459634653743 0.887 2.07400608537e-38
-0.00492465700439 -0.0459634653743 0.887 2.04638270913e-38
-0.00327570195332 -0.0458598273464 0.885 2.10169994692e-38
-0.00163785097666 -0.0458598273464 0.885 2.05563772497e-38
0.0 -0.0458598273464 0.885 2.05560213199e-38
0.00163229893945 -0.0457043703046 0.882 2.05560213199e-38
0.00325719516262 -0.0456007322767 0.88 2.05563772497e-38
0.00488579274393 -0.0456007322767 0.88 2.04641816198e-38
0.00651439032524 -0.0456007322767 0.88 2.11095510289e-38
0.00814298790655 -0.0456007322767 0.88 2.12013907289e-38
0.00977158548786 -0.0456007322767 0.88 2.08326124134e-38
0.0113742735622 -0.0454970942488 0.878 1.99103001849e-38
0.0129991697854 -0.0454970942488 0.878 2.06485728795e-38
0.0146240660085 -0.0454970942488 0.878 2.10173497938e-38
0.0162489622317 -0.0454970942488 0.878 2.06485700769e-38
0.0178738584549 -0.0454970942488 0.878 2.00028475407e-38
0.0194321302315 -0.0453416372069 0.875 2.0648218351e-38
0.0210514744175 -0.0453416372069 0.875 2.04638298939e-38
0.0226708186035 -0.0453416372069 0.875 2.03712811368e-38
0.0242901627894 -0.0453416372069 0.875 2.05556723966e-38
0.0258502852452 -0.045237999179 0.873 2.11091993029e-38
0.027465928073 -0.045237999179 0.873 2.0371634264e-38
0.0290149464543 -0.0451343611511 0.871 2.02794386342e-38
0.030626887924 -0.0451343611511 0.871 2.00950473744e-38
0.0322388293937 -0.0451343611511 0.871 2.07404167835e-38
0.0337730423424 -0.0450307231232 0.869 2.01872430043e-38
0.0352998525749 -0.0449270850953 0.867 2.00950473744e-38
0.0367766944725 -0.0447716280535 0.864 2.00950473744e-38
0.0383756811887 -0.0447716280535 0.864 1.98177416187e-38
0.0398821339514 -0.0446679900256 0.862 2.01872430043e-38
0.0414774193095 -0.0446679900256 0.862 2.0371634264e-38
0.0429727679978 -0.0445643519977 0.86 1.91730910758e-38
0.0445643519977 -0.0445643519977 0.86 1.93578424692e-38
0.0460485966116 -0.0444607139698 0.858 1.92656468394e-38
0.0475254385092 -0.0443570759419 0.856 1.96355083587e-38
0.0491096197928 -0.0443570759419 0.856 2.01886821378e-38
-0.0774435163495 -0.0426729579885 0.854 1.40097686633e-38
-0.075863036424 -0.0426729579885 0.854 2.30453033262e-38
-0.074456520331 -0.0427728946582 0.856 1.91730910758e-38
-0.0730426015218 -0.042872831328 0.858 1.86195613668e-38
-0.07145471888 -0.042872831328 0.858 1.90805423187e-38
-0.0698668362382 -0.042872831328 0.858 1.91727379486e-38
-0.0685972703964 -0.0430727046675 0.862 1.89883438863e-38
-0.067390627643 -0.0433225463419 0.867 1.87121129265e-38
-0.0657860888896 -0.0433225463419 0.867 1.94496751628e-38
-0.0646257131129 -0.0436223563512 0.873 1.94500380991e-38
-0.0631544232525 -0.043722293021 0.875 1.92656468394e-38
-0.0615350790666 -0.043722293021 0.875 1.94496751628e-38
-0.0599157348806 -0.043722293021 0.875 1.9818456281e-38
-0.0584962640342 -0.0438721980256 0.878 2.01875947302e-38
-0.0570009153459 -0.0439721346954 0.88 2.01868786667e-38
-0.0554981639413 -0.0440720713651 0.882 2.01868786667e-38
-0.0540490822297 -0.0442219763698 0.885 2.00946830368e-38
-0.0524112312531 -0.0442219763698 0.885 2.00950473744e-38
-0.0508881223787 -0.0443219130396 0.887 2.05560255238e-38
-0.0492465700439 -0.0443219130396 0.887 1.99106561147e-38
-0.0477123570952 -0.0444218497093 0.889 2.01872430043e-38
-0.0460671034023 -0.0444218497093 0.889 2.10170036731e-38
-0.0444218497093 -0.0444218497093 0.889 2.01872430043e-38
-0.0427765960164 -0.0444218497093 0.889 2.07404167835e-38
-0.0412238762769 -0.0445217863791 0.891 2.00028517446e-38
-0.0395749212258 -0.0445217863791 0.891 1.98188206186e-38
-0.0379259661748 -0.0445217863791 0.891 2.04641900276e-38
-0.0361955812446 -0.0444218497093 0.889 2.05563856575e-38
-0.0345503275517 -0.0444218497093 0.889 2.04645459574e-38
-0.0329050738588 -0.0444218497093 0.889 2.09255241067e-38
