# .PCD v0.7 - Point Cloud Data file format
VERSION 0.7
FIELDS x y z rgb
SIZE 4 4 4 4
TYPE F F F F
COUNT 1 1 1 1
WIDTH 852
HEIGHT 1
VIEWPOINT 0 0 0 1 0 0 0
POINTS 852
DATA ascii
0.0382868485934 -0.027119851087 0.862 2.28627071298e-38
0.0397895999979 -0.0270569279986 0.86 2.24010059105e-38
0.0412849486862 -0.0269940049102 0.858 2.23080942171e-38
0.0424231163141 -0.0267108510126 0.849 2.2492129547e-38
0.0437870667884 -0.0265850048358 0.845 2.13857861925e-38
0.0451362118302 -0.0264591586591 0.841 2.18471272782e-38
0.0465815921836 -0.0263962355707 0.839 1.98202653573e-38
0.0479048277184 -0.026270389394 0.835 2.35095268827e-38
0.0494501447416 -0.026270389394 0.835 8.84901062692e-39
0.0509954617648 -0.026270389394 0.835 2.1111382526e-38
-0.0749784118287 -0.0255245657289 0.862 1.95422365316e-38
-0.0733831264706 -0.0255245657289 0.862 2.02797987679e-38
-0.0719544022288 -0.0255837874591 0.864 2.05563856575e-38
-0.0705997051498 -0.0256726200545 0.867 2.08333284769e-38
-0.0691543247964 -0.0257318417847 0.869 2.12943066262e-38
-0.0677015417267 -0.0257910635149 0.871 2.1570537586e-38
-0.0662413559407 -0.0258502852452 0.873 2.14783419561e-38
-0.0647737674385 -0.0259095069754 0.875 2.12939563016e-38
0.0293147564636 -0.026057561301 0.88 2.286379734e-38
0.0307675395333 -0.0259095069754 0.875 2.35095268827e-38
0.0322388293937 -0.0257910635149 0.871 2.24020989233e-38
0.0338507708634 -0.0257910635149 0.871 2.35088066153e-38
0.035381282454 -0.0257318417847 0.869 2.27701625766e-38
0.0367766944725 -0.0255837874591 0.864 2.28623582065e-38
0.0382868485934 -0.0255245657289 0.862 2.14801370194e-38
0.0397895999979 -0.0254653439987 0.86 2.28630714674e-38
0.0412849486862 -0.0254061222684 0.858 2.17563637753e-38
0.0423231796443 -0.0250804027522 0.847 2.22162629248e-38
0.0437870667884 -0.025021181022 0.845 2.16627332158e-38
0.0451362118302 -0.0249027375615 0.841 2.14794209559e-38
0.0465815921836 -0.0248435158313 0.839 2.03737922637e-38
0.0479048277184 -0.0247250723708 0.835 2.35095268827e-38
0.0494501447416 -0.0247250723708 0.835 1.14315560525e-38
-0.0748044479961 -0.0238737599988 0.86 1.98191765484e-38
-0.0732128639962 -0.0238737599988 0.86 2.08333284769e-38
-0.0717878411125 -0.0239292803708 0.862 2.10177197366e-38
-0.0705997051498 -0.0240680813011 0.867 2.08333284769e-38
-0.0691543247964 -0.0241236016732 0.869 2.09255241067e-38
-0.0677015417267 -0.0241791220453 0.871 2.13865022561e-38
-0.0662413559407 -0.0242346424173 0.873 2.13865022561e-38
-0.0647737674385 -0.0242901627894 0.875 2.18471272782e-38
0.0293147564636 -0.0244289637197 0.88 2.29559929699e-38
0.0307675395333 -0.0242901627894 0.875 2.35095268827e-38
0.0322388293937 -0.0241791220453 0.871 2.31396639622e-38
0.0338507708634 -0.0241791220453 0.871 2.33233363558e-38
0.0352998525749 -0.0240680813011 0.867 2.33233363558e-38
0.0367766944725 -0.0239848007429 0.864 2.32311407259e-38
0.0382868485934 -0.0239292803708 0.862 2.23099004908e-38
0.0397895999979 -0.0238737599988 0.86 2.29552698998e-38
0.0412849486862 -0.0238182396267 0.858 2.18482034754e-38
0.0423231796443 -0.0235128775802 0.847 2.2215906995e-38
0.0434761527047 -0.0232907960918 0.839 2.13861463262e-38
0.0450288724442 -0.0232907960918 0.839 2.19403991052e-38
0.0464705514394 -0.0232352757197 0.837 2.02815966338e-38
0.0480195698208 -0.0232352757197 0.837 2.35095226788e-38
0.0495685882021 -0.0232352757197 0.837 1.34602130367e-38
-0.0748044479961 -0.0222821759988 0.86 2.06489372171e-38
-0.0732128639962 -0.0222821759988 0.86 2.11099153665e-38
-0.0717878411125 -0.0223339950128 0.862 2.10177197366e-38
-0.0705997051498 -0.0224635425477 0.867 2.04645459574e-38
-0.0691543247964 -0.0225153615616 0.869 2.17552847755e-38
-0.0677015417267 -0.0225671805756 0.871 2.12943066262e-38
-0.0662413559407 -0.0226189995895 0.873 2.20318716651e-38
0.0292481320171 -0.0227485471244 0.878 2.32325798594e-38
0.0307675395333 -0.0226708186035 0.875 2.3509166749e-38
0.0322388293937 -0.0225671805756 0.871 2.31396639622e-38
0.0337730423424 -0.0225153615616 0.869 2.3509166749e-38
0.0351777077563 -0.0223858140267 0.864 2.34155319856e-38
0.0366915632353 -0.0223339950128 0.862 2.34155319856e-38
0.038198015998 -0.0222821759988 0.86 2.24020961207e-38
0.0397895999979 -0.0222821759988 0.86 2.26786830103e-38
0.0412849486862 -0.0222303569849 0.858 2.2124790365e-38
0.042023369635 -0.0217898953663 0.841 2.24924938846e-38
0.0434761527047 -0.0217380763524 0.839 2.20315157353e-38
0.0450288724442 -0.0217380763524 0.839 2.19403991052e-38
0.0464705514394 -0.0216862573384 0.837 2.16645310818e-38
0.0480195698208 -0.0216862573384 0.837 2.35095226788e-38
-0.0748044479961 -0.0206905919989 0.86 2.04641900276e-38
-0.0732128639962 -0.0206905919989 0.86 2.04641900276e-38
-0.0719544022288 -0.0207868273105 0.864 2.03719943977e-38
-0.0705997051498 -0.0208590037943 0.867 2.10173638068e-38
-0.0689951663964 -0.0208590037943 0.867 2.13861463262e-38
-0.0675460846849 -0.0209071214501 0.869 2.09251681769e-38
-0.066089600257 -0.0209552391059 0.871 2.16627332158e-38
0.0306972137286 -0.0210033567617 0.873 2.35095268827e-38
0.0322388293937 -0.0209552391059 0.871 2.286379734e-38
0.0335787210401 -0.0207868273105 0.864 2.30474683323e-38
0.0350962778772 -0.0207387096547 0.862 2.30474683323e-38
0.0366915632353 -0.0207387096547 0.862 2.29552727024e-38
0.038198015998 -0.0206905919989 0.86 2.25875663802e-38
0.0396970660444 -0.0206424743431 0.858 2.27708786401e-38
0.0412849486862 -0.0206424743431 0.858 2.24935728844e-38
0.0419234329653 -0.0201853566129 0.839 2.21237113651e-38
0.0434761527047 -0.0201853566129 0.839 2.21237113651e-38
0.0449215330581 -0.0201372389571 0.837 2.14794209559e-38
0.0464705514394 -0.0201372389571 0.837 2.13879441922e-38
0.0480195698208 -0.0201372389571 0.837 2.35098828126e-38
-0.073553388945 -0.0191878405943 0.864 2.00032118783e-38
-0.0719544022288 -0.0191878405943 0.864 2.11095594367e-38
-0.0705997051498 -0.0192544650409 0.867 2.18471244756e-38
-0.0689951663964 -0.0192544650409 0.867 2.19393201054e-38
-0.0675460846849 -0.0192988813385 0.869 2.21237113651e-38
-0.066089600257 -0.0193432976362 0.871 2.23081026249e-38
0.0306972137286 -0.0193877139339 0.873 2.35098856151e-38
0.0319797343239 -0.0191878405943 0.864 2.35095268827e-38
0.0335787210401 -0.0191878405943 0.864 2.35095268827e-38
0.0350962778772 -0.0191434242967 0.862 2.34162508518e-38
0.0366064319981 -0.019099007999 0.86 2.3231859592e-38
0.038198015998 -0.019099007999 0.86 2.21265882309e-38
0.0396970660444 -0.0190545917013 0.858 2.34162480492e-38
0.0412849486862 -0.0190545917013 0.858 2.29545510337e-38
0.0418234962955 -0.0185882205758 0.837 2.25846895145e-38
0.0433725146768 -0.0185882205758 0.837 2.28612764041e-38
0.0448141936721 -0.0185438042781 0.835 2.2124790365e-38
0.0463595106953 -0.0185438042781 0.835 2.15723354519e-38
0.0479048277184 -0.0185438042781 0.835 2.35098828126e-38
-0.073553388945 -0.0175888538782 0.864 2.04641928302e-38
-0.0719544022288 -0.0175888538782 0.864 2.20315185379e-38
-0.0705997051498 -0.0176499262875 0.867 2.15705403886e-38
-0.0689951663964 -0.0176499262875 0.867 2.1293953499e-38
-0.0675460846849 -0.017690641227 0.869 2.15705403886e-38
0.0319797343239 -0.0175888538782 0.864 2.26801249464e-38
0.0335787210401 -0.0175888538782 0.864 2.33247754893e-38
0.0350962778772 -0.0175481389386 0.862 2.35095268827e-38
0.0366064319981 -0.0175074239991 0.86 2.31403842296e-38
0.038198015998 -0.0175074239991 0.86 2.26797620101e-38
0.0396970660444 -0.0174667090596 0.858 2.286307427e-38
0.0412849486862 -0.0174667090596 0.858 2.35077248129e-38
0.0418234962955 -0.0170392021945 0.837 2.30456676638e-38
0.0433725146768 -0.0170392021945 0.837 2.18471244756e-38
0.0448141936721 -0.0169984872549 0.835 2.19403991052e-38
0.0463595106953 -0.0169984872549 0.835 2.18489223415e-38
0.0479048277184 -0.0169984872549 0.835 2.35098828126e-38
-0.073553388945 -0.015989867162 0.864 2.06485840899e-38
-0.0719544022288 -0.015989867162 0.864 2.14783447587e-38
-0.0705997051498 -0.016045387534 0.867 2.09251709795e-38
-0.0689951663964 -0.016045387534 0.867 2.16627360184e-38
-0.0675460846849 -0.0160824011154 0.869 2.24003010573e-38
0.0306972137286 -0.0161564282782 0.873 2.35098856151e-38
0.0322388293937 -0.0161194146968 0.871 2.35098856151e-38
0.0335787210401 -0.015989867162 0.864 2.35095268827e-38
0.0350962778772 -0.0159528535806 0.862 2.34169711192e-38
0.0366064319981 -0.0159158399992 0.86 2.31403842296e-38
0.0381091834027 -0.0158788264178 0.858 2.33251314191e-38
0.039604532091 -0.0158418128364 0.856 2.30474655297e-38
0.0411887133746 -0.0158418128364 0.856 2.25857685143e-38
0.042023369635 -0.0155642109759 0.841 2.26768851443e-38
0.0433725146768 -0.0154901838131 0.837 2.30456676638e-38
0.0448141936721 -0.0154531702318 0.835 2.2124790365e-38
0.0463595106953 -0.0154531702318 0.835 2.12957485623e-38
0.0479048277184 -0.0154531702318 0.835 2.33251314191e-38
-0.073553388945 -0.0143908804458 0.864 2.06485840899e-38
-0.0719544022288 -0.0143908804458 0.864 2.24924966872e-38
-0.0705997051498 -0.0144408487806 0.867 2.16627360184e-38
-0.0689951663964 -0.0144408487806 0.867 2.15705403886e-38
0.0319797343239 -0.0143908804458 0.864 2.35098856151e-38
0.0335009925192 -0.0143575682225 0.862 2.34176899853e-38
0.0350148479982 -0.0143242559993 0.86 2.3509166749e-38
0.0365213007609 -0.014290943776 0.858 2.35095268827e-38
0.0380203508073 -0.0142576315527 0.856 2.35095226788e-38
0.0395119981375 -0.0142243193295 0.854 2.31396611596e-38
0.041092478063 -0.0142243193295 0.854 2.32311379233e-38
0.0426729579885 -0.0142243193295 0.854 2.26768851443e-38
0.044253437914 -0.0142243193295 0.854 2.24924938846e-38
-0.0719544022288 -0.0127918937296 0.864 2.17560134507e-38
-0.0703554155126 -0.0127918937296 0.864 2.15712662612e-38
0.0319797343239 -0.0127918937296 0.864 2.33254943554e-38
0.0335009925192 -0.0127622828645 0.862 2.34176899853e-38
0.0350148479982 -0.0127326719993 0.86 2.34176899853e-38
0.0365213007609 -0.0127030611342 0.858 2.35098856151e-38
0.0380203508073 -0.0126734502691 0.856 2.34165997751e-38
0.0395119981375 -0.012643839404 0.854 2.35091569399e-38
0.041092478063 -0.012643839404 0.854 2.28627113337e-38
0.0426729579885 -0.012643839404 0.854 2.25857685143e-38
-0.0728723390474 -0.0110892689855 0.856 2.12950353014e-38
-0.0712881577637 -0.0110892689855 0.856 2.17556575209e-38
-0.0700296959964 -0.0111410879994 0.86 2.13868750014e-38
-0.0687564287964 -0.0111929070134 0.864 2.14794265611e-38
0.0319797343239 -0.0111929070134 0.864 2.35098856151e-38
0.0335009925192 -0.0111669975064 0.862 2.35098856151e-38
0.0350148479982 -0.0111410879994 0.86 2.34176899853e-38
0.0365213007609 -0.0111151784924 0.858 2.32332987256e-38
0.037931518212 -0.0110633594785 0.854 2.31400128855e-38
0.0393731972073 -0.011024495218 0.851 2.34162368388e-38
0.0409481250955 -0.011024495218 0.851 2.35080793414e-38
0.0425230529838 -0.011024495218 0.851 2.34155319856e-38
0.0437870667884 -0.0109467666971 0.845 2.33233363558e-38
0.0453508906023 -0.0109467666971 0.845 2.27701625766e-38
-0.072702076573 -0.00948287955299 0.854 2.1848206278e-38
-0.0711215966475 -0.00948287955299 0.854 2.18482090806e-38
-0.0697039764801 -0.00950508770183 0.856 2.24013828597e-38
-0.0685972703964 -0.00957171214834 0.862 2.25857741195e-38
0.0319797343239 -0.00959392029717 0.864 2.34176899853e-38
0.0335009925192 -0.00957171214834 0.862 2.34176899853e-38
0.0349334181191 -0.00952729585067 0.858 2.34176899853e-38
0.0364361695237 -0.00950508770183 0.856 2.34176899853e-38
0.037798269319 -0.00944956732974 0.851 2.32318539868e-38
0.0392806632538 -0.0094273591809 0.849 2.30474627271e-38
0.0408518897839 -0.0094273591809 0.849 2.31396611596e-38
0.0424231163141 -0.0094273591809 0.849 2.27708814427e-38
0.0437870667884 -0.00938294288323 0.845 2.21255120337e-38
0.0453508906023 -0.00938294288323 0.845 2.26786830103e-38
-0.072702076573 -0.0079023996275 0.854 2.17560106481e-38
-0.0711215966475 -0.0079023996275 0.854 2.21247959702e-38
-0.0697039764801 -0.00792090641819 0.856 2.12950353014e-38
-0.0684381119964 -0.00795791999959 0.86 2.24013800572e-38
0.0319797343239 -0.00799493358098 0.864 2.34176899853e-38
0.0334232639983 -0.00795791999959 0.86 2.34176899853e-38
0.0349334181191 -0.00793941320889 0.858 2.34176899853e-38
0.0363510382865 -0.0079023996275 0.854 2.34176899853e-38
0.037798269319 -0.00787463944145 0.851 2.35095268827e-38
0.0392806632538 -0.00785613265075 0.849 2.3509166749e-38
0.0407556544723 -0.00783762586006 0.847 2.28630770726e-38
0.0423231796443 -0.00783762586006 0.847 2.28630770726e-38
0.0437870667884 -0.00781911906936 0.845 2.35088038127e-38
0.0453508906023 -0.00781911906936 0.845 2.28630714674e-38
-0.073499719252 -0.00625529525549 0.845 2.15719725156e-38
-0.0719358954381 -0.00625529525549 0.845 2.12950324988e-38
-0.0703720716242 -0.00625529525549 0.845 2.21247959702e-38
-0.0697039764801 -0.00633672513455 0.856 2.24013828597e-38
-0.0681197951965 -0.00633672513455 0.856 2.19404019078e-38
0.0319057071611 -0.00638114143223 0.862 2.35098856151e-38
0.0334232639983 -0.00636633599967 0.86 2.35098856151e-38
0.0349334181191 -0.00635153056711 0.858 2.34176899853e-38
0.0363510382865 -0.006321919702 0.854 2.32332987256e-38
0.037798269319 -0.00629971155316 0.851 2.35080905518e-38
0.0392806632538 -0.0062849061206 0.849 2.35091681503e-38
0.0407556544723 -0.00627010068805 0.847 2.35088066153e-38
0.0423231796443 -0.00627010068805 0.847 2.30474655297e-38
0.0438907048163 -0.00627010068805 0.847 2.35095240801e-38
0.0454582299883 -0.00627010068805 0.847 2.25864845778e-38
-0.073499719252 -0.00469147144162 0.845 2.23095375545e-38
-0.0719358954381 -0.00469147144162 0.845 2.18482034754e-38
-0.0703720716242 -0.00469147144162 0.845 2.17560106481e-38
-0.0692968270848 -0.00472478366487 0.851 2.2493575687e-38
-0.0681197951965 -0.00475254385092 0.856 2.2493575687e-38
0.0303104218031 -0.00478585607417 0.862 2.35098856151e-38
0.0319057071611 -0.00478585607417 0.862 2.34176899853e-38
0.0334232639983 -0.00477475199975 0.86 2.35098856151e-38
0.0349334181191 -0.00476364792533 0.858 2.35098856151e-38
0.0363510382865 -0.0047414397765 0.854 2.35098856151e-38
0.037931518212 -0.0047414397765 0.854 2.35091681503e-38
0.0395119981375 -0.0047414397765 0.854 2.35091681503e-38
0.041092478063 -0.0047414397765 0.854 2.32325798594e-38
0.0426729579885 -0.0047414397765 0.854 2.30485445295e-38
-0.073499719252 -0.00312764762774 0.845 2.21251448935e-38
-0.0719358954381 -0.00312764762774 0.845 2.24013772546e-38
-0.0703720716242 -0.00312764762774 0.845 2.25857713169e-38
-0.0692968270848 -0.00314985577658 0.851 2.26779669467e-38
-0.0682789535964 -0.00317576528356 0.858 2.2124790365e-38
0.0303104218031 -0.00319057071611 0.862 2.35098856151e-38
0.0318316799983 -0.00318316799983 0.86 2.35098856151e-38
0.0334232639983 -0.00318316799983 0.86 2.35098856151e-38
0.03485198824 -0.00316836256728 0.856 2.34176899853e-38
0.0363510382865 -0.003160959851 0.854 2.32332987256e-38
0.037931518212 -0.003160959851 0.854 2.34169739218e-38
0.0395119981375 -0.003160959851 0.854 2.33247782919e-38
0.0409481250955 -0.00314985577658 0.851 2.30481885997e-38
-0.073499719252 -0.00156382381387 0.845 2.30471011921e-38
-0.0719358954381 -0.00156382381387 0.845 2.20325947351e-38
-0.0703720716242 -0.00156382381387 0.845 2.25857713169e-38
-0.0692968270848 -0.00157492788829 0.851 2.28623582065e-38
0.0302400959984 -0.00159158399992 0.86 2.35098856151e-38
0.0318316799983 -0.00159158399992 0.86 2.35098856151e-38
0.0333455354773 -0.00158788264178 0.858 2.35098856151e-38
0.03485198824 -0.00158418128364 0.856 2.35098856151e-38
0.0363510382865 -0.0015804799255 0.854 2.33254943554e-38
0.037798269319 -0.00157492788829 0.851 2.35095268827e-38
0.0393731972073 -0.00157492788829 0.851 2.35095268827e-38
0.0409481250955 -0.00157492788829 0.851 2.35098828126e-38
-0.0717656329637 0.0 0.843 2.16623702795e-38
-0.070205510508 0.0 0.843 2.25864845778e-38
-0.0692968270848 0.0 0.851 2.24960868139e-38
0.0302400959984 0.0 0.86 2.35098856151e-38
0.0317576528356 0.0 0.858 2.35098856151e-38
0.0332678069564 0.0 0.856 2.35098856151e-38
0.03485198824 0.0 0.856 2.35098856151e-38
0.0363510382865 0.0 0.854 2.35098856151e-38
0.037798269319 0.0 0.851 2.35098856151e-38
0.0393731972073 0.0 0.851 2.35098828126e-38
0.0409481250955 0.0 0.851 2.35084408764e-38
-0.0717656329637 0.00156012245573 0.843 2.35062856794e-38
-0.070205510508 0.00156012245573 0.843 2.13879413896e-38
-0.0686453880522 0.00156012245573 0.843 2.25875635776e-38
0.0316836256728 0.00158418128364 0.856 2.35098856151e-38
0.0331900784355 0.0015804799255 0.854 2.35098856151e-38
0.034770558361 0.0015804799255 0.854 2.35098856151e-38
0.0362233414307 0.00157492788829 0.851 2.35098856151e-38
0.037798269319 0.00157492788829 0.851 2.32336616619e-38
0.0393731972073 0.00157492788829 0.851 2.35098856151e-38
0.03160959851 0.003160959851 0.854 2.35098856151e-38
0.0331900784355 0.003160959851 0.854 2.35098856151e-38
0.034770558361 0.003160959851 0.854 2.35098856151e-38
0.0362233414307 0.00314985577658 0.851 2.35098856151e-38
0.037798269319 0.00314985577658 0.851 2.3325497158e-38
0.0393731972073 0.00314985577658 0.851 2.3418050119e-38
0.0409481250955 0.00314985577658 0.851 2.34180473164e-38
0.03160959851 0.0047414397765 0.854 2.35098856151e-38
0.0331900784355 0.0047414397765 0.854 2.35098856151e-38
0.034770558361 0.0047414397765 0.854 2.35098856151e-38
0.0363510382865 0.0047414397765 0.854 2.35098856151e-38
0.037931518212 0.0047414397765 0.854 2.3509166749e-38
0.0395119981375 0.0047414397765 0.854 2.3418050119e-38
0.03160959851 0.006321919702 0.854 2.35098856151e-38
0.0330734856541 0.00629971155316 0.851 2.35098856151e-38
0.0346484135424 0.00629971155316 0.851 2.35098856151e-38
0.0362233414307 0.00629971155316 0.851 2.35098856151e-38
0.037931518212 0.006321919702 0.854 2.35095268827e-38
0.0395119981375 0.006321919702 0.854 2.33254943554e-38
0.041092478063 0.006321919702 0.854 2.31418219618e-38
-0.070205510508 0.00780061227866 0.843 2.2304882441e-38
-0.0686453880522 0.00780061227866 0.843 2.35080919531e-38
-0.0672444239965 0.00781911906936 0.845 2.23109892997e-38
0.0314985577658 0.00787463944145 0.851 2.35098856151e-38
0.0330734856541 0.00787463944145 0.851 2.35098856151e-38
0.0345669836633 0.00785613265075 0.849 2.35098856151e-38
0.0361382101935 0.00785613265075 0.849 2.35098856151e-38
0.0377094367236 0.00785613265075 0.849 2.30481885997e-38
0.0392806632538 0.00785613265075 0.849 2.30481914023e-38
-0.070205510508 0.0093607347344 0.843 3.12315936665e-39
-0.0686453880522 0.0093607347344 0.843 1.99949596316e-38
-0.0672444239965 0.00938294288323 0.845 2.35066570235e-38
0.0299236298775 0.00944956732974 0.851 2.35098856151e-38
0.0314985577658 0.00944956732974 0.851 2.35098856151e-38
0.0330734856541 0.00944956732974 0.851 2.35098856151e-38
0.0345669836633 0.0094273591809 0.849 2.35098856151e-38
0.0361382101935 0.0094273591809 0.849 2.35098856151e-38
0.0377094367236 0.0094273591809 0.849 2.33247754893e-38
0.0392806632538 0.0094273591809 0.849 2.35091681503e-38
-0.0717656329637 0.0109208571901 0.843 2.0548486538e-38
-0.070205510508 0.0109208571901 0.843 1.56574490288e-38
-0.0686453880522 0.0109208571901 0.843 4.22447065833e-39
0.0299236298775 0.011024495218 0.851 2.35098856151e-38
0.0314985577658 0.011024495218 0.851 2.35098856151e-38
0.0330734856541 0.011024495218 0.851 2.35098856151e-38
0.0345669836633 0.0109985857111 0.849 2.35098856151e-38
0.0361382101935 0.0109985857111 0.849 2.35098856151e-38
0.0377094367236 0.0109985857111 0.849 2.35098856151e-38
0.0392806632538 0.0109985857111 0.849 2.35073716857e-38
-0.0717656329637 0.0124809796459 0.843 2.02744177818e-38
-0.070205510508 0.0124809796459 0.843 1.83350613448e-38
-0.0686453880522 0.0124809796459 0.843 1.38117399669e-38
0.0263166563707 0.0116962917203 0.79 2.31425436305e-38
0.0277786928358 0.0116962917203 0.79 2.31414674333e-38
0.0292407293008 0.0116962917203 0.79 2.35080849466e-38
-0.0733257554194 0.0140411021016 0.843 2.18435483619e-38
-0.0717656329637 0.0140411021016 0.843 2.03673294752e-38
-0.0700389493917 0.0140077898783 0.841 1.95350366601e-38
-0.0684825282941 0.0140077898783 0.841 1.56574490288e-38
0.0263166563707 0.0131583281854 0.79 2.3504504629e-38
0.0277786928358 0.0131583281854 0.79 2.0730000932e-38
0.0292407293008 0.0131583281854 0.79 1.48272973977e-38
0.0307027657658 0.0131583281854 0.79 6.52643969761e-39
-0.0715953704893 0.0155642109759 0.841 1.93538950115e-38
-0.0700389493917 0.0155642109759 0.841 1.93520845339e-38
-0.0684825282941 0.0155642109759 0.841 1.95314577438e-38
-0.0636633599967 0.0148054325574 0.8 1.5377255197e-38
-0.0621828167409 0.0148054325574 0.8 1.44513136055e-38
-0.0607022734852 0.0148054325574 0.8 1.54611607451e-38
-0.0518190139508 0.0148054325574 0.8 8.5428843657e-39
-0.0503384706951 0.0148054325574 0.8 8.35705817635e-39
0.019150827013 0.0147314053946 0.796 1.48269330601e-38
0.0206239675524 0.0147314053946 0.796 9.84691590102e-39
0.0220971080919 0.0147314053946 0.796 6.06545033791e-39
0.0250433891708 0.0147314053946 0.796 7.07135842754e-39
0.0263832808172 0.0146573782318 0.792 7.07136123013e-39
0.0278490186404 0.0146573782318 0.792 7.07135702624e-39
0.0292407293008 0.0146203646504 0.79 7.98971198782e-39
0.0307027657658 0.0146203646504 0.79 1.21363559307e-38
0.0321648022309 0.0146203646504 0.79 1.26870199844e-38
-0.0682752522383 0.0163266907526 0.802 1.91705771464e-38
-0.0667910076244 0.0163266907526 0.802 1.90762207143e-38
-0.0651439032524 0.0162859758131 0.8 1.96261659018e-38
-0.0636633599967 0.0162859758131 0.8 1.74091519832e-38
-0.0621828167409 0.0162859758131 0.8 1.43616473194e-38
-0.0607022734852 0.0162859758131 0.8 1.38052393433e-38
-0.0592217302295 0.0162859758131 0.8 1.527784288e-38
-0.0577411869737 0.0162859758131 0.8 1.4355166314e-38
-0.056260643718 0.0162859758131 0.8 1.36165292817e-38
-0.0549170507134 0.0163266907526 0.802 1.3891321108e-38
-0.0534328060995 0.0163266907526 0.802 1.40746263614e-38
-0.0518190139508 0.0162859758131 0.8 1.39809873941e-38
-0.0503384706951 0.0162859758131 0.8 1.45330821735e-38
-0.0487357826207 0.0162452608736 0.798 1.37933647401e-38
-0.0472589407231 0.0162452608736 0.798 1.48986248909e-38
0.0117851243157 0.016204545934 0.796 7.07278915327e-39
0.0132582648551 0.016204545934 0.796 6.70399682473e-39
0.0147314053946 0.016204545934 0.796 6.9795047145e-39
0.0161638309945 0.0161638309945 0.794 8.63292339723e-39
0.0176332701758 0.0161638309945 0.794 8.35705397245e-39
0.019150827013 0.016204545934 0.796 1.01023081513e-38
0.0206239675524 0.016204545934 0.796 1.09299052153e-38
0.0220971080919 0.016204545934 0.796 1.25887020815e-38
0.0236294703616 0.0162452608736 0.798 1.26877388505e-38
0.0250433891708 0.016204545934 0.796 1.28739335813e-38
0.0264499052637 0.0161638309945 0.794 1.30594024396e-38
0.0278490186404 0.016123116055 0.792 1.35207337161e-38
0.0293147564636 0.016123116055 0.792 1.34281667421e-38
0.0307804942868 0.016123116055 0.792 1.46263455928e-38
0.0322462321099 0.016123116055 0.792 1.24129316099e-38
-0.0667910076244 0.0178109353665 0.802 1.87081598635e-38
-0.0651439032524 0.0177665190688 0.8 1.80606296523e-38
-0.0636633599967 0.0177665190688 0.8 1.75035000075e-38
-0.0621828167409 0.0177665190688 0.8 1.68534572681e-38
-0.0607022734852 0.0177665190688 0.8 1.46382384128e-38
-0.0592217302295 0.0177665190688 0.8 1.42669251484e-38
-0.0577411869737 0.0177665190688 0.8 1.38041463305e-38
-0.056260643718 0.0177665190688 0.8 1.32502564878e-38
-0.0549170507134 0.0178109353665 0.802 1.28807565036e-38
-0.0534328060995 0.0178109353665 0.802 1.28793201726e-38
-0.0518190139508 0.0177665190688 0.8 1.22328717638e-38
-0.0503384706951 0.0177665190688 0.8 1.25090943158e-38
-0.0487357826207 0.0177221027712 0.798 1.2509447443e-38
-0.0472589407231 0.0177221027712 0.798 1.32441440239e-38
-0.0457820988255 0.0177221027712 0.798 1.30590324968e-38
0.0014768418976 0.0177221027712 0.798 9.00206885298e-39
0.00295368379519 0.0177221027712 0.798 9.46233093878e-39
0.00443052569279 0.0177221027712 0.798 1.01073346089e-38
0.00590736759039 0.0177221027712 0.798 1.04757457843e-38
0.00738420948799 0.0177221027712 0.798 1.13962587455e-38
0.00886105138558 0.0177221027712 0.798 1.28706741611e-38
0.0103378932832 0.0177221027712 0.798 1.27777708755e-38
0.0117851243157 0.0176776864735 0.796 1.25958837361e-38
0.0132582648551 0.0176776864735 0.796 1.32416034698e-38
0.0147314053946 0.0176776864735 0.796 1.31494050373e-38
0.0161638309945 0.0176332701758 0.794 1.36089566648e-38
0.0176332701758 0.0176332701758 0.794 1.31465561976e-38
0.0191989446688 0.0177221027712 0.798 1.44358670925e-38
0.0206757865664 0.0177221027712 0.798 1.40670817705e-38
0.022152628464 0.0177221027712 0.798 1.36982880406e-38
0.0236294703616 0.0177221027712 0.798 1.31494414711e-38
0.0251063122592 0.0177221027712 0.798 1.28750125811e-38
0.0265165297102 0.0176776864735 0.796 1.28753671097e-38
0.0279896702497 0.0176776864735 0.796 1.25994920797e-38
0.0294628107892 0.0176776864735 0.796 1.3338486443e-38
0.0309359513286 0.0176776864735 0.796 1.26019947987e-38
-0.0667910076244 0.0192951799804 0.802 1.88925539259e-38
-0.0653067630106 0.0192951799804 0.802 1.71397439457e-38
-0.0638225183967 0.0192951799804 0.802 1.79666305513e-38
-0.0623382737828 0.0192951799804 0.802 1.67634266444e-38
-0.0608540291689 0.0192951799804 0.802 1.43638081216e-38
-0.059369784555 0.0192951799804 0.802 1.55551472344e-38
-0.0578855399412 0.0192951799804 0.802 1.45391904335e-38
-0.0564012953273 0.0192951799804 0.802 1.40774892142e-38
-0.0549170507134 0.0192951799804 0.802 1.30622680949e-38
-0.0534328060995 0.0192951799804 0.802 1.33377843925e-38
-0.0518190139508 0.0192470623246 0.8 1.26005822899e-38
-0.0503384706951 0.0192470623246 0.8 1.26012899456e-38
-0.0487357826207 0.0191989446688 0.798 1.26019947987e-38
-0.0472589407231 0.0191989446688 0.798 1.2969001873e-38
-0.0457820988255 0.0191989446688 0.798 1.25069475265e-38
-0.0443052569279 0.0191989446688 0.798 1.25069447239e-38
-0.0014768418976 0.0191989446688 0.798 1.37033158995e-38
0.0 0.0191989446688 0.798 1.34267290099e-38
0.0014768418976 0.0191989446688 0.798 1.30579520957e-38
0.00295368379519 0.0191989446688 0.798 1.34256570166e-38
0.00443052569279 0.0191989446688 0.798 1.3610046875e-38
0.00590736759039 0.0191989446688 0.798 1.27802749959e-38
0.00738420948799 0.0191989446688 0.798 1.34256387997e-38
0.00886105138558 0.0191989446688 0.798 1.37007949636e-38
0.0103378932832 0.0191989446688 0.798 1.32394706935e-38
0.0118147351808 0.0191989446688 0.798 1.35164261246e-38
0.0132915770784 0.0191989446688 0.798 1.35178512452e-38
0.014768418976 0.0191989446688 0.798 1.29661025865e-38
0.0162452608736 0.0191989446688 0.798 1.29668242552e-38
0.0177221027712 0.0191989446688 0.798 1.19534052058e-38
0.0191989446688 0.0191989446688 0.798 1.22303578343e-38
0.0207794245943 0.0192951799804 0.802 1.17711607354e-38
0.0222636692081 0.0192951799804 0.802 1.22339143298e-38
0.023747913822 0.0192951799804 0.802 1.29668214526e-38
0.0252321584359 0.0192951799804 0.802 1.33338089088e-38
0.0266497786033 0.0192470623246 0.8 1.3334162036e-38
0.028130321859 0.0192470623246 0.8 1.32426922787e-38
0.0296108651147 0.0192470623246 0.8 1.32434223552e-38
0.0312857296728 0.0193673564641 0.805 1.30601185031e-38
-0.0683603834755 0.0208053341012 0.803 1.94453577622e-38
-0.0667910076244 0.0207794245943 0.802 1.83383053508e-38
-0.0653067630106 0.0207794245943 0.802 1.72319339703e-38
-0.0638225183967 0.0207794245943 0.802 1.69531890811e-38
-0.0623382737828 0.0207794245943 0.802 1.67648643766e-38
-0.0608540291689 0.0207794245943 0.802 1.52875594835e-38
-0.0594438117178 0.0208053341012 0.803 1.53714748408e-38
-0.0578855399412 0.0207794245943 0.802 1.44469948036e-38
-0.0564012953273 0.0207794245943 0.802 1.45377470961e-38
-0.0549170507134 0.0207794245943 0.802 1.40749780873e-38
-0.0534328060995 0.0207794245943 0.802 1.38891631083e-38
-0.0519485614857 0.0207794245943 0.802 1.34281891629e-38
-0.0503384706951 0.0207276055803 0.8 1.30597527642e-38
-0.0488579274393 0.0207276055803 0.8 1.260055006e-38
-0.0473773841836 0.0207276055803 0.8 1.31501477255e-38
-0.0458968409278 0.0207276055803 0.8 1.30565185673e-38
-0.0445273384163 0.0207794245943 0.802 1.31479953311e-38
-0.0429357544164 0.0207276055803 0.8 1.33313131962e-38
-0.0414552111606 0.0207276055803 0.8 1.32387630378e-38
-0.0399746679049 0.0207276055803 0.8 1.35149869911e-38
-0.0383978893375 0.0206757865664 0.798 1.35160435701e-38
-0.0369210474399 0.0206757865664 0.798 1.36078608494e-38
-0.0354442055423 0.0206757865664 0.798 1.222961935e-38
-0.0339673636447 0.0206757865664 0.798 1.27838847407e-38
-0.0324905217471 0.0206757865664 0.798 1.24147518966e-38
-0.0310136798495 0.0206757865664 0.798 1.25065845902e-38
-0.0295368379519 0.0206757865664 0.798 1.25984060734e-38
-0.0280599960544 0.0206757865664 0.798 1.25065593668e-38
-0.0265165297102 0.0206239675524 0.796 1.287497895e-38
-0.0250433891708 0.0206239675524 0.796 1.24136448709e-38
-0.0191989446688 0.0206757865664 0.798 1.25973382839e-38
-0.0177221027712 0.0206757865664 0.798 1.18590543789e-38
-0.0162452608736 0.0206757865664 0.798 1.2318956331e-38
-0.014768418976 0.0206757865664 0.798 1.22267607012e-38
-0.0133248893016 0.0207276055803 0.8 1.23182374649e-38
-0.0118443460459 0.0207276055803 0.8 1.27810218879e-38
-0.0014768418976 0.0206757865664 0.798 1.25051384502e-38
0.0 0.0206757865664 0.798 1.26905989006e-38
0.00148054325574 0.0207276055803 0.8 1.24140120111e-38
0.00296108651147 0.0207276055803 0.8 1.24136588838e-38
0.00444162976721 0.0207276055803 0.8 1.2321463254e-38
0.0059369784555 0.0207794245943 0.802 1.24140106098e-38
0.00742122306938 0.0207794245943 0.802 1.26916736966e-38
0.00888325953442 0.0207276055803 0.8 1.23225422538e-38
0.0103638027902 0.0207276055803 0.8 1.21378020708e-38
0.0118443460459 0.0207276055803 0.8 1.29621817534e-38
0.0132915770784 0.0206757865664 0.798 1.29621677404e-38
0.014768418976 0.0206757865664 0.798 1.28713888233e-38
0.0162859758131 0.0207276055803 0.8 1.2688079366e-38
0.0177665190688 0.0207276055803 0.8 1.26880919777e-38
0.0193192388083 0.0208053341012 0.803 1.27813736139e-38
0.0208053341012 0.0208053341012 0.803 1.25065621694e-38
0.0222914293942 0.0208053341012 0.803 1.25998087731e-38
0.0237775246871 0.0208053341012 0.803 1.27810106776e-38
0.0252636199801 0.0208053341012 0.803 1.30561668414e-38
0.0267164030498 0.0207794245943 0.802 1.32412643556e-38
0.0282006476636 0.0207794245943 0.802 1.3610046875e-38
0.0297959330217 0.0208571531152 0.805 1.31505120631e-38
0.0312857296728 0.0208571531152 0.805 1.37065641094e-38
-0.0698464787685 0.0222914293942 0.803 1.92587972925e-38
-0.0683603834755 0.0222914293942 0.803 2.02740394312e-38
-0.0668742881826 0.0222914293942 0.803 1.89825999639e-38
-0.0653881928896 0.0222914293942 0.803 1.72315724353e-38
-0.0639020975967 0.0222914293942 0.803 1.68613507823e-38
-0.0624160023037 0.0222914293942 0.803 1.65801157857e-38
-0.0609299070108 0.0222914293942 0.803 1.56570580665e-38
-0.0594438117178 0.0222914293942 0.803 1.48247750605e-38
-0.0579577164249 0.0222914293942 0.803 1.38080993935e-38
-0.0564716211319 0.0222914293942 0.803 1.31609265133e-38
-0.0549170507134 0.0222636692081 0.802 1.29733066619e-38
-0.0534328060995 0.0222636692081 0.802 1.26013025573e-38
-0.0519485614857 0.0222636692081 0.802 1.29686529497e-38
-0.0504643168718 0.0222636692081 0.802 1.30604716303e-38
-0.0489800722579 0.0222636692081 0.802 1.29693325795e-38
-0.047495827644 0.0222636692081 0.802 1.26923953653e-38
-0.0460115830302 0.0222636692081 0.802 1.28764292939e-38
-0.0445273384163 0.0222636692081 0.802 1.26913247732e-38
-0.0429357544164 0.0222081488361 0.8 1.25055055904e-38
-0.0414552111606 0.0222081488361 0.8 1.27810246905e-38
-0.0399746679049 0.0222081488361 0.8 1.27803030218e-38
-0.0383978893375 0.022152628464 0.798 1.27802834037e-38
-0.0369210474399 0.022152628464 0.798 1.2781341384e-38
-0.0354442055423 0.022152628464 0.798 1.24140120111e-38
-0.0339673636447 0.022152628464 0.798 1.24143889603e-38
-0.0324905217471 0.022152628464 0.798 1.25973494943e-38
-0.0310136798495 0.022152628464 0.798 1.25047895269e-38
-0.0295368379519 0.022152628464 0.798 1.27820812696e-38
-0.0280599960544 0.022152628464 0.798 1.24132847372e-38
-0.0265165297102 0.0220971080919 0.796 1.30579282736e-38
-0.0250433891708 0.0220971080919 0.796 1.2781341384e-38
-0.0236294703616 0.022152628464 0.798 1.23211003177e-38
-0.022152628464 0.022152628464 0.798 1.23214660566e-38
-0.0206757865664 0.022152628464 0.798 1.24129428203e-38
-0.0191989446688 0.022152628464 0.798 1.25969711437e-38
-0.0177221027712 0.022152628464 0.798 1.2502977648e-38
-0.0162452608736 0.022152628464 0.798 1.28710399e-38
-0.014768418976 0.022152628464 0.798 1.27781226014e-38
-0.0133248893016 0.0222081488361 0.8 1.25937313417e-38
-0.0118443460459 0.0222081488361 0.8 1.26870199844e-38
-0.0103897122971 0.0222636692081 0.802 1.22260446376e-38
-0.0059369784555 0.0222636692081 0.802 1.287176297e-38
-0.00445273384163 0.0222636692081 0.802 1.30565073569e-38
-0.00296108651147 0.0222081488361 0.8 1.30565045543e-38
-0.0014768418976 0.022152628464 0.798 1.2688079366e-38
0.0 0.022152628464 0.798 1.28713860207e-38
0.0014768418976 0.022152628464 0.798 1.27791959961e-38
0.00296848922775 0.0222636692081 0.802 1.29632327273e-38
0.00445273384163 0.0222636692081 0.802 1.25955292076e-38
0.0059369784555 0.0222636692081 0.802 1.21363447203e-38
0.00742122306938 0.0222636692081 0.802 1.19523149956e-38
0.00890546768326 0.0222636692081 0.802 1.21370761981e-38
0.0103897122971 0.0222636692081 0.802 1.22285641723e-38
0.011873956911 0.0222636692081 0.802 1.25966166152e-38
0.0133582015249 0.0222636692081 0.802 1.26887926269e-38
0.0148424461388 0.0222636692081 0.802 1.30582771969e-38
0.0163266907526 0.0222636692081 0.802 1.26891443528e-38
0.0178109353665 0.0222636692081 0.802 1.25033447882e-38
0.0193192388083 0.0222914293942 0.803 1.27785135637e-38
0.0208053341012 0.0222914293942 0.803 1.27792184168e-38
0.0222914293942 0.0222914293942 0.803 1.25036853037e-38
0.0237775246871 0.0222914293942 0.803 1.2506578985e-38
0.0252636199801 0.0222914293942 0.803 1.21395929302e-38
0.026749715273 0.0222914293942 0.803 1.23243345145e-38
0.028235810566 0.0222914293942 0.803 1.26934827729e-38
0.0297959330217 0.0223469497663 0.805 1.29700850768e-38
0.0312857296728 0.0223469497663 0.805 1.29729717516e-38
-0.0698464787685 0.0237775246871 0.803 1.98137913584e-38
-0.0682752522383 0.023747913822 0.802 1.90762235169e-38
-0.0667910076244 0.023747913822 0.802 1.85223266677e-38
-0.0653067630106 0.023747913822 0.802 1.70468266471e-38
-0.0639020975967 0.0237775246871 0.803 1.71375831434e-38
-0.0624160023037 0.0237775246871 0.803 1.53840739153e-38
-0.0609299070108 0.0237775246871 0.803 1.51071212868e-38
-0.0595918660434 0.0238367464174 0.805 1.52003847061e-38
-0.0581020693923 0.0238367464174 0.805 1.33535952431e-38
-0.0566122727412 0.0238367464174 0.805 1.35322383765e-38
-0.054985525839 0.0237775246871 0.803 1.33406584556e-38
-0.0534994305461 0.0237775246871 0.803 1.26913387862e-38
-0.0520133352531 0.0237775246871 0.803 1.35196603215e-38
-0.0504643168718 0.023747913822 0.802 1.30590310955e-38
-0.0489800722579 0.023747913822 0.802 1.2783872129e-38
-0.047495827644 0.023747913822 0.802 1.25987774175e-38
-0.0460115830302 0.023747913822 0.802 1.28742909124e-38
-0.0445273384163 0.023747913822 0.802 1.28742909124e-38
-0.0429357544164 0.0236886920918 0.8 1.278209248e-38
-0.0414552111606 0.0236886920918 0.8 1.33352634566e-38
-0.0399746679049 0.0236886920918 0.8 1.18604879073e-38
-0.0383978893375 0.0236294703616 0.798 1.23218163812e-38
-0.0369210474399 0.0236294703616 0.798 1.22299752798e-38
-0.0355330381377 0.0236886920918 0.8 1.2595526405e-38
-0.0340524948819 0.0236886920918 0.8 1.26866486403e-38
-0.0325719516262 0.0236886920918 0.8 1.30554283571e-38
-0.0310914083705 0.0236886920918 0.8 1.27802749959e-38
-0.0296108651147 0.0236886920918 0.8 1.23192912414e-38
-0.028130321859 0.0236886920918 0.8 1.2781341384e-38
-0.0266497786033 0.0236886920918 0.8 1.28731810841e-38
-0.0251063122592 0.0236294703616 0.798 1.27809882568e-38
-0.0236294703616 0.0236294703616 0.798 1.27802834037e-38
-0.022152628464 0.0236294703616 0.798 1.28724832374e-38
-0.0206757865664 0.0236294703616 0.798 1.25036993167e-38
-0.0191989446688 0.0236294703616 0.798 1.24115036868e-38
-0.0177221027712 0.0236294703616 0.798 1.25036965141e-38
-0.0162452608736 0.0236294703616 0.798 1.2318942318e-38
-0.014768418976 0.0236294703616 0.798 1.27799176648e-38
-0.0133582015249 0.023747913822 0.802 1.28721132946e-38
-0.011873956911 0.023747913822 0.802 1.26877360479e-38
-0.0103897122971 0.023747913822 0.802 1.24122281581e-38
-0.00891657175768 0.0237775246871 0.803 1.26891667736e-38
-0.00743047646473 0.0237775246871 0.803 1.24129330112e-38
-0.0059369784555 0.023747913822 0.802 1.22285403502e-38
-0.00445273384163 0.023747913822 0.802 1.25051272398e-38
-0.00296108651147 0.0236886920918 0.8 1.25051272398e-38
-0.00148054325574 0.0236886920918 0.8 1.21363447203e-38
0.0 0.0236294703616 0.798 1.2318942318e-38
0.0014768418976 0.0236294703616 0.798 1.25951760804e-38
0.00296848922775 0.023747913822 0.802 1.23185891908e-38
0.00445828587884 0.0237775246871 0.803 1.20419994986e-38
0.00594438117178 0.0237775246871 0.803 1.21345510583e-38
0.00743047646473 0.0237775246871 0.803 1.19501597986e-38
0.00891657175768 0.0237775246871 0.803 1.24115008842e-38
0.0104026670506 0.0237775246871 0.803 1.26880919777e-38
0.0118887623436 0.0237775246871 0.803 1.21374279241e-38
0.0133748576365 0.0237775246871 0.803 1.23221709097e-38
0.0148424461388 0.023747913822 0.802 1.21377740448e-38
0.0163266907526 0.023747913822 0.802 1.22292536111e-38
0.0178109353665 0.023747913822 0.802 1.24132959475e-38
0.0193192388083 0.0237775246871 0.803 1.24122309607e-38
0.0208053341012 0.0237775246871 0.803 1.32405609037e-38
0.0222914293942 0.0237775246871 0.803 1.24104443052e-38
0.0237775246871 0.0237775246871 0.803 1.25966166152e-38
0.0253265430684 0.0238367464174 0.805 1.25980501436e-38
0.0268163397195 0.0238367464174 0.805 1.33381333158e-38
0.0283061363706 0.0238367464174 0.805 1.21424711972e-38
0.0297959330217 0.0238367464174 0.805 1.15925442266e-38
-0.0682752522383 0.0252321584359 0.802 1.93528076039e-38
-0.0667910076244 0.0252321584359 0.802 1.86145180937e-38
-0.0653067630106 0.0252321584359 0.802 1.72301417096e-38
-0.0639020975967 0.0252636199801 0.803 1.69531918837e-38
-0.0624160023037 0.0252636199801 0.803 1.51085604203e-38
-0.0609299070108 0.0252636199801 0.803 1.49234488932e-38
-0.0594438117178 0.0252636199801 0.803 1.42795074073e-38
-0.0581020693923 0.0253265430684 0.805 1.45535761635e-38
-0.0566122727412 0.0253265430684 0.805 1.39024614308e-38
-0.054985525839 0.0252636199801 0.803 1.47257537058e-38
-0.0534994305461 0.0252636199801 0.803 1.42608224935e-38
-0.0520133352531 0.0252636199801 0.803 1.33370613225e-38
-0.0505272399602 0.0252636199801 0.803 1.37983911977e-38
-0.0490411446672 0.0252636199801 0.803 1.29697039236e-38
-0.047495827644 0.0252321584359 0.802 1.26909702447e-38
-0.0460115830302 0.0252321584359 0.802 1.28742853072e-38
-0.0445828587884 0.0252636199801 0.803 1.29668368669e-38
-0.0430430938024 0.0252321584359 0.802 1.30583136307e-38
-0.0415588491885 0.0252321584359 0.802 1.28739209696e-38
-0.0400746045747 0.0252321584359 0.802 1.20445162307e-38
-0.0385903599608 0.0252321584359 0.802 1.23211031203e-38
-0.0371061153469 0.0252321584359 0.802 1.22281886243e-38
-0.0355330381377 0.0251692353475 0.8 1.287176297e-38
-0.0340524948819 0.0251692353475 0.8 1.24097058209e-38
-0.0325719516262 0.0251692353475 0.8 1.24111379479e-38
-0.0310914083705 0.0251692353475 0.8 1.28724706257e-38
-0.0296108651147 0.0251692353475 0.8 1.22278172802e-38
-0.028130321859 0.0251692353475 0.8 1.22285375476e-38
-0.0266497786033 0.0251692353475 0.8 1.22292592163e-38
-0.0251692353475 0.0251692353475 0.8 1.20445106255e-38
-0.0236886920918 0.0251692353475 0.8 1.21363559307e-38
-0.0222081488361 0.0251692353475 0.8 1.23203870568e-38
-0.0207276055803 0.0251692353475 0.8 1.20438001672e-38
-0.0192470623246 0.0251692353475 0.8 1.19516017347e-38
-0.0177665190688 0.0251692353475 0.8 1.21359929944e-38
-0.0162859758131 0.0251692353475 0.8 1.25047755139e-38
-0.0148054325574 0.0251692353475 0.8 1.23203814516e-38
-0.0133748576365 0.0252636199801 0.803 1.21359901918e-38
-0.0118887623436 0.0252636199801 0.803 1.23200325282e-38
-0.0104026670506 0.0252636199801 0.803 1.22267578986e-38
-0.00891657175768 0.0252636199801 0.803 1.21349167972e-38
-0.00743047646473 0.0252636199801 0.803 1.22274627517e-38
-0.00594438117178 0.0252636199801 0.803 1.23196569803e-38
-0.00445828587884 0.0252636199801 0.803 1.24118526101e-38
-0.00297219058589 0.0252636199801 0.803 1.25040496413e-38
-0.00148054325574 0.0251692353475 0.8 1.22274627517e-38
0.0 0.0251692353475 0.8 1.22278340958e-38
0.00148054325574 0.0251692353475 0.8 1.25044209854e-38
0.00296848922775 0.0252321584359 0.802 1.23203870568e-38
0.00446938995326 0.0253265430684 0.805 1.23203842542e-38
0.00595918660434 0.0253265430684 0.805 1.27813596009e-38
0.00744898325543 0.0253265430684 0.805 1.24118540114e-38
0.00893877990651 0.0253265430684 0.805 1.22274655543e-38
0.0104285765576 0.0253265430684 0.805 1.21352699244e-38
0.0119183732087 0.0253265430684 0.805 1.22289046878e-38
0.0134081698598 0.0253265430684 0.805 1.23218149799e-38
0.0148609529295 0.0252636199801 0.803 1.23214520436e-38
0.0163470482224 0.0252636199801 0.803 1.25058405007e-38
0.0178331435154 0.0252636199801 0.803 1.2413650476e-38
0.0193673564641 0.0253265430684 0.805 1.23203842542e-38
0.0208571531152 0.0253265430684 0.805 1.28728531802e-38
0.0223469497663 0.0253265430684 0.805 1.25959145647e-38
0.0238367464174 0.0253265430684 0.805 1.20448805683e-38
0.0253894661568 0.0253894661568 0.807 1.25994920797e-38
0.026882964166 0.0253894661568 0.807 1.2233947961e-38
0.0284467879799 0.0254523892452 0.809 1.26985288487e-38
-0.0667910076244 0.0267164030498 0.802 1.79695018118e-38
-0.0653067630106 0.0267164030498 0.802 1.75070817264e-38
-0.0639020975967 0.026749715273 0.803 1.7045384711e-38
-0.0624160023037 0.026749715273 0.803 1.53851473099e-38
-0.0609299070108 0.026749715273 0.803 1.5199679853e-38
-0.0581020693923 0.0268163397195 0.805 1.43684660377e-38
-0.0566122727412 0.0268163397195 0.805 1.39975339264e-38
-0.0551224760902 0.0268163397195 0.805 1.31649019971e-38
-0.0534994305461 0.026749715273 0.803 1.33460562573e-38
-0.0520133352531 0.026749715273 0.803 1.27907216759e-38
-0.0505272399602 0.026749715273 0.803 1.28814739684e-38
-0.0490411446672 0.026749715273 0.803 1.26959938997e-38
-0.047495827644 0.0267164030498 0.802 1.33388409715e-38
-0.0460115830302 0.0267164030498 0.802 1.32455663419e-38
-0.0445828587884 0.026749715273 0.803 1.27845909951e-38
-0.0430967634954 0.026749715273 0.803 1.26916779005e-38
-0.0416106682025 0.026749715273 0.803 1.26898856397e-38
-0.0401245729095 0.026749715273 0.803 1.26891695762e-38
-0.0386384776166 0.026749715273 0.803 1.26877360479e-38
-0.0371523823236 0.026749715273 0.803 1.2595540418e-38
-0.0356662870307 0.026749715273 0.803 1.22274837712e-38
-0.0341376261192 0.0267164030498 0.802 1.18590571815e-38
-0.0326533815053 0.0267164030498 0.802 1.23200325282e-38
-0.0311691368914 0.0267164030498 0.802 1.22285515606e-38
-0.0296848922775 0.0267164030498 0.802 1.23211003177e-38
-0.0282006476636 0.0267164030498 0.802 1.20452322942e-38
-0.0267164030498 0.0267164030498 0.802 1.21374279241e-38
-0.0252321584359 0.0267164030498 0.802 1.17693684746e-38
-0.023747913822 0.0267164030498 0.802 1.21370719943e-38
-0.0222636692081 0.0267164030498 0.802 1.22292676241e-38
-0.0207276055803 0.0266497786033 0.8 1.20448763644e-38
-0.0192470623246 0.0266497786033 0.8 1.19526807345e-38
-0.0177665190688 0.0266497786033 0.8 1.18604851047e-38
-0.0162859758131 0.0266497786033 0.8 1.23214660566e-38
-0.0148424461388 0.0267164030498 0.802 1.19526835371e-38
-0.0133748576365 0.026749715273 0.803 1.17682922774e-38
-0.0118887623436 0.026749715273 0.803 1.25033447882e-38
-0.0104026670506 0.026749715273 0.803 1.24104302922e-38
-0.00891657175768 0.026749715273 0.803 1.20420037025e-38
-0.00743047646473 0.026749715273 0.803 1.24107820181e-38
-0.00594438117178 0.026749715273 0.803 1.25955292076e-38
-0.00445828587884 0.026749715273 0.803 1.2318942318e-38
-0.00297219058589 0.026749715273 0.803 1.25955292076e-38
-0.00148054325574 0.0266497786033 0.8 1.25033335778e-38
0.0 0.0266497786033 0.8 1.17668587491e-38
0.00148054325574 0.0266497786033 0.8 1.18597704424e-38
0.00297959330217 0.0268163397195 0.805 1.17675734113e-38
0.00448049402767 0.026882964166 0.807 1.19523149956e-38
0.0059739920369 0.026882964166 0.807 1.22292592163e-38
0.00746749004612 0.026882964166 0.807 1.20448679566e-38
0.00893877990651 0.0268163397195 0.805 1.18604766969e-38
0.0104285765576 0.0268163397195 0.805 1.22289018852e-38
0.0119183732087 0.0268163397195 0.805 1.22274655543e-38
0.0134081698598 0.0268163397195 0.805 1.25040496413e-38
0.0148979665109 0.0268163397195 0.805 1.24122085399e-38
0.0163470482224 0.026749715273 0.803 1.24132847372e-38
0.0178331435154 0.026749715273 0.803 1.25980389332e-38
0.0193673564641 0.0268163397195 0.805 1.24132959475e-38
0.0209089721291 0.026882964166 0.807 1.24136630877e-38
0.0224024701384 0.026882964166 0.807 1.25977040228e-38
0.0238959681476 0.026882964166 0.807 1.20502741661e-38
0.0254523892452 0.0269495886125 0.809 1.15914540164e-38
0.0269495886125 0.0269495886125 0.809 1.2146071133e-38
0.0284467879799 0.0269495886125 0.809 1.3255299761e-38
-0.0564716211319 0.028235810566 0.803 1.34465181468e-38
-0.054985525839 0.028235810566 0.803 1.34465209494e-38
-0.0534994305461 0.028235810566 0.803 1.29844638003e-38
-0.0520133352531 0.028235810566 0.803 1.26131603449e-38
-0.0505272399602 0.028235810566 0.803 1.22414995584e-38
-0.0490411446672 0.028235810566 0.803 1.2330811316e-38
-0.047495827644 0.0282006476636 0.802 1.22360905463e-38
-0.0460115830302 0.0282006476636 0.802 1.22346514128e-38
-0.0445828587884 0.028235810566 0.803 1.21413795857e-38
-0.0432041028815 0.0283061363706 0.805 1.23250519793e-38
-0.0417143062304 0.0283061363706 0.805 1.21385041213e-38
-0.0373374502306 0.0283764621753 0.807 1.25958949465e-38
-0.0356662870307 0.028235810566 0.803 1.25969823541e-38
-0.0341376261192 0.0282006476636 0.802 1.20445302437e-38
-0.0326533815053 0.0282006476636 0.802 1.25051426541e-38
-0.0311691368914 0.0282006476636 0.802 1.25973354814e-38
-0.0296848922775 0.0282006476636 0.802 1.24132987501e-38
-0.028235810566 0.028235810566 0.803 1.18601221684e-38
-0.026749715273 0.028235810566 0.803 1.21367090579e-38
-0.0252636199801 0.028235810566 0.803 1.21367090579e-38
-0.0237775246871 0.028235810566 0.803 1.18601193658e-38
-0.0223469497663 0.0283061363706 0.805 1.20441504918e-38
-0.0208571531152 0.0283061363706 0.805 1.18594033022e-38
-0.0193673564641 0.0283061363706 0.805 1.19516017347e-38
-0.0178331435154 0.028235810566 0.803 1.25047783165e-38
-0.0163470482224 0.028235810566 0.803 1.20438001672e-38
-0.0148609529295 0.028235810566 0.803 1.20434428361e-38
-0.0133748576365 0.028235810566 0.803 1.21356384659e-38
-0.0118887623436 0.028235810566 0.803 1.21345622687e-38
-0.0104026670506 0.028235810566 0.803 1.25948215519e-38
-0.00891657175768 0.028235810566 0.803 1.21341993324e-38
-0.00744898325543 0.0283061363706 0.805 1.25951774817e-38
-0.00595918660434 0.0283061363706 0.805 1.24107848207e-38
-0.00446938995326 0.0283061363706 0.805 1.17654154116e-38
-0.00297959330217 0.0283061363706 0.805 1.23185891908e-38
-0.00148979665109 0.0283061363706 0.805 1.23185891908e-38
0.0 0.0283764621753 0.807 1.24111519609e-38
0.0015009007255 0.0285171137846 0.811 1.24111491583e-38
0.00299439873473 0.0284467879799 0.809 1.20437973646e-38
0.00449159810209 0.0284467879799 0.809 1.23207359801e-38
0.0059739920369 0.0283764621753 0.807 1.25051244372e-38
0.00746749004612 0.0283764621753 0.807 1.22292536111e-38
0.00896098805535 0.0283764621753 0.807 1.15838870047e-38
0.0104544860646 0.0283764621753 0.807 1.19526723267e-38
0.0119479840738 0.0283764621753 0.807 1.23196611842e-38
0.013441482083 0.0283764621753 0.807 1.25040496413e-38
0.0148979665109 0.0283061363706 0.805 1.22285403502e-38
0.0163877631619 0.0283061363706 0.805 1.21370579813e-38
0.017877559813 0.0283061363706 0.805 1.18619130278e-38
0.0194154741199 0.0283764621753 0.807 1.18637136963e-38
0.0209607911431 0.0284467879799 0.809 1.19562736638e-38
0.0224579905105 0.0284467879799 0.809 1.2417617552e-38
0.0239551898778 0.0284467879799 0.809 1.16868866457e-38
