# .PCD v0.7 - Point Cloud Data file format
VERSION 0.7
FIELDS x y z rgb
SIZE 4 4 4 4
TYPE F F F F
COUNT 1 1 1 1
WIDTH 852
HEIGHT 1
VIEWPOINT 0 0 0 1 0 0 0
POINTS 852
DATA ascii
0.0359679477191 -0.00781911906936 0.845 2.28641532698e-38
0.0374429389376 -0.00780061227866 0.843 2.3323689483e-38
0.0389105274398 -0.00778210548797 0.841 2.30453187405e-38
0.0403707132258 -0.00776359869727 0.839 2.29549027596e-38
0.0419234329653 -0.00776359869727 0.839 2.32314896492e-38
0.0434761527047 -0.00776359869727 0.839 2.27705283155e-38
-0.0769900999774 -0.0062849061206 0.849 2.20318702638e-38
-0.0754188734472 -0.0062849061206 0.849 2.13872253261e-38
-0.0738476469171 -0.0062849061206 0.849 2.14794237585e-38
-0.0724466828613 -0.00629971155316 0.851 2.16638150182e-38
-0.0711215966475 -0.006321919702 0.854 2.25857713169e-38
-0.069541116722 -0.006321919702 0.854 2.25857713169e-38
-0.0684381119964 -0.00636633599967 0.86 2.22169887974e-38
-0.0675460846849 -0.00643296044618 0.869 2.30467494662e-38
0.0257910635149 -0.00644776587873 0.871 2.34180473164e-38
0.0273400818963 -0.00643296044618 0.869 2.34180473164e-38
0.0288816975613 -0.00641815501362 0.867 2.34180473164e-38
0.0303104218031 -0.00638114143223 0.862 2.35098828126e-38
0.0319057071611 -0.00638114143223 0.862 2.34176871827e-38
0.0333455354773 -0.00635153056711 0.858 2.32329357893e-38
0.0344041239052 -0.00625529525549 0.845 2.3417327049e-38
0.0358828164819 -0.00624048982293 0.843 2.31407401594e-38
0.0373541063422 -0.00622568439037 0.841 2.35080807427e-38
0.0389105274398 -0.00622568439037 0.841 2.30463977403e-38
0.0403707132258 -0.00621087895782 0.839 2.32318427765e-38
0.0419234329653 -0.00621087895782 0.839 2.28623554039e-38
0.0434761527047 -0.00621087895782 0.839 2.26783326856e-38
-0.0769900999774 -0.00471367959045 0.849 2.18471244756e-38
-0.0754188734472 -0.00471367959045 0.849 2.16638150182e-38
-0.0738476469171 -0.00471367959045 0.849 2.22169887974e-38
-0.0724466828613 -0.00472478366487 0.851 2.23091844273e-38
-0.0711215966475 -0.0047414397765 0.854 2.22169887974e-38
-0.069541116722 -0.0047414397765 0.854 2.28623582065e-38
-0.0682789535964 -0.00476364792533 0.858 2.29545538363e-38
-0.0675460846849 -0.00482472033463 0.869 2.27701625766e-38
-0.0659378445733 -0.00482472033463 0.869 2.26779669467e-38
0.0257910635149 -0.00483582440905 0.871 2.34180473164e-38
0.0272771588079 -0.00481361626021 0.867 2.34180473164e-38
0.0287817608915 -0.00479696014859 0.864 2.34180473164e-38
0.0302400959984 -0.00477475199975 0.86 2.35098828126e-38
0.0318316799983 -0.00477475199975 0.86 2.35098828126e-38
0.0333455354773 -0.00476364792533 0.858 2.3417327049e-38
0.0344041239052 -0.00469147144162 0.845 2.35095226788e-38
0.0358828164819 -0.0046803673672 0.843 2.33251314191e-38
0.0373541063422 -0.00466926329278 0.841 2.32329329867e-38
0.0389105274398 -0.00466926329278 0.841 2.31393122363e-38
0.0403707132258 -0.00465815921836 0.839 2.31403618088e-38
0.0419234329653 -0.00465815921836 0.839 2.27705255129e-38
0.0434761527047 -0.00465815921836 0.839 2.29545566389e-38
-0.0754188734472 -0.0031424530603 0.849 2.2124790365e-38
-0.0738476469171 -0.0031424530603 0.849 2.19404019078e-38
-0.0724466828613 -0.00314985577658 0.851 2.17560106481e-38
-0.0711215966475 -0.003160959851 0.854 2.24013800572e-38
-0.069541116722 -0.003160959851 0.854 2.22169887974e-38
-0.0682789535964 -0.00317576528356 0.858 2.27701625766e-38
-0.067390627643 -0.00320907750681 0.867 2.25857713169e-38
-0.0657860888896 -0.00320907750681 0.867 2.32311407259e-38
0.0257910635149 -0.00322388293937 0.871 2.34180473164e-38
0.0272771588079 -0.00320907750681 0.867 2.34180473164e-38
0.0287817608915 -0.00319797343239 0.864 2.34180473164e-38
0.0301697701938 -0.00317576528356 0.858 2.35098828126e-38
0.0316836256728 -0.00316836256728 0.856 2.35098828126e-38
0.0329957571332 -0.0031424530603 0.849 2.35098828126e-38
0.0344855537843 -0.00313505034402 0.847 2.35098828126e-38
0.0359679477191 -0.00312764762774 0.845 2.3417327049e-38
0.0373541063422 -0.00311284219519 0.841 2.27723177736e-38
0.0389105274398 -0.00311284219519 0.841 2.34173326542e-38
0.0404669485374 -0.00311284219519 0.841 2.34180234943e-38
0.042023369635 -0.00311284219519 0.841 2.27705297168e-38
-0.0750635430659 -0.00156382381387 0.845 2.1295385626e-38
-0.073499719252 -0.00156382381387 0.845 2.20325975377e-38
-0.0724466828613 -0.00157492788829 0.851 2.2493575687e-38
-0.0711215966475 -0.0015804799255 0.854 2.27701625766e-38
-0.069541116722 -0.0015804799255 0.854 2.32311407259e-38
-0.0682789535964 -0.00158788264178 0.858 2.33233363558e-38
0.0272771588079 -0.0016045387534 0.867 2.34180473164e-38
0.0287817608915 -0.0015989867162 0.864 2.34180473164e-38
0.0300994443891 -0.00158418128364 0.856 2.35098828126e-38
0.0316836256728 -0.00158418128364 0.856 2.33254915528e-38
0.0329957571332 -0.00157122653015 0.849 2.35098828126e-38
0.0344855537843 -0.00156752517201 0.847 2.3417327049e-38
0.0359679477191 -0.00156382381387 0.845 2.33251314191e-38
0.0373541063422 -0.00155642109759 0.841 2.28659553396e-38
0.0389105274398 -0.00155642109759 0.841 2.32343791267e-38
0.0404669485374 -0.00155642109759 0.841 2.30503157708e-38
-0.0764460003309 0.0 0.843 2.35077248129e-38
-0.0748858778752 0.0 0.843 2.24924938846e-38
-0.073499719252 0.0 0.845 2.20325975377e-38
-0.0722764203869 0.0 0.849 2.27701625766e-38
-0.0708717549731 0.0 0.851 2.26779669467e-38
-0.069541116722 0.0 0.854 2.32311407259e-38
-0.0681197951965 0.0 0.856 2.33233363558e-38
-0.0670019850384 0.0 0.862 2.24013800572e-38
0.0272771588079 0.0 0.867 2.35098828126e-38
0.0287817608915 0.0 0.864 2.35098828126e-38
0.0300994443891 0.0 0.856 2.35098828126e-38
0.03160959851 0.0 0.854 2.35098828126e-38
0.0329957571332 0.0 0.849 2.35098856151e-38
0.0344855537843 0.0 0.847 2.35098856151e-38
0.0359679477191 0.0 0.845 2.35098856151e-38
0.0375317715329 0.0 0.845 2.35095268827e-38
0.0406594191607 0.0 0.845 2.30485403256e-38
-0.0764460003309 0.00156012245573 0.843 2.29513140343e-38
-0.0748858778752 0.00156012245573 0.843 2.24013800572e-38
-0.073499719252 0.00156382381387 0.845 2.20333164038e-38
-0.0722764203869 0.00157122653015 0.849 2.21255120337e-38
-0.0708717549731 0.00157492788829 0.851 2.24020989233e-38
-0.0697039764801 0.00158418128364 0.856 2.29552727024e-38
-0.0681197951965 0.00158418128364 0.856 2.35095268827e-38
-0.0668465279965 0.00159158399992 0.86 2.35084464816e-38
0.0272771588079 0.0016045387534 0.867 2.35098828126e-38
0.0287817608915 0.0015989867162 0.864 2.35098828126e-38
0.0300994443891 0.00158418128364 0.856 2.35098828126e-38
0.0314985577658 0.00157492788829 0.851 2.35098828126e-38
0.0329180286122 0.00156752517201 0.847 2.35098828126e-38
0.0344041239052 0.00156382381387 0.845 2.35098828126e-38
0.0359679477191 0.00156382381387 0.845 2.35098856151e-38
0.0375317715329 0.00156382381387 0.845 2.34173326542e-38
-0.0764460003309 0.00312024491147 0.843 1.51132463624e-38
-0.0748858778752 0.00312024491147 0.843 2.35091681503e-38
-0.073499719252 0.00312764762774 0.845 2.25879293165e-38
-0.0724466828613 0.00314985577658 0.851 2.286379734e-38
-0.0708717549731 0.00314985577658 0.851 2.32325798594e-38
-0.069541116722 0.003160959851 0.854 2.33247754893e-38
-0.0681197951965 0.00316836256728 0.856 2.35095268827e-38
-0.0668465279965 0.00318316799983 0.86 2.32325798594e-38
0.0287817608915 0.00319797343239 0.864 2.35098828126e-38
0.0299236298775 0.00314985577658 0.851 2.35098828126e-38
0.031424530603 0.0031424530603 0.849 2.35098828126e-38
0.0329180286122 0.00313505034402 0.847 2.35098828126e-38
0.0344041239052 0.00312764762774 0.845 2.35098828126e-38
0.0359679477191 0.00312764762774 0.845 2.35098828126e-38
0.0375317715329 0.00312764762774 0.845 2.32343791267e-38
-0.0781911906936 0.00469147144162 0.845 2.1844253215e-38
-0.0766273668797 0.00469147144162 0.845 4.23344317239e-39
-0.0750635430659 0.00469147144162 0.845 2.28623582065e-38
-0.073499719252 0.00469147144162 0.845 2.33254943554e-38
-0.0722764203869 0.00471367959045 0.849 2.2956711836e-38
-0.0708717549731 0.00472478366487 0.851 2.34176899853e-38
-0.069541116722 0.0047414397765 0.854 2.3418050119e-38
-0.0681197951965 0.00475254385092 0.856 2.3418050119e-38
-0.0666910709547 0.00476364792533 0.858 2.33262132215e-38
0.028715136445 0.00478585607417 0.862 2.35098856151e-38
0.0299236298775 0.00472478366487 0.851 2.35098828126e-38
0.031424530603 0.00471367959045 0.849 2.35098828126e-38
0.0329180286122 0.00470257551603 0.847 2.35098828126e-38
0.0344041239052 0.00469147144162 0.845 2.350988001e-38
0.0359679477191 0.00469147144162 0.845 2.350988001e-38
0.0375317715329 0.00469147144162 0.845 2.29588726382e-38
-0.0768087334286 0.00627010068805 0.847 7.92054950081e-39
-0.0752412082565 0.00627010068805 0.847 1.24431730321e-38
-0.0736736830845 0.00627010068805 0.847 2.35088066153e-38
-0.0721061579125 0.00627010068805 0.847 2.35095268827e-38
-0.0708717549731 0.00629971155316 0.851 2.29559929699e-38
-0.0697039764801 0.00633672513455 0.856 2.28645162061e-38
-0.0681197951965 0.00633672513455 0.856 2.35098856151e-38
-0.0666910709547 0.00635153056711 0.858 2.26808438125e-38
0.0271827741753 0.00639594686478 0.864 2.35098856151e-38
0.028581887552 0.00635153056711 0.858 2.35098856151e-38
0.0300994443891 0.00633672513455 0.856 2.35098828126e-38
0.0314985577658 0.00629971155316 0.851 2.35098828126e-38
0.0329180286122 0.00627010068805 0.847 2.350988001e-38
0.0344041239052 0.00625529525549 0.845 2.34180431125e-38
0.0359679477191 0.00625529525549 0.845 2.350988001e-38
-0.0752412082565 0.00783762586006 0.847 1.83707846466e-39
-0.0736736830845 0.00783762586006 0.847 1.91705771464e-38
-0.0721061579125 0.00783762586006 0.847 2.35080919531e-38
-0.0708717549731 0.00787463944145 0.851 2.23073865614e-38
-0.0697039764801 0.00792090641819 0.856 2.35077276155e-38
-0.0681197951965 0.00792090641819 0.856 2.29559929699e-38
-0.0666910709547 0.00793941320889 0.858 2.3418050119e-38
0.027119851087 0.00797642679028 0.862 2.35098856151e-38
0.028581887552 0.00793941320889 0.858 2.35098856151e-38
0.0298533040729 0.00785613265075 0.849 2.35098856151e-38
0.0313505034402 0.00783762586006 0.847 2.35098828126e-38
0.0327625715704 0.00780061227866 0.843 2.33258474826e-38
0.0343226940261 0.00780061227866 0.843 2.35098786087e-38
0.0358828164819 0.00780061227866 0.843 2.35098786087e-38
-0.0736570269729 0.00883884323675 0.796 2.16613010888e-38
-0.0721838864334 0.00883884323675 0.796 2.35044878135e-38
-0.0754188734472 0.0094273591809 0.849 1.72297927863e-38
-0.0738476469171 0.0094273591809 0.849 2.47956680406e-39
-0.0722764203869 0.0094273591809 0.849 2.21176003025e-38
-0.0708717549731 0.00944956732974 0.851 2.35073744883e-38
-0.069541116722 0.00948287955299 0.854 2.3506650017e-38
-0.0681197951965 0.00950508770183 0.856 2.35091681503e-38
-0.0665356139128 0.00950508770183 0.856 2.35098856151e-38
0.0254653439987 0.0095495039995 0.86 2.35098856151e-38
0.0267737741009 0.00944956732974 0.851 2.35095268827e-38
0.0282820775427 0.0094273591809 0.849 2.35098856151e-38
0.0297829782682 0.00940515103207 0.847 2.35098856151e-38
0.0312764762774 0.00938294288323 0.845 2.30489046632e-38
0.0327625715704 0.0093607347344 0.843 2.350988001e-38
0.0343226940261 0.0093607347344 0.843 2.35098786087e-38
0.0358828164819 0.0093607347344 0.843 2.32336476489e-38
-0.0736570269729 0.0103119837762 0.796 2.3507373087e-38
-0.0721838864334 0.0103119837762 0.796 2.07386189176e-38
-0.070710745894 0.0103119837762 0.796 2.2390590059e-38
-0.0740216107496 0.011024495218 0.851 1.32614248366e-38
-0.0724466828613 0.011024495218 0.851 3.58268156686e-39
-0.0711215966475 0.0110633594785 0.854 1.31742640721e-38
-0.069541116722 0.0110633594785 0.854 2.35044920174e-38
-0.0681197951965 0.0110892689855 0.856 2.35084506855e-38
-0.0665356139128 0.0110892689855 0.856 2.35088066153e-38
0.0254653439987 0.0111410879994 0.86 2.35095268827e-38
0.0267737741009 0.011024495218 0.851 2.35095268827e-38
0.0282820775427 0.0109985857111 0.849 2.35098856151e-38
0.0297829782682 0.0109726762041 0.847 2.35098856151e-38
0.0312764762774 0.0109467666971 0.845 2.35098828126e-38
0.0327625715704 0.0109208571901 0.843 2.32336518528e-38
0.0343226940261 0.0109208571901 0.843 2.32336504515e-38
-0.0736570269729 0.0117851243157 0.796 2.21229981042e-38
-0.0721838864334 0.0117851243157 0.796 2.14769098291e-38
-0.070710745894 0.0117851243157 0.796 2.02754995842e-38
-0.0695855330196 0.0118443460459 0.8 1.85205316044e-38
-0.072702076573 0.012643839404 0.854 1.39042901253e-38
-0.0711215966475 0.012643839404 0.854 8.64232050473e-39
-0.069541116722 0.012643839404 0.854 5.78566988912e-39
0.0269940049102 0.0127030611342 0.858 2.27752016459e-38
0.0283487019892 0.0125994231063 0.851 2.32343721202e-38
0.0297829782682 0.0125402013761 0.847 2.35098786087e-38
0.0312764762774 0.012510590511 0.845 2.35073674818e-38
0.0328403000913 0.012510590511 0.845 2.35059325522e-38
-0.0736570269729 0.0132582648551 0.796 2.17542155848e-38
-0.0721838864334 0.0132582648551 0.796 2.12003229395e-38
-0.070710745894 0.0132582648551 0.796 1.91720232864e-38
-0.0694115691871 0.0132915770784 0.798 1.94453577622e-38
-0.0681049897639 0.0133248893016 0.8 1.74999140847e-38
-0.0662913242756 0.0132582648551 0.796 1.53711595486e-38
-0.0648181837362 0.0132582648551 0.796 1.48150864829e-38
0.0285152631055 0.0142576315527 0.856 1.8793151418e-38
0.0300291185845 0.0142243193295 0.854 1.08614461801e-38
0.03160959851 0.0142243193295 0.854 5.6952609148e-39
-0.0740271627868 0.0148054325574 0.8 2.21222792381e-38
-0.0723652529823 0.014768418976 0.798 2.04627579006e-38
-0.0708884110847 0.014768418976 0.798 2.00932523111e-38
-0.0694115691871 0.014768418976 0.798 1.88928916388e-38
-0.0681049897639 0.0148054325574 0.8 1.91633758736e-38
-0.0662913242756 0.0147314053946 0.796 1.55609289919e-38
-0.0648181837362 0.0147314053946 0.796 1.28843592419e-38
-0.0636633599967 0.0148054325574 0.8 1.44491668162e-38
-0.0621828167409 0.0148054325574 0.8 1.38952909865e-38
0.0161638309945 0.0146943918132 0.794 1.82385581235e-38
0.0176332701758 0.0146943918132 0.794 1.58392913266e-38
0.019150827013 0.0147314053946 0.796 8.64585177686e-39
0.0206239675524 0.0147314053946 0.796 5.78563625795e-39
-0.0740271627868 0.0162859758131 0.8 2.21222792381e-38
-0.0725466195311 0.0162859758131 0.8 2.03698420033e-38
-0.0710660762754 0.0162859758131 0.8 1.83408164776e-38
-0.0695855330196 0.0162859758131 0.8 1.84319078843e-38
-0.0681049897639 0.0162859758131 0.8 1.91666058665e-38
-0.0664578853919 0.0162452608736 0.798 1.7410230983e-38
-0.0649810434943 0.0162452608736 0.798 1.42723201474e-38
-0.0636633599967 0.0162859758131 0.8 1.38988628963e-38
-0.0621828167409 0.0162859758131 0.8 1.45395757906e-38
-0.0608540291689 0.0163266907526 0.802 1.52753247467e-38
-0.059369784555 0.0163266907526 0.802 1.48139850623e-38
-0.0574524810389 0.016204545934 0.796 1.4628520408e-38
-0.0559793404994 0.016204545934 0.796 1.4166468864e-38
-0.0543692497088 0.0161638309945 0.794 1.30586821722e-38
-0.0528998105275 0.0161638309945 0.794 1.36096923465e-38
-0.051559918881 0.016204545934 0.796 1.32387490248e-38
-0.0499609321648 0.0161638309945 0.794 1.21309651355e-38
-0.0484914929835 0.0161638309945 0.794 1.12994094034e-38
-0.0470220538022 0.0161638309945 0.794 8.72585611008e-39
-0.0455526146209 0.0161638309945 0.794 7.71458384993e-39
0.0118147351808 0.0162452608736 0.798 6.5203384441e-39
0.0132582648551 0.016204545934 0.796 6.42850294794e-39
0.0147314053946 0.016204545934 0.796 7.99151966284e-39
0.0161638309945 0.0161638309945 0.794 9.0035107891e-39
0.0176332701758 0.0161638309945 0.794 8.90879142071e-39
0.019150827013 0.016204545934 0.796 1.13951909561e-38
0.0206239675524 0.016204545934 0.796 1.26844906406e-38
-0.0727279860799 0.0178109353665 0.802 2.09230157825e-38
-0.0712437414661 0.0178109353665 0.802 1.80627932571e-38
-0.0698464787685 0.0178331435154 0.803 1.81553265999e-38
-0.0683603834755 0.0178331435154 0.803 1.72319395755e-38
-0.0667910076244 0.0178109353665 0.802 1.79666445643e-38
-0.0653067630106 0.0178109353665 0.802 1.55659386339e-38
-0.0638225183967 0.0178109353665 0.802 1.49151742257e-38
-0.0623382737828 0.0178109353665 0.802 1.45399415295e-38
-0.0608540291689 0.0178109353665 0.802 1.47207188404e-38
-0.059369784555 0.0178109353665 0.802 1.37040487786e-38
-0.0574524810389 0.0176776864735 0.796 1.44408949514e-38
-0.0559793404994 0.0176776864735 0.796 1.37958786696e-38
-0.0543692497088 0.0176332701758 0.794 1.40724641579e-38
-0.0528998105275 0.0176332701758 0.794 1.36122048747e-38
-0.051559918881 0.0176776864735 0.796 1.32434237565e-38
-0.0499609321648 0.0176332701758 0.794 1.35207337161e-38
-0.0484914929835 0.0176332701758 0.794 1.31526700628e-38
-0.0470220538022 0.0176332701758 0.794 1.41603592027e-38
-0.0455526146209 0.0176332701758 0.794 1.4803936351e-38
-0.0440831754396 0.0176332701758 0.794 1.48035804212e-38
-0.0426137362582 0.0176332701758 0.794 1.37912263587e-38
-0.0411442970769 0.0176332701758 0.794 1.31465730131e-38
0.00148054325574 0.0177665190688 0.8 9.36906471689e-39
0.00296108651147 0.0177665190688 0.8 9.646006135e-39
0.00443052569279 0.0177221027712 0.798 1.03828481039e-38
0.00590736759039 0.0177221027712 0.798 1.21338434026e-38
0.00738420948799 0.0177221027712 0.798 1.27792156142e-38
0.00888325953442 0.0177665190688 0.8 1.34245878259e-38
0.0103638027902 0.0177665190688 0.8 1.35164261246e-38
0.0118147351808 0.0177221027712 0.798 1.30583276437e-38
0.0132582648551 0.0176776864735 0.796 1.28750125811e-38
0.0147314053946 0.0176776864735 0.796 1.30597583694e-38
0.016204545934 0.0176776864735 0.796 1.27824456072e-38
0.0176776864735 0.0176776864735 0.796 1.35192903787e-38
0.019150827013 0.0176776864735 0.796 1.37033158995e-38
0.0206239675524 0.0176776864735 0.796 1.32426922787e-38
0.022152628464 0.0177221027712 0.798 1.32419664061e-38
0.0236294703616 0.0177221027712 0.798 1.24143889603e-38
0.0251063122592 0.0177221027712 0.798 1.26913359836e-38
-0.0715102392521 0.0193673564641 0.805 1.89836761611e-38
-0.070020442601 0.0193673564641 0.805 1.89836537403e-38
-0.0683603834755 0.0193192388083 0.803 1.75081719366e-38
-0.0668742881826 0.0193192388083 0.803 1.69528527695e-38
-0.0653881928896 0.0193192388083 0.803 1.44617518777e-38
-0.0638225183967 0.0192951799804 0.802 1.57470984993e-38
-0.0623382737828 0.0192951799804 0.802 1.49108862524e-38
-0.0608540291689 0.0192951799804 0.802 1.41700673985e-38
-0.059369784555 0.0192951799804 0.802 1.44470088166e-38
-0.0577411869737 0.0192470623246 0.8 1.37097969049e-38
-0.0559793404994 0.019150827013 0.796 1.23264953168e-38
-0.05450619996 0.019150827013 0.796 1.26020032065e-38
-0.0530330594205 0.019150827013 0.796 1.29704340001e-38
-0.051559918881 0.019150827013 0.796 1.29704396053e-38
-0.0499609321648 0.0191027093571 0.794 1.2602733283e-38
-0.0484914929835 0.0191027093571 0.794 1.23264981194e-38
-0.0470220538022 0.0191027093571 0.794 1.37043892941e-38
-0.0455526146209 0.0191027093571 0.794 1.33338089088e-38
-0.0440831754396 0.0191027093571 0.794 1.34260087425e-38
-0.0426137362582 0.0191027093571 0.794 1.33345361827e-38
-0.0411442970769 0.0191027093571 0.794 1.30579520957e-38
-0.0397747945654 0.019150827013 0.796 1.30579520957e-38
-0.0383978893375 0.0191989446688 0.798 1.3334899119e-38
-0.00148424461388 0.0192951799804 0.802 1.45298395688e-38
0.0 0.0192951799804 0.802 1.43429441887e-38
0.00148054325574 0.0192470623246 0.8 1.38816101096e-38
0.00296108651147 0.0192470623246 0.8 1.43433043225e-38
0.00443052569279 0.0191989446688 0.798 1.43440231886e-38
0.00590736759039 0.0191989446688 0.798 1.39766826052e-38
0.00738420948799 0.0191989446688 0.798 1.37008173844e-38
0.00888325953442 0.0192470623246 0.8 1.32412811712e-38
0.0103638027902 0.0192470623246 0.8 1.29646998868e-38
0.0118147351808 0.0191989446688 0.798 1.32408986167e-38
0.0132915770784 0.0191989446688 0.798 1.33327172972e-38
0.0147314053946 0.019150827013 0.796 1.32416006672e-38
0.016204545934 0.019150827013 0.796 1.25973200671e-38
0.0176776864735 0.019150827013 0.796 1.23207485918e-38
0.0191989446688 0.0191989446688 0.798 1.26895451242e-38
0.0206757865664 0.0191989446688 0.798 1.25058769345e-38
0.022152628464 0.0191989446688 0.798 1.24147532979e-38
0.0236294703616 0.0191989446688 0.798 1.31530386043e-38
0.0252636199801 0.0193192388083 0.803 1.2600216551e-38
-0.0716879044428 0.0209089721291 0.807 1.96283239014e-38
-0.070020442601 0.0208571531152 0.805 1.75070817264e-38
-0.0685306459499 0.0208571531152 0.805 1.76911198589e-38
-0.0668742881826 0.0208053341012 0.803 1.76900520695e-38
-0.0653881928896 0.0208053341012 0.803 1.54762583348e-38
-0.0639020975967 0.0208053341012 0.803 1.49191300913e-38
-0.0624160023037 0.0208053341012 0.803 1.39928816155e-38
-0.0608540291689 0.0207794245943 0.802 1.34382546898e-38
-0.059369784555 0.0207794245943 0.802 1.26106464155e-38
-0.0578855399412 0.0207794245943 0.802 1.20578243622e-38
-0.0561199921087 0.0206757865664 0.798 1.24233628757e-38
-0.05450619996 0.0206239675524 0.796 1.27878364024e-38
-0.0530330594205 0.0206239675524 0.796 1.30612003055e-38
-0.051559918881 0.0206239675524 0.796 1.35193029904e-38
-0.0499609321648 0.0205721485385 0.794 1.31497903944e-38
-0.0484914929835 0.0205721485385 0.794 1.31497735788e-38
-0.0470220538022 0.0205721485385 0.794 1.25991263408e-38
-0.0455526146209 0.0205721485385 0.794 1.20473973003e-38
-0.0440831754396 0.0205721485385 0.794 1.25072978511e-38
-0.0426137362582 0.0205721485385 0.794 1.24151050239e-38
-0.0411442970769 0.0205721485385 0.794 1.2414749094e-38
-0.0397747945654 0.0206239675524 0.796 1.2229994898e-38
-0.0383978893375 0.0206757865664 0.798 1.23221877253e-38
-0.0369210474399 0.0206757865664 0.798 1.24147406863e-38
-0.0355330381377 0.0207276055803 0.8 1.25051426541e-38
-0.0340524948819 0.0207276055803 0.8 1.27810134802e-38
-0.0326533815053 0.0207794245943 0.802 1.25969823541e-38
-0.0311691368914 0.0207794245943 0.802 1.27817295437e-38
-0.0296848922775 0.0207794245943 0.802 1.32427048904e-38
-0.00297219058589 0.0208053341012 0.803 1.28724790335e-38
-0.00148424461388 0.0207794245943 0.802 1.27799176648e-38
0.0 0.0207794245943 0.802 1.30572262231e-38
0.00148054325574 0.0207276055803 0.8 1.25036965141e-38
0.00296108651147 0.0207276055803 0.8 1.28735580333e-38
0.00444162976721 0.0207276055803 0.8 1.24132987501e-38
0.00592217302295 0.0207276055803 0.8 1.29668368669e-38
0.00740271627868 0.0207276055803 0.8 1.25987802201e-38
0.00888325953442 0.0207276055803 0.8 1.24143973681e-38
0.0103638027902 0.0207276055803 0.8 1.25073188706e-38
0.0118443460459 0.0207276055803 0.8 1.35139079913e-38
0.0133248893016 0.0207276055803 0.8 1.36968475058e-38
0.014768418976 0.0206757865664 0.798 1.35138841692e-38
0.0162452608736 0.0206757865664 0.798 1.31458205159e-38
0.0177221027712 0.0206757865664 0.798 1.36068098756e-38
0.0192470623246 0.0207276055803 0.8 1.37919284092e-38
0.0207276055803 0.0207276055803 0.8 1.34249381505e-38
0.0222081488361 0.0207276055803 0.8 1.3333448775e-38
0.023747913822 0.0207794245943 0.802 1.33352634566e-38
0.0252636199801 0.0208053341012 0.803 1.24143861577e-38
-0.0701944064336 0.0224024701384 0.807 1.78754971056e-38
-0.0687009084243 0.0224024701384 0.807 1.82435663642e-38
-0.0672074104151 0.0224024701384 0.807 1.79655515515e-38
-0.0657139124059 0.0224024701384 0.807 1.62130932972e-38
-0.0640612559967 0.0223469497663 0.805 1.56584831871e-38
-0.0624160023037 0.0222914293942 0.803 1.42730558291e-38
-0.0608540291689 0.0222636692081 0.802 1.32578136904e-38
-0.059369784555 0.0222636692081 0.802 1.41722127865e-38
-0.0578855399412 0.0222636692081 0.802 1.39845747182e-38
-0.0564012953273 0.0222636692081 0.802 1.41675254431e-38
-0.0549170507134 0.0222636692081 0.802 1.35200064422e-38
-0.0530330594205 0.0220971080919 0.796 1.35185869269e-38
-0.051559918881 0.0220971080919 0.796 1.29654187529e-38
-0.0500867783416 0.0220971080919 0.796 1.29668368669e-38
-0.0486136378021 0.0220971080919 0.796 1.27845769822e-38
-0.0471404972627 0.0220971080919 0.796 1.28757132304e-38
-0.0455526146209 0.0220415877198 0.794 1.35200106461e-38
-0.0440831754396 0.0220415877198 0.794 1.30583164333e-38
-0.0427210756443 0.0220971080919 0.796 1.2781007875e-38
-0.0412479351048 0.0220971080919 0.796 1.25958949465e-38
-0.0397747945654 0.0220971080919 0.796 1.26877248375e-38
-0.0383978893375 0.022152628464 0.798 1.32401713428e-38
-0.0369210474399 0.022152628464 0.798 1.30561332103e-38
-0.0355330381377 0.0222081488361 0.8 1.27820672566e-38
-0.0340524948819 0.0222081488361 0.8 1.30590198851e-38
-0.0326533815053 0.0222636692081 0.802 1.25054887748e-38
-0.0311691368914 0.0222636692081 0.802 1.32423405528e-38
-0.0296848922775 0.0222636692081 0.802 1.27813624035e-38
-0.0282006476636 0.0222636692081 0.802 1.29657536632e-38
-0.0265165297102 0.0220971080919 0.796 1.27813596009e-38
-0.0250433891708 0.0220971080919 0.796 1.28739111606e-38
-0.0236294703616 0.022152628464 0.798 1.33334431699e-38
-0.022152628464 0.022152628464 0.798 1.31483288401e-38
-0.0206757865664 0.022152628464 0.798 1.31490519101e-38
-0.019150827013 0.0220971080919 0.796 1.28731866892e-38
-0.0176776864735 0.0220971080919 0.796 1.3058301019e-38
-0.016204545934 0.0220971080919 0.796 1.34274450734e-38
-0.014768418976 0.022152628464 0.798 1.27827973331e-38
-0.0133582015249 0.0222636692081 0.802 1.27835204031e-38
-0.0118443460459 0.0222081488361 0.8 1.24165441574e-38
-0.0103638027902 0.0222081488361 0.8 1.23243485275e-38
-0.00742122306938 0.0222636692081 0.802 1.24151050239e-38
-0.0059369784555 0.0222636692081 0.802 1.28746370332e-38
-0.00445273384163 0.0222636692081 0.802 1.27817141294e-38
-0.00296108651147 0.0222081488361 0.8 1.32419636035e-38
-0.00148054325574 0.0222081488361 0.8 1.2504034227e-38
0.0 0.022152628464 0.798 1.22303256045e-38
0.0014768418976 0.022152628464 0.798 1.22310486745e-38
0.00296108651147 0.0222081488361 0.8 1.24154399342e-38
0.00444162976721 0.0222081488361 0.8 1.20455840201e-38
0.00592217302295 0.0222081488361 0.8 1.25984032708e-38
0.00740271627868 0.0222081488361 0.8 1.25973354814e-38
0.00888325953442 0.0222081488361 0.8 1.25047895269e-38
0.0103638027902 0.0222081488361 0.8 1.25966306282e-38
0.0118443460459 0.0222081488361 0.8 1.25969963671e-38
0.0133248893016 0.0222081488361 0.8 1.23211171333e-38
0.0148054325574 0.0222081488361 0.8 1.24140148137e-38
0.0162859758131 0.0222081488361 0.8 1.25062076409e-38
0.0178109353665 0.0222636692081 0.802 1.26902499773e-38
0.0192951799804 0.0222636692081 0.802 1.25977012202e-38
0.0207794245943 0.0222636692081 0.802 1.24136588838e-38
0.0222636692081 0.0222636692081 0.802 1.27827805175e-38
0.0237775246871 0.0222914293942 0.803 1.27831658746e-38
0.0252636199801 0.0222914293942 0.803 1.25072978511e-38
0.026749715273 0.0222914293942 0.803 1.26005682769e-38
-0.0701944064336 0.0238959681476 0.807 1.54816505312e-38
-0.0687009084243 0.0238959681476 0.807 1.59408336172e-38
-0.0672074104151 0.0238959681476 0.807 1.67687978214e-38
-0.0657139124059 0.0238959681476 0.807 1.62145394372e-38
-0.0642204143967 0.0238959681476 0.807 1.51074758153e-38
-0.0624160023037 0.0237775246871 0.803 1.45521496417e-38
-0.0609299070108 0.0237775246871 0.803 1.37220288392e-38
-0.0594438117178 0.0237775246871 0.803 1.38988628963e-38
-0.0579577164249 0.0237775246871 0.803 1.30654994892e-38
-0.0564716211319 0.0237775246871 0.803 1.34328456777e-38
-0.0549170507134 0.023747913822 0.802 1.30615492288e-38
-0.0532995572065 0.0236886920918 0.8 1.34285408888e-38
-0.0518190139508 0.0236886920918 0.8 1.25984242903e-38
-0.0503384706951 0.0236886920918 0.8 1.3152314133e-38
-0.0488579274393 0.0236886920918 0.8 1.28760803706e-38
-0.0472589407231 0.0236294703616 0.798 1.25969851567e-38
-0.0456673567232 0.0235702486313 0.796 1.30561654401e-38
-0.0441942161837 0.0235702486313 0.796 1.31487141972e-38
-0.0427210756443 0.0235702486313 0.796 1.30565185673e-38
-0.0412479351048 0.0235702486313 0.796 1.36096951491e-38
-0.0399746679049 0.0236886920918 0.8 1.26877360479e-38
-0.0384941246492 0.0236886920918 0.8 1.28728349633e-38
-0.0370135813934 0.0236886920918 0.8 1.23200073049e-38
-0.0355330381377 0.0236886920918 0.8 1.25965969971e-38
-0.0340524948819 0.0236886920918 0.8 1.29653823191e-38
-0.0326533815053 0.023747913822 0.802 1.29653795165e-38
-0.0311691368914 0.023747913822 0.802 1.26887954295e-38
-0.0296848922775 0.023747913822 0.802 1.250404824e-38
-0.0282006476636 0.023747913822 0.802 1.29650277906e-38
-0.0265165297102 0.0235702486313 0.796 1.2411856814e-38
-0.0250433891708 0.0235702486313 0.796 1.31490659231e-38
-0.0235702486313 0.0235702486313 0.796 1.30565073569e-38
-0.022152628464 0.0236294703616 0.798 1.25033307752e-38
-0.0206757865664 0.0236294703616 0.798 1.1950156996e-38
-0.019150827013 0.0235702486313 0.796 1.26884394997e-38
-0.0176776864735 0.0235702486313 0.796 1.23196569803e-38
-0.016204545934 0.0235702486313 0.796 1.26887954295e-38
-0.014768418976 0.0236294703616 0.798 1.26887954295e-38
-0.0133582015249 0.023747913822 0.802 1.24129316099e-38
-0.0118443460459 0.0236886920918 0.8 1.25980389332e-38
-0.0103638027902 0.0236886920918 0.8 1.26902373656e-38
-0.00890546768326 0.023747913822 0.802 1.22289018852e-38
-0.00742122306938 0.023747913822 0.802 1.21359901918e-38
-0.0059369784555 0.023747913822 0.802 1.27795645375e-38
-0.00445273384163 0.023747913822 0.802 1.32408958141e-38
-0.00296108651147 0.0236886920918 0.8 1.29635872558e-38
-0.00148054325574 0.0236886920918 0.8 1.27791931935e-38
0.0 0.0236294703616 0.798 1.23189395154e-38
0.0014768418976 0.0236294703616 0.798 1.2688440901e-38
0.00296108651147 0.0236886920918 0.8 1.24118540114e-38
0.00444162976721 0.0236886920918 0.8 1.2597324271e-38
0.00592217302295 0.0236886920918 0.8 1.23203814516e-38
0.00740271627868 0.0236886920918 0.8 1.25054915774e-38
0.00888325953442 0.0236886920918 0.8 1.23211031203e-38
0.0103897122971 0.023747913822 0.802 1.28742768995e-38
0.011873956911 0.023747913822 0.802 1.16796839716e-38
0.0133582015249 0.023747913822 0.802 1.14952927119e-38
0.0148424461388 0.023747913822 0.802 1.21388670576e-38
0.0163266907526 0.023747913822 0.802 1.28742740969e-38
0.0178109353665 0.023747913822 0.802 1.30583024203e-38
0.0192951799804 0.023747913822 0.802 1.24132931449e-38
0.0208053341012 0.0237775246871 0.803 1.22303438213e-38
0.0222914293942 0.0237775246871 0.803 1.2507649577e-38
0.0237775246871 0.0237775246871 0.803 1.33367095966e-38
0.0253265430684 0.0238367464174 0.805 1.30615646431e-38
0.0268163397195 0.0238367464174 0.805 1.31573489983e-38
-0.0687009084243 0.0253894661568 0.807 1.76929121196e-38
-0.0670408492988 0.0253265430684 0.805 1.67695166875e-38
-0.0655510526477 0.0253265430684 0.805 1.61230682786e-38
-0.0642204143967 0.0253894661568 0.807 1.51993141141e-38
-0.0625714593456 0.0253265430684 0.805 1.46454186662e-38
-0.0610816626945 0.0253265430684 0.805 1.41837216507e-38
-0.0595918660434 0.0253265430684 0.805 1.43637941086e-38
-0.0581020693923 0.0253265430684 0.805 1.37155436299e-38
-0.0564716211319 0.0252636199801 0.803 1.30676602914e-38
-0.054985525839 0.0252636199801 0.803 1.39863823932e-38
-0.0534328060995 0.0252321584359 0.802 1.31541063937e-38
-0.0519485614857 0.0252321584359 0.802 1.25080209211e-38
-0.0504643168718 0.0252321584359 0.802 1.30601185031e-38
-0.0489800722579 0.0252321584359 0.802 1.26913387862e-38
-0.0473773841836 0.0251692353475 0.8 1.31505204709e-38
-0.0457820988255 0.0251063122592 0.798 1.28735692437e-38
-0.0443052569279 0.0251063122592 0.798 1.26895297099e-38
-0.0428284150303 0.0251063122592 0.798 1.29661180008e-38
-0.0413515731327 0.0251063122592 0.798 1.3334547393e-38
-0.0399746679049 0.0251692353475 0.8 1.25969823541e-38
-0.0384941246492 0.0251692353475 0.8 1.250549438e-38
-0.0370135813934 0.0251692353475 0.8 1.19526667215e-38
-0.035621870733 0.0252321584359 0.802 1.26895199008e-38
-0.0341376261192 0.0252321584359 0.802 1.2689163971e-38
-0.0326533815053 0.0252321584359 0.802 1.23207373814e-38
-0.0311691368914 0.0252321584359 0.802 1.24129316099e-38
-0.0296848922775 0.0252321584359 0.802 1.25973228697e-38
-0.0282006476636 0.0252321584359 0.802 1.27813596009e-38
-0.0265165297102 0.0250433891708 0.796 1.25047783165e-38
-0.0250433891708 0.0250433891708 0.796 1.29653991347e-38
-0.0235702486313 0.0250433891708 0.796 1.28735608359e-38
-0.022152628464 0.0251063122592 0.798 1.25969683412e-38
-0.0206757865664 0.0251063122592 0.798 1.22281858217e-38
-0.0191989446688 0.0251063122592 0.798 1.27817155307e-38
-0.0177221027712 0.0251063122592 0.798 1.25051286411e-38
-0.0162452608736 0.0251063122592 0.798 1.24129330112e-38
-0.0148054325574 0.0251692353475 0.8 1.22285417515e-38
-0.0133582015249 0.0252321584359 0.802 1.26895199008e-38
-0.011873956911 0.0252321584359 0.802 1.25058433033e-38
-0.0103897122971 0.0252321584359 0.802 1.23214520436e-38
-0.00890546768326 0.0252321584359 0.802 1.23210975151e-38
-0.00743047646473 0.0252636199801 0.803 1.23203814516e-38
-0.0059369784555 0.0252321584359 0.802 1.26880877738e-38
-0.00445273384163 0.0252321584359 0.802 1.27802834037e-38
-0.00297219058589 0.0252636199801 0.803 1.2595526405e-38
-0.00148609529295 0.0252636199801 0.803 1.23192968466e-38
0.0 0.0251692353475 0.8 1.24111379479e-38
0.00148054325574 0.0251692353475 0.8 1.25958921439e-38
0.00296108651147 0.0251692353475 0.8 1.2411856814e-38
0.00444162976721 0.0251692353475 0.8 1.23207373814e-38
0.00594438117178 0.0252636199801 0.803 1.22289018852e-38
0.00743047646473 0.0252636199801 0.803 1.23218163812e-38
0.00891657175768 0.0252636199801 0.803 1.19530324604e-38
0.0104285765576 0.0253265430684 0.805 1.20463070901e-38
0.0118887623436 0.0252636199801 0.803 1.21406509105e-38
0.0133748576365 0.0252636199801 0.803 1.20470231536e-38
0.0148609529295 0.0252636199801 0.803 1.24132959475e-38
0.0163470482224 0.0252636199801 0.803 1.26880877738e-38
0.0178331435154 0.0252636199801 0.803 1.32416146802e-38
0.0193192388083 0.0252636199801 0.803 1.25980389332e-38
0.0208053341012 0.0252636199801 0.803 1.29686249238e-38
0.0222914293942 0.0252636199801 0.803 1.22328689612e-38
0.0237775246871 0.0252636199801 0.803 1.16800721313e-38
0.0254523892452 0.0254523892452 0.809 1.27878588232e-38
0.0269495886125 0.0254523892452 0.809 1.23311896666e-38
-0.0670408492988 0.0268163397195 0.805 1.70461035771e-38
-0.0655510526477 0.0268163397195 0.805 1.62152639085e-38
-0.0642204143967 0.026882964166 0.807 1.53840627049e-38
-0.0627269163874 0.026882964166 0.807 1.45532230363e-38
-0.0610816626945 0.0268163397195 0.805 1.41837188481e-38
-0.0595918660434 0.0268163397195 0.805 1.37223777625e-38
-0.0582464223598 0.026882964166 0.807 1.4088639346e-38
-0.0566122727412 0.0268163397195 0.805 1.28872220947e-38
-0.0551224760902 0.0268163397195 0.805 1.30683791575e-38
-0.0534994305461 0.026749715273 0.803 1.3158060858e-38
-0.0520133352531 0.026749715273 0.803 1.287931737e-38
-0.0505272399602 0.026749715273 0.803 1.30619107638e-38
-0.0490411446672 0.026749715273 0.803 1.2600216551e-38
-0.047495827644 0.0267164030498 0.802 1.28760803706e-38
-0.0458968409278 0.0266497786033 0.8 1.27842392692e-38
-0.0444162976721 0.0266497786033 0.8 1.26920380342e-38
-0.0429357544164 0.0266497786033 0.8 1.25069307109e-38
-0.0414552111606 0.0266497786033 0.8 1.24143833551e-38
-0.0400746045747 0.0267164030498 0.802 1.21377992682e-38
-0.0385903599608 0.0267164030498 0.802 1.24136588838e-38
-0.0371061153469 0.0267164030498 0.802 1.22299724772e-38
-0.035621870733 0.0267164030498 0.802 1.2321463254e-38
-0.0341376261192 0.0267164030498 0.802 1.2690248576e-38
-0.0326940964448 0.026749715273 0.803 1.25058545137e-38
-0.0312080011519 0.026749715273 0.803 1.21374279241e-38
-0.0297219058589 0.026749715273 0.803 1.23218191838e-38
-0.028235810566 0.026749715273 0.803 1.21370719943e-38
-0.026749715273 0.026749715273 0.803 1.2229271828e-38
-0.0252321584359 0.0267164030498 0.802 1.22289187008e-38
-0.0236886920918 0.0266497786033 0.8 1.2321463254e-38
-0.0222081488361 0.0266497786033 0.8 1.24140148137e-38
-0.0206757865664 0.0265831541568 0.798 1.21370719943e-38
-0.0191989446688 0.0265831541568 0.798 1.25058545137e-38
-0.0177221027712 0.0265831541568 0.798 1.18604851047e-38
-0.0162452608736 0.0265831541568 0.798 1.24136588838e-38
-0.0148054325574 0.0266497786033 0.8 1.24136588838e-38
-0.0133748576365 0.026749715273 0.803 1.2321463254e-38
-0.0118887623436 0.026749715273 0.803 1.22296235539e-38
-0.0104026670506 0.026749715273 0.803 1.20452322942e-38
-0.00891657175768 0.026749715273 0.803 1.22292676241e-38
-0.00743047646473 0.026749715273 0.803 1.21370747968e-38
-0.00594438117178 0.026749715273 0.803 1.24129428203e-38
-0.00445828587884 0.026749715273 0.803 1.20445162307e-38
-0.00297219058589 0.026749715273 0.803 1.25047727113e-38
-0.00148609529295 0.026749715273 0.803 1.23207359801e-38
0.0 0.026749715273 0.803 1.24132959475e-38
0.00148609529295 0.026749715273 0.803 1.24132987501e-38
0.00297959330217 0.0268163397195 0.805 1.24132959475e-38
0.00448049402767 0.026882964166 0.807 1.21374251215e-38
0.00598879746946 0.0269495886125 0.809 1.222961935e-38
0.00748599683682 0.0269495886125 0.809 1.25065621694e-38
0.00898319620418 0.0269495886125 0.809 1.21388558472e-38
0.0104803955715 0.0269495886125 0.809 1.24154427368e-38
0.0119479840738 0.026882964166 0.807 1.25065593668e-38
0.0134081698598 0.0268163397195 0.805 1.25058461059e-38
0.0148979665109 0.0268163397195 0.805 1.28735580333e-38
0.0163470482224 0.026749715273 0.803 1.28735580333e-38
0.0178331435154 0.026749715273 0.803 1.23210975151e-38
0.0193192388083 0.026749715273 0.803 1.15860450043e-38
0.0208571531152 0.0268163397195 0.805 1.21421012544e-38
0.0223469497663 0.0268163397195 0.805 1.24204972203e-38
0.0238367464174 0.0268163397195 0.805 1.2883284446e-38
0.0254523892452 0.0269495886125 0.809 1.28854452482e-38
0.0269495886125 0.0269495886125 0.809 1.35333285867e-38
-0.0662024916803 0.0285874395892 0.813 1.56620901293e-38
-0.0643795727966 0.0284467879799 0.809 1.54766184685e-38
-0.0627269163874 0.0283764621753 0.807 1.47386904933e-38
-0.0612334183782 0.0283764621753 0.807 1.45535761635e-38
-0.059739920369 0.0283764621753 0.807 1.36330561958e-38
-0.0582464223598 0.0283764621753 0.807 1.3724891692e-38
-0.0567529243505 0.0283764621753 0.807 1.34450678029e-38
-0.0552594263413 0.0283764621753 0.807 1.25202374411e-38
-0.0537659283321 0.0283764621753 0.807 1.27932314015e-38
-0.0445273384163 0.0282006476636 0.802 1.25090775002e-38
-0.0430430938024 0.0282006476636 0.802 1.26001997354e-38
-0.0415588491885 0.0282006476636 0.802 1.21381509941e-38
-0.0400746045747 0.0282006476636 0.802 1.23211115281e-38
-0.0385903599608 0.0282006476636 0.802 1.23211031203e-38
-0.0371061153469 0.0282006476636 0.802 1.21370607839e-38
-0.035621870733 0.0282006476636 0.802 1.22296235539e-38
-0.0341376261192 0.0282006476636 0.802 1.23211031203e-38
-0.0326940964448 0.028235810566 0.803 1.20445134281e-38
-0.0312080011519 0.028235810566 0.803 1.22289018852e-38
-0.0297219058589 0.028235810566 0.803 1.23210975151e-38
-0.028235810566 0.028235810566 0.803 1.18601221684e-38
-0.0268163397195 0.0283061363706 0.805 1.2412579884e-38
-0.0252636199801 0.028235810566 0.803 1.20434428361e-38
-0.0237775246871 0.028235810566 0.803 1.2043794562e-38
-0.0222914293942 0.028235810566 0.803 1.19519548619e-38
-0.0207794245943 0.0282006476636 0.802 1.1767210475e-38
-0.0192470623246 0.028130321859 0.8 1.23203870568e-38
-0.0177665190688 0.028130321859 0.8 1.19512472062e-38
-0.0162859758131 0.028130321859 0.8 1.25044209854e-38
-0.0148424461388 0.0282006476636 0.802 1.25966166152e-38
-0.0133748576365 0.028235810566 0.803 1.24122253555e-38
-0.0118887623436 0.028235810566 0.803 1.1951964671e-38
-0.0104026670506 0.028235810566 0.803 1.25973340801e-38
-0.00891657175768 0.028235810566 0.803 1.20434428361e-38
-0.00743047646473 0.028235810566 0.803 1.21356412685e-38
-0.00594438117178 0.028235810566 0.803 1.2781007875e-38
-0.00445828587884 0.028235810566 0.803 1.17672132776e-38
-0.00297219058589 0.028235810566 0.803 1.24125770814e-38
-0.00148609529295 0.028235810566 0.803 1.22274627517e-38
0.0 0.028235810566 0.803 1.20445134281e-38
0.00148979665109 0.0283061363706 0.805 1.1860124971e-38
0.00299439873473 0.0284467879799 0.809 1.22289046878e-38
0.00449159810209 0.0284467879799 0.809 1.18601193658e-38
0.00600360290201 0.0285171137846 0.811 1.2044865154e-38
0.00750450362752 0.0285171137846 0.811 1.22292536111e-38
0.00900540435302 0.0285171137846 0.811 1.21374139111e-38
0.0105063050785 0.0285171137846 0.811 1.21374111085e-38
0.0119775949389 0.0284467879799 0.809 1.2321449241e-38
0.0134747943063 0.0284467879799 0.809 1.23211003177e-38
0.0149349800922 0.0283764621753 0.807 1.26895311112e-38
0.0164284781015 0.0283764621753 0.807 1.25980529462e-38
0.017877559813 0.0283061363706 0.805 1.29697067262e-38
0.0193673564641 0.0283061363706 0.805 1.2327209979e-38
0.0209089721291 0.0283764621753 0.807 1.16850789707e-38
0.0224024701384 0.0283764621753 0.807 1.17794438106e-38
0.0240144116081 0.0285171137846 0.811 1.23362231307e-38
0.0255153123336 0.0285171137846 0.811 1.19688797448e-38
-0.0643795727966 0.0299439873473 0.809 1.5107835949e-38
-0.0628823734293 0.0299439873473 0.809 1.46464948634e-38
-0.0613851740619 0.0299439873473 0.809 1.42777123439e-38
-0.0598879746946 0.0299439873473 0.809 1.31735199826e-38
-0.0585351282946 0.0300180145101 0.811 1.30820432189e-38
-0.0570342275691 0.0300180145101 0.811 1.28954939595e-38
-0.0555333268436 0.0300180145101 0.811 1.25245534404e-38
-0.0540324261181 0.0300180145101 0.811 1.24291236137e-38
-0.0525315253926 0.0300180145101 0.811 1.19652685986e-38
-0.0418179442583 0.0298699601845 0.807 1.20459581668e-38
-0.0402245095793 0.0297959330217 0.805 1.20445246385e-38
-0.0386384776166 0.0297219058589 0.803 1.25047783165e-38
-0.0371523823236 0.0297219058589 0.803 1.26884394997e-38
-0.0356662870307 0.0297219058589 0.803 1.23210975151e-38
-0.0341801917378 0.0297219058589 0.803 1.26895199008e-38
-0.0326940964448 0.0297219058589 0.803 1.21363447203e-38
-0.0312080011519 0.0297219058589 0.803 1.22288934774e-38
-0.0297959330217 0.0297959330217 0.805 1.21356188477e-38
-0.0283061363706 0.0297959330217 0.805 1.23200129101e-38
-0.0268163397195 0.0297959330217 0.805 1.25958837361e-38
-0.0253265430684 0.0297959330217 0.805 1.26877220349e-38
-0.0238367464174 0.0297959330217 0.805 1.22271012167e-38
-0.0223469497663 0.0297959330217 0.805 1.26877220349e-38
-0.0208571531152 0.0297959330217 0.805 1.23185863882e-38
-0.0193673564641 0.0297959330217 0.805 1.2410786222e-38
-0.0178331435154 0.0297219058589 0.803 1.19494521429e-38
-0.0163470482224 0.0297219058589 0.803 1.27792128116e-38
-0.0148609529295 0.0297219058589 0.803 1.26873731116e-38
-0.0133748576365 0.0297219058589 0.803 1.25951760804e-38
-0.0118887623436 0.0297219058589 0.803 1.21341979311e-38
-0.0104026670506 0.0297219058589 0.803 1.25029804506e-38
-0.00893877990651 0.0297959330217 0.805 1.18576124428e-38
-0.00744898325543 0.0297959330217 0.805 1.24104302922e-38
-0.00594438117178 0.0297219058589 0.803 1.21341993324e-38
-0.00445828587884 0.0297219058589 0.803 1.21341979311e-38
-0.00297959330217 0.0297959330217 0.805 1.24107820181e-38
-0.00149349800922 0.0298699601845 0.807 1.24111379479e-38
0.0 0.0298699601845 0.807 1.2412579884e-38
0.0015009007255 0.0300180145101 0.811 1.2412579884e-38
0.00300920416729 0.0300920416729 0.813 1.25969683412e-38
0.00451380625093 0.0300920416729 0.813 1.20445106255e-38
0.00600360290201 0.0300180145101 0.811 1.25058433033e-38
0.00750450362752 0.0300180145101 0.811 1.21370579813e-38
0.00900540435302 0.0300180145101 0.811 1.22296095409e-38
0.0105063050785 0.0300180145101 0.811 1.25061964305e-38
0.012007205804 0.0300180145101 0.811 1.25994808693e-38
0.0134747943063 0.0299439873473 0.809 1.19541226706e-38
0.0149719936736 0.0299439873473 0.809 1.21392384017e-38
0.0164284781015 0.0298699601845 0.807 1.21417551337e-38
0.0179219761107 0.0298699601845 0.807 1.14066998204e-38
0.0194154741199 0.0298699601845 0.807 1.1871266695e-38
0.0209089721291 0.0298699601845 0.807 1.16893977726e-38
0.0224024701384 0.0298699601845 0.807 1.1875595306e-38
-0.0643795727966 0.0314411867146 0.809 1.49245250904e-38
-0.0628823734293 0.0314411867146 0.809 1.50156417204e-38
-0.0613851740619 0.0314411867146 0.809 1.43702709101e-38
-0.0600360290201 0.0315189152356 0.811 1.32657184151e-38
-0.0585351282946 0.0315189152356 0.811 1.32657184151e-38
-0.0570342275691 0.0315189152356 0.811 1.30806082892e-38
-0.0555333268436 0.0315189152356 0.811 1.25267142426e-38
-0.0541656750111 0.0315966437565 0.813 1.25241975106e-38
-0.0526610729275 0.0315966437565 0.813 1.15078875825e-38
-0.034265322975 0.0312857296728 0.805 1.21374251215e-38
-0.0327755263239 0.0312857296728 0.805 1.18611927604e-38
-0.0313634581937 0.0313634581937 0.807 1.17682754618e-38
-0.0297959330217 0.0312857296728 0.805 1.21374139111e-38
-0.0283061363706 0.0312857296728 0.805 1.23210891073e-38
-0.0268163397195 0.0312857296728 0.805 1.25965997997e-38
-0.0253894661568 0.0313634581937 0.807 1.250404824e-38
-0.0238367464174 0.0312857296728 0.805 1.20434260205e-38
-0.0223469497663 0.0312857296728 0.805 1.19508758621e-38
-0.0209089721291 0.0313634581937 0.807 1.16739358453e-38
-0.0194635917757 0.0314411867146 0.809 1.20427225686e-38
-0.0179663924084 0.0314411867146 0.809 1.16735841194e-38
-0.0163877631619 0.0312857296728 0.805 1.21349181985e-38
-0.0148979665109 0.0312857296728 0.805 1.19505255375e-38
-0.0133748576365 0.0312080011519 0.803 1.2411856814e-38
-0.0118887623436 0.0312080011519 0.803 1.22274627517e-38
-0.0104285765576 0.0312857296728 0.805 1.23196611842e-38
-0.00893877990651 0.0312857296728 0.805 1.25036965141e-38
-0.00744898325543 0.0312857296728 0.805 1.24115036868e-38
-0.00595918660434 0.0312857296728 0.805 1.26888122451e-38
-0.00446938995326 0.0312857296728 0.805 1.2135995797e-38
-0.00298699601845 0.0313634581937 0.807 1.22281886243e-38
-0.0015009007255 0.0315189152356 0.811 1.18594061048e-38
0.0 0.0315189152356 0.811 1.20452322942e-38
0.00150460208364 0.0315966437565 0.813 1.15842541449e-38
0.00301660688356 0.0316743722774 0.815 1.16771700422e-38
0.00451380625093 0.0315966437565 0.813 1.17700845381e-38
0.00600360290201 0.0315189152356 0.811 1.15867694756e-38
0.00750450362752 0.0315189152356 0.811 1.17715180665e-38
0.00900540435302 0.0315189152356 0.811 1.18637136963e-38
0.0105063050785 0.0315189152356 0.811 1.177223413e-38
0.012007205804 0.0315189152356 0.811 1.20513475607e-38
0.0135081065295 0.0315189152356 0.811 1.1407064158e-38
0.015009007255 0.0315189152356 0.811 1.12233987708e-38
0.0165099079805 0.0315189152356 0.811 1.12255567705e-38
-0.0601840833457 0.0331012458401 0.813 1.40929665557e-38
-0.0586794812621 0.0331012458401 0.813 1.35405116426e-38
-0.0573155307877 0.0331826757192 0.815 1.3172808123e-38
-0.0556702770948 0.0331012458401 0.813 1.18820693049e-38
-0.0541656750111 0.0331012458401 0.813 1.20653815648e-38
-0.0526610729275 0.0331012458401 0.813 1.11430637312e-38
-0.0269495886125 0.032938386082 0.809 1.14934976485e-38
-0.0254523892452 0.032938386082 0.809 1.13091063888e-38
-0.0239551898778 0.032938386082 0.809 1.16782434368e-38
-0.0224579905105 0.032938386082 0.809 1.14012992161e-38
-0.021012610157 0.0330198159611 0.811 1.14013048213e-38
-0.0195117094315 0.0330198159611 0.811 1.17697328122e-38
-0.018010808706 0.0330198159611 0.811 1.17697328122e-38
-0.0163877631619 0.0327755263239 0.805 1.18622829706e-38
-0.0148979665109 0.0327755263239 0.805 1.13091035862e-38
-0.0134081698598 0.0327755263239 0.805 1.18626318939e-38
-0.0119183732087 0.0327755263239 0.805 1.10332243524e-38
-0.0104285765576 0.0327755263239 0.805 1.09406727927e-38
-0.00893877990651 0.0327755263239 0.805 1.16782434368e-38
-0.00744898325543 0.0327755263239 0.805 1.1033598499e-38
-0.00595918660434 0.0327755263239 0.805 1.0941049742e-38
-0.00446938995326 0.0327755263239 0.805 1.15871380171e-38
-0.00300180145101 0.0330198159611 0.811 1.14027467574e-38
-0.00150460208364 0.0331012458401 0.813 1.15878568832e-38
0.0 0.0331012458401 0.813 1.0942481869e-38
0.00150830344178 0.0331826757192 0.815 1.09435608688e-38
0.00301660688356 0.0331826757192 0.815 1.1589649144e-38
0.00452491032535 0.0331826757192 0.815 1.13145041905e-38
0.00600360290201 0.0330198159611 0.811 1.17758424735e-38
0.00750450362752 0.0330198159611 0.811 1.10400753005e-38
0.00900540435302 0.0330198159611 0.811 9.75077561598e-39
0.0105063050785 0.0330198159611 0.811 1.00273625056e-38
0.012007205804 0.0330198159611 0.811 8.83098011958e-39
0.0135081065295 0.0330198159611 0.811 9.01609585061e-39
0.015009007255 0.0330198159611 0.811 9.66254986467e-39
