# .PCD v0.7 - Point Cloud Data file format
VERSION 0.7
FIELDS x y z rgb
SIZE 4 4 4 4
TYPE F F F F
COUNT 1 1 1 1
WIDTH 840
HEIGHT 1
VIEWPOINT 0 0 0 1 0 0 0
POINTS 840
DATA ascii
-0.0477123570952 -0.0361955812446 0.889 2.10173638068e-38
-0.0460671034023 -0.0361955812446 0.889 2.12017550665e-38
-0.0444218497093 -0.0361955812446 0.889 2.11095594367e-38
-0.0427765960164 -0.0361955812446 0.889 2.13861463262e-38
-0.0411313423234 -0.0361955812446 0.889 2.1570537586e-38
-0.0395749212258 -0.0362770111237 0.891 2.13865022561e-38
-0.0379259661748 -0.0362770111237 0.891 2.17552847755e-38
-0.0362770111237 -0.0362770111237 0.891 2.14786978859e-38
-0.0346280560726 -0.0362770111237 0.891 2.17552847755e-38
-0.0329791010215 -0.0362770111237 0.891 2.08333284769e-38
-0.0313301459705 -0.0362770111237 0.891 2.14786978859e-38
-0.0296145664729 -0.0361955812446 0.889 2.13865022561e-38
-0.0279693127799 -0.0361955812446 0.889 2.18474804054e-38
-0.026324059087 -0.0361955812446 0.889 2.15708935158e-38
-0.0246788053941 -0.0361955812446 0.889 2.17552847755e-38
-0.0230335517011 -0.0361955812446 0.889 2.13865022561e-38
-0.0213882980082 -0.0361955812446 0.889 2.19396760352e-38
-0.0197874606129 -0.0362770111237 0.891 2.13865022561e-38
-0.0180977906223 -0.0361955812446 0.889 2.14786978859e-38
-0.0164525369294 -0.0361955812446 0.889 2.13865022561e-38
-0.0148405954597 -0.0362770111237 0.891 2.09255241067e-38
-0.0131620295435 -0.0361955812446 0.889 2.14786978859e-38
-0.0115167758506 -0.0361955812446 0.889 2.20318716651e-38
-0.00989373030646 -0.0362770111237 0.891 2.15708935158e-38
-0.00822626846469 -0.0361955812446 0.889 2.16630891456e-38
-0.00658101477175 -0.0361955812446 0.889 2.18474804054e-38
-0.00493576107881 -0.0361955812446 0.889 2.18474804054e-38
-0.00329050738588 -0.0361955812446 0.889 2.15708935158e-38
-0.00164525369294 -0.0361955812446 0.889 2.2124067295e-38
0.0 -0.0361955812446 0.889 2.1939322908e-38
0.00164525369294 -0.0361955812446 0.889 2.24924966872e-38
0.00329050738588 -0.0361955812446 0.889 2.20315185379e-38
0.00493576107881 -0.0361955812446 0.889 2.19393201054e-38
0.00658101477175 -0.0361955812446 0.889 2.28612764041e-38
0.00822626846469 -0.0361955812446 0.889 2.24006541845e-38
0.00987152215763 -0.0361955812446 0.889 2.17552847755e-38
0.0115167758506 -0.0361955812446 0.889 2.15708935158e-38
0.0131324186784 -0.0361141513656 0.887 2.19389599717e-38
0.0147739710132 -0.0361141513656 0.887 2.15698215225e-38
0.016415523348 -0.0361141513656 0.887 2.17542127822e-38
0.0180163607432 -0.0360327214865 0.885 2.14776258926e-38
0.0196542117199 -0.0360327214865 0.885 2.1846408412e-38
0.0212920626966 -0.0360327214865 0.885 2.15698215225e-38
0.0229299136732 -0.0360327214865 0.885 2.15698215225e-38
0.0244844840917 -0.0359105766679 0.882 2.13854302627e-38
0.026057561301 -0.0358291467888 0.88 2.11091993029e-38
0.0276861588823 -0.0358291467888 0.88 2.12935877601e-38
0.0292481320171 -0.0357477169098 0.878 2.14779776185e-38
0.0307675395333 -0.0356255720912 0.875 2.18474790041e-38
0.0323128565565 -0.0355441422121 0.873 2.12943052249e-38
0.0338507708634 -0.035462712333 0.871 2.25861244441e-38
0.0352998525749 -0.0352998525749 0.867 2.25857713169e-38
0.0367766944725 -0.0351777077563 0.864 2.17560134507e-38
0.0382868485934 -0.0350962778772 0.862 2.21255092311e-38
0.0396970660444 -0.0349334181191 0.858 2.19404019078e-38
0.0412849486862 -0.0349334181191 0.858 2.14779930328e-38
0.0424231163141 -0.0345669836633 0.849 2.13857960016e-38
0.0438907048163 -0.0344855537843 0.847 2.13865022561e-38
0.0453508906023 -0.0344041239052 0.845 2.22173405233e-38
0.046803673672 -0.0343226940261 0.843 1.94514828378e-38
0.0483637961277 -0.0343226940261 0.843 1.17081401395e-38
-0.0817037795678 -0.0329957571332 0.849 7.18802493248e-39
-0.0801325530377 -0.0329957571332 0.849 2.35080919531e-38
-0.0792090641819 -0.0332678069564 0.856 1.9908863854e-38
-0.0778062494471 -0.0333455354773 0.858 1.91734568147e-38
-0.0762183668053 -0.0333455354773 0.858 1.95418735953e-38
-0.0748044479961 -0.0334232639983 0.86 1.98184604849e-38
-0.073553388945 -0.0335787210401 0.864 1.98184604849e-38
-0.0722042439032 -0.0336953138215 0.867 2.05560255238e-38
-0.0707625649079 -0.0337730423424 0.869 2.05560255238e-38
-0.0693134831964 -0.0338507708634 0.871 2.07404167835e-38
-0.0678569987686 -0.0339284993843 0.873 2.04638298939e-38
-0.06662074515 -0.0341228206866 0.878 2.10170036731e-38
-0.0649958489268 -0.0341228206866 0.878 2.0924454916e-38
-0.0635153056711 -0.0342005492075 0.88 2.10166505459e-38
-0.0620273596991 -0.0342782777284 0.882 2.15698215225e-38
-0.0606004861364 -0.0343948705098 0.885 2.12013949328e-38
-0.0589626351597 -0.0343948705098 0.885 2.08326096108e-38
-0.0574543317179 -0.0344725990308 0.887 2.13857833899e-38
-0.0558127793831 -0.0344725990308 0.887 2.11091965003e-38
-0.0541712270483 -0.0344725990308 0.887 2.16623702795e-38
-0.0525296747135 -0.0344725990308 0.887 2.11095594367e-38
-0.0510028644811 -0.0345503275517 0.889 2.07407797198e-38
-0.0493576107881 -0.0345503275517 0.889 2.06485840899e-38
-0.0477123570952 -0.0345503275517 0.889 2.11095594367e-38
-0.0460671034023 -0.0345503275517 0.889 2.07407769172e-38
-0.0444218497093 -0.0345503275517 0.889 2.08329725471e-38
-0.0427765960164 -0.0345503275517 0.889 2.08333284769e-38
-0.0411313423234 -0.0345503275517 0.889 2.12943066262e-38
-0.0395749212258 -0.0346280560726 0.891 2.12021109963e-38
-0.0379259661748 -0.0346280560726 0.891 2.13865022561e-38
-0.0362770111237 -0.0346280560726 0.891 2.11099153665e-38
-0.0346280560726 -0.0346280560726 0.891 2.08333284769e-38
-0.0329791010215 -0.0346280560726 0.891 2.12943066262e-38
-0.0313301459705 -0.0346280560726 0.891 2.17552847755e-38
-0.0296145664729 -0.0345503275517 0.889 2.12021109963e-38
-0.0279693127799 -0.0345503275517 0.889 2.12943066262e-38
-0.026324059087 -0.0345503275517 0.889 2.14786978859e-38
-0.0246788053941 -0.0345503275517 0.889 2.13865022561e-38
-0.0230335517011 -0.0345503275517 0.889 2.12021109963e-38
-0.0213882980082 -0.0345503275517 0.889 2.14786978859e-38
-0.0197874606129 -0.0346280560726 0.891 2.10177197366e-38
-0.0181385055618 -0.0346280560726 0.891 2.17552847755e-38
-0.0164895505108 -0.0346280560726 0.891 2.16630891456e-38
-0.00824477525538 -0.0346280560726 0.891 2.2124067295e-38
-0.00659582020431 -0.0346280560726 0.891 2.22162629248e-38
-0.00494686515323 -0.0346280560726 0.891 2.22162629248e-38
-0.00329050738588 -0.0345503275517 0.889 2.20318716651e-38
-0.00164525369294 -0.0345503275517 0.889 2.24928498144e-38
0.0 -0.0346280560726 0.891 2.24924966872e-38
0.00164525369294 -0.0345503275517 0.889 2.22159097976e-38
0.00329050738588 -0.0345503275517 0.889 2.23081026249e-38
0.00493576107881 -0.0345503275517 0.889 2.18471244756e-38
0.00658101477175 -0.0345503275517 0.889 2.13865022561e-38
0.00822626846469 -0.0345503275517 0.889 2.20318716651e-38
0.00987152215763 -0.0345503275517 0.889 2.15708921145e-38
0.0115167758506 -0.0345503275517 0.889 2.15708921145e-38
0.0131324186784 -0.0344725990308 0.887 2.16620171523e-38
0.0147739710132 -0.0344725990308 0.887 2.1569824325e-38
0.016415523348 -0.0344725990308 0.887 2.18464112146e-38
0.0180163607432 -0.0343948705098 0.885 2.13854330653e-38
0.0196542117199 -0.0343948705098 0.885 2.11088461757e-38
0.0212920626966 -0.0343948705098 0.885 2.1569824325e-38
0.0229299136732 -0.0343948705098 0.885 2.13854330653e-38
0.0244844840917 -0.0342782777284 0.882 2.13854330653e-38
0.026057561301 -0.0342005492075 0.88 2.12013921302e-38
0.0276861588823 -0.0342005492075 0.88 2.14779776185e-38
0.0292481320171 -0.0341228206866 0.878 2.16630877443e-38
0.0307675395333 -0.0340062279052 0.875 2.19396760352e-38
0.0323128565565 -0.0339284993843 0.873 2.19396760352e-38
0.0338507708634 -0.0338507708634 0.871 2.30467466636e-38
0.035381282454 -0.0337730423424 0.869 2.25857685143e-38
0.0367766944725 -0.0335787210401 0.864 2.13872281287e-38
0.0382868485934 -0.0335009925192 0.862 2.22177048609e-38
0.0396970660444 -0.0333455354773 0.858 2.16638150182e-38
0.0412849486862 -0.0333455354773 0.858 2.17545785211e-38
0.0424231163141 -0.0329957571332 0.849 2.12017606717e-38
0.0438907048163 -0.0329180286122 0.847 2.10177197366e-38
0.0452435512162 -0.0327625715704 0.843 2.24939274129e-38
0.046803673672 -0.0327625715704 0.843 2.0558186326e-38
0.0483637961277 -0.0327625715704 0.843 9.03446687348e-39
-0.0817037795678 -0.031424530603 0.849 2.30165654973e-39
-0.0801325530377 -0.031424530603 0.849 2.35062940872e-38
-0.0792090641819 -0.0316836256728 0.856 2.02776463734e-38
-0.0776248828983 -0.0316836256728 0.856 1.94500437043e-38
-0.0762183668053 -0.0317576528356 0.858 1.91734540121e-38
-0.0748044479961 -0.0318316799983 0.86 2.0187603138e-38
-0.0733831264706 -0.0319057071611 0.862 2.0187603138e-38
-0.0719544022288 -0.0319797343239 0.864 2.00954075082e-38
-0.0707625649079 -0.0321648022309 0.869 2.07407769172e-38
-0.0691543247964 -0.0321648022309 0.869 2.06485812873e-38
-0.0678569987686 -0.0323128565565 0.873 2.09251681769e-38
-0.0663931116244 -0.0323868837192 0.875 2.13861463262e-38
-0.0649958489268 -0.0324979244634 0.878 2.13861491288e-38
-0.0636596586385 -0.032645978789 0.882 2.1293953499e-38
-0.0620273596991 -0.032645978789 0.882 2.01876059406e-38
-0.0606004861364 -0.0327570195332 0.885 2.1293953499e-38
-0.0590958840527 -0.032831046696 0.887 2.1570537586e-38
-0.0574543317179 -0.032831046696 0.887 2.09251681769e-38
-0.0558127793831 -0.032831046696 0.887 2.12943066262e-38
-0.0542933718669 -0.0329050738588 0.889 2.17552833742e-38
-0.052648118174 -0.0329050738588 0.889 2.1293953499e-38
-0.0510028644811 -0.0329050738588 0.889 2.1939322908e-38
-0.0493576107881 -0.0329050738588 0.889 2.04641928302e-38
-0.0477123570952 -0.0329050738588 0.889 2.08329725471e-38
-0.00824477525538 -0.0329791010215 0.891 2.28616323339e-38
-0.00659582020431 -0.0329791010215 0.891 2.20318716651e-38
-0.00494686515323 -0.0329791010215 0.891 2.23084585547e-38
-0.00329791010215 -0.0329791010215 0.891 2.24928498144e-38
-0.00164895505108 -0.0329791010215 0.891 2.28616323339e-38
0.0 -0.0329791010215 0.891 2.25846895145e-38
0.00164525369294 -0.0329050738588 0.889 2.18471244756e-38
0.00329050738588 -0.0329050738588 0.889 2.25846895145e-38
0.00493576107881 -0.0329050738588 0.889 2.23084585547e-38
0.00658101477175 -0.0329050738588 0.889 2.23084585547e-38
0.00822626846469 -0.0329050738588 0.889 2.22162615235e-38
0.00987152215763 -0.0329050738588 0.889 2.26772396728e-38
0.0115167758506 -0.0329050738588 0.889 2.20318702638e-38
0.0131620295435 -0.0329050738588 0.889 2.16627360184e-38
0.0147739710132 -0.032831046696 0.887 2.22159126002e-38
0.016415523348 -0.032831046696 0.887 2.19393257106e-38
0.0180163607432 -0.0327570195332 0.885 2.1662738821e-38
0.0196542117199 -0.0327570195332 0.885 2.20315213405e-38
0.0212920626966 -0.0327570195332 0.885 2.19393257106e-38
0.0229299136732 -0.0327570195332 0.885 2.14783475613e-38
0.0244844840917 -0.032645978789 0.882 2.18471300808e-38
0.026057561301 -0.0325719516262 0.88 2.13865022561e-38
0.0276861588823 -0.0325719516262 0.88 2.17552833742e-38
0.0292481320171 -0.0324979244634 0.878 2.18474804054e-38
0.0307675395333 -0.0323868837192 0.875 2.18485594052e-38
0.0322388293937 -0.0322388293937 0.871 2.23091816247e-38
0.0338507708634 -0.0322388293937 0.871 2.28623554039e-38
0.0352998525749 -0.0320907750681 0.867 2.29552698998e-38
0.0367766944725 -0.0319797343239 0.864 2.20333136012e-38
0.038198015998 -0.0318316799983 0.86 2.24020933181e-38
0.0396970660444 -0.0317576528356 0.858 2.20325975377e-38
0.0412849486862 -0.0317576528356 0.858 2.15701872614e-38
0.042872831328 -0.0317576528356 0.858 2.19393257106e-38
0.0437870667884 -0.0312764762774 0.845 2.08333270756e-38
0.0451362118302 -0.0311284219519 0.841 2.26783158701e-38
0.0466926329278 -0.0311284219519 0.841 2.08347732156e-38
0.0482490540254 -0.0311284219519 0.841 7.19091020602e-39
-0.0817037795678 -0.0298533040729 0.849 3.68459099768e-39
-0.0801325530377 -0.0298533040729 0.849 2.35080919531e-38
-0.079023996275 -0.0300291185845 0.854 1.97244725943e-38
-0.0776248828983 -0.0300994443891 0.856 1.88046742953e-38
-0.0762183668053 -0.0301697701938 0.858 1.9911019051e-38
-0.0748044479961 -0.0302400959984 0.86 2.00032146809e-38
-0.0733831264706 -0.0303104218031 0.862 1.98188234212e-38
-0.0719544022288 -0.0303807476077 0.864 2.04641928302e-38
-0.0707625649079 -0.0305565621193 0.869 2.09251709795e-38
-0.0691543247964 -0.0305565621193 0.869 2.10173666094e-38
-0.0678569987686 -0.0306972137286 0.873 2.06485840899e-38
-0.0663931116244 -0.0307675395333 0.875 2.09251709795e-38
-0.0649958489268 -0.0308730282403 0.878 2.12017550665e-38
-0.0636596586385 -0.0310136798495 0.882 2.16627360184e-38
-0.0620273596991 -0.0310136798495 0.882 2.14783447587e-38
-0.0606004861364 -0.0311191685565 0.885 2.14783475613e-38
-0.0590958840527 -0.0311894943612 0.887 2.12017578691e-38
-0.0574543317179 -0.0311894943612 0.887 2.24002982547e-38
0.00164525369294 -0.0312598201658 0.889 2.25846895145e-38
0.00329050738588 -0.0312598201658 0.889 2.25850454443e-38
0.00493576107881 -0.0312598201658 0.889 2.24006541845e-38
0.00658101477175 -0.0312598201658 0.889 2.22162615235e-38
0.00822626846469 -0.0312598201658 0.889 2.2585044043e-38
0.00987152215763 -0.0312598201658 0.889 2.22162615235e-38
0.0115167758506 -0.0312598201658 0.889 2.1755639304e-38
0.0131620295435 -0.0312598201658 0.889 2.23081026249e-38
0.0147739710132 -0.0311894943612 0.887 2.23081054275e-38
0.016415523348 -0.0311894943612 0.887 2.24003010573e-38
0.0180570756828 -0.0311894943612 0.887 2.11095622392e-38
0.0196986280176 -0.0311894943612 0.887 2.11095622392e-38
0.0213401803524 -0.0311894943612 0.887 2.12017578691e-38
0.0229299136732 -0.0311191685565 0.885 2.18471272782e-38
0.0245677646499 -0.0311191685565 0.885 2.1939322908e-38
0.0261167830312 -0.0310136798495 0.882 2.15708921145e-38
0.0276861588823 -0.0309433540449 0.88 2.19396746339e-38
0.0292481320171 -0.0308730282403 0.878 2.22162629248e-38
0.0307675395333 -0.0307675395333 0.875 2.25857685143e-38
0.0322388293937 -0.030626887924 0.871 2.24013800572e-38
0.0337730423424 -0.0305565621193 0.869 2.31396611596e-38
0.0352998525749 -0.0304862363147 0.867 2.286307427e-38
0.0367766944725 -0.0303807476077 0.864 2.19411151688e-38
0.038198015998 -0.0302400959984 0.86 2.24024506492e-38
0.0396970660444 -0.0301697701938 0.858 2.24935728844e-38
0.0412849486862 -0.0301697701938 0.858 2.24003038599e-38
0.042872831328 -0.0301697701938 0.858 2.13861491288e-38
0.0437870667884 -0.0297126524636 0.845 2.13865008548e-38
0.0451362118302 -0.0295720008543 0.841 2.24017289805e-38
0.0466926329278 -0.0295720008543 0.841 2.09269660429e-38
-0.0803213223028 -0.0283487019892 0.851 2.35059339535e-38
-0.0787463944145 -0.0283487019892 0.851 1.96322769644e-38
-0.0776248828983 -0.0285152631055 0.856 1.95422393342e-38
-0.0762183668053 -0.028581887552 0.858 1.95433155314e-38
-0.0748044479961 -0.0286485119985 0.86 1.96355111613e-38
-0.073553388945 -0.0287817608915 0.864 1.96355111613e-38
-0.0719544022288 -0.0287817608915 0.864 2.00964893106e-38
-0.0707625649079 -0.0289483220078 0.869 2.05574674599e-38
-0.0691543247964 -0.0289483220078 0.869 2.07418587196e-38
-0.0678569987686 -0.0290815709008 0.873 2.06496630897e-38
-0.0663931116244 -0.0291481953473 0.875 2.10184456092e-38
-0.0649958489268 -0.0292481320171 0.878 2.13872253261e-38
-0.0635153056711 -0.0293147564636 0.88 2.15716165858e-38
-0.0620273596991 -0.0293813809101 0.882 2.16638150182e-38
-0.0606004861364 -0.0294813175799 0.885 2.18482090806e-38
-0.0589626351597 -0.0294813175799 0.885 2.12950353014e-38
0.00658101477175 -0.0296145664729 0.889 2.20318702638e-38
0.00822626846469 -0.0296145664729 0.889 2.20318702638e-38
0.00987152215763 -0.0296145664729 0.889 2.24010087131e-38
0.0115167758506 -0.0296145664729 0.889 2.24932043429e-38
0.0131620295435 -0.0296145664729 0.889 2.24017331844e-38
0.0148072832364 -0.0296145664729 0.889 2.14794209559e-38
0.016415523348 -0.0295479420264 0.887 2.18482034754e-38
0.0180570756828 -0.0295479420264 0.887 2.11106384365e-38
0.0196986280176 -0.0295479420264 0.887 2.15716165858e-38
0.0213401803524 -0.0295479420264 0.887 2.11106384365e-38
0.0229299136732 -0.0294813175799 0.885 2.17560078455e-38
0.0245677646499 -0.0294813175799 0.885 2.22169859948e-38
0.0261167830312 -0.0293813809101 0.882 2.1755639304e-38
0.0276861588823 -0.0293147564636 0.88 2.2032946461e-38
0.0292481320171 -0.0292481320171 0.878 2.24017331844e-38
0.0307675395333 -0.0291481953473 0.875 2.30467466636e-38
0.0322388293937 -0.0290149464543 0.871 2.30474683323e-38
0.0337730423424 -0.0289483220078 0.869 2.30474683323e-38
0.0351777077563 -0.0287817608915 0.864 2.35095226788e-38
0.0367766944725 -0.0287817608915 0.864 2.21265854283e-38
0.0382868485934 -0.028715136445 0.862 2.23102550193e-38
0.0397895999979 -0.0286485119985 0.86 2.20325947351e-38
0.0413811839978 -0.0286485119985 0.86 2.21237169703e-38
0.0429727679978 -0.0286485119985 0.86 2.15705403886e-38
-0.0818962501911 -0.0267737741009 0.851 1.6315392289e-38
-0.0803213223028 -0.0267737741009 0.851 2.22137546006e-38
-0.0787463944145 -0.0267737741009 0.851 1.90791031852e-38
-0.0776248828983 -0.0269310818219 0.856 1.9634434964e-38
-0.0762183668053 -0.0269940049102 0.858 1.9819902421e-38
-0.0748044479961 -0.0270569279986 0.86 1.97277067911e-38
-0.073553388945 -0.0271827741753 0.864 1.99120980508e-38
-0.0722042439032 -0.0272771588079 0.867 2.03730762002e-38
-0.0707625649079 -0.0273400818963 0.869 2.09262499793e-38
-0.0691543247964 -0.0273400818963 0.869 2.046527183e-38
-0.0677015417267 -0.0274030049846 0.871 2.11106412391e-38
-0.0663931116244 -0.0275288511614 0.875 2.14794237585e-38
-0.0649958489268 -0.0276232357939 0.878 2.0741855917e-38
-0.0635153056711 -0.0276861588823 0.88 2.14794209559e-38
-0.0620273596991 -0.0277490819706 0.882 2.12028396715e-38
0.016415523348 -0.0279063896916 0.887 2.1940755035e-38
0.0180570756828 -0.0279063896916 0.887 2.13875812559e-38
0.0196986280176 -0.0279063896916 0.887 2.10187987364e-38
0.0213401803524 -0.0279063896916 0.887 2.1295385626e-38
0.0229299136732 -0.0278434666032 0.885 2.14797768857e-38
0.0245677646499 -0.0278434666032 0.885 2.20329506649e-38
0.0261167830312 -0.0277490819706 0.882 2.24017289805e-38
0.0276861588823 -0.0276861588823 0.88 2.29549027596e-38
0.0292481320171 -0.0276232357939 0.878 2.31392982233e-38
0.0307675395333 -0.0275288511614 0.875 2.30467494662e-38
0.0322388293937 -0.0274030049846 0.871 2.29549167726e-38
0.0335787210401 -0.0271827741753 0.864 2.29552727024e-38
0.0351777077563 -0.0271827741753 0.864 2.26797620101e-38
0.0366915632353 -0.027119851087 0.862 2.25875621763e-38
0.0382868485934 -0.027119851087 0.862 2.27712331686e-38
0.0397895999979 -0.0270569279986 0.86 2.22173419246e-38
0.0413811839978 -0.0270569279986 0.86 2.18471300808e-38
0.0429727679978 -0.0270569279986 0.86 2.1939322908e-38
-0.0815113089446 -0.0250804027522 0.847 1.93621472581e-38
-0.0799437837726 -0.0250804027522 0.847 2.16623730821e-38
-0.0785613265075 -0.0251396244824 0.849 1.96365985689e-38
-0.0774435163495 -0.025287678808 0.854 1.98202681599e-38
-0.0760407016146 -0.0253469005382 0.856 2.02798015705e-38
-0.0748044479961 -0.0254653439987 0.86 2.0187603138e-38
-0.0733831264706 -0.0255245657289 0.862 2.08329725471e-38
-0.0719544022288 -0.0255837874591 0.864 2.12017550665e-38
-0.0707625649079 -0.0257318417847 0.869 2.11095594367e-38
-0.0691543247964 -0.0257318417847 0.869 2.08333284769e-38
-0.0677015417267 -0.0257910635149 0.871 2.15708935158e-38
-0.0662413559407 -0.0258502852452 0.873 2.17552847755e-38
-0.0647737674385 -0.0259095069754 0.875 2.2215906995e-38
-0.0633709527037 -0.0259983395707 0.878 2.20315157353e-38
-0.0618867080898 -0.026057561301 0.88 2.10184428066e-38
-0.0603950607596 -0.0261167830312 0.882 2.16638150182e-38
0.016415523348 -0.0262648373568 0.887 2.20329506649e-38
0.0180570756828 -0.0262648373568 0.887 2.1940755035e-38
0.0196986280176 -0.0262648373568 0.887 2.09266031066e-38
0.0213401803524 -0.0262648373568 0.887 2.24017331844e-38
0.0229299136732 -0.0262056156265 0.885 2.20329506649e-38
0.0245677646499 -0.0262056156265 0.885 2.23095375545e-38
0.0261167830312 -0.0261167830312 0.882 2.20329492636e-38
0.0276861588823 -0.026057561301 0.88 2.28634287985e-38
0.0292481320171 -0.0259983395707 0.878 2.28630714674e-38
0.0307675395333 -0.0259095069754 0.875 2.35098828126e-38
0.0322388293937 -0.0257910635149 0.871 2.27716017101e-38
0.0335787210401 -0.0255837874591 0.864 2.35088066153e-38
0.0351777077563 -0.0255837874591 0.864 2.28623582065e-38
0.0366915632353 -0.0255245657289 0.862 2.29534748365e-38
0.0382868485934 -0.0255245657289 0.862 2.18474790041e-38
0.0397895999979 -0.0254653439987 0.86 2.27690863794e-38
0.0413811839978 -0.0254653439987 0.86 2.19400277611e-38
-0.0830788341166 -0.0235128775802 0.847 9.49114443781e-39
-0.0815113089446 -0.0235128775802 0.847 2.12064143839e-38
-0.0799437837726 -0.0235128775802 0.847 2.12935877601e-38
-0.0785613265075 -0.0235683979523 0.849 1.91763420883e-38
-0.0771714665262 -0.0236239183244 0.851 1.97280739313e-38
-0.075863036424 -0.0237071988825 0.854 2.0187603138e-38
-0.0746304841636 -0.0238182396267 0.858 2.03723503276e-38
-0.0733831264706 -0.0239292803708 0.862 2.05567415873e-38
-0.0719544022288 -0.0239848007429 0.864 2.11099153665e-38
-0.0705997051498 -0.0240680813011 0.867 2.0741132847e-38
-0.0691543247964 -0.0241236016732 0.869 2.13865022561e-38
-0.0677015417267 -0.0241791220453 0.871 2.16630891456e-38
-0.0662413559407 -0.0242346424173 0.873 2.14786978859e-38
-0.0647737674385 -0.0242901627894 0.875 2.21237113651e-38
-0.0633709527037 -0.0243734433476 0.878 2.23081026249e-38
-0.0618867080898 -0.0244289637197 0.88 2.19403991052e-38
-0.0603950607596 -0.0244844840917 0.882 2.24013772546e-38
0.0229299136732 -0.0245677646499 0.885 2.20329506649e-38
0.0245677646499 -0.0245677646499 0.885 2.3323689483e-38
0.0261167830312 -0.0244844840917 0.882 2.27712331686e-38
0.0276861588823 -0.0244289637197 0.88 2.32318539868e-38
0.0292481320171 -0.0243734433476 0.878 2.28641504672e-38
0.0307675395333 -0.0242901627894 0.875 2.33254915528e-38
0.0322388293937 -0.0241791220453 0.871 2.3417327049e-38
0.0335787210401 -0.0239848007429 0.864 2.35084464816e-38
0.0351777077563 -0.0239848007429 0.864 2.34144557884e-38
0.0366915632353 -0.0239292803708 0.862 2.32293456626e-38
0.0382868485934 -0.0239292803708 0.862 2.26772396728e-38
0.0398821339514 -0.0239292803708 0.862 2.28609260794e-38
-0.0830788341166 -0.0219453524082 0.847 6.26178346315e-39
-0.0815113089446 -0.0219453524082 0.847 2.27715834932e-38
-0.0799437837726 -0.0219453524082 0.847 2.11077573668e-38
-0.0783762586006 -0.0219453524082 0.847 2.00046608209e-38
-0.0771714665262 -0.0220489904361 0.851 2.03727230729e-38
-0.075863036424 -0.022126718957 0.854 2.05567415873e-38
-0.0746304841636 -0.0222303569849 0.858 2.09255227054e-38
-0.0733831264706 -0.0223339950128 0.862 2.08333270756e-38
-0.0719544022288 -0.0223858140267 0.864 2.13865022561e-38
-0.0705997051498 -0.0224635425477 0.867 2.08329725471e-38
-0.0691543247964 -0.0225153615616 0.869 2.13861463262e-38
-0.0677015417267 -0.0225671805756 0.871 2.11095622392e-38
-0.0662413559407 -0.0226189995895 0.873 2.18471272782e-38
-0.0647737674385 -0.0226708186035 0.875 2.1570537586e-38
-0.0633709527037 -0.0227485471244 0.878 2.20315157353e-38
-0.0618867080898 -0.0228003661383 0.88 2.24013772546e-38
0.0261167830312 -0.0228521851523 0.882 2.32318539868e-38
0.0276861588823 -0.0228003661383 0.88 2.33251286165e-38
0.0292481320171 -0.0227485471244 0.878 2.32329357893e-38
0.0307675395333 -0.0226708186035 0.875 2.34176871827e-38
0.0319797343239 -0.0223858140267 0.864 2.34176871827e-38
0.0335009925192 -0.0223339950128 0.862 2.33240552219e-38
0.0350962778772 -0.0223339950128 0.862 2.31389450961e-38
0.0366064319981 -0.0222821759988 0.86 2.32300617261e-38
0.038198015998 -0.0222821759988 0.86 2.2585044043e-38
0.0398821339514 -0.0223339950128 0.862 2.27687304496e-38
-0.0797550145075 -0.0203297095803 0.845 2.10134037373e-38
-0.0781911906936 -0.0203297095803 0.845 1.99106659238e-38
-0.0774435163495 -0.0205462390315 0.854 2.07418587196e-38
-0.0760407016146 -0.0205943566873 0.856 2.01883135963e-38
-0.0746304841636 -0.0206424743431 0.858 2.01883135963e-38
-0.0733831264706 -0.0207387096547 0.862 2.07411314457e-38
-0.0719544022288 -0.0207868273105 0.864 2.0741132847e-38
-0.0705997051498 -0.0208590037943 0.867 2.14783419561e-38
-0.0691543247964 -0.0209071214501 0.869 2.13861519314e-38
-0.0675460846849 -0.0209071214501 0.869 2.11095650418e-38
-0.066089600257 -0.0209552391059 0.871 2.17545785211e-38
-0.0647737674385 -0.0210514744175 0.875 2.25846923171e-38
-0.0633709527037 -0.0211236509012 0.878 2.24924938846e-38
0.0261167830312 -0.0212198862128 0.882 2.35091639464e-38
0.0276861588823 -0.021171768557 0.88 2.35095226788e-38
0.0292481320171 -0.0211236509012 0.878 2.35098828126e-38
0.0306972137286 -0.0210033567617 0.873 2.34180473164e-38
0.0319797343239 -0.0207868273105 0.864 2.33254915528e-38
0.0335009925192 -0.0207387096547 0.862 2.35095226788e-38
0.0350962778772 -0.0207387096547 0.862 2.32311379233e-38
0.0366064319981 -0.0206905919989 0.86 2.35070087494e-38
0.038198015998 -0.0206905919989 0.86 2.24939246103e-38
-0.0813188383213 -0.0187658857665 0.845 2.35080793414e-38
-0.0797550145075 -0.0187658857665 0.845 2.15647796506e-38
-0.0781911906936 -0.0187658857665 0.845 2.07407825224e-38
-0.0769900999774 -0.0188547183618 0.849 2.03734293274e-38
-0.075863036424 -0.018965759106 0.854 2.00039223366e-38
-0.0742825564985 -0.018965759106 0.854 2.14790524144e-38
-0.0732128639962 -0.019099007999 0.86 2.0556740186e-38
-0.0719544022288 -0.0191878405943 0.864 2.12943066262e-38
-0.0705997051498 -0.0192544650409 0.867 2.17549316483e-38
-0.0691543247964 -0.0192988813385 0.869 2.19393257106e-38
-0.0675460846849 -0.0192988813385 0.869 2.20311654107e-38
-0.066089600257 -0.0193432976362 0.871 2.22155580717e-38
-0.0647737674385 -0.0194321302315 0.875 2.25846923171e-38
0.026057561301 -0.0195431709757 0.88 2.35095268827e-38
0.0276232357939 -0.0194987546781 0.878 2.35095226788e-38
0.0291481953473 -0.0194321302315 0.875 2.34176871827e-38
0.0306972137286 -0.0193877139339 0.873 2.34180473164e-38
0.0319797343239 -0.0191878405943 0.864 2.33262104189e-38
0.0335009925192 -0.0191434242967 0.862 2.33251314191e-38
0.0350962778772 -0.0191434242967 0.862 2.33240524193e-38
0.0366064319981 -0.019099007999 0.86 2.35080849466e-38
0.038198015998 -0.019099007999 0.86 2.29549027596e-38
-0.0797550145075 -0.0172020619526 0.845 2.20239627366e-38
-0.0781911906936 -0.0172020619526 0.845 2.03720000029e-38
-0.0769900999774 -0.0172834918317 0.849 2.00975599026e-38
-0.075863036424 -0.0173852791805 0.854 2.10177183353e-38
-0.0742825564985 -0.0173852791805 0.854 2.02801546977e-38
-0.0732128639962 -0.0175074239991 0.86 2.10177197366e-38
-0.0719544022288 -0.0175888538782 0.864 2.16627332158e-38
-0.0705997051498 -0.0176499262875 0.867 2.1293953499e-38
-0.0691543247964 -0.017690641227 0.869 2.1662738821e-38
-0.0675460846849 -0.017690641227 0.869 2.18467741509e-38
-0.066089600257 -0.0177313561665 0.871 2.20311654107e-38
-0.0646257131129 -0.0177720711061 0.873 2.22159097976e-38
0.026057561301 -0.0179145733944 0.88 2.35095268827e-38
0.0276232357939 -0.0178738584549 0.878 2.34176899853e-38
0.0291481953473 -0.0178127860456 0.875 2.33262132215e-38
0.0306972137286 -0.0177720711061 0.873 2.32343763241e-38
0.0319797343239 -0.0175888538782 0.864 2.29574278995e-38
0.0335009925192 -0.0175481389386 0.862 2.34176871827e-38
0.0350962778772 -0.0175481389386 0.862 2.35091611438e-38
0.0366064319981 -0.0175074239991 0.86 2.31392982233e-38
0.038198015998 -0.0175074239991 0.86 2.29556216258e-38
-0.0797550145075 -0.0156382381387 0.845 2.19317671067e-38
-0.0781911906936 -0.0156382381387 0.845 2.09262499793e-38
-0.0769900999774 -0.0157122653015 0.849 1.98224093439e-38
-0.0755965386379 -0.0157492788829 0.851 2.03734293274e-38
-0.0742825564985 -0.015804799255 0.854 2.12017578691e-38
-0.0730426015218 -0.0158788264178 0.858 2.21237141677e-38
-0.0719544022288 -0.015989867162 0.864 2.11095622392e-38
-0.0705997051498 -0.016045387534 0.867 2.14783447587e-38
-0.0691543247964 -0.0160824011154 0.869 2.23081054275e-38
-0.0675460846849 -0.0160824011154 0.869 2.23081054275e-38
-0.066089600257 -0.0161194146968 0.871 2.24003038599e-38
-0.0646257131129 -0.0161564282782 0.873 2.29534720339e-38
0.0259983395707 -0.0162489622317 0.878 2.35098856151e-38
0.0276232357939 -0.0162489622317 0.878 2.34176913866e-38
0.0291481953473 -0.0161934418596 0.875 2.33262132215e-38
0.030626887924 -0.0161194146968 0.871 2.32343763241e-38
0.0321648022309 -0.0160824011154 0.869 2.31425394266e-38
0.0335009925192 -0.0159528535806 0.862 2.32336518528e-38
0.0350148479982 -0.0159158399992 0.86 2.33240496167e-38
0.0366064319981 -0.0159158399992 0.86 2.32314924518e-38
-0.0783762586006 -0.0141077265481 0.847 2.12028368689e-38
-0.0768087334286 -0.0141077265481 0.847 1.98242044073e-38
-0.0755965386379 -0.0141743509946 0.851 2.12950296962e-38
-0.0740216107496 -0.0141743509946 0.851 2.12939563016e-38
-0.072702076573 -0.0142243193295 0.854 2.14783475613e-38
-0.0717878411125 -0.0143575682225 0.862 2.22159126002e-38
-0.0705997051498 -0.0144408487806 0.867 2.14783447587e-38
-0.0691543247964 -0.0144741610039 0.869 2.24924966872e-38
-0.0675460846849 -0.0144741610039 0.869 2.21237113651e-38
-0.066089600257 -0.0145074732272 0.871 2.20315157353e-38
-0.0646257131129 -0.0145407854504 0.873 2.25846895145e-38
0.0259095069754 -0.0145740976737 0.875 2.35098856151e-38
0.0275288511614 -0.0145740976737 0.875 2.33258558904e-38
0.0290815709008 -0.0145407854504 0.873 2.31425422292e-38
0.030626887924 -0.0145074732272 0.871 2.32343791267e-38
0.0321648022309 -0.0144741610039 0.869 2.32343763241e-38
0.0335009925192 -0.0143575682225 0.862 2.34180431125e-38
0.0350148479982 -0.0143242559993 0.86 2.33251286165e-38
0.0366064319981 -0.0143242559993 0.86 2.35087996088e-38
-0.0783762586006 -0.0125402013761 0.847 2.13861491288e-38
-0.0768087334286 -0.0125402013761 0.847 2.01911918634e-38
-0.0755965386379 -0.0125994231063 0.851 2.11113573026e-38
-0.0740216107496 -0.0125994231063 0.851 2.12950353014e-38
-0.072702076573 -0.012643839404 0.854 2.13872309313e-38
-0.0716212799963 -0.0127326719993 0.86 2.1571622191e-38
-0.0705997051498 -0.0128363100272 0.867 2.16638178208e-38
-0.0689951663964 -0.0128363100272 0.867 2.17560134507e-38
-0.0675460846849 -0.0128659208924 0.869 2.25857741195e-38
-0.066089600257 -0.0128955317575 0.871 2.17560134507e-38
0.0259095069754 -0.0129547534877 0.875 2.35098856151e-38
0.027465928073 -0.0129251426226 0.873 2.35098856151e-38
0.0290149464543 -0.0128955317575 0.871 2.35098856151e-38
0.030626887924 -0.0128955317575 0.871 2.35098856151e-38
0.0321648022309 -0.0128659208924 0.869 2.35098856151e-38
0.0335009925192 -0.0127622828645 0.862 2.35098856151e-38
0.0350148479982 -0.0127326719993 0.86 2.33254943554e-38
0.0366064319981 -0.0127326719993 0.86 2.31407401594e-38
-0.0771714665262 -0.011024495218 0.851 2.000644047e-38
-0.0755965386379 -0.011024495218 0.851 2.12957513649e-38
-0.0740216107496 -0.011024495218 0.851 2.17560134507e-38
-0.072702076573 -0.0110633594785 0.854 2.14794265611e-38
-0.0716212799963 -0.0111410879994 0.86 2.17560134507e-38
-0.0703554155126 -0.0111929070134 0.864 2.21247959702e-38
-0.0689951663964 -0.0112317712738 0.867 2.23091872299e-38
-0.0675460846849 -0.0112576807808 0.869 2.22169916e-38
0.0259095069754 -0.0113354093017 0.875 2.35098856151e-38
0.027465928073 -0.0113094997948 0.873 2.35098856151e-38
0.0290149464543 -0.0112835902878 0.871 2.35098856151e-38
0.0305565621193 -0.0112576807808 0.869 2.35098856151e-38
0.0321648022309 -0.0112576807808 0.869 2.35098856151e-38
0.0336953138215 -0.0112317712738 0.867 2.35098856151e-38
0.0352998525749 -0.0112317712738 0.867 2.35098856151e-38
-0.0785613265075 -0.0094273591809 0.849 2.1017369412e-38
-0.0769900999774 -0.0094273591809 0.849 2.06507308792e-38
-0.0755965386379 -0.00944956732974 0.851 2.15716193884e-38
-0.0740216107496 -0.00944956732974 0.851 2.08340571521e-38
-0.072702076573 -0.00948287955299 0.854 2.19404047104e-38
-0.07145471888 -0.00952729585067 0.858 2.22169916e-38
-0.0701925557545 -0.00957171214834 0.862 2.14794265611e-38
-0.0689951663964 -0.00962723252043 0.867 2.28623610091e-38
-0.0675460846849 -0.00964944066926 0.869 2.28623610091e-38
0.0258502852452 -0.00969385696694 0.873 2.35098856151e-38
0.0274030049846 -0.0096716488181 0.871 2.35098856151e-38
0.0289483220078 -0.00964944066926 0.869 2.35098856151e-38
0.0304862363147 -0.00962723252043 0.867 2.35098856151e-38
0.0320907750681 -0.00962723252043 0.867 2.35098856151e-38
0.0336953138215 -0.00962723252043 0.867 2.35098856151e-38
0.0352998525749 -0.00962723252043 0.867 2.35098856151e-38
-0.0797550145075 -0.00781911906936 0.845 2.16605752162e-38
-0.0781911906936 -0.00781911906936 0.845 2.14783475613e-38
-0.0768087334286 -0.00783762586006 0.847 2.12039046584e-38
-0.0754188734472 -0.00785613265075 0.849 2.15716165858e-38
-0.0740216107496 -0.00787463944145 0.851 2.12950324988e-38
-0.072702076573 -0.0079023996275 0.854 2.19404019078e-38
-0.0712881577637 -0.00792090641819 0.856 2.21247931676e-38
-0.0700296959964 -0.00795791999959 0.86 2.29545538363e-38
-0.0687564287964 -0.00799493358098 0.864 2.25857713169e-38
-0.067390627643 -0.00802269376702 0.867 2.25857713169e-38
0.0274030049846 -0.00805970734842 0.871 2.35098856151e-38
0.0289483220078 -0.00804120055772 0.869 2.35098856151e-38
0.0303807476077 -0.00799493358098 0.864 2.35098856151e-38
0.0319797343239 -0.00799493358098 0.864 2.35098856151e-38
0.0335787210401 -0.00799493358098 0.864 2.35098856151e-38
0.0352998525749 -0.00802269376702 0.867 2.34176899853e-38
-0.0797550145075 -0.00625529525549 0.845 2.09240891771e-38
-0.0781911906936 -0.00625529525549 0.845 2.11095650418e-38
-0.0768087334286 -0.00627010068805 0.847 2.11117090285e-38
-0.0754188734472 -0.0062849061206 0.849 2.2124790365e-38
-0.0738476469171 -0.0062849061206 0.849 2.19404019078e-38
-0.072702076573 -0.006321919702 0.854 2.20325975377e-38
-0.0712881577637 -0.00633672513455 0.856 2.2493575687e-38
-0.0698668362382 -0.00635153056711 0.858 2.2493575687e-38
-0.0684381119964 -0.00636633599967 0.86 2.26779669467e-38
0.0274030049846 -0.00644776587873 0.871 2.35098856151e-38
0.0289483220078 -0.00643296044618 0.869 2.35098856151e-38
0.0303104218031 -0.00638114143223 0.862 2.35098856151e-38
0.0319057071611 -0.00638114143223 0.862 2.35098856151e-38
0.0334232639983 -0.00636633599967 0.86 2.35098856151e-38
0.0350148479982 -0.00636633599967 0.86 2.33254943554e-38
-0.0807414264516 -0.00465815921836 0.839 2.25843251769e-38
-0.0791887067122 -0.00465815921836 0.839 2.23077424912e-38
-0.0781911906936 -0.00469147144162 0.845 2.09262527819e-38
-0.0768087334286 -0.00470257551603 0.847 2.15726871778e-38
-0.0752412082565 -0.00470257551603 0.847 2.1940755035e-38
-0.0738476469171 -0.00471367959045 0.849 2.19403991052e-38
-0.072702076573 -0.0047414397765 0.854 2.20325947351e-38
-0.0711215966475 -0.0047414397765 0.854 2.22169859948e-38
-0.0697039764801 -0.00475254385092 0.856 2.20325947351e-38
-0.0682789535964 -0.00476364792533 0.858 2.33233335532e-38
0.0273400818963 -0.00482472033463 0.869 2.35098856151e-38
0.0288816975613 -0.00481361626021 0.867 2.35098856151e-38
0.0301697701938 -0.00476364792533 0.858 2.35098856151e-38
0.0317576528356 -0.00476364792533 0.858 2.34176899853e-38
0.0333455354773 -0.00476364792533 0.858 2.35098856151e-38
0.0349334181191 -0.00476364792533 0.858 2.35098856151e-38
-0.0807414264516 -0.00310543947891 0.839 1.92660013679e-38
-0.0791887067122 -0.00310543947891 0.839 2.28612764041e-38
-0.0780061227866 -0.00312024491147 0.843 2.07418615222e-38
-0.0764460003309 -0.00312024491147 0.843 2.19414696973e-38
-0.0752412082565 -0.00313505034402 0.847 2.17563637753e-38
-0.0738476469171 -0.0031424530603 0.849 2.2124790365e-38
-0.072702076573 -0.003160959851 0.854 2.26779641441e-38
-0.0711215966475 -0.003160959851 0.854 2.28623554039e-38
-0.0697039764801 -0.00316836256728 0.856 2.29545510337e-38
-0.0682789535964 -0.00317576528356 0.858 2.2770159774e-38
0.0288816975613 -0.00320907750681 0.867 2.35098856151e-38
0.0301697701938 -0.00317576528356 0.858 2.35098856151e-38
0.0316836256728 -0.00316836256728 0.856 2.35098856151e-38
0.0332678069564 -0.00316836256728 0.856 2.35098856151e-38
0.03485198824 -0.00316836256728 0.856 2.34176899853e-38
-0.0809338970749 -0.00155642109759 0.841 9.40106897252e-39
-0.0793774759773 -0.00155642109759 0.841 2.35091653477e-38
-0.0780061227866 -0.00156012245573 0.843 2.21247959702e-38
-0.0764460003309 -0.00156012245573 0.843 2.11117090285e-38
-0.0750635430659 -0.00156382381387 0.845 2.23095375545e-38
-0.0736736830845 -0.00156752517201 0.847 2.2770159774e-38
-0.072702076573 -0.0015804799255 0.854 2.31389422935e-38
-0.0711215966475 -0.0015804799255 0.854 2.28623554039e-38
-0.0697039764801 -0.00158418128364 0.856 2.30467466636e-38
-0.0682789535964 -0.00158788264178 0.858 2.3508805214e-38
0.0288816975613 -0.0016045387534 0.867 2.35098856151e-38
0.0300994443891 -0.00158418128364 0.856 2.35098856151e-38
0.0316836256728 -0.00158418128364 0.856 2.35098856151e-38
0.0332678069564 -0.00158418128364 0.856 2.35098856151e-38
0.03485198824 -0.00158418128364 0.856 2.34176899853e-38
-0.0809338970749 0.0 0.841 3.58700457262e-39
-0.0793774759773 0.0 0.841 2.35066570235e-38
-0.0780061227866 0.0 0.843 2.21237169703e-38
-0.0764460003309 0.0 0.843 2.13933391913e-38
-0.0748858778752 0.0 0.843 2.13918958538e-38
-0.0736736830845 0.0 0.847 2.19432731684e-38
-0.0724466828613 0.0 0.851 2.25875663802e-38
-0.0711215966475 0.0 0.854 2.31389422935e-38
-0.069541116722 0.0 0.854 2.35084422777e-38
-0.0682789535964 0.0 0.858 2.35070017429e-38
-0.0668465279965 0.0 0.86 2.34155291831e-38
0.0287817608915 0.0 0.864 2.35098856151e-38
0.0300994443891 0.0 0.856 2.35098856151e-38
0.03160959851 0.0 0.854 2.35098856151e-38
0.0331900784355 0.0 0.854 2.35098856151e-38
0.03485198824 0.0 0.856 2.35098856151e-38
-0.0809338970749 0.00155642109759 0.841 2.94163936747e-39
-0.0793774759773 0.00155642109759 0.841 1.87978457678e-38
-0.0780061227866 0.00156012245573 0.843 2.35080919531e-38
-0.0764460003309 0.00156012245573 0.843 2.15755724514e-38
-0.0748858778752 0.00156012245573 0.843 2.22173405233e-38
-0.0736736830845 0.00156752517201 0.847 2.31375003573e-38
-0.0724466828613 0.00157492788829 0.851 2.35077290168e-38
-0.0711215966475 0.0015804799255 0.854 2.34155319856e-38
-0.069541116722 0.0015804799255 0.854 2.35088010101e-38
-0.0682789535964 0.00158788264178 0.858 2.3049260593e-38
0.0287817608915 0.0015989867162 0.864 2.35098856151e-38
0.0300994443891 0.00158418128364 0.856 2.35098856151e-38
0.03160959851 0.0015804799255 0.854 2.35098856151e-38
0.0331900784355 0.0015804799255 0.854 2.35098856151e-38
-0.0809338970749 0.00311284219519 0.841 1.96319224359e-38
-0.0793774759773 0.00311284219519 0.841 3.03311052603e-39
-0.0780061227866 0.00312024491147 0.843 2.35066570235e-38
-0.0764460003309 0.00312024491147 0.843 2.35059367561e-38
-0.0748858778752 0.00312024491147 0.843 2.2674367011e-38
-0.073499719252 0.00312764762774 0.845 2.33200965537e-38
-0.0724466828613 0.00314985577658 0.851 2.35088094179e-38
-0.0711215966475 0.003160959851 0.854 2.34176913866e-38
-0.069541116722 0.003160959851 0.854 2.31425422292e-38
-0.0681197951965 0.00316836256728 0.856 2.28666742057e-38
-0.0666910709547 0.00317576528356 0.858 2.31425436305e-38
0.0302400959984 0.00318316799983 0.86 2.35098856151e-38
0.0314985577658 0.00314985577658 0.851 2.35098856151e-38
0.0330734856541 0.00314985577658 0.851 2.35098856151e-38
-0.0809338970749 0.00466926329278 0.841 2.35077332207e-38
-0.0793774759773 0.00466926329278 0.841 9.58043937985e-39
-0.0780061227866 0.0046803673672 0.843 6.81025448468e-39
-0.0764460003309 0.0046803673672 0.843 2.35048633615e-38
-0.0748858778752 0.0046803673672 0.843 2.35062940872e-38
-0.073499719252 0.00469147144162 0.845 2.286379734e-38
-0.0721061579125 0.00470257551603 0.847 2.32343763241e-38
-0.0708717549731 0.00472478366487 0.851 2.26833661497e-38
-0.069541116722 0.0047414397765 0.854 2.2867037142e-38
-0.0681197951965 0.00475254385092 0.856 2.31421848981e-38
0.0300994443891 0.00475254385092 0.856 2.35098856151e-38
0.0314985577658 0.00472478366487 0.851 2.35098856151e-38
0.0330734856541 0.00472478366487 0.851 2.35098856151e-38
-0.0811263676981 0.00624048982293 0.843 2.35095268827e-38
-0.0780061227866 0.00624048982293 0.843 5.14965554862e-39
-0.0764460003309 0.00624048982293 0.843 4.68436140003e-39
-0.0748858778752 0.00624048982293 0.843 2.35030640942e-38
-0.073499719252 0.00625529525549 0.845 2.35073702844e-38
-0.0721061579125 0.00627010068805 0.847 2.35095212775e-38
-0.0708717549731 0.00629971155316 0.851 2.32343791267e-38
0.0286485119985 0.00636633599967 0.86 2.35098856151e-38
0.0300994443891 0.00633672513455 0.856 2.35098856151e-38
0.0314985577658 0.00629971155316 0.851 2.35098856151e-38
0.0330734856541 0.00629971155316 0.851 2.32332987256e-38
-0.0781911906936 0.00781911906936 0.845 1.84279870512e-38
-0.0766273668797 0.00781911906936 0.845 1.13228124891e-38
-0.0750635430659 0.00781911906936 0.845 4.40812483506e-39
-0.0736736830845 0.00783762586006 0.847 1.02146502492e-38
-0.0721061579125 0.00783762586006 0.847 2.34990872092e-38
-0.0708717549731 0.00787463944145 0.851 2.35059311509e-38
0.0300994443891 0.00792090641819 0.856 2.35098856151e-38
0.03160959851 0.0079023996275 0.854 2.32332987256e-38
0.0331900784355 0.0079023996275 0.854 2.35098856151e-38
-0.0781911906936 0.00938294288323 0.845 2.25803875282e-38
-0.0766273668797 0.00938294288323 0.845 1.40000856909e-38
-0.0750635430659 0.00938294288323 0.845 1.50945586461e-38
-0.0736736830845 0.00940515103207 0.847 1.27871329506e-38
-0.0722764203869 0.0094273591809 0.849 5.78563906055e-39
-0.0708717549731 0.00944956732974 0.851 6.33882545142e-39
0.0269310818219 0.00950508770183 0.856 2.35098856151e-38
0.0285152631055 0.00950508770183 0.856 2.35098856151e-38
0.0300291185845 0.00948287955299 0.854 2.35098856151e-38
0.03160959851 0.00948287955299 0.854 2.35098856151e-38
0.0331900784355 0.00948287955299 0.854 2.34176899853e-38
-0.0755077060426 0.0103638027902 0.8 2.23117081658e-38
-0.0740271627868 0.0103638027902 0.8 2.35070157559e-38
-0.0725466195311 0.0103638027902 0.8 1.86127468524e-38
-0.0710660762754 0.0103638027902 0.8 1.3440429505e-38
-0.0695855330196 0.0103638027902 0.8 1.53729209808e-38
0.0269310818219 0.0110892689855 0.856 2.35098856151e-38
0.0285152631055 0.0110892689855 0.856 2.35098856151e-38
0.0299236298775 0.011024495218 0.851 2.35098856151e-38
0.0314985577658 0.011024495218 0.851 2.35098856151e-38
0.0331900784355 0.0110633594785 0.854 2.35098856151e-38
-0.0755077060426 0.0118443460459 0.8 2.33229832286e-38
-0.0740271627868 0.0118443460459 0.8 2.27690863794e-38
-0.0725466195311 0.0118443460459 0.8 2.35044906161e-38
-0.0708884110847 0.0118147351808 0.798 1.72276572074e-38
-0.0694115691871 0.0118147351808 0.798 1.38117427695e-38
-0.0679347272895 0.0118147351808 0.798 1.36215865679e-38
-0.0662913242756 0.0117851243157 0.796 1.5644487018e-38
-0.064655323978 0.0117555134506 0.794 1.59178341055e-38
-0.0631858847967 0.0117555134506 0.794 1.53639414602e-38
0.0299236298775 0.0125994231063 0.851 2.27741254487e-38
0.0314985577658 0.0125994231063 0.851 2.29588698356e-38
0.0330734856541 0.0125994231063 0.851 2.32343693176e-38
-0.0756964753077 0.0133582015249 0.802 2.35066514183e-38
-0.0742122306938 0.0133582015249 0.802 2.23073865614e-38
-0.0725466195311 0.0133248893016 0.8 2.31375003573e-38
-0.0708884110847 0.0132915770784 0.798 1.89822468367e-38
-0.0694115691871 0.0132915770784 0.798 1.52901056429e-38
-0.0679347272895 0.0132915770784 0.798 1.39014076543e-38
-0.0662913242756 0.0132582648551 0.796 1.50941844994e-38
-0.064655323978 0.0132249526319 0.794 1.51824158559e-38
-0.0631858847967 0.0132249526319 0.794 1.47199929678e-38
-0.0617164456154 0.0132249526319 0.794 1.48132675975e-38
0.0299236298775 0.0141743509946 0.851 2.35091681503e-38
0.0314985577658 0.0141743509946 0.851 2.35084478829e-38
-0.0759796292053 0.0148979665109 0.805 2.3507011552e-38
-0.0744898325543 0.0148979665109 0.805 2.27683647107e-38
-0.0728186693543 0.0148609529295 0.803 2.12013921302e-38
-0.0712437414661 0.0148424461388 0.802 2.11967202011e-38
-0.0697594968522 0.0148424461388 0.802 1.78740775903e-38
-0.0681049897639 0.0148054325574 0.8 1.49187741615e-38
-0.0662913242756 0.0147314053946 0.796 1.5466188604e-38
-0.0648181837362 0.0147314053946 0.796 1.52774743385e-38
-0.0631858847967 0.0146943918132 0.794 1.46299441272e-38
-0.0617164456154 0.0146943918132 0.794 1.45377484974e-38
-0.0603987621178 0.0147314053946 0.796 1.41689659779e-38
-0.0589256215783 0.0147314053946 0.796 1.34306932833e-38
-0.0577411869737 0.0148054325574 0.8 1.37069200392e-38
-0.056260643718 0.0148054325574 0.8 1.41664548511e-38
-0.0547801004623 0.0148054325574 0.8 1.42572085448e-38
-0.0532995572065 0.0148054325574 0.8 1.51773697801e-38
-0.0518190139508 0.0148054325574 0.8 1.39795510632e-38
-0.0502126245183 0.014768418976 0.798 1.33345501956e-38
-0.0487357826207 0.014768418976 0.798 1.18590683919e-38
-0.0746749004612 0.0164284781015 0.807 2.25839734509e-38
-0.073181402452 0.0164284781015 0.807 2.16616514134e-38
-0.0715102392521 0.0163877631619 0.805 2.03691021177e-38
-0.0698464787685 0.0163470482224 0.803 1.89832894027e-38
-0.0682752522383 0.0163266907526 0.802 1.51985896428e-38
-0.0666244465082 0.0162859758131 0.8 1.58392801162e-38
-0.0649810434943 0.0162452608736 0.798 1.49119260159e-38
-0.0633450431967 0.016204545934 0.796 1.50019636461e-38
-0.0618719026572 0.016204545934 0.796 1.48150542531e-38
-0.0603987621178 0.016204545934 0.796 1.39852935843e-38
-0.0589256215783 0.016204545934 0.796 1.35228945183e-38
-0.0577411869737 0.0162859758131 0.8 1.33385032586e-38
-0.056260643718 0.0162859758131 0.8 1.32459418898e-38
-0.0547801004623 0.0162859758131 0.8 1.32452174185e-38
-0.0532995572065 0.0162859758131 0.8 1.2874992963e-38
-0.0518190139508 0.0162859758131 0.8 1.29657536632e-38
-0.0502126245183 0.0162452608736 0.798 1.36078888754e-38
-0.0486136378021 0.016204545934 0.796 1.47124399691e-38
-0.0471404972627 0.016204545934 0.796 1.38884260254e-38
-0.0456673567232 0.016204545934 0.796 1.34296086783e-38
0.0266497786033 0.0162859758131 0.8 6.7040192455e-39
0.028130321859 0.0162859758131 0.8 7.53162191464e-39
0.0296108651147 0.0162859758131 0.8 1.14045502285e-38
0.0310914083705 0.0162859758131 0.8 1.5278913472e-38
0.0325719516262 0.0162859758131 0.8 1.35304335041e-38
-0.0748599683682 0.0179663924084 0.809 2.25836133172e-38
-0.0733627690008 0.0179663924084 0.809 2.10162820044e-38
-0.0718655696335 0.0179663924084 0.809 1.88024966774e-38
-0.0701944064336 0.0179219761107 0.807 2.05513339765e-38
-0.0685306459499 0.017877559813 0.805 1.75981969551e-38
-0.0670408492988 0.017877559813 0.805 1.34447174783e-38
-0.0653881928896 0.0178331435154 0.803 1.45471105724e-38
-0.0638225183967 0.0178109353665 0.802 1.54654683366e-38
-0.0623382737828 0.0178109353665 0.802 1.3158060858e-38
-0.0607022734852 0.0177665190688 0.8 1.46317518022e-38
-0.0592217302295 0.0177665190688 0.8 1.33377871951e-38
-0.0577411869737 0.0177665190688 0.8 1.33377871951e-38
-0.0564012953273 0.0178109353665 0.802 1.31548280624e-38
-0.0549170507134 0.0178109353665 0.802 1.28793159687e-38
-0.0534328060995 0.0178109353665 0.802 1.25098075767e-38
-0.0519485614857 0.0178109353665 0.802 1.30608205536e-38
-0.0502126245183 0.0177221027712 0.798 1.35196407033e-38
-0.0486136378021 0.0176776864735 0.796 1.37940723959e-38
-0.0471404972627 0.0176776864735 0.796 1.33330914439e-38
-0.0456673567232 0.0176776864735 0.796 1.39784636556e-38
-0.0441942161837 0.0176776864735 0.796 1.3886630962e-38
0.0147314053946 0.0176776864735 0.796 6.98021657412e-39
0.0161638309945 0.0176332701758 0.794 7.34755996005e-39
0.0176332701758 0.0176332701758 0.794 6.88766221185e-39
0.0222081488361 0.0177665190688 0.8 8.91200880198e-39
0.0236886920918 0.0177665190688 0.8 1.1488457178e-38
0.0251692353475 0.0177665190688 0.8 1.36060910095e-38
0.0266497786033 0.0177665190688 0.8 1.44354999523e-38
0.028130321859 0.0177665190688 0.8 1.53588981871e-38
0.0295368379519 0.0177221027712 0.798 1.4625637937e-38
0.0310136798495 0.0177221027712 0.798 1.48179353227e-38
0.0324905217471 0.0177221027712 0.798 1.40879232825e-38
-0.0720432348242 0.0195117094315 0.811 1.67741956231e-38
