# .PCD v0.7 - Point Cloud Data file format
VERSION 0.7
FIELDS x y z rgb
SIZE 4 4 4 4
TYPE F F F F
COUNT 1 1 1 1
WIDTH 837
HEIGHT 1
VIEWPOINT 0 0 0 1 0 0 0
POINTS 837
DATA ascii
-0.0521151226019 -0.0358291467888 0.88 2.15701746497e-38
-0.0506012671229 -0.0359105766679 0.882 2.04638270913e-38
-0.0491355292998 -0.0360327214865 0.885 2.07404139809e-38
-0.0474976783231 -0.0360327214865 0.885 2.09248052406e-38
-0.0458598273464 -0.0360327214865 0.885 2.12935877601e-38
-0.0442219763698 -0.0360327214865 0.885 2.05560227212e-38
-0.0426803607048 -0.0361141513656 0.887 2.07404139809e-38
-0.04103880837 -0.0361141513656 0.887 2.08326096108e-38
-0.0393972560352 -0.0361141513656 0.887 2.12017550665e-38
-0.0377557037004 -0.0361141513656 0.887 2.11095622392e-38
-0.0361141513656 -0.0361141513656 0.887 2.12017578691e-38
-0.0344725990308 -0.0361141513656 0.887 2.12939506964e-38
-0.0329050738588 -0.0361955812446 0.889 2.1570537586e-38
-0.0312598201658 -0.0361955812446 0.889 2.12017550665e-38
-0.0296811909194 -0.0362770111237 0.891 2.11095594367e-38
-0.0280322358683 -0.0362770111237 0.891 2.1570537586e-38
-0.0263832808172 -0.0362770111237 0.891 2.19386040419e-38
0.00164895505108 -0.0362770111237 0.891 2.18474804054e-38
0.00329050738588 -0.0361955812446 0.889 2.26768851443e-38
0.00493576107881 -0.0361955812446 0.889 2.23081054275e-38
0.00658101477175 -0.0361955812446 0.889 2.25846923171e-38
0.00820776167399 -0.0361141513656 0.887 2.29534720339e-38
0.00984931400879 -0.0361141513656 0.887 2.14786978859e-38
0.0114908663436 -0.0361141513656 0.887 2.17552833742e-38
0.0131028078133 -0.0360327214865 0.885 2.2124067295e-38
0.014690690455 -0.0359105766679 0.882 2.1570537586e-38
0.0162489622317 -0.0357477169098 0.878 2.12939506964e-38
0.0178127860456 -0.0356255720912 0.875 2.1570537586e-38
0.0193877139339 -0.0355441422121 0.873 2.16627332158e-38
0.0209552391059 -0.035462712333 0.871 2.14783419561e-38
0.0225671805756 -0.035462712333 0.871 2.21237113651e-38
0.0241791220453 -0.035462712333 0.871 2.1570537586e-38
0.0257318417847 -0.035381282454 0.869 2.09251681769e-38
0.0273400818963 -0.035381282454 0.869 2.0741132847e-38
0.0288816975613 -0.0352998525749 0.867 2.0741132847e-38
0.0303807476077 -0.0351777077563 0.864 2.0741132847e-38
0.0319057071611 -0.0350962778772 0.862 2.04645445561e-38
0.0334232639983 -0.0350148479982 0.86 2.08333270756e-38
0.0350148479982 -0.0350148479982 0.86 2.06489358158e-38
0.0365213007609 -0.0349334181191 0.858 2.02805092262e-38
0.0380203508073 -0.03485198824 0.856 2.04649004859e-38
0.0395119981375 -0.034770558361 0.854 2.00035664068e-38
0.041092478063 -0.034770558361 0.854 2.03723489263e-38
0.0425230529838 -0.0346484135424 0.851 1.98191765484e-38
0.0439943428442 -0.0345669836633 0.849 1.87124730602e-38
0.0454582299883 -0.0344855537843 0.847 2.00954075082e-38
0.046803673672 -0.0343226940261 0.843 1.92656468394e-38
0.0483637961277 -0.0343226940261 0.843 1.96344321614e-38
-0.0944901212602 -0.0325293860076 0.837 2.34180445138e-38
-0.0929411028789 -0.0325293860076 0.837 2.3418050119e-38
-0.091828844758 -0.0326848430495 0.841 2.28630910856e-38
-0.0907017812046 -0.0328403000913 0.845 1.74885691724e-39
-0.0893489348046 -0.0329180286122 0.847 2.35084506855e-38
-0.0879886856884 -0.0329957571332 0.849 1.95411715447e-38
-0.086621033856 -0.0330734856541 0.851 1.91723890253e-38
-0.0850461059677 -0.0330734856541 0.851 1.90805451213e-38
-0.0834711780794 -0.0330734856541 0.851 1.95415176655e-38
-0.082184956126 -0.0331900784355 0.854 1.95418735953e-38
-0.0807932454656 -0.0332678069564 0.856 1.92652839031e-38
-0.0793941320889 -0.0333455354773 0.858 1.88965041862e-38
-0.0779876159959 -0.0334232639983 0.86 1.99106561147e-38
-0.076396031996 -0.0334232639983 0.86 2.00035664068e-38
-0.0749784118287 -0.0335009925192 0.862 2.00039223366e-38
-0.073553388945 -0.0335787210401 0.864 2.00035664068e-38
-0.0719544022288 -0.0335787210401 0.864 1.94503940289e-38
-0.0705997051498 -0.0336953138215 0.867 2.0187603138e-38
-0.0689951663964 -0.0336953138215 0.867 2.05563884601e-38
-0.067390627643 -0.0336953138215 0.867 2.02798015705e-38
-0.0659378445733 -0.0337730423424 0.869 2.04641928302e-38
-0.0644776587873 -0.0338507708634 0.871 2.03712783342e-38
-0.0630100702851 -0.0339284993843 0.873 2.08322564835e-38
-0.0613944274573 -0.0339284993843 0.873 2.1201039003e-38
-0.0599157348806 -0.0340062279052 0.875 2.10170036731e-38
-0.0582963906946 -0.0340062279052 0.875 2.07404167835e-38
-0.0566770465087 -0.0340062279052 0.875 2.09248052406e-38
-0.0552464715878 -0.0341228206866 0.878 2.11091965003e-38
-0.0536215753646 -0.0341228206866 0.878 2.02794358316e-38
-0.0521151226019 -0.0342005492075 0.88 2.12013949328e-38
-0.0506012671229 -0.0342782777284 0.882 2.04638298939e-38
-0.0491355292998 -0.0343948705098 0.885 2.08326124134e-38
-0.0474976783231 -0.0343948705098 0.885 2.12935905627e-38
-0.0458598273464 -0.0343948705098 0.885 2.15701774523e-38
-0.0443219130396 -0.0344725990308 0.887 2.12935905627e-38
-0.0426803607048 -0.0344725990308 0.887 2.13857861925e-38
-0.04103880837 -0.0344725990308 0.887 2.12935905627e-38
-0.0393972560352 -0.0344725990308 0.887 2.12021109963e-38
-0.0377557037004 -0.0344725990308 0.887 2.10177197366e-38
-0.0361141513656 -0.0344725990308 0.887 2.13865022561e-38
-0.0344725990308 -0.0344725990308 0.887 2.11095594367e-38
-0.0329050738588 -0.0345503275517 0.889 2.13861463262e-38
-0.0312598201658 -0.0345503275517 0.889 2.1293953499e-38
-0.0296811909194 -0.0346280560726 0.891 2.15705403886e-38
-0.0280322358683 -0.0346280560726 0.891 2.15705431912e-38
0.00164895505108 -0.0346280560726 0.891 2.1939322908e-38
0.00329050738588 -0.0345503275517 0.889 2.28612792067e-38
0.00493576107881 -0.0345503275517 0.889 2.1939322908e-38
0.00658101477175 -0.0345503275517 0.889 2.18471244756e-38
0.00820776167399 -0.0344725990308 0.887 2.23084585547e-38
0.00984931400879 -0.0344725990308 0.887 2.14786964846e-38
0.0114649568366 -0.0343948705098 0.885 2.24010087131e-38
0.0131028078133 -0.0343948705098 0.885 2.2215906995e-38
0.014690690455 -0.0342782777284 0.882 2.17549344509e-38
0.0162489622317 -0.0341228206866 0.878 2.14783475613e-38
0.0178127860456 -0.0340062279052 0.875 2.18471300808e-38
0.0193877139339 -0.0339284993843 0.873 2.15705431912e-38
0.0210033567617 -0.0339284993843 0.873 2.11095650418e-38
0.0225671805756 -0.0338507708634 0.871 2.12017606717e-38
0.0241791220453 -0.0338507708634 0.871 2.11095650418e-38
0.0257318417847 -0.0337730423424 0.869 2.17549288457e-38
0.0273400818963 -0.0337730423424 0.869 2.12943066262e-38
0.0289483220078 -0.0337730423424 0.869 2.13865022561e-38
0.0303807476077 -0.0335787210401 0.864 2.12021109963e-38
0.0319057071611 -0.0335009925192 0.862 2.05567415873e-38
0.0334232639983 -0.0334232639983 0.86 2.12943066262e-38
0.0350148479982 -0.0334232639983 0.86 2.0741132847e-38
0.0365213007609 -0.0333455354773 0.858 2.0095763438e-38
0.0380203508073 -0.0332678069564 0.856 2.00961179665e-38
0.0395119981375 -0.0331900784355 0.854 2.0003919534e-38
0.041092478063 -0.0331900784355 0.854 2.02805092262e-38
0.0425230529838 -0.0330734856541 0.851 1.97269809185e-38
0.0438907048163 -0.0329180286122 0.847 2.05563856575e-38
0.0454582299883 -0.0329180286122 0.847 1.93578452718e-38
0.046803673672 -0.0327625715704 0.843 1.94500437043e-38
0.0483637961277 -0.0327625715704 0.843 2.00954131133e-38
0.0499239185834 -0.0327625715704 0.843 1.68682101383e-38
-0.0958096554369 -0.0309063404635 0.835 2.35098758061e-38
-0.0942643384137 -0.0309063404635 0.835 2.34180445138e-38
-0.0927190213905 -0.0309063404635 0.835 2.3418050119e-38
-0.0911737043673 -0.0309063404635 0.835 2.35088094179e-38
-0.0907017812046 -0.0312764762774 0.845 3.67354596318e-40
-0.0893489348046 -0.0313505034402 0.847 2.35066556222e-38
-0.0879886856884 -0.031424530603 0.849 2.09241059927e-38
-0.086621033856 -0.0314985577658 0.851 1.88958021357e-38
-0.0850461059677 -0.0314985577658 0.851 1.89879921604e-38
-0.0837654360515 -0.03160959851 0.854 1.98181073576e-38
-0.0823774267492 -0.0316836256728 0.856 2.00028517446e-38
-0.0809820147307 -0.0317576528356 0.858 1.94496751628e-38
-0.0795791999959 -0.0318316799983 0.86 1.97262620524e-38
-0.0779876159959 -0.0318316799983 0.86 2.0371634264e-38
-0.0765736971867 -0.0319057071611 0.862 1.95425882575e-38
-0.0749784118287 -0.0319057071611 0.862 1.99117267067e-38
-0.073553388945 -0.0319797343239 0.864 1.99113707769e-38
-0.0722042439032 -0.0320907750681 0.867 1.99113721782e-38
-0.0705997051498 -0.0320907750681 0.867 1.98188206186e-38
-0.0691543247964 -0.0321648022309 0.869 2.08329753497e-38
-0.0675460846849 -0.0321648022309 0.869 2.06485840899e-38
-0.066089600257 -0.0322388293937 0.871 2.09251737821e-38
-0.0644776587873 -0.0322388293937 0.871 2.00954103108e-38
-0.0630100702851 -0.0323128565565 0.873 1.9911019051e-38
-0.0615350790666 -0.0323868837192 0.875 2.11095622392e-38
-0.0599157348806 -0.0323868837192 0.875 2.12939506964e-38
-0.0584962640342 -0.0324979244634 0.878 2.12939506964e-38
-0.056871367811 -0.0324979244634 0.878 2.03723503276e-38
-0.0552464715878 -0.0324979244634 0.878 2.08333284769e-38
-0.0537437201832 -0.0325719516262 0.88 2.01879590678e-38
-0.0522335660624 -0.032645978789 0.882 2.10173638068e-38
-0.0507733802764 -0.0327570195332 0.885 2.09251681769e-38
-0.0491355292998 -0.0327570195332 0.885 2.05563856575e-38
-0.0474976783231 -0.0327570195332 0.885 2.07407769172e-38
-0.0458598273464 -0.0327570195332 0.885 2.12017550665e-38
-0.0443219130396 -0.032831046696 0.887 2.10173638068e-38
-0.0426803607048 -0.032831046696 0.887 2.10173638068e-38
-0.04103880837 -0.032831046696 0.887 2.07407769172e-38
-0.0393972560352 -0.032831046696 0.887 2.13865008548e-38
-0.0377557037004 -0.032831046696 0.887 2.15708921145e-38
-0.0361141513656 -0.032831046696 0.887 2.14786978859e-38
-0.0345503275517 -0.0329050738588 0.889 2.11095594367e-38
-0.0329050738588 -0.0329050738588 0.889 2.1293953499e-38
-0.0312598201658 -0.0329050738588 0.889 2.13861519314e-38
0.00164895505108 -0.0329791010215 0.891 2.20326003403e-38
0.00329050738588 -0.0329050738588 0.889 2.20325975377e-38
0.00493576107881 -0.0329050738588 0.889 2.25857685143e-38
0.00658101477175 -0.0329050738588 0.889 2.16638122156e-38
0.00820776167399 -0.032831046696 0.887 2.23095375545e-38
0.00984931400879 -0.032831046696 0.887 2.23095375545e-38
0.0114649568366 -0.0327570195332 0.885 2.24939288142e-38
0.0131028078133 -0.0327570195332 0.885 2.22159097976e-38
0.014690690455 -0.032645978789 0.882 2.15705431912e-38
0.0162489622317 -0.0324979244634 0.878 2.14783475613e-38
0.0178738584549 -0.0324979244634 0.878 2.18471300808e-38
0.0194321302315 -0.0323868837192 0.875 2.15705431912e-38
0.0210033567617 -0.0323128565565 0.873 2.23081082301e-38
0.0225671805756 -0.0322388293937 0.871 2.14783475613e-38
0.0241791220453 -0.0322388293937 0.871 2.1662738821e-38
0.0257910635149 -0.0322388293937 0.871 2.16627332158e-38
0.0273400818963 -0.0321648022309 0.869 2.13865022561e-38
0.0289483220078 -0.0321648022309 0.869 2.13865022561e-38
0.0303807476077 -0.0319797343239 0.864 2.0741132847e-38
0.0319057071611 -0.0319057071611 0.862 2.02797987679e-38
0.0335009925192 -0.0319057071611 0.862 2.09251681769e-38
0.0350148479982 -0.0318316799983 0.86 2.06485812873e-38
0.0366064319981 -0.0318316799983 0.86 2.06485812873e-38
0.0381091834027 -0.0317576528356 0.858 2.06492917457e-38
0.0395119981375 -0.03160959851 0.854 1.98195282743e-38
0.041092478063 -0.03160959851 0.854 2.06492917457e-38
0.0425230529838 -0.0314985577658 0.851 2.0741132847e-38
0.0438907048163 -0.0313505034402 0.847 1.9542233729e-38
0.0454582299883 -0.0313505034402 0.847 1.97266277913e-38
0.046803673672 -0.0312024491147 0.843 1.94500437043e-38
0.0483637961277 -0.0312024491147 0.843 2.0463839703e-38
0.0499239185834 -0.0312024491147 0.843 1.99106659238e-38
-0.0958096554369 -0.0293610234403 0.835 2.35098786087e-38
-0.0942643384137 -0.0293610234403 0.835 2.34180445138e-38
-0.0927190213905 -0.0293610234403 0.835 2.30492704021e-38
-0.0911737043673 -0.0293610234403 0.835 2.33244209608e-38
-0.0896283873442 -0.0293610234403 0.835 1.46565954227e-38
-0.0893489348046 -0.0297829782682 0.847 1.29041511814e-38
-0.0879886856884 -0.0298533040729 0.849 2.21226435757e-38
-0.086621033856 -0.0299236298775 0.851 1.97255571993e-38
-0.0853459159769 -0.0300291185845 0.854 1.96337160979e-38
-0.0837654360515 -0.0300291185845 0.854 1.94496779654e-38
-0.0823774267492 -0.0300994443891 0.856 1.90808926434e-38
-0.0809820147307 -0.0301697701938 0.858 2.00028475407e-38
-0.0795791999959 -0.0302400959984 0.86 2.00950445719e-38
-0.0779876159959 -0.0302400959984 0.86 1.99106561147e-38
-0.0765736971867 -0.0303104218031 0.862 2.00035664068e-38
-0.0751523756612 -0.0303807476077 0.864 2.03723489263e-38
-0.0738087826566 -0.0304862363147 0.867 1.99113721782e-38
-0.0722042439032 -0.0304862363147 0.867 2.03723503276e-38
-0.0705997051498 -0.0304862363147 0.867 2.01879590678e-38
-0.0691543247964 -0.0305565621193 0.869 2.05563856575e-38
-0.0675460846849 -0.0305565621193 0.869 2.02797987679e-38
-0.066089600257 -0.030626887924 0.871 2.09251681769e-38
-0.0646257131129 -0.0306972137286 0.873 2.05563884601e-38
-0.0630100702851 -0.0306972137286 0.873 2.13861491288e-38
-0.0615350790666 -0.0307675395333 0.875 2.1293953499e-38
-0.0601211602573 -0.0308730282403 0.878 2.14783419561e-38
-0.0584962640342 -0.0308730282403 0.878 2.12939506964e-38
-0.056871367811 -0.0308730282403 0.878 2.08333284769e-38
-0.0553723177646 -0.0309433540449 0.88 2.09255241067e-38
-0.0538658650018 -0.0310136798495 0.882 2.06489372171e-38
-0.0522335660624 -0.0310136798495 0.882 2.12939506964e-38
-0.0507733802764 -0.0311191685565 0.885 2.08329753497e-38
-0.0491355292998 -0.0311191685565 0.885 2.07407797198e-38
-0.0474976783231 -0.0311191685565 0.885 2.11095622392e-38
-0.0458598273464 -0.0311191685565 0.885 2.11095622392e-38
-0.0443219130396 -0.0311894943612 0.887 2.15705403886e-38
-0.0426803607048 -0.0311894943612 0.887 2.1293953499e-38
-0.04103880837 -0.0311894943612 0.887 2.13861491288e-38
-0.0393972560352 -0.0311894943612 0.887 2.12943066262e-38
-0.0377557037004 -0.0311894943612 0.887 2.14786964846e-38
-0.0361141513656 -0.0311894943612 0.887 2.16630891456e-38
0.00329050738588 -0.0312598201658 0.889 2.24013800572e-38
0.00493576107881 -0.0312598201658 0.889 2.24013772546e-38
0.00658101477175 -0.0312598201658 0.889 2.1940755035e-38
0.00820776167399 -0.0311894943612 0.887 2.19403991052e-38
0.00984931400879 -0.0311894943612 0.887 2.24013772546e-38
0.0114649568366 -0.0311191685565 0.885 2.29545538363e-38
0.0131028078133 -0.0311191685565 0.885 2.24003038599e-38
0.014690690455 -0.0310136798495 0.882 2.26768907495e-38
0.0162489622317 -0.0308730282403 0.878 2.21237169703e-38
0.0178738584549 -0.0308730282403 0.878 2.19393257106e-38
0.0194321302315 -0.0307675395333 0.875 2.23081082301e-38
0.0210033567617 -0.0306972137286 0.873 2.21237169703e-38
0.0225671805756 -0.030626887924 0.871 2.1662738821e-38
0.0241791220453 -0.030626887924 0.871 2.18471300808e-38
0.0257910635149 -0.030626887924 0.871 2.16627332158e-38
0.0273400818963 -0.0305565621193 0.869 2.14786978859e-38
0.0289483220078 -0.0305565621193 0.869 2.15708935158e-38
0.0304862363147 -0.0304862363147 0.867 2.1570537586e-38
0.0319797343239 -0.0303807476077 0.864 2.10173638068e-38
0.0335009925192 -0.0303104218031 0.862 2.15705403886e-38
0.0350962778772 -0.0303104218031 0.862 2.1293953499e-38
0.0366064319981 -0.0302400959984 0.86 2.08329753497e-38
0.0381091834027 -0.0301697701938 0.858 2.09255227054e-38
0.039604532091 -0.0300994443891 0.856 2.07414873755e-38
0.041092478063 -0.0300291185845 0.854 2.09255227054e-38
0.0425230529838 -0.0299236298775 0.851 2.02801546977e-38
0.0439943428442 -0.0298533040729 0.849 2.03719943977e-38
0.0454582299883 -0.0297829782682 0.847 2.05563856575e-38
0.046803673672 -0.0296423266589 0.843 2.00032146809e-38
0.0483637961277 -0.0296423266589 0.843 2.00954103108e-38
0.0499239185834 -0.0296423266589 0.843 1.86213620354e-38
-0.0958096554369 -0.0278157064172 0.835 2.350988001e-38
-0.0942643384137 -0.0278157064172 0.835 2.34180445138e-38
-0.0927190213905 -0.0278157064172 0.835 2.32340175917e-38
-0.0911737043673 -0.0278157064172 0.835 2.34169739218e-38
-0.0896283873442 -0.0278157064172 0.835 2.34155319856e-38
-0.0893489348046 -0.0282154530962 0.847 1.74883169387e-39
-0.0879886856884 -0.0282820775427 0.849 2.26765250106e-38
-0.086621033856 -0.0283487019892 0.851 2.12935905627e-38
-0.0853459159769 -0.028448638659 0.854 2.01872402017e-38
-0.0839616080328 -0.0285152631055 0.856 2.01872388004e-38
-0.0825698973724 -0.028581887552 0.858 1.92656384316e-38
-0.0809820147307 -0.028581887552 0.858 2.00028475407e-38
-0.0795791999959 -0.0286485119985 0.86 1.98184576823e-38
-0.0781689825448 -0.028715136445 0.862 2.00950473744e-38
-0.0765736971867 -0.028715136445 0.862 2.00954075082e-38
-0.0751523756612 -0.0287817608915 0.864 2.03719943977e-38
-0.0738087826566 -0.0288816975613 0.867 1.99110162484e-38
-0.0722042439032 -0.0288816975613 0.867 2.03723503276e-38
-0.0707625649079 -0.0289483220078 0.869 2.06489372171e-38
-0.0691543247964 -0.0289483220078 0.869 2.04645459574e-38
-0.0677015417267 -0.0290149464543 0.871 2.01879590678e-38
-0.0662413559407 -0.0290815709008 0.873 2.08333284769e-38
-0.0647737674385 -0.0291481953473 0.875 2.05574646573e-38
-0.0631544232525 -0.0291481953473 0.875 2.06496630897e-38
-0.0617460564805 -0.0292481320171 0.878 2.11106412391e-38
-0.0601211602573 -0.0292481320171 0.878 2.16638122156e-38
-0.0586295129272 -0.0293147564636 0.88 2.19403991052e-38
-0.0570009153459 -0.0293147564636 0.88 2.05578205871e-38
-0.0554981639413 -0.0293813809101 0.882 2.12031899961e-38
-0.0540490822297 -0.0294813175799 0.885 2.11109943663e-38
-0.0524112312531 -0.0294813175799 0.885 2.09262499793e-38
-0.0507733802764 -0.0294813175799 0.885 2.10184456092e-38
-0.0491355292998 -0.0294813175799 0.885 2.1848206278e-38
-0.0474976783231 -0.0294813175799 0.885 2.11106412391e-38
-0.0458598273464 -0.0294813175799 0.885 2.14794237585e-38
0.00656620933919 -0.0295479420264 0.887 2.28630714674e-38
0.00820776167399 -0.0295479420264 0.887 2.24020961207e-38
0.00984931400879 -0.0295479420264 0.887 2.2032960474e-38
0.0114649568366 -0.0294813175799 0.885 2.22173545363e-38
0.0131028078133 -0.0294813175799 0.885 2.32300617261e-38
0.014690690455 -0.0293813809101 0.882 2.23081054275e-38
0.0162489622317 -0.0292481320171 0.878 2.22159097976e-38
0.0178738584549 -0.0292481320171 0.878 2.20315185379e-38
0.0194321302315 -0.0291481953473 0.875 2.27690835768e-38
0.0210033567617 -0.0290815709008 0.873 2.22159097976e-38
0.0226189995895 -0.0290815709008 0.873 2.22159097976e-38
0.0241791220453 -0.0290149464543 0.871 2.23081054275e-38
0.0257910635149 -0.0290149464543 0.871 2.15708935158e-38
0.0273400818963 -0.0289483220078 0.869 2.16630891456e-38
0.0289483220078 -0.0289483220078 0.869 2.16630891456e-38
0.0304862363147 -0.0288816975613 0.867 2.18471244756e-38
0.0319797343239 -0.0287817608915 0.864 2.05563884601e-38
0.0335009925192 -0.028715136445 0.862 2.10173666094e-38
0.0350962778772 -0.028715136445 0.862 2.11095650418e-38
0.0366064319981 -0.0286485119985 0.86 2.08329781523e-38
0.0381091834027 -0.028581887552 0.858 2.11099153665e-38
0.039604532091 -0.0285152631055 0.856 2.12021109963e-38
0.041092478063 -0.028448638659 0.854 2.09255241067e-38
0.0425230529838 -0.0283487019892 0.851 1.99113721782e-38
0.0439943428442 -0.0282820775427 0.849 2.04645459574e-38
0.0454582299883 -0.0282154530962 0.847 2.04645459574e-38
0.046803673672 -0.0280822042032 0.843 2.02801546977e-38
0.0483637961277 -0.0280822042032 0.843 1.98188206186e-38
0.0499239185834 -0.0280822042032 0.843 2.05574646573e-38
-0.0927190213905 -0.026270389394 0.835 2.3418050119e-38
-0.0911737043673 -0.026270389394 0.835 2.35095268827e-38
-0.0896283873442 -0.026270389394 0.835 2.3508805214e-38
-0.0893489348046 -0.0266479279242 0.847 1.25360735151e-38
-0.0879886856884 -0.0267108510126 0.849 8.01741565846e-39
-0.086621033856 -0.0267737741009 0.851 2.35066416092e-38
-0.0853459159769 -0.0268681587335 0.854 2.12017466587e-38
-0.0839616080328 -0.0269310818219 0.856 2.00032006679e-38
-0.0825698973724 -0.0269940049102 0.858 1.9911005038e-38
-0.0809820147307 -0.0269940049102 0.858 1.9634420951e-38
-0.0795791999959 -0.0270569279986 0.86 1.96340664225e-38
-0.0781689825448 -0.027119851087 0.862 2.02794386342e-38
-0.0767513623774 -0.0271827741753 0.864 2.00032146809e-38
-0.07541332141 -0.0272771588079 0.867 2.00954103108e-38
-0.0738087826566 -0.0272771588079 0.867 2.05563884601e-38
-0.0723708050195 -0.0273400818963 0.869 2.02797987679e-38
-0.0707625649079 -0.0273400818963 0.869 2.08333284769e-38
-0.0691543247964 -0.0273400818963 0.869 2.04645445561e-38
-0.0677015417267 -0.0274030049846 0.871 2.03723489263e-38
-0.0662413559407 -0.027465928073 0.873 2.07414873755e-38
-0.0647737674385 -0.0275288511614 0.875 2.10184428066e-38
-0.0631544232525 -0.0275288511614 0.875 2.11106412391e-38
-0.0617460564805 -0.0276232357939 0.878 2.11106412391e-38
-0.0601211602573 -0.0276232357939 0.878 2.24013772546e-38
-0.0586295129272 -0.0276861588823 0.88 2.2124790365e-38
-0.0570009153459 -0.0276861588823 0.88 2.13875812559e-38
-0.0554981639413 -0.0277490819706 0.882 2.08344074767e-38
0.00656620933919 -0.0279063896916 0.887 2.26786830103e-38
0.00820776167399 -0.0279063896916 0.887 2.31396639622e-38
0.00984931400879 -0.0279063896916 0.887 2.24017457961e-38
0.0114649568366 -0.0278434666032 0.885 2.28623694169e-38
0.0131028078133 -0.0278434666032 0.885 2.25846923171e-38
0.014690690455 -0.0277490819706 0.882 2.31378632936e-38
0.0162489622317 -0.0276232357939 0.878 2.26768851443e-38
0.0178738584549 -0.0276232357939 0.878 2.27690807742e-38
0.0194321302315 -0.0275288511614 0.875 2.21237113651e-38
0.0210514744175 -0.0275288511614 0.875 2.2215906995e-38
0.0226189995895 -0.027465928073 0.873 2.21237113651e-38
0.0241791220453 -0.0274030049846 0.871 2.19393201054e-38
0.0257910635149 -0.0274030049846 0.871 2.23084585547e-38
0.0274030049846 -0.0274030049846 0.871 2.24928498144e-38
0.0289483220078 -0.0273400818963 0.869 2.19396760352e-38
0.0305565621193 -0.0273400818963 0.869 2.14783419561e-38
0.0319797343239 -0.0271827741753 0.864 2.1939322908e-38
0.0335009925192 -0.027119851087 0.862 2.17549344509e-38
0.0350962778772 -0.027119851087 0.862 2.18471300808e-38
0.0366064319981 -0.0270569279986 0.86 2.18471300808e-38
0.0381091834027 -0.0269940049102 0.858 2.13861463262e-38
0.039604532091 -0.0269310818219 0.856 2.10173638068e-38
0.0411887133746 -0.0269310818219 0.856 2.08329725471e-38
0.0426729579885 -0.0268681587335 0.854 2.09255241067e-38
0.0440979808721 -0.0267737741009 0.851 2.0095763438e-38
0.0455655693744 -0.0267108510126 0.849 2.01879590678e-38
0.0469147144162 -0.0265850048358 0.845 2.06489358158e-38
0.0483637961277 -0.0265220817475 0.843 2.0556740186e-38
0.0499239185834 -0.0265220817475 0.843 1.97280599183e-38
0.0514840410392 -0.0265220817475 0.843 2.09255241067e-38
-0.0927190213905 -0.0247250723708 0.835 2.34176899853e-38
-0.0909553242371 -0.0246658506406 0.833 2.32332987256e-38
-0.0894137085721 -0.0246658506406 0.833 2.32325798594e-38
-0.0895599122186 -0.0251396244824 0.849 2.21265882309e-38
-0.0879886856884 -0.0251396244824 0.849 1.19603346267e-39
-0.086621033856 -0.0251988462126 0.851 2.07414873755e-38
-0.0853459159769 -0.025287678808 0.854 2.13872057079e-38
-0.0839616080328 -0.0253469005382 0.856 1.98191765484e-38
-0.0825698973724 -0.0254061222684 0.858 2.03719972003e-38
-0.0809820147307 -0.0254061222684 0.858 2.0280503621e-38
-0.0795791999959 -0.0254653439987 0.86 1.98206030702e-38
-0.0781689825448 -0.0255245657289 0.862 2.03734419391e-38
-0.0767513623774 -0.0255837874591 0.864 2.00954103108e-38
-0.07541332141 -0.0256726200545 0.867 2.0187603138e-38
-0.0738087826566 -0.0256726200545 0.867 2.08329725471e-38
-0.0723708050195 -0.0257318417847 0.869 2.04645459574e-38
-0.0707625649079 -0.0257318417847 0.869 2.02801546977e-38
-0.0693134831964 -0.0257910635149 0.871 2.15708935158e-38
-0.0678569987686 -0.0258502852452 0.873 2.08333284769e-38
-0.0662413559407 -0.0258502852452 0.873 2.20318716651e-38
-0.0647737674385 -0.0259095069754 0.875 2.14783419561e-38
-0.0631544232525 -0.0259095069754 0.875 2.08329725471e-38
-0.0617460564805 -0.0259983395707 0.878 2.09251681769e-38
-0.0601211602573 -0.0259983395707 0.878 2.24002982547e-38
-0.0586295129272 -0.026057561301 0.88 2.25846895145e-38
-0.0570009153459 -0.026057561301 0.88 2.14783419561e-38
-0.0554981639413 -0.0261167830312 0.882 2.13861463262e-38
0.0131028078133 -0.0262056156265 0.885 2.24020989233e-38
0.014690690455 -0.0261167830312 0.882 2.27701625766e-38
0.0162859758131 -0.026057561301 0.88 2.24013800572e-38
0.0178738584549 -0.0259983395707 0.878 2.2770159774e-38
0.0194987546781 -0.0259983395707 0.878 2.18482034754e-38
0.0210514744175 -0.0259095069754 0.875 2.29538279637e-38
0.0226189995895 -0.0258502852452 0.873 2.28616323339e-38
0.0242346424173 -0.0258502852452 0.873 2.22162629248e-38
0.0257910635149 -0.0257910635149 0.871 2.18485594052e-38
0.0274030049846 -0.0257910635149 0.871 2.17563637753e-38
0.0289483220078 -0.0257318417847 0.869 2.1295385626e-38
0.0305565621193 -0.0257318417847 0.869 2.22169859948e-38
0.0319797343239 -0.0255837874591 0.864 2.13872281287e-38
0.0335009925192 -0.0255245657289 0.862 2.21247959702e-38
0.0350962778772 -0.0255245657289 0.862 2.12028396715e-38
0.0366064319981 -0.0254653439987 0.86 2.10184484118e-38
0.038198015998 -0.0254653439987 0.86 2.08329725471e-38
0.0396970660444 -0.0254061222684 0.858 2.16623702795e-38
0.0411887133746 -0.0253469005382 0.856 2.15701746497e-38
0.0426729579885 -0.025287678808 0.854 2.14779790198e-38
0.0439943428442 -0.0251396244824 0.849 2.15701746497e-38
0.0454582299883 -0.0250804027522 0.847 2.07404139809e-38
0.0469147144162 -0.025021181022 0.845 2.13857833899e-38
0.0483637961277 -0.0249619592917 0.843 2.00950445719e-38
0.049805475123 -0.0249027375615 0.841 1.94511170989e-38
0.0513618962206 -0.0249027375615 0.841 2.03737894611e-38
0.0529183173182 -0.0249027375615 0.841 2.06500148157e-38
-0.0909553242371 -0.0231242349755 0.833 2.35098856151e-38
-0.0894137085721 -0.0231242349755 0.833 2.31411030957e-38
-0.0895599122186 -0.0235683979523 0.849 2.35098856151e-38
-0.0879886856884 -0.0235683979523 0.849 1.57633059174e-38
-0.086621033856 -0.0236239183244 0.851 2.30308587416e-39
-0.0855457893165 -0.0237627192546 0.856 2.31385709494e-38
-0.0839616080328 -0.0237627192546 0.856 2.1754568712e-38
-0.0825698973724 -0.0238182396267 0.858 2.04634767667e-38
-0.0809820147307 -0.0238182396267 0.858 1.98195310769e-38
-0.0795791999959 -0.0238737599988 0.86 1.99131658403e-38
-0.0781689825448 -0.0239292803708 0.862 2.03734433404e-38
-0.0767513623774 -0.0239848007429 0.864 2.02808805703e-38
-0.07541332141 -0.0240680813011 0.867 2.04645459574e-38
-0.0738087826566 -0.0240680813011 0.867 2.06489372171e-38
-0.0723708050195 -0.0241236016732 0.869 2.0741132847e-38
-0.0707625649079 -0.0241236016732 0.869 2.09255241067e-38
-0.0693134831964 -0.0241791220453 0.871 2.09255241067e-38
-0.0678569987686 -0.0242346424173 0.873 2.06489372171e-38
-0.0663931116244 -0.0242901627894 0.875 2.13865022561e-38
-0.0647737674385 -0.0242901627894 0.875 2.09251681769e-38
-0.0631544232525 -0.0242901627894 0.875 2.17549288457e-38
-0.0617460564805 -0.0243734433476 0.878 2.09251681769e-38
-0.0601211602573 -0.0243734433476 0.878 2.28612764041e-38
-0.0586295129272 -0.0244289637197 0.88 2.24002982547e-38
-0.0570009153459 -0.0244289637197 0.88 2.23081026249e-38
0.014690690455 -0.0244844840917 0.882 2.3231859592e-38
0.0163229893945 -0.0244844840917 0.882 2.2586490183e-38
0.0178738584549 -0.0243734433476 0.878 2.29545510337e-38
0.0194987546781 -0.0243734433476 0.878 2.24013772546e-38
0.0210514744175 -0.0242901627894 0.875 2.24017331844e-38
0.0226189995895 -0.0242346424173 0.873 2.2124067295e-38
0.0242346424173 -0.0242346424173 0.873 2.24928498144e-38
0.0257910635149 -0.0241791220453 0.871 2.23095375545e-38
0.0274030049846 -0.0241791220453 0.871 2.2678320074e-38
0.0290149464543 -0.0241791220453 0.871 2.2678320074e-38
0.0305565621193 -0.0241236016732 0.869 2.24935728844e-38
0.0319797343239 -0.0239848007429 0.864 2.15716193884e-38
0.0335787210401 -0.0239848007429 0.864 2.20325975377e-38
0.0350962778772 -0.0239292803708 0.862 2.12950353014e-38
0.0366064319981 -0.0238737599988 0.86 2.14794265611e-38
0.038198015998 -0.0238737599988 0.86 2.20311556016e-38
0.0396970660444 -0.0238182396267 0.858 2.17545659094e-38
0.0411887133746 -0.0237627192546 0.856 2.12013921302e-38
0.0426729579885 -0.0237071988825 0.854 2.11091965003e-38
0.0439943428442 -0.0235683979523 0.849 2.07404139809e-38
0.0454582299883 -0.0235128775802 0.847 2.12935877601e-38
0.046803673672 -0.023401836836 0.843 2.13857833899e-38
0.0482490540254 -0.0233463164639 0.841 2.02794358316e-38
0.049805475123 -0.0233463164639 0.841 2.0650016217e-38
0.051239751402 -0.0232907960918 0.839 1.99124511781e-38
0.0527924711414 -0.0232907960918 0.839 2.04645445561e-38
0.0543451908809 -0.0232907960918 0.839 2.00961179665e-38
-0.0902983331674 -0.0221785379709 0.856 2.35098856151e-38
-0.0887141518838 -0.0221785379709 0.856 2.35088066153e-38
-0.0871299706001 -0.0221785379709 0.856 1.3804233211e-39
-0.0855457893165 -0.0221785379709 0.856 1.53930800605e-38
-0.0839616080328 -0.0221785379709 0.856 2.35073660805e-38
-0.0825698973724 -0.0222303569849 0.858 2.05553038551e-38
-0.0811707839958 -0.0222821759988 0.86 2.07400608537e-38
-0.0795791999959 -0.0222821759988 0.86 2.05571143327e-38
-0.0781689825448 -0.0223339950128 0.862 2.03734391365e-38
-0.0767513623774 -0.0223858140267 0.864 2.03719943977e-38
-0.07541332141 -0.0224635425477 0.867 2.06489372171e-38
-0.0738087826566 -0.0224635425477 0.867 2.02801546977e-38
-0.0723708050195 -0.0225153615616 0.869 2.08333284769e-38
-0.0707625649079 -0.0225153615616 0.869 2.01879590678e-38
-0.0693134831964 -0.0225671805756 0.871 2.06489372171e-38
-0.0678569987686 -0.0226189995895 0.873 2.03723503276e-38
-0.0663931116244 -0.0226708186035 0.875 2.16630891456e-38
-0.0647737674385 -0.0226708186035 0.875 2.2124790365e-38
-0.0633709527037 -0.0227485471244 0.878 2.11106384365e-38
-0.0617460564805 -0.0227485471244 0.878 2.12028340663e-38
-0.0602581105085 -0.0228003661383 0.88 2.2124790365e-38
-0.0586295129272 -0.0228003661383 0.88 2.30467466636e-38
-0.0570009153459 -0.0228003661383 0.88 2.28623554039e-38
0.0163229893945 -0.0228521851523 0.882 2.26786858129e-38
0.0179145733944 -0.0228003661383 0.88 2.286307427e-38
0.0194987546781 -0.0227485471244 0.878 2.26779641441e-38
0.0211236509012 -0.0227485471244 0.878 2.31392982233e-38
0.0226708186035 -0.0226708186035 0.875 2.29549069635e-38
0.0242346424173 -0.0226189995895 0.873 2.31382192235e-38
0.0257910635149 -0.0225671805756 0.871 2.24017331844e-38
0.0274030049846 -0.0225671805756 0.871 2.20329506649e-38
0.0290149464543 -0.0225671805756 0.871 2.22173419246e-38
0.0305565621193 -0.0225153615616 0.869 2.18482034754e-38
0.0319797343239 -0.0223858140267 0.864 2.24013772546e-38
0.0335009925192 -0.0223339950128 0.862 2.2493575687e-38
0.0350962778772 -0.0223339950128 0.862 2.19404019078e-38
0.0366064319981 -0.0222821759988 0.86 2.23091844273e-38
0.038198015998 -0.0222821759988 0.86 2.17549288457e-38
0.0396970660444 -0.0222303569849 0.858 2.19396760352e-38
0.0411887133746 -0.0221785379709 0.856 2.20318716651e-38
0.0426729579885 -0.022126718957 0.854 2.17552847755e-38
0.0439943428442 -0.0219971714221 0.849 2.12943066262e-38
0.0454582299883 -0.0219453524082 0.847 2.12021109963e-38
0.046803673672 -0.0218417143803 0.843 2.15708935158e-38
0.0482490540254 -0.0217898953663 0.841 2.02801546977e-38
0.049805475123 -0.0217898953663 0.841 2.06489372171e-38
0.051239751402 -0.0217380763524 0.839 2.09248052406e-38
0.0527924711414 -0.0217380763524 0.839 2.01872388004e-38
0.0543451908809 -0.0217380763524 0.839 1.99113707769e-38
-0.0889214279396 -0.0206424743431 0.858 2.350988001e-38
-0.0873335452978 -0.0206424743431 0.858 2.12950465118e-38
-0.085745662656 -0.0206424743431 0.858 8.26543287496e-40
-0.0841577800142 -0.0206424743431 0.858 2.35084478829e-38
-0.0827623679957 -0.0206905919989 0.86 2.27672745005e-38
-0.0811707839958 -0.0206905919989 0.86 2.04624089773e-38
-0.0795791999959 -0.0206905919989 0.86 2.0555331881e-38
-0.0783503490936 -0.0207868273105 0.864 2.04659906961e-38
-0.0767513623774 -0.0207868273105 0.864 2.04645459574e-38
-0.07541332141 -0.0208590037943 0.867 2.12017550665e-38
-0.0738087826566 -0.0208590037943 0.867 2.04641900276e-38
-0.0723708050195 -0.0209071214501 0.869 2.10173638068e-38
-0.0709254246661 -0.0209552391059 0.871 2.14783419561e-38
-0.0694726415964 -0.0210033567617 0.873 2.11095594367e-38
-0.0678569987686 -0.0210033567617 0.873 2.06485812873e-38
-0.0663931116244 -0.0210514744175 0.875 2.16627332158e-38
-0.0647737674385 -0.0210514744175 0.875 2.15716165858e-38
-0.0633709527037 -0.0211236509012 0.878 2.15716165858e-38
-0.0617460564805 -0.0211236509012 0.878 2.19403991052e-38
-0.0601211602573 -0.0211236509012 0.878 2.16638122156e-38
0.0179145733944 -0.021171768557 0.88 2.3508443679e-38
0.0194987546781 -0.0211236509012 0.878 2.21255092311e-38
0.0211236509012 -0.0211236509012 0.878 2.32314938531e-38
0.0226708186035 -0.0210514744175 0.875 2.32314938531e-38
0.0242346424173 -0.0210033567617 0.873 2.27705157038e-38
0.0258502852452 -0.0210033567617 0.873 2.29549069635e-38
0.0274030049846 -0.0209552391059 0.871 2.22173419246e-38
0.0290149464543 -0.0209552391059 0.871 2.30471025934e-38
0.0305565621193 -0.0209071214501 0.869 2.25861244441e-38
0.0319797343239 -0.0207868273105 0.864 2.24935728844e-38
0.0335009925192 -0.0207387096547 0.862 2.24935728844e-38
0.0350962778772 -0.0207387096547 0.862 2.19403991052e-38
0.0366064319981 -0.0206905919989 0.86 2.17560078455e-38
0.038198015998 -0.0206905919989 0.86 2.20318716651e-38
0.0396970660444 -0.0206424743431 0.858 2.17552847755e-38
0.041092478063 -0.0205462390315 0.854 2.16630891456e-38
0.0425230529838 -0.0204740625478 0.851 2.12021109963e-38
0.0439943428442 -0.020425944892 0.849 2.12021109963e-38
0.0454582299883 -0.0203778272361 0.847 2.12021109963e-38
0.0469147144162 -0.0203297095803 0.845 2.13865022561e-38
0.0483637961277 -0.0202815919245 0.843 2.08333284769e-38
0.049805475123 -0.0202334742687 0.841 2.06474994849e-38
0.051239751402 -0.0201853566129 0.839 2.12006732641e-38
0.0527924711414 -0.0201853566129 0.839 2.09248052406e-38
0.0543451908809 -0.0201853566129 0.839 2.14783419561e-38
-0.0875371199954 -0.019099007999 0.86 2.35088094179e-38
-0.0859455359955 -0.019099007999 0.86 1.07825979181e-38
-0.0843539519956 -0.019099007999 0.86 3.59023456558e-39
-0.0827623679957 -0.019099007999 0.86 2.35066444118e-38
-0.0813595532609 -0.0191434242967 0.862 2.046133278e-38
-0.0797642679028 -0.0191434242967 0.862 2.04624201876e-38
-0.0783503490936 -0.0191878405943 0.864 1.98198996184e-38
-0.0767513623774 -0.0191878405943 0.864 2.09255241067e-38
-0.07541332141 -0.0192544650409 0.867 2.10173638068e-38
-0.073979045131 -0.0192988813385 0.869 2.06485812873e-38
-0.0723708050195 -0.0192988813385 0.869 2.16627332158e-38
-0.0709254246661 -0.0193432976362 0.871 2.17549288457e-38
-0.0694726415964 -0.0193877139339 0.873 2.09251681769e-38
-0.0678569987686 -0.0193877139339 0.873 2.16627332158e-38
-0.0663931116244 -0.0194321302315 0.875 2.12017550665e-38
-0.0647737674385 -0.0194321302315 0.875 2.17560078455e-38
0.0179145733944 -0.0195431709757 0.88 2.32329357893e-38
0.0195431709757 -0.0195431709757 0.88 2.26786830103e-38
0.0211236509012 -0.0194987546781 0.878 2.29552670973e-38
0.0226708186035 -0.0194321302315 0.875 2.28627113337e-38
0.0242901627894 -0.0194321302315 0.875 2.32314938531e-38
0.0258502852452 -0.0193877139339 0.873 2.27705157038e-38
0.0274030049846 -0.0193432976362 0.871 2.27705157038e-38
0.0290149464543 -0.0193432976362 0.871 2.23095375545e-38
0.0305565621193 -0.0192988813385 0.869 2.24939288142e-38
0.0319797343239 -0.0191878405943 0.864 2.28627113337e-38
0.0335009925192 -0.0191434242967 0.862 2.27705157038e-38
0.0350962778772 -0.0191434242967 0.862 2.27705157038e-38
0.0366064319981 -0.019099007999 0.86 2.24017331844e-38
0.038198015998 -0.019099007999 0.86 2.23095375545e-38
0.039604532091 -0.0190101754037 0.856 2.20329506649e-38
0.041092478063 -0.018965759106 0.854 2.23095375545e-38
0.0425230529838 -0.0188991346595 0.851 2.21251462948e-38
0.0439943428442 -0.0188547183618 0.849 2.17563637753e-38
0.0454582299883 -0.0188103020641 0.847 2.13875812559e-38
0.0469147144162 -0.0187658857665 0.845 2.15719725156e-38
0.0483637961277 -0.0187214694688 0.843 2.13875812559e-38
0.0499239185834 -0.0187214694688 0.843 2.19382411056e-38
0.0513618962206 -0.0186770531711 0.841 2.1107401437e-38
0.0527924711414 -0.0186326368734 0.839 2.1754568712e-38
0.054215643346 -0.0185882205758 0.837 2.11095594367e-38
0.0557646617273 -0.0185882205758 0.837 2.13872309313e-38
-0.0875371199954 -0.0175074239991 0.86 2.33244209608e-38
-0.0859455359955 -0.0175074239991 0.86 2.27676626601e-38
-0.0843539519956 -0.0175074239991 0.86 2.4831737463e-39
-0.0829548386189 -0.0175481389386 0.862 1.54813128183e-38
-0.0813595532609 -0.0175481389386 0.862 2.35041458966e-38
-0.0797642679028 -0.0175481389386 0.862 2.16609521655e-38
-0.0783503490936 -0.0175888538782 0.864 2.14794209559e-38
-0.0767513623774 -0.0175888538782 0.864 2.02797987679e-38
-0.07541332141 -0.0176499262875 0.867 2.14783447587e-38
-0.073979045131 -0.017690641227 0.869 2.1293953499e-38
-0.0723708050195 -0.017690641227 0.869 2.17549316483e-38
-0.0709254246661 -0.0177313561665 0.871 2.14783447587e-38
-0.0694726415964 -0.0177720711061 0.873 2.09251709795e-38
-0.0678569987686 -0.0177720711061 0.873 2.15705403886e-38
-0.0663931116244 -0.0178127860456 0.875 2.17549316483e-38
-0.0647737674385 -0.0178127860456 0.875 2.17560078455e-38
0.0211236509012 -0.0178738584549 0.878 2.33240496167e-38
0.0226708186035 -0.0178127860456 0.875 2.32318539868e-38
0.0242901627894 -0.0178127860456 0.875 2.33240496167e-38
0.0258502852452 -0.0177720711061 0.873 2.25857685143e-38
0.0274030049846 -0.0177313561665 0.871 2.31392982233e-38
0.0290149464543 -0.0177313561665 0.871 2.35095212775e-38
0.0305565621193 -0.017690641227 0.869 2.29549069635e-38
0.0319797343239 -0.0175888538782 0.864 2.23095361532e-38
0.0335009925192 -0.0175481389386 0.862 2.28627099324e-38
0.0350148479982 -0.0175074239991 0.86 2.24939274129e-38
0.0366064319981 -0.0175074239991 0.86 2.18485580039e-38
0.0381091834027 -0.0174667090596 0.858 2.23095375545e-38
0.039604532091 -0.01742599412 0.856 2.21251462948e-38
0.041092478063 -0.0173852791805 0.854 2.22173419246e-38
0.0425230529838 -0.0173242067712 0.851 2.18485594052e-38
0.0439943428442 -0.0172834918317 0.849 2.24939288142e-38
0.0454582299883 -0.0172427768921 0.847 2.17563637753e-38
0.0469147144162 -0.0172020619526 0.845 2.18485594052e-38
0.0483637961277 -0.0171613470131 0.843 2.13875812559e-38
0.0499239185834 -0.0171613470131 0.843 2.14779818224e-38
0.0513618962206 -0.0171206320735 0.841 2.22148279952e-38
0.0527924711414 -0.017079917134 0.839 2.11091993029e-38
0.054215643346 -0.0170392021945 0.837 2.20315157353e-38
0.0557646617273 -0.0170392021945 0.837 2.24942945531e-38
-0.0893359800512 -0.0159528535806 0.862 2.32343791267e-38
-0.0877406946931 -0.0159528535806 0.862 2.35098856151e-38
-0.086145409335 -0.0159528535806 0.862 2.28605603405e-38
-0.084550123977 -0.0159528535806 0.862 1.7970606035e-38
-0.0829548386189 -0.0159528535806 0.862 1.56121884897e-39
-0.0813595532609 -0.0159528535806 0.862 2.35041388901e-38
-0.0797642679028 -0.0159528535806 0.862 2.25825343174e-38
-0.0783503490936 -0.015989867162 0.864 2.26768907495e-38
-0.0770178601634 -0.016045387534 0.867 2.08329753497e-38
-0.07541332141 -0.016045387534 0.867 2.1939322908e-38
-0.073979045131 -0.0160824011154 0.869 2.13861491288e-38
-0.0723708050195 -0.0160824011154 0.869 2.11095622392e-38
-0.0709254246661 -0.0161194146968 0.871 2.12017578691e-38
-0.0694726415964 -0.0161564282782 0.873 2.17549316483e-38
-0.0678569987686 -0.0161564282782 0.873 2.20315185379e-38
0.0211236509012 -0.0162489622317 0.878 2.30485417269e-38
0.0227485471244 -0.0162489622317 0.878 2.28630714674e-38
0.0242901627894 -0.0161934418596 0.875 2.33240496167e-38
0.0258502852452 -0.0161564282782 0.873 2.35084450803e-38
0.027465928073 -0.0161564282782 0.873 2.25857685143e-38
0.0290149464543 -0.0161194146968 0.871 2.31392982233e-38
0.0305565621193 -0.0160824011154 0.869 2.28627113337e-38
0.0319797343239 -0.015989867162 0.864 2.25861230428e-38
0.0335009925192 -0.0159528535806 0.862 2.31392940194e-38
0.0350148479982 -0.0159158399992 0.86 2.28627071298e-38
0.0366064319981 -0.0159158399992 0.86 2.21251420909e-38
0.0381091834027 -0.0158788264178 0.858 2.26786802077e-38
0.039604532091 -0.0158418128364 0.856 2.24942889479e-38
0.041092478063 -0.015804799255 0.854 2.25864845778e-38
0.0425230529838 -0.0157492788829 0.851 2.19411151688e-38
0.0439943428442 -0.0157122653015 0.849 2.21255064285e-38
0.0454582299883 -0.0156752517201 0.847 2.15723326493e-38
0.0469147144162 -0.0156382381387 0.845 2.13879413896e-38
0.0483637961277 -0.0156012245573 0.843 2.09269632403e-38
0.0499239185834 -0.0156012245573 0.843 2.17549316483e-38
0.0513618962206 -0.0155642109759 0.841 2.13854302627e-38
0.0529183173182 -0.0155642109759 0.841 2.21237113651e-38
0.0544747384158 -0.0155642109759 0.841 2.22173419246e-38
-0.0893359800512 -0.0143575682225 0.862 2.20358429449e-38
-0.0877406946931 -0.0143575682225 0.862 2.31414548216e-38
-0.086145409335 -0.0143575682225 0.862 2.35091583412e-38
-0.084550123977 -0.0143575682225 0.862 2.26725859606e-38
-0.0829548386189 -0.0143575682225 0.862 1.19761034384e-38
-0.0813595532609 -0.0143575682225 0.862 4.41783443212e-39
-0.0797642679028 -0.0143575682225 0.862 2.35055556029e-38
-0.0783503490936 -0.0143908804458 0.864 2.13857960016e-38
-0.0767513623774 -0.0143908804458 0.864 2.1662738821e-38
-0.07541332141 -0.0144408487806 0.867 2.13861491288e-38
-0.073979045131 -0.0144741610039 0.869 2.14783447587e-38
-0.0723708050195 -0.0144741610039 0.869 2.20315185379e-38
-0.0709254246661 -0.0145074732272 0.871 2.13861491288e-38
0.0242901627894 -0.0145740976737 0.875 2.35095212775e-38
0.0258502852452 -0.0145407854504 0.873 2.35080849466e-38
0.0274030049846 -0.0145074732272 0.871 2.35077248129e-38
0.0290149464543 -0.0145074732272 0.871 2.35095212775e-38
0.0305565621193 -0.0144741610039 0.869 2.3139296822e-38
0.0319797343239 -0.0143908804458 0.864 2.32314924518e-38
0.0335009925192 -0.0143575682225 0.862 2.29549027596e-38
0.0350148479982 -0.0143242559993 0.86 2.34162368388e-38
0.0365213007609 -0.014290943776 0.858 2.29552586895e-38
0.0381091834027 -0.014290943776 0.858 2.22180593895e-38
0.039604532091 -0.0142576315527 0.856 2.22177020583e-38
0.041092478063 -0.0142243193295 0.854 2.24020933181e-38
0.0425230529838 -0.0141743509946 0.851 2.16645282792e-38
0.0439943428442 -0.0141410387714 0.849 2.1756723909e-38
0.0454582299883 -0.0141077265481 0.847 2.24020933181e-38
0.0469147144162 -0.0140744143248 0.845 2.1756723909e-38
0.0483637961277 -0.0140411021016 0.843 2.1756723909e-38
0.0499239185834 -0.0140411021016 0.843 2.21247931676e-38
0.0513618962206 -0.0140077898783 0.841 2.21247931676e-38
0.0529183173182 -0.0140077898783 0.841 2.16638122156e-38
0.0544747384158 -0.0140077898783 0.841 2.34158851129e-38
-0.0898541701907 -0.0128363100272 0.867 2.3418050119e-38
-0.0877406946931 -0.0127622828645 0.862 2.33247782919e-38
-0.086145409335 -0.0127622828645 0.862 2.35084506855e-38
-0.084550123977 -0.0127622828645 0.862 2.35052220939e-38
-0.0829548386189 -0.0127622828645 0.862 1.93528244194e-38
-0.0813595532609 -0.0127622828645 0.862 4.97065928798e-39
-0.0797642679028 -0.0127622828645 0.862 9.39820611976e-39
-0.0783503490936 -0.0127918937296 0.864 2.35077332207e-38
-0.0767513623774 -0.0127918937296 0.864 2.35077332207e-38
-0.07541332141 -0.0128363100272 0.867 2.12042760025e-38
-0.073979045131 -0.0128659208924 0.869 2.12979065619e-38
-0.0723708050195 -0.0128659208924 0.869 2.18500013413e-38
-0.0709254246661 -0.0128955317575 0.871 2.20304367355e-38
0.0242901627894 -0.0129547534877 0.875 2.34169711192e-38
0.0258502852452 -0.0129251426226 0.873 2.34162480492e-38
0.0274030049846 -0.0128955317575 0.871 2.35084408764e-38
0.0290149464543 -0.0128955317575 0.871 2.35091611438e-38
0.0305565621193 -0.0128659208924 0.869 2.3139658357e-38
0.0319797343239 -0.0127918937296 0.864 2.30474627271e-38
0.0335009925192 -0.0127622828645 0.862 2.29552670973e-38
0.0350148479982 -0.0127326719993 0.86 2.35087982075e-38
0.0365213007609 -0.0127030611342 0.858 2.25868419089e-38
0.0381091834027 -0.0127030611342 0.858 2.28616309326e-38
0.0395119981375 -0.012643839404 0.854 2.30471011921e-38
0.041092478063 -0.012643839404 0.854 2.26804780736e-38
0.0425230529838 -0.0125994231063 0.851 2.22198628606e-38
0.0439943428442 -0.0125698122412 0.849 2.2312061293e-38
0.0454582299883 -0.0125402013761 0.847 2.22187838608e-38
0.0469147144162 -0.012510590511 0.845 2.14779790198e-38
0.04847853823 -0.012510590511 0.845 2.30431453265e-38
0.0499239185834 -0.0124809796459 0.843 2.13918972551e-38
0.0514840410392 -0.0124809796459 0.843 2.24042569229e-38
-0.0898541701907 -0.0112317712738 0.867 2.35095268827e-38
-0.0879442693908 -0.0111929070134 0.864 2.34158977245e-38
-0.0863452826746 -0.0111929070134 0.864 2.35088094179e-38
-0.0847462959584 -0.0111929070134 0.864 2.35084506855e-38
-0.0831473092422 -0.0111929070134 0.864 2.28587694811e-38
-0.081548322526 -0.0111929070134 0.864 1.6773139044e-38
-0.0799493358098 -0.0111929070134 0.864 1.92964543861e-39
-0.0783503490936 -0.0111929070134 0.864 1.68642584767e-38
-0.0767513623774 -0.0111929070134 0.864 2.35062982911e-38
-0.07541332141 -0.0112317712738 0.867 2.27701625766e-38
-0.073979045131 -0.0112576807808 0.869 2.17599637111e-38
-0.0723708050195 -0.0112576807808 0.869 2.05599785867e-38
0.0258502852452 -0.0113094997948 0.873 2.31396611596e-38
0.0274030049846 -0.0112835902878 0.871 2.35095212775e-38
0.0289483220078 -0.0112576807808 0.869 2.35084408764e-38
0.0305565621193 -0.0112576807808 0.869 2.33240496167e-38
0.0319797343239 -0.0111929070134 0.864 2.34162452466e-38
0.0335009925192 -0.0111669975064 0.862 2.30474627271e-38
0.0350148479982 -0.0111410879994 0.86 2.32318539868e-38
0.0365213007609 -0.0111151784924 0.858 2.25864845778e-38
0.0381091834027 -0.0111151784924 0.858 2.33236880817e-38
0.0395119981375 -0.0110633594785 0.854 2.28627099324e-38
0.041092478063 -0.0110633594785 0.854 2.30467466636e-38
0.0425230529838 -0.011024495218 0.851 2.24942945531e-38
0.0439943428442 -0.0109985857111 0.849 2.30474683323e-38
0.0454582299883 -0.0109726762041 0.847 2.24020961207e-38
0.0470257551603 -0.0109726762041 0.847 2.19421941686e-38
0.04847853823 -0.0109467666971 0.845 2.15737661776e-38
0.0500423620439 -0.0109467666971 0.845 2.26819172071e-38
0.0516061858578 -0.0109467666971 0.845 2.35073688831e-38
0.0531700096716 -0.0109467666971 0.845 2.06424758299e-38
-0.0898541701907 -0.00962723252043 0.867 2.35095268827e-38
-0.0879442693908 -0.00959392029717 0.864 2.35084464816e-38
-0.0863452826746 -0.00959392029717 0.864 2.33247782919e-38
-0.0847462959584 -0.00959392029717 0.864 2.35095268827e-38
-0.0831473092422 -0.00959392029717 0.864 2.35077304181e-38
-0.081548322526 -0.00959392029717 0.864 1.88032393656e-38
-0.0799493358098 -0.00959392029717 0.864 1.67716985092e-38
-0.0783503490936 -0.00959392029717 0.864 3.12494882479e-39
-0.0770178601634 -0.00962723252043 0.867 2.31328340335e-38
-0.07541332141 -0.00962723252043 0.867 2.28602002068e-38
0.0274030049846 -0.0096716488181 0.871 2.35095212775e-38
0.0289483220078 -0.00964944066926 0.869 2.35084408764e-38
0.0305565621193 -0.00964944066926 0.869 2.35088010101e-38
0.0319797343239 -0.00959392029717 0.864 2.30474627271e-38
0.0335009925192 -0.00957171214834 0.862 2.34162452466e-38
0.0350148479982 -0.0095495039995 0.86 2.35095212775e-38
0.0366064319981 -0.0095495039995 0.86 2.32318539868e-38
0.0381091834027 -0.00952729585067 0.858 2.28641490659e-38
0.039604532091 -0.00950508770183 0.856 2.24020933181e-38
0.041092478063 -0.00948287955299 0.854 2.33218944197e-38
0.0425230529838 -0.00944956732974 0.851 2.33200993563e-38
0.0439943428442 -0.0094273591809 0.849 2.19382439082e-38
0.0454582299883 -0.00940515103207 0.847 2.29545510337e-38
0.0470257551603 -0.00940515103207 0.847 2.23131346877e-38
0.0485932803324 -0.00940515103207 0.847 2.23160101521e-38
0.0501608055044 -0.00940515103207 0.847 2.35084450803e-38
