# .PCD v0.7 - Point Cloud Data file format
VERSION 0.7
FIELDS x y z rgb
SIZE 4 4 4 4
TYPE F F F F
COUNT 1 1 1 1
WIDTH 836
HEIGHT 1
VIEWPOINT 0 0 0 1 0 0 0
POINTS 836
DATA ascii
-0.0291481953473 -0.0615350790666 0.875 1.91730910758e-38
-0.0275288511614 -0.0615350790666 0.875 1.94496737615e-38
-0.0259095069754 -0.0615350790666 0.875 1.96340664225e-38
-0.0242901627894 -0.0615350790666 0.875 1.95418735953e-38
-0.0226708186035 -0.0615350790666 0.875 1.94496779654e-38
-0.0211236509012 -0.0617460564805 0.878 2.00028517446e-38
-0.0194987546781 -0.0617460564805 0.878 1.99106561147e-38
-0.0178738584549 -0.0617460564805 0.878 1.91730910758e-38
-0.0162489622317 -0.0617460564805 0.878 1.91730910758e-38
-0.0146240660085 -0.0617460564805 0.878 1.9726264855e-38
-0.0129991697854 -0.0617460564805 0.878 1.98184576823e-38
-0.0113742735622 -0.0617460564805 0.878 1.93574795329e-38
-0.00974937733903 -0.0617460564805 0.878 1.93574795329e-38
-0.00812448111586 -0.0617460564805 0.878 1.90808926434e-38
-0.00649958489268 -0.0617460564805 0.878 2.00950473744e-38
-0.00487468866951 -0.0617460564805 0.878 1.99106561147e-38
-0.00324979244634 -0.0617460564805 0.878 1.96337132953e-38
-0.00162489622317 -0.0617460564805 0.878 2.01868870745e-38
0.0 -0.0617460564805 0.878 1.97259117278e-38
0.00162489622317 -0.0617460564805 0.878 1.9818104555e-38
0.00324979244634 -0.0617460564805 0.878 2.0002848942e-38
0.00487468866951 -0.0617460564805 0.878 1.9818456281e-38
0.00649958489268 -0.0617460564805 0.878 1.8989051542e-38
0.00812448111586 -0.0617460564805 0.878 1.98188122108e-38
0.00974937733903 -0.0617460564805 0.878 1.90808912421e-38
0.0113742735622 -0.0617460564805 0.878 1.99106533121e-38
0.0129991697854 -0.0617460564805 0.878 1.9634420951e-38
0.0146240660085 -0.0617460564805 0.878 1.93574781316e-38
0.0162489622317 -0.0617460564805 0.878 1.94496751628e-38
0.0179145733944 -0.0618867080898 0.88 1.9726264855e-38
0.0194987546781 -0.0617460564805 0.878 1.98184604849e-38
0.0210514744175 -0.0615350790666 0.875 1.95418707927e-38
0.0226708186035 -0.0615350790666 0.875 1.93574781316e-38
0.0242901627894 -0.0615350790666 0.875 1.94500296913e-38
0.0259095069754 -0.0615350790666 0.875 1.87121087226e-38
0.027465928073 -0.0613944274573 0.873 1.96340650212e-38
0.0290815709008 -0.0613944274573 0.873 1.89886956122e-38
0.030626887924 -0.061253775848 0.871 1.97262606511e-38
0.0322388293937 -0.061253775848 0.871 1.89886956122e-38
0.0337730423424 -0.0611131242387 0.869 1.87121087226e-38
0.035381282454 -0.0611131242387 0.869 1.8435521833e-38
0.0369895225655 -0.0611131242387 0.869 1.89886956122e-38
-0.0767513623774 -0.0591625084992 0.864 2.35091653477e-38
-0.0751523756612 -0.0591625084992 0.864 5.06752264303e-39
-0.073553388945 -0.0591625084992 0.864 2.35088094179e-38
-0.0719544022288 -0.0591625084992 0.864 1.70522384617e-38
-0.0705997051498 -0.059367933876 0.867 1.87117597993e-38
-0.0689951663964 -0.059367933876 0.867 1.79734758943e-38
-0.0675460846849 -0.0595048841271 0.869 1.79738318241e-38
-0.0659378445733 -0.0595048841271 0.869 1.85270028007e-38
-0.0646257131129 -0.0597787846294 0.873 1.98177444213e-38
-0.0630100702851 -0.0597787846294 0.873 1.88957853201e-38
-0.0613944274573 -0.0597787846294 0.873 1.96337048875e-38
-0.0597787846294 -0.0597787846294 0.873 1.92649223681e-38
-0.0581631418016 -0.0597787846294 0.873 1.95415092577e-38
-0.0566770465087 -0.0599157348806 0.875 1.92645678396e-38
-0.0550577023227 -0.0599157348806 0.875 1.93564103422e-38
-0.0534383581368 -0.0599157348806 0.875 1.91720232864e-38
-0.0518190139508 -0.0599157348806 0.875 1.92652867057e-38
-0.0501996697648 -0.0599157348806 0.875 1.95418707927e-38
-0.0485803255789 -0.0599157348806 0.875 1.92652839031e-38
-0.0469609813929 -0.0599157348806 0.875 1.87121101239e-38
-0.0453416372069 -0.0599157348806 0.875 1.91730882732e-38
-0.043722293021 -0.0599157348806 0.875 2.0002848942e-38
-0.042102948835 -0.0599157348806 0.875 1.88043057538e-38
-0.0406224055793 -0.0601211602573 0.878 1.93574795329e-38
-0.0389975093561 -0.0601211602573 0.878 1.95422253212e-38
-0.0373726131329 -0.0601211602573 0.878 1.92656384316e-38
-0.0357477169098 -0.0601211602573 0.878 1.96340664225e-38
-0.0341228206866 -0.0601211602573 0.878 1.94493220356e-38
-0.0324979244634 -0.0601211602573 0.878 1.96337132953e-38
-0.0308730282403 -0.0601211602573 0.878 1.97259089252e-38
-0.0291481953473 -0.0599157348806 0.875 1.95418707927e-38
-0.0275288511614 -0.0599157348806 0.875 2.00950431706e-38
-0.0259095069754 -0.0599157348806 0.875 1.95418735953e-38
-0.0242901627894 -0.0599157348806 0.875 1.99103001849e-38
-0.0227485471244 -0.0601211602573 0.878 1.93571264057e-38
-0.0211236509012 -0.0601211602573 0.878 1.9818104555e-38
-0.0194987546781 -0.0601211602573 0.878 1.95415176655e-38
-0.0178738584549 -0.0601211602573 0.878 1.99103001849e-38
-0.0162489622317 -0.0601211602573 0.878 2.0555669594e-38
-0.0146573782318 -0.0602581105085 0.88 1.97259089252e-38
-0.0130287806505 -0.0602581105085 0.88 2.00028517446e-38
-0.0113742735622 -0.0601211602573 0.878 1.98184604849e-38
-0.00974937733903 -0.0601211602573 0.878 2.00950473744e-38
-0.00812448111586 -0.0601211602573 0.878 2.00946914446e-38
-0.00649958489268 -0.0601211602573 0.878 1.9172735146e-38
-0.00488579274393 -0.0602581105085 0.88 1.99103029875e-38
-0.00325719516262 -0.0602581105085 0.88 1.96337160979e-38
-0.00162489622317 -0.0601211602573 0.878 1.99103029875e-38
0.0 -0.0601211602573 0.878 2.00946942472e-38
0.00162859758131 -0.0602581105085 0.88 1.97259089252e-38
0.00325719516262 -0.0602581105085 0.88 1.9726264855e-38
0.00487468866951 -0.0601211602573 0.878 1.91730868719e-38
0.00649958489268 -0.0601211602573 0.878 1.97262606511e-38
0.00812448111586 -0.0601211602573 0.878 1.97262620524e-38
0.00977158548786 -0.0602581105085 0.88 1.9726264855e-38
0.0114001830692 -0.0602581105085 0.88 1.9818104555e-38
0.0130287806505 -0.0602581105085 0.88 1.98184576823e-38
0.0146573782318 -0.0602581105085 0.88 1.99106519108e-38
0.0162859758131 -0.0602581105085 0.88 2.00950445719e-38
0.0179145733944 -0.0602581105085 0.88 1.96340664225e-38
0.0194987546781 -0.0601211602573 0.878 1.91730882732e-38
0.0211236509012 -0.0601211602573 0.878 1.98184576823e-38
0.0227485471244 -0.0601211602573 0.878 1.92652825018e-38
0.0243734433476 -0.0601211602573 0.878 1.96340650212e-38
0.0259095069754 -0.0599157348806 0.875 1.94496737615e-38
0.0275288511614 -0.0599157348806 0.875 1.92656384316e-38
0.0291481953473 -0.0599157348806 0.875 1.91734428017e-38
0.0306972137286 -0.0597787846294 0.873 1.92656384316e-38
0.0323128565565 -0.0597787846294 0.873 1.90812471719e-38
0.0337730423424 -0.0595048841271 0.869 1.92656384316e-38
0.035381282454 -0.0595048841271 0.869 1.92656384316e-38
0.0369043913283 -0.059367933876 0.867 1.91734428017e-38
0.0383756811887 -0.0591625084992 0.864 1.87124618498e-38
0.0399746679049 -0.0591625084992 0.864 1.76990287874e-38
-0.0781689825448 -0.05743027289 0.862 2.35098856151e-38
-0.0765736971867 -0.05743027289 0.862 2.15719683117e-38
-0.0751523756612 -0.057563521783 0.864 1.37346195059e-38
-0.073553388945 -0.057563521783 0.864 2.29531076963e-38
-0.0719544022288 -0.057563521783 0.864 1.74213713058e-38
-0.0705997051498 -0.0577633951226 0.867 1.88957853201e-38
-0.0689951663964 -0.0577633951226 0.867 1.84351616993e-38
-0.0675460846849 -0.0578966440156 0.869 1.91716449358e-38
-0.0659378445733 -0.0578966440156 0.869 1.90798052357e-38
-0.0646257131129 -0.0581631418016 0.873 1.97255431863e-38
-0.0630100702851 -0.0581631418016 0.873 1.88035896903e-38
-0.0613944274573 -0.0581631418016 0.873 1.91723694071e-38
-0.0597787846294 -0.0581631418016 0.873 1.94489562967e-38
-0.0582963906946 -0.0582963906946 0.875 1.95411519266e-38
-0.0566770465087 -0.0582963906946 0.875 1.97255459889e-38
-0.0550577023227 -0.0582963906946 0.875 1.9356766272e-38
-0.0534383581368 -0.0582963906946 0.875 1.98173884915e-38
-0.0518190139508 -0.0582963906946 0.875 1.88965041862e-38
-0.0501996697648 -0.0582963906946 0.875 1.93574795329e-38
-0.0485803255789 -0.0582963906946 0.875 1.96340664225e-38
-0.0469609813929 -0.0582963906946 0.875 1.88965013836e-38
-0.0453416372069 -0.0582963906946 0.875 1.95418707927e-38
-0.0438721980256 -0.0584962640342 0.878 1.94496751628e-38
-0.0422473018025 -0.0584962640342 0.878 1.88965013836e-38
-0.0406224055793 -0.0584962640342 0.878 2.0002848942e-38
-0.0389975093561 -0.0584962640342 0.878 1.93574781316e-38
-0.0373726131329 -0.0584962640342 0.878 1.97262620524e-38
-0.0357477169098 -0.0584962640342 0.878 1.91730910758e-38
-0.0341228206866 -0.0584962640342 0.878 1.95415176655e-38
-0.0324979244634 -0.0584962640342 0.878 1.94496779654e-38
-0.0308730282403 -0.0584962640342 0.878 1.98184604849e-38
-0.0292481320171 -0.0584962640342 0.878 1.94496751628e-38
-0.0276232357939 -0.0584962640342 0.878 1.9818456281e-38
-0.0259983395707 -0.0584962640342 0.878 1.9726264855e-38
-0.0244289637197 -0.0586295129272 0.88 1.96337132953e-38
-0.0228003661383 -0.0586295129272 0.88 1.97259089252e-38
-0.0212198862128 -0.0587627618202 0.882 2.00946914446e-38
-0.0195875872734 -0.0587627618202 0.882 2.04634739641e-38
-0.0179145733944 -0.0586295129272 0.88 1.90805395161e-38
-0.0162859758131 -0.0586295129272 0.88 1.99103001849e-38
-0.014690690455 -0.0587627618202 0.882 1.9818104555e-38
-0.0130583915156 -0.0587627618202 0.882 2.02794386342e-38
-0.0114260925761 -0.0587627618202 0.882 2.00028517446e-38
-0.00977158548786 -0.0586295129272 0.88 2.07404167835e-38
-0.00814298790655 -0.0586295129272 0.88 2.00946914446e-38
-0.00651439032524 -0.0586295129272 0.88 1.95415176655e-38
-0.00488579274393 -0.0586295129272 0.88 1.96337160979e-38
-0.00325719516262 -0.0586295129272 0.88 2.03712811368e-38
-0.00162859758131 -0.0586295129272 0.88 2.00946942472e-38
0.0 -0.0586295129272 0.88 2.01868870745e-38
0.00162859758131 -0.0586295129272 0.88 1.97259089252e-38
0.00325719516262 -0.0586295129272 0.88 2.02794386342e-38
0.00488579274393 -0.0586295129272 0.88 1.9818456281e-38
0.00651439032524 -0.0586295129272 0.88 1.93574781316e-38
0.00814298790655 -0.0586295129272 0.88 2.0002848942e-38
0.00977158548786 -0.0586295129272 0.88 1.99103001849e-38
0.0114001830692 -0.0586295129272 0.88 1.98181073576e-38
0.0130287806505 -0.0586295129272 0.88 1.96340692251e-38
0.0146573782318 -0.0586295129272 0.88 1.94496751628e-38
0.0162859758131 -0.0586295129272 0.88 1.96340650212e-38
0.0179145733944 -0.0586295129272 0.88 2.00950431706e-38
0.0194987546781 -0.0584962640342 0.878 1.92652825018e-38
0.0211236509012 -0.0584962640342 0.878 2.00028475407e-38
0.0227485471244 -0.0584962640342 0.878 1.91730882732e-38
0.0243734433476 -0.0584962640342 0.878 1.99106533121e-38
0.0259095069754 -0.0582963906946 0.875 2.00028475407e-38
0.0275288511614 -0.0582963906946 0.875 1.94496737615e-38
0.0291481953473 -0.0582963906946 0.875 1.91730868719e-38
0.0307675395333 -0.0582963906946 0.875 1.88968559121e-38
0.0323128565565 -0.0581631418016 0.873 1.88968531095e-38
0.0339284993843 -0.0581631418016 0.873 1.90812443693e-38
0.0352998525749 -0.0577633951226 0.867 1.89890459368e-38
0.0369043913283 -0.0577633951226 0.867 1.89890459368e-38
0.0383756811887 -0.057563521783 0.864 2.03716300601e-38
0.0399746679049 -0.057563521783 0.864 1.88964999823e-38
0.0415736546211 -0.057563521783 0.864 2.24928498144e-38
-0.0781689825448 -0.055834987532 0.862 2.2956711836e-38
-0.0765736971867 -0.055834987532 0.862 1.07843537451e-38
-0.0751523756612 -0.0559645350669 0.864 2.30456536508e-38
-0.073553388945 -0.0559645350669 0.864 1.95422253212e-38
-0.0719544022288 -0.0559645350669 0.864 1.86191956279e-38
-0.0705997051498 -0.0561588563692 0.867 1.86191956279e-38
-0.0689951663964 -0.0561588563692 0.867 1.90794521085e-38
-0.0675460846849 -0.056288403904 0.869 1.91720008656e-38
-0.066089600257 -0.0564179514389 0.871 1.83422359929e-38
-0.0646257131129 -0.0565474989738 0.873 1.81585748097e-38
-0.0630100702851 -0.0565474989738 0.873 1.9726264855e-38
-0.0615350790666 -0.0566770465087 0.875 1.88965041862e-38
-0.0599157348806 -0.0566770465087 0.875 1.98184604849e-38
-0.0582963906946 -0.0566770465087 0.875 1.89886998161e-38
-0.0566770465087 -0.0566770465087 0.875 1.9726264855e-38
-0.0550577023227 -0.0566770465087 0.875 1.91730910758e-38
-0.0534383581368 -0.0566770465087 0.875 1.93571264057e-38
-0.0519966791415 -0.056871367811 0.878 1.93574823355e-38
-0.0503717829183 -0.056871367811 0.878 1.97262620524e-38
-0.0487468866951 -0.056871367811 0.878 1.99106533121e-38
-0.047121990472 -0.056871367811 0.878 1.93574795329e-38
-0.0454970942488 -0.056871367811 0.878 1.94496751628e-38
-0.0438721980256 -0.056871367811 0.878 1.98184576823e-38
-0.0422473018025 -0.056871367811 0.878 2.00950445719e-38
-0.0406224055793 -0.056871367811 0.878 1.94496751628e-38
-0.0389975093561 -0.056871367811 0.878 1.97262620524e-38
-0.0373726131329 -0.056871367811 0.878 1.94496779654e-38
-0.0357477169098 -0.056871367811 0.878 1.94496779654e-38
-0.0342005492075 -0.0570009153459 0.88 1.99106561147e-38
-0.0325719516262 -0.0570009153459 0.88 1.96340692251e-38
-0.0309433540449 -0.0570009153459 0.88 1.96340664225e-38
-0.0293147564636 -0.0570009153459 0.88 2.00950431706e-38
-0.0276861588823 -0.0570009153459 0.88 1.96340650212e-38
-0.026057561301 -0.0570009153459 0.88 1.9726264855e-38
-0.0244844840917 -0.0571304628807 0.882 1.98184604849e-38
-0.0228521851523 -0.0571304628807 0.882 1.99106561147e-38
-0.0212920626966 -0.0573247841831 0.885 1.98184604849e-38
-0.0196542117199 -0.0573247841831 0.885 2.00028517446e-38
-0.0180163607432 -0.0573247841831 0.885 1.96340692251e-38
-0.0163785097666 -0.0573247841831 0.885 2.00950473744e-38
-0.0147406587899 -0.0573247841831 0.885 2.00028517446e-38
-0.0130583915156 -0.0571304628807 0.882 2.00028517446e-38
-0.0114260925761 -0.0571304628807 0.882 1.99106533121e-38
-0.0097937936367 -0.0571304628807 0.882 2.0648218351e-38
-0.00816149469725 -0.0571304628807 0.882 2.01872430043e-38
-0.0065291957578 -0.0571304628807 0.882 2.07404167835e-38
-0.00489689681835 -0.0571304628807 0.882 2.06478652238e-38
-0.0032645978789 -0.0571304628807 0.882 2.01868870745e-38
-0.00163229893945 -0.0571304628807 0.882 2.01868870745e-38
0.0 -0.0571304628807 0.882 2.03712783342e-38
0.00163229893945 -0.0571304628807 0.882 2.00950473744e-38
0.0032645978789 -0.0571304628807 0.882 1.98184576823e-38
0.00489689681835 -0.0571304628807 0.882 2.01872388004e-38
0.0065291957578 -0.0571304628807 0.882 1.99106519108e-38
0.00814298790655 -0.0570009153459 0.88 1.97262620524e-38
0.00977158548786 -0.0570009153459 0.88 1.9818104555e-38
0.0114001830692 -0.0570009153459 0.88 1.97259117278e-38
0.0130287806505 -0.0570009153459 0.88 1.9726264855e-38
0.0146573782318 -0.0570009153459 0.88 1.95418707927e-38
0.0162859758131 -0.0570009153459 0.88 1.95418693914e-38
0.0179145733944 -0.0570009153459 0.88 1.99110078406e-38
0.0195431709757 -0.0570009153459 0.88 1.97266165809e-38
0.0211236509012 -0.056871367811 0.878 2.02794344303e-38
0.0227485471244 -0.056871367811 0.878 2.00950445719e-38
0.0243734433476 -0.056871367811 0.878 1.9726264855e-38
0.0259983395707 -0.056871367811 0.878 1.91730910758e-38
0.0276232357939 -0.056871367811 0.878 2.00950473744e-38
0.0291481953473 -0.0566770465087 0.875 1.95418707927e-38
0.0307675395333 -0.0566770465087 0.875 1.96340650212e-38
0.0323128565565 -0.0565474989738 0.873 1.97266165809e-38
0.0339284993843 -0.0565474989738 0.873 1.94500268887e-38
0.0352998525749 -0.0561588563692 0.867 1.98188094082e-38
0.0369043913283 -0.0561588563692 0.867 1.98188066056e-38
0.0383756811887 -0.0559645350669 0.864 1.97255431863e-38
0.0399746679049 -0.0559645350669 0.864 2.01868870745e-38
0.0415736546211 -0.0559645350669 0.864 1.99103029875e-38
-0.0797642679028 -0.0542397021739 0.862 2.35098856151e-38
-0.0781689825448 -0.0542397021739 0.862 2.35098856151e-38
-0.0767513623774 -0.0543655483507 0.864 1.04155768308e-38
-0.07541332141 -0.0545543176158 0.867 2.33218902158e-38
-0.0738087826566 -0.0545543176158 0.867 1.87113940604e-38
-0.0722042439032 -0.0545543176158 0.867 1.84344540436e-38
-0.0705997051498 -0.0545543176158 0.867 1.89865516255e-38
-0.0691543247964 -0.0546801637925 0.869 1.95400785319e-38
-0.0675460846849 -0.0546801637925 0.869 1.95404316591e-38
-0.066089600257 -0.0548060099692 0.871 1.9724818715e-38
-0.0646257131129 -0.054931856146 0.873 1.93567606668e-38
-0.0631544232525 -0.0550577023227 0.875 1.96340692251e-38
-0.0615350790666 -0.0550577023227 0.875 1.93574823355e-38
-0.0599157348806 -0.0550577023227 0.875 1.94496779654e-38
-0.0582963906946 -0.0550577023227 0.875 1.91730910758e-38
-0.0566770465087 -0.0550577023227 0.875 2.00028517446e-38
-0.0550577023227 -0.0550577023227 0.875 1.95418735953e-38
-0.0536215753646 -0.0552464715878 0.878 1.94496779654e-38
-0.0519966791415 -0.0552464715878 0.878 1.95418735953e-38
-0.0503717829183 -0.0552464715878 0.878 1.96337132953e-38
-0.0487468866951 -0.0552464715878 0.878 1.9818104555e-38
-0.047121990472 -0.0552464715878 0.878 1.96337132953e-38
-0.0454970942488 -0.0552464715878 0.878 1.97259089252e-38
-0.0438721980256 -0.0552464715878 0.878 1.93571264057e-38
-0.0423435371141 -0.0553723177646 0.88 1.99103001849e-38
-0.0407149395328 -0.0553723177646 0.88 1.9172735146e-38
-0.0390863419515 -0.0553723177646 0.88 2.0555669594e-38
-0.0374577443701 -0.0553723177646 0.88 2.00024958148e-38
-0.0358291467888 -0.0553723177646 0.88 1.99106561147e-38
-0.0342005492075 -0.0553723177646 0.88 2.00950445719e-38
-0.0325719516262 -0.0553723177646 0.88 1.99106533121e-38
-0.0309433540449 -0.0553723177646 0.88 1.97262606511e-38
-0.0293147564636 -0.0553723177646 0.88 2.06482169497e-38
-0.0276861588823 -0.0553723177646 0.88 1.9818456281e-38
-0.026057561301 -0.0553723177646 0.88 2.00950445719e-38
-0.0244844840917 -0.0554981639413 0.882 2.01872402017e-38
-0.0228521851523 -0.0554981639413 0.882 2.01872402017e-38
-0.0212920626966 -0.0556869332064 0.885 1.99106533121e-38
-0.0196542117199 -0.0556869332064 0.885 1.97262620524e-38
-0.0180163607432 -0.0556869332064 0.885 2.0002848942e-38
-0.0163785097666 -0.0556869332064 0.885 1.98184576823e-38
-0.0147406587899 -0.0556869332064 0.885 1.95418707927e-38
-0.0131028078133 -0.0556869332064 0.885 1.99106519108e-38
-0.0114649568366 -0.0556869332064 0.885 1.99106519108e-38
-0.00982710585995 -0.0556869332064 0.885 2.01872388004e-38
-0.00818925488329 -0.0556869332064 0.885 1.9818456281e-38
-0.00655140390664 -0.0556869332064 0.885 2.03716314614e-38
-0.00491355292998 -0.0556869332064 0.885 2.03716314614e-38
-0.00327570195332 -0.0556869332064 0.885 2.00950473744e-38
-0.00163785097666 -0.0556869332064 0.885 2.07404167835e-38
0.0 -0.0554981639413 0.882 2.0648218351e-38
0.00163229893945 -0.0554981639413 0.882 2.09248038393e-38
0.0032645978789 -0.0554981639413 0.882 2.01875947302e-38
0.00489689681835 -0.0554981639413 0.882 2.02797875575e-38
0.0065291957578 -0.0554981639413 0.882 2.01875919276e-38
0.00816149469725 -0.0554981639413 0.882 1.9818456281e-38
0.00977158548786 -0.0553723177646 0.88 2.02794386342e-38
0.0114001830692 -0.0553723177646 0.88 2.03712783342e-38
0.0130287806505 -0.0553723177646 0.88 1.92652867057e-38
0.0146573782318 -0.0553723177646 0.88 2.0002848942e-38
0.0162859758131 -0.0553723177646 0.88 2.05560213199e-38
0.0179145733944 -0.0553723177646 0.88 2.02797903601e-38
0.0195431709757 -0.0553723177646 0.88 2.00953962978e-38
0.021171768557 -0.0553723177646 0.88 1.9818456281e-38
0.0227485471244 -0.0552464715878 0.878 1.99106533121e-38
0.0243734433476 -0.0552464715878 0.878 2.00028517446e-38
0.0259983395707 -0.0552464715878 0.878 1.96337132953e-38
0.0276232357939 -0.0552464715878 0.878 1.97259089252e-38
0.0292481320171 -0.0552464715878 0.878 1.9818104555e-38
0.0307675395333 -0.0550577023227 0.875 1.95418735953e-38
0.0323128565565 -0.054931856146 0.873 1.89886956122e-38
0.0338507708634 -0.0548060099692 0.871 1.8989051542e-38
0.035381282454 -0.0546801637925 0.869 1.97266165809e-38
0.0369043913283 -0.0545543176158 0.867 2.02797875575e-38
0.0383756811887 -0.0543655483507 0.864 1.9909934446e-38
0.0397895999979 -0.0541138559972 0.86 2.04631138304e-38
0.0413811839978 -0.0541138559972 0.86 1.82507844526e-38
-0.0797642679028 -0.0526444168159 0.862 2.35098856151e-38
-0.0781689825448 -0.0526444168159 0.862 2.06518210894e-38
-0.0767513623774 -0.0527665616345 0.864 1.32729308983e-38
-0.0751523756612 -0.0527665616345 0.864 2.26761718834e-38
-0.073553388945 -0.0527665616345 0.864 1.78812844683e-38
-0.0719544022288 -0.0527665616345 0.864 1.90794773319e-38
-0.0705997051498 -0.0529497788624 0.867 1.87096158126e-38
-0.0691543247964 -0.053071923681 0.869 1.92627867892e-38
-0.0675460846849 -0.053071923681 0.869 1.86177691061e-38
-0.0662413559407 -0.0533162133182 0.873 1.92627727762e-38
-0.0646257131129 -0.0533162133182 0.873 1.88035896903e-38
-0.0631544232525 -0.0534383581368 0.875 1.88965041862e-38
-0.0615350790666 -0.0534383581368 0.875 1.9172735146e-38
-0.0599157348806 -0.0534383581368 0.875 1.9818104555e-38
-0.0582963906946 -0.0534383581368 0.875 1.95415176655e-38
-0.056871367811 -0.0536215753646 0.878 1.94496779654e-38
-0.0552464715878 -0.0536215753646 0.878 1.95418707927e-38
-0.0536215753646 -0.0536215753646 0.878 1.93574795329e-38
-0.0519966791415 -0.0536215753646 0.878 1.9818104555e-38
-0.0504865250206 -0.0537437201832 0.88 1.97259117278e-38
-0.0488579274393 -0.0537437201832 0.88 1.99103029875e-38
-0.047229329858 -0.0537437201832 0.88 1.99103029875e-38
-0.0456007322767 -0.0537437201832 0.88 2.06478680264e-38
-0.0439721346954 -0.0537437201832 0.88 1.98181073576e-38
-0.0423435371141 -0.0537437201832 0.88 1.99103029875e-38
-0.0407149395328 -0.0537437201832 0.88 2.05556723966e-38
-0.0390863419515 -0.0537437201832 0.88 1.94493248382e-38
-0.0374577443701 -0.0537437201832 0.88 1.99103001849e-38
-0.0358291467888 -0.0537437201832 0.88 1.99106561147e-38
-0.0342005492075 -0.0537437201832 0.88 2.00950445719e-38
-0.0325719516262 -0.0537437201832 0.88 1.97262606511e-38
-0.0309433540449 -0.0537437201832 0.88 1.99106519108e-38
-0.0293147564636 -0.0537437201832 0.88 1.99106519108e-38
-0.0277490819706 -0.0538658650018 0.882 1.99106519108e-38
-0.0261167830312 -0.0538658650018 0.882 2.00950431706e-38
-0.0245677646499 -0.0540490822297 0.885 2.00028475407e-38
-0.0229299136732 -0.0540490822297 0.885 1.99106519108e-38
-0.0212920626966 -0.0540490822297 0.885 2.00028475407e-38
-0.0196986280176 -0.0541712270483 0.887 2.03716300601e-38
-0.0180570756828 -0.0541712270483 0.887 2.02794344303e-38
-0.016415523348 -0.0541712270483 0.887 2.06482169497e-38
-0.0147739710132 -0.0541712270483 0.887 2.09248038393e-38
-0.0131028078133 -0.0540490822297 0.885 2.04641816198e-38
-0.0114649568366 -0.0540490822297 0.885 2.08329641393e-38
-0.00982710585995 -0.0540490822297 0.885 2.1017355399e-38
-0.00818925488329 -0.0540490822297 0.885 2.1017355399e-38
-0.00655140390664 -0.0540490822297 0.885 2.07404125796e-38
-0.00491355292998 -0.0540490822297 0.885 2.03716300601e-38
-0.00327570195332 -0.0540490822297 0.885 2.04638270913e-38
-0.00163785097666 -0.0540490822297 0.885 2.03716314614e-38
0.0 -0.0540490822297 0.885 2.01875947302e-38
0.00163785097666 -0.0540490822297 0.885 2.00953962978e-38
0.0032645978789 -0.0538658650018 0.882 1.9911005038e-38
0.00489689681835 -0.0538658650018 0.882 2.06485672744e-38
0.0065291957578 -0.0538658650018 0.882 2.02797847549e-38
0.00816149469725 -0.0538658650018 0.882 2.05563772497e-38
0.0097937936367 -0.0538658650018 0.882 2.03716314614e-38
0.0114001830692 -0.0537437201832 0.88 2.01872430043e-38
0.0130287806505 -0.0537437201832 0.88 2.02790827044e-38
0.0146573782318 -0.0537437201832 0.88 2.03716314614e-38
0.0162859758131 -0.0537437201832 0.88 2.02794344303e-38
0.0179145733944 -0.0537437201832 0.88 2.01875919276e-38
0.0195431709757 -0.0537437201832 0.88 2.03719831874e-38
0.021171768557 -0.0537437201832 0.88 2.00953991004e-38
0.0227485471244 -0.0536215753646 0.878 1.97262620524e-38
0.0243734433476 -0.0536215753646 0.878 2.00950473744e-38
0.0259983395707 -0.0536215753646 0.878 2.00946942472e-38
0.0276232357939 -0.0536215753646 0.878 2.00946970498e-38
0.0292481320171 -0.0536215753646 0.878 1.97259117278e-38
0.0307675395333 -0.0534383581368 0.875 1.95415176655e-38
0.0323128565565 -0.0533162133182 0.873 1.93574795329e-38
0.0338507708634 -0.0531940684996 0.871 2.00028475407e-38
0.035381282454 -0.053071923681 0.869 1.98188122108e-38
0.0369043913283 -0.0529497788624 0.867 2.06485728795e-38
0.0383756811887 -0.0527665616345 0.864 2.0279071494e-38
0.0397895999979 -0.0525222719973 0.86 2.07400524459e-38
0.0413811839978 -0.0525222719973 0.86 2.00950473744e-38
-0.0795791999959 -0.0509306879973 0.86 2.35088094179e-38
-0.0779876159959 -0.0509306879973 0.86 1.2442454166e-38
-0.0767513623774 -0.0511675749183 0.864 2.23073921666e-38
-0.0751523756612 -0.0511675749183 0.864 1.99106673251e-38
-0.073553388945 -0.0511675749183 0.864 1.8619928507e-38
-0.0719544022288 -0.0511675749183 0.864 1.87114052708e-38
-0.0705997051498 -0.051345240109 0.867 1.85273685396e-38
-0.0691543247964 -0.0514636835694 0.869 1.92649307759e-38
-0.0675460846849 -0.0514636835694 0.869 1.88043085564e-38
-0.0662413559407 -0.0517005704903 0.873 1.95418707927e-38
-0.0646257131129 -0.0517005704903 0.873 1.90805311084e-38
-0.0631544232525 -0.0518190139508 0.875 1.94489562967e-38
-0.0615350790666 -0.0518190139508 0.875 1.92645706422e-38
-0.0599157348806 -0.0518190139508 0.875 1.95408016019e-38
-0.0584962640342 -0.0519966791415 0.878 1.93564103422e-38
-0.056871367811 -0.0519966791415 0.878 1.98177444213e-38
-0.0552464715878 -0.0519966791415 0.878 1.9909934446e-38
-0.0536215753646 -0.0519966791415 0.878 1.92649223681e-38
-0.0521151226019 -0.0521151226019 0.88 1.95418693914e-38
-0.0504865250206 -0.0521151226019 0.88 2.00950431706e-38
-0.0488579274393 -0.0521151226019 0.88 1.95418693914e-38
-0.047229329858 -0.0521151226019 0.88 1.98184576823e-38
-0.0456007322767 -0.0521151226019 0.88 1.9726264855e-38
-0.0439721346954 -0.0521151226019 0.88 2.0371634264e-38
-0.0423435371141 -0.0521151226019 0.88 1.99103001849e-38
-0.0407149395328 -0.0521151226019 0.88 1.94493220356e-38
-0.0390863419515 -0.0521151226019 0.88 1.9634434964e-38
-0.0374577443701 -0.0521151226019 0.88 2.01872528134e-38
-0.0358291467888 -0.0521151226019 0.88 2.03720000029e-38
-0.0342005492075 -0.0521151226019 0.88 2.04641928302e-38
-0.032645978789 -0.0522335660624 0.882 2.03719943977e-38
-0.0310136798495 -0.0522335660624 0.882 1.97266249887e-38
-0.0293813809101 -0.0522335660624 0.882 2.04645459574e-38
-0.0277490819706 -0.0522335660624 0.882 1.96347852886e-38
-0.0262056156265 -0.0524112312531 0.885 2.06485812873e-38
-0.0245677646499 -0.0524112312531 0.885 2.00032146809e-38
-0.0229299136732 -0.0524112312531 0.885 2.07407769172e-38
-0.0213401803524 -0.0525296747135 0.887 1.99110162484e-38
-0.0196986280176 -0.0525296747135 0.887 2.00954075082e-38
-0.0180570756828 -0.0525296747135 0.887 2.01879590678e-38
-0.016415523348 -0.0525296747135 0.887 2.05567415873e-38
-0.0147739710132 -0.0525296747135 0.887 2.01879576665e-38
-0.0131324186784 -0.0525296747135 0.887 2.03723503276e-38
-0.0114908663436 -0.0525296747135 0.887 1.97266249887e-38
-0.00984931400879 -0.0525296747135 0.887 1.99110162484e-38
-0.00820776167399 -0.0525296747135 0.887 2.02801546977e-38
-0.00656620933919 -0.0525296747135 0.887 2.05567415873e-38
-0.00491355292998 -0.0524112312531 0.885 2.01879590678e-38
-0.00327570195332 -0.0524112312531 0.885 2.06489372171e-38
-0.00163785097666 -0.0524112312531 0.885 2.05567415873e-38
0.0 -0.0524112312531 0.885 2.04645459574e-38
0.00163785097666 -0.0524112312531 0.885 1.98191751471e-38
0.00327570195332 -0.0524112312531 0.885 2.03723489263e-38
0.00491355292998 -0.0524112312531 0.885 2.04645445561e-38
0.00655140390664 -0.0524112312531 0.885 1.98195310769e-38
0.00816149469725 -0.0522335660624 0.882 2.0556740186e-38
0.0097937936367 -0.0522335660624 0.882 1.99113707769e-38
0.0114260925761 -0.0522335660624 0.882 2.00957620367e-38
0.0130583915156 -0.0522335660624 0.882 2.05563744471e-38
0.0146573782318 -0.0521151226019 0.88 2.04641788172e-38
0.0162859758131 -0.0521151226019 0.88 2.01875919276e-38
0.0179145733944 -0.0521151226019 0.88 2.00953991004e-38
0.0195431709757 -0.0521151226019 0.88 2.02797903601e-38
0.021171768557 -0.0521151226019 0.88 1.9911005038e-38
0.0228003661383 -0.0521151226019 0.88 1.9911005038e-38
0.0244289637197 -0.0521151226019 0.88 2.01875919276e-38
0.0259983395707 -0.0519966791415 0.878 2.04631110278e-38
0.0276232357939 -0.0519966791415 0.878 2.03712811368e-38
0.0292481320171 -0.0519966791415 0.878 1.99103001849e-38
0.0307675395333 -0.0518190139508 0.875 1.92649307759e-38
0.0323868837192 -0.0518190139508 0.875 1.97266277913e-38
0.0339284993843 -0.0517005704903 0.873 2.0187603138e-38
0.035381282454 -0.0514636835694 0.869 2.00954075082e-38
0.0369043913283 -0.051345240109 0.867 2.04641900276e-38
0.0383756811887 -0.0511675749183 0.864 2.00953991004e-38
0.0398821339514 -0.0510491314578 0.862 1.92656384316e-38
0.0414774193095 -0.0510491314578 0.862 2.05560227212e-38
-0.0811707839958 -0.0493391039974 0.86 2.35088094179e-38
-0.0795791999959 -0.0493391039974 0.86 2.2952758773e-38
-0.0779876159959 -0.0493391039974 0.86 4.41999803695e-39
-0.0765736971867 -0.0494538460997 0.862 2.35077332207e-38
-0.0751523756612 -0.0495685882021 0.864 1.88043183655e-38
-0.0738087826566 -0.0497407013555 0.867 1.83433402161e-38
-0.0722042439032 -0.0497407013555 0.867 1.88968699251e-38
-0.0705997051498 -0.0497407013555 0.867 1.85280846031e-38
-0.0691543247964 -0.0498554434579 0.869 2.01879590678e-38
-0.0675460846849 -0.0498554434579 0.869 1.89894158796e-38
-0.0662413559407 -0.0500849276625 0.873 1.90816101082e-38
-0.0647737674385 -0.0501996697648 0.875 1.87117485889e-38
-0.0631544232525 -0.0501996697648 0.875 1.96333475564e-38
-0.0615350790666 -0.0501996697648 0.875 1.99099400512e-38
-0.0601211602573 -0.0503717829183 0.878 1.99095841214e-38
-0.0584962640342 -0.0503717829183 0.878 2.05549535304e-38
-0.056871367811 -0.0503717829183 0.878 1.95411575318e-38
-0.0552464715878 -0.0503717829183 0.878 2.06475022875e-38
-0.0537437201832 -0.0504865250206 0.88 1.98177388162e-38
-0.0521151226019 -0.0504865250206 0.88 1.97262606511e-38
-0.0504865250206 -0.0504865250206 0.88 2.00950431706e-38
-0.0488579274393 -0.0504865250206 0.88 1.9818456281e-38
-0.047229329858 -0.0504865250206 0.88 2.01872402017e-38
-0.0456007322767 -0.0504865250206 0.88 2.0371634264e-38
-0.0439721346954 -0.0504865250206 0.88 1.95418735953e-38
-0.0423435371141 -0.0504865250206 0.88 1.95415176655e-38
-0.0407149395328 -0.0504865250206 0.88 2.00946914446e-38
-0.0390863419515 -0.0504865250206 0.88 2.05563912627e-38
-0.0375428756073 -0.0506012671229 0.882 1.99110218536e-38
-0.0359105766679 -0.0506012671229 0.882 2.01876087432e-38
-0.0342782777284 -0.0506012671229 0.882 2.00032146809e-38
-0.032645978789 -0.0506012671229 0.882 1.93578452718e-38
-0.0310136798495 -0.0506012671229 0.882 2.04641900276e-38
-0.0294813175799 -0.0507733802764 0.885 1.99110162484e-38
-0.0278434666032 -0.0507733802764 0.885 2.0187603138e-38
-0.0262056156265 -0.0507733802764 0.885 2.03719972003e-38
-0.0245677646499 -0.0507733802764 0.885 1.99110218536e-38
-0.0229299136732 -0.0507733802764 0.885 2.06485840899e-38
-0.0213401803524 -0.0508881223787 0.887 2.0187603138e-38
-0.0196986280176 -0.0508881223787 0.887 2.08329725471e-38
-0.0180570756828 -0.0508881223787 0.887 2.04645459574e-38
-0.016415523348 -0.0508881223787 0.887 2.0095763438e-38
-0.0147739710132 -0.0508881223787 0.887 2.03723489263e-38
-0.0131324186784 -0.0508881223787 0.887 2.05563856575e-38
-0.0114908663436 -0.0508881223787 0.887 2.07407797198e-38
-0.00984931400879 -0.0508881223787 0.887 2.02798015705e-38
-0.00820776167399 -0.0508881223787 0.887 2.03719943977e-38
-0.00656620933919 -0.0508881223787 0.887 2.06485812873e-38
-0.00492465700439 -0.0508881223787 0.887 2.13865022561e-38
-0.0032831046696 -0.0508881223787 0.887 2.04645459574e-38
-0.00163785097666 -0.0507733802764 0.885 2.01879590678e-38
0.0 -0.0507733802764 0.885 2.04641900276e-38
0.00163785097666 -0.0507733802764 0.885 2.09255241067e-38
0.00327570195332 -0.0507733802764 0.885 2.06489372171e-38
0.00491355292998 -0.0507733802764 0.885 2.0741132847e-38
0.00655140390664 -0.0507733802764 0.885 2.13865008548e-38
0.00818925488329 -0.0507733802764 0.885 2.08333270756e-38
0.0097937936367 -0.0506012671229 0.882 2.01883135963e-38
0.0114260925761 -0.0506012671229 0.882 2.01883135963e-38
0.0130583915156 -0.0506012671229 0.882 2.10173497938e-38
0.014690690455 -0.0506012671229 0.882 2.00032006679e-38
0.0162859758131 -0.0504865250206 0.88 2.02797903601e-38
0.0179145733944 -0.0504865250206 0.88 2.03716300601e-38
0.0195431709757 -0.0504865250206 0.88 2.00950431706e-38
0.021171768557 -0.0504865250206 0.88 2.00032034705e-38
0.0228003661383 -0.0504865250206 0.88 2.02797875575e-38
0.0244289637197 -0.0504865250206 0.88 2.03719803848e-38
0.026057561301 -0.0504865250206 0.88 2.03709125953e-38
0.0276232357939 -0.0503717829183 0.878 1.95418735953e-38
0.0292481320171 -0.0503717829183 0.878 1.99106561147e-38
0.0308730282403 -0.0503717829183 0.878 1.96340692251e-38
0.0323868837192 -0.0501996697648 0.875 1.99110162484e-38
0.0338507708634 -0.0499701855602 0.871 2.00954075082e-38
0.035381282454 -0.0498554434579 0.869 1.99120952482e-38
0.0369895225655 -0.0498554434579 0.869 2.02808777677e-38
0.0385089300817 -0.0497407013555 0.867 2.03719831874e-38
0.0398821339514 -0.0494538460997 0.862 2.01875947302e-38
0.0414774193095 -0.0494538460997 0.862 2.0741132847e-38
-0.0809820147307 -0.0476364792533 0.858 2.35088094179e-38
-0.0793941320889 -0.0476364792533 0.858 2.34137397249e-38
-0.0778062494471 -0.0476364792533 0.858 4.60403476816e-39
-0.076396031996 -0.0477475199975 0.86 2.35070157559e-38
-0.0751523756612 -0.0479696014859 0.864 1.7790166437e-38
-0.0738087826566 -0.0481361626021 0.867 1.87124786654e-38
-0.0722042439032 -0.0481361626021 0.867 1.90812611849e-38
-0.0705997051498 -0.0481361626021 0.867 1.88046714927e-38
-0.0691543247964 -0.0482472033463 0.869 1.92656468394e-38
-0.0677015417267 -0.0483582440905 0.871 1.91738071393e-38
-0.0662413559407 -0.0484692848347 0.873 1.97269809185e-38
-0.0647737674385 -0.0485803255789 0.875 1.94489590993e-38
-0.0631544232525 -0.0485803255789 0.875 1.96333531616e-38
-0.0617460564805 -0.0487468866951 0.878 1.94486059721e-38
-0.0601211602573 -0.0487468866951 0.878 1.98173912941e-38
-0.0584962640342 -0.0487468866951 0.878 2.00939781837e-38
-0.0570009153459 -0.0488579274393 0.88 1.96329972318e-38
-0.0553723177646 -0.0488579274393 0.88 2.00021356811e-38
-0.0538658650018 -0.0489689681835 0.882 1.97255459889e-38
-0.0522335660624 -0.0489689681835 0.882 2.00950473744e-38
-0.0506012671229 -0.0489689681835 0.882 2.00950473744e-38
-0.0489689681835 -0.0489689681835 0.882 2.00028517446e-38
-0.047336669244 -0.0489689681835 0.882 2.04638298939e-38
-0.0457043703046 -0.0489689681835 0.882 2.09244521134e-38
-0.0440720713651 -0.0489689681835 0.882 1.99103001849e-38
-0.0424397724257 -0.0489689681835 0.882 2.03712811368e-38
-0.0408074734862 -0.0489689681835 0.882 2.0279085507e-38
-0.0391751745468 -0.0489689681835 0.882 1.9911019051e-38
-0.0375428756073 -0.0489689681835 0.882 2.03719972003e-38
-0.0359105766679 -0.0489689681835 0.882 2.00954103108e-38
-0.0342782777284 -0.0489689681835 0.882 2.05563884601e-38
-0.032645978789 -0.0489689681835 0.882 2.02798015705e-38
-0.0310136798495 -0.0489689681835 0.882 2.07407797198e-38
-0.0294813175799 -0.0491355292998 0.885 2.03720000029e-38
-0.0278434666032 -0.0491355292998 0.885 2.07407825224e-38
-0.0262056156265 -0.0491355292998 0.885 2.06485840899e-38
-0.0245677646499 -0.0491355292998 0.885 2.02798015705e-38
-0.0229299136732 -0.0491355292998 0.885 2.04641928302e-38
-0.0213401803524 -0.0492465700439 0.887 2.02797987679e-38
-0.0196986280176 -0.0492465700439 0.887 2.0187603138e-38
-0.0180570756828 -0.0492465700439 0.887 2.09251681769e-38
-0.016415523348 -0.0492465700439 0.887 2.04645459574e-38
-0.0147739710132 -0.0492465700439 0.887 2.0741132847e-38
-0.0131324186784 -0.0492465700439 0.887 2.0187603138e-38
-0.0114908663436 -0.0492465700439 0.887 2.1293953499e-38
-0.00984931400879 -0.0492465700439 0.887 2.06485840899e-38
-0.00820776167399 -0.0492465700439 0.887 2.10173638068e-38
-0.00656620933919 -0.0492465700439 0.887 2.06485812873e-38
-0.00492465700439 -0.0492465700439 0.887 2.09255241067e-38
-0.0032831046696 -0.0492465700439 0.887 2.11099153665e-38
-0.0016415523348 -0.0492465700439 0.887 2.12021109963e-38
0.0 -0.0492465700439 0.887 2.08329725471e-38
0.0016415523348 -0.0492465700439 0.887 2.05567415873e-38
0.00327570195332 -0.0491355292998 0.885 2.09255241067e-38
0.00491355292998 -0.0491355292998 0.885 2.05567415873e-38
0.00656620933919 -0.0492465700439 0.887 2.02801532964e-38
0.00818925488329 -0.0491355292998 0.885 2.01879576665e-38
0.00982710585995 -0.0491355292998 0.885 2.06492917457e-38
0.0114649568366 -0.0491355292998 0.885 2.01883135963e-38
0.0131028078133 -0.0491355292998 0.885 2.01875947302e-38
0.014690690455 -0.0489689681835 0.882 2.07407685094e-38
0.0163229893945 -0.0489689681835 0.882 2.046382569e-38
0.0179552883339 -0.0489689681835 0.882 2.02794358316e-38
0.0195875872734 -0.0489689681835 0.882 2.02794386342e-38
0.021171768557 -0.0488579274393 0.88 2.02794358316e-38
0.0228003661383 -0.0488579274393 0.88 2.05560213199e-38
0.0244289637197 -0.0488579274393 0.88 2.05563772497e-38
0.026057561301 -0.0488579274393 0.88 2.02787169655e-38
0.0276861588823 -0.0488579274393 0.88 1.98184576823e-38
0.0292481320171 -0.0487468866951 0.878 2.03716314614e-38
0.0308730282403 -0.0487468866951 0.878 1.94496751628e-38
0.0323868837192 -0.0485803255789 0.875 2.02801546977e-38
0.0338507708634 -0.0483582440905 0.871 2.02801546977e-38
0.035381282454 -0.0482472033463 0.869 2.02812336975e-38
0.0369043913283 -0.0481361626021 0.867 2.03734293274e-38
0.0385089300817 -0.0481361626021 0.867 2.05563772497e-38
0.0398821339514 -0.0478585607417 0.862 2.07407685094e-38
0.0413811839978 -0.0477475199975 0.86 2.0741132847e-38
0.0429727679978 -0.0477475199975 0.86 1.9911019051e-38
-0.0817037795678 -0.0455655693744 0.849 2.33247782919e-38
-0.0801325530377 -0.0455655693744 0.849 2.35084506855e-38
-0.0787463944145 -0.0456729087604 0.851 1.90801905928e-38
-0.0778062494471 -0.0460485966116 0.858 1.55753175245e-38
-0.0762183668053 -0.0460485966116 0.858 2.23995877964e-38
-0.0751523756612 -0.0463706147697 0.864 1.79749136265e-38
-0.0738087826566 -0.0465316238487 0.867 1.85280874057e-38
-0.0722042439032 -0.0465316238487 0.867 1.85280846031e-38
-0.0707625649079 -0.0466389632348 0.869 1.96344321614e-38
-0.0691543247964 -0.0466389632348 0.869 1.99110162484e-38
-0.0677015417267 -0.0467463026208 0.871 1.94500380991e-38
-0.0662413559407 -0.0468536420069 0.873 1.95425896588e-38
-0.0647737674385 -0.0469609813929 0.875 1.98177444213e-38
-0.0633709527037 -0.047121990472 0.878 1.99095841214e-38
-0.0617460564805 -0.047121990472 0.878 1.95408016019e-38
-0.0601211602573 -0.047121990472 0.878 1.97251928617e-38
-0.0586295129272 -0.047229329858 0.88 1.99095841214e-38
-0.0570009153459 -0.047229329858 0.88 1.99095841214e-38
-0.0553723177646 -0.047229329858 0.88 1.99095841214e-38
-0.0538658650018 -0.047336669244 0.882 2.00939753811e-38
-0.0522335660624 -0.047336669244 0.882 2.03712783342e-38
-0.0506012671229 -0.047336669244 0.882 2.00024958148e-38
-0.0489689681835 -0.047336669244 0.882 1.99103001849e-38
-0.047336669244 -0.047336669244 0.882 2.03712811368e-38
-0.0457043703046 -0.047336669244 0.882 2.0279085507e-38
-0.0440720713651 -0.047336669244 0.882 2.00946942472e-38
-0.0424397724257 -0.047336669244 0.882 2.05556723966e-38
-0.0408074734862 -0.047336669244 0.882 2.01868898771e-38
-0.0391751745468 -0.047336669244 0.882 1.97266249887e-38
-0.0375428756073 -0.047336669244 0.882 2.04645459574e-38
-0.0360327214865 -0.0474976783231 0.885 2.00954075082e-38
-0.0343948705098 -0.0474976783231 0.885 2.02798015705e-38
-0.0327570195332 -0.0474976783231 0.885 2.01876059406e-38
-0.0311191685565 -0.0474976783231 0.885 2.02798043731e-38
-0.0294813175799 -0.0474976783231 0.885 2.06482309627e-38
-0.0278434666032 -0.0474976783231 0.885 2.07404265926e-38
-0.0262056156265 -0.0474976783231 0.885 2.09251709795e-38
-0.0245677646499 -0.0474976783231 0.885 2.05563856575e-38
-0.0229299136732 -0.0474976783231 0.885 2.06485812873e-38
-0.0213401803524 -0.0476050177091 0.887 2.07407769172e-38
-0.0196986280176 -0.0476050177091 0.887 1.99110162484e-38
-0.0180570756828 -0.0476050177091 0.887 2.12017550665e-38
-0.016415523348 -0.0476050177091 0.887 2.04641900276e-38
-0.0147739710132 -0.0476050177091 0.887 2.06485812873e-38
-0.0131324186784 -0.0476050177091 0.887 2.05563884601e-38
-0.0114908663436 -0.0476050177091 0.887 2.10173666094e-38
-0.00984931400879 -0.0476050177091 0.887 2.03719972003e-38
-0.00820776167399 -0.0476050177091 0.887 2.08329725471e-38
-0.00656620933919 -0.0476050177091 0.887 2.08329725471e-38
-0.00492465700439 -0.0476050177091 0.887 2.03723503276e-38
-0.0032831046696 -0.0476050177091 0.887 2.09255241067e-38
-0.0016415523348 -0.0476050177091 0.887 2.08333284769e-38
0.0 -0.0476050177091 0.887 2.13861463262e-38
0.0016415523348 -0.0476050177091 0.887 2.09255241067e-38
0.0032831046696 -0.0476050177091 0.887 2.09255241067e-38
0.00492465700439 -0.0476050177091 0.887 2.08333284769e-38
0.00656620933919 -0.0476050177091 0.887 2.11099139652e-38
0.00820776167399 -0.0476050177091 0.887 2.1202109595e-38
0.00982710585995 -0.0474976783231 0.885 2.12024655248e-38
0.0114649568366 -0.0474976783231 0.885 2.05570961158e-38
0.0131028078133 -0.0474976783231 0.885 2.07404125796e-38
0.0147406587899 -0.0474976783231 0.885 2.10170008705e-38
0.0163785097666 -0.0474976783231 0.885 2.06482211536e-38
0.0180163607432 -0.0474976783231 0.885 2.07400608537e-38
0.0195875872734 -0.047336669244 0.882 2.11088433731e-38
0.0212198862128 -0.047336669244 0.882 2.06482211536e-38
0.0228521851523 -0.047336669244 0.882 2.05560227212e-38
0.0244289637197 -0.047229329858 0.88 2.046382569e-38
0.026057561301 -0.047229329858 0.88 2.03712699264e-38
0.0276861588823 -0.047229329858 0.88 2.06482169497e-38
0.0292481320171 -0.047121990472 0.878 2.01872388004e-38
0.0308730282403 -0.047121990472 0.878 1.99106519108e-38
0.0323868837192 -0.0469609813929 0.875 2.06489358158e-38
0.0338507708634 -0.0467463026208 0.871 2.07411314457e-38
0.0352998525749 -0.0465316238487 0.867 2.1110992965e-38
0.0369043913283 -0.0465316238487 0.867 2.06500148157e-38
0.0383756811887 -0.0463706147697 0.864 2.04641816198e-38
0.0398821339514 -0.0462632753836 0.862 2.09248038393e-38
0.0413811839978 -0.0461559359976 0.86 2.0095763438e-38
0.0429727679978 -0.0461559359976 0.86 2.00032146809e-38
-0.0815113089446 -0.0438907048163 0.847 2.35095268827e-38
-0.0799437837726 -0.0438907048163 0.847 2.35088094179e-38
-0.0785613265075 -0.0439943428442 0.849 1.1520148944e-38
-0.0771714665262 -0.0440979808721 0.851 2.35052220939e-38
-0.075863036424 -0.044253437914 0.854 1.99103057901e-38
-0.0751523756612 -0.0447716280535 0.864 1.77905223668e-38
-0.0738087826566 -0.0449270850953 0.867 1.87124758628e-38
-0.0722042439032 -0.0449270850953 0.867 1.95422365316e-38
-0.0707625649079 -0.0450307231232 0.869 1.9265649642e-38
-0.0691543247964 -0.0450307231232 0.869 1.96344321614e-38
-0.0677015417267 -0.0451343611511 0.871 1.96344293588e-38
-0.0662413559407 -0.045237999179 0.873 1.97266249887e-38
-0.0647737674385 -0.0453416372069 0.875 1.92649307759e-38
-0.0633709527037 -0.0454970942488 0.878 2.0279085507e-38
-0.0617460564805 -0.0454970942488 0.878 1.96337132953e-38
-0.0602581105085 -0.0456007322767 0.88 2.02790827044e-38
-0.0586295129272 -0.0456007322767 0.88 2.01868870745e-38
-0.0570009153459 -0.0456007322767 0.88 1.99103001849e-38
-0.0554981639413 -0.0457043703046 0.882 2.0279085507e-38
-0.0538658650018 -0.0457043703046 0.882 2.00946942472e-38
-0.0524112312531 -0.0458598273464 0.885 2.04634767667e-38
-0.0507733802764 -0.0458598273464 0.885 2.03712811368e-38
-0.0491355292998 -0.0458598273464 0.885 2.03712811368e-38
-0.0474976783231 -0.0458598273464 0.885 2.01868898771e-38
-0.0458598273464 -0.0458598273464 0.885 1.99103029875e-38
-0.0442219763698 -0.0458598273464 0.885 2.11088461757e-38
-0.0425841253931 -0.0458598273464 0.885 1.99103001849e-38
-0.0409462744165 -0.0458598273464 0.885 2.04634739641e-38
-0.0393084234398 -0.0458598273464 0.885 2.06485812873e-38
-0.0376705724632 -0.0458598273464 0.885 2.01879590678e-38
-0.0360327214865 -0.0458598273464 0.885 2.05563856575e-38
-0.0343948705098 -0.0458598273464 0.885 2.06485840899e-38
-0.0327570195332 -0.0458598273464 0.885 2.00032146809e-38
-0.0311191685565 -0.0458598273464 0.885 2.06485868925e-38
-0.0294813175799 -0.0458598273464 0.885 1.97262746641e-38
-0.0278434666032 -0.0458598273464 0.885 2.06482309627e-38
-0.0262648373568 -0.0459634653743 0.887 2.01876059406e-38
-0.024623285022 -0.0459634653743 0.887 2.11095594367e-38
-0.0229817326872 -0.0459634653743 0.887 2.07407769172e-38
-0.0213882980082 -0.0460671034023 0.889 2.12017550665e-38
-0.0197430443153 -0.0460671034023 0.889 1.99110162484e-38
-0.0180570756828 -0.0459634653743 0.887 2.11095594367e-38
-0.016415523348 -0.0459634653743 0.887 2.06485812873e-38
-0.0147739710132 -0.0459634653743 0.887 2.04641928302e-38
-0.0131324186784 -0.0459634653743 0.887 2.08329753497e-38
-0.0114908663436 -0.0459634653743 0.887 2.05563884601e-38
-0.00984931400879 -0.0459634653743 0.887 2.12017578691e-38
-0.00820776167399 -0.0459634653743 0.887 2.12017550665e-38
-0.00656620933919 -0.0459634653743 0.887 2.04641900276e-38
-0.00492465700439 -0.0459634653743 0.887 2.08333284769e-38
-0.0032831046696 -0.0459634653743 0.887 2.12021109963e-38
-0.0016415523348 -0.0459634653743 0.887 2.11099153665e-38
0.0 -0.0459634653743 0.887 2.1570537586e-38
0.0016415523348 -0.0459634653743 0.887 2.17552847755e-38
0.0032831046696 -0.0459634653743 0.887 2.10177197366e-38
0.00492465700439 -0.0459634653743 0.887 2.13865022561e-38
0.00656620933919 -0.0459634653743 0.887 2.10177183353e-38
0.00820776167399 -0.0459634653743 0.887 2.11099139652e-38
0.00984931400879 -0.0459634653743 0.887 2.05570961158e-38
0.0114649568366 -0.0458598273464 0.885 2.04649004859e-38
0.0131028078133 -0.0458598273464 0.885 2.07404125796e-38
0.0147406587899 -0.0458598273464 0.885 2.06482211536e-38
0.0163785097666 -0.0458598273464 0.885 2.09244521134e-38
0.0180163607432 -0.0458598273464 0.885 2.06478680264e-38
0.0196542117199 -0.0458598273464 0.885 2.04634767667e-38
0.0212198862128 -0.0457043703046 0.882 1.99103001849e-38
0.0228521851523 -0.0457043703046 0.882 2.08326124134e-38
0.0244844840917 -0.0457043703046 0.882 2.05560227212e-38
0.026057561301 -0.0456007322767 0.88 1.98180961473e-38
0.0276861588823 -0.0456007322767 0.88 2.046382569e-38
0.0293147564636 -0.0456007322767 0.88 1.96340650212e-38
0.0308730282403 -0.0454970942488 0.878 2.07404125796e-38
0.0323868837192 -0.0453416372069 0.875 2.0556740186e-38
0.0338507708634 -0.0451343611511 0.871 2.03723489263e-38
0.0352998525749 -0.0449270850953 0.867 2.1110992965e-38
0.0367766944725 -0.0447716280535 0.864 2.05578191858e-38
0.0383756811887 -0.0447716280535 0.864 2.14779776185e-38
0.0397895999979 -0.0445643519977 0.86 2.08326082095e-38
0.0412849486862 -0.0444607139698 0.858 2.12021109963e-38
0.042872831328 -0.0444607139698 0.858 2.0187603138e-38
-0.0830788341166 -0.0423231796443 0.847 2.3418050119e-38
-0.0815113089446 -0.0423231796443 0.847 2.35091681503e-38
-0.0799437837726 -0.0423231796443 0.847 2.28620050793e-38
-0.0785613265075 -0.0424231163141 0.849 2.39277878497e-39
-0.0769900999774 -0.0424231163141 0.849 2.30431607408e-38
-0.0755965386379 -0.0425230529838 0.851 1.89883466889e-38
-0.0742825564985 -0.0426729579885 0.854 1.85280846031e-38
-0.0738087826566 -0.0433225463419 0.867 1.9265649642e-38
-0.0722042439032 -0.0433225463419 0.867 1.95422365316e-38
-0.0707625649079 -0.0434224830117 0.869 1.94500409017e-38
-0.0693134831964 -0.0435224196815 0.871 1.97266277913e-38
-0.0677015417267 -0.0435224196815 0.871 1.97266277913e-38
-0.0663931116244 -0.043722293021 0.875 1.98188234212e-38
-0.0649958489268 -0.0438721980256 0.878 2.00024958148e-38
-0.0633709527037 -0.0438721980256 0.878 2.00024958148e-38
-0.0618867080898 -0.0439721346954 0.88 2.00946914446e-38
-0.0602581105085 -0.0439721346954 0.88 2.00950473744e-38
-0.0586295129272 -0.0439721346954 0.88 2.0371634264e-38
-0.0571304628807 -0.0440720713651 0.882 2.02794386342e-38
-0.0554981639413 -0.0440720713651 0.882 2.04634739641e-38
