# .PCD v0.7 - Point Cloud Data file format
VERSION 0.7
FIELDS x y z rgb
SIZE 4 4 4 4
TYPE F F F F
COUNT 1 1 1 1
WIDTH 836
HEIGHT 1
VIEWPOINT 0 0 0 1 0 0 0
POINTS 836
DATA ascii
0.0352998525749 -0.0561588563692 0.867 1.94507485574e-38
0.0367766944725 -0.0559645350669 0.864 1.94507485574e-38
0.0383756811887 -0.0559645350669 0.864 1.96333475564e-38
0.0398821339514 -0.055834987532 0.862 1.95404316591e-38
0.0414774193095 -0.055834987532 0.862 1.94489562967e-38
-0.0728723390474 -0.0538621636437 0.856 2.35091681503e-38
-0.0712881577637 -0.0538621636437 0.856 7.92558716879e-39
-0.0700296959964 -0.0541138559972 0.86 2.35084506855e-38
-0.0685972703964 -0.0542397021739 0.862 1.82504159111e-38
-0.0671574420802 -0.0543655483507 0.864 1.88043085564e-38
-0.0659378445733 -0.0546801637925 0.869 1.85284377303e-38
-0.0643296044618 -0.0546801637925 0.869 1.8619914494e-38
-0.0628657173177 -0.0548060099692 0.871 1.88043085564e-38
-0.0613944274573 -0.054931856146 0.873 1.89883438863e-38
-0.0599157348806 -0.0550577023227 0.875 1.88039526266e-38
-0.0584962640342 -0.0552464715878 0.878 1.84351701071e-38
-0.0570009153459 -0.0553723177646 0.88 1.97262620524e-38
-0.0553723177646 -0.0553723177646 0.88 1.97262606511e-38
-0.0538658650018 -0.0554981639413 0.882 1.88968559121e-38
-0.0524112312531 -0.0556869332064 0.885 1.9633350359e-38
-0.0507733802764 -0.0556869332064 0.885 2.02787225707e-38
-0.0492465700439 -0.0558127793831 0.887 1.94489590993e-38
-0.0476050177091 -0.0558127793831 0.887 1.9633350359e-38
-0.0459634653743 -0.0558127793831 0.887 2.03709125953e-38
-0.0443219130396 -0.0558127793831 0.887 1.97259005174e-38
-0.0427765960164 -0.0559386255599 0.889 1.98180961473e-38
-0.0411313423234 -0.0559386255599 0.889 2.00946830368e-38
-0.0394860886305 -0.0559386255599 0.889 2.01872430043e-38
-0.0378408349376 -0.0559386255599 0.889 2.01868870745e-38
-0.0361955812446 -0.0559386255599 0.889 2.00028517446e-38
-0.0344725990308 -0.0558127793831 0.887 1.96340692251e-38
-0.032831046696 -0.0558127793831 0.887 2.04638270913e-38
-0.0311894943612 -0.0558127793831 0.887 2.00950431706e-38
-0.0295479420264 -0.0558127793831 0.887 2.06482169497e-38
-0.0279063896916 -0.0558127793831 0.887 2.00028475407e-38
-0.0262648373568 -0.0558127793831 0.887 2.06474994849e-38
-0.024623285022 -0.0558127793831 0.887 2.02787169655e-38
-0.0229817326872 -0.0558127793831 0.887 2.00943257057e-38
-0.0213882980082 -0.0559386255599 0.889 2.02787169655e-38
-0.0197430443153 -0.0559386255599 0.889 2.00943257057e-38
-0.0180977906223 -0.0559386255599 0.889 2.01865213356e-38
-0.0164525369294 -0.0559386255599 0.889 2.00021300759e-38
-0.0148072832364 -0.0559386255599 0.889 2.00021300759e-38
-0.0131324186784 -0.0558127793831 0.887 2.05560213199e-38
-0.0114908663436 -0.0558127793831 0.887 2.03716300601e-38
-0.00984931400879 -0.0558127793831 0.887 2.00028475407e-38
-0.00820776167399 -0.0558127793831 0.887 1.95418693914e-38
-0.00656620933919 -0.0558127793831 0.887 2.02794344303e-38
-0.00491355292998 -0.0556869332064 0.885 2.00950431706e-38
-0.00327570195332 -0.0556869332064 0.885 2.046382569e-38
-0.00163785097666 -0.0556869332064 0.885 2.02794344303e-38
0.0 -0.0554981639413 0.882 2.03716300601e-38
0.00163229893945 -0.0554981639413 0.882 2.046382569e-38
0.0032645978789 -0.0554981639413 0.882 2.046382569e-38
0.00488579274393 -0.0553723177646 0.88 2.02794344303e-38
0.00651439032524 -0.0553723177646 0.88 1.99106519108e-38
0.00814298790655 -0.0553723177646 0.88 2.03716300601e-38
0.00974937733903 -0.0552464715878 0.878 2.00028475407e-38
0.0113742735622 -0.0552464715878 0.878 2.00950431706e-38
0.0129991697854 -0.0552464715878 0.878 1.87121087226e-38
0.0146240660085 -0.0552464715878 0.878 2.02794344303e-38
0.0162489622317 -0.0552464715878 0.878 2.00028475407e-38
0.0178738584549 -0.0552464715878 0.878 2.00950431706e-38
0.0194321302315 -0.0550577023227 0.875 1.99106519108e-38
0.0210514744175 -0.0550577023227 0.875 1.98184576823e-38
0.0226189995895 -0.054931856146 0.873 1.96340664225e-38
0.0241791220453 -0.0548060099692 0.871 1.94496751628e-38
0.0257910635149 -0.0548060099692 0.871 1.90812583823e-38
0.0274030049846 -0.0548060099692 0.871 1.8989065555e-38
0.0290149464543 -0.0548060099692 0.871 1.96344321614e-38
0.0305565621193 -0.0546801637925 0.869 1.96344293588e-38
0.0321648022309 -0.0546801637925 0.869 1.95425896588e-38
0.0337730423424 -0.0546801637925 0.869 1.93581969978e-38
0.0352998525749 -0.0545543176158 0.867 1.9081966038e-38
0.0367766944725 -0.0543655483507 0.864 1.94507457548e-38
0.0383756811887 -0.0543655483507 0.864 2.00021300759e-38
0.0398821339514 -0.0542397021739 0.862 1.91723750123e-38
0.0414774193095 -0.0542397021739 0.862 1.94489619019e-38
0.0430727046675 -0.0542397021739 0.862 1.95415176655e-38
0.0446679900256 -0.0542397021739 0.862 1.90805395161e-38
-0.0746304841636 -0.0524001271787 0.858 2.2955998575e-38
-0.0728723390474 -0.0522779823601 0.856 1.59476887693e-38
-0.0712881577637 -0.0522779823601 0.856 2.24917778211e-38
-0.0698668362382 -0.0524001271787 0.858 2.13839911292e-38
-0.0684381119964 -0.0525222719973 0.86 1.86191984305e-38
-0.0670019850384 -0.0526444168159 0.862 1.83433276044e-38
-0.0659378445733 -0.053071923681 0.869 1.82518508407e-38
-0.0643296044618 -0.053071923681 0.869 1.88043057538e-38
-0.0628657173177 -0.0531940684996 0.871 1.88965041862e-38
-0.0613944274573 -0.0533162133182 0.873 1.89883438863e-38
-0.0599157348806 -0.0534383581368 0.875 1.8896151059e-38
-0.0584962640342 -0.0536215753646 0.878 1.95415176655e-38
-0.0570009153459 -0.0537437201832 0.88 1.89886998161e-38
-0.0554981639413 -0.0538658650018 0.882 1.92656384316e-38
-0.0540490822297 -0.0540490822297 0.885 1.90812443693e-38
-0.0524112312531 -0.0540490822297 0.885 1.95411547292e-38
-0.0507733802764 -0.0540490822297 0.885 1.99099400512e-38
-0.0492465700439 -0.0541712270483 0.887 1.97255487915e-38
-0.0476050177091 -0.0541712270483 0.887 1.98177416187e-38
-0.0459634653743 -0.0541712270483 0.887 2.06474994849e-38
-0.0443219130396 -0.0541712270483 0.887 2.01865213356e-38
-0.0427765960164 -0.0542933718669 0.889 2.03712699264e-38
-0.0411313423234 -0.0542933718669 0.889 2.02790742966e-38
-0.0394860886305 -0.0542933718669 0.889 2.01868870745e-38
-0.0378408349376 -0.0542933718669 0.889 2.0279085507e-38
-0.0361955812446 -0.0542933718669 0.889 2.02790827044e-38
-0.0345503275517 -0.0542933718669 0.889 2.05560255238e-38
-0.0329050738588 -0.0542933718669 0.889 2.03716314614e-38
-0.0312598201658 -0.0542933718669 0.889 2.00028475407e-38
-0.0295479420264 -0.0541712270483 0.887 2.05563772497e-38
-0.0279063896916 -0.0541712270483 0.887 2.02797875575e-38
-0.026324059087 -0.0542933718669 0.889 2.00946830368e-38
-0.024623285022 -0.0541712270483 0.887 2.05553038551e-38
-0.0229817326872 -0.0541712270483 0.887 2.02787169655e-38
-0.0213882980082 -0.0542933718669 0.889 2.04631082252e-38
-0.0197430443153 -0.0542933718669 0.889 2.06474994849e-38
-0.0180977906223 -0.0542933718669 0.889 2.00021300759e-38
-0.0164525369294 -0.0542933718669 0.889 2.05553038551e-38
-0.0148072832364 -0.0542933718669 0.889 2.05553038551e-38
-0.0131620295435 -0.0542933718669 0.889 2.046382569e-38
-0.0114908663436 -0.0541712270483 0.887 2.02794344303e-38
-0.00984931400879 -0.0541712270483 0.887 2.01872388004e-38
-0.00820776167399 -0.0541712270483 0.887 2.02794344303e-38
-0.00656620933919 -0.0541712270483 0.887 2.05560213199e-38
-0.00492465700439 -0.0541712270483 0.887 1.9818456281e-38
-0.00327570195332 -0.0540490822297 0.885 2.01872388004e-38
-0.00163785097666 -0.0540490822297 0.885 2.01872388004e-38
0.0 -0.0540490822297 0.885 2.00950431706e-38
0.00163229893945 -0.0538658650018 0.882 2.01872388004e-38
0.0032645978789 -0.0538658650018 0.882 2.00950431706e-38
0.00489689681835 -0.0538658650018 0.882 1.9818456281e-38
0.00651439032524 -0.0537437201832 0.88 2.03716300601e-38
0.00814298790655 -0.0537437201832 0.88 2.046382569e-38
0.00974937733903 -0.0536215753646 0.878 2.02794344303e-38
0.0113742735622 -0.0536215753646 0.878 2.03716300601e-38
0.0129991697854 -0.0536215753646 0.878 1.97262606511e-38
0.0146240660085 -0.0536215753646 0.878 2.06482169497e-38
0.0162489622317 -0.0536215753646 0.878 2.00950431706e-38
0.0178738584549 -0.0536215753646 0.878 2.02794344303e-38
0.0194321302315 -0.0534383581368 0.875 2.02794358316e-38
0.0210514744175 -0.0534383581368 0.875 2.02794358316e-38
0.0226189995895 -0.0533162133182 0.873 1.99106533121e-38
0.0242346424173 -0.0533162133182 0.873 2.05560227212e-38
0.0257910635149 -0.0531940684996 0.871 2.04641928302e-38
0.0274030049846 -0.0531940684996 0.871 1.94500437043e-38
0.0290149464543 -0.0531940684996 0.871 1.96344321614e-38
0.0305565621193 -0.053071923681 0.869 1.91734512095e-38
0.0321648022309 -0.053071923681 0.869 1.95425896588e-38
0.0337730423424 -0.053071923681 0.869 1.97269795172e-38
0.0352998525749 -0.0529497788624 0.867 1.94507485574e-38
0.0367766944725 -0.0527665616345 0.864 1.94507457548e-38
0.0383756811887 -0.0527665616345 0.864 1.9726264855e-38
0.0398821339514 -0.0526444168159 0.862 1.99103029875e-38
0.0414774193095 -0.0526444168159 0.862 1.98181073576e-38
0.0430727046675 -0.0526444168159 0.862 1.92649335785e-38
0.0445643519977 -0.0525222719973 0.86 1.88968699251e-38
0.0461559359976 -0.0525222719973 0.86 1.79749136265e-38
-0.0746304841636 -0.0508122445369 0.858 2.35077318194e-38
-0.0730426015218 -0.0508122445369 0.858 1.40105015424e-38
-0.07145471888 -0.0508122445369 0.858 2.27683647107e-38
-0.0698668362382 -0.0508122445369 0.858 1.81589391473e-38
-0.0684381119964 -0.0509306879973 0.86 1.8343330407e-38
-0.0670019850384 -0.0510491314578 0.862 1.88965013836e-38
-0.0657860888896 -0.051345240109 0.867 1.85277174629e-38
-0.0641815501362 -0.051345240109 0.867 1.9264565037e-38
-0.0630100702851 -0.0517005704903 0.873 1.88950622501e-38
-0.0615350790666 -0.0518190139508 0.875 1.85270028007e-38
-0.0599157348806 -0.0518190139508 0.875 1.91723722097e-38
-0.0584962640342 -0.0519966791415 0.878 1.9172735146e-38
-0.0570009153459 -0.0521151226019 0.88 1.89890627524e-38
-0.0554981639413 -0.0522335660624 0.882 1.97266277913e-38
-0.0540490822297 -0.0524112312531 0.885 1.88968671225e-38
-0.0524112312531 -0.0524112312531 0.885 1.97259089252e-38
-0.0507733802764 -0.0524112312531 0.885 1.9633350359e-38
-0.0492465700439 -0.0525296747135 0.887 1.98177416187e-38
-0.0476050177091 -0.0525296747135 0.887 1.98177416187e-38
-0.0459634653743 -0.0525296747135 0.887 1.98177416187e-38
-0.0443219130396 -0.0525296747135 0.887 1.9633350359e-38
-0.0427765960164 -0.052648118174 0.889 2.05553066577e-38
-0.0411313423234 -0.052648118174 0.889 1.99099372486e-38
-0.0394860886305 -0.052648118174 0.889 2.08326124134e-38
-0.0378408349376 -0.052648118174 0.889 2.06485812873e-38
-0.0361955812446 -0.052648118174 0.889 2.04645445561e-38
-0.0345503275517 -0.052648118174 0.889 2.02805092262e-38
-0.0329050738588 -0.052648118174 0.889 1.98195310769e-38
-0.0312598201658 -0.052648118174 0.889 2.06492917457e-38
-0.0296145664729 -0.052648118174 0.889 1.97269795172e-38
-0.0279693127799 -0.052648118174 0.889 2.02801546977e-38
-0.026324059087 -0.052648118174 0.889 2.00032118783e-38
-0.0246788053941 -0.052648118174 0.889 2.04638298939e-38
-0.0230335517011 -0.052648118174 0.889 2.08326124134e-38
-0.0213882980082 -0.052648118174 0.889 2.05560255238e-38
-0.0197430443153 -0.052648118174 0.889 2.08326124134e-38
-0.0180977906223 -0.052648118174 0.889 2.11091993029e-38
-0.0164525369294 -0.052648118174 0.889 2.06482211536e-38
-0.0148072832364 -0.052648118174 0.889 2.0371634264e-38
-0.0131620295435 -0.052648118174 0.889 2.046382569e-38
-0.0115167758506 -0.052648118174 0.889 2.07400524459e-38
-0.00984931400879 -0.0525296747135 0.887 2.00021300759e-38
-0.00820776167399 -0.0525296747135 0.887 2.01865241382e-38
-0.00656620933919 -0.0525296747135 0.887 2.1661654216e-38
-0.00492465700439 -0.0525296747135 0.887 1.99099372486e-38
-0.0032831046696 -0.0525296747135 0.887 1.97259005174e-38
-0.0016415523348 -0.0525296747135 0.887 2.07400496433e-38
0.0 -0.0524112312531 0.885 2.00946830368e-38
0.00163785097666 -0.0524112312531 0.885 2.00946830368e-38
0.0032645978789 -0.0522335660624 0.882 2.01868758641e-38
0.00489689681835 -0.0522335660624 0.882 2.03712671238e-38
0.00651439032524 -0.0521151226019 0.88 2.03712671238e-38
0.00814298790655 -0.0521151226019 0.88 2.03712699264e-38
0.00974937733903 -0.0519966791415 0.878 2.03709125953e-38
0.0113742735622 -0.0519966791415 0.878 2.02787169655e-38
0.0129991697854 -0.0519966791415 0.878 2.04641816198e-38
0.0146240660085 -0.0519966791415 0.878 1.98188122108e-38
0.0162489622317 -0.0519966791415 0.878 1.99110078406e-38
0.0178738584549 -0.0519966791415 0.878 2.00950431706e-38
0.0194987546781 -0.0519966791415 0.878 1.99106533121e-38
0.0210514744175 -0.0518190139508 0.875 1.97262620524e-38
0.0226708186035 -0.0518190139508 0.875 1.99106561147e-38
0.0242346424173 -0.0517005704903 0.873 2.0371634264e-38
0.0257910635149 -0.0515821270299 0.871 2.00035678081e-38
0.0274030049846 -0.0515821270299 0.871 1.96344293588e-38
0.0290149464543 -0.0515821270299 0.871 1.98188234212e-38
0.030626887924 -0.0515821270299 0.871 1.99110218536e-38
0.0321648022309 -0.0514636835694 0.869 1.97266305939e-38
0.0337730423424 -0.0514636835694 0.869 2.01876059406e-38
0.0352998525749 -0.051345240109 0.867 1.97269809185e-38
0.0369043913283 -0.051345240109 0.867 1.92660013679e-38
0.0383756811887 -0.0511675749183 0.864 2.00950445719e-38
0.0398821339514 -0.0510491314578 0.862 1.88043085564e-38
0.0414774193095 -0.0510491314578 0.862 1.93574823355e-38
0.0430727046675 -0.0510491314578 0.862 1.93574823355e-38
0.0445643519977 -0.0509306879973 0.86 1.94496751628e-38
0.0461559359976 -0.0509306879973 0.86 1.92652839031e-38
0.0476364792533 -0.0508122445369 0.858 1.93574795329e-38
0.0492243618951 -0.0508122445369 0.858 1.88965013836e-38
-0.0762183668053 -0.0492243618951 0.858 2.35088094179e-38
-0.0746304841636 -0.0492243618951 0.858 7.3716973261e-39
-0.0730426015218 -0.0492243618951 0.858 2.35070101507e-38
-0.07145471888 -0.0492243618951 0.858 1.9080895446e-38
-0.0698668362382 -0.0492243618951 0.858 1.77901566279e-38
-0.0684381119964 -0.0493391039974 0.86 1.90808926434e-38
-0.0670019850384 -0.0494538460997 0.862 1.85277188642e-38
-0.0657860888896 -0.0497407013555 0.867 1.89886956122e-38
-0.0641815501362 -0.0497407013555 0.867 1.9632627289e-38
-0.0630100702851 -0.0500849276625 0.873 1.98170185487e-38
-0.0615350790666 -0.0501996697648 0.875 1.95411519266e-38
-0.0601211602573 -0.0503717829183 0.878 1.90801765798e-38
-0.0586295129272 -0.0504865250206 0.88 1.98184604849e-38
-0.0570009153459 -0.0504865250206 0.88 1.9542233729e-38
-0.0554981639413 -0.0506012671229 0.882 1.97266277913e-38
-0.0540490822297 -0.0507733802764 0.885 2.01876087432e-38
-0.0524112312531 -0.0507733802764 0.885 1.98184604849e-38
-0.0508881223787 -0.0508881223787 0.887 1.97255459889e-38
-0.0492465700439 -0.0508881223787 0.887 2.00943285083e-38
-0.0476050177091 -0.0508881223787 0.887 2.04631110278e-38
-0.0459634653743 -0.0508881223787 0.887 2.08318935472e-38
-0.0444218497093 -0.0510028644811 0.889 2.00021328785e-38
-0.0427765960164 -0.0510028644811 0.889 2.05553066577e-38
-0.0411313423234 -0.0510028644811 0.889 2.02787197681e-38
-0.0394860886305 -0.0510028644811 0.889 2.06482211536e-38
-0.0378408349376 -0.0510028644811 0.889 2.01879590678e-38
-0.0361955812446 -0.0510028644811 0.889 2.00035664068e-38
-0.0345503275517 -0.0510028644811 0.889 2.03727020535e-38
-0.0329050738588 -0.0510028644811 0.889 2.05570933132e-38
-0.0312598201658 -0.0510028644811 0.889 2.07414873755e-38
-0.0296145664729 -0.0510028644811 0.889 2.03723503276e-38
-0.0279693127799 -0.0510028644811 0.889 2.06485812873e-38
-0.026324059087 -0.0510028644811 0.889 1.99110162484e-38
-0.0246788053941 -0.0510028644811 0.889 2.05563856575e-38
-0.0230335517011 -0.0510028644811 0.889 2.03719943977e-38
-0.0213882980082 -0.0510028644811 0.889 2.0187603138e-38
-0.0197430443153 -0.0510028644811 0.889 2.04641900276e-38
-0.0180977906223 -0.0510028644811 0.889 2.05563856575e-38
-0.0164525369294 -0.0510028644811 0.889 2.0187603138e-38
-0.0148072832364 -0.0510028644811 0.889 2.02797987679e-38
-0.0131620295435 -0.0510028644811 0.889 2.03712699264e-38
-0.0115167758506 -0.0510028644811 0.889 1.99102917771e-38
-0.00987152215763 -0.0510028644811 0.889 2.01865241382e-38
-0.00820776167399 -0.0508881223787 0.887 2.04631138304e-38
-0.00656620933919 -0.0508881223787 0.887 2.03709182005e-38
-0.00492465700439 -0.0508881223787 0.887 2.1016284807e-38
-0.0032831046696 -0.0508881223787 0.887 2.06474994849e-38
-0.0016415523348 -0.0508881223787 0.887 2.08322452732e-38
0.0 -0.0507733802764 0.885 2.10170008705e-38
0.00163785097666 -0.0507733802764 0.885 2.0648218351e-38
0.0032645978789 -0.0506012671229 0.882 2.06485728795e-38
0.00489689681835 -0.0506012671229 0.882 2.03719831874e-38
0.0065291957578 -0.0506012671229 0.882 2.04641816198e-38
0.00814298790655 -0.0504865250206 0.88 2.03716300601e-38
0.00977158548786 -0.0504865250206 0.88 2.01872402017e-38
0.0114001830692 -0.0504865250206 0.88 2.04638298939e-38
0.0130287806505 -0.0504865250206 0.88 2.01872388004e-38
0.0146240660085 -0.0503717829183 0.878 2.00032034705e-38
0.0162489622317 -0.0503717829183 0.878 2.037198599e-38
0.0178738584549 -0.0503717829183 0.878 2.06482169497e-38
0.0194987546781 -0.0503717829183 0.878 2.0002848942e-38
0.0211236509012 -0.0503717829183 0.878 2.01872402017e-38
0.0226708186035 -0.0501996697648 0.875 2.04638298939e-38
0.0242346424173 -0.0500849276625 0.873 2.07404167835e-38
0.0258502852452 -0.0500849276625 0.873 1.94496751628e-38
0.0274030049846 -0.0499701855602 0.871 2.02794358316e-38
0.0290149464543 -0.0499701855602 0.871 2.01868870745e-38
0.030626887924 -0.0499701855602 0.871 1.98181073576e-38
0.0322388293937 -0.0499701855602 0.871 2.01868898771e-38
0.0337730423424 -0.0498554434579 0.869 1.99103001849e-38
0.035381282454 -0.0498554434579 0.869 1.95418735953e-38
0.0369043913283 -0.0497407013555 0.867 1.99106519108e-38
0.0385089300817 -0.0497407013555 0.867 2.02794358316e-38
0.0399746679049 -0.0495685882021 0.864 1.99106533121e-38
0.0414774193095 -0.0494538460997 0.862 2.01872402017e-38
0.0430727046675 -0.0494538460997 0.862 1.92652825018e-38
0.0446679900256 -0.0494538460997 0.862 1.91730868719e-38
0.0461559359976 -0.0493391039974 0.86 1.90808912421e-38
0.0476364792533 -0.0492243618951 0.858 1.88964999823e-38
0.0492243618951 -0.0492243618951 0.858 1.94496737615e-38
0.0508122445369 -0.0492243618951 0.858 1.78827123914e-38
-0.0778062494471 -0.0476364792533 0.858 2.35095268827e-38
-0.0762183668053 -0.0476364792533 0.858 1.82514977135e-38
-0.0746304841636 -0.0476364792533 0.858 2.14776258926e-38
-0.0730426015218 -0.0476364792533 0.858 2.08322564835e-38
-0.07145471888 -0.0476364792533 0.858 1.7697960998e-38
-0.0698668362382 -0.0476364792533 0.858 1.87121129265e-38
-0.0684381119964 -0.0477475199975 0.86 1.88043085564e-38
-0.0670019850384 -0.0478585607417 0.862 1.88043057538e-38
-0.0659378445733 -0.0482472033463 0.869 1.94496751628e-38
-0.0643296044618 -0.0482472033463 0.869 1.85270028007e-38
-0.0630100702851 -0.0484692848347 0.873 1.86191956279e-38
-0.0615350790666 -0.0485803255789 0.875 1.90801737772e-38
-0.0601211602573 -0.0487468866951 0.878 1.96340664225e-38
-0.0586295129272 -0.0488579274393 0.88 1.98184576823e-38
-0.0571304628807 -0.0489689681835 0.882 1.96340664225e-38
-0.0554981639413 -0.0489689681835 0.882 1.95425896588e-38
-0.0540490822297 -0.0491355292998 0.885 2.03723503276e-38
-0.0524112312531 -0.0491355292998 0.885 2.06475022875e-38
-0.0508881223787 -0.0492465700439 0.887 2.02787197681e-38
-0.0492465700439 -0.0492465700439 0.887 2.04631110278e-38
-0.0476050177091 -0.0492465700439 0.887 2.05553066577e-38
-0.0460671034023 -0.0493576107881 0.889 2.08318935472e-38
-0.0444218497093 -0.0493576107881 0.889 2.02787197681e-38
-0.042872831328 -0.0494686515323 0.891 2.09240891771e-38
-0.0412238762769 -0.0494686515323 0.891 2.00943285083e-38
-0.0395749212258 -0.0494686515323 0.891 2.0371634264e-38
-0.0379259661748 -0.0494686515323 0.891 2.05567415873e-38
-0.0362770111237 -0.0494686515323 0.891 2.07411314457e-38
-0.0346280560726 -0.0494686515323 0.891 2.07414873755e-38
-0.0329791010215 -0.0494686515323 0.891 2.10180742651e-38
-0.0313301459705 -0.0494686515323 0.891 2.02801532964e-38
-0.0296145664729 -0.0493576107881 0.889 2.03723503276e-38
-0.0279693127799 -0.0493576107881 0.889 2.12017550665e-38
-0.026324059087 -0.0493576107881 0.889 2.04641900276e-38
-0.0246788053941 -0.0493576107881 0.889 2.08329725471e-38
-0.0230335517011 -0.0493576107881 0.889 2.06485812873e-38
-0.0213882980082 -0.0493576107881 0.889 2.05563856575e-38
-0.0197430443153 -0.0493576107881 0.889 2.04641900276e-38
-0.0180977906223 -0.0493576107881 0.889 2.05563856575e-38
-0.0164525369294 -0.0493576107881 0.889 2.03719943977e-38
-0.0148072832364 -0.0493576107881 0.889 2.06485812873e-38
-0.0131620295435 -0.0493576107881 0.889 2.10166393355e-38
-0.0115167758506 -0.0493576107881 0.889 2.13850645238e-38
-0.00987152215763 -0.0493576107881 0.889 2.08318935472e-38
-0.00822626846469 -0.0493576107881 0.889 2.08318963498e-38
-0.00656620933919 -0.0492465700439 0.887 2.073970072e-38
-0.00492465700439 -0.0492465700439 0.887 2.01865241382e-38
-0.0032831046696 -0.0492465700439 0.887 2.05553038551e-38
-0.0016415523348 -0.0492465700439 0.887 2.03712699264e-38
0.0 -0.0492465700439 0.887 2.11091965003e-38
0.00163785097666 -0.0491355292998 0.885 2.04638270913e-38
0.00327570195332 -0.0491355292998 0.885 2.11091950991e-38
0.00491355292998 -0.0491355292998 0.885 2.07407685094e-38
0.0065291957578 -0.0489689681835 0.882 2.05563772497e-38
0.00816149469725 -0.0489689681835 0.882 2.06482169497e-38
0.00977158548786 -0.0488579274393 0.88 2.02794358316e-38
0.0114001830692 -0.0488579274393 0.88 2.06482211536e-38
0.0130287806505 -0.0488579274393 0.88 2.02794344303e-38
0.0146573782318 -0.0488579274393 0.88 2.05563772497e-38
0.0162489622317 -0.0487468866951 0.878 2.07404125796e-38
0.0178738584549 -0.0487468866951 0.878 2.06482169497e-38
0.0194987546781 -0.0487468866951 0.878 2.0002848942e-38
0.0211236509012 -0.0487468866951 0.878 2.05560227212e-38
0.0226708186035 -0.0485803255789 0.875 2.04638270913e-38
0.0242901627894 -0.0485803255789 0.875 2.0648218351e-38
0.0259095069754 -0.0485803255789 0.875 2.01865213356e-38
0.027465928073 -0.0484692848347 0.873 2.07396951148e-38
0.0290815709008 -0.0484692848347 0.873 2.02787197681e-38
0.030626887924 -0.0483582440905 0.871 2.01865269408e-38
0.0322388293937 -0.0483582440905 0.871 2.05553094603e-38
0.0338507708634 -0.0483582440905 0.871 2.02787225707e-38
0.035381282454 -0.0482472033463 0.869 2.00021300759e-38
0.0369043913283 -0.0481361626021 0.867 1.9909934446e-38
0.0385089300817 -0.0481361626021 0.867 1.9818456281e-38
0.0399746679049 -0.0479696014859 0.864 1.9818456281e-38
0.0414774193095 -0.0478585607417 0.862 1.97262606511e-38
0.0430727046675 -0.0478585607417 0.862 1.95418693914e-38
0.0445643519977 -0.0477475199975 0.86 1.95418693914e-38
0.0461559359976 -0.0477475199975 0.86 1.96340650212e-38
0.0476364792533 -0.0476364792533 0.858 1.95418693914e-38
0.0492243618951 -0.0476364792533 0.858 1.96340664225e-38
0.0508122445369 -0.0476364792533 0.858 2.03716314614e-38
-0.0778062494471 -0.0460485966116 0.858 2.29545510337e-38
-0.0762183668053 -0.0460485966116 0.858 1.43792812592e-38
-0.0746304841636 -0.0460485966116 0.858 2.35084464816e-38
-0.0730426015218 -0.0460485966116 0.858 1.92652867057e-38
-0.07145471888 -0.0460485966116 0.858 1.77901566279e-38
-0.0698668362382 -0.0460485966116 0.858 1.94496779654e-38
-0.0685972703964 -0.0462632753836 0.862 1.88043085564e-38
-0.0671574420802 -0.0463706147697 0.864 1.89886998161e-38
-0.0659378445733 -0.0466389632348 0.869 1.92652867057e-38
-0.0643296044618 -0.0466389632348 0.869 1.95411547292e-38
-0.0630100702851 -0.0468536420069 0.873 1.9633350359e-38
-0.0615350790666 -0.0469609813929 0.875 1.96340664225e-38
-0.0601211602573 -0.047121990472 0.878 1.94496737615e-38
-0.0586295129272 -0.047229329858 0.88 1.94496737615e-38
-0.0570009153459 -0.047229329858 0.88 1.93578340615e-38
-0.0554981639413 -0.047336669244 0.882 2.00953991004e-38
-0.0540490822297 -0.0474976783231 0.885 1.94500268887e-38
-0.0524112312531 -0.0474976783231 0.885 1.98177388162e-38
-0.0508881223787 -0.0476050177091 0.887 2.00021328785e-38
-0.0492465700439 -0.0476050177091 0.887 2.04631110278e-38
-0.0476050177091 -0.0476050177091 0.887 2.04631110278e-38
-0.0460671034023 -0.0477123570952 0.889 2.11084804368e-38
-0.0444218497093 -0.0477123570952 0.889 2.03709153979e-38
-0.042872831328 -0.0478196964812 0.891 2.11084804368e-38
-0.0412238762769 -0.0478196964812 0.891 2.03709153979e-38
-0.0395749212258 -0.0478196964812 0.891 1.99106533121e-38
-0.0379259661748 -0.0478196964812 0.891 2.01879590678e-38
-0.0363991559423 -0.0479807055603 0.894 2.03723503276e-38
-0.034744648854 -0.0479807055603 0.894 2.02801546977e-38
-0.0329791010215 -0.0478196964812 0.891 2.01879590678e-38
-0.0313301459705 -0.0478196964812 0.891 2.04645459574e-38
-0.0296811909194 -0.0478196964812 0.891 2.03723503276e-38
-0.0280322358683 -0.0478196964812 0.891 2.04645459574e-38
-0.0263832808172 -0.0478196964812 0.891 2.09251681769e-38
-0.0246788053941 -0.0477123570952 0.889 2.05563856575e-38
-0.0230335517011 -0.0477123570952 0.889 2.10173638068e-38
-0.0213882980082 -0.0477123570952 0.889 2.09251681769e-38
-0.0197430443153 -0.0477123570952 0.889 2.02797987679e-38
-0.0180977906223 -0.0477123570952 0.889 2.06485812873e-38
-0.0164525369294 -0.0477123570952 0.889 2.05563856575e-38
-0.0148072832364 -0.0477123570952 0.889 2.06485812873e-38
-0.0131620295435 -0.0477123570952 0.889 2.01865213356e-38
-0.0115167758506 -0.0477123570952 0.889 2.04631082252e-38
-0.00987152215763 -0.0477123570952 0.889 2.01865213356e-38
-0.00822626846469 -0.0477123570952 0.889 2.00943285083e-38
-0.00656620933919 -0.0476050177091 0.887 2.04631110278e-38
-0.00492465700439 -0.0476050177091 0.887 2.00021328785e-38
-0.0032831046696 -0.0476050177091 0.887 2.17538470433e-38
-0.0016415523348 -0.0476050177091 0.887 2.06474994849e-38
0.0 -0.0476050177091 0.887 2.11091993029e-38
0.0016415523348 -0.0476050177091 0.887 2.01872430043e-38
0.00327570195332 -0.0474976783231 0.885 2.12935877601e-38
0.00489689681835 -0.047336669244 0.882 2.08326082095e-38
0.0065291957578 -0.047336669244 0.882 2.00953991004e-38
0.00816149469725 -0.047336669244 0.882 2.08326082095e-38
0.00977158548786 -0.047229329858 0.88 2.05560227212e-38
0.0114001830692 -0.047229329858 0.88 2.09248080432e-38
0.0130287806505 -0.047229329858 0.88 2.03716300601e-38
0.0146573782318 -0.047229329858 0.88 2.10169994692e-38
0.0162859758131 -0.047229329858 0.88 2.10169994692e-38
0.0178738584549 -0.047121990472 0.878 2.07404125796e-38
0.0194987546781 -0.047121990472 0.878 2.07404125796e-38
0.0211236509012 -0.047121990472 0.878 2.10170008705e-38
0.0227485471244 -0.047121990472 0.878 2.03716314614e-38
0.0243734433476 -0.047121990472 0.878 2.04638270913e-38
0.0259095069754 -0.0469609813929 0.875 2.06474994849e-38
0.0275288511614 -0.0469609813929 0.875 2.05545835876e-38
0.0290815709008 -0.0468536420069 0.873 2.03698363981e-38
0.0306972137286 -0.0468536420069 0.873 2.0462032028e-38
0.0322388293937 -0.0467463026208 0.871 2.06464232877e-38
0.0338507708634 -0.0467463026208 0.871 2.02776407682e-38
0.035381282454 -0.0466389632348 0.869 2.03701923279e-38
0.0369895225655 -0.0466389632348 0.869 2.00936054383e-38
0.0385089300817 -0.0465316238487 0.867 2.00028475407e-38
0.0399746679049 -0.0463706147697 0.864 2.03716300601e-38
0.0415736546211 -0.0463706147697 0.864 1.9818456281e-38
0.0430727046675 -0.0462632753836 0.862 1.97262606511e-38
0.0445643519977 -0.0461559359976 0.86 2.00950445719e-38
0.0461559359976 -0.0461559359976 0.86 1.92652839031e-38
0.0476364792533 -0.0460485966116 0.858 1.99106533121e-38
0.0492243618951 -0.0460485966116 0.858 2.01872402017e-38
0.0508122445369 -0.0460485966116 0.858 2.01865213356e-38
-0.0778062494471 -0.0444607139698 0.858 1.29966999385e-38
-0.0762183668053 -0.0444607139698 0.858 2.35088066153e-38
-0.0746304841636 -0.0444607139698 0.858 2.04638298939e-38
-0.0730426015218 -0.0444607139698 0.858 1.76057653681e-38
-0.07145471888 -0.0444607139698 0.858 1.92652867057e-38
-0.0698668362382 -0.0444607139698 0.858 1.88043085564e-38
-0.0685972703964 -0.0446679900256 0.862 1.89886998161e-38
-0.0671574420802 -0.0447716280535 0.864 1.93574823355e-38
-0.0659378445733 -0.0450307231232 0.869 1.97259089252e-38
-0.0643296044618 -0.0450307231232 0.869 1.91730910758e-38
-0.0631544232525 -0.0453416372069 0.875 1.91730910758e-38
-0.0615350790666 -0.0453416372069 0.875 1.99106533121e-38
-0.0601211602573 -0.0454970942488 0.878 1.99106519108e-38
-0.0586295129272 -0.0456007322767 0.88 1.99110078406e-38
-0.0570009153459 -0.0456007322767 0.88 1.96344181485e-38
-0.0554981639413 -0.0457043703046 0.882 2.06478512108e-38
-0.0540490822297 -0.0458598273464 0.885 2.02794246212e-38
-0.0524112312531 -0.0458598273464 0.885 1.99106533121e-38
-0.0508881223787 -0.0459634653743 0.887 2.0371634264e-38
-0.0492465700439 -0.0459634653743 0.887 2.06482211536e-38
-0.0477123570952 -0.0460671034023 0.889 2.02794386342e-38
-0.0460671034023 -0.0460671034023 0.889 2.0371634264e-38
-0.0444218497093 -0.0460671034023 0.889 2.07404167835e-38
-0.042872831328 -0.0461707414302 0.891 2.01872430043e-38
-0.0413626772071 -0.046326198472 0.894 2.12013949328e-38
-0.0397081701189 -0.046326198472 0.894 2.01879590678e-38
-0.0380536630306 -0.046326198472 0.894 2.01879590678e-38
-0.0363991559423 -0.046326198472 0.894 2.09251681769e-38
-0.034744648854 -0.046326198472 0.894 2.07407769172e-38
-0.0329791010215 -0.0461707414302 0.891 2.05563856575e-38
-0.0313301459705 -0.0461707414302 0.891 2.09251681769e-38
-0.0296811909194 -0.0461707414302 0.891 2.0741132847e-38
-0.0280322358683 -0.0461707414302 0.891 2.08333284769e-38
-0.0263832808172 -0.0461707414302 0.891 2.10173638068e-38
-0.0247343257662 -0.0461707414302 0.891 2.11095594367e-38
-0.0230853707151 -0.0461707414302 0.891 2.13861463262e-38
-0.021436415664 -0.0461707414302 0.891 2.12939506964e-38
-0.0197874606129 -0.0461707414302 0.891 2.0187603138e-38
-0.0180977906223 -0.0460671034023 0.889 2.10173638068e-38
-0.0164525369294 -0.0460671034023 0.889 2.09251681769e-38
-0.0148072832364 -0.0460671034023 0.889 2.03719943977e-38
-0.0131620295435 -0.0460671034023 0.889 2.10170036731e-38
-0.0115167758506 -0.0460671034023 0.889 2.03716314614e-38
-0.00987152215763 -0.0460671034023 0.889 2.12935877601e-38
-0.00822626846469 -0.0460671034023 0.889 2.07404139809e-38
-0.00658101477175 -0.0460671034023 0.889 2.08326096108e-38
-0.00492465700439 -0.0459634653743 0.887 2.12935877601e-38
-0.0032831046696 -0.0459634653743 0.887 2.0648218351e-38
-0.0016415523348 -0.0459634653743 0.887 2.07404167835e-38
0.0 -0.0459634653743 0.887 2.11088461757e-38
0.0016415523348 -0.0459634653743 0.887 2.09251737821e-38
0.00327570195332 -0.0458598273464 0.885 2.09251681769e-38
0.00489689681835 -0.0457043703046 0.882 2.08333270756e-38
0.0065291957578 -0.0457043703046 0.882 2.08333270756e-38
0.00816149469725 -0.0457043703046 0.882 2.07411314457e-38
0.00977158548786 -0.0456007322767 0.88 2.09255241067e-38
0.0114001830692 -0.0456007322767 0.88 2.00954075082e-38
0.0130287806505 -0.0456007322767 0.88 2.05560227212e-38
0.0146573782318 -0.0456007322767 0.88 2.11091965003e-38
0.0162859758131 -0.0456007322767 0.88 2.11091965003e-38
0.0179145733944 -0.0456007322767 0.88 2.046382569e-38
0.0194987546781 -0.0454970942488 0.878 2.05560213199e-38
0.0211236509012 -0.0454970942488 0.878 2.03716300601e-38
0.0227485471244 -0.0454970942488 0.878 2.05560213199e-38
0.0243734433476 -0.0454970942488 0.878 2.09248038393e-38
0.0259983395707 -0.0454970942488 0.878 2.09233661071e-38
0.0275288511614 -0.0453416372069 0.875 2.09233661071e-38
0.0291481953473 -0.0453416372069 0.875 2.04623879578e-38
0.0306972137286 -0.045237999179 0.873 2.06467792175e-38
0.0323128565565 -0.045237999179 0.873 2.08311704772e-38
0.0338507708634 -0.0451343611511 0.871 2.04623879578e-38
0.035381282454 -0.0450307231232 0.869 2.08311704772e-38
0.0369895225655 -0.0450307231232 0.869 2.07389748474e-38
0.0385089300817 -0.0449270850953 0.867 2.01868786667e-38
0.0401134688351 -0.0449270850953 0.867 2.01875947302e-38
0.0415736546211 -0.0447716280535 0.864 2.02797903601e-38
0.0430727046675 -0.0446679900256 0.862 1.95418693914e-38
0.0446679900256 -0.0446679900256 0.862 2.03716314614e-38
0.0461559359976 -0.0445643519977 0.86 1.89886970135e-38
0.0476364792533 -0.0444607139698 0.858 1.99106561147e-38
0.0492243618951 -0.0444607139698 0.858 2.00028517446e-38
0.0506938010764 -0.0443570759419 0.856 2.07396951148e-38
0.0521558375415 -0.044253437914 0.854 2.07397091278e-38
0.053736317467 -0.044253437914 0.854 2.35088038127e-38
-0.0778062494471 -0.042872831328 0.858 1.57622044968e-38
-0.0762183668053 -0.042872831328 0.858 2.25843265782e-38
-0.0746304841636 -0.042872831328 0.858 1.84355232343e-38
-0.0730426015218 -0.042872831328 0.858 1.92652867057e-38
-0.07145471888 -0.042872831328 0.858 1.89886998161e-38
-0.0698668362382 -0.042872831328 0.858 1.92652867057e-38
-0.0685972703964 -0.0430727046675 0.862 1.92649307759e-38
-0.0671574420802 -0.0431726413373 0.864 1.92649307759e-38
-0.0657860888896 -0.0433225463419 0.867 1.97259089252e-38
-0.0643296044618 -0.0434224830117 0.869 1.9542233729e-38
-0.0631544232525 -0.043722293021 0.875 1.98191765484e-38
-0.0615350790666 -0.043722293021 0.875 1.96340664225e-38
-0.0601211602573 -0.0438721980256 0.878 1.94496751628e-38
-0.0586295129272 -0.0439721346954 0.88 2.046382569e-38
-0.0570009153459 -0.0439721346954 0.88 2.00946830368e-38
-0.0554981639413 -0.0440720713651 0.882 2.03712699264e-38
-0.0540490822297 -0.0442219763698 0.885 2.01868758641e-38
-0.0524112312531 -0.0442219763698 0.885 2.02794358316e-38
-0.0508881223787 -0.0443219130396 0.887 2.07404167835e-38
-0.0492465700439 -0.0443219130396 0.887 2.07404167835e-38
-0.0477123570952 -0.0444218497093 0.889 2.01872430043e-38
-0.0461707414302 -0.0445217863791 0.891 2.11091993029e-38
-0.0445217863791 -0.0445217863791 0.891 2.10170036731e-38
-0.0430171842954 -0.0446716913837 0.894 2.06482211536e-38
-0.0413626772071 -0.0446716913837 0.894 2.06482211536e-38
-0.0397081701189 -0.0446716913837 0.894 2.05567415873e-38
-0.0380536630306 -0.0446716913837 0.894 2.04645459574e-38
-0.0363991559423 -0.0446716913837 0.894 2.09251681769e-38
-0.034744648854 -0.0446716913837 0.894 2.02798015705e-38
-0.0330901417657 -0.0446716913837 0.894 2.03719972003e-38
-0.0314356346774 -0.0446716913837 0.894 2.13861463262e-38
-0.0296811909194 -0.0445217863791 0.891 2.11099153665e-38
-0.0280322358683 -0.0445217863791 0.891 2.12021109963e-38
-0.0263832808172 -0.0445217863791 0.891 2.04641900276e-38
-0.0247343257662 -0.0445217863791 0.891 2.08329725471e-38
-0.0230853707151 -0.0445217863791 0.891 2.11095594367e-38
-0.021436415664 -0.0445217863791 0.891 2.08329725471e-38
-0.0197874606129 -0.0445217863791 0.891 2.0187603138e-38
-0.0180977906223 -0.0444218497093 0.889 2.06485812873e-38
-0.0164525369294 -0.0444218497093 0.889 2.12017550665e-38
-0.0148072832364 -0.0444218497093 0.889 2.04641900276e-38
-0.0131620295435 -0.0444218497093 0.889 2.08322564835e-38
-0.0115167758506 -0.0444218497093 0.889 2.0371634264e-38
-0.00987152215763 -0.0444218497093 0.889 2.10170008705e-38
-0.00822626846469 -0.0444218497093 0.889 2.03716300601e-38
-0.00658101477175 -0.0444218497093 0.889 2.09248038393e-38
-0.00493576107881 -0.0444218497093 0.889 2.08326096108e-38
-0.00329050738588 -0.0444218497093 0.889 2.09248080432e-38
-0.0016415523348 -0.0443219130396 0.887 2.0555669594e-38
0.0 -0.0443219130396 0.887 2.05560353329e-38
0.0016415523348 -0.0443219130396 0.887 2.05560353329e-38
0.00327570195332 -0.0442219763698 0.885 2.06485840899e-38
0.00491355292998 -0.0442219763698 0.885 2.08333284769e-38
0.00655140390664 -0.0442219763698 0.885 2.08333270756e-38
0.00816149469725 -0.0440720713651 0.882 2.0556740186e-38
0.0097937936367 -0.0440720713651 0.882 2.08333284769e-38
0.0114001830692 -0.0439721346954 0.88 2.09255241067e-38
0.0130287806505 -0.0439721346954 0.88 2.09248052406e-38
0.0146573782318 -0.0439721346954 0.88 2.11091965003e-38
0.0162859758131 -0.0439721346954 0.88 2.09248052406e-38
0.0179145733944 -0.0439721346954 0.88 2.05560227212e-38
0.0194987546781 -0.0438721980256 0.878 2.09248038393e-38
0.0211236509012 -0.0438721980256 0.878 2.08326082095e-38
0.0227485471244 -0.0438721980256 0.878 2.1017355399e-38
0.0243734433476 -0.0438721980256 0.878 2.1017355399e-38
0.0259983395707 -0.0438721980256 0.878 2.06474994849e-38
0.0276232357939 -0.0438721980256 0.878 2.11084776342e-38
0.0291481953473 -0.043722293021 0.875 2.07400524459e-38
0.0307675395333 -0.043722293021 0.875 2.05556611862e-38
0.0323128565565 -0.0436223563512 0.873 2.04634655563e-38
0.0338507708634 -0.0435224196815 0.871 2.05556611862e-38
0.035462712333 -0.0435224196815 0.871 2.01865213356e-38
0.0369895225655 -0.0434224830117 0.869 2.06475022875e-38
0.0385977626771 -0.0434224830117 0.869 2.06485728795e-38
0.0401134688351 -0.0433225463419 0.867 1.98188094082e-38
0.0415736546211 -0.0431726413373 0.864 2.01875947302e-38
0.0431726413373 -0.0431726413373 0.864 1.96340650212e-38
0.0446679900256 -0.0430727046675 0.862 2.02794358316e-38
0.0461559359976 -0.0429727679978 0.86 2.0371634264e-38
0.0476364792533 -0.042872831328 0.858 2.11091993029e-38
0.0492243618951 -0.042872831328 0.858 2.09244521134e-38
0.0506938010764 -0.0427728946582 0.856 2.12935877601e-38
0.0521558375415 -0.0426729579885 0.854 2.10166533485e-38
0.053736317467 -0.0426729579885 0.854 2.35077262142e-38
-0.079023996275 -0.041092478063 0.854 6.91214289602e-39
-0.0774435163495 -0.041092478063 0.854 2.27683506977e-38
-0.0760407016146 -0.0411887133746 0.856 1.95418693914e-38
-0.074456520331 -0.0411887133746 0.856 1.80667407149e-38
-0.0730426015218 -0.0412849486862 0.858 1.92652839031e-38
-0.07145471888 -0.0412849486862 0.858 1.9080895446e-38
-0.0698668362382 -0.0412849486862 0.858 1.87121129265e-38
-0.0685972703964 -0.0414774193095 0.862 1.90805395161e-38
-0.067390627643 -0.0417180075885 0.867 1.89883466889e-38
-0.0657860888896 -0.0417180075885 0.867 1.95415204681e-38
-0.0643296044618 -0.0418142429001 0.869 1.94500380991e-38
-0.0631544232525 -0.042102948835 0.875 1.99113721782e-38
-0.0615350790666 -0.042102948835 0.875 1.95425896588e-38
-0.0601211602573 -0.0422473018025 0.878 1.98184604849e-38
-0.0586295129272 -0.0423435371141 0.88 2.04631110278e-38
-0.0570009153459 -0.0423435371141 0.88 2.04631110278e-38
-0.0554981639413 -0.0424397724257 0.882 2.05542276578e-38
-0.0540490822297 -0.0425841253931 0.885 2.08308145474e-38
-0.0524112312531 -0.0425841253931 0.885 2.00950473744e-38
-0.0508881223787 -0.0426803607048 0.887 2.07407769172e-38
-0.0492465700439 -0.0426803607048 0.887 2.06485812873e-38
-0.0477123570952 -0.0427765960164 0.889 2.08329725471e-38
-0.0461707414302 -0.042872831328 0.891 2.07407769172e-38
-0.0445217863791 -0.042872831328 0.891 2.06485812873e-38
-0.0430171842954 -0.0430171842954 0.894 2.13861463262e-38
-0.0413626772071 -0.0430171842954 0.894 2.11095594367e-38
-0.0397081701189 -0.0430171842954 0.894 2.11099153665e-38
-0.0380536630306 -0.0430171842954 0.894 2.09255241067e-38
-0.0363991559423 -0.0430171842954 0.894 2.12939506964e-38
-0.034744648854 -0.0430171842954 0.894 2.05563912627e-38
-0.0330901417657 -0.0430171842954 0.894 2.06485868925e-38
-0.0314356346774 -0.0430171842954 0.894 2.14783447587e-38
-0.0297811275891 -0.0430171842954 0.894 2.10177197366e-38
-0.0280322358683 -0.042872831328 0.891 2.10177183353e-38
-0.0263832808172 -0.042872831328 0.891 2.10173638068e-38
-0.0247343257662 -0.042872831328 0.891 2.14783419561e-38
-0.0230853707151 -0.042872831328 0.891 2.17549288457e-38
-0.021436415664 -0.042872831328 0.891 2.12939506964e-38
-0.0197874606129 -0.042872831328 0.891 2.11095594367e-38
-0.0181385055618 -0.042872831328 0.891 2.07407769172e-38
-0.0164895505108 -0.042872831328 0.891 2.12017550665e-38
-0.0148405954597 -0.042872831328 0.891 2.09251681769e-38
-0.0131916404086 -0.042872831328 0.891 2.11095622392e-38
-0.0115426853575 -0.042872831328 0.891 2.10173638068e-38
-0.00989373030646 -0.042872831328 0.891 2.14786978859e-38
-0.00822626846469 -0.0427765960164 0.889 2.06489358158e-38
-0.00658101477175 -0.0427765960164 0.889 2.02805092262e-38
-0.00493576107881 -0.0427765960164 0.889 2.13865008548e-38
-0.00329050738588 -0.0427765960164 0.889 2.10173638068e-38
-0.00164525369294 -0.0427765960164 0.889 2.1293953499e-38
0.0 -0.0426803607048 0.887 2.13857974029e-38
0.0016415523348 -0.0426803607048 0.887 2.11102881119e-38
0.0032831046696 -0.0426803607048 0.887 2.09262527819e-38
0.00492465700439 -0.0426803607048 0.887 2.0741855917e-38
0.00656620933919 -0.0426803607048 0.887 2.09266017053e-38
0.00818925488329 -0.0425841253931 0.885 2.08344060754e-38
0.00982710585995 -0.0425841253931 0.885 2.09266031066e-38
0.0114260925761 -0.0424397724257 0.882 2.02812336975e-38
0.0130583915156 -0.0424397724257 0.882 2.10170036731e-38
0.014690690455 -0.0424397724257 0.882 2.11091993029e-38
0.0163229893945 -0.0424397724257 0.882 2.12013921302e-38
0.0179145733944 -0.0423435371141 0.88 2.12935877601e-38
0.0195431709757 -0.0423435371141 0.88 2.05560213199e-38
0.021171768557 -0.0423435371141 0.88 2.05563772497e-38
0.0227485471244 -0.0422473018025 0.878 2.08329641393e-38
0.0243734433476 -0.0422473018025 0.878 2.08329641393e-38
0.0259983395707 -0.0422473018025 0.878 2.12013921302e-38
0.0276232357939 -0.0422473018025 0.878 2.10170008705e-38
0.0291481953473 -0.042102948835 0.875 2.05560213199e-38
0.0307675395333 -0.042102948835 0.875 2.09251597691e-38
0.0323868837192 -0.042102948835 0.875 2.03719831874e-38
0.0339284993843 -0.0420067135234 0.873 2.1017355399e-38
0.035462712333 -0.0419104782118 0.871 1.99106533121e-38
0.0370746538027 -0.0419104782118 0.871 2.08326124134e-38
0.0385977626771 -0.0418142429001 0.869 2.09251597691e-38
0.0402060027886 -0.0418142429001 0.869 1.97266137783e-38
0.0415736546211 -0.0415736546211 0.864 2.05563772497e-38
0.0431726413373 -0.0415736546211 0.864 2.046382569e-38
0.0446679900256 -0.0414774193095 0.862 1.98184576823e-38
0.0461559359976 -0.0413811839978 0.86 2.02794386342e-38
0.0476364792533 -0.0412849486862 0.858 2.06478652238e-38
0.0491096197928 -0.0411887133746 0.856 2.10166477433e-38
0.0506938010764 -0.0411887133746 0.856 2.09255241067e-38
0.0521558375415 -0.041092478063 0.854 2.09258968521e-38
0.053736317467 -0.041092478063 0.854 2.35091653477e-38
-0.0801325530377 -0.0392806632538 0.849 2.04656207533e-38
-0.0785613265075 -0.0392806632538 0.849 1.76061142915e-38
-0.0771714665262 -0.0393731972073 0.851 2.14776118796e-38
-0.0755965386379 -0.0393731972073 0.851 1.86199130927e-38
-0.0742825564985 -0.0395119981375 0.854 1.89886970135e-38
-0.0728723390474 -0.039604532091 0.856 1.91730882732e-38
-0.07145471888 -0.0396970660444 0.858 1.92652867057e-38
-0.0698668362382 -0.0396970660444 0.858 1.92649307759e-38
-0.0685972703964 -0.0398821339514 0.862 2.00024958148e-38
-0.067390627643 -0.0401134688351 0.867 1.95415204681e-38
-0.0657860888896 -0.0401134688351 0.867 1.96337160979e-38
-0.0643296044618 -0.0402060027886 0.869 1.97266249887e-38
-0.0630100702851 -0.0403910706956 0.873 1.95425896588e-38
-0.0615350790666 -0.0404836046491 0.875 1.96344293588e-38
-0.0601211602573 -0.0406224055793 0.878 1.98184604849e-38
-0.0586295129272 -0.0407149395328 0.88 2.00021356811e-38
-0.0570009153459 -0.0407149395328 0.88 2.073970072e-38
-0.0554981639413 -0.0408074734862 0.882 2.0554233263e-38
-0.0540490822297 -0.0409462744165 0.885 2.09226598527e-38
-0.0525296747135 -0.04103880837 0.887 2.0555669594e-38
-0.0508881223787 -0.04103880837 0.887 2.09251681769e-38
-0.0492465700439 -0.04103880837 0.887 2.04641900276e-38
-0.0478196964812 -0.0412238762769 0.891 2.12939506964e-38
-0.0461707414302 -0.0412238762769 0.891 2.12017550665e-38
-0.0445217863791 -0.0412238762769 0.891 2.13861463262e-38
-0.0430171842954 -0.0413626772071 0.894 2.1570537586e-38
-0.0413626772071 -0.0413626772071 0.894 2.09251681769e-38
-0.0397081701189 -0.0413626772071 0.894 2.09255241067e-38
-0.0380536630306 -0.0413626772071 0.894 2.06489372171e-38
-0.0363991559423 -0.0413626772071 0.894 2.12017578691e-38
-0.034744648854 -0.0413626772071 0.894 2.11095650418e-38
-0.0330901417657 -0.0413626772071 0.894 2.09248178523e-38
-0.0314356346774 -0.0413626772071 0.894 2.07407797198e-38
-0.0297811275891 -0.0413626772071 0.894 2.10173638068e-38
-0.0281266205009 -0.0413626772071 0.894 2.13865008548e-38
-0.0263832808172 -0.0412238762769 0.891 2.10173638068e-38
-0.0247343257662 -0.0412238762769 0.891 2.12017550665e-38
-0.0230853707151 -0.0412238762769 0.891 2.13861463262e-38
-0.0215085921477 -0.0413626772071 0.894 2.10173638068e-38
-0.0198540850594 -0.0413626772071 0.894 2.09251681769e-38
-0.0181385055618 -0.0412238762769 0.891 2.12017550665e-38
-0.0164895505108 -0.0412238762769 0.891 2.11095594367e-38
-0.0148405954597 -0.0412238762769 0.891 2.06485812873e-38
-0.0131916404086 -0.0412238762769 0.891 2.09251709795e-38
-0.0115426853575 -0.0412238762769 0.891 2.12017550665e-38
-0.00989373030646 -0.0412238762769 0.891 2.16630891456e-38
-0.00822626846469 -0.0411313423234 0.889 2.08336830054e-38
-0.00658101477175 -0.0411313423234 0.889 2.1110269895e-38
-0.00493576107881 -0.0411313423234 0.889 2.16630877443e-38
-0.00329050738588 -0.0411313423234 0.889 2.09251681769e-38
-0.00164525369294 -0.0411313423234 0.889 2.1293953499e-38
0.0 -0.04103880837 0.887 2.11102895132e-38
0.0016415523348 -0.04103880837 0.887 2.10180938833e-38
0.0032831046696 -0.04103880837 0.887 2.10184484118e-38
0.00492465700439 -0.04103880837 0.887 2.10184428066e-38
0.00656620933919 -0.04103880837 0.887 2.09266017053e-38
0.00818925488329 -0.0409462744165 0.885 2.08344060754e-38
0.00982710585995 -0.0409462744165 0.885 2.1110992965e-38
0.0114649568366 -0.0409462744165 0.885 2.08344074767e-38
0.0130583915156 -0.0408074734862 0.882 2.11091993029e-38
0.014690690455 -0.0408074734862 0.882 2.12013949328e-38
0.0163229893945 -0.0408074734862 0.882 2.10170008705e-38
0.0179145733944 -0.0407149395328 0.88 2.08326096108e-38
0.0195431709757 -0.0407149395328 0.88 2.14779776185e-38
0.021171768557 -0.0407149395328 0.88 2.09251597691e-38
0.0228003661383 -0.0407149395328 0.88 2.09251597691e-38
0.0244289637197 -0.0407149395328 0.88 2.09251569665e-38
0.0259983395707 -0.0406224055793 0.878 2.12021109963e-38
0.0276232357939 -0.0406224055793 0.878 2.10177197366e-38
0.0292481320171 -0.0406224055793 0.878 2.02801532964e-38
0.0307675395333 -0.0404836046491 0.875 2.05570933132e-38
0.0323868837192 -0.0404836046491 0.875 2.00961151639e-38
0.0339284993843 -0.0403910706956 0.873 2.08336830054e-38
0.035462712333 -0.0402985367421 0.871 1.99113721782e-38
0.0370746538027 -0.0402985367421 0.871 2.07407769172e-38
0.0385977626771 -0.0402060027886 0.869 2.11095482263e-38
0.0402060027886 -0.0402060027886 0.869 2.04641788172e-38
0.0417180075885 -0.0401134688351 0.867 2.06485728795e-38
0.0431726413373 -0.0399746679049 0.864 2.02794344303e-38
0.0446679900256 -0.0398821339514 0.862 2.04638270913e-38
0.0461559359976 -0.0397895999979 0.86 2.08326124134e-38
0.0476364792533 -0.0396970660444 0.858 2.15698215225e-38
0.0491096197928 -0.039604532091 0.856 2.16620171523e-38
0.050575357616 -0.0395119981375 0.854 2.0741132847e-38
0.0521558375415 -0.0395119981375 0.854 2.20329632766e-38
0.053736317467 -0.0395119981375 0.854 2.12035529324e-38
-0.0815113089446 -0.0376206041283 0.847 2.35088010101e-38
-0.0799437837726 -0.0376206041283 0.847 1.12449829711e-38
-0.0785613265075 -0.0377094367236 0.849 2.35073604753e-38
-0.0771714665262 -0.037798269319 0.851 1.98191751471e-38
-0.0755965386379 -0.037798269319 0.851 1.79745436837e-38
-0.0742825564985 -0.037931518212 0.854 1.88964999823e-38
-0.0728723390474 -0.0380203508073 0.856 1.90808926434e-38
-0.0712881577637 -0.0380203508073 0.856 1.83429744772e-38
-0.0700296959964 -0.038198015998 0.86 1.93571264057e-38
-0.0687564287964 -0.0383756811887 0.864 1.9080895446e-38
-0.067390627643 -0.0385089300817 0.867 1.92652839031e-38
-0.0657860888896 -0.0385089300817 0.867 1.92656384316e-38
-0.0643296044618 -0.0385977626771 0.869 2.00943257057e-38
-0.0630100702851 -0.0387754278677 0.873 1.98177416187e-38
-0.0615350790666 -0.0388642604631 0.875 2.05553066577e-38
-0.0601211602573 -0.0389975093561 0.878 2.08318935472e-38
