# .PCD v0.7 - Point Cloud Data file format
VERSION 0.7
FIELDS x y z rgb
SIZE 4 4 4 4
TYPE F F F F
COUNT 1 1 1 1
WIDTH 836
HEIGHT 1
VIEWPOINT 0 0 0 1 0 0 0
POINTS 836
DATA ascii
0.0225153615616 -0.056288403904 0.869 1.90808926434e-38
0.0240680813011 -0.0561588563692 0.867 1.88043085564e-38
0.0255837874591 -0.0559645350669 0.864 1.9172735146e-38
0.0270569279986 -0.0557054399971 0.86 1.92652867057e-38
0.0286485119985 -0.0557054399971 0.86 1.93574795329e-38
-0.0746304841636 -0.0539880098204 0.858 1.66838090695e-38
-0.0728723390474 -0.0538621636437 0.856 2.25839762535e-38
-0.0712881577637 -0.0538621636437 0.856 2.000250142e-38
-0.0700296959964 -0.0541138559972 0.86 1.97251956643e-38
-0.0684381119964 -0.0541138559972 0.86 1.85266496734e-38
-0.0670019850384 -0.0542397021739 0.862 1.9356766272e-38
-0.065558455364 -0.0543655483507 0.864 1.91723694071e-38
-0.0641815501362 -0.0545543176158 0.867 1.898798095e-38
-0.0625770113828 -0.0545543176158 0.867 1.90801765798e-38
-0.0611131242387 -0.0546801637925 0.869 1.89879781474e-38
-0.0595048841271 -0.0546801637925 0.869 1.96337048875e-38
-0.0580298929086 -0.0548060099692 0.871 1.89883326759e-38
-0.0564179514389 -0.0548060099692 0.871 1.96337048875e-38
-0.054931856146 -0.054931856146 0.873 1.96333475564e-38
-0.0534383581368 -0.0550577023227 0.875 1.92645678396e-38
-0.0518190139508 -0.0550577023227 0.875 2.00950445719e-38
-0.0501996697648 -0.0550577023227 0.875 1.92652839031e-38
-0.0485803255789 -0.0550577023227 0.875 1.93571264057e-38
-0.047121990472 -0.0552464715878 0.878 1.97259117278e-38
-0.0454970942488 -0.0552464715878 0.878 1.95415204681e-38
-0.0439721346954 -0.0553723177646 0.88 1.92649307759e-38
-0.0423435371141 -0.0553723177646 0.88 1.93574823355e-38
-0.0407149395328 -0.0553723177646 0.88 1.97262606511e-38
-0.0391751745468 -0.0554981639413 0.882 2.0002848942e-38
-0.0376705724632 -0.0556869332064 0.885 1.98184576823e-38
-0.0360327214865 -0.0556869332064 0.885 2.0002848942e-38
-0.0343948705098 -0.0556869332064 0.885 1.99106533121e-38
-0.0327570195332 -0.0556869332064 0.885 1.99106533121e-38
-0.0311894943612 -0.0558127793831 0.887 1.99106533121e-38
-0.0296145664729 -0.0559386255599 0.889 1.99106533121e-38
-0.0279693127799 -0.0559386255599 0.889 1.97262620524e-38
-0.0263832808172 -0.0560644717366 0.891 2.03709125953e-38
-0.0247343257662 -0.0560644717366 0.891 2.03709125953e-38
-0.0230853707151 -0.0560644717366 0.891 2.00943285083e-38
-0.0215567098035 -0.0563790871785 0.896 2.04631138304e-38
-0.0198985013571 -0.0563790871785 0.896 1.99099400512e-38
-0.0182402929107 -0.0563790871785 0.896 2.02787169655e-38
-0.0165820844643 -0.0563790871785 0.896 2.04634655563e-38
-0.0149238760178 -0.0563790871785 0.896 1.96337020849e-38
-0.0132656675714 -0.0563790871785 0.896 1.96340650212e-38
-0.011607459125 -0.0563790871785 0.896 1.97269795172e-38
-0.00994925067855 -0.0563790871785 0.896 2.02801532964e-38
-0.00827253544143 -0.0562532410017 0.894 2.00957620367e-38
-0.00659582020431 -0.0560644717366 0.891 1.99113707769e-38
-0.00493576107881 -0.0559386255599 0.889 2.02801532964e-38
-0.00329050738588 -0.0559386255599 0.889 1.99113707769e-38
-0.00164525369294 -0.0559386255599 0.889 1.98191751471e-38
0.0 -0.0558127793831 0.887 2.01868758641e-38
0.0016415523348 -0.0558127793831 0.887 2.00946830368e-38
0.0032831046696 -0.0558127793831 0.887 2.04634655563e-38
0.00491355292998 -0.0556869332064 0.885 2.02790742966e-38
0.00655140390664 -0.0556869332064 0.885 1.96333475564e-38
0.00816149469725 -0.0554981639413 0.882 1.95411519266e-38
0.00977158548786 -0.0553723177646 0.88 1.97255459889e-38
0.0113742735622 -0.0552464715878 0.878 1.98177416187e-38
0.0129991697854 -0.0552464715878 0.878 1.93574781316e-38
0.0145740976737 -0.0550577023227 0.875 1.92656384316e-38
0.0161564282782 -0.054931856146 0.873 1.95422225186e-38
0.0177720711061 -0.054931856146 0.873 1.97266109757e-38
0.0193432976362 -0.0548060099692 0.871 1.94500268887e-38
0.0209552391059 -0.0548060099692 0.871 1.93574781316e-38
0.0225153615616 -0.0546801637925 0.869 1.95418707927e-38
0.0240680813011 -0.0545543176158 0.867 1.93574823355e-38
0.0255837874591 -0.0543655483507 0.864 1.91720190825e-38
0.0270569279986 -0.0541138559972 0.86 1.90801793824e-38
0.0286485119985 -0.0541138559972 0.86 1.88965041862e-38
0.0303104218031 -0.0542397021739 0.862 1.93574795329e-38
-0.0801325530377 -0.051850475495 0.849 2.20347555373e-38
-0.0785613265075 -0.051850475495 0.849 2.35098856151e-38
-0.0771714665262 -0.0519726203136 0.851 1.19854318822e-38
-0.075863036424 -0.0521558375415 0.854 2.35073660805e-38
-0.074456520331 -0.0522779823601 0.856 2.23981402551e-38
-0.0730426015218 -0.0524001271787 0.858 1.9908863854e-38
-0.07145471888 -0.0524001271787 0.858 1.76968918073e-38
-0.0698668362382 -0.0524001271787 0.858 1.91720218851e-38
-0.0684381119964 -0.0525222719973 0.86 1.93571292083e-38
-0.0670019850384 -0.0526444168159 0.862 1.96337132953e-38
-0.065558455364 -0.0527665616345 0.864 1.90808926434e-38
-0.0641815501362 -0.0529497788624 0.867 1.91723694071e-38
-0.0625770113828 -0.0529497788624 0.867 1.9264565037e-38
-0.0611131242387 -0.053071923681 0.869 1.91727267382e-38
-0.0596418343783 -0.0531940684996 0.871 1.95415064551e-38
-0.0581631418016 -0.0533162133182 0.873 1.97258949122e-38
-0.0565474989738 -0.0533162133182 0.873 1.94493108252e-38
-0.0550577023227 -0.0534383581368 0.875 1.90805311084e-38
-0.0534383581368 -0.0534383581368 0.875 1.93567606668e-38
-0.0518190139508 -0.0534383581368 0.875 1.94496737615e-38
-0.0503717829183 -0.0536215753646 0.878 1.94496751628e-38
-0.0487468866951 -0.0536215753646 0.878 2.00024958148e-38
-0.047121990472 -0.0536215753646 0.878 1.99103029875e-38
-0.0454970942488 -0.0536215753646 0.878 2.01868898771e-38
-0.0439721346954 -0.0537437201832 0.88 1.9818104555e-38
-0.0424397724257 -0.0538658650018 0.882 2.00028517446e-38
-0.0408074734862 -0.0538658650018 0.882 2.01872388004e-38
-0.0391751745468 -0.0538658650018 0.882 1.97262620524e-38
-0.0376705724632 -0.0540490822297 0.885 1.99106533121e-38
-0.0360327214865 -0.0540490822297 0.885 1.99106533121e-38
-0.0343948705098 -0.0540490822297 0.885 1.98184576823e-38
-0.032831046696 -0.0541712270483 0.887 1.99106533121e-38
-0.0311894943612 -0.0541712270483 0.887 2.01872402017e-38
-0.0296145664729 -0.0542933718669 0.889 2.03716314614e-38
-0.0279693127799 -0.0542933718669 0.889 2.01872402017e-38
-0.0263832808172 -0.0544155166855 0.891 2.00946830368e-38
-0.0247343257662 -0.0544155166855 0.891 2.04631082252e-38
-0.023163099236 -0.0545987339134 0.894 2.01865269408e-38
-0.0215567098035 -0.054720878732 0.896 2.083154042e-38
-0.0198985013571 -0.054720878732 0.896 2.00943313109e-38
-0.0182402929107 -0.054720878732 0.896 2.02787197681e-38
-0.0165820844643 -0.054720878732 0.896 2.04634655563e-38
-0.0149238760178 -0.054720878732 0.896 2.09244381004e-38
-0.0132656675714 -0.054720878732 0.896 1.9818456281e-38
-0.011607459125 -0.054720878732 0.896 2.06489358158e-38
-0.00994925067855 -0.054720878732 0.896 2.06489358158e-38
-0.00827253544143 -0.0545987339134 0.894 2.04645445561e-38
-0.00659582020431 -0.0544155166855 0.891 2.07411314457e-38
-0.00493576107881 -0.0542933718669 0.889 2.04645445561e-38
-0.00329050738588 -0.0542933718669 0.889 2.10177183353e-38
-0.00164525369294 -0.0542933718669 0.889 2.04645445561e-38
0.0 -0.0542933718669 0.889 2.0647856816e-38
0.0016415523348 -0.0541712270483 0.887 2.00946830368e-38
0.0032831046696 -0.0541712270483 0.887 2.01868786667e-38
0.00492465700439 -0.0541712270483 0.887 1.95415092577e-38
0.00655140390664 -0.0540490822297 0.885 2.06474994849e-38
0.00816149469725 -0.0538658650018 0.882 2.01865213356e-38
0.0097937936367 -0.0538658650018 0.882 2.03709153979e-38
0.0113742735622 -0.0536215753646 0.878 2.03709153979e-38
0.0129991697854 -0.0536215753646 0.878 2.00028475407e-38
0.0145740976737 -0.0534383581368 0.875 2.00032006679e-38
0.0161564282782 -0.0533162133182 0.873 2.00953962978e-38
0.0177720711061 -0.0533162133182 0.873 1.97266109757e-38
0.0193432976362 -0.0531940684996 0.871 1.94500268887e-38
0.0209552391059 -0.0531940684996 0.871 1.95418693914e-38
0.0225153615616 -0.053071923681 0.869 1.89886970135e-38
0.0240680813011 -0.0529497788624 0.867 1.92649307759e-38
0.0256726200545 -0.0529497788624 0.867 1.98173912941e-38
0.0271827741753 -0.0527665616345 0.864 1.98173884915e-38
0.028715136445 -0.0526444168159 0.862 1.9633350359e-38
0.0303104218031 -0.0526444168159 0.862 1.94496751628e-38
0.0319057071611 -0.0526444168159 0.862 1.99106519108e-38
-0.083275006098 -0.0502792489648 0.849 2.35084506855e-38
-0.0817037795678 -0.0502792489648 0.849 2.35091681503e-38
-0.0801325530377 -0.0502792489648 0.849 2.05578205871e-38
-0.0785613265075 -0.0502792489648 0.849 1.438107352e-38
-0.0771714665262 -0.0503976924253 0.851 2.35095212775e-38
-0.075863036424 -0.050575357616 0.854 1.91738071393e-38
-0.074456520331 -0.0506938010764 0.856 1.83433276044e-38
-0.0730426015218 -0.0508122445369 0.858 1.88965041862e-38
-0.07145471888 -0.0508122445369 0.858 1.89883438863e-38
-0.0698668362382 -0.0508122445369 0.858 1.95415176655e-38
-0.0684381119964 -0.0509306879973 0.86 1.94486059721e-38
-0.0670019850384 -0.0510491314578 0.862 2.00939753811e-38
-0.065558455364 -0.0511675749183 0.864 1.91720190825e-38
-0.0641815501362 -0.051345240109 0.867 1.87121101239e-38
-0.0627213643502 -0.0514636835694 0.869 1.88964999823e-38
-0.061253775848 -0.0515821270299 0.871 1.90808912421e-38
-0.0596418343783 -0.0515821270299 0.871 1.92652825018e-38
-0.0581631418016 -0.0517005704903 0.873 1.98184576823e-38
-0.0566770465087 -0.0518190139508 0.875 1.96340664225e-38
-0.0550577023227 -0.0518190139508 0.875 2.04638298939e-38
-0.0534383581368 -0.0518190139508 0.875 1.94496779654e-38
-0.0519966791415 -0.0519966791415 0.878 2.00021300759e-38
-0.0503717829183 -0.0519966791415 0.878 2.00943257057e-38
-0.0487468866951 -0.0519966791415 0.878 1.97255431863e-38
-0.047121990472 -0.0519966791415 0.878 1.99099372486e-38
-0.0456007322767 -0.0521151226019 0.88 1.95411547292e-38
-0.0439721346954 -0.0521151226019 0.88 1.90801765798e-38
-0.0424397724257 -0.0522335660624 0.882 2.04631082252e-38
-0.0408074734862 -0.0522335660624 0.882 1.97255431863e-38
-0.0393084234398 -0.0524112312531 0.885 2.00950431706e-38
-0.0376705724632 -0.0524112312531 0.885 2.03716314614e-38
-0.0360327214865 -0.0524112312531 0.885 2.01872430043e-38
-0.0344725990308 -0.0525296747135 0.887 2.00946914446e-38
-0.032831046696 -0.0525296747135 0.887 1.97259089252e-38
-0.0311894943612 -0.0525296747135 0.887 2.00024958148e-38
-0.0296145664729 -0.052648118174 0.889 2.0648218351e-38
-0.0279693127799 -0.052648118174 0.889 2.02794344303e-38
-0.0263832808172 -0.0527665616345 0.891 2.03719831874e-38
-0.0248176063243 -0.0529442268251 0.894 2.00953991004e-38
-0.023163099236 -0.0529442268251 0.894 2.05560227212e-38
-0.0215567098035 -0.0530626702856 0.896 2.0371634264e-38
-0.0198985013571 -0.0530626702856 0.896 2.14776258926e-38
-0.0182402929107 -0.0530626702856 0.896 2.04634739641e-38
-0.0165820844643 -0.0530626702856 0.896 2.09248080432e-38
-0.0149238760178 -0.0530626702856 0.896 2.03716314614e-38
-0.0132656675714 -0.0530626702856 0.896 2.02794358316e-38
-0.011607459125 -0.0530626702856 0.896 2.00028517446e-38
-0.00994925067855 -0.0530626702856 0.896 2.10170008705e-38
-0.00829104223213 -0.0530626702856 0.896 2.07404125796e-38
-0.00659582020431 -0.0527665616345 0.891 2.06482169497e-38
-0.00494686515323 -0.0527665616345 0.891 2.037198599e-38
-0.00329050738588 -0.052648118174 0.889 2.05563772497e-38
-0.00164525369294 -0.052648118174 0.889 2.06485728795e-38
0.0 -0.052648118174 0.889 2.1017355399e-38
0.0016415523348 -0.0525296747135 0.887 2.02797903601e-38
0.0032831046696 -0.0525296747135 0.887 2.06485728795e-38
0.00492465700439 -0.0525296747135 0.887 2.02794344303e-38
0.00655140390664 -0.0524112312531 0.885 1.97262606511e-38
0.00816149469725 -0.0522335660624 0.882 2.01872402017e-38
0.0097937936367 -0.0522335660624 0.882 1.92652867057e-38
0.0113742735622 -0.0519966791415 0.878 1.99106561147e-38
0.0129991697854 -0.0519966791415 0.878 1.94496737615e-38
0.0145740976737 -0.0518190139508 0.875 2.00028475407e-38
0.0161934418596 -0.0518190139508 0.875 2.04638270913e-38
0.0177720711061 -0.0517005704903 0.873 2.02794358316e-38
0.0193432976362 -0.0515821270299 0.871 1.93574795329e-38
0.0209552391059 -0.0515821270299 0.871 2.00950431706e-38
0.0225153615616 -0.0514636835694 0.869 1.93578340615e-38
0.0240680813011 -0.051345240109 0.867 1.94500268887e-38
0.0256726200545 -0.051345240109 0.867 2.0002848942e-38
0.0272771588079 -0.051345240109 0.867 1.94496779654e-38
0.028715136445 -0.0510491314578 0.862 1.95418707927e-38
0.0303104218031 -0.0510491314578 0.862 1.91730882732e-38
0.0319057071611 -0.0510491314578 0.862 1.89886970135e-38
0.0335009925192 -0.0510491314578 0.862 1.94496751628e-38
0.0350962778772 -0.0510491314578 0.862 1.89886970135e-38
-0.083275006098 -0.0487080224347 0.849 2.23088327014e-38
-0.0817037795678 -0.0487080224347 0.849 1.58536924709e-38
-0.0801325530377 -0.0487080224347 0.849 2.02794344303e-38
-0.0787463944145 -0.048822764537 0.851 2.24928484131e-38
-0.0774435163495 -0.0489948776905 0.854 1.85295167301e-38
-0.075863036424 -0.0489948776905 0.854 1.90816115095e-38
-0.0746304841636 -0.0492243618951 0.858 1.89894158796e-38
-0.0730426015218 -0.0492243618951 0.858 1.87121129265e-38
-0.07145471888 -0.0492243618951 0.858 1.92652867057e-38
-0.0698668362382 -0.0492243618951 0.858 1.87121129265e-38
-0.0684381119964 -0.0493391039974 0.86 1.97255487915e-38
-0.0670019850384 -0.0494538460997 0.862 1.90801793824e-38
-0.065558455364 -0.0495685882021 0.864 1.90801793824e-38
-0.0641815501362 -0.0497407013555 0.867 1.93574795329e-38
-0.0627213643502 -0.0498554434579 0.869 1.95418693914e-38
-0.061253775848 -0.0499701855602 0.871 1.97262606511e-38
-0.0597787846294 -0.0500849276625 0.873 1.96340664225e-38
-0.0581631418016 -0.0500849276625 0.873 1.95418735953e-38
-0.0566770465087 -0.0501996697648 0.875 1.95418735953e-38
-0.0550577023227 -0.0501996697648 0.875 1.9818104555e-38
-0.0534383581368 -0.0501996697648 0.875 1.92649307759e-38
-0.0519966791415 -0.0503717829183 0.878 1.9633350359e-38
-0.0503717829183 -0.0503717829183 0.878 1.9909934446e-38
-0.0487468866951 -0.0503717829183 0.878 1.98177388162e-38
-0.047121990472 -0.0503717829183 0.878 2.03709125953e-38
-0.0456007322767 -0.0504865250206 0.88 2.07396951148e-38
-0.0439721346954 -0.0504865250206 0.88 1.97255431863e-38
-0.0424397724257 -0.0506012671229 0.882 2.03709125953e-38
-0.0408074734862 -0.0506012671229 0.882 2.03709125953e-38
-0.0393084234398 -0.0507733802764 0.885 2.046382569e-38
-0.0376705724632 -0.0507733802764 0.885 2.02794358316e-38
-0.0360327214865 -0.0507733802764 0.885 1.9818104555e-38
-0.0344725990308 -0.0508881223787 0.887 2.01868898771e-38
-0.032831046696 -0.0508881223787 0.887 2.03712811368e-38
-0.0312598201658 -0.0510028644811 0.889 2.06478652238e-38
-0.0296811909194 -0.0511176065834 0.891 2.00028517446e-38
-0.0280322358683 -0.0511176065834 0.891 2.01872388004e-38
-0.0264721134126 -0.0512897197369 0.894 2.00032006679e-38
-0.0248176063243 -0.0512897197369 0.894 2.04641816198e-38
-0.023163099236 -0.0512897197369 0.894 2.04638270913e-38
-0.0215567098035 -0.0514044618392 0.896 2.01872430043e-38
-0.0198985013571 -0.0514044618392 0.896 2.11088433731e-38
-0.0182402929107 -0.0514044618392 0.896 2.04634739641e-38
-0.0165820844643 -0.0514044618392 0.896 2.06478652238e-38
-0.0149238760178 -0.0514044618392 0.896 2.06482211536e-38
-0.0132656675714 -0.0514044618392 0.896 2.0371634264e-38
-0.011607459125 -0.0514044618392 0.896 2.00028517446e-38
-0.00994925067855 -0.0514044618392 0.896 2.09248052406e-38
-0.00829104223213 -0.0514044618392 0.896 2.04638270913e-38
-0.00661802835314 -0.0512897197369 0.894 2.09248038393e-38
-0.00494686515323 -0.0511176065834 0.891 2.11095510289e-38
-0.00329050738588 -0.0510028644811 0.889 2.05563772497e-38
-0.00164525369294 -0.0510028644811 0.889 2.02797903601e-38
0.0 -0.0510028644811 0.889 2.02805092262e-38
0.0016415523348 -0.0508881223787 0.887 2.09258786352e-38
0.0032831046696 -0.0508881223787 0.887 2.02805092262e-38
0.00492465700439 -0.0508881223787 0.887 1.98191751471e-38
0.00655140390664 -0.0507733802764 0.885 2.09255241067e-38
0.00818925488329 -0.0507733802764 0.885 2.02801546977e-38
0.0097937936367 -0.0506012671229 0.882 2.04641900276e-38
0.0114001830692 -0.0504865250206 0.88 2.00954075082e-38
0.0129991697854 -0.0503717829183 0.878 2.04638270913e-38
0.0146240660085 -0.0503717829183 0.878 2.01872402017e-38
0.0161934418596 -0.0501996697648 0.875 2.00028517446e-38
0.0177720711061 -0.0500849276625 0.873 2.02794386342e-38
0.0193432976362 -0.0499701855602 0.871 2.01872430043e-38
0.0209552391059 -0.0499701855602 0.871 1.93574795329e-38
0.0225153615616 -0.0498554434579 0.869 1.97266137783e-38
0.0241236016732 -0.0498554434579 0.869 2.0187589125e-38
0.0256726200545 -0.0497407013555 0.867 1.95418693914e-38
0.0272771588079 -0.0497407013555 0.867 1.93574795329e-38
0.028715136445 -0.0494538460997 0.862 1.91730882732e-38
0.0303104218031 -0.0494538460997 0.862 1.95418707927e-38
0.0319057071611 -0.0494538460997 0.862 2.0002848942e-38
0.0335009925192 -0.0494538460997 0.862 1.89886970135e-38
0.0350962778772 -0.0494538460997 0.862 1.91730882732e-38
0.0366915632353 -0.0494538460997 0.862 1.90808926434e-38
-0.0818962501911 -0.0472478366487 0.851 2.35080877492e-38
-0.0803213223028 -0.0472478366487 0.851 2.09244437056e-38
-0.0787463944145 -0.0472478366487 0.851 1.88039442188e-38
-0.0774435163495 -0.047414397765 0.854 1.87121129265e-38
-0.0760407016146 -0.0475254385092 0.856 1.89890599498e-38
-0.0746304841636 -0.0476364792533 0.858 1.88046714927e-38
-0.0730426015218 -0.0476364792533 0.858 1.91730910758e-38
-0.07145471888 -0.0476364792533 0.858 1.9080895446e-38
-0.0698668362382 -0.0476364792533 0.858 1.92652867057e-38
-0.0685972703964 -0.0478585607417 0.862 1.94489590993e-38
-0.0670019850384 -0.0478585607417 0.862 1.92645678396e-38
-0.065558455364 -0.0479696014859 0.864 1.98177416187e-38
-0.0641815501362 -0.0481361626021 0.867 1.87121087226e-38
-0.0627213643502 -0.0482472033463 0.869 1.89886956122e-38
-0.061253775848 -0.0483582440905 0.871 1.93574795329e-38
-0.0597787846294 -0.0484692848347 0.873 1.94496751628e-38
-0.0582963906946 -0.0485803255789 0.875 1.96340664225e-38
-0.0566770465087 -0.0485803255789 0.875 1.9726264855e-38
-0.0550577023227 -0.0485803255789 0.875 1.98184604849e-38
-0.0536215753646 -0.0487468866951 0.878 1.95418735953e-38
-0.0519966791415 -0.0487468866951 0.878 1.98177388162e-38
-0.0503717829183 -0.0487468866951 0.878 2.00021300759e-38
-0.0487468866951 -0.0487468866951 0.878 1.9909934446e-38
-0.047229329858 -0.0488579274393 0.88 2.03709125953e-38
-0.0457043703046 -0.0489689681835 0.882 2.09240863745e-38
-0.0440720713651 -0.0489689681835 0.882 1.9909934446e-38
-0.0425841253931 -0.0491355292998 0.885 1.98177388162e-38
-0.0409462744165 -0.0491355292998 0.885 2.02787169655e-38
-0.0393084234398 -0.0491355292998 0.885 2.00950431706e-38
-0.0377557037004 -0.0492465700439 0.887 2.02794358316e-38
-0.0361141513656 -0.0492465700439 0.887 2.01868870745e-38
-0.0344725990308 -0.0492465700439 0.887 2.01868898771e-38
-0.032831046696 -0.0492465700439 0.887 2.01868898771e-38
-0.0312598201658 -0.0493576107881 0.889 2.08322564835e-38
-0.0296811909194 -0.0494686515323 0.891 2.01872430043e-38
-0.0280322358683 -0.0494686515323 0.891 2.12935863588e-38
-0.0264721134126 -0.0496352126486 0.894 2.01875919276e-38
-0.0248176063243 -0.0496352126486 0.894 2.1017355399e-38
-0.023163099236 -0.0496352126486 0.894 2.08326096108e-38
-0.0215567098035 -0.0497462533928 0.896 2.07404167835e-38
-0.0198985013571 -0.0497462533928 0.896 2.04634739641e-38
-0.0182810078502 -0.0498572941369 0.898 2.11088433731e-38
-0.0166190980456 -0.0498572941369 0.898 2.07400608537e-38
-0.0149571882411 -0.0498572941369 0.898 2.01872430043e-38
-0.0132656675714 -0.0497462533928 0.896 2.04638298939e-38
-0.011607459125 -0.0497462533928 0.896 2.01872402017e-38
-0.00994925067855 -0.0497462533928 0.896 2.12935877601e-38
-0.00829104223213 -0.0497462533928 0.896 2.09248052406e-38
-0.00661802835314 -0.0496352126486 0.894 2.03716300601e-38
-0.00494686515323 -0.0494686515323 0.891 2.11091950991e-38
-0.00329791010215 -0.0494686515323 0.891 2.08326082095e-38
-0.00164525369294 -0.0493576107881 0.889 2.11095510289e-38
0.0 -0.0493576107881 0.889 2.05570961158e-38
0.00164525369294 -0.0493576107881 0.889 2.04645445561e-38
0.0032831046696 -0.0492465700439 0.887 2.1202109595e-38
0.00492465700439 -0.0492465700439 0.887 2.08333270756e-38
0.00656620933919 -0.0492465700439 0.887 1.98191765484e-38
0.00818925488329 -0.0491355292998 0.885 2.09255241067e-38
0.0097937936367 -0.0489689681835 0.882 2.02801546977e-38
0.0114001830692 -0.0488579274393 0.88 2.08329725471e-38
0.0129991697854 -0.0487468866951 0.878 2.00950445719e-38
0.0146240660085 -0.0487468866951 0.878 2.00950445719e-38
0.0161934418596 -0.0485803255789 0.875 2.01872430043e-38
0.0177720711061 -0.0484692848347 0.873 2.02794386342e-38
0.0193877139339 -0.0484692848347 0.873 1.91730910758e-38
0.0209552391059 -0.0483582440905 0.871 2.01872402017e-38
0.0225671805756 -0.0483582440905 0.871 1.98188122108e-38
0.0241236016732 -0.0482472033463 0.869 1.9911005038e-38
0.0257318417847 -0.0482472033463 0.869 1.96340650212e-38
0.0272771588079 -0.0481361626021 0.867 2.01872402017e-38
0.028715136445 -0.0478585607417 0.862 1.98184576823e-38
0.0303104218031 -0.0478585607417 0.862 1.96340664225e-38
0.0319057071611 -0.0478585607417 0.862 1.96340664225e-38
0.0335009925192 -0.0478585607417 0.862 1.95418707927e-38
0.0350962778772 -0.0478585607417 0.862 1.94496751628e-38
0.0366915632353 -0.0478585607417 0.862 1.88043057538e-38
0.0382868485934 -0.0478585607417 0.862 1.84348043682e-38
-0.083275006098 -0.0455655693744 0.849 2.35080919531e-38
-0.0817037795678 -0.0455655693744 0.849 1.9632627289e-38
-0.0803213223028 -0.0456729087604 0.851 1.82493285035e-38
-0.0787463944145 -0.0456729087604 0.851 2.01857996669e-38
-0.0774435163495 -0.0458339178395 0.854 1.89869019502e-38
-0.0760407016146 -0.0459412572255 0.856 1.92649335785e-38
-0.0746304841636 -0.0460485966116 0.858 1.90812583823e-38
-0.0730426015218 -0.0460485966116 0.858 1.89883438863e-38
-0.07145471888 -0.0460485966116 0.858 1.92652867057e-38
-0.0698668362382 -0.0460485966116 0.858 2.04638270913e-38
-0.0685972703964 -0.0462632753836 0.862 1.9909934446e-38
-0.0671574420802 -0.0463706147697 0.864 1.93571179979e-38
-0.0657860888896 -0.0465316238487 0.867 1.94493136278e-38
-0.0641815501362 -0.0465316238487 0.867 1.9818456281e-38
-0.0627213643502 -0.0466389632348 0.869 1.94496751628e-38
-0.061253775848 -0.0467463026208 0.871 1.92652839031e-38
-0.0597787846294 -0.0468536420069 0.873 1.93574795329e-38
-0.0582963906946 -0.0469609813929 0.875 1.98184576823e-38
-0.0566770465087 -0.0469609813929 0.875 1.94496751628e-38
-0.0550577023227 -0.0469609813929 0.875 2.00950473744e-38
-0.0536215753646 -0.047121990472 0.878 1.9726264855e-38
-0.0519966791415 -0.047121990472 0.878 1.95411519266e-38
-0.0503717829183 -0.047121990472 0.878 1.98177388162e-38
-0.0487468866951 -0.047121990472 0.878 1.9909934446e-38
-0.047229329858 -0.047229329858 0.88 2.04631082252e-38
-0.0457043703046 -0.047336669244 0.882 2.05553038551e-38
-0.0440720713651 -0.047336669244 0.882 2.05553038551e-38
-0.0425841253931 -0.0474976783231 0.885 2.04631082252e-38
-0.0409462744165 -0.0474976783231 0.885 2.03709125953e-38
-0.0393972560352 -0.0476050177091 0.887 1.9818456281e-38
-0.0377557037004 -0.0476050177091 0.887 2.00950445719e-38
-0.0361141513656 -0.0476050177091 0.887 2.01868870745e-38
-0.0345503275517 -0.0477123570952 0.889 2.04634767667e-38
-0.0329050738588 -0.0477123570952 0.889 2.06478680264e-38
-0.0313301459705 -0.0478196964812 0.891 2.0555669594e-38
-0.0296811909194 -0.0478196964812 0.891 2.05560255238e-38
-0.0280322358683 -0.0478196964812 0.891 2.07404125796e-38
-0.0264721134126 -0.0479807055603 0.894 2.04641788172e-38
-0.0248176063243 -0.0479807055603 0.894 2.05563772497e-38
-0.023163099236 -0.0479807055603 0.894 2.09248052406e-38
-0.0215567098035 -0.0480880449463 0.896 2.12013949328e-38
-0.0199429176548 -0.0481953843324 0.898 2.0555669594e-38
-0.0182810078502 -0.0481953843324 0.898 2.15698215225e-38
-0.0166190980456 -0.0481953843324 0.898 2.0555669594e-38
-0.0149571882411 -0.0481953843324 0.898 2.06482211536e-38
-0.0132952784365 -0.0481953843324 0.898 2.0648218351e-38
-0.011607459125 -0.0480880449463 0.896 2.02794358316e-38
-0.00994925067855 -0.0480880449463 0.896 2.11091965003e-38
-0.00829104223213 -0.0480880449463 0.896 2.0648218351e-38
-0.00661802835314 -0.0479807055603 0.894 2.12935877601e-38
-0.00494686515323 -0.0478196964812 0.891 2.10170008705e-38
-0.00329050738588 -0.0477123570952 0.889 2.09248052406e-38
-0.00164525369294 -0.0477123570952 0.889 2.12935877601e-38
0.0 -0.0477123570952 0.889 2.2124067295e-38
0.00164525369294 -0.0477123570952 0.889 2.06489372171e-38
0.0032831046696 -0.0476050177091 0.887 2.12943066262e-38
0.00492465700439 -0.0476050177091 0.887 2.03723503276e-38
0.00655140390664 -0.0474976783231 0.885 2.09255241067e-38
0.00818925488329 -0.0474976783231 0.885 2.12943066262e-38
0.0097937936367 -0.047336669244 0.882 2.0095763438e-38
0.0114001830692 -0.047229329858 0.88 2.05567415873e-38
0.0130287806505 -0.047229329858 0.88 2.09248052406e-38
0.0146240660085 -0.047121990472 0.878 2.08326096108e-38
0.0161934418596 -0.0469609813929 0.875 2.0648218351e-38
0.0178127860456 -0.0469609813929 0.875 2.0371634264e-38
0.0193877139339 -0.0468536420069 0.873 2.04638270913e-38
0.0209552391059 -0.0467463026208 0.871 2.00950445719e-38
0.0225671805756 -0.0467463026208 0.871 2.046382569e-38
0.0241236016732 -0.0466389632348 0.869 2.00950431706e-38
0.0257318417847 -0.0466389632348 0.869 2.00950445719e-38
0.0272771588079 -0.0465316238487 0.867 2.00950445719e-38
0.0287817608915 -0.0463706147697 0.864 2.01872402017e-38
0.0303807476077 -0.0463706147697 0.864 1.98184576823e-38
0.0319057071611 -0.0462632753836 0.862 1.98184576823e-38
0.0335009925192 -0.0462632753836 0.862 1.94496751628e-38
0.0350148479982 -0.0461559359976 0.86 2.0002848942e-38
0.0366064319981 -0.0461559359976 0.86 1.95418707927e-38
0.038198015998 -0.0461559359976 0.86 1.93571179979e-38
0.0397895999979 -0.0461559359976 0.86 1.93574781316e-38
-0.0862138844606 -0.0438907048163 0.847 1.8436967973e-38
-0.0846463592886 -0.0438907048163 0.847 2.35055780237e-38
-0.083275006098 -0.0439943428442 0.849 1.90787472554e-38
-0.0817037795678 -0.0439943428442 0.849 1.92631259034e-38
-0.0803213223028 -0.0440979808721 0.851 1.94478716917e-38
-0.0787463944145 -0.0440979808721 0.851 1.85255594632e-38
-0.0774435163495 -0.044253437914 0.854 1.99088610514e-38
-0.0760407016146 -0.0443570759419 0.856 1.90805395161e-38
-0.0746304841636 -0.0444607139698 0.858 1.94500409017e-38
-0.0730426015218 -0.0444607139698 0.858 1.96340692251e-38
-0.07145471888 -0.0444607139698 0.858 1.95418735953e-38
-0.0700296959964 -0.0445643519977 0.86 1.92652839031e-38
-0.0687564287964 -0.0447716280535 0.864 1.89883354785e-38
-0.0671574420802 -0.0447716280535 0.864 2.00946802343e-38
-0.0657860888896 -0.0449270850953 0.867 1.99102889745e-38
-0.0641815501362 -0.0449270850953 0.867 1.91730882732e-38
-0.0628657173177 -0.0451343611511 0.871 2.00028517446e-38
-0.0613944274573 -0.045237999179 0.873 2.0002848942e-38
-0.0597787846294 -0.045237999179 0.873 1.93574795329e-38
-0.0582963906946 -0.0453416372069 0.875 1.98184576823e-38
-0.0566770465087 -0.0453416372069 0.875 1.93574795329e-38
-0.0550577023227 -0.0453416372069 0.875 2.01872402017e-38
-0.0536215753646 -0.0454970942488 0.878 2.01872402017e-38
-0.0519966791415 -0.0454970942488 0.878 2.02794358316e-38
-0.0504865250206 -0.0456007322767 0.88 1.97262620524e-38
-0.0488579274393 -0.0456007322767 0.88 2.00950445719e-38
-0.047229329858 -0.0456007322767 0.88 2.02794358316e-38
-0.0457043703046 -0.0457043703046 0.882 2.00950445719e-38
-0.0440720713651 -0.0457043703046 0.882 2.11091965003e-38
-0.0425841253931 -0.0458598273464 0.885 1.96340664225e-38
-0.0409462744165 -0.0458598273464 0.885 2.04638270913e-38
-0.0393972560352 -0.0459634653743 0.887 2.00028475407e-38
-0.0377557037004 -0.0459634653743 0.887 2.03716314614e-38
-0.0361141513656 -0.0459634653743 0.887 2.07400608537e-38
-0.0345503275517 -0.0460671034023 0.889 2.08322592861e-38
-0.0329050738588 -0.0460671034023 0.889 2.10166505459e-38
-0.0313301459705 -0.0461707414302 0.891 2.0555669594e-38
-0.0296811909194 -0.0461707414302 0.891 2.06482211536e-38
-0.0280322358683 -0.0461707414302 0.891 2.08326082095e-38
-0.0264721134126 -0.046326198472 0.894 2.08329613367e-38
-0.0248176063243 -0.046326198472 0.894 2.09251597691e-38
-0.023163099236 -0.046326198472 0.894 2.15701746497e-38
-0.011607459125 -0.0464298364999 0.896 2.02794358316e-38
-0.00994925067855 -0.0464298364999 0.896 2.0648218351e-38
-0.00829104223213 -0.0464298364999 0.896 2.15701746497e-38
-0.0066328337857 -0.0464298364999 0.896 2.11091993029e-38
-0.00494686515323 -0.0461707414302 0.891 2.08326124134e-38
-0.00329050738588 -0.0460671034023 0.889 2.12013949328e-38
-0.00164525369294 -0.0460671034023 0.889 2.10170036731e-38
0.0 -0.0460671034023 0.889 2.13861463262e-38
0.00164525369294 -0.0460671034023 0.889 2.10173638068e-38
0.0032831046696 -0.0459634653743 0.887 2.10173638068e-38
0.00492465700439 -0.0459634653743 0.887 2.08329725471e-38
0.00655140390664 -0.0458598273464 0.885 2.00035678081e-38
0.00818925488329 -0.0458598273464 0.885 2.12943066262e-38
0.0097937936367 -0.0457043703046 0.882 2.0741132847e-38
0.0114001830692 -0.0456007322767 0.88 2.03723503276e-38
0.0130287806505 -0.0456007322767 0.88 2.11091993029e-38
0.0146240660085 -0.0454970942488 0.878 2.07404139809e-38
0.0162489622317 -0.0454970942488 0.878 2.08326096108e-38
0.0178127860456 -0.0453416372069 0.875 2.01872402017e-38
0.0193877139339 -0.045237999179 0.873 2.00950445719e-38
0.0209552391059 -0.0451343611511 0.871 2.0371634264e-38
0.0225671805756 -0.0451343611511 0.871 2.05560255238e-38
0.0241236016732 -0.0450307231232 0.869 2.04638298939e-38
0.0257318417847 -0.0450307231232 0.869 2.02794358316e-38
0.0273400818963 -0.0450307231232 0.869 2.02794358316e-38
0.0287817608915 -0.0447716280535 0.864 2.0002848942e-38
0.0303807476077 -0.0447716280535 0.864 1.93574795329e-38
0.0319057071611 -0.0446679900256 0.862 1.97262620524e-38
0.0335009925192 -0.0446679900256 0.862 1.97262620524e-38
0.0350148479982 -0.0445643519977 0.86 1.98184576823e-38
0.0366064319981 -0.0445643519977 0.86 1.97262620524e-38
0.038198015998 -0.0445643519977 0.86 1.9818456281e-38
0.0396970660444 -0.0444607139698 0.858 1.92656384316e-38
0.0412849486862 -0.0444607139698 0.858 1.91730882732e-38
-0.0862138844606 -0.0423231796443 0.847 2.35091681503e-38
-0.0846463592886 -0.0423231796443 0.847 1.926457905e-38
-0.083275006098 -0.0424231163141 0.849 1.83415381463e-38
-0.0817037795678 -0.0424231163141 0.849 1.90787332424e-38
-0.0803213223028 -0.0425230529838 0.851 1.9540064519e-38
-0.0787463944145 -0.0425230529838 0.851 1.87106695891e-38
-0.0774435163495 -0.0426729579885 0.854 1.95400813345e-38
-0.0762183668053 -0.042872831328 0.858 1.9172735146e-38
-0.0746304841636 -0.042872831328 0.858 1.97266249887e-38
-0.0732128639962 -0.0429727679978 0.86 1.98184576823e-38
-0.0716212799963 -0.0429727679978 0.86 1.93574795329e-38
-0.0700296959964 -0.0429727679978 0.86 1.99106519108e-38
-0.0687564287964 -0.0431726413373 0.864 1.97259005174e-38
-0.0671574420802 -0.0431726413373 0.864 2.0002487407e-38
-0.0657860888896 -0.0433225463419 0.867 1.97259005174e-38
-0.0641815501362 -0.0433225463419 0.867 1.93574795329e-38
-0.0628657173177 -0.0435224196815 0.871 1.9726264855e-38
-0.0613944274573 -0.0436223563512 0.873 1.99106561147e-38
-0.0599157348806 -0.043722293021 0.875 1.96340664225e-38
-0.0582963906946 -0.043722293021 0.875 2.00950445719e-38
-0.0566770465087 -0.043722293021 0.875 2.00950445719e-38
-0.0552464715878 -0.0438721980256 0.878 2.00028475407e-38
-0.0536215753646 -0.0438721980256 0.878 1.9818456281e-38
-0.0519966791415 -0.0438721980256 0.878 2.01872402017e-38
-0.0504865250206 -0.0439721346954 0.88 2.05560227212e-38
-0.0488579274393 -0.0439721346954 0.88 2.00950445719e-38
-0.047336669244 -0.0440720713651 0.882 2.03716314614e-38
-0.0458598273464 -0.0442219763698 0.885 2.05560227212e-38
-0.0442219763698 -0.0442219763698 0.885 2.05560227212e-38
-0.0425841253931 -0.0442219763698 0.885 2.0648218351e-38
-0.0409462744165 -0.0442219763698 0.885 2.09248052406e-38
-0.0393972560352 -0.0443219130396 0.887 2.046382569e-38
-0.0377557037004 -0.0443219130396 0.887 2.0648218351e-38
-0.0361955812446 -0.0444218497093 0.889 2.08322564835e-38
-0.0345503275517 -0.0444218497093 0.889 2.08322592861e-38
-0.0329791010215 -0.0445217863791 0.891 2.07400636563e-38
-0.0313301459705 -0.0445217863791 0.891 2.07400608537e-38
-0.0296811909194 -0.0445217863791 0.891 2.10170036731e-38
-0.0280322358683 -0.0445217863791 0.891 2.12013907289e-38
-0.0264721134126 -0.0446716913837 0.894 2.05563744471e-38
-0.0248176063243 -0.0446716913837 0.894 2.037198599e-38
-0.023163099236 -0.0446716913837 0.894 2.10170008705e-38
-0.00829104223213 -0.0447716280535 0.896 2.15701774523e-38
-0.0066328337857 -0.0447716280535 0.896 2.13857861925e-38
-0.00494686515323 -0.0445217863791 0.891 2.14776258926e-38
-0.00329791010215 -0.0445217863791 0.891 2.17542127822e-38
-0.00164525369294 -0.0444218497093 0.889 2.14776258926e-38
0.0 -0.0444218497093 0.889 2.15705403886e-38
0.00164525369294 -0.0444218497093 0.889 2.09251709795e-38
0.0032831046696 -0.0443219130396 0.887 2.09251709795e-38
0.00492465700439 -0.0443219130396 0.887 2.12939506964e-38
0.00656620933919 -0.0443219130396 0.887 2.09251681769e-38
0.00818925488329 -0.0442219763698 0.885 2.09255241067e-38
0.00982710585995 -0.0442219763698 0.885 2.0741132847e-38
0.0114260925761 -0.0440720713651 0.882 2.10177197366e-38
0.0130287806505 -0.0439721346954 0.88 2.05560255238e-38
0.0146240660085 -0.0438721980256 0.878 2.0371634264e-38
0.0162489622317 -0.0438721980256 0.878 2.08326096108e-38
0.0178127860456 -0.043722293021 0.875 2.09248038393e-38
0.0193877139339 -0.0436223563512 0.873 2.07404139809e-38
0.0209552391059 -0.0435224196815 0.871 2.0371634264e-38
0.0225671805756 -0.0435224196815 0.871 2.02790827044e-38
0.0241791220453 -0.0435224196815 0.871 2.06478652238e-38
0.0257910635149 -0.0435224196815 0.871 2.02794386342e-38
0.0273400818963 -0.0434224830117 0.869 2.02794358316e-38
0.0288816975613 -0.0433225463419 0.867 2.02794358316e-38
0.0303807476077 -0.0431726413373 0.864 2.01872402017e-38
0.0319057071611 -0.0430727046675 0.862 2.00950445719e-38
0.0335009925192 -0.0430727046675 0.862 1.98184576823e-38
0.0350148479982 -0.0429727679978 0.86 1.95418707927e-38
0.0366064319981 -0.0429727679978 0.86 1.95418707927e-38
0.038198015998 -0.0429727679978 0.86 1.99106519108e-38
0.0396970660444 -0.042872831328 0.858 1.9818456281e-38
0.041092478063 -0.0426729579885 0.854 1.93574781316e-38
0.0426729579885 -0.0426729579885 0.854 1.89886970135e-38
-0.0893489348046 -0.0407556544723 0.847 1.66855999289e-38
-0.0877814096326 -0.0407556544723 0.847 2.35095212775e-38
-0.0864174591583 -0.0408518897839 0.849 1.7330983351e-38
-0.0848462326281 -0.0408518897839 0.849 1.88043183655e-38
-0.083275006098 -0.0408518897839 0.849 1.95411575318e-38
-0.0817037795678 -0.0408518897839 0.849 1.88028624163e-38
-0.0803213223028 -0.0409481250955 0.851 1.94485877552e-38
-0.0787463944145 -0.0409481250955 0.851 1.92638433683e-38
-0.0774435163495 -0.041092478063 0.854 1.9909586924e-38
-0.0762183668053 -0.0412849486862 0.858 1.89886970135e-38
-0.0746304841636 -0.0412849486862 0.858 1.98191751471e-38
-0.0732128639962 -0.0413811839978 0.86 1.96340650212e-38
-0.0716212799963 -0.0413811839978 0.86 1.90808912421e-38
-0.0700296959964 -0.0413811839978 0.86 1.97262606511e-38
-0.0687564287964 -0.0415736546211 0.864 1.98177388162e-38
-0.067390627643 -0.0417180075885 0.867 2.00021300759e-38
-0.0657860888896 -0.0417180075885 0.867 1.98177388162e-38
-0.0643296044618 -0.0418142429001 0.869 2.0371634264e-38
-0.0630100702851 -0.0420067135234 0.873 2.01868870745e-38
-0.0613944274573 -0.0420067135234 0.873 2.02794386342e-38
-0.0599157348806 -0.042102948835 0.875 2.00950473744e-38
-0.0582963906946 -0.042102948835 0.875 1.98184576823e-38
-0.056871367811 -0.0422473018025 0.878 2.03716300601e-38
-0.0552464715878 -0.0422473018025 0.878 2.00950431706e-38
-0.0536215753646 -0.0422473018025 0.878 2.00950431706e-38
-0.0519966791415 -0.0422473018025 0.878 2.03723503276e-38
-0.0504865250206 -0.0423435371141 0.88 2.0095763438e-38
-0.0488579274393 -0.0423435371141 0.88 2.04645459574e-38
-0.047336669244 -0.0424397724257 0.882 2.03723503276e-38
-0.0458598273464 -0.0425841253931 0.885 1.97269809185e-38
-0.0442219763698 -0.0425841253931 0.885 2.05567415873e-38
-0.0425841253931 -0.0425841253931 0.885 2.03723503276e-38
-0.0409462744165 -0.0425841253931 0.885 2.04645459574e-38
-0.0393972560352 -0.0426803607048 0.887 2.11091950991e-38
-0.0377557037004 -0.0426803607048 0.887 2.11091965003e-38
-0.0361955812446 -0.0427765960164 0.889 2.11088433731e-38
-0.0345503275517 -0.0427765960164 0.889 2.11088461757e-38
-0.0329791010215 -0.042872831328 0.891 2.12010418056e-38
-0.0313301459705 -0.042872831328 0.891 2.13854302627e-38
-0.0296811909194 -0.042872831328 0.891 2.10170036731e-38
-0.0280322358683 -0.042872831328 0.891 2.08326082095e-38
-0.00496352126486 -0.0430171842954 0.894 2.15698215225e-38
-0.00329791010215 -0.042872831328 0.891 2.1569824325e-38
-0.00164525369294 -0.0427765960164 0.889 2.13854330653e-38
0.0 -0.0427765960164 0.889 2.1662738821e-38
0.00164525369294 -0.0427765960164 0.889 2.14783475613e-38
0.0032831046696 -0.0426803607048 0.887 2.14783447587e-38
0.00492465700439 -0.0426803607048 0.887 2.12017578691e-38
0.00656620933919 -0.0426803607048 0.887 2.12017550665e-38
0.00818925488329 -0.0425841253931 0.885 2.10177197366e-38
0.00982710585995 -0.0425841253931 0.885 2.12943066262e-38
0.0114260925761 -0.0424397724257 0.882 2.12021109963e-38
0.0130583915156 -0.0424397724257 0.882 2.13857861925e-38
0.0146573782318 -0.0423435371141 0.88 2.11091993029e-38
0.0162489622317 -0.0422473018025 0.878 2.10170008705e-38
0.0178738584549 -0.0422473018025 0.878 2.09248038393e-38
0.0194321302315 -0.042102948835 0.875 2.03716314614e-38
0.0210033567617 -0.0420067135234 0.873 2.0371634264e-38
0.0225671805756 -0.0419104782118 0.871 2.06478652238e-38
0.0241791220453 -0.0419104782118 0.871 2.10166533485e-38
0.0257910635149 -0.0419104782118 0.871 2.12935905627e-38
0.0273400818963 -0.0418142429001 0.869 2.10170008705e-38
0.0288816975613 -0.0417180075885 0.867 2.05560227212e-38
0.0303807476077 -0.0415736546211 0.864 2.02794358316e-38
0.0319057071611 -0.0414774193095 0.862 2.00950445719e-38
0.0335009925192 -0.0414774193095 0.862 2.00950445719e-38
0.0350148479982 -0.0413811839978 0.86 1.97262620524e-38
0.0366064319981 -0.0413811839978 0.86 2.0002848942e-38
0.038198015998 -0.0413811839978 0.86 2.01872430043e-38
0.0396970660444 -0.0412849486862 0.858 1.92652839031e-38
0.041092478063 -0.041092478063 0.854 2.00950431706e-38
0.0423231796443 -0.0407556544723 0.847 1.99106519108e-38
0.0438907048163 -0.0407556544723 0.847 1.81589349434e-38
0.0453508906023 -0.0406594191607 0.845 1.87113940604e-38
0.0469147144162 -0.0406594191607 0.845 2.03709182005e-38
-0.0907017812046 -0.0390955953468 0.845 1.31821687967e-38
-0.0891379573907 -0.0390955953468 0.845 2.35098730035e-38
-0.0877814096326 -0.0391881293003 0.847 1.81621761468e-38
-0.0864174591583 -0.0392806632538 0.849 1.8530605539e-38
-0.0848462326281 -0.0392806632538 0.849 1.80678323264e-38
-0.083275006098 -0.0392806632538 0.849 1.94493220356e-38
-0.0817037795678 -0.0392806632538 0.849 1.88039414162e-38
-0.0803213223028 -0.0393731972073 0.851 1.88042945434e-38
-0.0787463944145 -0.0393731972073 0.851 1.8619552959e-38
-0.0776248828983 -0.039604532091 0.856 1.99103057901e-38
-0.0762183668053 -0.0396970660444 0.858 1.90816101082e-38
-0.0748044479961 -0.0397895999979 0.86 2.00961151639e-38
-0.0732128639962 -0.0397895999979 0.86 1.9634420951e-38
-0.0716212799963 -0.0397895999979 0.86 1.93574781316e-38
-0.0701925557545 -0.0398821339514 0.862 2.00028475407e-38
-0.0689951663964 -0.0401134688351 0.867 2.00021300759e-38
-0.067390627643 -0.0401134688351 0.867 2.07396979174e-38
-0.0657860888896 -0.0401134688351 0.867 2.00943285083e-38
-0.0643296044618 -0.0402060027886 0.869 1.97259089252e-38
-0.0630100702851 -0.0403910706956 0.873 1.96337132953e-38
-0.0613944274573 -0.0403910706956 0.873 2.00950473744e-38
-0.0599157348806 -0.0404836046491 0.875 1.99106561147e-38
-0.0582963906946 -0.0404836046491 0.875 2.00950445719e-38
-0.0566770465087 -0.0404836046491 0.875 2.03716300601e-38
-0.0552464715878 -0.0406224055793 0.878 2.03716300601e-38
-0.0536215753646 -0.0406224055793 0.878 2.037198599e-38
-0.0521151226019 -0.0407149395328 0.88 2.01879590678e-38
-0.0504865250206 -0.0407149395328 0.88 2.03723503276e-38
-0.0489689681835 -0.0408074734862 0.882 2.06489372171e-38
-0.0474976783231 -0.0409462744165 0.885 2.06489372171e-38
-0.0458598273464 -0.0409462744165 0.885 2.0095763438e-38
-0.0442219763698 -0.0409462744165 0.885 2.12021109963e-38
-0.0425841253931 -0.0409462744165 0.885 2.06489372171e-38
-0.04103880837 -0.04103880837 0.887 2.06489372171e-38
-0.0394860886305 -0.0411313423234 0.889 2.06482169497e-38
-0.0378408349376 -0.0411313423234 0.889 2.05560227212e-38
-0.0362770111237 -0.0412238762769 0.891 2.07400608537e-38
-0.0346280560726 -0.0412238762769 0.891 2.11088461757e-38
-0.00329791010215 -0.0412238762769 0.891 2.16620199549e-38
-0.00164895505108 -0.0412238762769 0.891 2.18464112146e-38
0.0 -0.0411313423234 0.889 2.17549344509e-38
0.00164525369294 -0.0411313423234 0.889 2.1662738821e-38
0.00329050738588 -0.0411313423234 0.889 2.17549344509e-38
0.00492465700439 -0.04103880837 0.887 2.14783447587e-38
0.00656620933919 -0.04103880837 0.887 2.11095594367e-38
0.00818925488329 -0.0409462744165 0.885 2.12943066262e-38
0.00982710585995 -0.0409462744165 0.885 2.12021109963e-38
0.0114260925761 -0.0408074734862 0.882 2.08333284769e-38
0.0130583915156 -0.0408074734862 0.882 2.07400608537e-38
0.0146573782318 -0.0407149395328 0.88 2.11091993029e-38
0.0162489622317 -0.0406224055793 0.878 2.10170008705e-38
0.0178738584549 -0.0406224055793 0.878 2.08326082095e-38
0.0194321302315 -0.0404836046491 0.875 2.10170008705e-38
0.0210033567617 -0.0403910706956 0.873 2.07404167835e-38
0.0225671805756 -0.0402985367421 0.871 2.07400636563e-38
0.0241791220453 -0.0402985367421 0.871 2.11084916472e-38
0.0257910635149 -0.0402985367421 0.871 2.04638298939e-38
0.0273400818963 -0.0402060027886 0.869 2.05560227212e-38
0.0289483220078 -0.0402060027886 0.869 2.04638270913e-38
0.0303807476077 -0.0399746679049 0.864 2.01872402017e-38
0.0319057071611 -0.0398821339514 0.862 2.0002848942e-38
0.0335009925192 -0.0398821339514 0.862 2.03716314614e-38
0.0350148479982 -0.0397895999979 0.86 1.99106533121e-38
0.0366064319981 -0.0397895999979 0.86 1.99106533121e-38
0.038198015998 -0.0397895999979 0.86 2.00946914446e-38
0.039604532091 -0.039604532091 0.856 1.97259089252e-38
0.041092478063 -0.0395119981375 0.854 1.97262620524e-38
0.0423231796443 -0.0391881293003 0.847 1.95422253212e-38
0.0438907048163 -0.0391881293003 0.847 1.90805255032e-38
0.0453508906023 -0.0390955953468 0.845 2.00024818018e-38
0.0469147144162 -0.0390955953468 0.845 1.88961398486e-38
0.04847853823 -0.0390955953468 0.845 1.7881630589e-38
-0.093607347344 -0.0374429389376 0.843 2.35084366725e-38
-0.0920472248882 -0.0374429389376 0.843 1.32757713303e-38
-0.0907017812046 -0.0375317715329 0.845 2.30467522688e-38
-0.0891379573907 -0.0375317715329 0.845 2.04649313145e-38
-0.0877814096326 -0.0376206041283 0.847 1.73306232173e-38
-0.0864174591583 -0.0377094367236 0.849 1.92656468394e-38
-0.0848462326281 -0.0377094367236 0.849 1.89890627524e-38
-0.083275006098 -0.0377094367236 0.849 1.93574823355e-38
-0.0818962501911 -0.037798269319 0.851 2.05560255238e-38
-0.0803213223028 -0.037798269319 0.851 1.82511347772e-38
-0.0792090641819 -0.0380203508073 0.856 1.95418735953e-38
-0.0778062494471 -0.0381091834027 0.858 1.99103029875e-38
-0.076396031996 -0.038198015998 0.86 1.871282899e-38
-0.0748044479961 -0.038198015998 0.86 1.95425896588e-38
-0.0733831264706 -0.0382868485934 0.862 1.97266249887e-38
-0.0717878411125 -0.0382868485934 0.862 1.89890599498e-38
-0.0701925557545 -0.0382868485934 0.862 1.98188206186e-38
-0.0689951663964 -0.0385089300817 0.867 1.99113721782e-38
-0.067390627643 -0.0385089300817 0.867 2.046382569e-38
-0.0659378445733 -0.0385977626771 0.869 1.97266165809e-38
-0.0643296044618 -0.0385977626771 0.869 2.03723489263e-38
-0.0630100702851 -0.0387754278677 0.873 2.0095763438e-38
-0.0613944274573 -0.0387754278677 0.873 2.01879590678e-38
-0.0599157348806 -0.0388642604631 0.875 2.00032118783e-38
-0.0582963906946 -0.0388642604631 0.875 2.05563884601e-38
-0.0566770465087 -0.0388642604631 0.875 2.03719943977e-38
-0.0552464715878 -0.0389975093561 0.878 1.98191765484e-38
-0.0536215753646 -0.0389975093561 0.878 2.0741132847e-38
-0.0521151226019 -0.0390863419515 0.88 2.06478680264e-38
-0.0506012671229 -0.0391751745468 0.882 2.0186171011e-38
-0.0489689681835 -0.0391751745468 0.882 2.05553094603e-38
-0.0474976783231 -0.0393084234398 0.885 2.12006732641e-38
-0.0458598273464 -0.0393084234398 0.885 2.12932262251e-38
-0.0442219763698 -0.0393084234398 0.885 2.08322480758e-38
-0.0425841253931 -0.0393084234398 0.885 2.15694557836e-38
-0.04103880837 -0.0393972560352 0.887 2.11084804368e-38
-0.0394860886305 -0.0394860886305 0.889 2.08318935472e-38
-0.0378408349376 -0.0394860886305 0.889 2.11084804368e-38
-0.00329791010215 -0.0395749212258 0.891 2.16623730821e-38
-0.00164895505108 -0.0395749212258 0.891 2.1754568712e-38
0.0 -0.0394860886305 0.889 2.20315157353e-38
0.00164525369294 -0.0394860886305 0.889 2.17549288457e-38
0.00329050738588 -0.0394860886305 0.889 2.21237113651e-38
0.00492465700439 -0.0393972560352 0.887 2.13861463262e-38
0.00656620933919 -0.0393972560352 0.887 2.19396760352e-38
0.00818925488329 -0.0393084234398 0.885 2.09255241067e-38
0.00982710585995 -0.0393084234398 0.885 2.15708935158e-38
0.0114649568366 -0.0393084234398 0.885 2.14786978859e-38
0.0130583915156 -0.0391751745468 0.882 2.11091993029e-38
0.0146573782318 -0.0390863419515 0.88 2.16623730821e-38
0.0162489622317 -0.0389975093561 0.878 2.16623730821e-38
0.0178738584549 -0.0389975093561 0.878 2.08326124134e-38
0.0194321302315 -0.0388642604631 0.875 2.07404167835e-38
0.0210033567617 -0.0387754278677 0.873 2.07404167835e-38
0.0225671805756 -0.0386865952724 0.871 2.1201039003e-38
0.0241791220453 -0.0386865952724 0.871 2.09244521134e-38
0.0257910635149 -0.0386865952724 0.871 2.0187603138e-38
0.0273400818963 -0.0385977626771 0.869 2.10173638068e-38
0.0289483220078 -0.0385977626771 0.869 2.10173666094e-38
0.0303807476077 -0.0383756811887 0.864 2.07407797198e-38
0.0319057071611 -0.0382868485934 0.862 2.07407797198e-38
0.0335009925192 -0.0382868485934 0.862 2.06489372171e-38
0.0350148479982 -0.038198015998 0.86 2.06492917457e-38
0.0366064319981 -0.038198015998 0.86 2.0003919534e-38
0.038198015998 -0.038198015998 0.86 1.9818456281e-38
0.039604532091 -0.0380203508073 0.856 2.02787169655e-38
0.041092478063 -0.037931518212 0.854 1.96337048875e-38
0.0424231163141 -0.0377094367236 0.849 1.99102917771e-38
0.0438907048163 -0.0376206041283 0.847 2.0279071494e-38
0.0453508906023 -0.0375317715329 0.845 2.00946802343e-38
0.0469147144162 -0.0375317715329 0.845 1.94493136278e-38
0.04847853823 -0.0375317715329 0.845 1.93571179979e-38
-0.093607347344 -0.0358828164819 0.843 2.34151606416e-38
-0.0920472248882 -0.0358828164819 0.843 5.43771486874e-39
-0.0907017812046 -0.0359679477191 0.845 2.35088094179e-38
-0.0891379573907 -0.0359679477191 0.845 1.89898040393e-38
-0.0877814096326 -0.0360530789563 0.847 1.87124786654e-38
-0.0864174591583 -0.0361382101935 0.849 1.89886970135e-38
-0.0848462326281 -0.0361382101935 0.849 1.91730910758e-38
-0.083275006098 -0.0361382101935 0.849 1.95418735953e-38
-0.0818962501911 -0.0362233414307 0.851 2.01868870745e-38
-0.0803213223028 -0.0362233414307 0.851 1.92649307759e-38
-0.0792090641819 -0.0364361695237 0.856 1.96337132953e-38
-0.0778062494471 -0.0365213007609 0.858 2.00946914446e-38
-0.076396031996 -0.0366064319981 0.86 1.93578424692e-38
