# .PCD v0.7 - Point Cloud Data file format
VERSION 0.7
FIELDS x y z rgb
SIZE 4 4 4 4
TYPE F F F F
COUNT 1 1 1 1
WIDTH 847
HEIGHT 1
VIEWPOINT 0 0 0 1 0 0 0
POINTS 847
DATA ascii
0.0811041595493 -0.0844834995305 0.913 2.00946774317e-38
0.0827938295399 -0.0844834995305 0.913 1.87117457863e-38
0.0844834995305 -0.0844834995305 0.913 2.02776267553e-38
0.0861731695211 -0.0844834995305 0.913 2.07368042361e-38
0.0878628395117 -0.0844834995305 0.913 2.21172177481e-38
0.0892582515302 -0.08420589767 0.91 2.34997948649e-38
0.0909423694836 -0.08420589767 0.91 2.05452201113e-38
-0.0101602280925 -0.0829751960887 0.915 8.10782323148e-39
-0.00846685674374 -0.0829751960887 0.915 2.35077332207e-38
-0.006773485395 -0.0829751960887 0.915 2.08304544137e-38
-0.00508011404625 -0.0829751960887 0.915 2.01850808008e-38
-0.00339784677192 -0.0832472459119 0.918 1.9172721133e-38
-0.00169892338596 -0.0832472459119 0.918 2.09262303612e-38
0.0 -0.0832472459119 0.918 2.05552870395e-38
0.00170817678131 -0.083700662284 0.923 2.00935928266e-38
0.00342375627889 -0.0838820288328 0.925 2.05542164474e-38
0.00515229052996 -0.0841540786561 0.928 1.97241040528e-38
0.00688452613918 -0.0843354452049 0.93 1.95393596658e-38
0.00860565767397 -0.0843354452049 0.93 2.00925390502e-38
0.010360101432 -0.0846074950282 0.933 2.06457128294e-38
0.012086785004 -0.0846074950282 0.933 1.98159521606e-38
0.013813468576 -0.0846074950282 0.933 2.05542276578e-38
0.015540152148 -0.0846074950282 0.933 2.06474994849e-38
0.01726683572 -0.0846074950282 0.933 1.98177444213e-38
0.018993519292 -0.0846074950282 0.933 1.92645706422e-38
0.020720202864 -0.0846074950282 0.933 2.00021356811e-38
0.022446886436 -0.0846074950282 0.933 1.95411575318e-38
0.024173570008 -0.0846074950282 0.933 2.03709125953e-38
0.02590025358 -0.0846074950282 0.933 2.0002487407e-38
0.027626937152 -0.0846074950282 0.933 2.09212081075e-38
0.0293536207241 -0.0846074950282 0.933 2.00907285726e-38
0.0310803042961 -0.0846074950282 0.933 2.09204892414e-38
0.0328069878681 -0.0846074950282 0.933 1.98148591478e-38
0.0345336714401 -0.0846074950282 0.933 2.07375343126e-38
0.0362603550121 -0.0846074950282 0.933 2.06453358801e-38
0.0378648937655 -0.0843354452049 0.93 1.93556760618e-38
0.0395860253003 -0.0843354452049 0.93 2.055421925e-38
0.0412183242397 -0.0841540786561 0.928 1.99070547777e-38
0.0429357544164 -0.0841540786561 0.928 1.9907056179e-38
0.044653184593 -0.0841540786561 0.928 2.08286565478e-38
0.0463706147697 -0.0841540786561 0.928 2.01832871387e-38
0.0480880449463 -0.0841540786561 0.928 1.9907056179e-38
0.049805475123 -0.0841540786561 0.928 2.07368126438e-38
0.0515229052996 -0.0841540786561 0.928 2.03683818503e-38
0.0532403354763 -0.0841540786561 0.928 1.99999524581e-38
0.054957765653 -0.0841540786561 0.928 2.01843605334e-38
0.0564919786017 -0.0838820288328 0.925 2.07371825866e-38
0.0582038567412 -0.0838820288328 0.925 2.00918131776e-38
0.0599157348806 -0.0838820288328 0.925 1.99077736438e-38
0.06162761302 -0.0838820288328 0.925 2.02779840864e-38
0.0629971155316 -0.0834286124608 0.92 2.08315081902e-38
0.0646997402757 -0.0834286124608 0.92 1.98170031345e-38
0.0662580120524 -0.0832472459119 0.918 1.97244585813e-38
0.0679569354383 -0.0832472459119 0.918 1.98177388162e-38
0.0696558588243 -0.0832472459119 0.918 1.95418693914e-38
0.0713547822102 -0.0832472459119 0.918 1.92649223681e-38
0.0728149679962 -0.0829751960887 0.915 1.97244697917e-38
0.074508339345 -0.0829751960887 0.915 1.95390079399e-38
0.0762017106937 -0.0829751960887 0.915 1.93538964128e-38
0.0778950820425 -0.0829751960887 0.915 1.98148605491e-38
0.0795884533912 -0.0829751960887 0.915 1.9907403701e-38
0.08128182474 -0.0829751960887 0.915 1.94478688891e-38
0.0827938295399 -0.0827938295399 0.913 2.00010426683e-38
0.0844834995305 -0.0827938295399 0.913 1.95400617164e-38
0.0861731695211 -0.0827938295399 0.913 1.86184627488e-38
0.0875741335768 -0.0825217797166 0.91 1.98159241346e-38
0.0892582515302 -0.0825217797166 0.91 1.98159241346e-38
0.0909423694836 -0.0825217797166 0.91 2.19364264241e-38
0.0924229127394 -0.0823404131678 0.908 2.24888827385e-38
0.0941033293346 -0.0823404131678 0.908 2.3499790661e-38
0.0957837459299 -0.0823404131678 0.908 2.08243181277e-38
-0.0118276899343 -0.0811041595493 0.913 9.11837242163e-39
-0.0101380199437 -0.0811041595493 0.913 2.35077304181e-38
-0.00846685674374 -0.08128182474 0.915 2.02776407682e-38
-0.006773485395 -0.08128182474 0.915 1.9726264855e-38
-0.00508011404625 -0.08128182474 0.915 1.92660027692e-38
-0.00339784677192 -0.081548322526 0.918 1.97269809185e-38
-0.00169892338596 -0.081548322526 0.918 1.91738071393e-38
0.0 -0.0817259877167 0.92 1.9818456281e-38
0.00171187813945 -0.0821701506934 0.925 2.07400496433e-38
0.00342375627889 -0.0821701506934 0.925 1.93560403994e-38
0.00515229052996 -0.0824366484794 0.928 2.0646063154e-38
0.00688452613918 -0.0826143136701 0.93 1.98148703582e-38
0.00860565767397 -0.0826143136701 0.93 2.01836556802e-38
0.010360101432 -0.0828808114561 0.933 2.08283062232e-38
0.012086785004 -0.0828808114561 0.933 2.05517207349e-38
0.0138430794411 -0.0830584766468 0.935 1.92631259034e-38
0.0155734643713 -0.0830584766468 0.935 2.04616676904e-38
0.01726683572 -0.0828808114561 0.933 1.97241026515e-38
0.018993519292 -0.0828808114561 0.933 2.01850822021e-38
0.020720202864 -0.0828808114561 0.933 1.86177564944e-38
0.022446886436 -0.0828808114561 0.933 1.96319084229e-38
0.024173570008 -0.0828808114561 0.933 2.03694762644e-38
0.02590025358 -0.0828808114561 0.933 2.02772806345e-38
0.027626937152 -0.0828808114561 0.933 2.11055951633e-38
0.0293536207241 -0.0828808114561 0.933 1.99996035347e-38
0.0310803042961 -0.0828808114561 0.933 2.03698251877e-38
0.0328069878681 -0.0828808114561 0.933 1.97251746448e-38
0.0345336714401 -0.0828808114561 0.933 2.01857968643e-38
0.0362603550121 -0.0828808114561 0.933 1.95404302579e-38
0.0379870385841 -0.0828808114561 0.933 1.92631259034e-38
0.0395860253003 -0.0826143136701 0.93 2.15669404528e-38
0.0412183242397 -0.0824366484794 0.928 2.05527885243e-38
0.0429357544164 -0.0824366484794 0.928 1.99074191153e-38
0.044653184593 -0.0824366484794 0.928 2.09215738464e-38
0.0463706147697 -0.0824366484794 0.928 1.99996147451e-38
0.0480880449463 -0.0824366484794 0.928 1.96308294231e-38
0.049805475123 -0.0824366484794 0.928 2.00921621009e-38
0.0515229052996 -0.0824366484794 0.928 2.04609418178e-38
0.0532403354763 -0.0824366484794 0.928 2.0645687606e-38
0.054957765653 -0.0824366484794 0.928 1.94471458191e-38
0.0564919786017 -0.0821701506934 0.925 2.07375287074e-38
0.0582038567412 -0.0821701506934 0.925 1.99999692736e-38
0.0599157348806 -0.0821701506934 0.925 2.06453386827e-38
0.06162761302 -0.0821701506934 0.925 2.12907052891e-38
0.0632025409083 -0.0819924855027 0.923 1.94467898893e-38
0.0646997402757 -0.0817259877167 0.92 1.94471458191e-38
0.0664023650198 -0.0817259877167 0.92 1.94471458191e-38
0.0681049897639 -0.0817259877167 0.92 2.08297243372e-38
0.0696558588243 -0.081548322526 0.918 1.94467898893e-38
0.0713547822102 -0.081548322526 0.918 2.02765561632e-38
0.0730537055962 -0.081548322526 0.918 1.93542425335e-38
0.0747526289822 -0.081548322526 0.918 2.00918131776e-38
0.0762017106937 -0.08128182474 0.915 2.02758386984e-38
0.0778950820425 -0.08128182474 0.915 2.01836388647e-38
0.0795884533912 -0.08128182474 0.915 2.03683818503e-38
0.08128182474 -0.08128182474 0.915 1.97244585813e-38
0.0827938295399 -0.0811041595493 0.913 1.93560389981e-38
0.0844834995305 -0.0811041595493 0.913 2.02779952968e-38
0.0858900156234 -0.0808376617632 0.91 1.97244557787e-38
0.0875741335768 -0.0808376617632 0.91 1.98166486059e-38
0.0892582515302 -0.0808376617632 0.91 1.93549501892e-38
0.0907424961441 -0.0806599965725 0.908 1.97230124413e-38
0.0924229127394 -0.0806599965725 0.908 1.95386211815e-38
0.0941033293346 -0.0806599965725 0.908 2.1196700583e-38
0.0957837459299 -0.0806599965725 0.908 2.09201136934e-38
0.0974641625252 -0.0806599965725 0.908 2.22101364479e-38
0.0989261989902 -0.0804823313819 0.906 2.06431722753e-38
-0.0134729436272 -0.0791535438098 0.91 1.17931218849e-38
-0.0117888256738 -0.0791535438098 0.91 2.31321081609e-38
-0.0101047077204 -0.0791535438098 0.91 2.04605928945e-38
-0.00844834995305 -0.0794144895587 0.913 2.05542276578e-38
-0.006773485395 -0.0795884533912 0.915 2.00950473744e-38
-0.00508011404625 -0.0795884533912 0.915 1.97266249887e-38
-0.00339784677192 -0.07984939914 0.918 1.99106561147e-38
-0.00169892338596 -0.07984939914 0.918 2.04638298939e-38
0.0 -0.0800233629726 0.92 1.95418735953e-38
0.00171187813945 -0.0804582725539 0.925 2.04631110278e-38
0.00342375627889 -0.0804582725539 0.925 2.02787225707e-38
0.00515229052996 -0.0807192183028 0.928 2.00932523111e-38
0.00688452613918 -0.0808931821353 0.93 1.99996175477e-38
0.00863341786002 -0.0811541278841 0.933 2.07364665231e-38
0.0103823095809 -0.0813280917167 0.935 2.00910971141e-38
0.012112694511 -0.0813280917167 0.935 2.04591607674e-38
0.0138430794411 -0.0813280917167 0.935 2.06453386827e-38
0.0155734643713 -0.0813280917167 0.935 1.99088470384e-38
0.0173038493014 -0.0813280917167 0.935 2.04620236202e-38
0.0190342342316 -0.0813280917167 0.935 2.00928851709e-38
0.0207646191617 -0.0813280917167 0.935 1.99084953125e-38
0.022446886436 -0.0811541278841 0.933 2.00928893748e-38
0.024173570008 -0.0811541278841 0.933 1.95397155956e-38
0.02590025358 -0.0811541278841 0.933 2.00003378151e-38
0.027626937152 -0.0811541278841 0.933 2.04605816841e-38
0.0293536207241 -0.0811541278841 0.933 1.99999636685e-38
0.0310803042961 -0.0811541278841 0.933 2.0185433928e-38
0.0328069878681 -0.0811541278841 0.933 2.00024846044e-38
0.0346076986028 -0.0813280917167 0.935 1.99102917771e-38
0.0362603550121 -0.0811541278841 0.933 2.05545835876e-38
0.0379870385841 -0.0811541278841 0.933 2.05527885243e-38
0.0397137221561 -0.0811541278841 0.933 1.9722311792e-38
0.0413071568351 -0.0808931821353 0.93 2.07371825866e-38
0.0430282883699 -0.0808931821353 0.93 2.01847290749e-38
0.044653184593 -0.0807192183028 0.928 1.97241068554e-38
0.0463706147697 -0.0807192183028 0.928 2.05538675241e-38
0.0480880449463 -0.0807192183028 0.928 2.0922647241e-38
0.049805475123 -0.0807192183028 0.928 2.06464148799e-38
0.0515229052996 -0.0807192183028 0.928 2.00010426683e-38
0.0532403354763 -0.0807192183028 0.928 2.09229961643e-38
0.054957765653 -0.0807192183028 0.928 1.98159283385e-38
0.0566751958296 -0.0807192183028 0.928 2.07375287074e-38
0.0583926260063 -0.0807192183028 0.928 2.00921621009e-38
0.0599157348806 -0.0804582725539 0.925 2.05527857217e-38
0.06162761302 -0.0804582725539 0.925 2.01840032023e-38
0.0633394911595 -0.0804582725539 0.925 1.99077736438e-38
0.0649107176896 -0.0802843087214 0.923 2.08297243372e-38
0.0664023650198 -0.0800233629726 0.92 2.04612977476e-38
0.0681049897639 -0.0800233629726 0.92 2.07371685737e-38
0.0696558588243 -0.07984939914 0.918 1.99992476049e-38
0.0713547822102 -0.07984939914 0.918 2.10133995334e-38
0.0730537055962 -0.07984939914 0.918 1.99070519751e-38
0.0747526289822 -0.07984939914 0.918 2.05524241867e-38
0.0764515523681 -0.07984939914 0.918 1.97226607153e-38
0.0778950820425 -0.0795884533912 0.915 2.03683860542e-38
0.0795884533912 -0.0795884533912 0.915 2.03683860542e-38
0.08128182474 -0.0795884533912 0.915 2.00014084072e-38
0.0827938295399 -0.0794144895587 0.913 1.91723694071e-38
0.0844834995305 -0.0794144895587 0.913 1.99092127773e-38
0.0858900156234 -0.0791535438098 0.91 1.9908849841e-38
0.0875741335768 -0.0791535438098 0.91 1.99999636685e-38
0.0892582515302 -0.0791535438098 0.91 2.06449701412e-38
0.0907424961441 -0.0789795799773 0.908 2.04602173465e-38
0.0924229127394 -0.0789795799773 0.908 1.99059645675e-38
0.0941033293346 -0.0789795799773 0.908 1.92620342919e-38
0.0957837459299 -0.0789795799773 0.908 1.99074051023e-38
0.0974641625252 -0.0789795799773 0.908 2.00910802985e-38
0.0989261989902 -0.0788056161447 0.906 2.05520612504e-38
0.100602914227 -0.0788056161447 0.906 2.16591248723e-38
0.102279629464 -0.0788056161447 0.906 2.17520365657e-38
0.103956344702 -0.0788056161447 0.906 1.89886815992e-38
0.105633059939 -0.0788056161447 0.906 1.85287782458e-38
-0.0150904371341 -0.0771289009076 0.906 1.30885284282e-38
-0.013413721897 -0.0771289009076 0.906 2.11981579334e-38
-0.0117629161668 -0.077299163382 0.908 2.16587829555e-38
-0.0101047077204 -0.0774694258564 0.91 2.05535143969e-38
-0.00844834995305 -0.077724819568 0.913 1.92645706422e-38
-0.006773485395 -0.0778950820425 0.915 2.00028517446e-38
-0.00508011404625 -0.0778950820425 0.915 2.01872402017e-38
-0.00339784677192 -0.0781504757541 0.918 1.95411519266e-38
-0.00169892338596 -0.0781504757541 0.918 2.06474994849e-38
0.0 -0.0783207382285 0.92 1.96337132953e-38
0.00170817678131 -0.0785761319401 0.923 2.00939753811e-38
0.00342375627889 -0.0787463944145 0.925 1.96333531616e-38
0.00515229052996 -0.0790017881261 0.928 2.083081735e-38
0.00688452613918 -0.0791720506005 0.93 1.98159465554e-38
0.00863341786002 -0.0794274443121 0.933 2.02762044373e-38
0.0103823095809 -0.0795977067866 0.935 2.03676812011e-38
0.012112694511 -0.0795977067866 0.935 2.02754855712e-38
0.0138430794411 -0.0795977067866 0.935 2.10141183995e-38
0.0155734643713 -0.0795977067866 0.935 2.05542164474e-38
0.0173038493014 -0.0795977067866 0.935 2.02776323605e-38
0.0190342342316 -0.0795977067866 0.935 1.96319070216e-38
0.0207646191617 -0.0795977067866 0.935 2.00928865722e-38
0.0224950040919 -0.0795977067866 0.935 2.05538675241e-38
0.024225389022 -0.0795977067866 0.935 1.99081421853e-38
0.02590025358 -0.0794274443121 0.933 1.99081421853e-38
0.027626937152 -0.0794274443121 0.933 2.04602257543e-38
0.0294165438124 -0.0795977067866 0.935 2.10141183995e-38
0.0311469287426 -0.0795977067866 0.935 2.07386105098e-38
0.0328773136727 -0.0795977067866 0.935 1.97259005174e-38
0.0346076986028 -0.0795977067866 0.935 1.9909934446e-38
0.036338083533 -0.0795977067866 0.935 2.00932495085e-38
0.0379870385841 -0.0794274443121 0.933 2.01840088075e-38
0.0397137221561 -0.0794274443121 0.933 1.96301161622e-38
0.0413071568351 -0.0791720506005 0.93 2.05527913269e-38
0.0430282883699 -0.0791720506005 0.93 2.04616718943e-38
0.044653184593 -0.0790017881261 0.928 1.94475199658e-38
0.0463706147697 -0.0790017881261 0.928 2.02772778319e-38
0.0480880449463 -0.0790017881261 0.928 1.98162982813e-38
0.049805475123 -0.0790017881261 0.928 2.00932411007e-38
0.0515229052996 -0.0790017881261 0.928 1.98166514085e-38
0.0532403354763 -0.0790017881261 0.928 2.03698251877e-38
0.054957765653 -0.0790017881261 0.928 2.00921592983e-38
0.0566751958296 -0.0790017881261 0.928 2.02765533606e-38
0.0583926260063 -0.0790017881261 0.928 1.99999692736e-38
0.0599157348806 -0.0787463944145 0.925 2.01840032023e-38
0.06162761302 -0.0787463944145 0.925 2.06449813516e-38
0.0633394911595 -0.0787463944145 0.925 2.01840032023e-38
0.0649107176896 -0.0785761319401 0.923 2.03687517931e-38
0.0664023650198 -0.0783207382285 0.92 1.99077708412e-38
0.0681049897639 -0.0783207382285 0.92 2.00914474387e-38
0.069807614508 -0.0783207382285 0.92 2.08290110763e-38
0.0713547822102 -0.0781504757541 0.918 1.95386253854e-38
0.0730537055962 -0.0781504757541 0.918 2.04605774802e-38
0.0747526289822 -0.0781504757541 0.918 2.03683818503e-38
0.0764515523681 -0.0781504757541 0.918 1.96308182127e-38
0.0778950820425 -0.0778950820425 0.915 2.02758344945e-38
0.0795884533912 -0.0778950820425 0.915 2.06446212179e-38
0.08128182474 -0.0778950820425 0.915 1.9632627289e-38
0.0827938295399 -0.077724819568 0.913 2.00936054383e-38
0.0844834995305 -0.077724819568 0.913 2.06467778162e-38
0.0861731695211 -0.077724819568 0.913 1.93556760618e-38
0.0878628395117 -0.077724819568 0.913 2.09219199671e-38
0.0892582515302 -0.0774694258564 0.91 1.90776472361e-38
0.0909423694836 -0.0774694258564 0.91 2.01832731258e-38
0.0924229127394 -0.077299163382 0.908 1.99066862362e-38
0.0941033293346 -0.077299163382 0.908 1.97237327087e-38
0.0957837459299 -0.077299163382 0.908 1.99088470384e-38
0.0974641625252 -0.077299163382 0.908 1.9999966471e-38
0.0989261989902 -0.0771289009076 0.906 1.98148591478e-38
0.100602914227 -0.0771289009076 0.906 2.11977935958e-38
0.102279629464 -0.0771289009076 0.906 1.9354597062e-38
0.103956344702 -0.0771289009076 0.906 1.92634748268e-38
0.105633059939 -0.0771289009076 0.906 2.1661278668e-38
0.107309775176 -0.0771289009076 0.906 1.93560389981e-38
0.108986490413 -0.0771289009076 0.906 1.47473337022e-38
0.11066320565 -0.0771289009076 0.906 2.33218762028e-38
-0.0167671523712 -0.0754521856705 0.906 1.72366129059e-38
-0.0150904371341 -0.0754521856705 0.906 1.79734548748e-38
-0.013413721897 -0.0754521856705 0.906 2.18449692785e-38
-0.0117629161668 -0.0756187467868 0.908 2.16602262929e-38
-0.0101047077204 -0.075785307903 0.91 1.96330000344e-38
-0.00844834995305 -0.0760351495774 0.913 1.8711396863e-38
-0.00675867996244 -0.0760351495774 0.913 2.07396979174e-38
-0.00508011404625 -0.0762017106937 0.915 1.94482360293e-38
-0.0033867426975 -0.0762017106937 0.915 2.01857996669e-38
-0.00169892338596 -0.0764515523681 0.918 2.00936012344e-38
0.0 -0.0766181134844 0.92 1.9356766272e-38
0.00170817678131 -0.0768679551588 0.923 1.98173884915e-38
0.00342375627889 -0.0770345162751 0.925 1.87110409332e-38
0.00515229052996 -0.0772843579495 0.928 1.98166654215e-38
0.00688452613918 -0.0774509190657 0.93 1.94475199658e-38
0.00863341786002 -0.0777007607401 0.933 1.99084981151e-38
0.0103823095809 -0.0778673218564 0.935 2.01840032023e-38
0.012112694511 -0.0778673218564 0.935 2.04605900919e-38
0.0138430794411 -0.0778673218564 0.935 2.04620208176e-38
0.0155734643713 -0.0778673218564 0.935 2.0830803337e-38
0.0173038493014 -0.0778673218564 0.935 2.03698279903e-38
0.0190342342316 -0.0778673218564 0.935 2.08304502098e-38
0.0207646191617 -0.0778673218564 0.935 2.10148428709e-38
0.0224950040919 -0.0778673218564 0.935 2.01850850047e-38
0.024225389022 -0.0778673218564 0.935 2.00003378151e-38
0.0259557739521 -0.0778673218564 0.935 2.01847290749e-38
0.0276861588823 -0.0778673218564 0.935 2.00914460374e-38
0.0294165438124 -0.0778673218564 0.935 2.03687517931e-38
0.0311469287426 -0.0778673218564 0.935 2.07382559813e-38
0.0328773136727 -0.0778673218564 0.935 2.03709153979e-38
0.0346076986028 -0.0778673218564 0.935 2.04631138304e-38
0.036338083533 -0.0778673218564 0.935 2.02776435708e-38
0.0379870385841 -0.0777007607401 0.933 1.99996147451e-38
0.0397137221561 -0.0777007607401 0.933 2.03676783985e-38
0.0414404057281 -0.0777007607401 0.933 2.07371825866e-38
0.0430282883699 -0.0774509190657 0.93 1.99084981151e-38
0.044653184593 -0.0772843579495 0.928 2.05538647215e-38
0.0463706147697 -0.0772843579495 0.928 2.03694720605e-38
0.0480880449463 -0.0772843579495 0.928 2.02776323605e-38
0.049805475123 -0.0772843579495 0.928 2.07386077072e-38
0.0515229052996 -0.0772843579495 0.928 2.07386105098e-38
0.0532403354763 -0.0772843579495 0.928 2.03698279903e-38
0.054957765653 -0.0772843579495 0.928 2.1106316832e-38
0.0566751958296 -0.0772843579495 0.928 2.07371769814e-38
0.0583926260063 -0.0772843579495 0.928 2.06449813516e-38
0.0599157348806 -0.0770345162751 0.925 2.06449841542e-38
0.06162761302 -0.0770345162751 0.925 2.09215710438e-38
0.0633394911595 -0.0770345162751 0.925 2.04605900919e-38
0.0649107176896 -0.0768679551588 0.923 2.01840032023e-38
0.0666188944709 -0.0768679551588 0.923 2.01840032023e-38
0.0681049897639 -0.0766181134844 0.92 2.03676783985e-38
0.069807614508 -0.0766181134844 0.92 2.04602299581e-38
0.0715102392521 -0.0766181134844 0.92 2.04605788815e-38
0.0730537055962 -0.0764515523681 0.918 2.02765393477e-38
0.0747526289822 -0.0764515523681 0.918 2.02765393477e-38
0.0764515523681 -0.0764515523681 0.918 2.06449687399e-38
0.0781504757541 -0.0764515523681 0.918 1.97226635179e-38
0.07984939914 -0.0764515523681 0.918 2.02754855712e-38
0.08128182474 -0.0762017106937 0.915 2.05538675241e-38
0.0829751960887 -0.0762017106937 0.915 1.9632627289e-38
0.0844834995305 -0.0760351495774 0.913 1.96319070216e-38
0.0861731695211 -0.0760351495774 0.913 2.02772764306e-38
0.0878628395117 -0.0760351495774 0.913 1.97233795815e-38
0.0895525095023 -0.0760351495774 0.913 2.02761904243e-38
0.0909423694836 -0.075785307903 0.91 2.03683860542e-38
0.092626487437 -0.075785307903 0.91 2.01839947945e-38
0.0941033293346 -0.0756187467868 0.908 2.03698279903e-38
0.0957837459299 -0.0756187467868 0.908 2.00006895411e-38
0.0974641625252 -0.0756187467868 0.908 1.96319084229e-38
0.0989261989902 -0.0754521856705 0.906 2.00918075724e-38
0.100602914227 -0.0754521856705 0.906 1.88932643842e-38
0.102279629464 -0.0754521856705 0.906 2.00914460374e-38
0.103956344702 -0.0754521856705 0.906 1.97233767789e-38
0.105633059939 -0.0754521856705 0.906 2.06456890073e-38
0.107309775176 -0.0754521856705 0.906 2.01857968643e-38
0.108986490413 -0.0754521856705 0.906 2.20311415886e-38
-0.0167671523712 -0.0737754704334 0.906 1.17041548467e-38
-0.0150904371341 -0.0737754704334 0.906 2.31346150838e-38
-0.013413721897 -0.0737754704334 0.906 2.00017797513e-38
-0.0117629161668 -0.0739383301915 0.908 1.926457905e-38
-0.0101047077204 -0.0741011899496 0.91 2.01868926797e-38
-0.00844834995305 -0.0743454795868 0.913 2.0186171011e-38
-0.00675867996244 -0.0743454795868 0.913 1.98166654215e-38
-0.00508011404625 -0.074508339345 0.915 2.09233661071e-38
-0.0033867426975 -0.074508339345 0.915 2.01857996669e-38
-0.00169892338596 -0.0747526289822 0.918 2.05545821863e-38
0.0 -0.0749154887403 0.92 2.04631138304e-38
0.00170817678131 -0.0751597783775 0.923 2.13847141992e-38
0.00342375627889 -0.0753226381356 0.925 1.94489619019e-38
0.00515229052996 -0.0755669277728 0.928 2.03698392007e-38
0.00688452613918 -0.0757297875309 0.93 1.99088582488e-38
0.00863341786002 -0.0759740771681 0.933 2.05545835876e-38
0.0103823095809 -0.0761369369263 0.935 2.07389734461e-38
0.012112694511 -0.0761369369263 0.935 2.03694720605e-38
0.0138430794411 -0.0761369369263 0.935 1.91712848021e-38
0.0155734643713 -0.0761369369263 0.935 2.08308061396e-38
0.0173038493014 -0.0761369369263 0.935 1.98162982813e-38
0.0190342342316 -0.0761369369263 0.935 2.00006895411e-38
0.0207646191617 -0.0761369369263 0.935 2.03694734618e-38
0.0224950040919 -0.0761369369263 0.935 2.02772778319e-38
0.024225389022 -0.0761369369263 0.935 1.97241068554e-38
0.0259557739521 -0.0761369369263 0.935 2.03694762644e-38
0.0276861588823 -0.0761369369263 0.935 2.08290082737e-38
0.0294165438124 -0.0761369369263 0.935 2.04609446204e-38
0.0311469287426 -0.0761369369263 0.935 2.02772778319e-38
0.0328773136727 -0.0761369369263 0.935 1.88957853201e-38
0.0346076986028 -0.0761369369263 0.935 2.05553094603e-38
0.036338083533 -0.0761369369263 0.935 1.97244669891e-38
0.0379870385841 -0.0759740771681 0.933 2.10137666736e-38
0.0397137221561 -0.0759740771681 0.933 2.01836430686e-38
0.0414404057281 -0.0759740771681 0.933 2.04605928945e-38
0.0430282883699 -0.0757297875309 0.93 1.96319112255e-38
0.044653184593 -0.0755669277728 0.928 2.06460589501e-38
0.0463706147697 -0.0755669277728 0.928 2.09229989669e-38
0.0480880449463 -0.0755669277728 0.928 1.98166486059e-38
0.049805475123 -0.0755669277728 0.928 2.00010426683e-38
0.0515229052996 -0.0755669277728 0.928 2.03698279903e-38
0.0532403354763 -0.0755669277728 0.928 2.06460589501e-38
0.054957765653 -0.0755669277728 0.928 1.99996119425e-38
0.0566751958296 -0.0755669277728 0.928 2.0368394462e-38
0.0583926260063 -0.0755669277728 0.928 2.07371769814e-38
0.0599157348806 -0.0753226381356 0.925 2.07371769814e-38
0.06162761302 -0.0753226381356 0.925 2.0368394462e-38
0.0633394911595 -0.0753226381356 0.925 2.06449813516e-38
0.0649107176896 -0.0751597783775 0.923 2.0368394462e-38
0.0666188944709 -0.0751597783775 0.923 1.98152234854e-38
0.0681049897639 -0.0749154887403 0.92 2.04598740283e-38
0.069807614508 -0.0749154887403 0.92 1.99992504075e-38
0.0715102392521 -0.0749154887403 0.92 2.06449701412e-38
0.0732128639962 -0.0749154887403 0.92 2.03687349775e-38
0.0747526289822 -0.0747526289822 0.918 1.94467814815e-38
0.0764515523681 -0.0747526289822 0.918 2.147473081e-38
0.0781504757541 -0.0747526289822 0.918 2.00914474387e-38
0.07984939914 -0.0747526289822 0.918 2.06442708933e-38
0.081548322526 -0.0747526289822 0.918 1.95397155956e-38
0.0829751960887 -0.074508339345 0.915 2.00928851709e-38
0.0846685674374 -0.074508339345 0.915 1.88943419827e-38
0.0861731695211 -0.0743454795868 0.913 2.07375343126e-38
0.0878628395117 -0.0743454795868 0.913 2.08297299424e-38
0.0895525095023 -0.0743454795868 0.913 2.06453358801e-38
0.0909423694836 -0.0741011899496 0.91 2.01843577308e-38
0.092626487437 -0.0741011899496 0.91 2.10133995334e-38
0.0941033293346 -0.0739383301915 0.908 1.95397113917e-38
0.0957837459299 -0.0739383301915 0.908 2.03694734618e-38
0.0974641625252 -0.0739383301915 0.908 2.03694762644e-38
0.0989261989902 -0.0737754704334 0.906 1.98163024852e-38
0.100602914227 -0.0737754704334 0.906 1.98152234854e-38
0.102279629464 -0.0737754704334 0.906 2.01843605334e-38
0.103956344702 -0.0737754704334 0.906 1.94460738258e-38
0.105283281595 -0.0735311807962 0.903 1.99996035347e-38
0.106954444794 -0.0735311807962 0.903 1.90790891722e-38
0.108625607994 -0.0735311807962 0.903 1.9541858181e-38
0.110296771194 -0.0735311807962 0.903 2.14783167327e-38
-0.0184438676083 -0.0720987551962 0.906 6.81743333671e-39
-0.0167671523712 -0.0720987551962 0.906 2.35077248129e-38
-0.0150904371341 -0.0720987551962 0.906 2.05538647215e-38
-0.013413721897 -0.0720987551962 0.906 1.94493276408e-38
-0.0117629161668 -0.0722579135962 0.908 2.00950585848e-38
-0.0101047077204 -0.0724170719962 0.91 2.0647870829e-38
-0.00844834995305 -0.0726558095962 0.913 1.96329972318e-38
-0.006773485395 -0.0728149679962 0.915 1.99088610514e-38
-0.00508011404625 -0.0728149679962 0.915 2.04631110278e-38
-0.0033867426975 -0.0728149679962 0.915 1.98177416187e-38
-0.00169892338596 -0.0730537055962 0.918 2.06475022875e-38
0.0 -0.0732128639962 0.92 1.98177416187e-38
0.00171187813945 -0.0736107599962 0.925 1.97255487915e-38
0.00342375627889 -0.0736107599962 0.925 2.00943285083e-38
0.00515229052996 -0.0738494975962 0.928 1.95411547292e-38
0.00688452613918 -0.0740086559961 0.93 2.02787169655e-38
0.00863341786002 -0.0742473935961 0.933 2.00021300759e-38
0.0103823095809 -0.0744065519961 0.935 1.96333475564e-38
0.012112694511 -0.0744065519961 0.935 1.92649223681e-38
0.0138430794411 -0.0744065519961 0.935 2.11992341306e-38
0.0155734643713 -0.0744065519961 0.935 2.06460603514e-38
0.0173038493014 -0.0744065519961 0.935 2.02772778319e-38
0.0190342342316 -0.0744065519961 0.935 2.01850822021e-38
0.0207646191617 -0.0744065519961 0.935 2.11992327293e-38
0.0224950040919 -0.0744065519961 0.935 2.09226458397e-38
0.024225389022 -0.0744065519961 0.935 1.98162982813e-38
0.0259557739521 -0.0744065519961 0.935 1.96319070216e-38
0.0276861588823 -0.0744065519961 0.935 2.05527745113e-38
0.0294165438124 -0.0744065519961 0.935 2.00921592983e-38
0.0311469287426 -0.0744065519961 0.935 2.03694720605e-38
0.0328773136727 -0.0744065519961 0.935 2.01865241382e-38
0.0346076986028 -0.0744065519961 0.935 2.05553066577e-38
0.036338083533 -0.0744065519961 0.935 2.03698363981e-38
0.0379870385841 -0.0742473935961 0.933 2.06453358801e-38
0.0397137221561 -0.0742473935961 0.933 2.04605816841e-38
0.0414404057281 -0.0742473935961 0.933 1.96308294231e-38
0.0430282883699 -0.0740086559961 0.93 2.08304516111e-38
0.044653184593 -0.0738494975962 0.928 2.03698279903e-38
0.0463706147697 -0.0738494975962 0.928 1.99088442358e-38
0.0480880449463 -0.0738494975962 0.928 2.10155491253e-38
0.049805475123 -0.0738494975962 0.928 2.0185433928e-38
0.0515229052996 -0.0738494975962 0.928 1.9908849841e-38
0.0532403354763 -0.0738494975962 0.928 2.07382559813e-38
0.054957765653 -0.0738494975962 0.928 2.11059595009e-38
0.0566751958296 -0.0738494975962 0.928 2.00918075724e-38
0.0583926260063 -0.0738494975962 0.928 1.94467954945e-38
0.0599157348806 -0.0736107599962 0.925 2.1106316832e-38
0.06162761302 -0.0736107599962 0.925 1.99999692736e-38
0.0633394911595 -0.0736107599962 0.925 2.03687517931e-38
0.0649107176896 -0.0734516015962 0.923 1.98152206828e-38
0.0666188944709 -0.0734516015962 0.923 2.15669376502e-38
0.0683270712523 -0.0734516015962 0.923 2.04602257543e-38
0.0700352480336 -0.0734516015962 0.923 2.03683860542e-38
0.0715102392521 -0.0732128639962 0.92 2.07371657711e-38
0.0732128639962 -0.0732128639962 0.92 2.07371657711e-38
0.0749154887403 -0.0732128639962 0.92 1.97230138426e-38
0.0764515523681 -0.0730537055962 0.918 2.01836388647e-38
0.0781504757541 -0.0730537055962 0.918 2.04602299581e-38
0.07984939914 -0.0730537055962 0.918 2.07364609179e-38
0.081548322526 -0.0730537055962 0.918 2.01840032023e-38
0.0829751960887 -0.0728149679962 0.915 2.12907080917e-38
0.0846685674374 -0.0728149679962 0.915 1.97233823841e-38
0.0863619387862 -0.0728149679962 0.915 2.0460947423e-38
0.0880553101349 -0.0728149679962 0.915 2.00921649035e-38
0.0895525095023 -0.0726558095962 0.913 1.99999692736e-38
0.0909423694836 -0.0724170719962 0.91 2.01843605334e-38
0.092626487437 -0.0724170719962 0.91 2.0460947423e-38
0.0941033293346 -0.0722579135962 0.908 1.99999692736e-38
0.0957837459299 -0.0722579135962 0.908 2.02765561632e-38
0.0974641625252 -0.0722579135962 0.908 1.96319084229e-38
0.0991445791204 -0.0722579135962 0.908 2.00928893748e-38
0.100602914227 -0.0720987551962 0.906 2.00928865722e-38
0.102279629464 -0.0720987551962 0.906 2.04616676904e-38
0.103612118395 -0.0718600175963 0.903 2.01843577308e-38
0.105050096032 -0.0717008591963 0.901 2.02761904243e-38
0.106717557874 -0.0717008591963 0.901 1.95397113917e-38
0.108385019715 -0.0717008591963 0.901 2.02790686914e-38
0.110296771194 -0.0718600175963 0.903 2.02797763471e-38
0.111967934394 -0.0718600175963 0.903 2.35084226596e-38
-0.018382795199 -0.0701888543963 0.903 2.19368019721e-38
-0.0167116319991 -0.0701888543963 0.903 2.16605808214e-38
-0.0150404687992 -0.0701888543963 0.903 2.2029007411e-38
-0.013413721897 -0.0704220399591 0.906 2.01868926797e-38
-0.0117629161668 -0.070577497001 0.908 2.04634795693e-38
-0.0101047077204 -0.0707329540428 0.91 2.00939753811e-38
-0.00844834995305 -0.0709661396056 0.913 2.01854507436e-38
-0.006773485395 -0.0711215966475 0.915 2.0554233263e-38
-0.00508011404625 -0.0711215966475 0.915 2.03705622707e-38
-0.00339784677192 -0.0713547822102 0.918 1.94493248382e-38
-0.00169892338596 -0.0713547822102 0.918 2.03720000029e-38
0.0 -0.0717434248149 0.923 1.96340664225e-38
0.00171187813945 -0.0718988818567 0.925 2.02787169655e-38
0.00343486035331 -0.0721320674195 0.928 2.05553038551e-38
0.00515229052996 -0.0721320674195 0.928 1.88035868877e-38
0.00688452613918 -0.0722875244614 0.93 1.9909934446e-38
0.00863341786002 -0.0725207100241 0.933 2.05553066577e-38
0.0103823095809 -0.072676167066 0.935 2.06475022875e-38
0.012112694511 -0.072676167066 0.935 1.97255459889e-38
0.0138430794411 -0.072676167066 0.935 2.10144925462e-38
0.0155734643713 -0.072676167066 0.935 2.00003406177e-38
0.0173038493014 -0.072676167066 0.935 2.0737902854e-38
0.0190342342316 -0.072676167066 0.935 2.00928865722e-38
0.0207646191617 -0.072676167066 0.935 2.02772764306e-38
0.0224950040919 -0.072676167066 0.935 2.01854367306e-38
0.024225389022 -0.072676167066 0.935 2.09229989669e-38
0.0259557739521 -0.072676167066 0.935 1.98166486059e-38
0.0276861588823 -0.072676167066 0.935 1.97230124413e-38
0.0294165438124 -0.072676167066 0.935 2.09222758969e-38
0.0311469287426 -0.072676167066 0.935 1.95400673215e-38
0.0328773136727 -0.072676167066 0.935 2.00021300759e-38
0.0346076986028 -0.072676167066 0.935 2.03709125953e-38
0.036338083533 -0.072676167066 0.935 2.08311690759e-38
0.0380684684631 -0.072676167066 0.935 2.02769064879e-38
0.0397137221561 -0.0725207100241 0.933 2.11984984489e-38
0.0414404057281 -0.0725207100241 0.933 2.11985124619e-38
0.0431670893001 -0.0725207100241 0.933 2.10148428709e-38
0.0447494199046 -0.0722875244614 0.93 2.02776295579e-38
0.0464705514394 -0.0722875244614 0.93 2.07389622357e-38
0.0481916829742 -0.0722875244614 0.93 2.05545681734e-38
0.049912814509 -0.0722875244614 0.93 2.02776267553e-38
0.0515229052996 -0.0721320674195 0.928 2.03698279903e-38
0.0532403354763 -0.0721320674195 0.928 2.07382587839e-38
0.054957765653 -0.0721320674195 0.928 2.0368394462e-38
0.0566751958296 -0.0721320674195 0.928 2.05531430528e-38
0.0583926260063 -0.0721320674195 0.928 1.96311839516e-38
0.0601100561829 -0.0721320674195 0.928 2.05531374476e-38
0.06162761302 -0.0718988818567 0.925 2.03687461879e-38
0.0633394911595 -0.0718988818567 0.925 1.98155724087e-38
0.0650513692989 -0.0718988818567 0.925 2.05531430528e-38
0.0667632474384 -0.0718988818567 0.925 2.02761988321e-38
0.0683270712523 -0.0717434248149 0.923 2.01843465204e-38
0.0700352480336 -0.0717434248149 0.923 2.06453246697e-38
0.0717434248149 -0.0717434248149 0.923 2.04605816841e-38
0.0734516015962 -0.0717434248149 0.923 2.07368154464e-38
0.0749154887403 -0.0715102392521 0.92 2.12896346971e-38
0.0766181134844 -0.0715102392521 0.92 2.04598740283e-38
0.0783207382285 -0.0715102392521 0.92 1.98148591478e-38
0.07984939914 -0.0713547822102 0.918 2.0644617014e-38
0.081548322526 -0.0713547822102 0.918 2.02765561632e-38
0.0832472459119 -0.0713547822102 0.918 2.07375343126e-38
0.0846685674374 -0.0711215966475 0.915 2.09219255723e-38
0.0863619387862 -0.0711215966475 0.915 2.13829037216e-38
0.0880553101349 -0.0711215966475 0.915 2.12903507606e-38
0.0895525095023 -0.0709661396056 0.913 2.05527857217e-38
0.0909423694836 -0.0707329540428 0.91 2.01850822021e-38
0.092626487437 -0.0707329540428 0.91 2.00006909424e-38
0.0941033293346 -0.070577497001 0.908 2.07360965803e-38
0.0957837459299 -0.070577497001 0.908 2.082864814e-38
0.0974641625252 -0.070577497001 0.908 2.02765561632e-38
0.0989261989902 -0.0704220399591 0.906 2.00006909424e-38
0.100602914227 -0.0704220399591 0.906 2.02779966981e-38
0.101940955195 -0.0701888543963 0.903 1.98170171474e-38
0.103612118395 -0.0701888543963 0.903 1.99088470384e-38
0.105050096032 -0.0700333973545 0.901 2.02769064879e-38
0.106717557874 -0.0700333973545 0.901 2.04616718943e-38
0.108385019715 -0.0700333973545 0.901 1.97259005174e-38
0.110052481557 -0.0700333973545 0.901 1.9541858181e-38
0.111719943399 -0.0700333973545 0.901 2.35073520675e-38
-0.0198540850594 -0.0678347906197 0.894 1.84322890375e-38
-0.0181995779711 -0.0678347906197 0.894 2.16598619553e-38
-0.0165450708829 -0.0678347906197 0.894 1.94475311762e-38
-0.0150404687992 -0.0685176911964 0.903 2.10155827564e-38
-0.013413721897 -0.068745324722 0.906 2.00946970498e-38
-0.0117629161668 -0.0688970804057 0.908 2.01868870745e-38
-0.0101047077204 -0.0690488360894 0.91 2.03705622707e-38
-0.00844834995305 -0.069276469615 0.913 2.0554233263e-38
-0.006773485395 -0.0694282252987 0.915 2.08308201526e-38
-0.00508011404625 -0.0694282252987 0.915 2.03705650733e-38
-0.00339784677192 -0.0696558588243 0.918 1.95418834044e-38
-0.0017026247441 -0.069807614508 0.92 2.01890506793e-38
0.0 -0.0700352480336 0.923 1.97262620524e-38
0.00171187813945 -0.0701870037173 0.925 1.97258977148e-38
0.00343486035331 -0.0704146372428 0.928 2.00946830368e-38
0.00515229052996 -0.0704146372428 0.928 2.12932262251e-38
0.00688452613918 -0.0705663929266 0.93 1.97255431863e-38
0.00863341786002 -0.0707940264521 0.933 2.0371634264e-38
0.0103823095809 -0.0709457821358 0.935 1.9818104555e-38
0.012112694511 -0.0709457821358 0.935 2.00024958148e-38
0.0138430794411 -0.0709457821358 0.935 2.04616817034e-38
0.0155734643713 -0.0709457821358 0.935 2.0829746758e-38
0.0173038493014 -0.0709457821358 0.935 2.06457100268e-38
0.0190342342316 -0.0709457821358 0.935 2.07382587839e-38
0.0207646191617 -0.0709457821358 0.935 2.06460589501e-38
0.0224950040919 -0.0709457821358 0.935 2.04620208176e-38
0.024225389022 -0.0709457821358 0.935 1.99092015669e-38
0.0259557739521 -0.0709457821358 0.935 2.04623725435e-38
0.0277749914776 -0.0711734156614 0.938 2.1382886906e-38
0.029510928445 -0.0711734156614 0.938 2.01847094567e-38
0.0312468654123 -0.0711734156614 0.938 2.0830803337e-38
0.0329828023797 -0.0711734156614 0.938 1.97255431863e-38
0.0346076986028 -0.0709457821358 0.935 1.94493136278e-38
0.036338083533 -0.0709457821358 0.935 2.08311662733e-38
0.0380684684631 -0.0709457821358 0.935 2.03690979138e-38
0.0397988533933 -0.0709457821358 0.935 2.05531234346e-38
0.0415292383234 -0.0709457821358 0.935 1.9999966471e-38
0.0431670893001 -0.0707940264521 0.933 2.02772764306e-38
0.0448937728721 -0.0707940264521 0.933 2.02776267553e-38
0.0464705514394 -0.0705663929266 0.93 2.0831155063e-38
0.0481916829742 -0.0705663929266 0.93 2.04623725435e-38
0.049912814509 -0.0705663929266 0.93 2.08308005344e-38
0.0516339460438 -0.0705663929266 0.93 2.11995886591e-38
0.0533550775786 -0.0705663929266 0.93 2.11070413033e-38
0.054957765653 -0.0704146372428 0.928 2.11059595009e-38
0.0566751958296 -0.0704146372428 0.928 2.13829037216e-38
0.0583926260063 -0.0704146372428 0.928 1.97233767789e-38
0.0601100561829 -0.0704146372428 0.928 2.10144715268e-38
0.0618274863596 -0.0704146372428 0.928 2.11988613852e-38
0.0633394911595 -0.0701870037173 0.925 2.07378846372e-38
0.0650513692989 -0.0701870037173 0.925 2.073753151e-38
0.0667632474384 -0.0701870037173 0.925 2.08297299424e-38
0.0683270712523 -0.0700352480336 0.923 2.09222632852e-38
0.0700352480336 -0.0700352480336 0.923 2.14750797333e-38
0.0717434248149 -0.0700352480336 0.923 2.05527773139e-38
0.0734516015962 -0.0700352480336 0.923 2.07364637205e-38
0.0749154887403 -0.069807614508 0.92 2.0275132444e-38
0.0766181134844 -0.069807614508 0.92 2.05520724608e-38
0.0783207382285 -0.069807614508 0.92 2.08290082737e-38
0.0800233629726 -0.069807614508 0.92 2.10137512593e-38
0.081548322526 -0.0696558588243 0.918 2.05531402502e-38
0.0832472459119 -0.0696558588243 0.918 2.0460947423e-38
0.0846685674374 -0.0694282252987 0.915 1.95389911243e-38
0.0863619387862 -0.0694282252987 0.915 2.09215682412e-38
0.0880553101349 -0.0694282252987 0.915 1.93542425335e-38
0.0895525095023 -0.069276469615 0.913 2.04616690917e-38
0.0912421794929 -0.069276469615 0.913 2.11070385007e-38
0.092626487437 -0.0690488360894 0.91 2.01850822021e-38
0.0941033293346 -0.0688970804057 0.908 2.10119603999e-38
0.0957837459299 -0.0688970804057 0.908 2.04580677546e-38
0.0974641625252 -0.0688970804057 0.908 2.08290110763e-38
0.0989261989902 -0.068745324722 0.906 2.05538633202e-38
0.100602914227 -0.068745324722 0.906 2.02790742966e-38
0.101940955195 -0.0685176911964 0.903 1.96337020849e-38
0.103612118395 -0.0685176911964 0.903 2.00017587318e-38
0.105050096032 -0.0683659355127 0.901 1.92638321579e-38
0.106717557874 -0.0683659355127 0.901 1.94478829021e-38
0.108385019715 -0.0683659355127 0.901 2.04631138304e-38
0.109686047101 -0.0681383019871 0.898 2.14776146822e-38
0.111347956906 -0.0681383019871 0.898 2.32300505157e-38
0.11300986671 -0.0681383019871 0.898 1.36417162203e-38
-0.0215085921477 -0.0661802835314 0.894 7.8319566093e-39
-0.0198540850594 -0.0661802835314 0.894 2.35048535524e-38
-0.0181385055618 -0.0659582020431 0.891 1.96322769644e-38
-0.0164895505108 -0.0659582020431 0.891 2.12928744992e-38
-0.0150404687992 -0.0668465279965 0.903 2.00950473744e-38
-0.013413721897 -0.0670686094849 0.906 2.01872402017e-38
-0.0117629161668 -0.0672166638105 0.908 1.96333475564e-38
-0.0101047077204 -0.067364718136 0.91 2.03709125953e-38
-0.00844834995305 -0.0675867996244 0.913 2.07396951148e-38
-0.006773485395 -0.06773485395 0.915 2.00021300759e-38
-0.00508011404625 -0.06773485395 0.915 2.02787169655e-38
-0.00339784677192 -0.0679569354383 0.918 2.0002848942e-38
-0.0017026247441 -0.0681049897639 0.92 2.00950445719e-38
0.0 -0.0683270712523 0.923 1.99102889745e-38
0.00171187813945 -0.0684751255778 0.925 2.06471309434e-38
0.00343486035331 -0.0686972070662 0.928 2.00017615344e-38
0.00516339460438 -0.0688452613918 0.93 2.1107387424e-38
0.00688452613918 -0.0688452613918 0.93 2.0185433928e-38
0.00863341786002 -0.0690673428801 0.933 2.06478540134e-38
0.0103823095809 -0.0692153972057 0.935 2.00950445719e-38
0.012112694511 -0.0692153972057 0.935 1.98198996184e-38
0.0138430794411 -0.0692153972057 0.935 1.99103001849e-38
0.0155734643713 -0.0692153972057 0.935 2.12928744992e-38
0.0173038493014 -0.0692153972057 0.935 2.07386189176e-38
0.0190342342316 -0.0692153972057 0.935 2.0093604037e-38
0.0207646191617 -0.0692153972057 0.935 2.0370188124e-38
0.0224950040919 -0.0692153972057 0.935 2.07393237707e-38
0.024225389022 -0.0692153972057 0.935 2.06467666058e-38
0.0259557739521 -0.0692153972057 0.935 2.0831155063e-38
0.0277749914776 -0.0694374786941 0.938 2.08311578656e-38
0.029510928445 -0.0694374786941 0.938 2.02776295579e-38
0.0312468654123 -0.0694374786941 0.938 2.09226458397e-38
0.0329828023797 -0.0694374786941 0.938 2.0000693745e-38
0.034718739347 -0.0694374786941 0.938 2.0646063154e-38
0.0364546763144 -0.0694374786941 0.938 2.08304516111e-38
0.0380684684631 -0.0692153972057 0.935 1.94475157619e-38
0.0397988533933 -0.0692153972057 0.935 2.05542164474e-38
0.0415292383234 -0.0692153972057 0.935 2.0922647241e-38
0.0431670893001 -0.0690673428801 0.933 2.08304516111e-38
0.0448937728721 -0.0690673428801 0.933 2.04616690917e-38
0.0466204564441 -0.0690673428801 0.933 2.09219255723e-38
0.0483471400161 -0.0690673428801 0.933 2.1382900919e-38
0.049912814509 -0.0688452613918 0.93 2.06456890073e-38
0.0516339460438 -0.0688452613918 0.93 2.10144701255e-38
0.0533550775786 -0.0688452613918 0.93 2.04605774802e-38
0.0550762091134 -0.0688452613918 0.93 2.02754687556e-38
0.0567973406482 -0.0688452613918 0.93 2.1105232227e-38
0.0583926260063 -0.0686972070662 0.928 2.09208409673e-38
0.0601100561829 -0.0686972070662 0.928 2.12896234867e-38
0.0618274863596 -0.0686972070662 0.928 2.12896234867e-38
0.0635449165362 -0.0686972070662 0.928 2.01832759284e-38
0.0650513692989 -0.0684751255778 0.925 2.11974306595e-38
0.0667632474384 -0.0684751255778 0.925 2.02754743608e-38
0.0683270712523 -0.0683270712523 0.923 2.02758372971e-38
0.0700352480336 -0.0683270712523 0.923 2.01843605334e-38
0.0717434248149 -0.0683270712523 0.923 2.0737179784e-38
0.0732128639962 -0.0681049897639 0.92 2.02762044373e-38
0.0749154887403 -0.0681049897639 0.92 2.11059623035e-38
0.0766181134844 -0.0681049897639 0.92 2.06449841542e-38
0.0783207382285 -0.0681049897639 0.92 2.1106316832e-38
0.07984939914 -0.0679569354383 0.918 2.08297271398e-38
0.081548322526 -0.0679569354383 0.918 2.07386105098e-38
0.0832472459119 -0.0679569354383 0.918 2.01854367306e-38
0.0846685674374 -0.06773485395 0.915 2.10151973994e-38
0.0863619387862 -0.06773485395 0.915 2.10151973994e-38
0.0880553101349 -0.06773485395 0.915 1.9355320132e-38
0.0897486814837 -0.06773485395 0.915 2.05545835876e-38
0.0912421794929 -0.0675867996244 0.913 2.00014098085e-38
0.0929318494835 -0.0675867996244 0.913 2.07386189176e-38
0.0943106053904 -0.067364718136 0.91 2.14740147464e-38
0.0957837459299 -0.0672166638105 0.908 2.01832731258e-38
0.0974641625252 -0.0672166638105 0.908 2.11981439204e-38
0.0991445791204 -0.0672166638105 0.908 2.00925152281e-38
0.100602914227 -0.0670686094849 0.906 2.0185433928e-38
0.101940955195 -0.0668465279965 0.903 1.9908849841e-38
0.10338263419 -0.0666984736709 0.901 1.99092127773e-38
0.105050096032 -0.0666984736709 0.901 2.05545835876e-38
0.106362227492 -0.0664763921826 0.898 2.0554932511e-38
0.108024137297 -0.0664763921826 0.898 1.97251704409e-38
0.109686047101 -0.0664763921826 0.898 2.07386049046e-38
0.111347956906 -0.0664763921826 0.898 2.35059199405e-38
0.11300986671 -0.0664763921826 0.898 8.01597792623e-39
-0.0245677646499 -0.0638761880897 0.885 2.35098730035e-38
-0.0229299136732 -0.0638761880897 0.885 1.03223078063e-38
-0.0213882980082 -0.0641648940246 0.889 2.29520399069e-38
-0.0197874606129 -0.064309246992 0.891 2.21208429072e-38
-0.0180977906223 -0.0641648940246 0.889 1.96322769644e-38
-0.0164525369294 -0.0641648940246 0.889 2.1016284807e-38
-0.0150404687992 -0.0651753647966 0.903 2.00957620367e-38
-0.013413721897 -0.0653918942478 0.906 2.09244437056e-38
-0.0117888256738 -0.0656806001826 0.91 2.0002487407e-38
-0.0101047077204 -0.0656806001826 0.91 2.05556611862e-38
-0.00844834995305 -0.0658971296338 0.913 2.09244437056e-38
-0.006773485395 -0.0660414826012 0.915 2.04634655563e-38
-0.00509677015787 -0.0662580120524 0.918 1.99102917771e-38
-0.00339784677192 -0.0662580120524 0.918 2.04634655563e-38
-0.0017026247441 -0.0664023650198 0.92 2.07400524459e-38
0.0 -0.0667632474384 0.925 2.0647856816e-38
0.00171743017665 -0.0669797768895 0.928 2.01857968643e-38
0.00343486035331 -0.0669797768895 0.928 2.0185433928e-38
0.00516339460438 -0.067124129857 0.93 2.10151945968e-38
0.00688452613918 -0.067124129857 0.93 2.00932382981e-38
0.00863341786002 -0.0673406593081 0.933 2.0370188124e-38
0.0103823095809 -0.0674850122756 0.935 2.07404139809e-38
0.012112694511 -0.0674850122756 0.935 1.99120980508e-38
0.0138430794411 -0.0674850122756 0.935 1.99103001849e-38
0.0155734643713 -0.0674850122756 0.935 2.00943313109e-38
0.0173038493014 -0.0674850122756 0.935 2.00943285083e-38
0.0190342342316 -0.0674850122756 0.935 2.04623865565e-38
0.0207646191617 -0.0674850122756 0.935 2.07389706435e-38
0.0224950040919 -0.0674850122756 0.935 2.06464120773e-38
0.024225389022 -0.0674850122756 0.935 2.0462018015e-38
0.0259557739521 -0.0674850122756 0.935 2.04623753461e-38
0.0277749914776 -0.0677015417267 0.938 1.99088470384e-38
0.029510928445 -0.0677015417267 0.938 2.07386105098e-38
0.0312468654123 -0.0677015417267 0.938 1.96319084229e-38
0.0329828023797 -0.0677015417267 0.938 1.9447164036e-38
0.034718739347 -0.0677015417267 0.938 2.09226500436e-38
0.0364546763144 -0.0677015417267 0.938 2.08304544137e-38
0.0380684684631 -0.0674850122756 0.935 2.06460603514e-38
0.0397988533933 -0.0674850122756 0.935 2.08308061396e-38
0.0415292383234 -0.0674850122756 0.935 2.00928865722e-38
0.0431670893001 -0.0673406593081 0.933 2.02772778319e-38
0.0448937728721 -0.0673406593081 0.933 2.08304516111e-38
0.0466204564441 -0.0673406593081 0.933 2.0368394462e-38
0.0483471400161 -0.0673406593081 0.933 2.0460947423e-38
0.0500738235881 -0.0673406593081 0.933 2.07375287074e-38
0.0518005071601 -0.0673406593081 0.933 2.08297159294e-38
0.0535271907321 -0.0673406593081 0.933 2.13828841034e-38
0.0552538743041 -0.0673406593081 0.933 2.03683818503e-38
0.0567973406482 -0.067124129857 0.93 2.05520556452e-38
0.058518472183 -0.067124129857 0.93 2.02754715582e-38
0.0601100561829 -0.0669797768895 0.928 2.1105232227e-38
0.0618274863596 -0.0669797768895 0.928 2.09208437699e-38
0.0635449165362 -0.0669797768895 0.928 2.07364525101e-38
0.0650513692989 -0.0667632474384 0.925 2.04598656205e-38
0.0667632474384 -0.0667632474384 0.925 2.04595096907e-38
0.0684751255778 -0.0667632474384 0.925 2.10137666736e-38
0.0700352480336 -0.0666188944709 0.923 2.09215738464e-38
0.0717434248149 -0.0666188944709 0.923 2.10137666736e-38
0.0732128639962 -0.0664023650198 0.92 2.01840060049e-38
0.0749154887403 -0.0664023650198 0.92 1.95386337932e-38
0.0766181134844 -0.0664023650198 0.92 2.12907080917e-38
0.0783207382285 -0.0664023650198 0.92 2.02765561632e-38
0.07984939914 -0.0662580120524 0.918 2.11985124619e-38
0.081548322526 -0.0662580120524 0.918 1.98166542111e-38
0.0832472459119 -0.0662580120524 0.918 2.04620208176e-38
0.0846685674374 -0.0660414826012 0.915 2.02776323605e-38
0.0863619387862 -0.0660414826012 0.915 2.00932411007e-38
0.0880553101349 -0.0660414826012 0.915 2.00928851709e-38
0.0897486814837 -0.0660414826012 0.915 2.04616690917e-38
0.0914420528324 -0.0660414826012 0.915 1.9539712793e-38
0.0929318494835 -0.0658971296338 0.913 2.08304516111e-38
0.0943106053904 -0.0656806001826 0.91 2.1289986423e-38
0.0959947233438 -0.0656806001826 0.91 2.11059510931e-38
0.0974641625252 -0.0655362472152 0.908 1.96308182127e-38
0.0991445791204 -0.0655362472152 0.908 2.04612977476e-38
0.100602914227 -0.0653918942478 0.906 2.0462018015e-38
0.101940955195 -0.0651753647966 0.903 2.055421925e-38
0.10338263419 -0.0650310118292 0.901 2.04623865565e-38
0.105050096032 -0.0650310118292 0.901 2.00932495085e-38
0.106362227492 -0.064814482378 0.898 2.11081048888e-38
0.108024137297 -0.064814482378 0.898 2.13843260395e-38
0.109686047101 -0.064814482378 0.898 2.23059306123e-38
0.111347956906 -0.064814482378 0.898 2.35080807427e-38
-0.0245677646499 -0.062238337113 0.885 2.23999199042e-38
-0.0229299136732 -0.062238337113 0.885 1.29023421051e-38
-0.0213401803524 -0.0623789887223 0.887 2.331973642e-38
-0.0197430443153 -0.0625196403316 0.889 2.05535143969e-38
