# .PCD v0.7 - Point Cloud Data file format
VERSION 0.7
FIELDS x y z rgb
SIZE 4 4 4 4
TYPE F F F F
COUNT 1 1 1 1
WIDTH 833
HEIGHT 1
VIEWPOINT 0 0 0 1 0 0 0
POINTS 833
DATA ascii
-0.0399746679049 -0.0527665616345 0.864 1.92634748268e-38
-0.0382868485934 -0.0526444168159 0.862 1.92631259034e-38
-0.0366915632353 -0.0526444168159 0.862 1.93553215333e-38
-0.0350962778772 -0.0526444168159 0.862 1.96311867542e-38
-0.0334232639983 -0.0525222719973 0.86 1.9631181149e-38
-0.0318316799983 -0.0525222719973 0.86 1.9169842866e-38
-0.0302400959984 -0.0525222719973 0.86 1.98148563452e-38
-0.0286485119985 -0.0525222719973 0.86 1.96304692894e-38
-0.0270569279986 -0.0525222719973 0.86 1.91691352103e-38
-0.0254061222684 -0.0524001271787 0.858 1.95372016662e-38
-0.0238182396267 -0.0524001271787 0.858 1.95371988636e-38
-0.0222303569849 -0.0524001271787 0.858 1.96297504233e-38
-0.0206424743431 -0.0524001271787 0.858 1.98144962115e-38
-0.0190545917013 -0.0524001271787 0.858 1.92613196297e-38
-0.01742599412 -0.0522779823601 0.856 1.85237545908e-38
-0.015804799255 -0.0521558375415 0.854 1.9629749022e-38
-0.0142243193295 -0.0521558375415 0.854 1.94453591635e-38
-0.012643839404 -0.0521558375415 0.854 1.87092304556e-38
-0.0110633594785 -0.0521558375415 0.854 1.99077708412e-38
-0.00948287955299 -0.0521558375415 0.854 1.94467898893e-38
-0.0079023996275 -0.0521558375415 0.854 1.93542313231e-38
-0.0736736830845 -0.0501608055044 0.847 2.09233661071e-38
-0.0721061579125 -0.0501608055044 0.847 1.22551818366e-38
-0.0705386327405 -0.0501608055044 0.847 2.35070157559e-38
-0.0689711075685 -0.0501608055044 0.847 1.97205139261e-38
-0.0675627407965 -0.0502792489648 0.849 1.81535441482e-38
-0.0659915142663 -0.0502792489648 0.849 1.90765766441e-38
-0.0644202877362 -0.0502792489648 0.849 1.80631421804e-38
-0.0629971155316 -0.0503976924253 0.851 1.8615242565e-38
-0.0616387170945 -0.050575357616 0.854 1.83386556754e-38
-0.060058237169 -0.050575357616 0.854 1.8615242565e-38
-0.0586147074946 -0.0506938010764 0.856 1.88003526908e-38
-0.057030526211 -0.0506938010764 0.856 1.87085129907e-38
-0.0555758924622 -0.0508122445369 0.858 1.91694897388e-38
-0.0539880098204 -0.0508122445369 0.858 1.92609665025e-38
-0.0525222719973 -0.0509306879973 0.86 1.88925399129e-38
-0.0509306879973 -0.0509306879973 0.86 1.9169842866e-38
-0.0494538460997 -0.0510491314578 0.862 1.94464297556e-38
-0.0479696014859 -0.0511675749183 0.864 1.9169842866e-38
-0.0463706147697 -0.0511675749183 0.864 1.9169842866e-38
-0.0447716280535 -0.0511675749183 0.864 1.9446426953e-38
-0.0431726413373 -0.0511675749183 0.864 1.9446426953e-38
-0.0415736546211 -0.0511675749183 0.864 1.95386225828e-38
-0.0399746679049 -0.0511675749183 0.864 1.99074051023e-38
-0.0383756811887 -0.0511675749183 0.864 1.98155752113e-38
-0.0366915632353 -0.0510491314578 0.862 1.98155780139e-38
-0.0350962778772 -0.0510491314578 0.862 2.00921649035e-38
-0.0335009925192 -0.0510491314578 0.862 1.96311867542e-38
-0.0319057071611 -0.0510491314578 0.862 1.94467954945e-38
-0.0302400959984 -0.0509306879973 0.86 1.9999966471e-38
-0.0286485119985 -0.0509306879973 0.86 1.97233795815e-38
-0.0270569279986 -0.0509306879973 0.86 1.95389883217e-38
-0.0254653439987 -0.0509306879973 0.86 1.99063359116e-38
-0.0238737599988 -0.0509306879973 0.86 1.95375547934e-38
-0.0222303569849 -0.0508122445369 0.858 1.96293944935e-38
-0.0206424743431 -0.0508122445369 0.858 1.95379177297e-38
-0.0190545917013 -0.0508122445369 0.858 1.92613336427e-38
-0.0174667090596 -0.0508122445369 0.858 1.95379205323e-38
-0.0158418128364 -0.0506938010764 0.856 1.91698540764e-38
-0.0142576315527 -0.0506938010764 0.856 1.92620469036e-38
-0.0126734502691 -0.0506938010764 0.856 1.88936161101e-38
-0.0110633594785 -0.050575357616 0.854 1.9446426953e-38
-0.00948287955299 -0.050575357616 0.854 1.93542299218e-38
-0.0079023996275 -0.050575357616 0.854 1.89854474024e-38
-0.00633672513455 -0.0506938010764 0.856 1.90776430322e-38
-0.0736736830845 -0.0485932803324 0.847 1.51128834261e-38
-0.0719358954381 -0.04847853823 0.845 2.35055668133e-38
-0.0703720716242 -0.04847853823 0.845 1.97226649192e-38
-0.0689711075685 -0.0485932803324 0.847 1.72333829129e-38
-0.0675627407965 -0.0487080224347 0.849 1.88007086206e-38
-0.0659915142663 -0.0487080224347 0.849 1.88007086206e-38
-0.0644202877362 -0.0487080224347 0.849 1.88929042505e-38
-0.0629971155316 -0.048822764537 0.851 1.92606147766e-38
-0.0616387170945 -0.0489948776905 0.854 1.90762207143e-38
-0.060058237169 -0.0489948776905 0.854 1.90762207143e-38
-0.0586147074946 -0.0491096197928 0.856 1.89840250844e-38
-0.057163775104 -0.0492243618951 0.858 1.87999897545e-38
-0.0557054399971 -0.0493391039974 0.86 1.92609679038e-38
-0.0541138559972 -0.0493391039974 0.86 1.95375533921e-38
-0.0525222719973 -0.0493391039974 0.86 1.95375533921e-38
-0.0510491314578 -0.0494538460997 0.862 1.93535152596e-38
-0.0495685882021 -0.0495685882021 0.864 1.94457108895e-38
-0.0479696014859 -0.0495685882021 0.864 1.94457108895e-38
-0.0463706147697 -0.0495685882021 0.864 1.98144934089e-38
-0.0449270850953 -0.0497407013555 0.867 2.00910802985e-38
-0.0433225463419 -0.0497407013555 0.867 1.9722297779e-38
-0.0415736546211 -0.0495685882021 0.864 1.96301021492e-38
-0.0399746679049 -0.0495685882021 0.864 1.99066890388e-38
-0.0383756811887 -0.0495685882021 0.864 1.99070519751e-38
-0.0367766944725 -0.0495685882021 0.864 1.97233823841e-38
-0.0351777077563 -0.0495685882021 0.864 2.00918075724e-38
-0.0335009925192 -0.0494538460997 0.862 1.98152206828e-38
-0.0319057071611 -0.0494538460997 0.862 1.93542425335e-38
-0.0303104218031 -0.0494538460997 0.862 1.99077736438e-38
-0.028715136445 -0.0494538460997 0.862 1.88936161101e-38
-0.0270569279986 -0.0493391039974 0.86 1.96315370788e-38
-0.0254653439987 -0.0493391039974 0.86 1.93535180622e-38
-0.0238737599988 -0.0493391039974 0.86 1.9629749022e-38
-0.0222821759988 -0.0493391039974 0.86 1.93528076039e-38
-0.0206905919989 -0.0493391039974 0.86 1.9445727705e-38
-0.0190545917013 -0.0492243618951 0.858 1.9261696579e-38
-0.0174667090596 -0.0492243618951 0.858 1.95382834686e-38
-0.0158418128364 -0.0491096197928 0.856 1.91705771464e-38
-0.0142576315527 -0.0491096197928 0.856 1.93553243359e-38
-0.0126734502691 -0.0491096197928 0.856 1.95382694556e-38
-0.0110892689855 -0.0491096197928 0.856 1.9169842866e-38
-0.00948287955299 -0.0489948776905 0.854 1.93542341257e-38
-0.0079023996275 -0.0489948776905 0.854 1.88010603465e-38
-0.00633672513455 -0.0491096197928 0.856 1.94464297556e-38
-0.00475254385092 -0.0491096197928 0.856 1.95386253854e-38
-0.00316836256728 -0.0491096197928 0.856 1.93542341257e-38
-0.0015804799255 -0.0489948776905 0.854 1.90776472361e-38
0.0 -0.0489948776905 0.854 1.92620384958e-38
-0.0764460003309 -0.046803673672 0.843 1.62202987739e-38
-0.0748858778752 -0.046803673672 0.843 1.8524121731e-38
-0.073499719252 -0.0469147144162 0.845 2.35037731512e-38
-0.0719358954381 -0.0469147144162 0.845 1.84315701713e-38
-0.0703720716242 -0.0469147144162 0.845 1.78783963922e-38
-0.0689711075685 -0.0470257551603 0.847 1.80631435817e-38
-0.0675627407965 -0.0471367959045 0.849 1.90772941089e-38
-0.0659915142663 -0.0471367959045 0.849 1.84319246999e-38
-0.0644202877362 -0.0471367959045 0.849 1.90772941089e-38
-0.06321919702 -0.047414397765 0.854 1.89840250844e-38
-0.0617830700619 -0.0475254385092 0.856 1.87996338247e-38
-0.0601988887783 -0.0475254385092 0.856 1.89840250844e-38
-0.0587516577458 -0.0476364792533 0.858 1.90765766441e-38
-0.057297023997 -0.0477475199975 0.86 1.91687722739e-38
-0.0557054399971 -0.0477475199975 0.86 1.93531621324e-38
-0.0541138559972 -0.0477475199975 0.86 1.94453577622e-38
-0.0526444168159 -0.0478585607417 0.862 1.93531621324e-38
-0.0511675749183 -0.0479696014859 0.864 1.99992504075e-38
-0.0495685882021 -0.0479696014859 0.864 1.96304678881e-38
-0.0481361626021 -0.0481361626021 0.867 1.95382722582e-38
-0.0465316238487 -0.0481361626021 0.867 1.98148591478e-38
-0.0449270850953 -0.0481361626021 0.867 1.99070547777e-38
-0.0433225463419 -0.0481361626021 0.867 1.97226635179e-38
-0.0417180075885 -0.0481361626021 0.867 1.98148591478e-38
-0.0401134688351 -0.0481361626021 0.867 2.02758372971e-38
-0.0385089300817 -0.0481361626021 0.867 2.02765533606e-38
-0.0369043913283 -0.0481361626021 0.867 1.99077736438e-38
-0.0352998525749 -0.0481361626021 0.867 1.99996119425e-38
-0.0335787210401 -0.0479696014859 0.864 1.96308294231e-38
-0.0319797343239 -0.0479696014859 0.864 2.00918075724e-38
-0.0303807476077 -0.0479696014859 0.864 2.01843605334e-38
-0.028715136445 -0.0478585607417 0.862 1.93545942594e-38
-0.027119851087 -0.0478585607417 0.862 2.02769064879e-38
-0.0254653439987 -0.0477475199975 0.86 1.99066918414e-38
-0.0238737599988 -0.0477475199975 0.86 2.0275118431e-38
-0.0222821759988 -0.0477475199975 0.86 1.94457220998e-38
-0.0206905919989 -0.0477475199975 0.86 1.95379205323e-38
-0.019099007999 -0.0477475199975 0.86 1.92620525088e-38
-0.0174667090596 -0.0476364792533 0.858 1.96308350283e-38
-0.0158788264178 -0.0476364792533 0.858 1.94464437686e-38
-0.014290943776 -0.0476364792533 0.858 1.96308322257e-38
-0.0127030611342 -0.0476364792533 0.858 1.93538823998e-38
-0.0110892689855 -0.0475254385092 0.856 1.90772941089e-38
-0.00950508770183 -0.0475254385092 0.856 1.99070547777e-38
-0.00792090641819 -0.0475254385092 0.856 1.97226635179e-38
-0.006321919702 -0.047414397765 0.854 1.90772913063e-38
-0.0047414397765 -0.047414397765 0.854 1.95386253854e-38
-0.003160959851 -0.047414397765 0.854 1.92620384958e-38
-0.00157492788829 -0.0472478366487 0.851 1.92620356932e-38
0.0 -0.0472478366487 0.851 1.84329938906e-38
0.00157492788829 -0.0472478366487 0.851 1.96315370788e-38
-0.0764460003309 -0.0452435512162 0.843 2.11977823854e-38
-0.0748858778752 -0.0452435512162 0.843 2.30413516645e-38
-0.073499719252 -0.0453508906023 0.845 1.79705976272e-38
-0.0719358954381 -0.0453508906023 0.845 1.80627904545e-38
-0.0703720716242 -0.0453508906023 0.845 1.89847439505e-38
-0.0689711075685 -0.0454582299883 0.847 1.89850998803e-38
-0.0675627407965 -0.0455655693744 0.849 1.88007072193e-38
-0.0659915142663 -0.0455655693744 0.849 1.87085087868e-38
-0.0645720434199 -0.0456729087604 0.851 1.88932559764e-38
-0.06321919702 -0.0458339178395 0.854 1.93531635337e-38
-0.0617830700619 -0.0459412572255 0.856 1.89840250844e-38
-0.0601988887783 -0.0459412572255 0.856 1.91687722739e-38
-0.0587516577458 -0.0460485966116 0.858 1.97219460531e-38
-0.057297023997 -0.0461559359976 0.86 1.9629749022e-38
-0.055834987532 -0.0462632753836 0.862 1.95375533921e-38
-0.0542397021739 -0.0462632753836 0.862 1.94453577622e-38
-0.0527665616345 -0.0463706147697 0.864 1.93535180622e-38
-0.0511675749183 -0.0463706147697 0.864 1.97226635179e-38
-0.0495685882021 -0.0463706147697 0.864 1.94460780297e-38
-0.0481361626021 -0.0465316238487 0.867 1.98148605491e-38
-0.0465316238487 -0.0465316238487 0.867 1.99992518088e-38
-0.0449270850953 -0.0465316238487 0.867 2.01836430686e-38
-0.0433225463419 -0.0465316238487 0.867 2.01836430686e-38
-0.0417180075885 -0.0465316238487 0.867 2.02758386984e-38
-0.0401134688351 -0.0465316238487 0.867 2.01836430686e-38
-0.0385089300817 -0.0465316238487 0.867 1.9999966471e-38
-0.0369043913283 -0.0465316238487 0.867 1.97233823841e-38
-0.0352998525749 -0.0465316238487 0.867 1.99996119425e-38
-0.0336953138215 -0.0465316238487 0.867 2.00918075724e-38
-0.0320907750681 -0.0465316238487 0.867 2.00918075724e-38
-0.0303807476077 -0.0463706147697 0.864 1.96311867542e-38
-0.0287817608915 -0.0463706147697 0.864 2.01843549282e-38
-0.0271827741753 -0.0463706147697 0.864 1.99081239684e-38
-0.0255245657289 -0.0462632753836 0.862 2.01836388647e-38
-0.0239292803708 -0.0462632753836 0.862 2.00914460374e-38
-0.0222821759988 -0.0461559359976 0.86 1.99992518088e-38
-0.0206905919989 -0.0461559359976 0.86 1.9998895879e-38
-0.019099007999 -0.0461559359976 0.86 1.9998895879e-38
-0.0175074239991 -0.0461559359976 0.86 2.0091810375e-38
-0.0158788264178 -0.0460485966116 0.858 1.97230278555e-38
-0.014290943776 -0.0460485966116 0.858 1.98152234854e-38
-0.0127030611342 -0.0460485966116 0.858 1.94457249024e-38
-0.0110892689855 -0.0459412572255 0.856 1.98145074219e-38
-0.00950508770183 -0.0459412572255 0.856 1.98145074219e-38
-0.00792090641819 -0.0459412572255 0.856 1.89847439505e-38
-0.006321919702 -0.0458339178395 0.854 1.97226635179e-38
-0.0047414397765 -0.0458339178395 0.854 1.96304650855e-38
-0.003160959851 -0.0458339178395 0.854 1.9815212275e-38
-0.00157492788829 -0.0456729087604 0.851 1.97230138426e-38
0.0 -0.0456729087604 0.851 1.99088442358e-38
0.00157122653015 -0.0455655693744 0.849 1.88946923073e-38
0.0031424530603 -0.0455655693744 0.849 1.96322573462e-38
-0.0793774759773 -0.0435797907326 0.841 9.85702626944e-39
-0.0778210548797 -0.0435797907326 0.841 2.35055668133e-38
-0.0764460003309 -0.0436834287605 0.843 2.2210855314e-38
-0.0748858778752 -0.0436834287605 0.843 1.79698731559e-38
-0.073499719252 -0.0437870667884 0.845 1.86159670363e-38
-0.0719358954381 -0.0437870667884 0.845 1.88925511233e-38
-0.0703720716242 -0.0437870667884 0.845 1.88925483207e-38
-0.0689711075685 -0.0438907048163 0.847 1.90772955102e-38
-0.0675627407965 -0.0439943428442 0.849 1.88929028492e-38
-0.0659915142663 -0.0439943428442 0.849 1.87088647167e-38
-0.0645720434199 -0.0440979808721 0.851 1.88010603465e-38
-0.0633672513455 -0.0443570759419 0.856 1.93531621324e-38
-0.0619274230293 -0.0444607139698 0.858 1.92609679038e-38
-0.0603395403876 -0.0444607139698 0.858 1.93531635337e-38
-0.0588886079969 -0.0445643519977 0.86 1.9629749022e-38
-0.057297023997 -0.0445643519977 0.86 1.99063359116e-38
-0.055834987532 -0.0446679900256 0.862 1.97223005816e-38
-0.0542397021739 -0.0446679900256 0.862 1.97223005816e-38
-0.0527665616345 -0.0447716280535 0.864 1.94457136921e-38
-0.051345240109 -0.0449270850953 0.867 1.98148605491e-38
-0.0497407013555 -0.0449270850953 0.867 1.97230250529e-38
-0.0481361626021 -0.0449270850953 0.867 1.94464381634e-38
-0.0465316238487 -0.0449270850953 0.867 1.96308294231e-38
-0.0450307231232 -0.0450307231232 0.869 1.98152206828e-38
-0.0434224830117 -0.0450307231232 0.869 2.01840032023e-38
-0.0418142429001 -0.0450307231232 0.869 1.99996119425e-38
-0.0402060027886 -0.0450307231232 0.869 2.00918075724e-38
-0.0385089300817 -0.0449270850953 0.867 1.98155780139e-38
-0.0369043913283 -0.0449270850953 0.867 1.99077736438e-38
-0.035381282454 -0.0450307231232 0.869 1.97230250529e-38
-0.0336953138215 -0.0449270850953 0.867 1.99996119425e-38
-0.0320907750681 -0.0449270850953 0.867 1.99996119425e-38
-0.0304862363147 -0.0449270850953 0.867 1.97233823841e-38
-0.0288816975613 -0.0449270850953 0.867 2.0276550558e-38
-0.0271827741753 -0.0447716280535 0.864 1.99081239684e-38
-0.0255837874591 -0.0447716280535 0.864 1.98155752113e-38
-0.0239848007429 -0.0447716280535 0.864 1.99999692736e-38
-0.0223339950128 -0.0446679900256 0.862 2.05531430528e-38
-0.0207387096547 -0.0446679900256 0.862 1.98148591478e-38
-0.019099007999 -0.0445643519977 0.86 1.97226649192e-38
-0.0175074239991 -0.0445643519977 0.86 2.01832871387e-38
-0.0159158399992 -0.0445643519977 0.86 1.99067002492e-38
-0.0143242559993 -0.0445643519977 0.86 1.95379205323e-38
-0.0127030611342 -0.0444607139698 0.858 1.96301189648e-38
-0.0111151784924 -0.0444607139698 0.858 1.92613364453e-38
-0.00950508770183 -0.0443570759419 0.856 1.95379205323e-38
-0.00792090641819 -0.0443570759419 0.856 1.98145046193e-38
-0.00633672513455 -0.0443570759419 0.856 1.97226649192e-38
-0.00475254385092 -0.0443570759419 0.856 1.93538781959e-38
-0.003160959851 -0.044253437914 0.854 1.95386253854e-38
-0.00157492788829 -0.0440979808721 0.851 1.9815212275e-38
0.0 -0.0440979808721 0.851 1.94478688891e-38
0.00157122653015 -0.0439943428442 0.849 1.96322601488e-38
0.00313505034402 -0.0438907048163 0.847 1.97244557787e-38
0.00470257551603 -0.0438907048163 0.847 1.9540064519e-38
-0.0824903181724 -0.042023369635 0.841 2.35062982911e-38
-0.0809338970749 -0.042023369635 0.841 9.39533065531e-39
-0.0793774759773 -0.042023369635 0.841 2.35055696159e-38
-0.0778210548797 -0.042023369635 0.841 2.05502633845e-38
-0.0764460003309 -0.0421233063048 0.843 1.80616974417e-38
-0.0748858778752 -0.0421233063048 0.843 1.87074381948e-38
-0.0736736830845 -0.0423231796443 0.847 1.88925511233e-38
-0.0721061579125 -0.0423231796443 0.847 1.9076942383e-38
-0.0705386327405 -0.0423231796443 0.847 1.92613308401e-38
-0.0691339673266 -0.0424231163141 0.849 1.92616867699e-38
-0.0677218991965 -0.0425230529838 0.851 1.91694897388e-38
-0.0661469713082 -0.0425230529838 0.851 1.91694869362e-38
-0.0647996769455 -0.0426729579885 0.854 1.94460738258e-38
-0.0633672513455 -0.0427728946582 0.856 1.92609665025e-38
-0.0619274230293 -0.042872831328 0.858 1.94453591635e-38
-0.0604801919968 -0.0429727679978 0.86 1.9629749022e-38
-0.0588886079969 -0.0429727679978 0.86 1.97219446518e-38
-0.05743027289 -0.0430727046675 0.862 1.97223005816e-38
-0.0559645350669 -0.0431726413373 0.864 1.98144962115e-38
-0.0543655483507 -0.0431726413373 0.864 1.98144962115e-38
-0.0527665616345 -0.0431726413373 0.864 1.9722297779e-38
-0.051345240109 -0.0433225463419 0.867 1.99070547777e-38
-0.0497407013555 -0.0433225463419 0.867 2.00918075724e-38
-0.0481361626021 -0.0433225463419 0.867 1.99996119425e-38
-0.0466389632348 -0.0434224830117 0.869 1.99996119425e-38
-0.0450307231232 -0.0434224830117 0.869 2.06449813516e-38
-0.0434224830117 -0.0434224830117 0.869 1.98152206828e-38
-0.0418142429001 -0.0434224830117 0.869 1.96308294231e-38
-0.0402060027886 -0.0434224830117 0.869 2.02761988321e-38
-0.0385977626771 -0.0434224830117 0.869 2.01843605334e-38
-0.0369895225655 -0.0434224830117 0.869 2.00921649035e-38
-0.035381282454 -0.0434224830117 0.869 2.0368394462e-38
-0.0336953138215 -0.0433225463419 0.867 2.06449813516e-38
-0.0320907750681 -0.0433225463419 0.867 2.07371769814e-38
-0.0304862363147 -0.0433225463419 0.867 1.99999692736e-38
-0.0288816975613 -0.0433225463419 0.867 1.99999636685e-38
-0.0272771588079 -0.0433225463419 0.867 2.0184710858e-38
-0.0256726200545 -0.0433225463419 0.867 2.03687517931e-38
-0.0239848007429 -0.0431726413373 0.864 1.95389911243e-38
-0.0223339950128 -0.0430727046675 0.862 2.02765533606e-38
-0.0207387096547 -0.0430727046675 0.862 1.98155752113e-38
-0.0191434242967 -0.0430727046675 0.862 1.98148591478e-38
-0.0175074239991 -0.0429727679978 0.86 1.99992518088e-38
-0.0159158399992 -0.0429727679978 0.86 1.99981770129e-38
-0.0143242559993 -0.0429727679978 0.86 1.99981798155e-38
-0.0127326719993 -0.0429727679978 0.86 1.98145074219e-38
-0.0111410879994 -0.0429727679978 0.86 1.99988986816e-38
-0.00952729585067 -0.042872831328 0.858 1.98145074219e-38
-0.00792090641819 -0.0427728946582 0.856 1.9998895879e-38
-0.00633672513455 -0.0427728946582 0.856 1.9907056179e-38
-0.00475254385092 -0.0427728946582 0.856 1.99992504075e-38
-0.003160959851 -0.0426729579885 0.854 2.00914432348e-38
-0.00157492788829 -0.0425230529838 0.851 1.97226607153e-38
0.0 -0.0425230529838 0.851 1.93538809985e-38
0.00157122653015 -0.0424231163141 0.849 1.93545998646e-38
0.00313505034402 -0.0423231796443 0.847 1.95397113917e-38
0.00470257551603 -0.0423231796443 0.847 1.99084939112e-38
0.00625529525549 -0.0422232429745 0.845 1.9263480432e-38
0.00781911906936 -0.0422232429745 0.845 1.94467926919e-38
-0.08404673927 -0.0404669485374 0.841 2.33204749043e-38
-0.0824903181724 -0.0404669485374 0.841 1.05942395824e-38
-0.0809338970749 -0.0404669485374 0.841 2.35066542209e-38
-0.0793774759773 -0.0404669485374 0.841 2.14714938105e-38
-0.0780061227866 -0.040563183849 0.843 1.94439130235e-38
-0.0764460003309 -0.040563183849 0.843 1.87067179274e-38
-0.0748858778752 -0.040563183849 0.843 1.92613308401e-38
-0.0736736830845 -0.0407556544723 0.847 1.91691352103e-38
-0.0721061579125 -0.0407556544723 0.847 1.88007086206e-38
-0.0705386327405 -0.0407556544723 0.847 1.88929042505e-38
-0.0691339673266 -0.0408518897839 0.849 1.89850998803e-38
-0.0677218991965 -0.0409481250955 0.851 1.89850998803e-38
-0.066380156871 -0.041092478063 0.854 1.90772955102e-38
-0.0649514326292 -0.0411887133746 0.856 1.94460780297e-38
-0.0635153056711 -0.0412849486862 0.858 1.97219460531e-38
-0.0620717759968 -0.0413811839978 0.86 1.98141402817e-38
-0.0604801919968 -0.0413811839978 0.86 1.97219446518e-38
-0.0590255582481 -0.0414774193095 0.862 1.94453577622e-38
-0.05743027289 -0.0414774193095 0.862 1.96301049518e-38
-0.0559645350669 -0.0415736546211 0.864 1.99988874712e-38
-0.0545543176158 -0.0417180075885 0.867 1.99066890388e-38
-0.0529497788624 -0.0417180075885 0.867 1.99988846686e-38
-0.051345240109 -0.0417180075885 0.867 2.01836416673e-38
-0.0497407013555 -0.0417180075885 0.867 2.03687517931e-38
-0.0482472033463 -0.0418142429001 0.869 2.00921649035e-38
-0.0466389632348 -0.0418142429001 0.869 1.99077736438e-38
-0.0450307231232 -0.0418142429001 0.869 2.03687517931e-38
-0.0434224830117 -0.0418142429001 0.869 2.00921649035e-38
-0.0418142429001 -0.0418142429001 0.869 2.06453386827e-38
-0.0402985367421 -0.0419104782118 0.871 2.07375343126e-38
-0.0385977626771 -0.0418142429001 0.869 2.06453358801e-38
-0.0369895225655 -0.0418142429001 0.869 2.0460947423e-38
-0.035381282454 -0.0418142429001 0.869 2.04605900919e-38
-0.0337730423424 -0.0418142429001 0.869 2.02761988321e-38
-0.0321648022309 -0.0418142429001 0.869 2.07371769814e-38
-0.0305565621193 -0.0418142429001 0.869 2.0460947423e-38
-0.0288816975613 -0.0417180075885 0.867 2.03687461879e-38
-0.0272771588079 -0.0417180075885 0.867 2.0184710858e-38
-0.0256726200545 -0.0417180075885 0.867 2.06460589501e-38
-0.0240680813011 -0.0417180075885 0.867 2.00006895411e-38
-0.0223858140267 -0.0415736546211 0.864 2.11985096593e-38
-0.0207387096547 -0.0414774193095 0.862 2.0276550558e-38
-0.0191434242967 -0.0414774193095 0.862 2.05524213841e-38
-0.0175481389386 -0.0414774193095 0.862 2.03673140609e-38
-0.0159528535806 -0.0414774193095 0.862 2.01825682726e-38
-0.0143575682225 -0.0414774193095 0.862 1.99981798155e-38
-0.0127326719993 -0.0413811839978 0.86 1.9907056179e-38
-0.0111410879994 -0.0413811839978 0.86 2.03680343283e-38
-0.0095495039995 -0.0413811839978 0.86 1.9907056179e-38
-0.00793941320889 -0.0412849486862 0.858 1.99070547777e-38
-0.00635153056711 -0.0412849486862 0.858 1.99992504075e-38
-0.00475254385092 -0.0411887133746 0.856 1.97226635179e-38
-0.003160959851 -0.041092478063 0.854 1.99070547777e-38
-0.00157492788829 -0.0409481250955 0.851 2.00914460374e-38
0.0 -0.0409481250955 0.851 2.01825682726e-38
0.00157122653015 -0.0408518897839 0.849 1.9905981383e-38
0.0031424530603 -0.0408518897839 0.849 1.95386365958e-38
0.00470257551603 -0.0407556544723 0.847 1.93553243359e-38
0.00625529525549 -0.0406594191607 0.845 1.9539712793e-38
0.00781911906936 -0.0406594191607 0.845 1.93545998646e-38
0.00938294288323 -0.0406594191607 0.845 1.99070547777e-38
0.0109208571901 -0.040563183849 0.843 1.9629749022e-38
0.0124809796459 -0.040563183849 0.843 1.89850956764e-38
-0.08404673927 -0.0389105274398 0.841 8.93616158231e-39
-0.0824903181724 -0.0389105274398 0.841 2.3500903292e-38
-0.0809338970749 -0.0389105274398 0.841 2.06410198808e-38
-0.0793774759773 -0.0389105274398 0.841 1.6953540807e-38
-0.0780061227866 -0.0390030613933 0.843 1.85219567249e-38
-0.0764460003309 -0.0390030613933 0.843 2.11045301765e-38
-0.0750635430659 -0.0390955953468 0.845 1.89847439505e-38
-0.0736736830845 -0.0391881293003 0.847 1.90772941089e-38
-0.0722764203869 -0.0392806632538 0.849 1.88929042505e-38
-0.0707051938568 -0.0392806632538 0.849 1.90772955102e-38
-0.0692968270848 -0.0393731972073 0.851 1.96304692894e-38
-0.0679606367965 -0.0395119981375 0.854 1.94457220998e-38
-0.066380156871 -0.0395119981375 0.854 1.935352647e-38
-0.0649514326292 -0.039604532091 0.856 1.95379177297e-38
-0.0635153056711 -0.0396970660444 0.858 1.95375547934e-38
-0.0620717759968 -0.0397895999979 0.86 1.95375533921e-38
-0.0604801919968 -0.0397895999979 0.86 1.9629749022e-38
-0.0590255582481 -0.0398821339514 0.862 1.98144962115e-38
-0.057563521783 -0.0399746679049 0.864 1.94457136921e-38
-0.0561588563692 -0.0401134688351 0.867 2.01832759284e-38
-0.0545543176158 -0.0401134688351 0.867 2.00910802985e-38
-0.0529497788624 -0.0401134688351 0.867 2.03676671881e-38
-0.0514636835694 -0.0402060027886 0.869 1.97233795815e-38
-0.0498554434579 -0.0402060027886 0.869 1.9908849841e-38
-0.0482472033463 -0.0402060027886 0.869 2.00932411007e-38
-0.0466389632348 -0.0402060027886 0.869 2.055421925e-38
-0.0451343611511 -0.0402985367421 0.871 2.08308061396e-38
-0.0435224196815 -0.0402985367421 0.871 2.02776323605e-38
-0.0419104782118 -0.0402985367421 0.871 1.98166542111e-38
-0.0402985367421 -0.0402985367421 0.871 2.03698279903e-38
-0.0386865952724 -0.0402985367421 0.871 2.03687489905e-38
-0.0370746538027 -0.0402985367421 0.871 2.1106316832e-38
-0.035462712333 -0.0402985367421 0.871 2.06449813516e-38
-0.0337730423424 -0.0402060027886 0.869 2.05527857217e-38
-0.0321648022309 -0.0402060027886 0.869 2.06449813516e-38
-0.0305565621193 -0.0402060027886 0.869 2.0460947423e-38
-0.0289483220078 -0.0402060027886 0.869 2.01843549282e-38
-0.0272771588079 -0.0401134688351 0.867 2.04612977476e-38
-0.0256726200545 -0.0401134688351 0.867 2.04616676904e-38
-0.0240680813011 -0.0401134688351 0.867 2.01850808008e-38
-0.0223858140267 -0.0399746679049 0.864 2.09219227697e-38
-0.0207868273105 -0.0399746679049 0.864 2.00921592983e-38
-0.0191434242967 -0.0398821339514 0.862 1.97230166452e-38
-0.0175481389386 -0.0398821339514 0.862 1.98141402817e-38
-0.0159528535806 -0.0398821339514 0.862 2.02747639025e-38
-0.0143575682225 -0.0398821339514 0.862 2.03658833351e-38
-0.0127326719993 -0.0397895999979 0.86 2.02758372971e-38
-0.0111410879994 -0.0397895999979 0.86 2.02758344945e-38
-0.0095495039995 -0.0397895999979 0.86 2.01836388647e-38
-0.00793941320889 -0.0396970660444 0.858 1.99070519751e-38
-0.00635153056711 -0.0396970660444 0.858 2.03680301244e-38
-0.00475254385092 -0.039604532091 0.856 2.00914460374e-38
-0.003160959851 -0.0395119981375 0.854 2.00914460374e-38
-0.00157492788829 -0.0393731972073 0.851 1.99992504075e-38
0.0 -0.0393731972073 0.851 2.02733275716e-38
0.00157122653015 -0.0392806632538 0.849 2.02736905079e-38
0.0031424530603 -0.0392806632538 0.849 1.99988986816e-38
0.00470257551603 -0.0391881293003 0.847 1.96315552957e-38
0.00625529525549 -0.0390955953468 0.845 1.92634888397e-38
0.00781911906936 -0.0390955953468 0.845 1.96319084229e-38
0.00938294288323 -0.0390955953468 0.845 1.99992518088e-38
0.0109208571901 -0.0390030613933 0.843 1.93531621324e-38
0.0124809796459 -0.0390030613933 0.843 1.98155780139e-38
0.0140411021016 -0.0390030613933 0.843 1.99996119425e-38
0.0156012245573 -0.0390030613933 0.843 1.87081570609e-38
0.0171613470131 -0.0390030613933 0.843 2.08279404843e-38
-0.0856031603676 -0.0373541063422 0.841 9.67299093952e-39
-0.08404673927 -0.0373541063422 0.841 2.35073744883e-38
-0.0824903181724 -0.0373541063422 0.841 2.14740259568e-38
-0.0809338970749 -0.0373541063422 0.841 1.87999883532e-38
-0.0795662452424 -0.0374429389376 0.843 1.88003414804e-38
-0.0780061227866 -0.0374429389376 0.843 1.94446346922e-38
-0.0764460003309 -0.0374429389376 0.843 1.91676932741e-38
-0.0750635430659 -0.0375317715329 0.845 1.86159530233e-38
-0.0736736830845 -0.0376206041283 0.847 1.97223005816e-38
-0.0722764203869 -0.0377094367236 0.849 1.92613224323e-38
-0.0707051938568 -0.0377094367236 0.849 1.89847355427e-38
-0.0692968270848 -0.037798269319 0.851 1.97219446518e-38
-0.0679606367965 -0.037931518212 0.854 1.97219446518e-38
-0.0665356139128 -0.0380203508073 0.856 1.93531635337e-38
-0.0651031883129 -0.0381091834027 0.858 1.96297504233e-38
-0.0635153056711 -0.0381091834027 0.858 1.95386211815e-38
-0.0620717759968 -0.038198015998 0.86 1.98155640009e-38
-0.0604801919968 -0.038198015998 0.86 1.97230124413e-38
-0.0590255582481 -0.0382868485934 0.862 2.03683832516e-38
-0.057563521783 -0.0383756811887 0.864 1.99996035347e-38
-0.0561588563692 -0.0385089300817 0.867 2.0644617014e-38
-0.0545543176158 -0.0385089300817 0.867 1.95382694556e-38
-0.053071923681 -0.0385977626771 0.869 1.99992504075e-38
-0.0514636835694 -0.0385977626771 0.869 2.07371769814e-38
-0.0498554434579 -0.0385977626771 0.869 1.99074163127e-38
-0.0483582440905 -0.0386865952724 0.871 2.00918075724e-38
-0.0467463026208 -0.0386865952724 0.871 2.02761988321e-38
-0.0451343611511 -0.0386865952724 0.871 1.99077736438e-38
-0.0436223563512 -0.0387754278677 0.873 2.1106316832e-38
-0.0420067135234 -0.0387754278677 0.873 2.08297271398e-38
-0.0403910706956 -0.0387754278677 0.873 2.04609446204e-38
-0.0387754278677 -0.0387754278677 0.873 2.06442652881e-38
-0.0370746538027 -0.0386865952724 0.871 2.06442652881e-38
-0.035462712333 -0.0386865952724 0.871 2.04602257543e-38
-0.0338507708634 -0.0386865952724 0.871 2.04605788815e-38
-0.0321648022309 -0.0385977626771 0.869 1.9907403701e-38
-0.0305565621193 -0.0385977626771 0.869 2.11981439204e-38
-0.0289483220078 -0.0385977626771 0.869 2.09215598334e-38
-0.0273400818963 -0.0385977626771 0.869 2.05524213841e-38
-0.0256726200545 -0.0385089300817 0.867 2.02762016347e-38
-0.0240680813011 -0.0385089300817 0.867 2.06449841542e-38
-0.0224635425477 -0.0385089300817 0.867 2.04605900919e-38
-0.0208590037943 -0.0385089300817 0.867 2.08293726113e-38
-0.0191878405943 -0.0383756811887 0.864 2.07375343126e-38
-0.0175481389386 -0.0382868485934 0.862 2.07371769814e-38
-0.0159528535806 -0.0382868485934 0.862 2.06446212179e-38
-0.0143575682225 -0.0382868485934 0.862 1.99992518088e-38
-0.0127326719993 -0.038198015998 0.86 2.02762044373e-38
-0.0111410879994 -0.038198015998 0.86 2.03683972646e-38
-0.0095495039995 -0.038198015998 0.86 2.03687517931e-38
-0.00793941320889 -0.0381091834027 0.858 2.00925152281e-38
-0.00635153056711 -0.0381091834027 0.858 1.97237313074e-38
-0.00475254385092 -0.0380203508073 0.856 2.03691021177e-38
-0.003160959851 -0.037931518212 0.854 2.01843577308e-38
-0.00157492788829 -0.037798269319 0.851 1.96308294231e-38
0.0 -0.037798269319 0.851 2.01829242024e-38
0.00157122653015 -0.0377094367236 0.849 2.01829242024e-38
0.0031424530603 -0.0377094367236 0.849 2.03673154622e-38
0.00470257551603 -0.0376206041283 0.847 1.9907056179e-38
0.00625529525549 -0.0375317715329 0.845 2.08290124776e-38
0.00781911906936 -0.0375317715329 0.845 1.98148591478e-38
0.00938294288323 -0.0375317715329 0.845 2.00907271713e-38
0.0109208571901 -0.0374429389376 0.843 1.97219446518e-38
0.0124809796459 -0.0374429389376 0.843 1.94467926919e-38
0.0140411021016 -0.0374429389376 0.843 1.9354597062e-38
0.0156012245573 -0.0374429389376 0.843 1.94467926919e-38
0.0171613470131 -0.0374429389376 0.843 1.8432643566e-38
0.0187214694688 -0.0374429389376 0.843 1.92624042347e-38
0.0202815919245 -0.0374429389376 0.843 2.35080849466e-38
-0.0856031603676 -0.0357976852446 0.841 2.35034116162e-38
-0.08404673927 -0.0357976852446 0.841 2.13821862568e-38
-0.0824903181724 -0.0357976852446 0.841 1.7694721196e-38
-0.0809338970749 -0.0357976852446 0.841 1.89858173451e-38
-0.0795662452424 -0.0358828164819 0.843 1.91694897388e-38
-0.0780061227866 -0.0358828164819 0.843 1.96301049518e-38
-0.0764460003309 -0.0358828164819 0.843 1.97205027157e-38
-0.0750635430659 -0.0359679477191 0.845 1.96290231494e-38
-0.0736736830845 -0.0360530789563 0.847 1.95379065193e-38
-0.0722764203869 -0.0361382101935 0.849 1.95379093219e-38
-0.0708717549731 -0.0362233414307 0.851 1.92613224323e-38
-0.069541116722 -0.0363510382865 0.854 1.94453577622e-38
-0.0679606367965 -0.0363510382865 0.854 1.98141402817e-38
-0.0665356139128 -0.0364361695237 0.856 1.9629749022e-38
-0.0651031883129 -0.0365213007609 0.858 1.9814141683e-38
-0.0635153056711 -0.0365213007609 0.858 1.96308168114e-38
-0.0620717759968 -0.0366064319981 0.86 1.99999552607e-38
-0.0606208436061 -0.0366915632353 0.862 1.95386211815e-38
-0.0591625084992 -0.0367766944725 0.864 2.0091796362e-38
-0.0577633951226 -0.0369043913283 0.867 1.99996035347e-38
-0.0561588563692 -0.0369043913283 0.867 2.00914432348e-38
-0.0546801637925 -0.0369895225655 0.869 2.04602285568e-38
-0.053071923681 -0.0369895225655 0.869 2.09212081075e-38
-0.0515821270299 -0.0370746538027 0.871 1.95386365958e-38
-0.0499701855602 -0.0370746538027 0.871 2.08293726113e-38
-0.0483582440905 -0.0370746538027 0.871 2.08293726113e-38
-0.0467463026208 -0.0370746538027 0.871 2.01840032023e-38
-0.045237999179 -0.0371597850399 0.873 2.07375343126e-38
-0.0436223563512 -0.0371597850399 0.873 2.00921649035e-38
-0.0420067135234 -0.0371597850399 0.873 2.03687489905e-38
-0.0404836046491 -0.0372449162771 0.875 2.09219227697e-38
-0.0387754278677 -0.0371597850399 0.873 2.07364637205e-38
-0.0371597850399 -0.0371597850399 0.873 2.1381830327e-38
-0.035462712333 -0.0370746538027 0.871 2.07368126438e-38
-0.0338507708634 -0.0370746538027 0.871 2.13825337788e-38
-0.0321648022309 -0.0369895225655 0.869 2.06453246697e-38
-0.0305565621193 -0.0369895225655 0.869 2.055277311e-38
-0.0289483220078 -0.0369895225655 0.869 2.10137554632e-38
-0.0273400818963 -0.0369895225655 0.869 2.06446198166e-38
-0.0257318417847 -0.0369895225655 0.869 2.11059623035e-38
-0.0240680813011 -0.0369043913283 0.867 1.99996147451e-38
-0.0224635425477 -0.0369043913283 0.867 2.12903535632e-38
-0.0208590037943 -0.0369043913283 0.867 2.0091810375e-38
-0.0192544650409 -0.0369043913283 0.867 2.05527857217e-38
-0.0175888538782 -0.0367766944725 0.864 2.05527857217e-38
-0.015989867162 -0.0367766944725 0.864 2.06453386827e-38
-0.0143575682225 -0.0366915632353 0.862 2.03687517931e-38
-0.0127622828645 -0.0366915632353 0.862 2.01840088075e-38
-0.0111669975064 -0.0366915632353 0.862 2.03684000672e-38
-0.0095495039995 -0.0366064319981 0.86 2.06453386827e-38
-0.00795791999959 -0.0366064319981 0.86 2.06456890073e-38
-0.00635153056711 -0.0365213007609 0.858 2.01847094567e-38
-0.00475254385092 -0.0364361695237 0.856 1.99081239684e-38
-0.00316836256728 -0.0364361695237 0.856 2.00921621009e-38
-0.0015804799255 -0.0363510382865 0.854 1.98152234854e-38
0.0 -0.0362233414307 0.851 1.9814141683e-38
0.00157492788829 -0.0362233414307 0.851 2.00907271713e-38
0.00314985577658 -0.0362233414307 0.851 1.99985315414e-38
0.00471367959045 -0.0361382101935 0.849 2.01829228011e-38
0.00627010068805 -0.0360530789563 0.847 2.03673140609e-38
0.00783762586006 -0.0360530789563 0.847 1.99985315414e-38
0.00938294288323 -0.0359679477191 0.845 2.0275118431e-38
0.0109467666971 -0.0359679477191 0.845 1.99985315414e-38
0.012510590511 -0.0359679477191 0.845 1.96304650855e-38
0.0140411021016 -0.0358828164819 0.843 1.96311839516e-38
0.0156012245573 -0.0358828164819 0.843 1.99077708412e-38
0.0171613470131 -0.0358828164819 0.843 1.96311839516e-38
0.0187214694688 -0.0358828164819 0.843 1.8432643566e-38
0.0202815919245 -0.0358828164819 0.843 1.96311867542e-38
-0.0869523054094 -0.034159834268 0.839 2.35070157559e-38
-0.08539958567 -0.034159834268 0.839 2.19346411698e-38
-0.08404673927 -0.0342412641471 0.841 1.72333829129e-38
-0.0824903181724 -0.0342412641471 0.841 1.93545998646e-38
-0.0809338970749 -0.0342412641471 0.841 1.88014260854e-38
-0.0795662452424 -0.0343226940261 0.843 1.91694897388e-38
-0.0780061227866 -0.0343226940261 0.843 1.94457136921e-38
-0.0766273668797 -0.0344041239052 0.845 1.97212215818e-38
-0.0752412082565 -0.0344855537843 0.847 2.00910802985e-38
-0.0738476469171 -0.0345669836633 0.849 1.93538781959e-38
-0.0724466828613 -0.0346484135424 0.851 1.96304650855e-38
-0.0708717549731 -0.0346484135424 0.851 1.95382694556e-38
-0.069541116722 -0.034770558361 0.854 1.93538809985e-38
-0.0681197951965 -0.03485198824 0.856 1.98148591478e-38
-0.0666910709547 -0.0349334181191 0.858 1.98148605491e-38
-0.0651031883129 -0.0349334181191 0.858 1.99992518088e-38
-0.0636633599967 -0.0350148479982 0.86 2.06449701412e-38
-0.0620717759968 -0.0350148479982 0.86 1.96315356775e-38
-0.0606208436061 -0.0350962778772 0.862 2.02769064879e-38
-0.0591625084992 -0.0351777077563 0.864 2.0276550558e-38
-0.0577633951226 -0.0352998525749 0.867 2.00921621009e-38
-0.0561588563692 -0.0352998525749 0.867 2.05531402502e-38
-0.0546801637925 -0.035381282454 0.869 2.01843605334e-38
-0.053071923681 -0.035381282454 0.869 2.03687517931e-38
-0.0515821270299 -0.035462712333 0.871 2.08293754139e-38
-0.0499701855602 -0.035462712333 0.871 2.02761988321e-38
-0.0484692848347 -0.0355441422121 0.873 2.05527857217e-38
-0.0468536420069 -0.0355441422121 0.873 2.09215682412e-38
-0.045237999179 -0.0355441422121 0.873 2.11985124619e-38
-0.0436223563512 -0.0355441422121 0.873 2.11985124619e-38
-0.042102948835 -0.0356255720912 0.875 2.06453358801e-38
-0.0404836046491 -0.0356255720912 0.875 2.11063140294e-38
-0.0388642604631 -0.0356255720912 0.875 2.03683972646e-38
-0.0371597850399 -0.0355441422121 0.873 2.12903535632e-38
-0.0355441422121 -0.0355441422121 0.873 2.09219227697e-38
-0.0338507708634 -0.035462712333 0.871 2.16598395345e-38
-0.0322388293937 -0.035462712333 0.871 2.09222744956e-38
-0.030626887924 -0.035462712333 0.871 2.11066671566e-38
-0.0289483220078 -0.035381282454 0.869 2.10141155969e-38
-0.0273400818963 -0.035381282454 0.869 2.07375343126e-38
-0.0257318417847 -0.035381282454 0.869 2.12903535632e-38
-0.0241236016732 -0.035381282454 0.869 2.12903535632e-38
-0.0225153615616 -0.035381282454 0.869 2.15669404528e-38
-0.0209071214501 -0.035381282454 0.869 2.11981551308e-38
-0.0192988813385 -0.035381282454 0.869 2.09215682412e-38
-0.0176499262875 -0.0352998525749 0.867 2.07375343126e-38
-0.015989867162 -0.0351777077563 0.864 2.06453386827e-38
-0.0143908804458 -0.0351777077563 0.864 2.03687517931e-38
-0.0127622828645 -0.0350962778772 0.862 2.06449869568e-38
-0.0111669975064 -0.0350962778772 0.862 2.06449869568e-38
-0.00957171214834 -0.0350962778772 0.862 2.06453386827e-38
-0.00795791999959 -0.0350148479982 0.86 2.06456890073e-38
-0.00636633599967 -0.0350148479982 0.86 2.04612963463e-38
-0.00476364792533 -0.0349334181191 0.858 2.03691021177e-38
-0.00316836256728 -0.03485198824 0.856 2.09219227697e-38
-0.00158418128364 -0.03485198824 0.856 2.0368394462e-38
0.0 -0.034770558361 0.854 2.02758372971e-38
0.0015804799255 -0.034770558361 0.854 2.0368032927e-38
0.00314985577658 -0.0346484135424 0.851 2.00914460374e-38
0.00472478366487 -0.0346484135424 0.851 2.01836416673e-38
0.00629971155316 -0.0346484135424 0.851 2.07368154464e-38
0.00785613265075 -0.0345669836633 0.849 2.02758372971e-38
0.0094273591809 -0.0345669836633 0.849 1.97226635179e-38
0.0109726762041 -0.0344855537843 0.847 2.01836416673e-38
0.0125402013761 -0.0344855537843 0.847 1.97233823841e-38
0.0140744143248 -0.0344041239052 0.845 1.97233823841e-38
0.0156382381387 -0.0344041239052 0.845 1.96311867542e-38
0.0171613470131 -0.0343226940261 0.843 1.96311867542e-38
0.0187214694688 -0.0343226940261 0.843 2.01840032023e-38
0.0202815919245 -0.0343226940261 0.843 1.8985460014e-38
0.0218417143803 -0.0343226940261 0.843 1.86166802972e-38
0.023401836836 -0.0343226940261 0.843 2.23967011216e-38
-0.0882940477349 -0.0325293860076 0.837 2.30406384036e-38
-0.0867450293536 -0.0325293860076 0.837 2.15658586504e-38
-0.08539958567 -0.0326071145285 0.839 1.77865552908e-38
-0.08404673927 -0.0326848430495 0.841 1.91694897388e-38
-0.0824903181724 -0.0326848430495 0.841 1.99999692736e-38
-0.0809338970749 -0.0326848430495 0.841 1.95389911243e-38
-0.0795662452424 -0.0327625715704 0.843 1.96304678881e-38
-0.0780061227866 -0.0327625715704 0.843 1.90772913063e-38
-0.0766273668797 -0.0328403000913 0.845 1.88929000466e-38
-0.0752412082565 -0.0329180286122 0.847 1.93538781959e-38
-0.0740216107496 -0.0330734856541 0.851 1.93538781959e-38
-0.0724466828613 -0.0330734856541 0.851 1.97226607153e-38
-0.0711215966475 -0.0331900784355 0.854 1.99070547777e-38
-0.069541116722 -0.0331900784355 0.854 1.97226635179e-38
-0.0681197951965 -0.0332678069564 0.856 1.99992518088e-38
-0.0666910709547 -0.0333455354773 0.858 1.98148605491e-38
-0.0652549439966 -0.0334232639983 0.86 2.01836430686e-38
-0.0636633599967 -0.0334232639983 0.86 1.98155724087e-38
-0.0622161289642 -0.0335009925192 0.862 1.98155724087e-38
-0.0607614952154 -0.0335787210401 0.864 2.0276550558e-38
-0.059367933876 -0.0336953138215 0.867 1.9999966471e-38
-0.0577633951226 -0.0336953138215 0.867 2.01843577308e-38
-0.056288403904 -0.0337730423424 0.869 2.02765533606e-38
-0.0546801637925 -0.0337730423424 0.869 2.0460947423e-38
-0.0531940684996 -0.0338507708634 0.871 2.10141212021e-38
-0.0515821270299 -0.0338507708634 0.871 2.04605928945e-38
-0.0499701855602 -0.0338507708634 0.871 2.07371769814e-38
-0.0484692848347 -0.0339284993843 0.873 2.1013763871e-38
-0.0468536420069 -0.0339284993843 0.873 2.05527857217e-38
-0.0453416372069 -0.0340062279052 0.875 2.09219255723e-38
-0.043722293021 -0.0340062279052 0.875 2.10141212021e-38
-0.042102948835 -0.0340062279052 0.875 2.073753151e-38
-0.0404836046491 -0.0340062279052 0.875 2.08297271398e-38
-0.0388642604631 -0.0340062279052 0.875 2.12903507606e-38
-0.0371597850399 -0.0339284993843 0.873 2.11059595009e-38
-0.0355441422121 -0.0339284993843 0.873 2.12907052891e-38
-0.0339284993843 -0.0339284993843 0.873 2.06456890073e-38
-0.0322388293937 -0.0338507708634 0.871 2.14754496761e-38
-0.030626887924 -0.0338507708634 0.871 2.12907024865e-38
-0.0289483220078 -0.0337730423424 0.869 2.1382900919e-38
-0.0273400818963 -0.0337730423424 0.869 2.05527857217e-38
-0.0257318417847 -0.0337730423424 0.869 2.04605928945e-38
-0.0241236016732 -0.0337730423424 0.869 2.08293754139e-38
-0.0225153615616 -0.0337730423424 0.869 2.06449813516e-38
-0.0209071214501 -0.0337730423424 0.869 2.05527857217e-38
-0.0192988813385 -0.0337730423424 0.869 2.0460947423e-38
-0.017690641227 -0.0337730423424 0.869 2.0460947423e-38
-0.0160824011154 -0.0337730423424 0.869 2.06453386827e-38
-0.0144408487806 -0.0336953138215 0.867 2.073753151e-38
-0.0128363100272 -0.0336953138215 0.867 2.03683972646e-38
-0.0111929070134 -0.0335787210401 0.864 2.03683972646e-38
-0.00957171214834 -0.0335009925192 0.862 2.06453386827e-38
-0.00797642679028 -0.0335009925192 0.862 2.10141155969e-38
-0.00638114143223 -0.0335009925192 0.862 2.00925152281e-38
-0.00477475199975 -0.0334232639983 0.86 2.01843549282e-38
-0.00317576528356 -0.0333455354773 0.858 2.01843577308e-38
-0.00158788264178 -0.0333455354773 0.858 2.01843605334e-38
0.0 -0.0333455354773 0.858 2.04602285568e-38
0.00158418128364 -0.0332678069564 0.856 1.99992504075e-38
0.00316836256728 -0.0332678069564 0.856 2.05524241867e-38
0.0047414397765 -0.0331900784355 0.854 2.02758372971e-38
0.00629971155316 -0.0330734856541 0.851 1.99070547777e-38
0.00787463944145 -0.0330734856541 0.851 2.0368032927e-38
0.0094273591809 -0.0329957571332 0.849 1.99070547777e-38
0.0109726762041 -0.0329180286122 0.847 2.04602285568e-38
0.0125402013761 -0.0329180286122 0.847 1.97230250529e-38
0.0140744143248 -0.0328403000913 0.845 2.00918075724e-38
0.0156382381387 -0.0328403000913 0.845 1.99074163127e-38
0.0172020619526 -0.0328403000913 0.845 1.99074191153e-38
0.0187214694688 -0.0327625715704 0.843 1.88932671868e-38
0.0202815919245 -0.0327625715704 0.843 1.99074219179e-38
0.0218417143803 -0.0327625715704 0.843 1.88932699894e-38
0.023401836836 -0.0327625715704 0.843 1.96308350283e-38
-0.0911737043673 -0.0309063404635 0.835 1.02261591135e-38
-0.0896283873442 -0.0309063404635 0.835 2.35026913488e-38
-0.0882940477349 -0.0309803676263 0.837 2.14718651546e-38
-0.0867450293536 -0.0309803676263 0.837 1.8985098479e-38
-0.08539958567 -0.0310543947891 0.839 1.91702058023e-38
-0.08404673927 -0.0311284219519 0.841 1.93538781959e-38
-0.0824903181724 -0.0311284219519 0.841 1.90772913063e-38
-0.0809338970749 -0.0311284219519 0.841 1.97226607153e-38
-0.0795662452424 -0.0312024491147 0.843 1.94460738258e-38
-0.0781911906936 -0.0312764762774 0.845 1.92624042347e-38
-0.0768087334286 -0.0313505034402 0.847 1.94467954945e-38
-0.0754188734472 -0.031424530603 0.849 1.92624014321e-38
-0.0740216107496 -0.0314985577658 0.851 1.97233823841e-38
-0.072702076573 -0.03160959851 0.854 1.95389911243e-38
-0.0711215966475 -0.03160959851 0.854 2.00921649035e-38
-0.0697039764801 -0.0316836256728 0.856 1.97230250529e-38
-0.0681197951965 -0.0316836256728 0.856 2.01840032023e-38
-0.0666910709547 -0.0317576528356 0.858 1.97230278555e-38
-0.0652549439966 -0.0318316799983 0.86 2.02762016347e-38
-0.0636633599967 -0.0318316799983 0.86 1.99074163127e-38
-0.0622161289642 -0.0319057071611 0.862 1.99999692736e-38
-0.0607614952154 -0.0319797343239 0.864 2.0460947423e-38
-0.059367933876 -0.0320907750681 0.867 1.99999692736e-38
-0.0578966440156 -0.0321648022309 0.869 2.12907080917e-38
-0.056288403904 -0.0321648022309 0.869 1.97233823841e-38
-0.0546801637925 -0.0321648022309 0.869 2.10141183995e-38
-0.0531940684996 -0.0322388293937 0.871 2.03687489905e-38
-0.0515821270299 -0.0322388293937 0.871 2.02761988321e-38
-0.0500849276625 -0.0323128565565 0.873 2.16591332801e-38
-0.0484692848347 -0.0323128565565 0.873 2.05527857217e-38
-0.0404836046491 -0.0323868837192 0.875 2.11063140294e-38
-0.0388642604631 -0.0323868837192 0.875 2.13825463905e-38
-0.0371597850399 -0.0323128565565 0.873 2.13829037216e-38
-0.0355441422121 -0.0323128565565 0.873 2.14750965489e-38
-0.0339284993843 -0.0323128565565 0.873 2.10141155969e-38
-0.0323128565565 -0.0323128565565 0.873 2.11063112268e-38
-0.0306972137286 -0.0323128565565 0.873 2.14750965489e-38
-0.0290149464543 -0.0322388293937 0.871 2.12907080917e-38
-0.0274030049846 -0.0322388293937 0.871 2.1013763871e-38
-0.0257318417847 -0.0321648022309 0.869 2.11981551308e-38
-0.0241236016732 -0.0321648022309 0.869 2.11981551308e-38
-0.0225153615616 -0.0321648022309 0.869 2.09215682412e-38
-0.0209071214501 -0.0321648022309 0.869 2.11985124619e-38
-0.0193432976362 -0.0322388293937 0.871 2.05531430528e-38
-0.017690641227 -0.0321648022309 0.869 2.11985096593e-38
-0.0160824011154 -0.0321648022309 0.869 2.15672921787e-38
-0.0144741610039 -0.0321648022309 0.869 2.12907052891e-38
-0.0128363100272 -0.0320907750681 0.867 2.15669376502e-38
-0.0111929070134 -0.0319797343239 0.864 2.06449813516e-38
-0.00959392029717 -0.0319797343239 0.864 2.08297299424e-38
-0.00797642679028 -0.0319057071611 0.862 2.05531402502e-38
-0.00638114143223 -0.0319057071611 0.862 2.09219199671e-38
-0.00477475199975 -0.0318316799983 0.86 2.12907024865e-38
-0.00318316799983 -0.0318316799983 0.86 2.08297271398e-38
-0.00158788264178 -0.0317576528356 0.858 2.11063140294e-38
0.0 -0.0317576528356 0.858 2.06453386827e-38
0.00158788264178 -0.0317576528356 0.858 1.98155780139e-38
0.00316836256728 -0.0316836256728 0.856 2.0460947423e-38
0.0047414397765 -0.03160959851 0.854 1.99999692736e-38
0.006321919702 -0.03160959851 0.854 1.97233823841e-38
0.00787463944145 -0.0314985577658 0.851 1.99999692736e-38
0.0094273591809 -0.031424530603 0.849 2.03687517931e-38
0.0109985857111 -0.031424530603 0.849 2.07375343126e-38
0.0125402013761 -0.0313505034402 0.847 1.97230250529e-38
0.0140744143248 -0.0312764762774 0.845 2.04605900919e-38
0.0156382381387 -0.0312764762774 0.845 1.96308294231e-38
0.0172020619526 -0.0312764762774 0.845 1.96308322257e-38
0.0187214694688 -0.0312024491147 0.843 1.98152234854e-38
0.0202334742687 -0.0311284219519 0.841 1.96308350283e-38
0.0217898953663 -0.0311284219519 0.841 1.94464437686e-38
0.0233463164639 -0.0311284219519 0.841 1.95386393984e-38
-0.0911737043673 -0.0293610234403 0.835 2.11967202011e-38
-0.0896283873442 -0.0293610234403 0.835 2.18413651389e-38
-0.0882940477349 -0.029431349245 0.837 1.82453726379e-38
-0.0867450293536 -0.029431349245 0.837 1.95386253854e-38
-0.08539958567 -0.0295016750496 0.839 1.94478688891e-38
-0.08404673927 -0.0295720008543 0.841 1.9631181149e-38
-0.0824903181724 -0.0295720008543 0.841 1.95382694556e-38
-0.0809338970749 -0.0295720008543 0.841 1.91694869362e-38
-0.0795662452424 -0.0296423266589 0.843 1.92624014321e-38
-0.0781911906936 -0.0297126524636 0.845 1.94467954945e-38
-0.0769900999774 -0.0298533040729 0.849 1.94475157619e-38
-0.0754188734472 -0.0298533040729 0.849 1.99077736438e-38
-0.0742825564985 -0.0300291185845 0.854 2.01843605334e-38
-0.072702076573 -0.0300291185845 0.854 1.97233823841e-38
-0.0711215966475 -0.0300291185845 0.854 1.99074163127e-38
-0.0697039764801 -0.0300994443891 0.856 2.04605900919e-38
-0.0682789535964 -0.0301697701938 0.858 2.03683972646e-38
-0.0668465279965 -0.0302400959984 0.86 1.96308322257e-38
-0.0654066996803 -0.0303104218031 0.862 2.0091810375e-38
-0.0638114143223 -0.0303104218031 0.862 2.00928893748e-38
