# .PCD v0.7 - Point Cloud Data file format
VERSION 0.7
FIELDS x y z rgb
SIZE 4 4 4 4
TYPE F F F F
COUNT 1 1 1 1
WIDTH 850
HEIGHT 1
VIEWPOINT 0 0 0 1 0 0 0
POINTS 850
DATA ascii
0.0891379573907 -0.0187658857665 0.845 1.6372324243e-38
0.0909164599767 -0.0188103020641 0.847 1.57294729673e-38
0.0924839851487 -0.0188103020641 0.847 1.56469911383e-38
-0.0279489553102 -0.017079917134 0.839 2.24899715474e-38
-0.0263962355707 -0.017079917134 0.839 2.3506274469e-38
-0.0248435158313 -0.017079917134 0.839 1.86087489479e-38
-0.0232352757197 -0.0170392021945 0.837 1.59300450204e-38
-0.0216862573384 -0.0170392021945 0.837 1.65707396977e-38
-0.0201372389571 -0.0170392021945 0.837 1.74883715893e-38
-0.0184993879804 -0.0169577723154 0.833 1.73007293171e-38
-0.0168763424363 -0.0168763424363 0.829 1.67468254614e-38
-0.0153421294876 -0.0168763424363 0.829 1.71156107835e-38
-0.0138079165388 -0.0168763424363 0.829 1.6838672168e-38
0.062902730899 -0.0168763424363 0.829 2.35073520675e-38
0.0644369438478 -0.0168763424363 0.829 2.34961963304e-38
0.0659711567966 -0.0168763424363 0.829 1.50041244484e-38
0.0675053697453 -0.0168763424363 0.829 9.83253717748e-39
0.0693727049266 -0.0169577723154 0.833 9.73458221093e-39
0.0709143205917 -0.0169577723154 0.833 1.26776537054e-38
0.0724559362567 -0.0169577723154 0.833 1.71001670731e-38
0.0739975519217 -0.0169577723154 0.833 1.67331782157e-38
0.0757205341356 -0.0169984872549 0.835 1.59970453038e-38
0.0774509190657 -0.0170392021945 0.837 1.46173422501e-38
0.078999937447 -0.0170392021945 0.837 1.48964416679e-38
0.0807414264516 -0.017079917134 0.839 1.67425122648e-38
0.0824903181724 -0.0171206320735 0.841 1.50840727296e-38
0.08404673927 -0.0171206320735 0.841 1.60042353662e-38
0.0858067350653 -0.0171613470131 0.843 1.6648532782e-38
0.0875741335768 -0.0172020619526 0.845 1.57273093624e-38
0.0891379573907 -0.0172020619526 0.845 1.536285125e-38
0.0909164599767 -0.0172427768921 0.847 1.37108857138e-38
0.0924839851487 -0.0172427768921 0.847 2.22958706906e-38
-0.0263962355707 -0.0155271973945 0.839 2.35073548701e-38
-0.0248435158313 -0.0155271973945 0.839 2.30362943784e-38
-0.0232907960918 -0.0155271973945 0.839 1.72240194366e-38
-0.0217380763524 -0.0155271973945 0.839 1.63895826348e-38
-0.0201372389571 -0.0154901838131 0.837 1.67540435498e-38
-0.0184993879804 -0.0154161566504 0.833 1.68426280336e-38
-0.0168763424363 -0.0153421294876 0.829 1.6379127547e-38
-0.0153421294876 -0.0153421294876 0.829 1.70237822938e-38
-0.0137746043156 -0.0153051159062 0.827 1.62858669303e-38
-0.0122440927249 -0.0153051159062 0.827 1.83094890491e-38
0.062902730899 -0.0153421294876 0.829 7.53051068496e-39
0.0644369438478 -0.0153421294876 0.829 1.01019185904e-38
0.0659711567966 -0.0153421294876 0.829 1.23999808095e-38
0.0675053697453 -0.0153421294876 0.829 1.66384616499e-38
0.0693727049266 -0.0154161566504 0.833 1.65477079562e-38
0.0709143205917 -0.0154161566504 0.833 1.59984900425e-38
0.0724559362567 -0.0154161566504 0.833 1.55411104277e-38
0.0739975519217 -0.0154161566504 0.833 1.38797772112e-38
0.0757205341356 -0.0154531702318 0.835 1.60928296591e-38
0.0774509190657 -0.0154901838131 0.837 1.48964458718e-38
0.078999937447 -0.0154901838131 0.837 1.59120397364e-38
0.0807414264516 -0.0155271973945 0.839 1.55446963505e-38
0.0824903181724 -0.0155642109759 0.841 1.64655736493e-38
0.08404673927 -0.0155642109759 0.841 1.49900806352e-38
0.0858067350653 -0.0156012245573 0.843 1.69258273273e-38
0.0875741335768 -0.0156382381387 0.845 1.55425523638e-38
0.0891379573907 -0.0156382381387 0.845 1.41689771883e-38
0.0909164599767 -0.0156752517201 0.847 1.92541295673e-38
0.0924839851487 -0.0156752517201 0.847 2.35077262142e-38
-0.0248435158313 -0.0139744776551 0.839 2.35023115969e-38
-0.0232907960918 -0.0139744776551 0.839 1.96229008764e-38
-0.0217380763524 -0.0139744776551 0.839 1.65764920279e-38
-0.0201372389571 -0.0139411654318 0.837 1.64796146599e-38
-0.0184993879804 -0.0138745409853 0.833 1.66600388437e-38
-0.0168763424363 -0.0138079165388 0.829 1.62894514518e-38
-0.0153421294876 -0.0138079165388 0.829 1.53653469626e-38
-0.0137746043156 -0.0137746043156 0.827 1.61936797082e-38
-0.0122440927249 -0.0137746043156 0.827 1.57308994891e-38
-0.0107135811343 -0.0137746043156 0.827 1.66488971196e-38
-0.00918306954371 -0.0137746043156 0.827 1.51719663732e-38
0.0645924008897 -0.0138412287621 0.831 1.46155415816e-38
0.0661303151966 -0.0138412287621 0.831 1.60903143283e-38
0.0676682295035 -0.0138412287621 0.831 1.52605564621e-38
0.0693727049266 -0.0138745409853 0.833 1.4985774445e-38
0.0710845830661 -0.0139078532086 0.835 1.40670579484e-38
0.0726299000892 -0.0139078532086 0.835 1.65574189545e-38
0.0741752171124 -0.0139078532086 0.835 1.5261621449e-38
0.0759019006844 -0.0139411654318 0.837 1.6735310992e-38
0.0776359869727 -0.0139744776551 0.839 1.61835833528e-38
0.0793774759773 -0.0140077898783 0.841 1.68318380354e-38
0.0809338970749 -0.0140077898783 0.841 1.5635096917e-38
0.0826864901538 -0.0140411021016 0.843 1.65595671451e-38
0.0842466126096 -0.0140411021016 0.843 1.59170675953e-38
0.0858067350653 -0.0140411021016 0.843 1.5273128912e-38
0.087366857521 -0.0140411021016 0.843 1.64662995219e-38
0.0889269799768 -0.0140411021016 0.843 1.77678423511e-38
0.0907017812046 -0.0140744143248 0.845 2.3508082144e-38
-0.0232352757197 -0.0123921470505 0.837 2.35019500619e-38
-0.0216862573384 -0.0123921470505 0.837 1.68559417703e-38
-0.0201372389571 -0.0123921470505 0.837 1.80476452207e-38
-0.0184549716828 -0.0123033144552 0.831 1.73046851827e-38
-0.0168763424363 -0.0122737035901 0.829 1.66564417105e-38
-0.0153421294876 -0.0122737035901 0.829 1.68397539704e-38
-0.0137746043156 -0.0122440927249 0.827 1.67486317352e-38
-0.0122144818598 -0.0122144818598 0.825 1.62858781407e-38
-0.0106876716274 -0.0122144818598 0.825 1.51766537166e-38
-0.00916086139487 -0.0122144818598 0.825 1.83991749534e-38
-0.00763405116239 -0.0122144818598 0.825 1.50801308771e-38
0.0408241295979 -0.0120960383994 0.817 2.35073688831e-38
0.0423361343978 -0.0120960383994 0.817 2.35084324686e-38
0.0439554785838 -0.0121256492645 0.819 2.3509142927e-38
0.0454711847418 -0.0121256492645 0.819 2.35080723349e-38
0.0471016330022 -0.0121552601296 0.821 2.35080891505e-38
0.061812680927 -0.0123625361854 0.835 1.63694305616e-38
0.0633579979502 -0.0123625361854 0.835 1.74772186548e-38
0.0647478579315 -0.0123329253203 0.833 1.56336605861e-38
0.0662894735965 -0.0123329253203 0.833 1.49879226355e-38
0.0678310892616 -0.0123329253203 0.833 1.5540374746e-38
0.0695392660429 -0.0123625361854 0.835 1.47091777463e-38
0.0710845830661 -0.0123625361854 0.835 1.48932158788e-38
0.0726299000892 -0.0123625361854 0.835 1.60914059398e-38
0.0743528823031 -0.0123921470505 0.837 1.424821361e-38
0.0759019006844 -0.0123921470505 0.837 1.52641620031e-38
0.0776359869727 -0.0124217579156 0.839 1.50819231378e-38
0.0793774759773 -0.0124513687807 0.841 1.60964281935e-38
0.0809338970749 -0.0124513687807 0.841 1.6558121005e-38
0.0826864901538 -0.0124809796459 0.843 1.56372437062e-38
0.0842466126096 -0.0124809796459 0.843 1.73922004757e-38
0.0858067350653 -0.0124809796459 0.843 1.4814321374e-38
0.087366857521 -0.0124809796459 0.843 1.3902467036e-38
0.0889269799768 -0.0124809796459 0.843 2.35019780879e-38
0.0907017812046 -0.012510590511 0.845 2.35037717499e-38
-0.0216862573384 -0.0108431286692 0.837 2.17437464839e-38
-0.0201372389571 -0.0108431286692 0.837 1.77728533944e-38
-0.0184549716828 -0.0107654001483 0.831 1.83202762447e-38
-0.0168763424363 -0.0107394906413 0.829 1.74876443154e-38
-0.0153421294876 -0.0107394906413 0.829 1.60110694989e-38
-0.0137412920923 -0.0106876716274 0.825 1.67489890663e-38
-0.0122144818598 -0.0106876716274 0.825 1.66568074494e-38
-0.0106617621204 -0.0106617621204 0.823 1.51791620408e-38
-0.0091164450972 -0.0106358526134 0.821 1.775703834e-38
-0.007597037581 -0.0106358526134 0.821 1.68322009717e-38
0.0378926539515 -0.0106099431064 0.819 2.35098589905e-38
0.0394083601096 -0.0106099431064 0.819 2.35069989403e-38
0.0408241295979 -0.0105840335994 0.817 2.35026885462e-38
0.0423361343978 -0.0105840335994 0.817 2.03514709804e-38
0.0439554785838 -0.0106099431064 0.819 1.39809733811e-38
0.0454711847418 -0.0106099431064 0.819 1.11157229968e-38
0.0471016330022 -0.0106358526134 0.821 1.06529525868e-38
0.0486210405184 -0.0106358526134 0.821 1.05611114854e-38
0.0501404480346 -0.0106358526134 0.821 1.18507628959e-38
0.052037394081 -0.0107135811343 0.827 1.41527697703e-38
0.0535679056716 -0.0107135811343 0.827 1.60863640679e-38
0.0550984172622 -0.0107135811343 0.827 1.73760294914e-38
0.05886269849 -0.0108431286692 0.837 1.53534709581e-38
0.0604117168713 -0.0108431286692 0.837 1.49882715588e-38
0.061812680927 -0.0108172191622 0.835 1.55425495612e-38
0.0633579979502 -0.0108172191622 0.835 1.34213368134e-38
0.0649033149734 -0.0108172191622 0.835 1.57258562159e-38
0.0664486319965 -0.0108172191622 0.835 1.50801182654e-38
0.0679939490197 -0.0108172191622 0.835 1.46176995812e-38
0.0695392660429 -0.0108172191622 0.835 1.55389384151e-38
0.0710845830661 -0.0108172191622 0.835 1.61828756971e-38
0.0728038639218 -0.0108431286692 0.837 1.63665536959e-38
0.0743528823031 -0.0108431286692 0.837 1.61854078434e-38
0.0760832672332 -0.0108690381762 0.839 1.51744887105e-38
0.0778210548797 -0.0108949476832 0.841 1.61904314984e-38
0.0795662452424 -0.0109208571901 0.843 1.6099665193e-38
0.0811263676981 -0.0109208571901 0.843 1.57301582022e-38
0.0826864901538 -0.0109208571901 0.843 1.57326791381e-38
0.0842466126096 -0.0109208571901 0.843 1.46302930505e-38
0.0858067350653 -0.0109208571901 0.843 1.38059329861e-38
0.087366857521 -0.0109208571901 0.843 2.33143414209e-38
0.0889269799768 -0.0109208571901 0.843 2.35059395587e-38
-0.0199928859897 -0.00922748584138 0.831 1.91601038416e-38
-0.0184549716828 -0.00922748584138 0.831 1.68505439686e-38
-0.0168763424363 -0.00920527769254 0.829 1.64770923226e-38
-0.0153421294876 -0.00920527769254 0.829 1.65664040803e-38
-0.0137412920923 -0.00916086139487 0.825 1.60114240274e-38
-0.0121848709947 -0.00913865324604 0.823 1.50909068623e-38
-0.0106358526134 -0.0091164450972 0.821 1.46284895794e-38
-0.0091164450972 -0.0091164450972 0.821 1.77599053966e-38
-0.007597037581 -0.0091164450972 0.821 1.57276484767e-38
-0.0060776300648 -0.0091164450972 0.821 1.75708450104e-38
0.0334269653564 -0.0091164450972 0.821 2.35005235401e-38
0.0348612416354 -0.00909423694836 0.819 2.01749844453e-38
0.0363769477935 -0.00909423694836 0.819 1.65671173412e-38
0.0378926539515 -0.00909423694836 0.819 1.1122897645e-38
0.0394083601096 -0.00909423694836 0.819 8.54070114269e-39
0.0409240662676 -0.00909423694836 0.819 1.02877419771e-38
0.0424397724257 -0.00909423694836 0.819 1.17574854636e-38
0.0440628179698 -0.0091164450972 0.821 1.34130565408e-38
0.045582225486 -0.0091164450972 0.821 1.47938329891e-38
0.0471016330022 -0.0091164450972 0.821 1.64511935244e-38
0.0486210405184 -0.0091164450972 0.821 1.54413603978e-38
0.0501404480346 -0.0091164450972 0.821 1.5442436595e-38
0.052037394081 -0.00918306954371 0.827 1.60863612653e-38
0.0535679056716 -0.00918306954371 0.827 1.59019700056e-38
0.0550984172622 -0.00918306954371 0.827 1.47970699886e-38
0.0569028293552 -0.00922748584138 0.831 1.55382335619e-38
0.0587220468807 -0.00927190213905 0.835 1.44365537288e-38
0.0604117168713 -0.00929411028789 0.837 1.23199988971e-38
0.0619607352526 -0.00929411028789 0.837 1.39752238535e-38
0.0635097536339 -0.00929411028789 0.837 1.55411132303e-38
0.0649033149734 -0.00927190213905 0.835 1.44343985317e-38
0.0664486319965 -0.00927190213905 0.835 1.53556289578e-38
0.0681568087778 -0.00929411028789 0.837 1.38804960773e-38
0.0697058271592 -0.00929411028789 0.837 1.49861275722e-38
0.0712548455405 -0.00929411028789 0.837 1.52619983983e-38
0.0728038639218 -0.00929411028789 0.837 1.57226234204e-38
0.0745305474938 -0.00931631843672 0.839 1.6002088577e-38
0.0762646337821 -0.00933852658556 0.841 1.55432684273e-38
0.0780061227866 -0.0093607347344 0.843 1.60071192385e-38
0.0795662452424 -0.0093607347344 0.843 1.58237971695e-38
0.0811263676981 -0.0093607347344 0.843 1.60096275627e-38
0.0826864901538 -0.0093607347344 0.843 1.49076016088e-38
0.0842466126096 -0.0093607347344 0.843 1.35318670324e-38
0.0858067350653 -0.0093607347344 0.843 2.2389129906e-38
0.087366857521 -0.0093607347344 0.843 2.35034116162e-38
-0.0152681023248 -0.00763405116239 0.825 1.63841736228e-38
-0.0137412920923 -0.00763405116239 0.825 1.77645815296e-38
-0.0121848709947 -0.0076155443717 0.823 1.62890801077e-38
-0.0106358526134 -0.007597037581 0.821 1.56426359027e-38
-0.0091164450972 -0.007597037581 0.821 1.58252391056e-38
-0.007597037581 -0.007597037581 0.821 1.61915104982e-38
-0.0060776300648 -0.007597037581 0.821 1.56365416557e-38
-0.0045582225486 -0.007597037581 0.821 1.68336401052e-38
-0.00304621774868 -0.0076155443717 0.823 1.66481628392e-38
0.0302400959984 -0.00756002399961 0.817 9.46626998877e-39
0.0317521007983 -0.00756002399961 0.817 9.46015332097e-39
0.0333455354773 -0.0075785307903 0.819 9.73456819794e-39
0.0348612416354 -0.0075785307903 0.819 1.12043004741e-38
0.0363769477935 -0.0075785307903 0.819 1.34090908662e-38
0.0378926539515 -0.0075785307903 0.819 1.52519104506e-38
0.0394083601096 -0.0075785307903 0.819 1.64529549566e-38
0.0409240662676 -0.0075785307903 0.819 1.57171933888e-38
0.0425434104536 -0.007597037581 0.821 1.62711084549e-38
0.0440628179698 -0.007597037581 0.821 1.60878172145e-38
0.0456932662302 -0.0076155443717 0.823 1.40620244843e-38
0.0472163751045 -0.0076155443717 0.823 1.56311326436e-38
0.0487394839789 -0.0076155443717 0.823 1.61807176974e-38
0.0503847376718 -0.00763405116239 0.825 1.5441713525e-38
0.052037394081 -0.00765255795309 0.827 1.54413477861e-38
0.0536974532065 -0.00767106474379 0.829 1.58101303056e-38
0.0552316661553 -0.00767106474379 0.829 1.50743729417e-38
0.0569028293552 -0.00768957153448 0.831 1.71984737656e-38
0.0587220468807 -0.00772658511588 0.835 1.41606885079e-38
0.0604117168713 -0.00774509190657 0.837 1.37954933125e-38
0.0619607352526 -0.00774509190657 0.837 1.57265764833e-38
0.0635097536339 -0.00774509190657 0.837 1.61850393019e-38
0.0650587720152 -0.00774509190657 0.837 1.48942948786e-38
0.0666077903965 -0.00774509190657 0.837 1.55400202175e-38
0.0681568087778 -0.00774509190657 0.837 1.42492813994e-38
0.0697058271592 -0.00774509190657 0.837 1.53552730279e-38
0.0714251080149 -0.00776359869727 0.839 1.572405835e-38
0.0729778277543 -0.00776359869727 0.839 1.6276517467e-38
0.0747082126845 -0.00778210548797 0.841 1.55411090264e-38
0.0766273668797 -0.00781911906936 0.845 1.6096796735e-38
0.0781911906936 -0.00781911906936 0.845 1.65592112153e-38
0.0797550145075 -0.00781911906936 0.845 1.64698924511e-38
0.0813188383213 -0.00781911906936 0.845 1.4443390664e-38
0.0826864901538 -0.00780061227866 0.843 1.54640207953e-38
0.0842466126096 -0.00780061227866 0.843 2.1374261914e-38
-0.0153051159062 -0.00612204636247 0.827 1.76777935105e-38
-0.0137746043156 -0.00612204636247 0.827 1.61061419945e-38
-0.0122144818598 -0.00610724092991 0.825 1.75776707352e-38
-0.0106617621204 -0.00609243549736 0.823 1.71159751211e-38
-0.00913865324604 -0.00609243549736 0.823 1.60096401744e-38
-0.007597037581 -0.0060776300648 0.821 1.61936797082e-38
-0.0060776300648 -0.0060776300648 0.821 1.39806244578e-38
-0.0045582225486 -0.0060776300648 0.821 1.6468464528e-38
-0.0030388150324 -0.0060776300648 0.821 1.48996898777e-38
-0.0015194075162 -0.0060776300648 0.821 1.64659281778e-38
0.0166320527991 -0.00604801919968 0.817 1.76731033645e-38
0.0181440575991 -0.00604801919968 0.817 1.56426415079e-38
0.0196079447432 -0.00603321376713 0.815 1.14916773618e-38
0.021064429171 -0.00601840833457 0.813 9.92291252064e-39
0.0225690312546 -0.00601840833457 0.813 9.82963508836e-39
0.0241328550685 -0.00603321376713 0.815 9.91825460454e-39
0.0256411585103 -0.00603321376713 0.815 1.16645891845e-38
0.0272160863986 -0.00604801919968 0.817 1.1203966965e-38
0.0287280911985 -0.00604801919968 0.817 1.26776537054e-38
0.0302400959984 -0.00604801919968 0.817 1.57190234846e-38
0.0317521007983 -0.00604801919968 0.817 1.54413477861e-38
0.0333455354773 -0.00606282463224 0.819 1.62703839836e-38
0.0348612416354 -0.00606282463224 0.819 1.59008797954e-38
0.0363769477935 -0.00606282463224 0.819 1.57165081539e-38
0.0378926539515 -0.00606282463224 0.819 1.56257376445e-38
0.0394083601096 -0.00606282463224 0.819 1.50743365079e-38
0.0410240029374 -0.0060776300648 0.821 1.62728810974e-38
0.0425434104536 -0.0060776300648 0.821 1.38754640146e-38
0.0440628179698 -0.0060776300648 0.821 1.59034287573e-38
0.0456932662302 -0.00609243549736 0.823 1.49821885222e-38
0.0473311172068 -0.00610724092991 0.825 1.50754421324e-38
0.0488579274393 -0.00610724092991 0.825 1.43389630998e-38
0.0503847376718 -0.00610724092991 0.825 1.46151870531e-38
0.052037394081 -0.00612204636247 0.827 1.49828821649e-38
0.0536974532065 -0.00613685179503 0.829 1.55357000143e-38
0.0553649150483 -0.00615165722759 0.831 1.53509598313e-38
0.0570397796063 -0.00616646266014 0.833 1.44308098064e-38
0.0587220468807 -0.0061812680927 0.835 1.747577812e-38
0.0604117168713 -0.00619607352526 0.837 1.5264875264e-38
0.0619607352526 -0.00619607352526 0.837 1.40645342099e-38
0.0635097536339 -0.00619607352526 0.837 1.47088246191e-38
0.0650587720152 -0.00619607352526 0.837 1.36953915567e-38
0.0666077903965 -0.00619607352526 0.837 1.54478245876e-38
0.0681568087778 -0.00619607352526 0.837 1.52630773981e-38
0.0698723882754 -0.00621087895782 0.839 1.50797679408e-38
0.0714251080149 -0.00621087895782 0.839 1.55407488927e-38
0.0731517915869 -0.00622568439037 0.841 1.46184380655e-38
0.0748858778752 -0.00624048982293 0.843 1.55407488927e-38
0.0766273668797 -0.00625529525549 0.845 1.64648603884e-38
0.0781911906936 -0.00625529525549 0.845 1.61915104982e-38
0.0799437837726 -0.00627010068805 0.847 1.49954882459e-38
0.0813188383213 -0.00625529525549 0.845 1.49068939531e-38
0.0828826621352 -0.00625529525549 0.845 2.15518204424e-38
-0.0137079798691 -0.00456932662302 0.823 1.72160894886e-38
-0.0106617621204 -0.00456932662302 0.823 1.66542921187e-38
-0.00913865324604 -0.00456932662302 0.823 1.52717234096e-38
-0.007597037581 -0.0045582225486 0.821 1.61947615107e-38
-0.0060776300648 -0.0045582225486 0.821 1.48118270627e-38
-0.0045582225486 -0.0045582225486 0.821 1.53649980393e-38
-0.0030388150324 -0.0045582225486 0.821 1.53642721667e-38
-0.0015194075162 -0.0045582225486 0.821 1.58248859784e-38
0.0 -0.0045582225486 0.821 1.435082369e-38
0.00151570615806 -0.00454711847418 0.819 1.55475620058e-38
0.00303141231612 -0.00454711847418 0.819 1.49904323611e-38
0.00451380625093 -0.00451380625093 0.813 1.48006461023e-38
0.00601840833457 -0.00451380625093 0.813 1.57182864016e-38
0.00752301041821 -0.00451380625093 0.813 1.54395415124e-38
0.00904982065069 -0.00452491032535 0.815 1.45175824112e-38
0.0105322145855 -0.00451380625093 0.813 1.40566042618e-38
0.0120368166691 -0.00451380625093 0.813 1.16645513495e-38
0.0135414187528 -0.00451380625093 0.813 1.16663464128e-38
0.0150460208364 -0.00451380625093 0.813 1.19425703661e-38
0.0165913378596 -0.00452491032535 0.815 1.29552803585e-38
0.0181440575991 -0.00453601439976 0.817 1.26761767368e-38
0.0196079447432 -0.00452491032535 0.815 1.39654764214e-38
0.021064429171 -0.00451380625093 0.813 1.58075939553e-38
0.0225690312546 -0.00451380625093 0.813 1.56228425619e-38
0.0241328550685 -0.00452491032535 0.815 1.66348617141e-38
0.0256411585103 -0.00452491032535 0.815 1.64508417985e-38
0.0272160863986 -0.00453601439976 0.817 1.56214468686e-38
0.0287280911985 -0.00453601439976 0.817 1.63604440346e-38
0.0302400959984 -0.00453601439976 0.817 1.58083352422e-38
0.0318298293193 -0.00454711847418 0.819 1.63636558107e-38
0.0333455354773 -0.00454711847418 0.819 1.59952334249e-38
0.0348612416354 -0.00454711847418 0.819 1.47966958419e-38
0.0364657803888 -0.0045582225486 0.821 1.44254120047e-38
0.0378926539515 -0.00454711847418 0.819 1.63622278875e-38
0.0394083601096 -0.00454711847418 0.819 1.58097575602e-38
0.0410240029374 -0.0045582225486 0.821 1.58104778276e-38
0.0425434104536 -0.0045582225486 0.821 1.5994881699e-38
0.0440628179698 -0.0045582225486 0.821 1.52580481379e-38
0.0456932662302 -0.00456932662302 0.823 1.50740184132e-38
0.0473311172068 -0.00458043069744 0.825 1.49821745092e-38
0.0488579274393 -0.00458043069744 0.825 1.48013831852e-38
0.0503847376718 -0.00458043069744 0.825 1.54471029189e-38
0.052037394081 -0.00459153477185 0.827 1.45233403466e-38
0.0536974532065 -0.00460263884627 0.829 1.45219040156e-38
0.0553649150483 -0.00461374292069 0.831 1.43360862341e-38
0.0570397796063 -0.00462484699511 0.833 1.49818255859e-38
0.0587220468807 -0.00463595106953 0.835 1.4982544452e-38
0.0604117168713 -0.00464705514394 0.837 1.45226410986e-38
0.0619607352526 -0.00464705514394 0.837 1.40620132739e-38
0.0635097536339 -0.00464705514394 0.837 1.47995783128e-38
0.0650587720152 -0.00464705514394 0.837 1.59066447373e-38
0.0666077903965 -0.00464705514394 0.837 1.56314997838e-38
0.068319668536 -0.00465815921836 0.839 1.54474714604e-38
0.0698723882754 -0.00465815921836 0.839 1.50801308771e-38
0.0715953704893 -0.00466926329278 0.841 1.53577981678e-38
0.0733257554194 -0.0046803673672 0.843 1.48042684588e-38
0.0750635430659 -0.00469147144162 0.845 1.51734055067e-38
0.0768087334286 -0.00470257551603 0.847 1.63759045605e-38
0.0783762586006 -0.00470257551603 0.847 1.55501025599e-38
0.0799437837726 -0.00470257551603 0.847 1.45406323696e-38
0.0817037795678 -0.00471367959045 0.849 2.19198840957e-38
-0.00913865324604 -0.00304621774868 0.823 1.60096443783e-38
-0.0076155443717 -0.00304621774868 0.823 1.62855095992e-38
-0.00609243549736 -0.00304621774868 0.823 1.60085611746e-38
-0.00456932662302 -0.00304621774868 0.823 1.60085611746e-38
-0.0030388150324 -0.0030388150324 0.821 1.48107368525e-38
-0.0015194075162 -0.0030388150324 0.821 1.52717150018e-38
0.0 -0.0030388150324 0.821 1.51780746332e-38
0.00151570615806 -0.00303141231612 0.819 1.59127557999e-38
0.00303141231612 -0.00303141231612 0.819 1.50783203995e-38
0.00451380625093 -0.00300920416729 0.813 1.63651005494e-38
0.00601840833457 -0.00300920416729 0.813 1.64540591798e-38
0.00752301041821 -0.00300920416729 0.813 1.62696651175e-38
0.00904982065069 -0.00301660688356 0.815 1.61781883537e-38
0.0105322145855 -0.00300920416729 0.813 1.63640159444e-38
0.0120368166691 -0.00300920416729 0.813 1.55367678037e-38
0.0135414187528 -0.00300920416729 0.813 1.48917543245e-38
0.0150460208364 -0.00300920416729 0.813 1.66434684893e-38
0.0165913378596 -0.00301660688356 0.815 1.52598151753e-38
0.0181440575991 -0.00302400959984 0.817 1.54427673015e-38
0.0196079447432 -0.00301660688356 0.815 1.55342468678e-38
0.0211162481849 -0.00301660688356 0.815 1.4796330103e-38
0.0226245516267 -0.00301660688356 0.815 1.57172102044e-38
0.0241328550685 -0.00301660688356 0.815 1.44300713221e-38
0.0257040815987 -0.00302400959984 0.817 1.44304426662e-38
0.0272160863986 -0.00302400959984 0.817 1.4337898113e-38
0.0287280911985 -0.00302400959984 0.817 1.4889629956e-38
0.0303141231612 -0.00303141231612 0.819 1.48896159431e-38
0.0318298293193 -0.00303141231612 0.819 1.48885257328e-38
0.0333455354773 -0.00303141231612 0.819 1.45183110864e-38
0.0349463728726 -0.0030388150324 0.821 1.62696791304e-38
0.0364657803888 -0.0030388150324 0.821 1.67338914766e-38
0.037985187905 -0.0030388150324 0.821 1.39687414468e-38
0.0395045954212 -0.0030388150324 0.821 1.47059407468e-38
0.0410240029374 -0.0030388150324 0.821 1.52587473858e-38
0.0425434104536 -0.0030388150324 0.821 1.5626805434e-38
0.0441701573558 -0.00304621774868 0.823 1.58097575602e-38
0.0456932662302 -0.00304621774868 0.823 1.56242957084e-38
0.0473311172068 -0.00305362046496 0.825 1.58998176112e-38
0.0489763708998 -0.00306102318124 0.827 1.53509598313e-38
0.0505068824904 -0.00306102318124 0.827 1.4338954692e-38
0.0521632402577 -0.00306842589751 0.829 1.46140940403e-38
0.0538270007414 -0.00307582861379 0.831 1.5166551756e-38
0.0554981639413 -0.00308323133007 0.833 1.58112163119e-38
0.0571767298575 -0.00309063404635 0.835 1.53498892392e-38
0.05886269849 -0.00309803676263 0.837 1.42439046172e-38
0.0604117168713 -0.00309803676263 0.837 1.5259128539e-38
0.0619607352526 -0.00309803676263 0.837 1.47988552428e-38
0.0636615093176 -0.00310543947891 0.839 1.53520276207e-38
0.0652142290571 -0.00310543947891 0.839 1.51690768958e-38
0.0667669487965 -0.00310543947891 0.839 1.50776071385e-38
0.068319668536 -0.00310543947891 0.839 1.56318627201e-38
0.0700389493917 -0.00311284219519 0.841 1.54489147978e-38
0.0717656329637 -0.00312024491147 0.843 1.61879217728e-38
0.0733257554194 -0.00312024491147 0.843 1.60960890793e-38
0.0750635430659 -0.00312764762774 0.845 1.56387010566e-38
0.0768087334286 -0.00313505034402 0.847 1.49065310168e-38
0.0783762586006 -0.00313505034402 0.847 1.47289794949e-38
-0.00918306954371 -0.00153051159062 0.827 1.647025819e-38
-0.00763405116239 -0.00152681023248 0.825 1.73904040111e-38
-0.00610724092991 -0.00152681023248 0.825 1.64659281778e-38
-0.00458043069744 -0.00152681023248 0.825 1.72949713817e-38
-0.00304621774868 -0.00152310887434 0.823 1.58202070428e-38
-0.00152310887434 -0.00152310887434 0.823 1.60053255765e-38
0.0 -0.0015194075162 0.821 1.52681206713e-38
0.00151570615806 -0.00151570615806 0.819 1.57269408209e-38
0.00303141231612 -0.00151570615806 0.819 1.57233436878e-38
0.00452491032535 -0.00150830344178 0.815 1.58123009169e-38
0.00603321376713 -0.00150830344178 0.815 1.59041336104e-38
0.00754151720891 -0.00150830344178 0.815 1.54453106582e-38
0.00907202879953 -0.00151200479992 0.817 1.48031782486e-38
0.0105581240925 -0.00150830344178 0.815 1.49904463741e-38
0.0120664275343 -0.00150830344178 0.815 1.5629336179e-38
0.013574730976 -0.00150830344178 0.815 1.608743466e-38
0.0150830344178 -0.00150830344178 0.815 1.62718231171e-38
0.0166320527991 -0.00151200479992 0.817 1.48888886691e-38
0.0181440575991 -0.00151200479992 0.817 1.52576739912e-38
0.019656062399 -0.00151200479992 0.817 1.5718297612e-38
0.0211680671989 -0.00151200479992 0.817 1.50718590122e-38
0.0226800719988 -0.00151200479992 0.817 1.56250369953e-38
0.0241920767987 -0.00151200479992 0.817 1.5440267385e-38
0.025767004687 -0.00151570615806 0.819 1.60856409979e-38
0.0272827108451 -0.00151570615806 0.819 1.53484501057e-38
0.0287984170032 -0.00151570615806 0.819 1.52566146096e-38
0.0303141231612 -0.00151570615806 0.819 1.53505940924e-38
0.0319075578402 -0.0015194075162 0.821 1.5260185118e-38
0.0334269653564 -0.0015194075162 0.821 1.54449477219e-38
0.0349463728726 -0.0015194075162 0.821 1.51683776479e-38
0.0364657803888 -0.0015194075162 0.821 1.53531066205e-38
0.037985187905 -0.0015194075162 0.821 1.5629336179e-38
0.0395045954212 -0.0015194075162 0.821 1.44304426662e-38
0.0411239396072 -0.00152310887434 0.823 1.59062803997e-38
0.0426470484815 -0.00152310887434 0.823 1.46173114216e-38
0.0441701573558 -0.00152310887434 0.823 1.48020544072e-38
0.0458043069744 -0.00152681023248 0.825 1.38793918542e-38
0.0474458593092 -0.00153051159062 0.827 1.48002971789e-38
0.0489763708998 -0.00153051159062 0.827 1.51647707056e-38
0.0505068824904 -0.00153051159062 0.827 1.50714848655e-38
0.0522890864345 -0.0015379143069 0.831 1.53484220797e-38
0.0539565482763 -0.00154161566504 0.833 1.5441699512e-38
0.0556314128343 -0.00154531702318 0.835 1.43360862341e-38
0.0573136801086 -0.00154901838131 0.837 1.57193906248e-38
0.05886269849 -0.00154901838131 0.837 1.41538697896e-38
0.0605560698387 -0.00155271973945 0.839 1.61836057736e-38
0.0621087895782 -0.00155271973945 0.839 1.4429352456e-38
0.0636615093176 -0.00155271973945 0.839 1.54438603143e-38
0.0652142290571 -0.00155271973945 0.839 1.498396677e-38
0.0667669487965 -0.00155271973945 0.839 1.49854115087e-38
0.068319668536 -0.00155271973945 0.839 1.52630830033e-38
0.0698723882754 -0.00155271973945 0.839 1.41592549796e-38
0.0719358954381 -0.00156382381387 0.845 1.45287633716e-38
0.073499719252 -0.00156382381387 0.845 1.50830161506e-38
0.0750635430659 -0.00156382381387 0.845 1.42604455443e-38
0.0768087334286 -0.00156752517201 0.847 1.55576611638e-38
0.0783762586006 -0.00156752517201 0.847 2.04523056153e-38
-0.0107135811343 0.0 0.827 1.68451685877e-38
-0.00918306954371 0.0 0.827 1.60128785752e-38
-0.00763405116239 0.0 0.825 1.76687957731e-38
-0.00610724092991 0.0 0.825 1.60074681618e-38
-0.00458043069744 0.0 0.825 1.64677260437e-38
-0.00305362046496 0.0 0.825 1.55472102799e-38
-0.00152310887434 0.0 0.823 1.54561006563e-38
0.0 0.0 0.823 1.55450648919e-38
0.0015194075162 0.0 0.821 1.60953590028e-38
0.00303141231612 0.0 0.819 1.58155253047e-38
0.00453601439976 0.0 0.817 1.55360531415e-38
0.00604801919968 0.0 0.817 1.49821604962e-38
0.00756002399961 0.0 0.817 1.61814225506e-38
0.00907202879953 0.0 0.817 1.50761623998e-38
0.0105840335994 0.0 0.817 1.61839546969e-38
0.0120960383994 0.0 0.817 1.48892628158e-38
0.0136080431993 0.0 0.817 1.59005420825e-38
0.0151200479992 0.0 0.817 1.47941973267e-38
0.0166727677387 0.0 0.819 1.57157892878e-38
0.0181884738967 0.0 0.819 1.53480731564e-38
0.019656062399 0.0 0.817 1.53491479524e-38
0.0211680671989 0.0 0.817 1.516620003e-38
0.0227355923709 0.0 0.819 1.54431526585e-38
0.024251298529 0.0 0.819 1.44271944563e-38
0.025767004687 0.0 0.819 1.50725610628e-38
0.0272827108451 0.0 0.819 1.44271958576e-38
0.0287984170032 0.0 0.819 1.46112339901e-38
0.0303141231612 0.0 0.819 1.48881880199e-38
0.0319075578402 0.0 0.821 1.55342833016e-38
0.0334269653564 0.0 0.821 1.51658609158e-38
0.0349463728726 0.0 0.821 1.46130430664e-38
0.0364657803888 0.0 0.821 1.47984881026e-38
0.0380777218585 0.0 0.823 1.47062896702e-38
0.0396008307328 0.0 0.823 1.52587501884e-38
0.0412238762769 0.0 0.825 1.48888886691e-38
0.0427506865094 0.0 0.825 1.54424155755e-38
0.0442774967419 0.0 0.825 1.52591019143e-38
0.0459153477185 0.0 0.827 1.55367720076e-38
0.0475606014115 0.0 0.829 1.40623678024e-38
0.0490948143602 0.0 0.829 1.48892656184e-38
0.050629027309 0.0 0.829 1.48888914717e-38
0.0524149326112 0.0 0.833 1.55324854356e-38
0.0540860958111 0.0 0.835 1.41506187771e-38
0.0557646617273 0.0 0.837 1.53509458183e-38
0.0574506303598 0.0 0.839 1.57193878222e-38
0.0590033500993 0.0 0.839 1.37857809128e-38
0.0605560698387 0.0 0.839 1.52605676725e-38
0.0621087895782 0.0 0.839 1.40616601467e-38
0.0636615093176 0.0 0.839 1.47073854856e-38
0.0653696860989 0.0 0.841 1.46166289892e-38
0.0669261071965 0.0 0.841 1.48942948786e-38
0.0684825282941 0.0 0.841 1.49897303105e-38
0.0700389493917 0.0 0.841 1.55465054268e-38
-0.00765255795309 0.00153051159062 0.827 1.57348483482e-38
-0.00612204636247 0.00153051159062 0.827 1.72074518848e-38
-0.00458043069744 0.00152681023248 0.825 1.60081870279e-38
-0.00305362046496 0.00152681023248 0.825 1.52717009888e-38
-0.00152310887434 0.00152310887434 0.823 1.5825236303e-38
0.0 0.00152310887434 0.823 1.47153014206e-38
0.0015194075162 0.0015194075162 0.821 1.57269324131e-38
0.0030388150324 0.0015194075162 0.821 1.53552618176e-38
0.00454711847418 0.00151570615806 0.819 1.57211590635e-38
0.00606282463224 0.00151570615806 0.819 1.64569220326e-38
0.0075785307903 0.00151570615806 0.819 1.52580229145e-38
0.00909423694836 0.00151570615806 0.819 1.51672734247e-38
0.0105840335994 0.00151200479992 0.817 1.4706659613e-38
0.0120960383994 0.00151200479992 0.817 1.40594797263e-38
0.0136080431993 0.00151200479992 0.817 1.507291419e-38
0.0151200479992 0.00151200479992 0.817 1.59012469356e-38
0.0166727677387 0.00151570615806 0.819 1.553174555e-38
0.0181884738967 0.00151570615806 0.819 1.60856381953e-38
0.0197041800548 0.00151570615806 0.819 1.47034268174e-38
0.0212198862128 0.00151570615806 0.819 1.51654951769e-38
0.0227355923709 0.00151570615806 0.819 1.60881843546e-38
0.0243105202592 0.0015194075162 0.821 1.45208334236e-38
0.0258299277754 0.0015194075162 0.821 1.56268068353e-38
0.0273493352916 0.0015194075162 0.821 1.5165828686e-38
0.0288687428078 0.0015194075162 0.821 1.49810871016e-38
0.030388150324 0.0015194075162 0.821 1.59023385471e-38
0.0319075578402 0.0015194075162 0.821 1.54410086719e-38
0.0334269653564 0.0015194075162 0.821 1.49803836498e-38
0.0350315041098 0.00152310887434 0.823 1.51651238328e-38
0.0365546129841 0.00152310887434 0.823 1.56275327079e-38
0.038170255812 0.00152681023248 0.825 1.42445982599e-38
0.0396970660444 0.00152681023248 0.825 1.55342608808e-38
0.0412238762769 0.00152681023248 0.825 1.46112311875e-38
0.0428543245373 0.00153051159062 0.827 1.45190355577e-38
0.0443848361279 0.00153051159062 0.827 1.55331874862e-38
0.0460263884627 0.00153421294876 0.829 1.48896159431e-38
0.0476753435138 0.0015379143069 0.831 1.50747260689e-38
0.0492132578207 0.0015379143069 0.831 1.46141136585e-38
0.0508733169462 0.00154161566504 0.833 1.41534816299e-38
0.0526666249647 0.00154901838131 0.837 1.54424520093e-38
0.054215643346 0.00154901838131 0.837 1.4520483099e-38
0.0557646617273 0.00154901838131 0.837 1.44297055832e-38
0.0574506303598 0.00155271973945 0.839 1.5628265587e-38
0.0590033500993 0.00155271973945 0.839 1.49853918905e-38
0.0605560698387 0.00155271973945 0.839 1.48932186814e-38
0.0621087895782 0.00155271973945 0.839 1.47084714919e-38
0.0638132650013 0.00155642109759 0.841 1.5631143854e-38
0.0653696860989 0.00155642109759 0.841 1.48031782486e-38
0.0669261071965 0.00155642109759 0.841 1.60046011051e-38
0.0684825282941 0.00155642109759 0.841 1.56386996553e-38
-0.00612204636247 0.00306102318124 0.827 1.56422869794e-38
-0.00459153477185 0.00306102318124 0.827 1.60089086966e-38
-0.00305362046496 0.00305362046496 0.825 1.63769695474e-38
-0.00152681023248 0.00305362046496 0.825 1.55472088786e-38
0.0 0.00305362046496 0.825 1.52684723972e-38
0.00152310887434 0.00304621774868 0.823 1.59113236729e-38
0.0030388150324 0.0030388150324 0.821 1.49872009668e-38
0.0045582225486 0.0030388150324 0.821 1.50768700555e-38
0.00606282463224 0.00303141231612 0.819 1.59051873869e-38
0.0075785307903 0.00303141231612 0.819 1.57207961272e-38
0.00909423694836 0.00303141231612 0.819 1.57207989298e-38
0.0105840335994 0.00302400959984 0.817 1.52609053855e-38
0.0120960383994 0.00302400959984 0.817 1.53520023973e-38
0.0136080431993 0.00302400959984 0.817 1.56267928223e-38
0.0151200479992 0.00302400959984 0.817 1.50721925213e-38
0.0166727677387 0.00303141231612 0.819 1.5532097276e-38
0.0181884738967 0.00303141231612 0.819 1.54406233148e-38
0.0197041800548 0.00303141231612 0.819 1.48878180771e-38
0.0212717052268 0.0030388150324 0.821 1.45201313731e-38
0.022791112743 0.0030388150324 0.821 1.50729646367e-38
0.0243105202592 0.0030388150324 0.821 1.4244246534e-38
0.0258299277754 0.0030388150324 0.821 1.54424141742e-38
0.0273493352916 0.0030388150324 0.821 1.57193569936e-38
0.0289390686124 0.00304621774868 0.823 1.59044727247e-38
0.0304621774868 0.00304621774868 0.823 1.43364393613e-38
0.0319852863611 0.00304621774868 0.823 1.45197572264e-38
0.0335083952355 0.00304621774868 0.823 1.4611947251e-38
0.0350315041098 0.00304621774868 0.823 1.48892417964e-38
0.0366434455795 0.00305362046496 0.825 1.51672734247e-38
0.038170255812 0.00305362046496 0.825 1.53513129585e-38
0.0396970660444 0.00305362046496 0.825 1.48892628158e-38
0.0413238129467 0.00306102318124 0.827 1.48881866186e-38
0.0428543245373 0.00306102318124 0.827 1.39662317213e-38
0.044492175514 0.00306842589751 0.829 1.53491647679e-38
0.0461374292069 0.00307582861379 0.831 1.40595021471e-38
0.0479048277184 0.00309063404635 0.835 1.55353482884e-38
0.0494501447416 0.00309063404635 0.835 1.45229886206e-38
0.0511176065834 0.00309803676263 0.837 1.34177088517e-38
0.0527924711414 0.00310543947891 0.839 1.47070337596e-38
0.0543451908809 0.00310543947891 0.839 1.51672846351e-38
0.0558979106203 0.00310543947891 0.839 1.48924787958e-38
0.057587580611 0.00311284219519 0.841 1.49846856361e-38
0.0591440017085 0.00311284219519 0.841 1.53556135435e-38
0.0607004228061 0.00311284219519 0.841 1.41567298397e-38
0.0622568439037 0.00311284219519 0.841 1.47113483576e-38
0.063965020685 0.00312024491147 0.843 1.43443609015e-38
0.0655251431408 0.00312024491147 0.843 1.43465189011e-38
0.0670852655965 0.00312024491147 0.843 1.471853842e-38
-0.00767106474379 0.00460263884627 0.829 1.38977740874e-38
-0.00613685179503 0.00460263884627 0.829 1.45395421594e-38
-0.00459153477185 0.00459153477185 0.827 1.54578957197e-38
-0.00306102318124 0.00459153477185 0.827 1.52717009888e-38
-0.00153051159062 0.00459153477185 0.827 1.65613580045e-38
0.0 0.00459153477185 0.827 1.60063933659e-38
0.00152681023248 0.00458043069744 0.825 1.60964309961e-38
0.0030388150324 0.0045582225486 0.821 1.59098775329e-38
0.0045582225486 0.0045582225486 0.821 1.5539290141e-38
0.0060776300648 0.0045582225486 0.821 1.58144336932e-38
0.007597037581 0.0045582225486 0.821 1.51679852843e-38
0.0091164450972 0.0045582225486 0.821 1.54456483711e-38
0.0106099431064 0.00454711847418 0.819 1.53534555438e-38
0.0121256492645 0.00454711847418 0.819 1.46137339066e-38
0.0136413554225 0.00454711847418 0.819 1.4981084299e-38
0.0151570615806 0.00454711847418 0.819 1.53480717551e-38
0.0167134826782 0.0045582225486 0.821 1.55328189447e-38
0.0182328901944 0.0045582225486 0.821 1.590195319e-38
0.0198004153664 0.00456932662302 0.823 1.54420512379e-38
0.0213235242407 0.00456932662302 0.823 1.56264565107e-38
0.0228466331151 0.00456932662302 0.823 1.60878088067e-38
0.0243697419894 0.00456932662302 0.823 1.58104904393e-38
0.0258928508638 0.00456932662302 0.823 1.55342552756e-38
0.0274159597381 0.00456932662302 0.823 1.46137325053e-38
0.0289390686124 0.00456932662302 0.823 1.48899648664e-38
0.0305362046496 0.00458043069744 0.825 1.4613745117e-38
0.0320630148821 0.00458043069744 0.825 1.54427897222e-38
0.0335898251145 0.00458043069744 0.825 1.4981084299e-38
0.035116635347 0.00458043069744 0.825 1.53505744742e-38
0.0366434455795 0.00458043069744 0.825 1.50754379285e-38
0.0382627897654 0.00459153477185 0.827 1.49839695726e-38
0.0397933013561 0.00459153477185 0.827 1.47977860521e-38
0.0413238129467 0.00459153477185 0.827 1.57186689561e-38
0.0429579625652 0.00460263884627 0.829 1.45201257679e-38
0.0445995149 0.00461374292069 0.831 1.55346350275e-38
0.0463595106953 0.00463595106953 0.835 1.47063064857e-38
0.0481343119231 0.00465815921836 0.839 1.66434909101e-38
0.0496870316625 0.00465815921836 0.839 1.56300424334e-38
0.0513618962206 0.00466926329278 0.841 1.53534527412e-38
0.0529183173182 0.00466926329278 0.841 1.53516730922e-38
0.0546042859506 0.0046803673672 0.843 1.48910508727e-38
0.0561644084064 0.0046803673672 0.843 1.4892122866e-38
0.0577245308621 0.0046803673672 0.843 1.39716085035e-38
0.0592846533178 0.0046803673672 0.843 1.52637822512e-38
0.0608447757736 0.0046803673672 0.843 1.33287642343e-38
0.0624048982293 0.0046803673672 0.843 1.56379821905e-38
0.063965020685 0.0046803673672 0.843 1.46259882617e-38
-0.00612204636247 0.00612204636247 0.827 1.48197331886e-38
-0.00459153477185 0.00612204636247 0.827 1.57380881502e-38
-0.00306102318124 0.00612204636247 0.827 1.39827656419e-38
-0.00153051159062 0.00612204636247 0.827 1.5640843642e-38
0.0 0.00612204636247 0.827 1.46245351152e-38
0.00152681023248 0.00610724092991 0.825 1.53595820207e-38
0.00304621774868 0.00609243549736 0.823 1.41596011003e-38
0.00456932662302 0.00609243549736 0.823 1.62786600523e-38
0.0060776300648 0.0060776300648 0.821 1.51708705578e-38
0.007597037581 0.0060776300648 0.821 1.48928417321e-38
0.0091164450972 0.0060776300648 0.821 1.54463700398e-38
0.0106358526134 0.0060776300648 0.821 1.46166065684e-38
0.0121552601296 0.0060776300648 0.821 1.5720091274e-38
0.0136746676458 0.0060776300648 0.821 1.4796344116e-38
0.0152310887434 0.00609243549736 0.823 1.57175787459e-38
0.0167541976177 0.00609243549736 0.823 1.59015986615e-38
0.0182773064921 0.00609243549736 0.823 1.55331650654e-38
0.0198485330222 0.00610724092991 0.825 1.4611561894e-38
0.0213753432547 0.00610724092991 0.825 1.55346098041e-38
0.0229021534872 0.00610724092991 0.825 1.45197516212e-38
0.0244289637197 0.00610724092991 0.825 1.5348799029e-38
0.0259557739521 0.00610724092991 0.825 1.43353631641e-38
0.0274825841846 0.00610724092991 0.825 1.48899704716e-38
0.0290093944171 0.00610724092991 0.825 1.40605713378e-38
0.0306102318124 0.00612204636247 0.827 1.39687442494e-38
0.032140743403 0.00612204636247 0.827 1.50743729417e-38
0.0336712549936 0.00612204636247 0.827 1.47963385108e-38
0.0352017665842 0.00612204636247 0.827 1.39665666316e-38
0.0367322781748 0.00612204636247 0.827 1.45236962764e-38
0.0383553237189 0.00613685179503 0.829 1.39708882361e-38
0.0398895366677 0.00613685179503 0.829 1.52605536595e-38
0.0414237496164 0.00613685179503 0.829 1.47985021156e-38
0.0433725146768 0.00619607352526 0.837 1.49821773118e-38
0.0449215330581 0.00619607352526 0.837 1.44297167936e-38
0.0465815921836 0.00621087895782 0.839 1.4615538779e-38
0.0482490540254 0.00622568439037 0.841 1.44318607802e-38
0.049805475123 0.00622568439037 0.841 1.36935614609e-38
0.0514840410392 0.00624048982293 0.843 1.57207961272e-38
0.0530441634949 0.00624048982293 0.843 1.44297083858e-38
0.0546042859506 0.00624048982293 0.843 1.53516730922e-38
0.0561644084064 0.00624048982293 0.843 1.34173599284e-38
0.0578614811133 0.00625529525549 0.845 1.56325647707e-38
0.0594253049271 0.00625529525549 0.845 1.4989361769e-38
0.060989128741 0.00625529525549 0.845 1.39762944456e-38
-0.00460263884627 0.00767106474379 0.829 1.34364428109e-38
-0.00306842589751 0.00767106474379 0.829 1.54622173241e-38
-0.00153421294876 0.00767106474379 0.829 1.51831038934e-38
0.0 0.00767106474379 0.829 1.44408613202e-38
0.00153051159062 0.00765255795309 0.827 1.62822585868e-38
0.00305362046496 0.00763405116239 0.825 1.47138566819e-38
0.00458043069744 0.00763405116239 0.825 1.79396275299e-38
0.00610724092991 0.00763405116239 0.825 1.44347516589e-38
0.0076155443717 0.0076155443717 0.823 1.50783203995e-38
0.00913865324604 0.0076155443717 0.823 1.55389342112e-38
0.0106617621204 0.0076155443717 0.823 1.55392873384e-38
0.0121848709947 0.0076155443717 0.823 1.51683384115e-38
0.0137412920923 0.00763405116239 0.825 1.4798123765e-38
0.0153051159062 0.00765255795309 0.827 1.49807185601e-38
0.0168356274968 0.00765255795309 0.827 1.47956028291e-38
0.0183661390874 0.00765255795309 0.827 1.59015874511e-38
0.0199447683338 0.00767106474379 0.829 1.42424318525e-38
0.0214789812826 0.00767106474379 0.829 1.50722121394e-38
0.0229576738593 0.00765255795309 0.827 1.52562628836e-38
0.0244881854499 0.00765255795309 0.827 1.55328413654e-38
0.0260186970405 0.00765255795309 0.827 1.48885397458e-38
0.0275492086311 0.00765255795309 0.827 1.49825276364e-38
0.0290797202217 0.00765255795309 0.827 1.44307957934e-38
0.0306102318124 0.00765255795309 0.827 1.47070323583e-38
0.032140743403 0.00765255795309 0.827 1.56279110585e-38
0.0336712549936 0.00765255795309 0.827 1.51658469028e-38
0.0352868978214 0.00767106474379 0.829 1.43349960239e-38
0.0368211107702 0.00767106474379 0.829 1.45244109386e-38
0.0383553237189 0.00767106474379 0.829 1.46173310397e-38
0.0399857719793 0.00768957153448 0.831 1.49846842348e-38
0.0415236862862 0.00768957153448 0.831 1.51683608323e-38
0.0434761527047 0.00776359869727 0.839 1.51683608323e-38
0.0450288724442 0.00776359869727 0.839 1.48921284712e-38
0.0466926329278 0.00778210548797 0.841 1.54460127087e-38
0.0483637961277 0.00780061227866 0.843 1.48942668527e-38
0.0499239185834 0.00780061227866 0.843 1.49846520049e-38
0.0514840410392 0.00780061227866 0.843 1.49832338909e-38
0.0530441634949 0.00780061227866 0.843 1.45233403466e-38
0.0546042859506 0.00780061227866 0.843 1.53541968307e-38
0.0561644084064 0.00780061227866 0.843 1.51723265069e-38
0.0578614811133 0.00781911906936 0.845 1.48074858401e-38
0.0594253049271 0.00781911906936 0.845 1.39802587189e-38
-0.00153421294876 0.00920527769254 0.829 1.42647503331e-38
0.0 0.00920527769254 0.829 1.45348520134e-38
0.00153421294876 0.00920527769254 0.829 1.56379653749e-38
0.00306102318124 0.00918306954371 0.827 1.51759166336e-38
0.00459153477185 0.00918306954371 0.827 1.55425495612e-38
0.00612204636247 0.00918306954371 0.827 1.59098929471e-38
0.00765255795309 0.00918306954371 0.827 1.68304087109e-38
0.00918306954371 0.00918306954371 0.827 1.54471085241e-38
0.0106876716274 0.00916086139487 0.825 1.48935676047e-38
0.0122144818598 0.00916086139487 0.825 1.52612571114e-38
0.0137746043156 0.00918306954371 0.827 1.49825150247e-38
0.0153421294876 0.00920527769254 0.829 1.44282622457e-38
0.0168763424363 0.00920527769254 0.829 1.48877984589e-38
0.0184105553851 0.00920527769254 0.829 1.59015874511e-38
0.0199447683338 0.00920527769254 0.829 1.50718351902e-38
0.0214789812826 0.00920527769254 0.829 1.57172284213e-38
0.0230131942314 0.00920527769254 0.829 1.53477480552e-38
0.0245474071801 0.00920527769254 0.829 1.50711387448e-38
0.0260816201289 0.00920527769254 0.829 1.46123045822e-38
0.0276158330776 0.00920527769254 0.829 1.44304244493e-38
0.029220371831 0.00922748584138 0.831 1.40627279361e-38
0.0306842589751 0.00920527769254 0.829 1.47088246191e-38
0.0322184719239 0.00920527769254 0.829 1.51680077051e-38
0.0337526848727 0.00920527769254 0.829 1.49818115729e-38
0.0352868978214 0.00920527769254 0.829 1.38743738044e-38
0.0368211107702 0.00920527769254 0.829 1.44322181113e-38
0.0383553237189 0.00920527769254 0.829 1.47098924085e-38
0.0398895366677 0.00920527769254 0.829 1.42478436672e-38
0.0414237496164 0.00920527769254 0.829 1.47999468543e-38
0.0436834287605 0.0093607347344 0.843 1.42467730751e-38
0.0452435512162 0.0093607347344 0.843 1.44315146595e-38
0.046803673672 0.0093607347344 0.843 1.3510986284e-38
0.0483637961277 0.0093607347344 0.843 1.41574234825e-38
0.0499239185834 0.0093607347344 0.843 1.4803494942e-38
0.0514840410392 0.0093607347344 0.843 1.45255011488e-38
-0.00153421294876 0.0107394906413 0.829 1.25166361041e-38
0.0 0.0107394906413 0.829 1.4627407777e-38
0.00153051159062 0.0107135811343 0.827 1.48092809034e-38
0.00306102318124 0.0107135811343 0.827 1.45309073583e-38
0.00459153477185 0.0107135811343 0.827 1.55432712299e-38
0.00612204636247 0.0107135811343 0.827 1.52652494107e-38
0.00765255795309 0.0107135811343 0.827 1.65541903629e-38
0.00918306954371 0.0107135811343 0.827 1.56311466566e-38
0.0107135811343 0.0107135811343 0.827 1.48932158788e-38
0.0122737035901 0.0107394906413 0.829 1.39694687207e-38
0.0138079165388 0.0107394906413 0.829 1.53502521755e-38
0.015379143069 0.0107654001483 0.831 1.63633166964e-38
0.0169170573759 0.0107654001483 0.831 1.56246586447e-38
0.0184549716828 0.0107654001483 0.831 1.60859787109e-38
0.0200410036455 0.0107913096553 0.833 1.50718211772e-38
0.0215308002966 0.0107654001483 0.831 1.54406177096e-38
0.0230687146034 0.0107654001483 0.831 1.52566005966e-38
0.0246066289103 0.0107654001483 0.831 1.59016014641e-38
0.0262074663056 0.0107913096553 0.833 1.51658272847e-38
0.0277490819706 0.0107913096553 0.833 1.54449253011e-38
0.0292906976357 0.0107913096553 0.833 1.48010006308e-38
0.0308323133007 0.0107913096553 0.833 1.48013719749e-38
0.0323739289658 0.0107913096553 0.833 1.49839695726e-38
0.0338341147517 0.0107654001483 0.831 1.48906865351e-38
0.0353720290586 0.0107654001483 0.831 1.36903342705e-38
0.0369099433655 0.0107654001483 0.831 1.48939207319e-38
0.0384478576724 0.0107654001483 0.831 1.47102595487e-38
0.0 0.0122737035901 0.829 1.19605896631e-38
0.00153051159062 0.0122440927249 0.827 1.43533572376e-38
0.00306102318124 0.0122440927249 0.827 1.4811452916e-38
0.00459153477185 0.0122440927249 0.827 1.43461643726e-38
0.00612204636247 0.0122440927249 0.827 1.49875835213e-38
0.00765255795309 0.0122440927249 0.827 1.49847094581e-38
0.00918306954371 0.0122440927249 0.827 1.56286341285e-38
0.0107394906413 0.0122737035901 0.829 1.54438743272e-38
0.0122737035901 0.0122737035901 0.829 1.53495178951e-38
0.0138412287621 0.0123033144552 0.831 1.58101289043e-38
0.015379143069 0.0123033144552 0.831 1.47041316705e-38
0.0169170573759 0.0123033144552 0.831 1.51654643484e-38
0.0184993879804 0.0123329253203 0.833 1.54424155755e-38
0.0200891213013 0.0123625361854 0.835 1.50743589287e-38
0.0216344383245 0.0123625361854 0.835 1.5258752991e-38
0.0231797553476 0.0123625361854 0.835 1.38758185431e-38
0.024784294101 0.0123921470505 0.837 1.45254871358e-38
0.0263333124823 0.0123921470505 0.837 1.4526924868e-38
0.0278823308637 0.0123921470505 0.837 1.47106112746e-38
0.029431349245 0.0123921470505 0.837 1.45251522255e-38
0.0310543947891 0.0124217579156 0.839 1.40631034841e-38
