# .PCD v0.7 - Point Cloud Data file format
VERSION 0.7
FIELDS x y z rgb
SIZE 4 4 4 4
TYPE F F F F
COUNT 1 1 1 1
WIDTH 842
HEIGHT 1
VIEWPOINT 0 0 0 1 0 0 0
POINTS 842
DATA ascii
0.0481916829742 -0.0808931821353 0.93 1.92645678396e-38
0.049912814509 -0.0808931821353 0.93 1.97262620524e-38
0.0515229052996 -0.0807192183028 0.928 1.9818456281e-38
0.0532403354763 -0.0807192183028 0.928 1.96340650212e-38
0.0547801004623 -0.0804582725539 0.925 1.97251928617e-38
0.0564919786017 -0.0804582725539 0.925 2.00939753811e-38
0.0582038567412 -0.0804582725539 0.925 1.94489590993e-38
0.0599157348806 -0.0804582725539 0.925 2.01868786667e-38
0.061494364127 -0.0802843087214 0.923 1.91727239356e-38
0.0629971155316 -0.0800233629726 0.92 1.92649195655e-38
0.0645590886664 -0.07984939914 0.918 1.96337048875e-38
0.0662580120524 -0.07984939914 0.918 2.00021300759e-38
0.0679569354383 -0.07984939914 0.918 1.9172735146e-38
0.0696558588243 -0.07984939914 0.918 1.93567634694e-38
0.0713547822102 -0.07984939914 0.918 2.01868786667e-38
0.0728149679962 -0.0795884533912 0.915 1.92638405657e-38
0.074508339345 -0.0795884533912 0.915 1.94482318254e-38
0.0760351495774 -0.0794144895587 0.913 1.96319070216e-38
0.0774694258564 -0.0791535438098 0.91 1.98162996826e-38
0.0789795799773 -0.0789795799773 0.908 1.97230278555e-38
0.0804823313819 -0.0788056161447 0.906 1.99092127773e-38
0.0818869967957 -0.0785446703959 0.903 1.94496737615e-38
0.0830954902282 -0.0781097608145 0.898 1.93585529276e-38
0.0847574000328 -0.0781097608145 0.898 1.88982950457e-38
0.0864193098374 -0.0781097608145 0.898 1.91752378651e-38
0.0880812196419 -0.0781097608145 0.898 2.00961151639e-38
-0.0334232639983 -0.076873507196 0.903 1.00442817832e-38
-0.0317521007983 -0.076873507196 0.903 2.1476538485e-38
-0.0300809375984 -0.076873507196 0.903 2.32293344522e-38
-0.0285041590311 -0.0771289009076 0.906 1.88053791484e-38
-0.026827443794 -0.0771289009076 0.906 1.99120952482e-38
-0.0251507285568 -0.0771289009076 0.906 1.9543318334e-38
-0.0234740133197 -0.0771289009076 0.906 2.00042964833e-38
-0.0218454157384 -0.077299163382 0.908 2.00954131133e-38
-0.020320456185 -0.0778950820425 0.915 1.91734568147e-38
-0.0187288721851 -0.0783207382285 0.92 2.0279085507e-38
-0.017026247441 -0.0783207382285 0.92 2.00024986174e-38
-0.0153735910318 -0.0785761319401 0.923 1.97259117278e-38
-0.0136950251156 -0.0787463944145 0.925 1.91727407512e-38
-0.0119831469761 -0.0787463944145 0.925 2.0279085507e-38
-0.0103045810599 -0.0790017881261 0.928 1.99103001849e-38
-0.00858715088327 -0.0790017881261 0.928 1.89886970135e-38
-0.00688452613918 -0.0791720506005 0.93 1.9818456281e-38
-0.00518005071601 -0.0794274443121 0.933 1.99106533121e-38
-0.00345336714401 -0.0794274443121 0.933 1.91730910758e-38
-0.00173038493014 -0.0795977067866 0.935 2.00024958148e-38
0.0 -0.0795977067866 0.935 1.97269809185e-38
0.00173593696735 -0.0798531004982 0.938 1.93581969978e-38
0.0034718739347 -0.0798531004982 0.938 2.00032034705e-38
0.00521891497647 -0.0800233629726 0.94 1.98188094082e-38
0.0069807614508 -0.0802787566842 0.943 2.02797903601e-38
0.00875371199954 -0.0805341503958 0.946 2.0002487407e-38
0.0105044543995 -0.0805341503958 0.946 2.06474994849e-38
0.0122551967994 -0.0805341503958 0.946 2.06475022875e-38
0.0140059391993 -0.0805341503958 0.946 2.00932495085e-38
0.0157566815992 -0.0805341503958 0.946 2.04623879578e-38
0.017451903627 -0.0802787566842 0.943 2.06467792175e-38
0.0191970939897 -0.0802787566842 0.943 2.00021300759e-38
0.0209422843524 -0.0802787566842 0.943 1.95415092577e-38
0.0226874747151 -0.0802787566842 0.943 2.10169994692e-38
0.0244326650778 -0.0802787566842 0.943 2.00953991004e-38
0.0260945748824 -0.0800233629726 0.94 2.06485728795e-38
0.0278342132079 -0.0800233629726 0.94 1.98191751471e-38
0.029510928445 -0.0798531004982 0.938 2.0095763438e-38
0.0312468654123 -0.0798531004982 0.938 2.00950473744e-38
0.0329828023797 -0.0798531004982 0.938 1.95415176655e-38
0.034718739347 -0.0798531004982 0.938 1.98184604849e-38
0.0364546763144 -0.0798531004982 0.938 1.93567634694e-38
0.0380684684631 -0.0795977067866 0.935 2.04631082252e-38
0.0397988533933 -0.0795977067866 0.935 1.89883354785e-38
0.0415292383234 -0.0795977067866 0.935 2.0462032028e-38
0.0432596232536 -0.0795977067866 0.935 1.95400785319e-38
0.0448937728721 -0.0794274443121 0.933 1.96322769644e-38
0.0464705514394 -0.0791720506005 0.93 2.00017825539e-38
0.0481916829742 -0.0791720506005 0.93 2.02783694434e-38
0.049912814509 -0.0791720506005 0.93 2.00950473744e-38
0.0515229052996 -0.0790017881261 0.928 1.96340650212e-38
0.0532403354763 -0.0790017881261 0.928 1.98188066056e-38
0.0547801004623 -0.0787463944145 0.925 2.00943257057e-38
0.0564919786017 -0.0787463944145 0.925 1.91723722097e-38
0.0582038567412 -0.0787463944145 0.925 2.00021300759e-38
0.0599157348806 -0.0787463944145 0.925 1.99102889745e-38
0.061494364127 -0.0785761319401 0.923 2.03712643212e-38
0.0629971155316 -0.0783207382285 0.92 1.98180933447e-38
0.0645590886664 -0.0781504757541 0.918 1.97258977148e-38
0.0662580120524 -0.0781504757541 0.918 2.02790742966e-38
0.0679569354383 -0.0781504757541 0.918 1.9633350359e-38
0.0696558588243 -0.0781504757541 0.918 1.91723722097e-38
0.0713547822102 -0.0781504757541 0.918 1.9264565037e-38
0.0728149679962 -0.0778950820425 0.915 1.97248215176e-38
0.074508339345 -0.0778950820425 0.915 2.05545821863e-38
0.0760351495774 -0.077724819568 0.913 1.9539712793e-38
0.077724819568 -0.077724819568 0.913 2.08304544137e-38
0.0789795799773 -0.077299163382 0.908 1.92627727762e-38
0.0806599965725 -0.077299163382 0.908 1.91720008656e-38
0.082159046619 -0.0771289009076 0.906 1.92656328264e-38
0.0833730920887 -0.0767032447216 0.901 1.99117239042e-38
0.0847574000328 -0.07644785101 0.898 1.92674306923e-38
0.0864193098374 -0.07644785101 0.898 1.87142597157e-38
0.0880812196419 -0.07644785101 0.898 1.84365938263e-38
-0.0334232639983 -0.0752023439961 0.903 2.35048381381e-38
-0.0317521007983 -0.0752023439961 0.903 2.0370188124e-38
-0.0300809375984 -0.0752023439961 0.903 1.99128113118e-38
-0.0285041590311 -0.0754521856705 0.906 1.90852142478e-38
-0.026827443794 -0.0754521856705 0.906 1.92674475079e-38
-0.0251507285568 -0.0754521856705 0.906 1.94511170989e-38
-0.0234740133197 -0.0754521856705 0.906 1.97277039885e-38
-0.0218454157384 -0.0756187467868 0.908 1.97266249887e-38
-0.020320456185 -0.0762017106937 0.915 2.04641900276e-38
-0.0187288721851 -0.0766181134844 0.92 1.92656468394e-38
-0.017026247441 -0.0766181134844 0.92 2.05560255238e-38
-0.0153735910318 -0.0768679551588 0.923 1.87121129265e-38
-0.0136950251156 -0.0770345162751 0.925 1.96337160979e-38
-0.0120220112366 -0.0772843579495 0.928 2.00946942472e-38
-0.0103045810599 -0.0772843579495 0.928 2.00946914446e-38
-0.00858715088327 -0.0772843579495 0.928 2.00950445719e-38
-0.00688452613918 -0.0774509190657 0.93 1.94496737615e-38
-0.00518005071601 -0.0777007607401 0.933 1.99106533121e-38
-0.00345336714401 -0.0777007607401 0.933 1.9726264855e-38
-0.00173038493014 -0.0778673218564 0.935 2.00946914446e-38
0.0 -0.0781171635308 0.938 1.95418693914e-38
0.00173593696735 -0.0781171635308 0.938 1.98188122108e-38
0.00347927665098 -0.0782837246471 0.94 1.99110078406e-38
0.0052355710881 -0.0785335663215 0.943 2.01875947302e-38
0.0069807614508 -0.0785335663215 0.943 1.98188122108e-38
0.00875371199954 -0.0787834079959 0.946 2.02797903601e-38
0.0105044543995 -0.0787834079959 0.946 1.95415092577e-38
0.0122551967994 -0.0787834079959 0.946 1.98180961473e-38
0.0140059391993 -0.0787834079959 0.946 1.89869019502e-38
0.0157566815992 -0.0787834079959 0.946 2.03701923279e-38
0.017451903627 -0.0785335663215 0.943 2.06467792175e-38
0.0191970939897 -0.0785335663215 0.943 1.97255431863e-38
0.0209422843524 -0.0785335663215 0.943 1.85273573292e-38
0.0226874747151 -0.0785335663215 0.943 2.00950431706e-38
0.0244326650778 -0.0785335663215 0.943 1.94500296913e-38
0.0261778554405 -0.0785335663215 0.943 1.94500296913e-38
0.0278342132079 -0.0782837246471 0.94 2.00035678081e-38
0.0295738515333 -0.0782837246471 0.94 2.00032118783e-38
0.0312468654123 -0.0781171635308 0.938 2.00028517446e-38
0.0329828023797 -0.0781171635308 0.938 1.9080895446e-38
0.034718739347 -0.0781171635308 0.938 2.01872430043e-38
0.0364546763144 -0.0781171635308 0.938 2.03709125953e-38
0.0381906132817 -0.0781171635308 0.938 1.91723694071e-38
0.0397988533933 -0.0778673218564 0.935 1.98180961473e-38
0.0415292383234 -0.0778673218564 0.935 2.02779924942e-38
0.0432596232536 -0.0778673218564 0.935 1.95404316591e-38
0.0448937728721 -0.0777007607401 0.933 2.02776463734e-38
0.0464705514394 -0.0774509190657 0.93 2.00017839552e-38
0.0481916829742 -0.0774509190657 0.93 1.98173926954e-38
0.049912814509 -0.0774509190657 0.93 1.99103029875e-38
0.0515229052996 -0.0772843579495 0.928 1.8989051542e-38
0.0532403354763 -0.0772843579495 0.928 1.99113595666e-38
0.0547801004623 -0.0770345162751 0.925 2.05556583836e-38
0.0564919786017 -0.0770345162751 0.925 1.95415092577e-38
0.0582038567412 -0.0770345162751 0.925 2.00024846044e-38
0.0599157348806 -0.0770345162751 0.925 1.95415064551e-38
0.061494364127 -0.0768679551588 0.923 2.00024818018e-38
0.0629971155316 -0.0766181134844 0.92 1.97258949122e-38
0.0646997402757 -0.0766181134844 0.92 1.95415064551e-38
0.0662580120524 -0.0764515523681 0.918 1.97258977148e-38
0.0679569354383 -0.0764515523681 0.918 1.91712932099e-38
0.0696558588243 -0.0764515523681 0.918 2.02776407682e-38
0.0713547822102 -0.0764515523681 0.918 2.05542276578e-38
0.0728149679962 -0.0762017106937 0.915 2.00932495085e-38
0.074508339345 -0.0762017106937 0.915 1.99088582488e-38
0.0762017106937 -0.0762017106937 0.915 1.93556844696e-38
0.077724819568 -0.0760351495774 0.913 1.96322741618e-38
0.0791535438098 -0.075785307903 0.91 1.88025162956e-38
0.0808376617632 -0.075785307903 0.91 2.00017587318e-38
0.0823404131678 -0.0756187467868 0.908 1.96340510083e-38
0.0835581599956 -0.0752023439961 0.903 1.95432959132e-38
0.0850405539305 -0.0750357828798 0.901 1.82532787638e-38
0.0867080157722 -0.0750357828798 0.901 1.91752378651e-38
0.0888659075675 -0.0754521856705 0.906 2.00039223366e-38
0.0902428127953 -0.0752023439961 0.903 1.92656384316e-38
0.0919139759952 -0.0752023439961 0.903 1.9724818715e-38
-0.0350166986772 -0.073368321038 0.901 2.34108418397e-38
-0.0333492368355 -0.073368321038 0.901 2.15669264398e-38
-0.0317521007983 -0.0735311807962 0.903 2.04634627537e-38
-0.0300809375984 -0.0735311807962 0.903 1.99135371844e-38
-0.0285041590311 -0.0737754704334 0.906 1.83498156163e-38
-0.026827443794 -0.0737754704334 0.906 1.97291459246e-38
-0.0251507285568 -0.0737754704334 0.906 1.88986621859e-38
-0.0235258323337 -0.0739383301915 0.908 2.02808777677e-38
-0.0218454157384 -0.0739383301915 0.908 2.02808777677e-38
-0.0203870806315 -0.0747526289822 0.918 2.03730733976e-38
-0.0187288721851 -0.0749154887403 0.92 1.96344293588e-38
-0.017026247441 -0.0749154887403 0.92 2.07407769172e-38
-0.0153735910318 -0.0751597783775 0.923 1.89890599498e-38
-0.0136950251156 -0.0753226381356 0.925 2.04641956328e-38
-0.0120220112366 -0.0755669277728 0.928 1.95422393342e-38
-0.0103045810599 -0.0755669277728 0.928 1.96344321614e-38
-0.00858715088327 -0.0755669277728 0.928 1.96347852886e-38
-0.00688452613918 -0.0757297875309 0.93 2.01879576665e-38
-0.00518005071601 -0.0759740771681 0.933 2.01879590678e-38
-0.00346076986028 -0.0761369369263 0.935 2.04641900276e-38
-0.00173038493014 -0.0761369369263 0.935 2.02798015705e-38
0.0 -0.0763812265635 0.938 1.95418707927e-38
0.00173593696735 -0.0763812265635 0.938 2.04634655563e-38
0.00347927665098 -0.0765440863216 0.94 2.00028475407e-38
0.00521891497647 -0.0765440863216 0.94 2.02794344303e-38
0.0069807614508 -0.0767883759588 0.943 2.046382569e-38
0.0087259518135 -0.0767883759588 0.943 1.9818456281e-38
0.0105044543995 -0.077032665596 0.946 1.98188122108e-38
0.0122551967994 -0.077032665596 0.946 2.05563772497e-38
0.0140059391993 -0.077032665596 0.946 1.9632627289e-38
0.0157566815992 -0.077032665596 0.946 2.09233661071e-38
0.0175074239991 -0.077032665596 0.946 2.01858010682e-38
0.0191970939897 -0.0767883759588 0.943 2.02787169655e-38
0.0209422843524 -0.0767883759588 0.943 2.04634655563e-38
0.0226874747151 -0.0767883759588 0.943 2.00950431706e-38
0.0244326650778 -0.0767883759588 0.943 1.9634420951e-38
0.0261778554405 -0.0767883759588 0.943 1.95422253212e-38
0.0278342132079 -0.0765440863216 0.94 1.88046686901e-38
0.0295738515333 -0.0765440863216 0.94 2.01876059406e-38
0.0313134898588 -0.0765440863216 0.94 1.95418735953e-38
0.0329828023797 -0.0763812265635 0.938 1.96340664225e-38
0.034718739347 -0.0763812265635 0.938 1.96340664225e-38
0.0364546763144 -0.0763812265635 0.938 1.90805311084e-38
0.0381906132817 -0.0763812265635 0.938 2.02790742966e-38
0.0397988533933 -0.0761369369263 0.935 1.93571179979e-38
0.0415292383234 -0.0761369369263 0.935 1.95404274553e-38
0.0432596232536 -0.0761369369263 0.935 2.03701909266e-38
0.0448937728721 -0.0759740771681 0.933 2.00010566813e-38
0.0464705514394 -0.0757297875309 0.93 1.97251956643e-38
0.0481916829742 -0.0757297875309 0.93 2.03705650733e-38
0.049912814509 -0.0757297875309 0.93 1.9818104555e-38
0.0515229052996 -0.0755669277728 0.928 1.97262606511e-38
0.0532403354763 -0.0755669277728 0.928 1.99110022354e-38
0.054957765653 -0.0755669277728 0.928 2.0555655581e-38
0.0566751958296 -0.0755669277728 0.928 1.95415036525e-38
0.0582038567412 -0.0753226381356 0.925 1.94493108252e-38
0.0599157348806 -0.0753226381356 0.925 2.08322452732e-38
0.061494364127 -0.0751597783775 0.923 1.95415064551e-38
0.0632025409083 -0.0751597783775 0.923 2.00946802343e-38
0.0646997402757 -0.0749154887403 0.92 2.05556583836e-38
0.0662580120524 -0.0747526289822 0.918 1.98180933447e-38
0.0679569354383 -0.0747526289822 0.918 1.99092127773e-38
0.0696558588243 -0.0747526289822 0.918 2.04623879578e-38
0.0713547822102 -0.0747526289822 0.918 1.98170185487e-38
0.0730537055962 -0.0747526289822 0.918 1.98166626189e-38
0.0747526289822 -0.0747526289822 0.918 2.00010566813e-38
0.0762017106937 -0.074508339345 0.915 2.02776435708e-38
0.0778950820425 -0.074508339345 0.915 2.02776435708e-38
0.0794144895587 -0.0743454795868 0.913 2.00932523111e-38
0.0808376617632 -0.0741011899496 0.91 2.05549353136e-38
0.0823404131678 -0.0739383301915 0.908 1.9541858181e-38
0.0838357618561 -0.0737754704334 0.906 1.92656328264e-38
0.0852293231956 -0.0735311807962 0.903 1.88975719757e-38
0.0869004863955 -0.0735311807962 0.903 1.99117267067e-38
0.0888659075675 -0.0737754704334 0.906 1.99106519108e-38
0.0902428127953 -0.0735311807962 0.903 1.93571179979e-38
0.0917104012975 -0.073368321038 0.901 1.98170185487e-38
0.0933778631393 -0.073368321038 0.901 2.00006713242e-38
-0.0364805858214 -0.0713029631963 0.896 2.20289976019e-38
-0.0348223773749 -0.0713029631963 0.896 2.13829037216e-38
-0.0332381960913 -0.0714621215963 0.898 2.07386105098e-38
-0.0316817749937 -0.0717008591963 0.901 1.9818456281e-38
-0.0300809375984 -0.0718600175963 0.903 2.06511022233e-38
-0.0285041590311 -0.0720987551962 0.906 1.94543653088e-38
-0.026827443794 -0.0720987551962 0.906 2.00057356168e-38
-0.0252062489289 -0.0722579135962 0.908 1.9912816917e-38
-0.0235258323337 -0.0722579135962 0.908 2.03737950663e-38
-0.0218454157384 -0.0722579135962 0.908 1.95433155314e-38
-0.020320456185 -0.0728149679962 0.915 1.97277067911e-38
-0.0187288721851 -0.0732128639962 0.92 2.04641928302e-38
-0.017026247441 -0.0732128639962 0.92 2.00032146809e-38
-0.0153735910318 -0.0734516015962 0.923 1.9911019051e-38
-0.0136950251156 -0.0736107599962 0.925 2.03720000029e-38
-0.0120220112366 -0.0738494975962 0.928 2.00954131133e-38
-0.0103045810599 -0.0738494975962 0.928 2.01876059406e-38
-0.00860565767397 -0.0740086559961 0.93 1.98191765484e-38
-0.00688452613918 -0.0740086559961 0.93 1.99113707769e-38
-0.00518005071601 -0.0742473935961 0.933 1.93581983991e-38
-0.00346076986028 -0.0744065519961 0.935 1.94500380991e-38
-0.00173593696735 -0.0746452895961 0.938 2.01876059406e-38
0.0 -0.0746452895961 0.938 2.00943257057e-38
0.00173593696735 -0.0746452895961 0.938 1.96333475564e-38
0.00347927665098 -0.0748044479961 0.94 2.00021328785e-38
0.00521891497647 -0.0748044479961 0.94 2.07404167835e-38
0.0069807614508 -0.0750431855961 0.943 1.92652867057e-38
0.0087259518135 -0.0750431855961 0.943 2.07404139809e-38
0.0105044543995 -0.0752819231961 0.946 2.04645445561e-38
0.0122551967994 -0.0752819231961 0.946 2.02805092262e-38
0.0140059391993 -0.0752819231961 0.946 2.00021300759e-38
0.0157566815992 -0.0752819231961 0.946 2.03701923279e-38
0.0175074239991 -0.0752819231961 0.946 2.00936054383e-38
0.0191970939897 -0.0750431855961 0.943 2.05553038551e-38
0.0209422843524 -0.0750431855961 0.943 1.93571179979e-38
0.0226874747151 -0.0750431855961 0.943 1.99106519108e-38
0.0244326650778 -0.0750431855961 0.943 1.91734428017e-38
0.0261778554405 -0.0750431855961 0.943 1.95422253212e-38
0.0278342132079 -0.0748044479961 0.94 2.06485840899e-38
0.0295738515333 -0.0748044479961 0.94 1.99110218536e-38
0.0313134898588 -0.0748044479961 0.94 1.95418735953e-38
0.0329828023797 -0.0746452895961 0.938 2.02794358316e-38
0.034718739347 -0.0746452895961 0.938 2.046382569e-38
0.0364546763144 -0.0746452895961 0.938 1.97258977148e-38
0.0381906132817 -0.0746452895961 0.938 2.01868786667e-38
0.0397988533933 -0.0744065519961 0.935 1.90805311084e-38
0.0415292383234 -0.0744065519961 0.935 2.00014084072e-38
0.0432596232536 -0.0744065519961 0.935 2.0093604037e-38
0.0448937728721 -0.0742473935961 0.933 2.00014098085e-38
0.0466204564441 -0.0742473935961 0.933 1.9633350359e-38
0.0483471400161 -0.0742473935961 0.933 2.01865241382e-38
0.049912814509 -0.0740086559961 0.93 1.92652839031e-38
0.0516339460438 -0.0740086559961 0.93 1.91730868719e-38
0.0532403354763 -0.0738494975962 0.928 1.8989051542e-38
0.054957765653 -0.0738494975962 0.928 2.01868730615e-38
0.0566751958296 -0.0738494975962 0.928 2.00024818018e-38
0.0583926260063 -0.0738494975962 0.928 2.00946802343e-38
0.0599157348806 -0.0736107599962 0.925 2.01868786667e-38
0.06162761302 -0.0736107599962 0.925 2.01865213356e-38
0.0632025409083 -0.0734516015962 0.923 1.98177388162e-38
0.0646997402757 -0.0732128639962 0.92 1.95415092577e-38
0.0664023650198 -0.0732128639962 0.92 1.97259005174e-38
0.0679569354383 -0.0730537055962 0.918 2.00939571642e-38
0.0696558588243 -0.0730537055962 0.918 2.00010426683e-38
0.0713547822102 -0.0730537055962 0.918 1.97241026515e-38
0.0730537055962 -0.0730537055962 0.918 2.01858010682e-38
0.0747526289822 -0.0730537055962 0.918 2.00932495085e-38
0.0762017106937 -0.0728149679962 0.915 2.00021328785e-38
0.0778950820425 -0.0728149679962 0.915 2.00021328785e-38
0.0795884533912 -0.0728149679962 0.915 1.98177416187e-38
0.0811041595493 -0.0726558095962 0.913 1.9724818715e-38
0.0823404131678 -0.0722579135962 0.908 1.97251746448e-38
0.0840208297631 -0.0722579135962 0.908 1.98188122108e-38
0.0855124770932 -0.0720987551962 0.906 1.92663572977e-38
0.0871891923303 -0.0720987551962 0.906 1.92660013679e-38
0.0885716495954 -0.0718600175963 0.903 1.95418707927e-38
0.0900429394558 -0.0717008591963 0.901 1.96333475564e-38
0.0917104012975 -0.0717008591963 0.901 1.9539712793e-38
0.0930669490556 -0.0714621215963 0.898 2.05534891735e-38
0.0947288588602 -0.0714621215963 0.898 2.04616494735e-38
0.0963907686647 -0.0714621215963 0.898 1.94485835513e-38
-0.0397081701189 -0.069489297708 0.894 1.29956307478e-38
-0.0380536630306 -0.069489297708 0.894 1.92645706422e-38
-0.0363991559423 -0.069489297708 0.894 2.17538526485e-38
-0.0348223773749 -0.0696447547499 0.896 2.01865241382e-38
-0.0332381960913 -0.0698002117917 0.898 2.02794386342e-38
-0.0316817749937 -0.0700333973545 0.901 1.96344293588e-38
-0.0300809375984 -0.0701888543963 0.903 2.05574702625e-38
-0.0285041590311 -0.0704220399591 0.906 1.97291487272e-38
-0.026827443794 -0.0704220399591 0.906 2.05589121986e-38
-0.0252062489289 -0.070577497001 0.908 2.03745209389e-38
-0.0235258323337 -0.070577497001 0.908 1.98202681599e-38
-0.0218454157384 -0.070577497001 0.908 1.96358769002e-38
-0.020320456185 -0.0711215966475 0.915 1.95429624042e-38
-0.0187288721851 -0.0715102392521 0.92 2.01883318132e-38
-0.017026247441 -0.0715102392521 0.92 1.91741798847e-38
-0.0153735910318 -0.0717434248149 0.923 2.10170134822e-38
-0.0136950251156 -0.0718988818567 0.925 1.98195492938e-38
-0.0120220112366 -0.0721320674195 0.928 1.9543318334e-38
-0.0103045810599 -0.0721320674195 0.928 1.96355111613e-38
-0.00860565767397 -0.0722875244614 0.93 2.00046468079e-38
-0.00690673428801 -0.0725207100241 0.933 2.01890366663e-38
-0.00518005071601 -0.0725207100241 0.933 1.99124511781e-38
-0.00346076986028 -0.072676167066 0.935 2.00042908781e-38
-0.00173593696735 -0.0729093526288 0.938 2.00042936807e-38
0.0 -0.0729093526288 0.938 2.04631138304e-38
0.00173963832549 -0.0730648096706 0.94 2.10152086097e-38
0.00347927665098 -0.0730648096706 0.94 1.99095841214e-38
0.00521891497647 -0.0730648096706 0.94 1.98173884915e-38
0.0069807614508 -0.0732979952334 0.943 2.0279085507e-38
0.0087259518135 -0.0732979952334 0.943 1.93578452718e-38
0.0105044543995 -0.0735311807962 0.946 1.94503940289e-38
0.0122551967994 -0.0735311807962 0.946 1.99117267067e-38
0.0139615229016 -0.0732979952334 0.943 2.10162820044e-38
0.0157067132643 -0.0732979952334 0.943 2.06467792175e-38
0.0175074239991 -0.0735311807962 0.946 2.01858010682e-38
0.0191970939897 -0.0732979952334 0.943 1.9909934446e-38
0.0209422843524 -0.0732979952334 0.943 2.0002487407e-38
0.0226874747151 -0.0732979952334 0.943 1.94496737615e-38
0.0244326650778 -0.0732979952334 0.943 2.037198599e-38
0.0261778554405 -0.0732979952334 0.943 2.06485728795e-38
0.0278342132079 -0.0730648096706 0.94 1.88968699251e-38
0.0295738515333 -0.0730648096706 0.94 2.00032174835e-38
0.0313134898588 -0.0730648096706 0.94 1.96337132953e-38
0.0330531281843 -0.0730648096706 0.94 2.00950445719e-38
0.0347927665098 -0.0730648096706 0.94 2.037198599e-38
0.0364546763144 -0.0729093526288 0.938 1.97258977148e-38
0.0381906132817 -0.0729093526288 0.938 2.01868786667e-38
0.0399265502491 -0.0729093526288 0.938 2.0002487407e-38
0.0416624872164 -0.0729093526288 0.938 1.97244669891e-38
0.0432596232536 -0.072676167066 0.935 1.98170185487e-38
0.0448937728721 -0.0725207100241 0.933 2.00014056046e-38
0.0466204564441 -0.0725207100241 0.933 1.97258949122e-38
0.0483471400161 -0.0725207100241 0.933 2.02794246212e-38
0.049912814509 -0.0722875244614 0.93 2.02797903601e-38
0.0516339460438 -0.0722875244614 0.93 2.08326096108e-38
0.0532403354763 -0.0721320674195 0.928 2.01868870745e-38
0.054957765653 -0.0721320674195 0.928 1.98180933447e-38
0.0566751958296 -0.0721320674195 0.928 1.99102861719e-38
0.0583926260063 -0.0721320674195 0.928 1.94493136278e-38
0.0599157348806 -0.0718988818567 0.925 1.9633350359e-38
0.06162761302 -0.0718988818567 0.925 1.98177444213e-38
0.0632025409083 -0.0717434248149 0.923 2.02787225707e-38
0.0646997402757 -0.0715102392521 0.92 2.00943285083e-38
0.0664023650198 -0.0715102392521 0.92 2.02787169655e-38
0.0681049897639 -0.0715102392521 0.92 2.06467666058e-38
0.0696558588243 -0.0713547822102 0.918 2.07389622357e-38
0.0713547822102 -0.0713547822102 0.918 2.00010426683e-38
0.0730537055962 -0.0713547822102 0.918 1.96326258877e-38
0.0747526289822 -0.0713547822102 0.918 2.00014098085e-38
0.0762017106937 -0.0711215966475 0.915 1.9909934446e-38
0.0778950820425 -0.0711215966475 0.915 2.04631082252e-38
0.0795884533912 -0.0711215966475 0.915 2.03716300601e-38
0.0811041595493 -0.0709661396056 0.913 1.99088582488e-38
0.0825217797166 -0.0707329540428 0.91 1.96322713592e-38
0.0840208297631 -0.070577497001 0.908 1.98177416187e-38
0.0855124770932 -0.0704220399591 0.906 1.98184604849e-38
0.0871891923303 -0.0704220399591 0.906 1.9080895446e-38
0.0885716495954 -0.0701888543963 0.903 2.02787197681e-38
0.0900429394558 -0.0700333973545 0.901 1.9632627289e-38
0.0917104012975 -0.0700333973545 0.901 1.97241040528e-38
0.0930669490556 -0.0698002117917 0.898 2.12910584163e-38
0.0947288588602 -0.0698002117917 0.898 1.96326146773e-38
0.0963907686647 -0.0698002117917 0.898 2.00946774317e-38
0.0980526784693 -0.0698002117917 0.898 1.96340650212e-38
0.0997145882739 -0.0698002117917 0.898 1.94503926276e-38
-0.0412238762769 -0.0676071570942 0.891 1.49349731717e-38
-0.0395749212258 -0.0676071570942 0.891 1.86184753605e-38
-0.0380536630306 -0.0678347906197 0.894 2.30435096641e-38
-0.0363991559423 -0.0678347906197 0.894 2.04634739641e-38
-0.0348223773749 -0.0679865463034 0.896 2.12946793716e-38
-0.0332381960913 -0.0681383019871 0.898 2.03734419391e-38
-0.0316817749937 -0.0683659355127 0.901 2.01890506793e-38
-0.0300809375984 -0.0685176911964 0.903 1.94511227041e-38
-0.0284097743985 -0.0685176911964 0.903 2.03712783342e-38
-0.026827443794 -0.068745324722 0.906 1.98202681599e-38
-0.0252062489289 -0.0688970804057 0.908 2.00053810883e-38
-0.0235776513476 -0.0690488360894 0.91 1.89905088924e-38
-0.0219657098779 -0.069276469615 0.913 1.98202695612e-38
-0.0203870806315 -0.0696558588243 0.918 2.03727244742e-38
-0.0187288721851 -0.069807614508 0.92 1.98195506951e-38
-0.0170817678131 -0.0700352480336 0.923 2.02805288444e-38
-0.0153735910318 -0.0700352480336 0.923 1.97273550652e-38
-0.0136950251156 -0.0701870037173 0.925 1.95429624042e-38
-0.0120220112366 -0.0704146372428 0.928 1.9543318334e-38
-0.0103045810599 -0.0704146372428 0.928 1.94511199015e-38
-0.00860565767397 -0.0705663929266 0.93 1.97280599183e-38
-0.00690673428801 -0.0707940264521 0.933 1.98202541469e-38
-0.00519115479043 -0.0709457821358 0.935 1.98202555482e-38
-0.00346076986028 -0.0709457821358 0.935 2.00042908781e-38
-0.00173593696735 -0.0711734156614 0.938 1.97277067911e-38
0.0 -0.0713251713451 0.94 1.95408016019e-38
0.00173963832549 -0.0713251713451 0.94 2.01850948138e-38
0.0034903807254 -0.0715528048707 0.943 2.00017839552e-38
0.0052355710881 -0.0715528048707 0.943 2.05549577343e-38
0.0069807614508 -0.0715528048707 0.943 1.97255571993e-38
0.0087259518135 -0.0715528048707 0.943 2.07407825224e-38
0.0105044543995 -0.0717804383963 0.946 1.91734512095e-38
0.0122551967994 -0.0717804383963 0.946 2.02812322962e-38
0.0139615229016 -0.0715528048707 0.943 2.04631082252e-38
0.0157067132643 -0.0715528048707 0.943 2.02779966981e-38
0.0175074239991 -0.0717804383963 0.946 2.00936054383e-38
0.0191970939897 -0.0715528048707 0.943 2.06474994849e-38
0.0209422843524 -0.0715528048707 0.943 2.05556611862e-38
0.0226874747151 -0.0715528048707 0.943 1.95418693914e-38
0.0244326650778 -0.0715528048707 0.943 2.00953991004e-38
0.0261778554405 -0.0715528048707 0.943 1.97266165809e-38
0.0278342132079 -0.0713251713451 0.94 1.98184702939e-38
0.0295738515333 -0.0713251713451 0.94 2.02794484433e-38
0.0313134898588 -0.0713251713451 0.94 1.94493220356e-38
0.0330531281843 -0.0713251713451 0.94 1.95418707927e-38
0.0347927665098 -0.0713251713451 0.94 2.00953991004e-38
0.0364546763144 -0.0711734156614 0.938 2.04634627537e-38
0.0381906132817 -0.0711734156614 0.938 2.11088349653e-38
0.0399265502491 -0.0711734156614 0.938 2.04634655563e-38
0.0416624872164 -0.0711734156614 0.938 1.98166682241e-38
0.0432596232536 -0.0709457821358 0.935 2.06464260903e-38
0.0449900081837 -0.0709457821358 0.935 2.03705440538e-38
0.0466204564441 -0.0707940264521 0.933 1.96340510083e-38
0.0483471400161 -0.0707940264521 0.933 2.04641676068e-38
0.0500738235881 -0.0707940264521 0.933 2.03719803848e-38
0.0516339460438 -0.0705663929266 0.93 1.99106561147e-38
0.0533550775786 -0.0705663929266 0.93 2.02787309785e-38
0.054957765653 -0.0704146372428 0.928 2.0002487407e-38
0.0566751958296 -0.0704146372428 0.928 2.06478540134e-38
0.0583926260063 -0.0704146372428 0.928 1.96333475564e-38
0.0601100561829 -0.0704146372428 0.928 2.073970072e-38
0.06162761302 -0.0701870037173 0.925 2.00017797513e-38
0.0633394911595 -0.0701870037173 0.925 2.00939753811e-38
0.0649107176896 -0.0700352480336 0.923 1.94489619019e-38
0.0664023650198 -0.069807614508 0.92 2.02787197681e-38
0.0681049897639 -0.069807614508 0.92 1.92638293553e-38
0.069807614508 -0.069807614508 0.92 2.07382363631e-38
0.0713547822102 -0.0696558588243 0.918 2.00010398657e-38
0.0730537055962 -0.0696558588243 0.918 2.07389706435e-38
0.0747526289822 -0.0696558588243 0.918 1.99092127773e-38
0.0764515523681 -0.0696558588243 0.918 1.94493136278e-38
0.0781504757541 -0.0696558588243 0.918 1.9818456281e-38
0.0795884533912 -0.0694282252987 0.915 1.95422253212e-38
0.08128182474 -0.0694282252987 0.915 2.00932551137e-38
0.0825217797166 -0.0690488360894 0.91 1.99085079242e-38
0.0840208297631 -0.0688970804057 0.908 2.00017825539e-38
0.0857012463583 -0.0688970804057 0.908 1.98181073576e-38
0.0871891923303 -0.068745324722 0.906 1.96337132953e-38
0.0888659075675 -0.068745324722 0.906 2.04631110278e-38
0.0902428127953 -0.0685176911964 0.903 2.06464232877e-38
0.0917104012975 -0.0683659355127 0.901 2.02772778319e-38
0.0930669490556 -0.0681383019871 0.898 1.99088470384e-38
0.0947288588602 -0.0681383019871 0.898 2.04627396837e-38
0.0963907686647 -0.0681383019871 0.898 1.98180933447e-38
0.0980526784693 -0.0681383019871 0.898 1.95425882575e-38
0.0994925067855 -0.0679865463034 0.896 2.20318702638e-38
0.101150715232 -0.0679865463034 0.896 2.32300505157e-38
-0.0427765960164 -0.0658101477175 0.889 2.03719831874e-38
-0.0411313423234 -0.0658101477175 0.889 1.68689149915e-38
-0.0395749212258 -0.0659582020431 0.891 2.18474804054e-38
-0.0380536630306 -0.0661802835314 0.894 2.02801546977e-38
-0.0363991559423 -0.0661802835314 0.894 1.91745302093e-38
-0.034744648854 -0.0661802835314 0.894 2.0096486508e-38
-0.0331641689285 -0.066328337857 0.896 1.96355083587e-38
-0.0315762862867 -0.0664763921826 0.898 2.00042908781e-38
-0.0300143131519 -0.0666984736709 0.901 1.94511170989e-38
-0.0284097743985 -0.0668465279965 0.903 2.03723503276e-38
-0.026827443794 -0.0670686094849 0.906 1.9819902421e-38
-0.0252062489289 -0.0672166638105 0.908 2.07418587196e-38
-0.0235776513476 -0.067364718136 0.91 1.96355083587e-38
-0.0219657098779 -0.0675867996244 0.913 1.99113707769e-38
-0.0203870806315 -0.0679569354383 0.918 1.97269795172e-38
-0.0187288721851 -0.0681049897639 0.92 1.95425896588e-38
-0.0170817678131 -0.0683270712523 0.923 2.00032118783e-38
-0.0153735910318 -0.0683270712523 0.923 1.9911019051e-38
-0.0136950251156 -0.0684751255778 0.925 2.15716334014e-38
-0.0120220112366 -0.0686972070662 0.928 1.93589354821e-38
-0.0103045810599 -0.0686972070662 0.928 1.99117463249e-38
-0.00860565767397 -0.0688452613918 0.93 2.07407825224e-38
-0.00690673428801 -0.0690673428801 0.933 2.03712783342e-38
-0.00519115479043 -0.0692153972057 0.935 1.9634434964e-38
-0.00346076986028 -0.0692153972057 0.935 2.00039405535e-38
-0.00173593696735 -0.0694374786941 0.938 1.94514870417e-38
0.0 -0.0695855330196 0.94 2.04659850909e-38
0.00173963832549 -0.0695855330196 0.94 1.93581983991e-38
0.00347927665098 -0.0695855330196 0.94 2.06471491603e-38
0.0052355710881 -0.069807614508 0.943 2.0553162671e-38
0.0069807614508 -0.069807614508 0.943 1.95390107425e-38
0.0087259518135 -0.069807614508 0.943 2.05538773332e-38
0.0105044543995 -0.0700296959964 0.946 1.9726264855e-38
0.0122163325389 -0.069807614508 0.943 2.00975571e-38
0.0139615229016 -0.069807614508 0.943 1.86202634174e-38
0.0157067132643 -0.069807614508 0.943 2.10166337303e-38
0.0175074239991 -0.0700296959964 0.946 2.04634655563e-38
0.019258166399 -0.0700296959964 0.946 2.0648218351e-38
0.0209422843524 -0.069807614508 0.943 1.88043085564e-38
0.0226874747151 -0.069807614508 0.943 2.06482169497e-38
0.0244326650778 -0.069807614508 0.943 1.93578312589e-38
0.0261778554405 -0.069807614508 0.943 1.99113595666e-38
0.0279230458032 -0.069807614508 0.943 1.99113721782e-38
0.0296682361659 -0.069807614508 0.943 1.97266249887e-38
0.0314134265286 -0.069807614508 0.943 1.97262620524e-38
0.0330531281843 -0.0695855330196 0.94 1.96340650212e-38
0.0347927665098 -0.0695855330196 0.94 2.00028475407e-38
0.0364546763144 -0.0694374786941 0.938 1.95415092577e-38
0.0381906132817 -0.0694374786941 0.938 2.02790742966e-38
0.0399265502491 -0.0694374786941 0.938 1.91727267382e-38
0.0416624872164 -0.0694374786941 0.938 1.91723750123e-38
0.0432596232536 -0.0692153972057 0.935 2.0186171011e-38
0.0449900081837 -0.0692153972057 0.935 1.99099400512e-38
0.0467203931138 -0.0692153972057 0.935 2.02794358316e-38
0.048450778044 -0.0692153972057 0.935 1.84358777628e-38
0.0500738235881 -0.0690673428801 0.933 2.00032006679e-38
0.0518005071601 -0.0690673428801 0.933 2.0187589125e-38
0.0533550775786 -0.0688452613918 0.93 2.06485672744e-38
0.0550762091134 -0.0688452613918 0.93 1.92649223681e-38
0.0566751958296 -0.0686972070662 0.928 2.04631082252e-38
0.0583926260063 -0.0686972070662 0.928 2.05553038551e-38
0.0601100561829 -0.0686972070662 0.928 1.95411519266e-38
0.0618274863596 -0.0686972070662 0.928 1.90801737772e-38
0.0633394911595 -0.0684751255778 0.925 2.01868786667e-38
0.0649107176896 -0.0683270712523 0.923 1.98180961473e-38
0.0664023650198 -0.0681049897639 0.92 1.91727239356e-38
0.0681049897639 -0.0681049897639 0.92 2.00939571642e-38
0.069807614508 -0.0681049897639 0.92 2.04627396837e-38
0.0713547822102 -0.0679569354383 0.918 2.12921444227e-38
0.0730537055962 -0.0679569354383 0.918 2.05556611862e-38
0.0747526289822 -0.0679569354383 0.918 2.00021300759e-38
0.0764515523681 -0.0679569354383 0.918 2.00943257057e-38
0.0781504757541 -0.0679569354383 0.918 2.00021300759e-38
0.0795884533912 -0.06773485395 0.915 2.0002487407e-38
0.0811041595493 -0.0675867996244 0.913 2.05545835876e-38
0.0825217797166 -0.067364718136 0.91 2.04623879578e-38
0.0840208297631 -0.0672166638105 0.908 1.99092141786e-38
0.0857012463583 -0.0672166638105 0.908 2.01858010682e-38
0.0873816629536 -0.0672166638105 0.908 1.95404316591e-38
0.0888659075675 -0.0670686094849 0.906 2.04623879578e-38
0.0902428127953 -0.0668465279965 0.903 1.98170185487e-38
0.0917104012975 -0.0666984736709 0.901 2.01857996669e-38
0.0930669490556 -0.0664763921826 0.898 2.0091810375e-38
0.0947288588602 -0.0664763921826 0.898 2.00918075724e-38
0.0963907686647 -0.0664763921826 0.898 2.01854367306e-38
0.0980526784693 -0.0664763921826 0.898 2.07393237707e-38
0.0994925067855 -0.066328337857 0.896 2.15701634393e-38
0.101150715232 -0.066328337857 0.896 2.35073548701e-38
-0.0443219130396 -0.0640205410571 0.887 2.27676276277e-38
-0.0426803607048 -0.0640205410571 0.887 1.08754703751e-38
-0.04103880837 -0.0640205410571 0.887 2.35062814755e-38
-0.0394860886305 -0.0641648940246 0.889 2.08340515469e-38
-0.0379259661748 -0.064309246992 0.891 2.06496602872e-38
-0.0363991559423 -0.0645257764432 0.894 1.96355083587e-38
-0.034744648854 -0.0645257764432 0.894 2.08340515469e-38
-0.0331641689285 -0.0646701294106 0.896 2.03730733976e-38
-0.0315762862867 -0.064814482378 0.898 2.06496602872e-38
-0.0300143131519 -0.0650310118292 0.901 2.03730733976e-38
-0.0284097743985 -0.0651753647966 0.903 2.00042908781e-38
-0.0268866655242 -0.0655362472152 0.908 1.94500409017e-38
-0.025261769301 -0.0656806001826 0.91 2.00954075082e-38
-0.0235776513476 -0.0656806001826 0.91 1.95425896588e-38
-0.0219657098779 -0.0658971296338 0.913 2.0556740186e-38
-0.0203870806315 -0.0662580120524 0.918 2.0556740186e-38
-0.0187288721851 -0.0664023650198 0.92 2.00957620367e-38
-0.0170817678131 -0.0666188944709 0.923 2.11095594367e-38
-0.015406903255 -0.0667632474384 0.925 1.9911019051e-38
-0.0136950251156 -0.0667632474384 0.925 2.01890520806e-38
-0.0120220112366 -0.0669797768895 0.928 2.00046608209e-38
-0.0103045810599 -0.0669797768895 0.928 1.97266305939e-38
-0.00860565767397 -0.067124129857 0.93 2.00028517446e-38
-0.00690673428801 -0.0673406593081 0.933 1.99106533121e-38
-0.00519115479043 -0.0674850122756 0.935 1.94500380991e-38
-0.00346076986028 -0.0674850122756 0.935 2.05574674599e-38
-0.00173593696735 -0.0677015417267 0.938 1.93603662078e-38
0.0 -0.0678458946941 0.94 2.10191588701e-38
0.00173963832549 -0.0678458946941 0.94 1.9267081769e-38
0.00347927665098 -0.0678458946941 0.94 2.00939753811e-38
0.00521891497647 -0.0678458946941 0.94 2.11978076087e-38
0.0069807614508 -0.0680624241453 0.943 2.04602425698e-38
0.0087259518135 -0.0680624241453 0.943 2.09222969164e-38
0.0105044543995 -0.0682789535964 0.946 2.00028517446e-38
0.0122163325389 -0.0680624241453 0.943 2.09273205714e-38
0.0139615229016 -0.0680624241453 0.943 2.0373056582e-38
0.0157067132643 -0.0680624241453 0.943 1.97269683068e-38
0.0175074239991 -0.0682789535964 0.946 1.95422253212e-38
0.019258166399 -0.0682789535964 0.946 1.96340692251e-38
0.0209422843524 -0.0680624241453 0.943 2.01872430043e-38
0.0226874747151 -0.0680624241453 0.943 2.04638270913e-38
0.0244326650778 -0.0680624241453 0.943 1.91734399991e-38
0.0261778554405 -0.0680624241453 0.943 1.9911356764e-38
0.0279230458032 -0.0680624241453 0.943 2.02805092262e-38
0.0296682361659 -0.0680624241453 0.943 1.95425882575e-38
0.0314134265286 -0.0680624241453 0.943 1.97262606511e-38
0.0330531281843 -0.0678458946941 0.94 2.03716300601e-38
0.0347927665098 -0.0678458946941 0.94 1.92652839031e-38
0.0364546763144 -0.0677015417267 0.938 2.09240863745e-38
0.0381906132817 -0.0677015417267 0.938 2.01865213356e-38
0.0399265502491 -0.0677015417267 0.938 1.97255431863e-38
0.0416624872164 -0.0677015417267 0.938 1.96340692251e-38
0.0432596232536 -0.0674850122756 0.935 2.02794386342e-38
0.0449900081837 -0.0674850122756 0.935 1.99106561147e-38
0.0467203931138 -0.0674850122756 0.935 2.01872430043e-38
0.048450778044 -0.0674850122756 0.935 2.09248052406e-38
0.0501811629741 -0.0674850122756 0.935 2.00032034705e-38
0.0518005071601 -0.0673406593081 0.933 2.00035551964e-38
0.0535271907321 -0.0673406593081 0.933 2.00957480237e-38
0.0552538743041 -0.0673406593081 0.933 2.0002487407e-38
0.0567973406482 -0.067124129857 0.93 1.95411519266e-38
0.058518472183 -0.067124129857 0.93 1.98177388162e-38
0.0601100561829 -0.0669797768895 0.928 2.10166393355e-38
0.0618274863596 -0.0669797768895 0.928 2.03712671238e-38
0.0635449165362 -0.0669797768895 0.928 2.06478540134e-38
0.0650513692989 -0.0667632474384 0.925 2.00024818018e-38
0.0666188944709 -0.0666188944709 0.923 2.00946774317e-38
0.0683270712523 -0.0666188944709 0.923 1.99102917771e-38
0.069807614508 -0.0664023650198 0.92 2.06474994849e-38
0.0713547822102 -0.0662580120524 0.918 1.89879781474e-38
0.0730537055962 -0.0662580120524 0.918 2.04634655563e-38
0.0747526289822 -0.0662580120524 0.918 2.01868786667e-38
0.0764515523681 -0.0662580120524 0.918 1.98180961473e-38
0.0781504757541 -0.0662580120524 0.918 2.04634655563e-38
0.0795884533912 -0.0660414826012 0.915 2.05556611862e-38
0.0811041595493 -0.0658971296338 0.913 1.97248215176e-38
0.0825217797166 -0.0656806001826 0.91 2.01857996669e-38
0.0840208297631 -0.0655362472152 0.908 2.07389734461e-38
0.0857012463583 -0.0655362472152 0.908 2.03701909266e-38
0.0873816629536 -0.0655362472152 0.908 2.04623865565e-38
0.0888659075675 -0.0653918942478 0.906 2.02779952968e-38
0.0902428127953 -0.0651753647966 0.903 2.06467778162e-38
0.0917104012975 -0.0650310118292 0.901 2.02779952968e-38
0.0930669490556 -0.064814482378 0.898 2.09215710438e-38
0.0947288588602 -0.064814482378 0.898 2.0091810375e-38
0.0963907686647 -0.064814482378 0.898 2.06464148799e-38
0.0980526784693 -0.064814482378 0.898 2.12003005187e-38
0.0994925067855 -0.0646701294106 0.896 2.27687066275e-38
0.101150715232 -0.0646701294106 0.896 2.16627220054e-38
-0.0458598273464 -0.062238337113 0.885 2.35088024114e-38
-0.0442219763698 -0.062238337113 0.885 7.09437055092e-39
-0.0426803607048 -0.0623789887223 0.887 2.35087968062e-38
-0.04103880837 -0.0623789887223 0.887 1.98191765484e-38
-0.0394860886305 -0.0625196403316 0.889 1.9819902421e-38
-0.0379259661748 -0.0626602919409 0.891 1.98199052236e-38
-0.0362770111237 -0.0626602919409 0.891 2.02808833729e-38
-0.034744648854 -0.0628712693549 0.894 2.02808833729e-38
-0.0331641689285 -0.0630119209642 0.896 1.96355139638e-38
-0.0315762862867 -0.0631525725735 0.898 2.04652746326e-38
-0.0300143131519 -0.0633635499874 0.901 1.98199052236e-38
-0.0284097743985 -0.0635042015967 0.903 2.03730790028e-38
-0.0268866655242 -0.0638558306199 0.908 2.00954131133e-38
-0.025261769301 -0.0639964822292 0.91 2.08329753497e-38
-0.0236553798685 -0.0642074596432 0.913 2.03719943977e-38
-0.0220138275337 -0.0643481112525 0.915 2.04641900276e-38
-0.0203870806315 -0.0645590886664 0.918 2.04641900276e-38
-0.0187288721851 -0.0646997402757 0.92 1.98188206186e-38
-0.0170817678131 -0.0649107176896 0.923 1.95422365316e-38
-0.015406903255 -0.0650513692989 0.925 1.98188262238e-38
-0.0136950251156 -0.0650513692989 0.925 2.0558186326e-38
-0.0120220112366 -0.0652623467129 0.928 2.00042908781e-38
-0.0103267892088 -0.0654029983222 0.93 2.02801546977e-38
-0.00863341786002 -0.0656139757361 0.933 2.09248038393e-38
-0.00692153972057 -0.0657546273454 0.935 2.13861379185e-38
-0.00519115479043 -0.0657546273454 0.935 1.9727335447e-38
-0.00346076986028 -0.0657546273454 0.935 1.98202541469e-38
-0.00173593696735 -0.0659656047594 0.938 1.99128113118e-38
0.0 -0.0661062563686 0.94 1.97280697274e-38
0.00173963832549 -0.0661062563686 0.94 1.98188262238e-38
0.00347927665098 -0.0661062563686 0.94 2.06475050901e-38
0.00521891497647 -0.0661062563686 0.94 2.05538675241e-38
0.0069807614508 -0.0663172337826 0.943 2.03694734618e-38
0.0087259518135 -0.0663172337826 0.943 2.01858010682e-38
0.0105044543995 -0.0665282111965 0.946 1.91730882732e-38
0.0122163325389 -0.0663172337826 0.943 2.00046468079e-38
0.0139615229016 -0.0663172337826 0.943 1.9635134212e-38
0.0157067132643 -0.0663172337826 0.943 2.09251541639e-38
0.0175074239991 -0.0665282111965 0.946 2.037198599e-38
0.019258166399 -0.0665282111965 0.946 2.11091993029e-38
0.0210089087989 -0.0665282111965 0.946 2.01872430043e-38
0.0226874747151 -0.0663172337826 0.943 1.98184576823e-38
0.0244326650778 -0.0663172337826 0.943 2.00953962978e-38
0.0261778554405 -0.0663172337826 0.943 2.00957508263e-38
0.0279230458032 -0.0663172337826 0.943 1.90819632354e-38
0.0296682361659 -0.0663172337826 0.943 2.03727048561e-38
0.0314134265286 -0.0663172337826 0.943 2.01875947302e-38
0.0330531281843 -0.0661062563686 0.94 2.07404125796e-38
0.0347927665098 -0.0661062563686 0.94 2.03716314614e-38
0.0364546763144 -0.0659656047594 0.938 2.00943285083e-38
0.0381906132817 -0.0659656047594 0.938 1.94489590993e-38
0.0399265502491 -0.0659656047594 0.938 1.98177416187e-38
0.0416624872164 -0.0659656047594 0.938 1.90805255032e-38
0.0432596232536 -0.0657546273454 0.935 2.00939571642e-38
0.0449900081837 -0.0657546273454 0.935 2.04623837539e-38
0.0467203931138 -0.0657546273454 0.935 2.06467778162e-38
0.048450778044 -0.0657546273454 0.935 2.04623865565e-38
0.0501811629741 -0.0657546273454 0.935 2.00014056046e-38
0.0518005071601 -0.0656139757361 0.933 2.07393237707e-38
0.0535271907321 -0.0656139757361 0.933 2.06471267395e-38
0.0552538743041 -0.0656139757361 0.933 2.04634627537e-38
0.0567973406482 -0.0654029983222 0.93 2.02790742966e-38
0.058518472183 -0.0654029983222 0.93 2.08322480758e-38
0.0601100561829 -0.0652623467129 0.928 1.93571179979e-38
0.0618274863596 -0.0652623467129 0.928 1.93571151953e-38
0.0635449165362 -0.0652623467129 0.928 2.01868758641e-38
0.0650513692989 -0.0650513692989 0.925 2.00946774317e-38
0.0667632474384 -0.0650513692989 0.925 2.00946774317e-38
0.0683270712523 -0.0649107176896 0.923 1.9909934446e-38
0.069807614508 -0.0646997402757 0.92 1.98177416187e-38
0.0715102392521 -0.0646997402757 0.92 1.97255459889e-38
0.0730537055962 -0.0645590886664 0.918 2.03709125953e-38
0.0747526289822 -0.0645590886664 0.918 1.99102917771e-38
0.0764515523681 -0.0645590886664 0.918 1.96337020849e-38
0.0778950820425 -0.0643481112525 0.915 2.04634627537e-38
0.0795884533912 -0.0643481112525 0.915 2.00946802343e-38
0.08128182474 -0.0643481112525 0.915 2.0093604037e-38
0.0827938295399 -0.0642074596432 0.913 2.0093604037e-38
0.0840208297631 -0.0638558306199 0.908 2.01857996669e-38
0.0857012463583 -0.0638558306199 0.908 2.01857996669e-38
0.0873816629536 -0.0638558306199 0.908 2.05545821863e-38
0.0888659075675 -0.0637151790106 0.906 1.95404302579e-38
0.0902428127953 -0.0635042015967 0.903 2.0093604037e-38
0.0917104012975 -0.0633635499874 0.901 2.04623865565e-38
0.0930669490556 -0.0631525725735 0.898 2.12917926967e-38
0.0947288588602 -0.0631525725735 0.898 2.02779966981e-38
0.0963907686647 -0.0631525725735 0.898 2.06478540134e-38
0.0980526784693 -0.0631525725735 0.898 2.20307856588e-38
0.0994925067855 -0.0630119209642 0.896 2.29534608235e-38
0.101150715232 -0.0630119209642 0.896 2.76333955217e-39
-0.0474976783231 -0.0606004861364 0.885 2.35095268827e-38
-0.0458598273464 -0.0606004861364 0.885 2.02790742966e-38
-0.0442219763698 -0.0606004861364 0.885 1.87103038502e-38
-0.0426803607048 -0.0607374363875 0.887 2.21219050914e-38
-0.04103880837 -0.0607374363875 0.887 2.08329753497e-38
-0.0394860886305 -0.0608743866387 0.889 2.0188687743e-38
-0.0379259661748 -0.0610113368898 0.891 2.00961361834e-38
-0.0362770111237 -0.0610113368898 0.891 2.07415055924e-38
-0.034744648854 -0.0612167622666 0.894 2.09258968521e-38
-0.0331641689285 -0.0613537125177 0.896 2.07415055924e-38
-0.0315762862867 -0.0614906627689 0.898 2.03727230729e-38
-0.0300143131519 -0.0616960881456 0.901 2.03727230729e-38
-0.0284097743985 -0.0618330383968 0.903 2.1018092482e-38
-0.026827443794 -0.0620384637735 0.906 2.01876087432e-38
-0.025261769301 -0.0623123642758 0.91 2.05563912627e-38
-0.0236553798685 -0.0625177896526 0.913 2.02798043731e-38
-0.0220138275337 -0.0626547399037 0.915 2.02798015705e-38
-0.0203870806315 -0.0628601652804 0.918 2.00032146809e-38
-0.0187288721851 -0.0629971155316 0.92 2.05563884601e-38
-0.0170817678131 -0.0632025409083 0.923 2.07407825224e-38
-0.015406903255 -0.0633394911595 0.925 1.99110218536e-38
-0.0136950251156 -0.0633394911595 0.925 2.04641928302e-38
-0.0120220112366 -0.0635449165362 0.928 1.97266249887e-38
-0.0103267892088 -0.0636818667874 0.93 2.01879590678e-38
-0.00863341786002 -0.0638872921641 0.933 2.02794344303e-38
-0.00692153972057 -0.0640242424153 0.935 2.046382569e-38
-0.00519115479043 -0.0640242424153 0.935 1.98191751471e-38
-0.00346076986028 -0.0640242424153 0.935 1.96347838873e-38
-0.00173593696735 -0.064229667792 0.938 2.00035664068e-38
0.0 -0.064229667792 0.938 1.97273550652e-38
0.00173963832549 -0.0643666180432 0.94 2.01872528134e-38
0.00347927665098 -0.0643666180432 0.94 2.06475022875e-38
0.00521891497647 -0.0643666180432 0.94 2.05549353136e-38
0.0069807614508 -0.0645720434199 0.943 2.07393237707e-38
0.0087259518135 -0.0645720434199 0.943 2.06478512108e-38
0.0105044543995 -0.0647774687966 0.946 2.00028475407e-38
0.0122551967994 -0.0647774687966 0.946 2.02808777677e-38
0.0140059391993 -0.0647774687966 0.946 2.09258758326e-38
0.0157566815992 -0.0647774687966 0.946 1.9911005038e-38
0.0175074239991 -0.0647774687966 0.946 2.00950431706e-38
0.019258166399 -0.0647774687966 0.946 1.97262620524e-38
0.0210089087989 -0.0647774687966 0.946 2.07404139809e-38
0.0226874747151 -0.0645720434199 0.943 1.95418693914e-38
0.0244326650778 -0.0645720434199 0.943 2.08329641393e-38
0.0261778554405 -0.0645720434199 0.943 2.0187589125e-38
0.0279230458032 -0.0645720434199 0.943 1.99117239042e-38
0.0296682361659 -0.0645720434199 0.943 2.01883107937e-38
0.0313134898588 -0.0643666180432 0.94 2.037198599e-38
0.0330531281843 -0.0643666180432 0.94 1.93574781316e-38
0.0347927665098 -0.0643666180432 0.94 2.0002848942e-38
0.0364546763144 -0.064229667792 0.938 2.07396979174e-38
0.0381906132817 -0.064229667792 0.938 1.91723750123e-38
0.0399265502491 -0.064229667792 0.938 2.00021356811e-38
0.0416624872164 -0.064229667792 0.938 2.01861485902e-38
0.0432596232536 -0.0640242424153 0.935 2.00013943942e-38
0.0449900081837 -0.0640242424153 0.935 1.98170059371e-38
0.0467203931138 -0.0640242424153 0.935 1.99088470384e-38
0.048450778044 -0.0640242424153 0.935 2.1291784289e-38
0.0501811629741 -0.0640242424153 0.935 1.9908849841e-38
0.0518005071601 -0.0638872921641 0.933 2.14761755487e-38
0.0535271907321 -0.0638872921641 0.933 2.07386077072e-38
0.0552538743041 -0.0638872921641 0.933 2.04634627537e-38
0.0567973406482 -0.0636818667874 0.93 1.96337020849e-38
0.058518472183 -0.0636818667874 0.93 2.08322452732e-38
0.0601100561829 -0.0635449165362 0.928 2.00946802343e-38
0.0618274863596 -0.0635449165362 0.928 2.01868758641e-38
0.0635449165362 -0.0635449165362 0.928 2.01868758641e-38
0.0650513692989 -0.0633394911595 0.925 1.96337020849e-38
