# .PCD v0.7 - Point Cloud Data file format
VERSION 0.7
FIELDS x y z rgb
SIZE 4 4 4 4
TYPE F F F F
COUNT 1 1 1 1
WIDTH 836
HEIGHT 1
VIEWPOINT 0 0 0 1 0 0 0
POINTS 836
DATA ascii
0.0877406946931 -0.0382868485934 0.862 1.62920004137e-38
-0.0460485966116 -0.0365213007609 0.858 2.35091625451e-38
-0.0444607139698 -0.0365213007609 0.858 2.20275542645e-38
-0.0427728946582 -0.0364361695237 0.856 1.5751411696e-38
-0.0411887133746 -0.0364361695237 0.856 1.76817619878e-38
-0.0395119981375 -0.0363510382865 0.854 1.62012355096e-38
-0.037798269319 -0.0362233414307 0.851 1.74008338755e-38
-0.0362233414307 -0.0362233414307 0.851 1.68437280529e-38
-0.0346484135424 -0.0362233414307 0.851 1.73004014133e-38
-0.0354830698028 -0.038862409784 0.913 8.63686665111e-39
-0.0337933998122 -0.038862409784 0.913 1.12258916808e-38
-0.0321037298216 -0.038862409784 0.913 2.35012536166e-38
-0.030414059831 -0.038862409784 0.913 2.10134177503e-38
-0.0287243898404 -0.038862409784 0.913 2.07425635727e-38
-0.0270347198498 -0.038862409784 0.913 2.06500148157e-38
-0.0253450498591 -0.038862409784 0.913 2.08329753497e-38
-0.0237071988825 -0.0389475410212 0.915 2.12010446082e-38
-0.0220138275337 -0.0389475410212 0.915 2.0555669594e-38
0.0510787423229 -0.0391603691142 0.92 2.0555669594e-38
0.0526666249647 -0.039075237877 0.918 2.10173638068e-38
0.0543655483507 -0.039075237877 0.918 1.96347838873e-38
0.0558812545087 -0.0389475410212 0.915 2.03727048561e-38
0.0575746258575 -0.0389475410212 0.915 2.14783335483e-38
0.0591384496713 -0.038862409784 0.913 2.0647856816e-38
0.0606282463224 -0.0387347129282 0.91 2.12010305952e-38
0.0621754140247 -0.038649581691 0.908 2.13843442564e-38
0.0638558306199 -0.038649581691 0.908 2.11077573668e-38
0.0653918942478 -0.0385644504538 0.906 2.13836281929e-38
0.0670686094849 -0.0385644504538 0.906 2.14761755487e-38
0.068745324722 -0.0385644504538 0.906 2.22158985872e-38
0.0701888543963 -0.038436753598 0.903 2.14804915479e-38
0.0718600175963 -0.038436753598 0.903 2.11095510289e-38
0.073368321038 -0.0383516223608 0.901 2.28565960672e-38
0.0747859412054 -0.038223925505 0.898 2.19335607687e-38
0.0761073260612 -0.0380536630306 0.894 2.14779776185e-38
0.0773269235681 -0.0378408349376 0.889 2.11153089643e-38
0.078972177261 -0.0378408349376 0.889 2.35070003416e-38
0.0804360644051 -0.0377557037004 0.887 2.35077262142e-38
0.0795791999959 -0.0366064319981 0.86 1.80591877161e-38
0.0811707839958 -0.0366064319981 0.86 5.32718324847e-39
0.0827623679957 -0.0366064319981 0.86 1.11239780461e-38
0.084550123977 -0.0366915632353 0.862 1.84031097995e-38
0.086145409335 -0.0366915632353 0.862 1.83163259843e-38
0.0877406946931 -0.0366915632353 0.862 1.52821644845e-38
-0.0460485966116 -0.0349334181191 0.858 2.3233295923e-38
-0.0444607139698 -0.0349334181191 0.858 2.35088024114e-38
-0.042872831328 -0.0349334181191 0.858 1.88896630471e-38
-0.0411887133746 -0.03485198824 0.856 1.64846607357e-38
-0.039604532091 -0.03485198824 0.856 1.69395222172e-38
-0.037798269319 -0.0346484135424 0.851 1.65728696714e-38
-0.0362233414307 -0.0346484135424 0.851 1.5372551038e-38
-0.0346484135424 -0.0346484135424 0.851 1.49991148064e-38
-0.0330734856541 -0.0346484135424 0.851 1.74844213289e-38
-0.0337933998122 -0.0371727397934 0.913 1.04771737074e-38
-0.0321037298216 -0.0371727397934 0.913 7.62487272224e-39
-0.030414059831 -0.0371727397934 0.913 2.35052094822e-38
-0.0287243898404 -0.0371727397934 0.913 2.24002870444e-38
-0.0270347198498 -0.0371727397934 0.913 1.97305780517e-38
-0.0253450498591 -0.0371727397934 0.913 2.0558909396e-38
-0.0237071988825 -0.0372541696725 0.915 2.16616654264e-38
-0.0220138275337 -0.0372541696725 0.915 2.14754706956e-38
0.0509677015787 -0.0373763144911 0.918 2.0279085507e-38
0.0526666249647 -0.0373763144911 0.918 2.20307996718e-38
0.05418788316 -0.0372541696725 0.915 2.14779790198e-38
0.0558812545087 -0.0372541696725 0.915 2.08326082095e-38
0.0574487796807 -0.0371727397934 0.913 2.03723489263e-38
0.058944128369 -0.0370505949748 0.91 2.12946611547e-38
0.0604949974294 -0.0369691650957 0.908 2.06485728795e-38
0.0621754140247 -0.0369691650957 0.908 2.20315073275e-38
0.0638558306199 -0.0369691650957 0.908 2.16620059419e-38
0.0653918942478 -0.0368877352167 0.906 2.15698103121e-38
0.0670686094849 -0.0368877352167 0.906 2.16634436742e-38
0.068745324722 -0.0368877352167 0.906 2.13861379185e-38
0.0701888543963 -0.0367655903981 0.903 2.16620087445e-38
0.0717008591963 -0.036684160519 0.901 2.17524079098e-38
0.073368321038 -0.036684160519 0.901 2.11070413033e-38
0.0747859412054 -0.0365620157004 0.898 2.19378879784e-38
0.0762775885356 -0.0364805858214 0.896 2.20329632766e-38
0.077935796982 -0.0364805858214 0.896 2.32343791267e-38
0.0795940054284 -0.0364805858214 0.896 2.28483171959e-38
0.0779876159959 -0.0350148479982 0.86 7.53844483686e-39
0.0795791999959 -0.0350148479982 0.86 8.09125848233e-39
0.0811707839958 -0.0350148479982 0.86 1.51845570399e-38
0.0827623679957 -0.0350148479982 0.86 1.75747980734e-38
0.084550123977 -0.0350962778772 0.862 1.57298064763e-38
0.086145409335 -0.0350962778772 0.862 1.68430049828e-38
0.0877406946931 -0.0350962778772 0.862 1.76810571346e-38
-0.0445643519977 -0.0334232639983 0.86 2.33258460813e-38
-0.0429727679978 -0.0334232639983 0.86 2.35030416734e-38
-0.0412849486862 -0.0333455354773 0.858 1.72251068442e-38
-0.039604532091 -0.0332678069564 0.856 1.74955756647e-38
-0.037931518212 -0.0331900784355 0.854 1.53757656167e-38
-0.0362233414307 -0.0330734856541 0.851 1.50044845821e-38
-0.0346484135424 -0.0330734856541 0.851 1.5921071105e-38
-0.0330734856541 -0.0330734856541 0.851 1.62851634785e-38
0.05418788316 -0.0355607983237 0.915 2.15694557836e-38
0.0558812545087 -0.0355607983237 0.915 2.09248038393e-38
0.0574487796807 -0.0354830698028 0.913 2.0556740186e-38
0.058944128369 -0.0353664770214 0.91 2.10187945325e-38
0.0604949974294 -0.0352887485005 0.908 2.13879329818e-38
0.0621754140247 -0.0352887485005 0.908 2.10180714625e-38
0.0638558306199 -0.0352887485005 0.908 2.16627192028e-38
0.0653918942478 -0.0352110199796 0.906 2.17549148327e-38
0.0670686094849 -0.0352110199796 0.906 2.23077382873e-38
0.068745324722 -0.0352110199796 0.906 2.20297136655e-38
0.0701888543963 -0.0350944271982 0.903 2.2396698319e-38
0.0717008591963 -0.0350166986772 0.901 2.21233484288e-38
0.073368321038 -0.0350166986772 0.901 2.25882824437e-38
0.0747859412054 -0.0349001058959 0.898 2.35095212775e-38
0.07644785101 -0.0349001058959 0.898 2.34987284768e-38
0.0740216107496 -0.0330734856541 0.851 1.2333346265e-38
0.0755965386379 -0.0330734856541 0.851 7.53052329664e-39
0.0771714665262 -0.0330734856541 0.851 1.33370473095e-38
0.0795791999959 -0.0334232639983 0.86 1.73014593936e-38
0.0811707839958 -0.0334232639983 0.86 1.61014756706e-38
0.0827623679957 -0.0334232639983 0.86 1.78513947721e-38
0.084550123977 -0.0335009925192 0.862 1.70245165742e-38
0.086145409335 -0.0335009925192 0.862 1.23311854627e-38
0.0877406946931 -0.0335009925192 0.862 2.34969460251e-38
-0.0429727679978 -0.0318316799983 0.86 2.35088024114e-38
-0.0413811839978 -0.0318316799983 0.86 2.14704246198e-38
-0.0396970660444 -0.0317576528356 0.858 1.61173201523e-38
-0.037931518212 -0.03160959851 0.854 1.72214872903e-38
-0.0362233414307 -0.0314985577658 0.851 1.74001290224e-38
-0.0345669836633 -0.031424530603 0.849 1.62880445481e-38
-0.0329957571332 -0.031424530603 0.849 1.58256244627e-38
-0.031424530603 -0.031424530603 0.849 1.5460775388e-38
0.0574487796807 -0.0337933998122 0.913 2.15708921145e-38
0.058944128369 -0.033682359068 0.91 2.14797726818e-38
0.0604949974294 -0.0336083319052 0.908 2.16641639416e-38
0.0621754140247 -0.0336083319052 0.908 2.12946583521e-38
0.0638558306199 -0.0336083319052 0.908 2.11095454237e-38
0.0655362472152 -0.0336083319052 0.908 2.21233372185e-38
0.0670686094849 -0.0335343047424 0.906 2.21179562324e-38
0.068745324722 -0.0335343047424 0.906 2.07382587839e-38
0.0701888543963 -0.0334232639983 0.903 2.22180593895e-38
0.0672444239965 -0.0312764762774 0.845 2.258647617e-38
0.0688082478104 -0.0312764762774 0.845 2.35069947364e-38
0.0703720716242 -0.0312764762774 0.845 1.33474757727e-38
0.0724466828613 -0.0314985577658 0.851 7.71418167727e-39
0.0740216107496 -0.0314985577658 0.851 1.11196606455e-38
0.0755965386379 -0.0314985577658 0.851 1.72953399232e-38
0.0771714665262 -0.0314985577658 0.851 1.63748227581e-38
0.0792090641819 -0.0316836256728 0.856 1.70230662303e-38
0.0807932454656 -0.0316836256728 0.856 1.72085392925e-38
0.0825698973724 -0.0317576528356 0.858 1.57362944882e-38
0.0843539519956 -0.0318316799983 0.86 1.46353559419e-38
0.086145409335 -0.0319057071611 0.862 1.98995101867e-38
0.0877406946931 -0.0319057071611 0.862 2.35059395587e-38
-0.0413811839978 -0.0302400959984 0.86 2.35066472144e-38
-0.0396970660444 -0.0301697701938 0.858 1.96272322899e-38
-0.037931518212 -0.0300291185845 0.854 1.74995287277e-38
-0.0362233414307 -0.0299236298775 0.851 1.54643781264e-38
-0.0345669836633 -0.0298533040729 0.849 1.77631522052e-38
-0.0329957571332 -0.0298533040729 0.849 1.59203298181e-38
-0.0313505034402 -0.0297829782682 0.847 1.44523898027e-38
-0.0297829782682 -0.0297829782682 0.847 1.11365617063e-38
0.058944128369 -0.0319982411146 0.91 2.04656249572e-38
0.0604949974294 -0.03192791531 0.908 2.13865008548e-38
0.0621754140247 -0.03192791531 0.908 2.08326082095e-38
0.0638558306199 -0.03192791531 0.908 2.2582523107e-38
0.0655362472152 -0.03192791531 0.908 2.27651165008e-38
0.0670686094849 -0.0318575895053 0.906 2.24888967514e-38
0.063965020685 -0.0296423266589 0.843 2.35052066796e-38
0.0655251431408 -0.0296423266589 0.843 2.35066444118e-38
0.0672444239965 -0.0297126524636 0.845 1.31656068502e-38
0.0688082478104 -0.0297126524636 0.845 9.00707849499e-39
0.0705386327405 -0.0297829782682 0.847 1.08423478833e-38
0.0722764203869 -0.0298533040729 0.849 1.56332724264e-38
0.0738476469171 -0.0298533040729 0.849 1.76619280093e-38
0.0755965386379 -0.0299236298775 0.851 1.60056773024e-38
0.0771714665262 -0.0299236298775 0.851 1.60074821748e-38
0.079023996275 -0.0300291185845 0.854 1.6378056955e-38
0.0807932454656 -0.0300994443891 0.856 1.61979844971e-38
0.0825698973724 -0.0301697701938 0.858 1.39910585262e-38
0.0843539519956 -0.0302400959984 0.86 1.67644930325e-38
0.086145409335 -0.0303104218031 0.862 2.35062968898e-38
-0.0395119981375 -0.028448638659 0.854 2.23070236251e-38
-0.037931518212 -0.028448638659 0.854 1.59351037078e-38
-0.0362233414307 -0.0283487019892 0.851 1.72196922269e-38
-0.0346484135424 -0.0283487019892 0.851 1.54643501004e-38
-0.0329957571332 -0.0282820775427 0.849 1.57388042137e-38
-0.0313505034402 -0.0282154530962 0.847 1.67551365626e-38
-0.0297829782682 -0.0282154530962 0.847 1.29758205914e-38
0.058944128369 -0.0303141231612 0.91 2.13872253261e-38
0.0604949974294 -0.0302474987147 0.908 2.13861463262e-38
0.0621754140247 -0.0302474987147 0.908 2.2490335885e-38
0.0638558306199 -0.0302474987147 0.908 2.18413693428e-38
0.0655362472152 -0.0302474987147 0.908 2.35062954885e-38
0.0622568439037 -0.0280155797567 0.841 2.35030458773e-38
0.0638132650013 -0.0280155797567 0.841 1.27039182425e-38
0.0655251431408 -0.0280822042032 0.843 9.28080253182e-39
0.0672444239965 -0.0281488286497 0.845 1.0656535707e-38
0.0688082478104 -0.0281488286497 0.845 1.42525155962e-38
0.0705386327405 -0.0282154530962 0.847 1.66531906981e-38
0.0722764203869 -0.0282820775427 0.849 1.60070940151e-38
0.0738476469171 -0.0282820775427 0.849 1.6927605575e-38
0.0755965386379 -0.0283487019892 0.851 1.61007582058e-38
0.0774435163495 -0.028448638659 0.854 1.6471342795e-38
0.079023996275 -0.028448638659 0.854 1.69344677336e-38
0.0807932454656 -0.0285152631055 0.856 1.43573088993e-38
0.0825698973724 -0.028581887552 0.858 1.50102467214e-38
-0.0380203508073 -0.0269310818219 0.856 2.07310883396e-38
-0.0362233414307 -0.0267737741009 0.851 1.70399771002e-38
-0.0346484135424 -0.0267737741009 0.851 1.60239810629e-38
-0.0329957571332 -0.0267108510126 0.849 1.68472985613e-38
-0.0313505034402 -0.0266479279242 0.847 1.65642825144e-38
-0.0297126524636 -0.0265850048358 0.845 1.65628377757e-38
-0.0281488286497 -0.0265850048358 0.845 1.35239482948e-38
-0.0265850048358 -0.0265850048358 0.845 1.26055779189e-38
-0.025021181022 -0.0265850048358 0.845 1.44426507784e-38
0.0524149326112 -0.0262074663056 0.833 2.11095594367e-38
0.0539565482763 -0.0262074663056 0.833 2.12017578691e-38
0.0554981639413 -0.0262074663056 0.833 2.34137341197e-38
0.0571767298575 -0.026270389394 0.835 2.35073744883e-38
0.0590033500993 -0.0263962355707 0.839 2.28537290105e-38
0.0607004228061 -0.0264591586591 0.841 1.09572599626e-38
0.0622568439037 -0.0264591586591 0.841 8.63471705926e-39
0.0638132650013 -0.0264591586591 0.841 1.08416458328e-38
0.0655251431408 -0.0265220817475 0.843 1.55443432232e-38
0.0672444239965 -0.0265850048358 0.845 1.56368947829e-38
0.0688082478104 -0.0265850048358 0.845 1.53603050907e-38
0.0705386327405 -0.0266479279242 0.847 1.4901484941e-38
0.0722764203869 -0.0267108510126 0.849 1.45359366184e-38
0.0738476469171 -0.0267108510126 0.849 1.43555012243e-38
0.0755965386379 -0.0267737741009 0.851 1.54607978088e-38
0.0774435163495 -0.0268681587335 0.854 1.56437457311e-38
0.079023996275 -0.0268681587335 0.854 1.61057888673e-38
0.0809820147307 -0.0269940049102 0.858 1.67565532754e-38
0.0825698973724 -0.0269940049102 0.858 1.77775575534e-38
-0.037798269319 -0.0251988462126 0.851 2.35073744883e-38
-0.0362233414307 -0.0251988462126 0.851 1.88893001108e-38
-0.0346484135424 -0.0251988462126 0.851 1.63953139456e-38
-0.0329957571332 -0.0251396244824 0.849 1.74026303402e-38
-0.0313505034402 -0.0250804027522 0.847 1.67511624802e-38
-0.0297126524636 -0.025021181022 0.845 1.53664413767e-38
-0.0281488286497 -0.025021181022 0.845 1.61054427465e-38
-0.0265220817475 -0.0249619592917 0.843 1.44484395423e-38
-0.0249619592917 -0.0249619592917 0.843 1.39809873941e-38
0.0509954617648 -0.0247250723708 0.835 2.12957513649e-38
0.0524149326112 -0.0246658506406 0.833 2.35066303988e-38
0.0539565482763 -0.0246658506406 0.833 2.35041150681e-38
0.0554981639413 -0.0246658506406 0.833 2.11837722033e-38
0.0571767298575 -0.0247250723708 0.835 1.03911017518e-38
0.0590033500993 -0.0248435158313 0.839 8.72760072667e-39
0.0607004228061 -0.0249027375615 0.841 1.2133826587e-38
0.0622568439037 -0.0249027375615 0.841 1.60031773859e-38
0.063965020685 -0.0249619592917 0.843 1.57269436235e-38
0.0656806001826 -0.025021181022 0.845 1.6097519805e-38
0.0672444239965 -0.025021181022 0.845 1.50851601373e-38
0.0689711075685 -0.0250804027522 0.847 1.5363188963e-38
0.0705386327405 -0.0250804027522 0.847 1.5824888781e-38
0.0722764203869 -0.0251396244824 0.849 1.51824018429e-38
0.0738476469171 -0.0251396244824 0.849 1.49076198257e-38
0.0754188734472 -0.0251396244824 0.849 1.6105074205e-38
-0.0362233414307 -0.0236239183244 0.851 2.35030472786e-38
-0.0346484135424 -0.0236239183244 0.851 1.64896843906e-38
-0.0329957571332 -0.0235683979523 0.849 1.58367549764e-38
-0.0313505034402 -0.0235128775802 0.847 1.66614835824e-38
-0.0297126524636 -0.0234573572081 0.845 1.68430049828e-38
-0.0281488286497 -0.0234573572081 0.845 1.61043665493e-38
-0.0265220817475 -0.023401836836 0.843 1.55522689674e-38
-0.0249027375615 -0.0233463164639 0.841 1.50866174877e-38
-0.0233463164639 -0.0233463164639 0.841 1.5363202976e-38
0.0494501447416 -0.0231797553476 0.835 2.3507359074e-38
0.0509954617648 -0.0231797553476 0.835 2.35044920174e-38
0.052540778788 -0.0231797553476 0.835 1.58392759123e-38
0.0540860958111 -0.0231797553476 0.835 7.16640289718e-39
0.0556314128343 -0.0231797553476 0.835 9.37085417503e-39
0.0571767298575 -0.0231797553476 0.835 1.34238437364e-38
0.0590033500993 -0.0232907960918 0.839 1.5634345821e-38
0.0607004228061 -0.0233463164639 0.841 1.63683487592e-38
0.0622568439037 -0.0233463164639 0.841 1.53578079769e-38
0.063965020685 -0.023401836836 0.843 1.44376467416e-38
0.0656806001826 -0.0234573572081 0.845 1.58209329154e-38
0.0674035823965 -0.0235128775802 0.847 1.50840811374e-38
0.0689711075685 -0.0235128775802 0.847 1.56390527825e-38
0.0707051938568 -0.0235683979523 0.849 1.49032926161e-38
0.0722764203869 -0.0235683979523 0.849 1.57344994248e-38
0.0738476469171 -0.0235683979523 0.849 1.61972810453e-38
-0.0361382101935 -0.0219971714221 0.849 2.35070087494e-38
-0.0345669836633 -0.0219971714221 0.849 2.13782191808e-38
-0.0329957571332 -0.0219971714221 0.849 1.74991643901e-38
-0.0313505034402 -0.0219453524082 0.847 1.5095966951e-38
-0.0297126524636 -0.0218935333942 0.845 1.69359236827e-38
-0.0281488286497 -0.0218935333942 0.845 1.58284873154e-38
-0.0265220817475 -0.0218417143803 0.843 1.58288362388e-38
-0.0249027375615 -0.0217898953663 0.841 1.44412326643e-38
-0.0233463164639 -0.0217898953663 0.841 1.53635533006e-38
-0.0217898953663 -0.0217898953663 0.841 1.53649952367e-38
0.0448141936721 -0.0216344383245 0.835 2.35077009908e-38
0.0463595106953 -0.0216344383245 0.835 2.35066374053e-38
0.0479048277184 -0.0216344383245 0.835 1.88864344555e-38
0.0494501447416 -0.0216344383245 0.835 8.82269003786e-39
0.0509954617648 -0.0216344383245 0.835 9.00134157908e-39
0.052540778788 -0.0216344383245 0.835 1.11193173274e-38
0.0540860958111 -0.0216344383245 0.835 1.37915360456e-38
0.0556314128343 -0.0216344383245 0.835 1.44347628693e-38
0.0573136801086 -0.0216862573384 0.837 1.63697991031e-38
0.0590033500993 -0.0217380763524 0.839 1.47099036189e-38
0.0607004228061 -0.0217898953663 0.841 1.5354921302e-38
0.0622568439037 -0.0217898953663 0.841 1.57273065598e-38
0.063965020685 -0.0218417143803 0.843 1.53599561674e-38
0.0656806001826 -0.0218935333942 0.845 1.51755607038e-38
0.0674035823965 -0.0219453524082 0.847 1.56368919803e-38
0.0689711075685 -0.0219453524082 0.847 1.61918636254e-38
0.0708717549731 -0.0220489904361 0.851 1.64702553874e-38
0.0724466828613 -0.0220489904361 0.851 1.58266922521e-38
0.0740216107496 -0.0220489904361 0.851 1.64735063999e-38
-0.0345669836633 -0.020425944892 0.849 2.34086908465e-38
-0.0329957571332 -0.020425944892 0.849 2.07292596451e-38
-0.031424530603 -0.020425944892 0.849 1.74041031048e-38
-0.0297829782682 -0.0203778272361 0.847 1.70309975796e-38
-0.0282154530962 -0.0203778272361 0.847 1.56458869152e-38
-0.0265220817475 -0.0202815919245 0.843 1.60135708166e-38
-0.0249027375615 -0.0202334742687 0.841 1.6101458855e-38
-0.0233463164639 -0.0202334742687 0.841 1.51795137668e-38
-0.0217380763524 -0.0201853566129 0.839 1.51809599068e-38
-0.0201853566129 -0.0201853566129 0.839 1.49047387561e-38
-0.0186326368734 -0.0201853566129 0.839 1.54553986058e-38
-0.0169984872549 -0.0200891213013 0.835 1.51770040412e-38
-0.0154161566504 -0.0200410036455 0.833 1.52681122635e-38
-0.0138745409853 -0.0200410036455 0.833 1.47152902102e-38
0.0417235596257 -0.0200891213013 0.835 2.35073688831e-38
0.0432688766489 -0.0200891213013 0.835 2.25731722424e-38
0.0448141936721 -0.0200891213013 0.835 1.32520515512e-38
0.0463595106953 -0.0200891213013 0.835 9.00241217111e-39
0.0479048277184 -0.0200891213013 0.835 1.01019199917e-38
0.0495685882021 -0.0201372389571 0.837 1.14801642937e-38
0.0511176065834 -0.0201372389571 0.837 1.59963404507e-38
0.0526666249647 -0.0201372389571 0.837 1.50743869547e-38
0.054215643346 -0.0201372389571 0.837 1.66445615021e-38
0.0557646617273 -0.0201372389571 0.837 1.43403938255e-38
0.0573136801086 -0.0201372389571 0.837 1.57237094267e-38
0.0590033500993 -0.0201853566129 0.839 1.52641732135e-38
0.0607004228061 -0.0202334742687 0.841 1.52659542638e-38
0.0622568439037 -0.0202334742687 0.841 1.59120495455e-38
0.0641167763688 -0.0203297095803 0.845 1.59131285453e-38
0.0656806001826 -0.0203297095803 0.845 1.56368947829e-38
0.0675627407965 -0.020425944892 0.849 1.6190781823e-38
0.069541116722 -0.0205462390315 0.854 1.50855160671e-38
0.0712881577637 -0.0205943566873 0.856 1.66553655133e-38
0.0728723390474 -0.0205943566873 0.856 1.57362944882e-38
-0.0345669836633 -0.0188547183618 0.849 2.35037647435e-38
-0.0329957571332 -0.0188547183618 0.849 2.34058153821e-38
-0.031424530603 -0.0188547183618 0.849 1.86069664962e-38
-0.0297829782682 -0.0188103020641 0.847 1.74955728621e-38
-0.0282154530962 -0.0188103020641 0.847 1.58327921043e-38
-0.0265850048358 -0.0187658857665 0.845 1.59228073138e-38
-0.0249027375615 -0.0186770531711 0.841 1.68415350208e-38
-0.0233463164639 -0.0186770531711 0.841 1.52735016574e-38
-0.0217380763524 -0.0186326368734 0.839 1.51809557029e-38
-0.0201853566129 -0.0186326368734 0.839 1.490401989e-38
-0.0185882205758 -0.0185882205758 0.837 1.50884111497e-38
-0.0169984872549 -0.0185438042781 0.835 1.54543097969e-38
-0.0154161566504 -0.0184993879804 0.833 1.67421633415e-38
-0.0138745409853 -0.0184993879804 0.833 1.61871832886e-38
-0.0123329253203 -0.0184993879804 0.833 1.40706368647e-38
0.0336712549936 -0.0183661390874 0.827 2.27726737035e-38
0.0352017665842 -0.0183661390874 0.827 2.35098856151e-38
0.0367322781748 -0.0183661390874 0.827 2.35066570235e-38
0.0382627897654 -0.0183661390874 0.827 2.33118274915e-38
0.0399857719793 -0.0184549716828 0.831 1.49151728244e-38
0.0415236862862 -0.0184549716828 0.831 7.34720403024e-39
0.043165238621 -0.0184993879804 0.833 9.183916756e-39
0.044706854286 -0.0184993879804 0.833 1.20355170919e-38
0.0463595106953 -0.0185438042781 0.835 1.57197535611e-38
0.0480195698208 -0.0185882205758 0.837 1.50729534263e-38
0.0495685882021 -0.0185882205758 0.837 1.5628265587e-38
0.0511176065834 -0.0185882205758 0.837 1.5351695513e-38
0.0526666249647 -0.0185882205758 0.837 1.59974334635e-38
0.054215643346 -0.0185882205758 0.837 1.58158910436e-38
0.0557646617273 -0.0185882205758 0.837 1.36978900719e-38
0.0574506303598 -0.0186326368734 0.839 1.49890114444e-38
0.0591440017085 -0.0186770531711 0.841 1.44369236716e-38
0.0608447757736 -0.0187214694688 0.843 1.49911470233e-38
0.0624048982293 -0.0187214694688 0.843 1.49000458075e-38
0.0641167763688 -0.0187658857665 0.845 1.54528664595e-38
0.0659915142663 -0.0188547183618 0.849 1.51762767673e-38
0.0677218991965 -0.0188991346595 0.851 1.60063905633e-38
0.069541116722 -0.018965759106 0.854 1.71152590576e-38
0.0712881577637 -0.0190101754037 0.856 1.6474211253e-38
-0.0313505034402 -0.0172427768921 0.847 2.3500889279e-38
-0.0297829782682 -0.0172427768921 0.847 1.86987949859e-38
-0.0282154530962 -0.0172427768921 0.847 1.62977331257e-38
-0.0265850048358 -0.0172020619526 0.845 1.49119007925e-38
-0.0249619592917 -0.0171613470131 0.843 1.58317018941e-38
-0.023401836836 -0.0171613470131 0.843 1.53674937518e-38
-0.0217380763524 -0.017079917134 0.839 1.51802326329e-38
-0.0201853566129 -0.017079917134 0.839 1.51795193719e-38
-0.0185882205758 -0.0170392021945 0.837 1.46277861276e-38
-0.0169984872549 -0.0169984872549 0.835 1.5640857655e-38
-0.0154531702318 -0.0169984872549 0.835 1.57294505465e-38
-0.0138745409853 -0.0169577723154 0.833 1.60035136975e-38
-0.0123329253203 -0.0169577723154 0.833 1.44440955171e-38
-0.0107913096553 -0.0169577723154 0.833 1.37976499108e-38
-0.00920527769254 -0.0168763424363 0.829 1.60042311624e-38
-0.00767106474379 -0.0168763424363 0.829 1.59077209345e-38
0.0276158330776 -0.0168763424363 0.829 2.34144417754e-38
0.0291500460264 -0.0168763424363 0.829 2.35062828768e-38
0.0306102318124 -0.0168356274968 0.827 2.35059297496e-38
0.032140743403 -0.0168356274968 0.827 2.35048507498e-38
0.0336712549936 -0.0168356274968 0.827 2.19234840315e-38
0.0352017665842 -0.0168356274968 0.827 1.2425895022e-38
0.0367322781748 -0.0168356274968 0.827 9.4630470023e-39
0.0382627897654 -0.0168356274968 0.827 8.90806134421e-39
0.0398895366677 -0.0168763424363 0.829 1.15767011462e-38
0.0415236862862 -0.0169170573759 0.831 1.36943237673e-38
0.043165238621 -0.0169577723154 0.833 1.51665825845e-38
0.044706854286 -0.0169577723154 0.833 1.58119519936e-38
0.0463595106953 -0.0169984872549 0.835 1.55364384986e-38
0.0480195698208 -0.0170392021945 0.837 1.54453106582e-38
0.0495685882021 -0.0170392021945 0.837 1.4432967806e-38
0.0511176065834 -0.0170392021945 0.837 1.45266081746e-38
0.0526666249647 -0.0170392021945 0.837 1.40670733627e-38
0.0543451908809 -0.017079917134 0.839 1.48057033884e-38
0.0558979106203 -0.017079917134 0.839 1.47156405348e-38
0.057587580611 -0.0171206320735 0.841 1.50840727296e-38
0.0591440017085 -0.0171206320735 0.841 1.39777391843e-38
0.0608447757736 -0.0171613470131 0.843 1.517697041e-38
0.0625529525549 -0.0172020619526 0.845 1.56386898462e-38
0.0642685320525 -0.0172427768921 0.847 1.57308952852e-38
0.066380156871 -0.0173852791805 0.854 1.58227251762e-38
0.0679606367965 -0.0173852791805 0.854 1.56401289798e-38
0.0698668362382 -0.0174667090596 0.858 1.49983595065e-38
0.07145471888 -0.0174667090596 0.858 1.68469552432e-38
-0.0298533040729 -0.0157122653015 0.849 2.26678818017e-38
-0.0282820775427 -0.0157122653015 0.849 1.89750105314e-38
-0.0265850048358 -0.0156382381387 0.845 1.5469404584e-38
-0.0249619592917 -0.0156012245573 0.843 1.59282219311e-38
-0.023401836836 -0.0156012245573 0.843 1.53703720189e-38
-0.0217898953663 -0.0155642109759 0.841 1.5825236303e-38
-0.0201853566129 -0.0155271973945 0.839 1.55464900125e-38
-0.0185882205758 -0.0154901838131 0.837 1.5179866894e-38
-0.0169984872549 -0.0154531702318 0.835 1.43515481613e-38
-0.0154531702318 -0.0154531702318 0.835 1.55482962862e-38
-0.0138745409853 -0.0154161566504 0.833 1.49918883102e-38
-0.0123329253203 -0.0154161566504 0.833 1.48110843745e-38
-0.0107913096553 -0.0154161566504 0.833 1.47181698785e-38
-0.00920527769254 -0.0153421294876 0.829 1.54517776506e-38
-0.00767106474379 -0.0153421294876 0.829 1.58166043045e-38
-0.00612204636247 -0.0153051159062 0.827 1.65534504773e-38
-0.00459153477185 -0.0153051159062 0.827 1.58176833043e-38
0.0260816201289 -0.0153421294876 0.829 2.35069821247e-38
0.0276158330776 -0.0153421294876 0.829 2.35048409407e-38
0.0291500460264 -0.0153421294876 0.829 1.91550941996e-38
0.0306102318124 -0.0153051159062 0.827 1.08488555134e-38
0.032140743403 -0.0153051159062 0.827 9.73494654853e-39
0.0336712549936 -0.0153051159062 0.827 1.09284422597e-38
0.0352017665842 -0.0153051159062 0.827 1.35992288509e-38
0.0367322781748 -0.0153051159062 0.827 1.46987717039e-38
0.0382627897654 -0.0153051159062 0.827 1.66359519244e-38
0.0398895366677 -0.0153421294876 0.829 1.5811921165e-38
0.0415236862862 -0.015379143069 0.831 1.4894991324e-38
0.043165238621 -0.0154161566504 0.833 1.48967975977e-38
0.0448141936721 -0.0154531702318 0.835 1.48031810512e-38
0.0463595106953 -0.0154531702318 0.835 1.40631020828e-38
0.0480195698208 -0.0154901838131 0.837 1.51672846351e-38
0.0495685882021 -0.0154901838131 0.837 1.36017764115e-38
0.0511176065834 -0.0154901838131 0.837 1.49879226355e-38
0.0527924711414 -0.0155271973945 0.839 1.48971717444e-38
0.0543451908809 -0.0155271973945 0.839 1.44365719456e-38
0.0558979106203 -0.0155271973945 0.839 1.33319984311e-38
0.057587580611 -0.0155642109759 0.841 1.48996758647e-38
0.0592846533178 -0.0156012245573 0.843 1.50833650739e-38
0.060989128741 -0.0156382381387 0.845 1.57283603363e-38
0.0625529525549 -0.0156382381387 0.845 1.48092949164e-38
0.0642685320525 -0.0156752517201 0.847 1.49944106474e-38
0.066380156871 -0.015804799255 0.854 1.58248859784e-38
0.0679606367965 -0.015804799255 0.854 1.63794988911e-38
-0.0281488286497 -0.0140744143248 0.845 2.20207117241e-38
-0.0265850048358 -0.0140744143248 0.845 1.7223293564e-38
-0.0249619592917 -0.0140411021016 0.843 1.49165965437e-38
-0.023401836836 -0.0140411021016 0.843 1.62937702536e-38
-0.0218417143803 -0.0140411021016 0.843 1.6194373351e-38
-0.0202815919245 -0.0140411021016 0.843 1.60063793529e-38
-0.0186326368734 -0.0139744776551 0.839 1.59170647927e-38
-0.0170392021945 -0.0139411654318 0.837 1.45370128157e-38
-0.0154531702318 -0.0139078532086 0.835 1.49061666792e-38
-0.0138745409853 -0.0138745409853 0.833 1.49025779538e-38
-0.0123033144552 -0.0138412287621 0.831 1.53581498937e-38
-0.0107654001483 -0.0138412287621 0.831 1.52659514612e-38
-0.00920527769254 -0.0138079165388 0.829 1.49915225713e-38
-0.00767106474379 -0.0138079165388 0.829 1.43468692257e-38
-0.00612204636247 -0.0137746043156 0.827 1.47142112104e-38
-0.00459153477185 -0.0137746043156 0.827 1.51723124939e-38
-0.00306842589751 -0.0138079165388 0.829 1.61828672893e-38
0.0230131942314 -0.0138079165388 0.829 1.9257733707e-38
0.0245474071801 -0.0138079165388 0.829 1.46320881139e-38
0.0260816201289 -0.0138079165388 0.829 9.36938281165e-39
0.0276158330776 -0.0138079165388 0.829 9.91933360436e-39
0.0291500460264 -0.0138079165388 0.829 1.19436886023e-38
0.0306102318124 -0.0137746043156 0.827 1.31400709883e-38
0.032140743403 -0.0137746043156 0.827 1.54438687221e-38
0.0336712549936 -0.0137746043156 0.827 1.5444206435e-38
0.0352017665842 -0.0137746043156 0.827 1.56292997452e-38
0.0368211107702 -0.0138079165388 0.829 1.37900983134e-38
0.0383553237189 -0.0138079165388 0.829 1.52663031871e-38
0.0398895366677 -0.0138079165388 0.829 1.41584940745e-38
0.0415236862862 -0.0138412287621 0.831 1.37886297526e-38
0.043165238621 -0.0138745409853 0.833 1.51690614815e-38
0.0448141936721 -0.0139078532086 0.835 1.46144625818e-38
0.0463595106953 -0.0139078532086 0.835 1.54442246519e-38
0.0480195698208 -0.0139411654318 0.837 1.42471093868e-38
0.0495685882021 -0.0139411654318 0.837 1.61803687741e-38
0.0511176065834 -0.0139411654318 0.837 1.47077119881e-38
0.0527924711414 -0.0139744776551 0.839 1.46176827657e-38
0.0543451908809 -0.0139744776551 0.839 1.48943172994e-38
0.0560311595134 -0.0140077898783 0.841 1.36982754289e-38
0.0577245308621 -0.0140411021016 0.843 1.48982367312e-38
0.0592846533178 -0.0140411021016 0.843 1.50815714119e-38
0.060989128741 -0.0140744143248 0.845 1.53581611041e-38
0.0625529525549 -0.0140744143248 0.845 1.48096634579e-38
-0.0283487019892 -0.0125994231063 0.851 2.3501236801e-38
-0.0267737741009 -0.0125994231063 0.851 2.08246922744e-38
-0.0250804027522 -0.0125402013761 0.847 1.57485152121e-38
-0.0234573572081 -0.012510590511 0.845 1.67579811985e-38
-0.0218935333942 -0.012510590511 0.845 1.51859765553e-38
-0.0203297095803 -0.012510590511 0.845 1.64723965715e-38
-0.0186770531711 -0.0124513687807 0.841 1.4811438903e-38
-0.017079917134 -0.0124217579156 0.839 1.49961930991e-38
-0.0154531702318 -0.0123625361854 0.835 1.4535939421e-38
-0.0138745409853 -0.0123329253203 0.833 1.42589994042e-38
-0.0123033144552 -0.0123033144552 0.831 1.68343617739e-38
-0.0107654001483 -0.0123033144552 0.831 1.41599668392e-38
-0.00920527769254 -0.0122737035901 0.829 1.4807128509e-38
-0.00767106474379 -0.0122737035901 0.829 1.52702590527e-38
-0.00613685179503 -0.0122737035901 0.829 1.43483027541e-38
-0.00460263884627 -0.0122737035901 0.829 1.37929765805e-38
-0.00306102318124 -0.0122440927249 0.827 1.48971717444e-38
-0.00153051159062 -0.0122440927249 0.827 1.60006480422e-38
0.0 -0.0122144818598 0.825 1.5721903153e-38
0.00152681023248 -0.0122144818598 0.825 1.57215486244e-38
0.00305362046496 -0.0122144818598 0.825 1.36943349777e-38
0.00458043069744 -0.0122144818598 0.825 1.15752746243e-38
0.00916086139487 -0.0122144818598 0.825 1.24093204638e-38
0.0106876716274 -0.0122144818598 0.825 1.58216377686e-38
0.0121848709947 -0.0121848709947 0.823 1.62854787706e-38
0.0137079798691 -0.0121848709947 0.823 1.62851270447e-38
0.0152681023248 -0.0122144818598 0.825 1.47174454072e-38
0.0214789812826 -0.0122737035901 0.829 9.82712536281e-39
0.0230131942314 -0.0122737035901 0.829 1.01958952706e-38
0.0245474071801 -0.0122737035901 0.829 1.3230449134e-38
0.0260816201289 -0.0122737035901 0.829 1.43360862341e-38
0.0276158330776 -0.0122737035901 0.829 1.51687293738e-38
0.0291500460264 -0.0122737035901 0.829 1.45248004996e-38
0.0306102318124 -0.0122440927249 0.827 1.53527633024e-38
0.032140743403 -0.0122440927249 0.827 1.53513227676e-38
0.0336712549936 -0.0122440927249 0.827 1.50750862026e-38
0.0352017665842 -0.0122440927249 0.827 1.44311503219e-38
0.0368211107702 -0.0122737035901 0.829 1.41588794316e-38
0.0383553237189 -0.0122737035901 0.829 1.47120504081e-38
0.0399857719793 -0.0123033144552 0.831 1.43418287552e-38
0.0415236862862 -0.0123033144552 0.831 1.47080987465e-38
0.0432688766489 -0.0123625361854 0.835 1.60903199335e-38
0.0448141936721 -0.0123625361854 0.835 1.44304454688e-38
0.0464705514394 -0.0123921470505 0.837 1.5260922201e-38
0.0480195698208 -0.0123921470505 0.837 1.46166261866e-38
0.0496870316625 -0.0124217579156 0.839 1.51716118447e-38
0.051239751402 -0.0124217579156 0.839 1.42503603992e-38
0.0529183173182 -0.0124513687807 0.841 1.47113357459e-38
0.0546042859506 -0.0124809796459 0.843 1.54485532628e-38
0.0561644084064 -0.0124809796459 0.843 1.41585249031e-38
0.0588886079969 -0.0127326719993 0.86 1.36064273211e-38
0.0604801919968 -0.0127326719993 0.86 1.47131434209e-38
0.0620717759968 -0.0127326719993 0.86 1.57287372856e-38
-0.0267737741009 -0.011024495218 0.851 2.31303102949e-38
-0.0250804027522 -0.0109726762041 0.847 2.07281694349e-38
-0.0235128775802 -0.0109726762041 0.847 1.54697731255e-38
-0.0218935333942 -0.0109467666971 0.845 1.49126406781e-38
-0.0203297095803 -0.0109467666971 0.845 1.53696559554e-38
-0.0187214694688 -0.0109208571901 0.843 1.63798492157e-38
-0.017079917134 -0.0108690381762 0.839 1.53646126822e-38
-0.0154901838131 -0.0108431286692 0.837 1.51802186199e-38
-0.0138745409853 -0.0107913096553 0.833 1.47199593367e-38
-0.0123033144552 -0.0107654001483 0.831 1.51762795699e-38
-0.0107654001483 -0.0107654001483 0.831 1.5451427326e-38
-0.00920527769254 -0.0107394906413 0.829 1.46234589179e-38
-0.00767106474379 -0.0107394906413 0.829 1.45326940138e-38
-0.00613685179503 -0.0107394906413 0.829 1.49936721631e-38
-0.00460263884627 -0.0107394906413 0.829 1.44390648556e-38
-0.00306102318124 -0.0107135811343 0.827 1.50826448065e-38
-0.00153051159062 -0.0107135811343 0.827 1.51737670418e-38
0.0 -0.0106876716274 0.825 1.55403915616e-38
0.00152681023248 -0.0106876716274 0.825 1.50783400176e-38
0.00305362046496 -0.0106876716274 0.825 1.55382447723e-38
0.00458043069744 -0.0106876716274 0.825 1.56289998674e-38
0.00610724092991 -0.0106876716274 0.825 1.49839723751e-38
0.00763405116239 -0.0106876716274 0.825 1.54438575117e-38
0.00916086139487 -0.0106876716274 0.825 1.4337147017e-38
0.0106876716274 -0.0106876716274 0.825 1.35059542212e-38
0.0121848709947 -0.0106617621204 0.823 1.26790564052e-38
0.0137079798691 -0.0106617621204 0.823 1.26783515521e-38
0.0152681023248 -0.0106876716274 0.825 1.38768989442e-38
0.0168356274968 -0.0107135811343 0.827 1.37850382247e-38
0.0183661390874 -0.0107135811343 0.827 1.55371097206e-38
0.019896650678 -0.0107135811343 0.827 1.5166551756e-38
0.0214271622687 -0.0107135811343 0.827 1.44286349911e-38
0.0230131942314 -0.0107394906413 0.829 1.51661804119e-38
0.0245474071801 -0.0107394906413 0.829 1.47945378422e-38
0.0260816201289 -0.0107394906413 0.829 1.53495178951e-38
0.0276158330776 -0.0107394906413 0.829 1.49854115087e-38
0.0291500460264 -0.0107394906413 0.829 1.43422000993e-38
0.0306842589751 -0.0107394906413 0.829 1.39719784463e-38
0.032140743403 -0.0107135811343 0.827 1.44297167936e-38
0.0336712549936 -0.0107135811343 0.827 1.49828905727e-38
0.0352017665842 -0.0107135811343 0.827 1.48917739427e-38
0.0368211107702 -0.0107394906413 0.829 1.49864792981e-38
0.0384478576724 -0.0107654001483 0.831 1.5078674928e-38
0.0399857719793 -0.0107654001483 0.831 1.50776043359e-38
0.041623622956 -0.0107913096553 0.833 1.47992251856e-38
0.0433725146768 -0.0108431286692 0.837 1.47992279882e-38
0.0449215330581 -0.0108431286692 0.837 1.4984338114e-38
0.0465815921836 -0.0108690381762 0.839 1.41552977127e-38
0.0481343119231 -0.0108690381762 0.839 1.48935788151e-38
0.049805475123 -0.0108949476832 0.841 1.42503716096e-38
0.0516061858578 -0.0109467666971 0.845 1.388266809e-38
0.0531700096716 -0.0109467666971 0.845 1.39741392485e-38
0.0548633810204 -0.0109726762041 0.847 1.48957298083e-38
0.0564309061924 -0.0109726762041 0.847 1.5541459351e-38
0.0588886079969 -0.0111410879994 0.86 1.47131406184e-38
0.0604801919968 -0.0111410879994 0.86 1.508408394e-38
0.0620717759968 -0.0111410879994 0.86 1.49007744827e-38
-0.0219971714221 -0.0094273591809 0.849 1.52828777454e-38
-0.020425944892 -0.0094273591809 0.849 1.62008697707e-38
-0.0188103020641 -0.00940515103207 0.847 1.4077122074e-38
-0.0171206320735 -0.00933852658556 0.841 1.54571684458e-38
-0.0154901838131 -0.00929411028789 0.837 1.56408324316e-38
-0.0138745409853 -0.00924969399022 0.833 1.47192264576e-38
-0.0123033144552 -0.00922748584138 0.831 1.57294533491e-38
-0.0107654001483 -0.00922748584138 0.831 1.52677605375e-38
-0.00924969399022 -0.00924969399022 0.833 1.4715298618e-38
-0.00767106474379 -0.00920527769254 0.829 1.4716730745e-38
-0.00613685179503 -0.00920527769254 0.829 1.49925959659e-38
-0.00460263884627 -0.00920527769254 0.829 1.47149328791e-38
-0.00306102318124 -0.00918306954371 0.827 1.47138566819e-38
-0.00153051159062 -0.00918306954371 0.827 1.43436420354e-38
0.0 -0.00916086139487 0.825 1.47109882239e-38
0.00152681023248 -0.00916086139487 0.825 1.45251606333e-38
0.00305362046496 -0.00916086139487 0.825 1.40638223502e-38
0.00458043069744 -0.00916086139487 0.825 1.47077456193e-38
0.00610724092991 -0.00916086139487 0.825 1.47077344089e-38
0.00763405116239 -0.00916086139487 0.825 1.47992041661e-38
0.00916086139487 -0.00916086139487 0.825 1.50750777948e-38
0.0107135811343 -0.00918306954371 0.827 1.42438934068e-38
0.0122144818598 -0.00916086139487 0.825 1.47974175106e-38
0.0137412920923 -0.00916086139487 0.825 1.4520483099e-38
0.0153051159062 -0.00918306954371 0.827 1.52576936094e-38
0.0168356274968 -0.00918306954371 0.827 1.3876531804e-38
0.0183661390874 -0.00918306954371 0.827 1.47066470013e-38
0.019896650678 -0.00918306954371 0.827 1.54431554611e-38
0.0214271622687 -0.00918306954371 0.827 1.48892740262e-38
0.0230131942314 -0.00920527769254 0.829 1.47981363767e-38
0.0245474071801 -0.00920527769254 0.829 1.42417255981e-38
0.0260816201289 -0.00920527769254 0.829 1.58115694391e-38
0.0276158330776 -0.00920527769254 0.829 1.47091777463e-38
0.0291500460264 -0.00920527769254 0.829 1.47106140772e-38
0.0306842589751 -0.00920527769254 0.829 1.55389342112e-38
0.0322184719239 -0.00920527769254 0.829 1.51679894882e-38
0.0337526848727 -0.00920527769254 0.829 1.5260185118e-38
0.0352868978214 -0.00920527769254 0.829 1.4892122866e-38
0.0369099433655 -0.00922748584138 0.831 1.49868324253e-38
0.0384478576724 -0.00922748584138 0.831 1.46173310397e-38
0.0400820072909 -0.00924969399022 0.833 1.47080973452e-38
0.0418234962955 -0.00929411028789 0.837 1.50750862026e-38
0.0434761527047 -0.00931631843672 0.839 1.44297223987e-38
0.0450288724442 -0.00931631843672 0.839 1.48914208155e-38
0.046803673672 -0.0093607347344 0.843 1.48932186814e-38
0.0483637961277 -0.0093607347344 0.843 1.40638181463e-38
0.0500423620439 -0.00938294288323 0.845 1.4341123902e-38
0.0517283306764 -0.00940515103207 0.847 1.48942976812e-38
0.0535475482019 -0.00944956732974 0.851 1.40656132097e-38
0.0551224760902 -0.00944956732974 0.851 1.45273102251e-38
0.056897277318 -0.00948287955299 0.854 1.40684900754e-38
0.0588886079969 -0.0095495039995 0.86 1.51762823725e-38
0.0604801919968 -0.0095495039995 0.86 1.42564896787e-38
-0.0203778272361 -0.00783762586006 0.847 1.46371482026e-38
-0.0188103020641 -0.00783762586006 0.847 1.49086890165e-38
-0.0171613470131 -0.00780061227866 0.843 1.54586117832e-38
-0.0156012245573 -0.00780061227866 0.843 1.54560866434e-38
-0.0139411654318 -0.00774509190657 0.837 1.5270607976e-38
-0.0123625361854 -0.00772658511588 0.835 1.44397963334e-38
-0.0108172191622 -0.00772658511588 0.835 1.4347246175e-38
-0.00927190213905 -0.00772658511588 0.835 1.54539482619e-38
-0.00768957153448 -0.00768957153448 0.831 1.49922414374e-38
-0.00613685179503 -0.00767106474379 0.829 1.49915197687e-38
-0.00460263884627 -0.00767106474379 0.829 1.50829951311e-38
-0.00306842589751 -0.00767106474379 0.829 1.5082276265e-38
-0.00153051159062 -0.00765255795309 0.827 1.51737558314e-38
0.0 -0.00763405116239 0.825 1.49875723109e-38
0.00152681023248 -0.00763405116239 0.825 1.49864933111e-38
0.00305362046496 -0.00763405116239 0.825 1.48017391151e-38
0.00458043069744 -0.00763405116239 0.825 1.50779560619e-38
0.00610724092991 -0.00763405116239 0.825 1.51697803476e-38
0.00763405116239 -0.00763405116239 0.825 1.42471051829e-38
0.00916086139487 -0.00763405116239 0.825 1.51676377623e-38
0.0106876716274 -0.00763405116239 0.825 1.52580565457e-38
0.0122440927249 -0.00765255795309 0.827 1.55335532251e-38
0.0137746043156 -0.00765255795309 0.827 1.53480969785e-38
0.0153051159062 -0.00765255795309 0.827 1.53488158446e-38
0.0168356274968 -0.00765255795309 0.827 1.44286349911e-38
0.0183661390874 -0.00765255795309 0.827 1.48906837325e-38
0.019896650678 -0.00765255795309 0.827 1.54435226013e-38
0.0214789812826 -0.00767106474379 0.829 1.49829157961e-38
0.0230131942314 -0.00767106474379 0.829 1.49836192479e-38
0.0245474071801 -0.00767106474379 0.829 1.56253859186e-38
0.0260816201289 -0.00767106474379 0.829 1.54427897222e-38
0.0276158330776 -0.00767106474379 0.829 1.53545471553e-38
0.0291500460264 -0.00767106474379 0.829 1.41567186293e-38
0.0306842589751 -0.00767106474379 0.829 1.48006461023e-38
0.0322184719239 -0.00767106474379 0.829 1.42460331896e-38
0.0337526848727 -0.00767106474379 0.829 1.49835982285e-38
0.0353720290586 -0.00768957153448 0.831 1.4985037362e-38
0.0369987759609 -0.00770807832518 0.833 1.43410986787e-38
0.0386329255794 -0.00772658511588 0.835 1.50775875204e-38
0.0402744779142 -0.00774509190657 0.837 1.49843212985e-38
0.0419234329653 -0.00776359869727 0.839 1.52598333921e-38
0.0436834287605 -0.00780061227866 0.843 1.49839723751e-38
0.0452435512162 -0.00780061227866 0.843 1.48914208155e-38
0.046803673672 -0.00780061227866 0.843 1.45244333594e-38
0.0483637961277 -0.00780061227866 0.843 1.40641740761e-38
0.0500423620439 -0.00781911906936 0.845 1.50776071385e-38
0.051850475495 -0.00785613265075 0.849 1.47095434852e-38
0.053736317467 -0.0079023996275 0.854 1.44343985317e-38
0.0553167973925 -0.0079023996275 0.854 1.60960778689e-38
0.056897277318 -0.0079023996275 0.854 1.58230923164e-38
0.0590255582481 -0.00797642679028 0.862 1.39820635913e-38
0.0606208436061 -0.00797642679028 0.862 1.46295938026e-38
-0.0187214694688 -0.00624048982293 0.843 1.50044901873e-38
-0.0171613470131 -0.00624048982293 0.843 1.43547991738e-38
-0.0156012245573 -0.00624048982293 0.843 1.4166083507e-38
-0.0139411654318 -0.00619607352526 0.837 1.55464942164e-38
-0.0123625361854 -0.0061812680927 0.835 1.49940547176e-38
-0.0108172191622 -0.0061812680927 0.835 1.38877099618e-38
-0.00927190213905 -0.0061812680927 0.835 1.4623830262e-38
-0.00770807832518 -0.00616646266014 0.833 1.54528664595e-38
-0.00615165722759 -0.00615165722759 0.831 1.37929793831e-38
-0.00460263884627 -0.00613685179503 0.829 1.4805692178e-38
-0.00306842589751 -0.00613685179503 0.829 1.48049733119e-38
-0.00153051159062 -0.00612204636247 0.827 1.45273074225e-38
0.0 -0.00612204636247 0.827 1.42500044694e-38
0.00153051159062 -0.00612204636247 0.827 1.42485653359e-38
0.00305362046496 -0.00610724092991 0.825 1.46173450527e-38
0.00458043069744 -0.00610724092991 0.825 1.49861163618e-38
0.00610724092991 -0.00610724092991 0.825 1.50775819152e-38
0.00763405116239 -0.00610724092991 0.825 1.56300396308e-38
0.00916086139487 -0.00610724092991 0.825 1.45229914232e-38
0.0106876716274 -0.00610724092991 0.825 1.46141304741e-38
0.0122440927249 -0.00612204636247 0.827 1.4888183816e-38
0.0137746043156 -0.00612204636247 0.827 1.53484501057e-38
0.0153051159062 -0.00612204636247 0.827 1.52566146096e-38
0.0168356274968 -0.00612204636247 0.827 1.46133779768e-38
0.0183661390874 -0.00612204636247 0.827 1.47066470013e-38
0.0199447683338 -0.00613685179503 0.829 1.44304454688e-38
0.0214789812826 -0.00613685179503 0.829 1.4430460883e-38
0.0230131942314 -0.00613685179503 0.829 1.50761764128e-38
0.0245474071801 -0.00613685179503 0.829 1.54413617991e-38
0.0260816201289 -0.00613685179503 0.829 1.50743757443e-38
0.0276824575241 -0.00615165722759 0.831 1.48932158788e-38
0.029220371831 -0.00615165722759 0.831 1.35106345581e-38
0.0306842589751 -0.00613685179503 0.829 1.54453022504e-38
0.0322184719239 -0.00613685179503 0.829 1.42449611962e-38
0.0338341147517 -0.00615165722759 0.831 1.5352029022e-38
0.0354571602958 -0.00616646266014 0.833 1.46159059192e-38
0.0371764411516 -0.00619607352526 0.837 1.47098811981e-38
0.0387254595329 -0.00619607352526 0.837 1.46166065684e-38
0.0403707132258 -0.00621087895782 0.839 1.47077316063e-38
0.042023369635 -0.00622568439037 0.841 1.46155415816e-38
0.0436834287605 -0.00624048982293 0.843 1.4430798596e-38
0.0452435512162 -0.00624048982293 0.843 1.44311615323e-38
0.046803673672 -0.00624048982293 0.843 1.45247962957e-38
0.04847853823 -0.00625529525549 0.845 1.47099064215e-38
0.0500423620439 -0.00625529525549 0.845 1.43407609657e-38
0.0519726203136 -0.00629971155316 0.851 1.4526591359e-38
0.053736317467 -0.006321919702 0.854 1.42521652716e-38
0.0553167973925 -0.006321919702 0.854 1.5362114167e-38
0.057030526211 -0.00633672513455 0.856 1.37991114651e-38
0.0590255582481 -0.00638114143223 0.862 1.3894908432e-38
0.0607614952154 -0.00639594686478 0.864 1.40821793601e-38
-0.0123921470505 -0.00464705514394 0.837 1.52720793394e-38
-0.0108172191622 -0.00463595106953 0.835 1.44423186706e-38
-0.00927190213905 -0.00463595106953 0.835 1.4071375349e-38
-0.00770807832518 -0.00462484699511 0.833 1.4807499853e-38
-0.00615165722759 -0.00461374292069 0.831 1.45294710273e-38
-0.00461374292069 -0.00461374292069 0.831 1.42518023353e-38
-0.00306842589751 -0.00460263884627 0.829 1.55414621536e-38
-0.00153421294876 -0.00460263884627 0.829 1.45273102251e-38
0.0 -0.00460263884627 0.829 1.44336726591e-38
0.00153051159062 -0.00459153477185 0.827 1.52627172644e-38
0.00306102318124 -0.00459153477185 0.827 1.56314997838e-38
0.00459153477185 -0.00459153477185 0.827 1.50779588644e-38
0.00612204636247 -0.00459153477185 0.827 1.47095266696e-38
0.00765255795309 -0.00459153477185 0.827 1.44318607802e-38
0.00918306954371 -0.00459153477185 0.827 1.47077456193e-38
0.0107135811343 -0.00459153477185 0.827 1.52602173479e-38
0.0122440927249 -0.00459153477185 0.827 1.38743850147e-38
0.0137746043156 -0.00459153477185 0.827 1.48874677525e-38
0.0153051159062 -0.00459153477185 0.827 1.4888183816e-38
0.0168763424363 -0.00460263884627 0.829 1.47981209624e-38
0.0184105553851 -0.00460263884627 0.829 1.52601711051e-38
0.0199447683338 -0.00460263884627 0.829 1.4430798596e-38
0.0214789812826 -0.00460263884627 0.829 1.50758260882e-38
0.0230131942314 -0.00460263884627 0.829 1.4338968705e-38
0.0246066289103 -0.00461374292069 0.831 1.46116011303e-38
0.0261445432172 -0.00461374292069 0.831 1.42446150755e-38
0.0276824575241 -0.00461374292069 0.831 1.46155499894e-38
0.029220371831 -0.00461374292069 0.831 1.37872214477e-38
0.0307582861379 -0.00461374292069 0.831 1.4706659613e-38
0.0323739289658 -0.00462484699511 0.833 1.46130290535e-38
0.0339969745099 -0.00463595106953 0.835 1.47063092883e-38
0.0356274227702 -0.00464705514394 0.837 1.40631034841e-38
0.0372652737469 -0.00465815921836 0.839 1.36038979774e-38
0.0388179934863 -0.00465815921836 0.839 1.57247519927e-38
0.0404669485374 -0.00466926329278 0.841 1.48017251021e-38
0.0421233063048 -0.0046803673672 0.843 1.48002943763e-38
0.0436834287605 -0.0046803673672 0.843 1.406345521e-38
0.0452435512162 -0.0046803673672 0.843 1.45247990983e-38
0.0469147144162 -0.00469147144162 0.845 1.48031838538e-38
0.04847853823 -0.00469147144162 0.845 1.40670593497e-38
0.0501608055044 -0.00470257551603 0.847 1.42514464055e-38
0.0519726203136 -0.00472478366487 0.851 1.49911694441e-38
0.053736317467 -0.0047414397765 0.854 1.45334324981e-38
0.0554463449273 -0.00475254385092 0.856 1.36154418741e-38
0.057030526211 -0.00475254385092 0.856 1.28821942358e-38
-0.0108431286692 -0.00309803676263 0.837 1.42590022068e-38
-0.00929411028789 -0.00309803676263 0.837 1.34270835384e-38
-0.00772658511588 -0.00309063404635 0.835 1.42543260739e-38
-0.0061812680927 -0.00309063404635 0.835 1.34224074055e-38
-0.00462484699511 -0.00308323133007 0.833 1.43425658382e-38
-0.00308323133007 -0.00308323133007 0.833 1.51719635706e-38
-0.00154161566504 -0.00308323133007 0.833 1.47109854213e-38
0.0 -0.00308323133007 0.833 1.43414742267e-38
0.0015379143069 -0.00307582861379 0.831 1.41563669034e-38
0.00306842589751 -0.00306842589751 0.829 1.39716253191e-38
0.00460263884627 -0.00306842589751 0.829 1.48013859878e-38
0.00613685179503 -0.00306842589751 0.829 1.4340039297e-38
