# .PCD v0.7 - Point Cloud Data file format
VERSION 0.7
FIELDS x y z rgb
SIZE 4 4 4 4
TYPE F F F F
COUNT 1 1 1 1
WIDTH 841
HEIGHT 1
VIEWPOINT 0 0 0 1 0 0 0
POINTS 841
DATA ascii
0.0623123642758 -0.0707329540428 0.91 2.0368394462e-38
0.0639964822292 -0.0707329540428 0.91 2.11985068567e-38
0.0655362472152 -0.070577497001 0.908 2.04623753461e-38
0.0672166638105 -0.070577497001 0.908 2.02779840864e-38
0.068745324722 -0.0704220399591 0.906 2.16609185343e-38
0.0704220399591 -0.0704220399591 0.906 2.14761699435e-38
0.0718600175963 -0.0701888543963 0.903 2.10151945968e-38
0.073368321038 -0.0700333973545 0.901 2.12917814864e-38
0.0747859412054 -0.0698002117917 0.898 2.1291784289e-38
0.07644785101 -0.0698002117917 0.898 2.17509687762e-38
-0.0430171842954 -0.0678347906197 0.894 1.4289257642e-38
-0.0413626772071 -0.0678347906197 0.894 1.99131910636e-38
-0.0397081701189 -0.0678347906197 0.894 2.18460482783e-38
-0.0381387942678 -0.0679865463034 0.896 2.11995970669e-38
-0.0364805858214 -0.0679865463034 0.896 2.12928716966e-38
-0.0348223773749 -0.0679865463034 0.896 2.06475022875e-38
-0.0331641689285 -0.0679865463034 0.896 2.09240891771e-38
-0.0315762862867 -0.0681383019871 0.898 2.11084804368e-38
-0.0299143764822 -0.0681383019871 0.898 2.11091993029e-38
-0.0283468513102 -0.0683659355127 0.901 2.12013949328e-38
-0.0266793894684 -0.0683659355127 0.901 2.20315185379e-38
-0.0250674479987 -0.0685176911964 0.903 2.15698215225e-38
-0.0233962847988 -0.0685176911964 0.903 2.12917926967e-38
-0.0217251215989 -0.0685176911964 0.903 2.20289976019e-38
-0.0201205828455 -0.068745324722 0.906 2.14747420203e-38
-0.0184438676083 -0.068745324722 0.906 2.18446035396e-38
-0.0168041659526 -0.0688970804057 0.908 2.15687355161e-38
-0.0151570615806 -0.0690488360894 0.91 2.16620087445e-38
-0.0135173599249 -0.069276469615 0.913 2.11995970669e-38
-0.0118276899343 -0.069276469615 0.913 2.20293577356e-38
-0.0101380199437 -0.069276469615 0.913 2.10152058072e-38
-0.00844834995305 -0.069276469615 0.913 2.18453224057e-38
-0.00675867996244 -0.069276469615 0.913 2.26750830745e-38
-0.00506900997183 -0.069276469615 0.913 2.20297136655e-38
-0.0033867426975 -0.0694282252987 0.915 2.22141035239e-38
-0.00169337134875 -0.0694282252987 0.915 2.16609297447e-38
0.0 -0.0694282252987 0.915 2.10148414696e-38
0.00169337134875 -0.0694282252987 0.915 2.19367977682e-38
0.0033867426975 -0.0694282252987 0.915 2.24899715474e-38
0.00508011404625 -0.0694282252987 0.915 2.17524065085e-38
0.006773485395 -0.0694282252987 0.915 2.21211890279e-38
0.00846685674374 -0.0694282252987 0.915 2.14758210202e-38
0.0101602280925 -0.0694282252987 0.915 2.14758210202e-38
0.0118924637017 -0.0696558588243 0.918 2.19367991695e-38
0.01354697079 -0.0694282252987 0.915 2.1107401437e-38
0.0152403421387 -0.0694282252987 0.915 2.10152086097e-38
0.0169892338596 -0.0696558588243 0.918 2.21212030409e-38
0.0186881572455 -0.0696558588243 0.918 2.10148596864e-38
0.0203870806315 -0.0696558588243 0.918 2.17524219227e-38
0.0220860040175 -0.0696558588243 0.918 2.14761867591e-38
0.0237849274034 -0.0696558588243 0.918 2.16609269421e-38
0.0254838507894 -0.0696558588243 0.918 2.16616345978e-38
0.0272419959056 -0.069807614508 0.92 2.12932206199e-38
0.0288816975613 -0.0696558588243 0.918 2.15698103121e-38
0.0305806209472 -0.0696558588243 0.918 2.06467750136e-38
0.0322795443332 -0.0696558588243 0.918 2.15687313122e-38
0.0340524948819 -0.069807614508 0.92 2.17527624383e-38
0.035755119626 -0.069807614508 0.92 2.22126587852e-38
0.0374577443701 -0.069807614508 0.92 2.21201030216e-38
0.0391603691142 -0.069807614508 0.92 2.1843516132e-38
0.0408629938583 -0.069807614508 0.92 2.08293754139e-38
0.0427044195327 -0.0700352480336 0.923 2.23967011216e-38
0.0442682433465 -0.069807614508 0.92 2.18438818709e-38
0.0459708680906 -0.069807614508 0.92 2.18438762657e-38
0.0478289498766 -0.0700352480336 0.923 2.10144701255e-38
0.0495371266579 -0.0700352480336 0.923 2.11066657553e-38
0.0512453034392 -0.0700352480336 0.923 2.11988627865e-38
0.052781367067 -0.069807614508 0.92 2.1659485006e-38
0.0544839918111 -0.069807614508 0.92 2.13821680399e-38
0.0561866165552 -0.069807614508 0.92 2.06446058036e-38
0.0577633951226 -0.0696558588243 0.918 2.11059510931e-38
0.0592679972062 -0.0694282252987 0.915 2.11977949971e-38
0.060961368555 -0.0694282252987 0.915 2.05527913269e-38
0.0625177896526 -0.069276469615 0.913 2.05527885243e-38
0.0639964822292 -0.0690488360894 0.91 2.12907080917e-38
0.0655362472152 -0.0688970804057 0.908 2.06464092747e-38
0.0670686094849 -0.068745324722 0.906 2.07404027705e-38
0.068745324722 -0.068745324722 0.906 2.14776118796e-38
0.0701888543963 -0.0685176911964 0.903 2.13839743136e-38
0.0718600175963 -0.0685176911964 0.903 2.14754496761e-38
0.073368321038 -0.0683659355127 0.901 2.05534933774e-38
0.0746193800891 -0.0679865463034 0.896 2.0185433928e-38
0.0762775885356 -0.0679865463034 0.896 2.01857968643e-38
-0.046326198472 -0.0661802835314 0.894 2.3050349402e-38
-0.0446716913837 -0.0661802835314 0.894 2.31425436305e-38
-0.0430171842954 -0.0661802835314 0.894 6.36149565797e-39
-0.0413626772071 -0.0661802835314 0.894 2.15719711143e-38
-0.0397081701189 -0.0661802835314 0.894 2.0924440903e-38
-0.0380536630306 -0.0661802835314 0.894 2.16620087445e-38
-0.0364805858214 -0.066328337857 0.896 2.01865213356e-38
-0.0348223773749 -0.066328337857 0.896 2.12006760667e-38
-0.0331641689285 -0.066328337857 0.896 2.06475050901e-38
-0.0315059604821 -0.066328337857 0.896 2.03709182005e-38
-0.0299143764822 -0.0664763921826 0.898 2.1661654216e-38
-0.0283468513102 -0.0666984736709 0.901 2.11084776342e-38
-0.0266793894684 -0.0666984736709 0.901 2.13850673264e-38
-0.0250674479987 -0.0668465279965 0.903 2.19382411056e-38
-0.0233962847988 -0.0668465279965 0.903 2.17538498459e-38
-0.0217251215989 -0.0668465279965 0.903 2.12006732641e-38
-0.0201205828455 -0.0670686094849 0.906 2.25828874446e-38
-0.0184438676083 -0.0670686094849 0.906 2.08311690759e-38
-0.0168041659526 -0.0672166638105 0.908 2.12932262251e-38
-0.0151570615806 -0.067364718136 0.91 2.0924440903e-38
-0.0135173599249 -0.0675867996244 0.913 2.13839799188e-38
-0.0118276899343 -0.0675867996244 0.913 2.19360746982e-38
-0.0101380199437 -0.0675867996244 0.913 2.20293465253e-38
-0.00844834995305 -0.0675867996244 0.913 2.2306652281e-38
-0.00675867996244 -0.0675867996244 0.913 2.23988479108e-38
-0.00508011404625 -0.06773485395 0.915 2.07400496433e-38
-0.0033867426975 -0.06773485395 0.915 2.15698131147e-38
-0.00169337134875 -0.06773485395 0.915 2.13850645238e-38
0.0 -0.06773485395 0.915 2.28587540668e-38
0.00169337134875 -0.06773485395 0.915 2.12907052891e-38
0.00339784677192 -0.0679569354383 0.918 2.26736397371e-38
0.00509677015787 -0.0679569354383 0.918 2.26736369345e-38
0.006773485395 -0.06773485395 0.915 2.10141155969e-38
0.00846685674374 -0.06773485395 0.915 2.30424222565e-38
0.0101935403157 -0.0679569354383 0.918 2.19360746982e-38
0.0118924637017 -0.0679569354383 0.918 2.14750993515e-38
0.01354697079 -0.06773485395 0.915 2.16602122799e-38
0.0152403421387 -0.06773485395 0.915 2.19368019721e-38
0.0169892338596 -0.0679569354383 0.918 2.20289976019e-38
0.0186881572455 -0.0679569354383 0.918 2.19368019721e-38
0.0203870806315 -0.0679569354383 0.918 2.20289947993e-38
0.0220860040175 -0.0679569354383 0.918 2.24899715474e-38
0.0237849274034 -0.0679569354383 0.918 2.11073902266e-38
0.0255393711615 -0.0681049897639 0.92 2.19371480928e-38
0.0272419959056 -0.0681049897639 0.92 2.16605612032e-38
0.0289446206497 -0.0681049897639 0.92 2.23059334149e-38
0.0306472453938 -0.0681049897639 0.92 2.30434984538e-38
0.0323498701378 -0.0681049897639 0.92 2.21204631553e-38
0.0341635356261 -0.0683270712523 0.923 2.27658325644e-38
0.0358717124074 -0.0683270712523 0.923 2.11988627865e-38
0.0375798891887 -0.0683270712523 0.923 2.29505797539e-38
0.03928806597 -0.0683270712523 0.923 2.14754496761e-38
0.0409962427514 -0.0683270712523 0.923 2.17513317125e-38
0.0427044195327 -0.0683270712523 0.923 2.15669404528e-38
0.044412596314 -0.0683270712523 0.923 2.16594906112e-38
0.0461207730953 -0.0683270712523 0.923 2.21204631553e-38
0.0478289498766 -0.0683270712523 0.923 2.18442307942e-38
0.0495371266579 -0.0683270712523 0.923 2.17520351644e-38
0.0512453034392 -0.0683270712523 0.923 2.11988627865e-38
0.0529534802205 -0.0683270712523 0.923 2.1659485006e-38
0.0544839918111 -0.0681049897639 0.92 2.1291057015e-38
0.0561866165552 -0.0681049897639 0.92 2.07371657711e-38
0.0577633951226 -0.0679569354383 0.918 2.09219227697e-38
0.0592679972062 -0.06773485395 0.915 2.11981551308e-38
0.060961368555 -0.06773485395 0.915 2.1013763871e-38
0.0625177896526 -0.0675867996244 0.913 2.07371769814e-38
0.0639964822292 -0.067364718136 0.91 2.04609446204e-38
0.0655362472152 -0.0672166638105 0.908 2.0184710858e-38
0.0670686094849 -0.0670686094849 0.906 2.04620236202e-38
0.068745324722 -0.0670686094849 0.906 2.07389734461e-38
0.0701888543963 -0.0668465279965 0.903 2.16602108786e-38
0.0717008591963 -0.0666984736709 0.901 2.14758196189e-38
0.0731240314008 -0.0664763921826 0.898 2.16602122799e-38
0.0744528189729 -0.0661802835314 0.894 2.09233661071e-38
0.0761073260612 -0.0661802835314 0.894 2.11084776342e-38
0.0775008874006 -0.0659582020431 0.891 2.04631110278e-38
0.0791498424517 -0.0659582020431 0.891 2.01861527941e-38
-0.0479807055603 -0.0645257764432 0.894 2.35095268827e-38
-0.046326198472 -0.0645257764432 0.894 2.3418050119e-38
-0.0446716913837 -0.0645257764432 0.894 2.30507025292e-38
-0.0430171842954 -0.0645257764432 0.894 7.83661732799e-39
-0.0413626772071 -0.0645257764432 0.894 2.13861323133e-38
-0.0397081701189 -0.0645257764432 0.894 2.21229812886e-38
-0.0380536630306 -0.0645257764432 0.894 2.16620087445e-38
-0.0364805858214 -0.0646701294106 0.896 2.12006732641e-38
-0.0348223773749 -0.0646701294106 0.896 2.21226351679e-38
-0.0331641689285 -0.0646701294106 0.896 2.073970072e-38
-0.0315059604821 -0.0646701294106 0.896 2.16616570186e-38
-0.0299143764822 -0.064814482378 0.898 2.08318935472e-38
-0.0283468513102 -0.0650310118292 0.901 2.1292868894e-38
-0.0266793894684 -0.0650310118292 0.901 2.12006760667e-38
-0.0250674479987 -0.0651753647966 0.903 2.15694585862e-38
-0.0233962847988 -0.0651753647966 0.903 2.08318907446e-38
-0.0217251215989 -0.0651753647966 0.903 2.1292868894e-38
-0.0201205828455 -0.0653918942478 0.906 2.12932262251e-38
-0.0184845825479 -0.0655362472152 0.908 2.10166365329e-38
-0.016841179534 -0.0656806001826 0.91 2.23995709808e-38
-0.0151570615806 -0.0656806001826 0.91 2.16620059419e-38
-0.0135173599249 -0.0658971296338 0.913 2.2028993398e-38
-0.0118276899343 -0.0658971296338 0.913 2.21215449577e-38
-0.0101380199437 -0.0658971296338 0.913 2.15683683759e-38
-0.00844834995305 -0.0658971296338 0.913 2.19378669589e-38
-0.006773485395 -0.0660414826012 0.915 2.16612800693e-38
-0.00508011404625 -0.0660414826012 0.915 2.13854162497e-38
-0.0033867426975 -0.0660414826012 0.915 2.18463972017e-38
-0.00169337134875 -0.0660414826012 0.915 2.15701732484e-38
0.0 -0.0660414826012 0.915 2.26750830745e-38
0.00169337134875 -0.0660414826012 0.915 2.11992327293e-38
0.00339784677192 -0.0662580120524 0.918 2.23059362174e-38
0.00509677015787 -0.0662580120524 0.918 2.26747159343e-38
0.00679569354383 -0.0662580120524 0.918 2.18449552655e-38
0.00849461692979 -0.0662580120524 0.918 2.22137405876e-38
0.0101935403157 -0.0662580120524 0.918 2.25821671772e-38
0.0118924637017 -0.0662580120524 0.918 2.23977773188e-38
0.0135913870877 -0.0662580120524 0.918 2.24899729487e-38
0.0152903104736 -0.0662580120524 0.918 2.24899729487e-38
0.0169892338596 -0.0662580120524 0.918 2.17524065085e-38
0.0186881572455 -0.0662580120524 0.918 2.15680152487e-38
0.0203870806315 -0.0662580120524 0.918 2.1937153698e-38
0.0221341216733 -0.0664023650198 0.92 2.17527624383e-38
0.0238367464174 -0.0664023650198 0.92 2.12917814864e-38
0.0255393711615 -0.0664023650198 0.92 2.23981290447e-38
0.0272419959056 -0.0664023650198 0.92 2.17516806359e-38
0.0289446206497 -0.0664023650198 0.92 2.13828981164e-38
0.0306472453938 -0.0664023650198 0.92 2.19360718956e-38
0.0323498701378 -0.0664023650198 0.92 2.15672893761e-38
0.0341635356261 -0.0666188944709 0.923 2.15672893761e-38
0.0358717124074 -0.0666188944709 0.923 2.27658325644e-38
0.0375798891887 -0.0666188944709 0.923 2.18438762657e-38
0.03928806597 -0.0666188944709 0.923 2.21204631553e-38
0.0409962427514 -0.0666188944709 0.923 2.17513317125e-38
0.0427044195327 -0.0666188944709 0.923 2.2120114232e-38
0.044412596314 -0.0666188944709 0.923 2.20282731306e-38
0.0461207730953 -0.0666188944709 0.923 2.15672893761e-38
0.0478289498766 -0.0666188944709 0.923 2.08300788657e-38
0.0495371266579 -0.0666188944709 0.923 2.1291057015e-38
0.0512453034392 -0.0666188944709 0.923 2.09222758969e-38
0.0529534802205 -0.0666188944709 0.923 2.13828981164e-38
0.0546616570018 -0.0666188944709 0.923 2.12910584163e-38
0.0561866165552 -0.0664023650198 0.92 2.09219199671e-38
0.0577633951226 -0.0662580120524 0.918 2.1382900919e-38
0.0592679972062 -0.0660414826012 0.915 2.11059595009e-38
0.060961368555 -0.0660414826012 0.915 2.11981551308e-38
0.0625177896526 -0.0658971296338 0.913 2.03687517931e-38
0.0639964822292 -0.0656806001826 0.91 2.10141155969e-38
0.0655362472152 -0.0655362472152 0.908 2.07378846372e-38
0.0670686094849 -0.0653918942478 0.906 2.04620236202e-38
0.068745324722 -0.0653918942478 0.906 2.14761755487e-38
0.0701888543963 -0.0651753647966 0.903 2.073825458e-38
0.0717008591963 -0.0650310118292 0.901 2.07389734461e-38
0.0731240314008 -0.064814482378 0.898 2.1015561737e-38
0.0744528189729 -0.0645257764432 0.894 2.06474994849e-38
0.0758519323495 -0.064309246992 0.891 2.14772601537e-38
0.0773269235681 -0.0641648940246 0.889 2.08318935472e-38
0.078972177261 -0.0641648940246 0.889 2.02783456214e-38
0.0806174309539 -0.0641648940246 0.889 2.14772433381e-38
-0.0479807055603 -0.0628712693549 0.894 2.35091681503e-38
-0.046326198472 -0.0628712693549 0.894 2.30489046632e-38
-0.0446716913837 -0.0628712693549 0.894 2.35098786087e-38
-0.0430171842954 -0.0628712693549 0.894 1.13386093267e-38
-0.0413626772071 -0.0628712693549 0.894 1.89872452683e-38
-0.0397970027142 -0.0630119209642 0.896 2.30442145173e-38
-0.0381387942678 -0.0630119209642 0.896 2.0647856816e-38
-0.0364805858214 -0.0630119209642 0.896 2.1292868894e-38
-0.0348223773749 -0.0630119209642 0.896 2.16616570186e-38
-0.0332381960913 -0.0631525725735 0.898 2.10162876096e-38
-0.0315762862867 -0.0631525725735 0.898 2.19382439082e-38
-0.0300143131519 -0.0633635499874 0.901 2.12006760667e-38
-0.0284097743985 -0.0635042015967 0.903 2.14772601537e-38
-0.0267386111986 -0.0635042015967 0.903 2.07396951148e-38
-0.0250674479987 -0.0635042015967 0.903 2.1938238303e-38
-0.0233962847988 -0.0635042015967 0.903 2.17538470433e-38
-0.0217972980826 -0.0637151790106 0.906 2.20304339329e-38
-0.0201205828455 -0.0637151790106 0.906 2.18464000043e-38
-0.0184845825479 -0.0638558306199 0.908 2.10166393355e-38
-0.016841179534 -0.0639964822292 0.91 2.14776146822e-38
-0.0152070299155 -0.0642074596432 0.913 2.17542015718e-38
-0.0135173599249 -0.0642074596432 0.913 2.11992341306e-38
-0.0118535994412 -0.0643481112525 0.915 2.19367991695e-38
-0.0101602280925 -0.0643481112525 0.915 2.18449580681e-38
-0.00846685674374 -0.0643481112525 0.915 2.15690872421e-38
-0.006773485395 -0.0643481112525 0.915 2.21222582186e-38
-0.00508011404625 -0.0643481112525 0.915 2.20311415886e-38
-0.0033867426975 -0.0643481112525 0.915 2.18463943991e-38
-0.00169337134875 -0.0643481112525 0.915 2.23073725484e-38
0.0 -0.0643481112525 0.915 2.21226323653e-38
0.00169892338596 -0.0645590886664 0.918 2.15683795863e-38
0.00339784677192 -0.0645590886664 0.918 2.23062991538e-38
0.00509677015787 -0.0645590886664 0.918 2.22141007213e-38
0.00679569354383 -0.0645590886664 0.918 2.12921444227e-38
0.00849461692979 -0.0645590886664 0.918 2.17531253746e-38
0.0101935403157 -0.0645590886664 0.918 2.17531267759e-38
0.0118924637017 -0.0645590886664 0.918 2.14761839565e-38
0.0135913870877 -0.0645590886664 0.918 2.17524079098e-38
0.0152903104736 -0.0645590886664 0.918 2.13836253903e-38
0.017026247441 -0.0646997402757 0.92 2.26743628071e-38
0.0187288721851 -0.0646997402757 0.92 2.23977759175e-38
0.0204314969292 -0.0646997402757 0.92 2.22137405876e-38
0.0221341216733 -0.0646997402757 0.92 2.21215449577e-38
0.0238367464174 -0.0646997402757 0.92 2.19371508954e-38
0.0256226517196 -0.0649107176896 0.923 2.18449552655e-38
0.0273308285009 -0.0649107176896 0.923 2.13828981164e-38
0.0290390052822 -0.0649107176896 0.923 2.26736369345e-38
0.03081380651 -0.0650513692989 0.925 2.24892456748e-38
0.0325256846495 -0.0650513692989 0.925 2.21204631553e-38
0.0342375627889 -0.0650513692989 0.925 2.20282675254e-38
0.0359494409284 -0.0650513692989 0.925 2.14750937463e-38
0.0376613190678 -0.0650513692989 0.925 2.2304854415e-38
0.0393731972073 -0.0650513692989 0.925 2.17516806359e-38
0.0410850753467 -0.0650513692989 0.925 2.13825463905e-38
0.0427969534861 -0.0650513692989 0.925 2.18435273424e-38
0.044412596314 -0.0649107176896 0.923 2.1751686241e-38
0.0461207730953 -0.0649107176896 0.923 2.22126587852e-38
0.0478289498766 -0.0649107176896 0.923 2.19364278254e-38
0.0495371266579 -0.0649107176896 0.923 2.12910584163e-38
0.0512453034392 -0.0649107176896 0.923 2.19364278254e-38
0.0529534802205 -0.0649107176896 0.923 2.15672893761e-38
0.0546616570018 -0.0649107176896 0.923 2.13832540462e-38
0.0561866165552 -0.0646997402757 0.92 2.08297243372e-38
0.0577633951226 -0.0645590886664 0.918 2.12907052891e-38
0.0594623185085 -0.0645590886664 0.918 2.05531430528e-38
0.060961368555 -0.0643481112525 0.915 2.07375343126e-38
0.0625177896526 -0.0642074596432 0.913 2.10141183995e-38
0.0639964822292 -0.0639964822292 0.91 2.08297243372e-38
0.0655362472152 -0.0638558306199 0.908 2.0830080267e-38
0.0672166638105 -0.0638558306199 0.908 2.06464092747e-38
0.068745324722 -0.0637151790106 0.906 2.18449552655e-38
0.0701888543963 -0.0635042015967 0.903 2.14761727461e-38
0.0717008591963 -0.0633635499874 0.901 2.18453182018e-38
0.0729611716427 -0.0630119209642 0.896 2.09233619032e-38
0.0742029772985 -0.0626602919409 0.891 2.0647856816e-38
0.0758519323495 -0.0626602919409 0.891 2.14776174848e-38
0.0773269235681 -0.0625196403316 0.889 2.0647856816e-38
0.078972177261 -0.0625196403316 0.889 2.18456741316e-38
0.0806174309539 -0.0625196403316 0.889 2.12917786838e-38
0.0822626846469 -0.0625196403316 0.889 2.0831155063e-38
-0.0479807055603 -0.0612167622666 0.894 2.35091681503e-38
-0.046326198472 -0.0612167622666 0.894 2.350988001e-38
-0.0445217863791 -0.0610113368898 0.891 2.35098744048e-38
-0.042872831328 -0.0610113368898 0.891 1.74217202291e-38
-0.0413626772071 -0.0612167622666 0.894 1.00424713056e-38
-0.0397970027142 -0.0613537125177 0.896 2.35080737362e-38
-0.0381387942678 -0.0613537125177 0.896 2.10166393355e-38
-0.0364805858214 -0.0613537125177 0.896 2.16616514134e-38
-0.0349001058959 -0.0614906627689 0.898 2.14772657589e-38
-0.0332381960913 -0.0614906627689 0.898 2.10162876096e-38
-0.0315762862867 -0.0614906627689 0.898 2.1385070129e-38
-0.0300143131519 -0.0616960881456 0.901 2.11084804368e-38
-0.0284097743985 -0.0618330383968 0.903 2.16616514134e-38
-0.0267386111986 -0.0618330383968 0.903 2.21226295627e-38
-0.0251507285568 -0.0620384637735 0.906 2.15694557836e-38
-0.0234740133197 -0.0620384637735 0.906 2.14772601537e-38
-0.0217972980826 -0.0620384637735 0.906 2.2030791264e-38
-0.0201205828455 -0.0620384637735 0.906 2.12010305952e-38
-0.0184845825479 -0.0621754140247 0.908 2.11088349653e-38
-0.016841179534 -0.0623123642758 0.91 2.15698131147e-38
-0.0152070299155 -0.0625177896526 0.913 2.21229868938e-38
-0.0135173599249 -0.0625177896526 0.913 2.25825343174e-38
-0.0118535994412 -0.0626547399037 0.915 2.2213751798e-38
-0.0101602280925 -0.0626547399037 0.915 2.2306300555e-38
-0.00846685674374 -0.0626547399037 0.915 2.13843400525e-38
-0.006773485395 -0.0626547399037 0.915 2.10159106603e-38
-0.00508011404625 -0.0626547399037 0.915 2.17534756992e-38
-0.0033867426975 -0.0626547399037 0.915 2.2583236368e-38
-0.00169337134875 -0.0626547399037 0.915 2.12924975499e-38
0.0 -0.0628601652804 0.918 2.20304367355e-38
0.00169892338596 -0.0628601652804 0.918 2.13854302627e-38
0.00339784677192 -0.0628601652804 0.918 2.19389571691e-38
0.00509677015787 -0.0628601652804 0.918 2.23999339171e-38
0.00679569354383 -0.0628601652804 0.918 2.15701732484e-38
0.00849461692979 -0.0628601652804 0.918 2.23999353184e-38
0.0101935403157 -0.0628601652804 0.918 2.21233512314e-38
0.0119183732087 -0.0629971155316 0.92 2.16620199549e-38
0.0136209979528 -0.0629971155316 0.92 2.27669227746e-38
0.0153236226969 -0.0629971155316 0.92 2.23977773188e-38
0.017026247441 -0.0629971155316 0.92 2.25821671772e-38
0.0187288721851 -0.0629971155316 0.92 2.22133846578e-38
0.0204981213757 -0.0632025409083 0.923 2.1937153698e-38
0.022206298157 -0.0632025409083 0.923 2.22137405876e-38
0.0239144749383 -0.0632025409083 0.923 2.19371508954e-38
0.0256226517196 -0.0632025409083 0.923 2.21215421551e-38
0.0273308285009 -0.0632025409083 0.923 2.24903246746e-38
0.0291019283706 -0.0633394911595 0.925 2.23059334149e-38
0.03081380651 -0.0633394911595 0.925 2.20293465253e-38
0.0325256846495 -0.0633394911595 0.925 2.23059334149e-38
0.0342375627889 -0.0633394911595 0.925 2.16605640058e-38
0.0359494409284 -0.0633394911595 0.925 2.30434984538e-38
0.0376613190678 -0.0633394911595 0.925 2.18449552655e-38
0.0393731972073 -0.0633394911595 0.925 2.11995858565e-38
0.0410850753467 -0.0633394911595 0.925 2.14750993515e-38
0.0427969534861 -0.0633394911595 0.925 2.17513289099e-38
0.0445088316256 -0.0633394911595 0.925 2.11063140294e-38
0.046220709765 -0.0633394911595 0.925 2.17516806359e-38
0.0478289498766 -0.0632025409083 0.923 2.07375287074e-38
0.0495371266579 -0.0632025409083 0.923 2.10141155969e-38
0.0512453034392 -0.0632025409083 0.923 2.16598409358e-38
0.0529534802205 -0.0632025409083 0.923 2.11988627865e-38
0.0546616570018 -0.0632025409083 0.923 2.11985068567e-38
0.0561866165552 -0.0629971155316 0.92 2.01843549282e-38
0.0577633951226 -0.0628601652804 0.918 2.11063140294e-38
0.0594623185085 -0.0628601652804 0.918 2.11985096593e-38
0.060961368555 -0.0626547399037 0.915 2.12907052891e-38
0.0625177896526 -0.0625177896526 0.913 2.15672921787e-38
0.0639964822292 -0.0623123642758 0.91 2.11063112268e-38
0.0655362472152 -0.0621754140247 0.908 2.09219199671e-38
0.0672166638105 -0.0621754140247 0.908 2.20293437227e-38
0.068745324722 -0.0620384637735 0.906 2.12921360149e-38
0.0701888543963 -0.0618330383968 0.903 2.20293437227e-38
0.0717008591963 -0.0616960881456 0.901 2.12924975499e-38
0.0729611716427 -0.0613537125177 0.896 2.15690844395e-38
0.0742029772985 -0.0610113368898 0.891 2.09244381004e-38
0.0758519323495 -0.0610113368898 0.891 2.16620031393e-38
0.0773269235681 -0.0608743866387 0.889 2.11088321627e-38
0.078972177261 -0.0608743866387 0.889 2.03698279903e-38
0.0804360644051 -0.0607374363875 0.887 2.17516834385e-38
0.0820776167399 -0.0607374363875 0.887 2.15669292424e-38
0.0837191690747 -0.0607374363875 0.887 2.30420565176e-38
-0.0461707414302 -0.0593623818388 0.891 2.35098786087e-38
-0.0445217863791 -0.0593623818388 0.891 2.35098758061e-38
-0.042872831328 -0.0593623818388 0.891 2.35084366725e-38
-0.0413626772071 -0.0595622551783 0.894 3.03488877378e-39
-0.0397970027142 -0.0596955040713 0.896 2.35084380738e-38
-0.0381387942678 -0.0596955040713 0.896 2.16620087445e-38
-0.0364805858214 -0.0596955040713 0.896 2.24914120822e-38
-0.0349001058959 -0.0598287529643 0.898 2.00943313109e-38
-0.0332381960913 -0.0598287529643 0.898 2.06475050901e-38
-0.0316817749937 -0.0600286263038 0.901 2.23992220575e-38
-0.0300809375984 -0.0601618751969 0.903 2.09240891771e-38
-0.0284097743985 -0.0601618751969 0.903 2.21226295627e-38
-0.0267386111986 -0.0601618751969 0.903 2.03712699264e-38
-0.0251507285568 -0.0603617485364 0.906 2.11088349653e-38
-0.0234740133197 -0.0603617485364 0.906 2.12010305952e-38
-0.0217972980826 -0.0603617485364 0.906 2.22151825237e-38
-0.0201205828455 -0.0603617485364 0.906 2.08322480758e-38
-0.0185252974874 -0.0606282463224 0.91 2.18460426731e-38
-0.0168966999061 -0.0608281196619 0.913 2.14772601537e-38
-0.0152070299155 -0.0608281196619 0.913 2.24914120822e-38
-0.0135173599249 -0.0608281196619 0.913 2.21215589707e-38
-0.0118535994412 -0.060961368555 0.915 2.14761867591e-38
-0.0101602280925 -0.060961368555 0.915 2.2490335885e-38
-0.00846685674374 -0.060961368555 0.915 2.2398491981e-38
-0.00679569354383 -0.0611612418945 0.918 2.17534756992e-38
-0.00509677015787 -0.0611612418945 0.918 2.22144538485e-38
-0.00339784677192 -0.0611612418945 0.918 2.17534756992e-38
-0.00169892338596 -0.0611612418945 0.918 2.20300653914e-38
0.0 -0.0611612418945 0.918 2.24914148848e-38
0.00169892338596 -0.0611612418945 0.918 2.23073865614e-38
0.00339784677192 -0.0611612418945 0.918 2.21233512314e-38
0.00509677015787 -0.0611612418945 0.918 2.22155426574e-38
0.00679569354383 -0.0611612418945 0.918 2.21233470275e-38
0.00849461692979 -0.0611612418945 0.918 2.21233484288e-38
0.0101935403157 -0.0611612418945 0.918 2.1846408412e-38
0.0118924637017 -0.0611612418945 0.918 2.1569824325e-38
0.0136209979528 -0.0612944907875 0.92 2.21215533655e-38
0.0153236226969 -0.0612944907875 0.92 2.23977773188e-38
0.017026247441 -0.0612944907875 0.92 2.22133846578e-38
0.0187899445944 -0.061494364127 0.923 2.22133846578e-38
0.0204981213757 -0.061494364127 0.923 2.20293493279e-38
0.022206298157 -0.061494364127 0.923 2.2582523107e-38
0.0239144749383 -0.061494364127 0.923 2.16605640058e-38
0.0256226517196 -0.061494364127 0.923 2.25825203044e-38
0.0273900502311 -0.06162761302 0.925 2.20293493279e-38
0.0291019283706 -0.06162761302 0.925 2.15683711785e-38
0.03081380651 -0.06162761302 0.925 2.1291784289e-38
0.0325256846495 -0.06162761302 0.925 2.11995886591e-38
0.0342375627889 -0.06162761302 0.925 2.11995886591e-38
0.0359494409284 -0.06162761302 0.925 2.14761755487e-38
0.0376613190678 -0.06162761302 0.925 2.15683711785e-38
0.0393731972073 -0.06162761302 0.925 2.07386105098e-38
0.0410850753467 -0.06162761302 0.925 2.16594878086e-38
0.0427969534861 -0.06162761302 0.925 2.16594878086e-38
0.0445088316256 -0.06162761302 0.925 2.15672921787e-38
0.046220709765 -0.06162761302 0.925 2.17516834385e-38
0.0479325879045 -0.06162761302 0.925 2.08297271398e-38
0.0495371266579 -0.061494364127 0.923 2.2304854415e-38
0.0512453034392 -0.061494364127 0.923 2.23970500449e-38
0.0529534802205 -0.061494364127 0.923 2.11066671566e-38
0.0546616570018 -0.061494364127 0.923 2.1659485006e-38
0.0561866165552 -0.0612944907875 0.92 2.06453358801e-38
0.0577633951226 -0.0611612418945 0.918 2.10141155969e-38
0.0594623185085 -0.0611612418945 0.918 2.12907024865e-38
0.060961368555 -0.060961368555 0.915 2.17516806359e-38
0.0625177896526 -0.0608281196619 0.913 2.12907024865e-38
0.0639964822292 -0.0606282463224 0.91 2.15672921787e-38
0.0655362472152 -0.0604949974294 0.908 2.15672921787e-38
0.0670686094849 -0.0603617485364 0.906 2.09229961643e-38
0.068745324722 -0.0603617485364 0.906 2.16609185343e-38
0.0701888543963 -0.0601618751969 0.903 2.1845309794e-38
0.0717008591963 -0.0600286263038 0.901 2.18456713291e-38
0.0729611716427 -0.0596955040713 0.896 2.15690844395e-38
0.0742029772985 -0.0593623818388 0.891 2.13857721796e-38
0.0758519323495 -0.0593623818388 0.891 2.0555655581e-38
0.0773269235681 -0.0592291329458 0.889 2.22151769185e-38
0.0787945120703 -0.0590958840527 0.887 2.17524065085e-38
0.0804360644051 -0.0590958840527 0.887 2.1751686241e-38
0.0820776167399 -0.0590958840527 0.887 2.17509673749e-38
0.0837191690747 -0.0590958840527 0.887 2.17509645723e-38
0.0853607214095 -0.0590958840527 0.887 2.26736369345e-38
-0.0446716913837 -0.05790774809 0.894 2.28648693333e-38
-0.0430171842954 -0.05790774809 0.894 2.35066458131e-38
-0.0413626772071 -0.05790774809 0.894 2.75903196069e-39
-0.0397970027142 -0.0580372956249 0.896 2.35070003416e-38
-0.0381387942678 -0.0580372956249 0.896 2.23073781536e-38
-0.0364805858214 -0.0580372956249 0.896 2.07396951148e-38
-0.0350166986772 -0.0583611644621 0.901 2.21226351679e-38
-0.0333492368355 -0.0583611644621 0.901 2.17538526485e-38
-0.0316817749937 -0.0583611644621 0.901 2.1385070129e-38
-0.0300809375984 -0.058490711997 0.903 2.1661654216e-38
-0.0284097743985 -0.058490711997 0.903 2.08318907446e-38
-0.026827443794 -0.0586850332993 0.906 2.13854218549e-38
-0.0251507285568 -0.0586850332993 0.906 2.13854190523e-38
-0.0234740133197 -0.0586850332993 0.906 2.09244437056e-38
-0.0217972980826 -0.0586850332993 0.906 2.13854218549e-38
-0.0201649991431 -0.0588145808341 0.908 2.20304339329e-38
-0.0185252974874 -0.058944128369 0.91 2.17538470433e-38
-0.0168966999061 -0.0591384496713 0.913 2.18460426731e-38
-0.0152070299155 -0.0591384496713 0.913 2.23070208225e-38
-0.0135173599249 -0.0591384496713 0.913 2.18460482783e-38
-0.0118535994412 -0.0592679972062 0.915 2.15694613887e-38
-0.0101602280925 -0.0592679972062 0.915 2.21226323653e-38
-0.00846685674374 -0.0592679972062 0.915 2.17531253746e-38
-0.00679569354383 -0.0594623185085 0.918 2.14768916122e-38
-0.00509677015787 -0.0594623185085 0.918 2.2859107194e-38
-0.00339784677192 -0.0594623185085 0.918 2.29513028239e-38
-0.00169892338596 -0.0594623185085 0.918 2.21215449577e-38
0.0 -0.0594623185085 0.918 2.18460454757e-38
0.00169892338596 -0.0594623185085 0.918 2.22148307978e-38
0.00339784677192 -0.0594623185085 0.918 2.22148251926e-38
0.00509677015787 -0.0594623185085 0.918 2.13854218549e-38
0.00679569354383 -0.0594623185085 0.918 2.0924440903e-38
0.00849461692979 -0.0594623185085 0.918 2.21229868938e-38
0.0101935403157 -0.0594623185085 0.918 2.19382411056e-38
0.0118924637017 -0.0594623185085 0.918 2.22148307978e-38
0.0136209979528 -0.0595918660434 0.92 2.23059446252e-38
0.0153236226969 -0.0595918660434 0.92 2.23977773188e-38
0.017026247441 -0.0595918660434 0.92 2.24899715474e-38
0.0187899445944 -0.0597861873457 0.923 2.19367977682e-38
0.0204981213757 -0.0597861873457 0.923 2.18449580681e-38
0.022206298157 -0.0597861873457 0.923 2.23059362174e-38
0.0239144749383 -0.0597861873457 0.923 2.17527596357e-38
0.0256781720917 -0.0599157348806 0.925 2.25825203044e-38
0.0273900502311 -0.0599157348806 0.925 2.1753122572e-38
0.0291019283706 -0.0599157348806 0.925 2.19375138317e-38
0.03081380651 -0.0599157348806 0.925 2.13843400525e-38
0.0325256846495 -0.0599157348806 0.925 2.14765356824e-38
0.0342375627889 -0.0599157348806 0.925 2.11999487928e-38
0.0359494409284 -0.0599157348806 0.925 2.20297094616e-38
0.0376613190678 -0.0599157348806 0.925 2.14765356824e-38
0.0393731972073 -0.0599157348806 0.925 2.1753122572e-38
0.0410850753467 -0.0599157348806 0.925 2.1659485006e-38
0.0427969534861 -0.0599157348806 0.925 2.2304854415e-38
0.0445088316256 -0.0599157348806 0.925 2.16594878086e-38
0.046220709765 -0.0599157348806 0.925 2.20282731306e-38
0.0479325879045 -0.0599157348806 0.925 2.10141212021e-38
0.0496444660439 -0.0599157348806 0.925 2.14750965489e-38
0.0513563441834 -0.0599157348806 0.925 2.21204631553e-38
0.0529534802205 -0.0597861873457 0.923 2.16598409358e-38
0.0546616570018 -0.0597861873457 0.923 2.14750965489e-38
0.0563698337831 -0.0597861873457 0.923 2.11063140294e-38
0.0577633951226 -0.0594623185085 0.918 2.15672893761e-38
0.0592679972062 -0.0592679972062 0.915 2.15676453059e-38
0.0608281196619 -0.0591384496713 0.913 2.00925152281e-38
0.0623123642758 -0.058944128369 0.91 2.11985068567e-38
0.0639964822292 -0.058944128369 0.91 2.12907052891e-38
0.0655362472152 -0.0588145808341 0.908 2.07375343126e-38
0.0670686094849 -0.0586850332993 0.906 2.07386049046e-38
0.068745324722 -0.0586850332993 0.906 2.15687229045e-38
0.0701888543963 -0.058490711997 0.903 2.15683655733e-38
0.0717008591963 -0.0583611644621 0.901 2.12924975499e-38
0.0729611716427 -0.0580372956249 0.896 2.11081062901e-38
0.0742029772985 -0.0577134267877 0.891 2.16620031393e-38
0.0758519323495 -0.0577134267877 0.891 2.08322424706e-38
0.0773269235681 -0.0575838792528 0.889 2.18463943991e-38
0.0787945120703 -0.0574543317179 0.887 2.14765356824e-38
0.0804360644051 -0.0574543317179 0.887 2.10148414696e-38
0.0820776167399 -0.0574543317179 0.887 2.22123070593e-38
0.0837191690747 -0.0574543317179 0.887 2.15669376502e-38
0.0851682507863 -0.0573247841831 0.885 2.09219255723e-38
0.0868061017629 -0.0573247841831 0.885 2.35084380738e-38
-0.0447716280535 -0.0563790871785 0.896 2.3418050119e-38
-0.0431134196071 -0.0563790871785 0.896 2.35091681503e-38
-0.0414552111606 -0.0563790871785 0.896 1.46938615541e-39
-0.0397970027142 -0.0563790871785 0.896 2.23995737834e-38
-0.0381387942678 -0.0563790871785 0.896 2.23073781536e-38
-0.0365620157004 -0.0565049333552 0.898 2.12006732641e-38
-0.0350166986772 -0.0566937026203 0.901 2.23992220575e-38
-0.0333492368355 -0.0566937026203 0.901 2.073970072e-38
-0.0317521007983 -0.056819548797 0.903 2.12928744992e-38
-0.0300809375984 -0.056819548797 0.903 2.17538498459e-38
-0.0284097743985 -0.056819548797 0.903 2.22148251926e-38
-0.026827443794 -0.0570083180621 0.906 2.19385956341e-38
-0.0251507285568 -0.0570083180621 0.906 2.17542015718e-38
-0.0234740133197 -0.0570083180621 0.906 2.15698103121e-38
-0.0217972980826 -0.0570083180621 0.906 2.2030791264e-38
-0.0201649991431 -0.0571341642389 0.908 2.21226295627e-38
-0.0185252974874 -0.0572600104156 0.91 2.16616514134e-38
-0.0168966999061 -0.0574487796807 0.913 2.20304367355e-38
-0.0152070299155 -0.0574487796807 0.913 2.07396979174e-38
-0.01354697079 -0.0575746258575 0.915 2.12935905627e-38
-0.0118535994412 -0.0575746258575 0.915 2.18460454757e-38
-0.0101602280925 -0.0575746258575 0.915 2.23070208225e-38
-0.00846685674374 -0.0575746258575 0.915 2.24906876109e-38
-0.00679569354383 -0.0577633951226 0.918 2.23062963512e-38
-0.00509677015787 -0.0577633951226 0.918 2.23059362174e-38
-0.00339784677192 -0.0577633951226 0.918 2.23977759175e-38
-0.00169892338596 -0.0577633951226 0.918 2.33186546176e-38
0.0 -0.0577633951226 0.918 2.2674367011e-38
0.00169892338596 -0.0577633951226 0.918 2.23977773188e-38
0.00339784677192 -0.0577633951226 0.918 2.26743628071e-38
0.00509677015787 -0.0577633951226 0.918 2.2582523107e-38
0.00679569354383 -0.0577633951226 0.918 2.2213737785e-38
0.00849461692979 -0.0577633951226 0.918 2.20293493279e-38
0.0102157484646 -0.0578892412993 0.92 2.22133846578e-38
0.0119183732087 -0.0578892412993 0.92 2.22133860591e-38
0.0136209979528 -0.0578892412993 0.92 2.156801665e-38
0.0153236226969 -0.0578892412993 0.92 2.23055816889e-38
0.0170817678131 -0.0580780105644 0.923 2.19367977682e-38
0.0187899445944 -0.0580780105644 0.923 2.25821671772e-38
0.0204981213757 -0.0580780105644 0.923 2.20293493279e-38
0.022206298157 -0.0580780105644 0.923 2.22137405876e-38
0.0239144749383 -0.0580780105644 0.923 2.16605640058e-38
0.0256781720917 -0.0582038567412 0.925 2.2213737785e-38
0.0273900502311 -0.0582038567412 0.925 2.10155575331e-38
0.0291019283706 -0.0582038567412 0.925 2.19375166343e-38
0.03081380651 -0.0582038567412 0.925 2.20297122642e-38
0.0325256846495 -0.0582038567412 0.925 2.15687341148e-38
0.0342375627889 -0.0582038567412 0.925 2.13843428551e-38
0.0359494409284 -0.0582038567412 0.925 2.17531253746e-38
0.0376613190678 -0.0582038567412 0.925 2.18453210044e-38
0.0393731972073 -0.0582038567412 0.925 2.15687341148e-38
0.0410850753467 -0.0582038567412 0.925 2.12910584163e-38
0.0427969534861 -0.0582038567412 0.925 2.21208190851e-38
0.0445088316256 -0.0582038567412 0.925 2.17516834385e-38
0.046220709765 -0.0582038567412 0.925 2.25814469098e-38
0.0479325879045 -0.0582038567412 0.925 2.21201114294e-38
0.0496444660439 -0.0582038567412 0.925 2.15672949813e-38
0.0513563441834 -0.0582038567412 0.925 2.1659485006e-38
0.0530682223228 -0.0582038567412 0.925 2.13832540462e-38
0.0546616570018 -0.0580780105644 0.923 2.11985124619e-38
0.0563698337831 -0.0580780105644 0.923 2.15672921787e-38
0.0577633951226 -0.0577633951226 0.918 2.21204631553e-38
0.0592679972062 -0.0575746258575 0.915 2.21208190851e-38
0.0608281196619 -0.0574487796807 0.913 2.0830080267e-38
0.0623123642758 -0.0572600104156 0.91 2.11985068567e-38
0.0639964822292 -0.0572600104156 0.91 2.04609446204e-38
0.0655362472152 -0.0571341642389 0.908 2.13829037216e-38
0.0670686094849 -0.0570083180621 0.906 2.00932382981e-38
0.068745324722 -0.0570083180621 0.906 2.1107387424e-38
0.0701888543963 -0.056819548797 0.903 2.17527596357e-38
0.0714621215963 -0.0565049333552 0.898 2.19378697615e-38
0.0729611716427 -0.0563790871785 0.896 2.14768916122e-38
0.0742029772985 -0.0560644717366 0.891 2.20307884614e-38
0.0756816698751 -0.0559386255599 0.889 2.12932234225e-38
0.0773269235681 -0.0559386255599 0.889 2.11088321627e-38
0.0787945120703 -0.0558127793831 0.887 2.15698075095e-38
0.0804360644051 -0.0558127793831 0.887 2.14776146822e-38
0.0820776167399 -0.0558127793831 0.887 2.18446035396e-38
0.0835303998096 -0.0556869332064 0.885 2.1475467893e-38
0.0848795448514 -0.0554981639413 0.882 2.09226500436e-38
0.0865118437908 -0.0554981639413 0.882 2.21219050914e-38
0.0881441427303 -0.0554981639413 0.882 2.35091513348e-38
-0.0432096549187 -0.0548430235506 0.898 2.27716143218e-38
-0.0415477451141 -0.0548430235506 0.898 1.61299416476e-38
-0.0398858353096 -0.0548430235506 0.898 1.12435452389e-38
-0.038223925505 -0.0548430235506 0.898 2.3508082144e-38
-0.0365620157004 -0.0548430235506 0.898 2.05553038551e-38
-0.0350166986772 -0.0550262407785 0.901 2.1385070129e-38
-0.0333492368355 -0.0550262407785 0.901 2.17538526485e-38
-0.0317521007983 -0.0551483855971 0.903 2.19382439082e-38
-0.0300809375984 -0.0551483855971 0.903 2.11084804368e-38
-0.0284097743985 -0.0551483855971 0.903 2.12006732641e-38
-0.026827443794 -0.055331602825 0.906 2.11088321627e-38
-0.0251507285568 -0.055331602825 0.906 2.10166365329e-38
-0.0234740133197 -0.055331602825 0.906 2.14776146822e-38
-0.0217972980826 -0.055331602825 0.906 2.17542043744e-38
-0.0201649991431 -0.0554537476436 0.908 2.18460426731e-38
-0.0185252974874 -0.0555758924622 0.91 2.13850645238e-38
-0.0168966999061 -0.0557591096901 0.913 2.15694585862e-38
-0.0152070299155 -0.0557591096901 0.913 2.22148279952e-38
-0.01354697079 -0.0558812545087 0.915 2.2031152799e-38
-0.0118535994412 -0.0558812545087 0.915 2.24921309483e-38
-0.0101935403157 -0.0560644717366 0.918 2.21229868938e-38
-0.00849461692979 -0.0560644717366 0.918 2.2398491981e-38
-0.00679569354383 -0.0560644717366 0.918 2.19375138317e-38
-0.00509677015787 -0.0560644717366 0.918 2.22133846578e-38
-0.00339784677192 -0.0560644717366 0.918 2.28576792709e-38
-0.00169892338596 -0.0560644717366 0.918 2.30420733332e-38
0.0 -0.0560644717366 0.918 2.19357201697e-38
0.00169892338596 -0.0560644717366 0.918 2.22126643904e-38
0.00339784677192 -0.0560644717366 0.918 2.29502266267e-38
0.00509677015787 -0.0560644717366 0.918 2.20282675254e-38
0.00679569354383 -0.0560644717366 0.918 2.32271666435e-38
0.00851312372049 -0.0561866165552 0.92 2.26736369345e-38
0.0102157484646 -0.0561866165552 0.92 2.25814441072e-38
0.0119183732087 -0.0561866165552 0.92 2.29502294293e-38
0.0136209979528 -0.0561866165552 0.92 2.20289947993e-38
0.0153735910318 -0.0563698337831 0.923 2.22133860591e-38
0.0170817678131 -0.0563698337831 0.923 2.2028993398e-38
0.0187899445944 -0.0563698337831 0.923 2.19367977682e-38
0.0204981213757 -0.0563698337831 0.923 2.17527624383e-38
0.022206298157 -0.0563698337831 0.923 2.18449580681e-38
0.0239662939522 -0.0564919786017 0.925 2.17527596357e-38
0.0256781720917 -0.0564919786017 0.925 2.2213737785e-38
0.0273900502311 -0.0564919786017 0.925 2.1476538485e-38
0.0291019283706 -0.0564919786017 0.925 2.1476538485e-38
0.03081380651 -0.0564919786017 0.925 2.23984947836e-38
0.0325256846495 -0.0564919786017 0.925 2.24906904135e-38
0.0342375627889 -0.0564919786017 0.925 2.11077559655e-38
0.0359494409284 -0.0564919786017 0.925 2.1476538485e-38
0.0376613190678 -0.0564919786017 0.925 2.1476538485e-38
0.0393731972073 -0.0564919786017 0.925 2.16609297447e-38
0.0410850753467 -0.0564919786017 0.925 2.21208190851e-38
0.0427969534861 -0.0564919786017 0.925 2.23052103448e-38
0.0445088316256 -0.0564919786017 0.925 2.23970528475e-38
0.046220709765 -0.0564919786017 0.925 2.1106316832e-38
0.0479325879045 -0.0564919786017 0.925 2.11981551308e-38
0.0496444660439 -0.0564919786017 0.925 2.16594906112e-38
0.0513563441834 -0.0564919786017 0.925 2.16594878086e-38
0.0530682223228 -0.0564919786017 0.925 2.16598409358e-38
0.0547801004623 -0.0564919786017 0.925 2.15672949813e-38
0.0563698337831 -0.0563698337831 0.923 2.14750993515e-38
0.0577633951226 -0.0560644717366 0.918 2.11985068567e-38
0.0592679972062 -0.0558812545087 0.915 2.12910584163e-38
0.060961368555 -0.0558812545087 0.915 2.0645687606e-38
0.0625177896526 -0.0557591096901 0.913 2.1659485006e-38
0.0639964822292 -0.0555758924622 0.91 2.16594878086e-38
0.0655362472152 -0.0554537476436 0.908 2.17513289099e-38
0.0670686094849 -0.055331602825 0.906 2.15683711785e-38
0.068745324722 -0.055331602825 0.906 2.20293465253e-38
0.0701888543963 -0.0551483855971 0.903 2.21215421551e-38
0.0714621215963 -0.0548430235506 0.898 2.23062963512e-38
0.0729611716427 -0.054720878732 0.896 2.14765356824e-38
0.0742029772985 -0.0544155166855 0.891 2.12932262251e-38
0.0756816698751 -0.0542933718669 0.889 2.18464000043e-38
0.0773269235681 -0.0542933718669 0.889 2.14776174848e-38
0.0787945120703 -0.0541712270483 0.887 2.18471104626e-38
0.0804360644051 -0.0541712270483 0.887 2.16627220054e-38
0.0820776167399 -0.0541712270483 0.887 2.21219092953e-38
0.0835303998096 -0.0540490822297 0.885 2.12917954993e-38
0.0848795448514 -0.0538658650018 0.882 2.12917954993e-38
0.0865118437908 -0.0538658650018 0.882 2.11077573668e-38
0.0879442693908 -0.0537437201832 0.88 2.35066318001e-38
0.0895728669721 -0.0537437201832 0.88 2.22169635741e-38
-0.0415477451141 -0.0531811137461 0.898 2.22184335361e-38
-0.0398858353096 -0.0531811137461 0.898 2.85305908765e-39
-0.038223925505 -0.0531811137461 0.898 2.35059395587e-38
-0.036684160519 -0.0533587789368 0.901 2.05578205871e-38
-0.0350944271982 -0.0534772223972 0.903 2.10166617563e-38
-0.0334232639983 -0.0534772223972 0.903 2.12910948501e-38
-0.0317521007983 -0.0534772223972 0.903 2.21208190851e-38
-0.0300809375984 -0.0534772223972 0.903 2.16602108786e-38
-0.0284097743985 -0.0534772223972 0.903 2.18446161513e-38
-0.026827443794 -0.0536548875879 0.906 2.15687355161e-38
-0.0251507285568 -0.0536548875879 0.906 2.22141035239e-38
-0.0234740133197 -0.0536548875879 0.906 2.18453210044e-38
-0.0217972980826 -0.0536548875879 0.906 2.11077559655e-38
-0.0201649991431 -0.0537733310484 0.908 2.26750816732e-38
-0.0185863698967 -0.0540694396995 0.913 2.16609297447e-38
-0.0168966999061 -0.0540694396995 0.913 2.20297122642e-38
-0.0152070299155 -0.0540694396995 0.913 2.21219092953e-38
-0.01354697079 -0.05418788316 0.915 2.18449720811e-38
-0.0118535994412 -0.05418788316 0.915 2.26747327499e-38
-0.0101935403157 -0.0543655483507 0.918 2.14765398863e-38
-0.00849461692979 -0.0543655483507 0.918 2.21222610212e-38
-0.00679569354383 -0.0543655483507 0.918 2.1661278668e-38
-0.00509677015787 -0.0543655483507 0.918 2.15690844395e-38
-0.00339784677192 -0.0543655483507 0.918 2.13843400525e-38
-0.00169892338596 -0.0543655483507 0.918 2.35041234759e-38
0.0 -0.0543655483507 0.918 2.21226351679e-38
0.00169892338596 -0.0543655483507 0.918 2.19382439082e-38
0.00339784677192 -0.0543655483507 0.918 2.21219092953e-38
0.00509677015787 -0.0543655483507 0.918 2.25821671772e-38
0.00679569354383 -0.0543655483507 0.918 2.10141155969e-38
0.00851312372049 -0.0544839918111 0.92 2.28576652579e-38
0.0102157484646 -0.0544839918111 0.92 2.13825337788e-38
0.0119183732087 -0.0544839918111 0.92 2.18431517944e-38
0.0136209979528 -0.0544839918111 0.92 2.19360775008e-38
0.0153735910318 -0.0546616570018 0.923 2.18446021383e-38
0.0170817678131 -0.0546616570018 0.923 2.23055802876e-38
0.0187899445944 -0.0546616570018 0.923 2.22133846578e-38
0.0204981213757 -0.0546616570018 0.923 2.2582523107e-38
0.0222544158128 -0.0547801004623 0.925 2.15683711785e-38
0.0239662939522 -0.0547801004623 0.925 2.11995858565e-38
0.0256781720917 -0.0547801004623 0.925 2.23059334149e-38
0.0273900502311 -0.0547801004623 0.925 2.25821671772e-38
0.0291019283706 -0.0547801004623 0.925 2.2950951098e-38
0.0309137431798 -0.054957765653 0.928 2.10148428709e-38
0.0326311733564 -0.054957765653 0.928 2.11070385007e-38
0.0342375627889 -0.0547801004623 0.925 2.27665598383e-38
0.0359494409284 -0.0547801004623 0.925 2.24899729487e-38
0.0376613190678 -0.0547801004623 0.925 2.20289947993e-38
0.0393731972073 -0.0547801004623 0.925 2.17524079098e-38
0.0410850753467 -0.0547801004623 0.925 2.24899729487e-38
0.0427969534861 -0.0547801004623 0.925 2.14758196189e-38
0.0445088316256 -0.0547801004623 0.925 2.1937153698e-38
0.046220709765 -0.0547801004623 0.925 2.12917814864e-38
0.0479325879045 -0.0547801004623 0.925 2.0830803337e-38
0.0496444660439 -0.0547801004623 0.925 2.14761727461e-38
0.0513563441834 -0.0547801004623 0.925 2.11995858565e-38
0.0530682223228 -0.0547801004623 0.925 2.27669115642e-38
0.0547801004623 -0.0547801004623 0.925 1.96319084229e-38
0.0563698337831 -0.0546616570018 0.923 2.15672949813e-38
0.0577633951226 -0.0543655483507 0.918 2.23037782178e-38
0.0592679972062 -0.05418788316 0.915 2.02743897558e-38
0.060961368555 -0.05418788316 0.915 2.17498743621e-38
0.0625177896526 -0.0540694396995 0.913 2.15665649048e-38
0.0639964822292 -0.0538917745088 0.91 2.147473081e-38
0.0655362472152 -0.0537733310484 0.908 2.29502266267e-38
0.0672166638105 -0.0537733310484 0.908 2.11073930292e-38
0.068745324722 -0.0536548875879 0.906 2.10151973994e-38
0.0701888543963 -0.0534772223972 0.903 2.1937153698e-38
0.0717008591963 -0.0533587789368 0.901 2.11995886591e-38
0.0731240314008 -0.0531811137461 0.898 2.1937153698e-38
0.0742029772985 -0.0527665616345 0.891 2.13839799188e-38
0.0756816698751 -0.052648118174 0.889 2.17527624383e-38
0.0773269235681 -0.052648118174 0.889 2.18449580681e-38
0.0787945120703 -0.0525296747135 0.887 2.16612800693e-38
0.0804360644051 -0.0525296747135 0.887 2.13846959823e-38
0.0818925488329 -0.0524112312531 0.885 2.16609269421e-38
0.0835303998096 -0.0524112312531 0.885 2.19375166343e-38
0.0848795448514 -0.0522335660624 0.882 2.1660931146e-38
0.0861194998281 -0.0519966791415 0.878 2.13843442564e-38
0.0877443960512 -0.0519966791415 0.878 2.11999515954e-38
0.0895728669721 -0.0521151226019 0.88 2.35066416092e-38
-0.0400190842026 -0.051691317095 0.901 6.42900321149e-40
-0.0383516223608 -0.051691317095 0.901 2.35073744883e-38
-0.036684160519 -0.051691317095 0.901 2.1480477535e-38
-0.0350944271982 -0.0518060591973 0.903 1.89897676055e-38
-0.0334232639983 -0.0518060591973 0.903 2.17520687955e-38
-0.0317521007983 -0.0518060591973 0.903 2.22116078113e-38
-0.0300809375984 -0.0518060591973 0.903 2.14761699435e-38
-0.0284097743985 -0.0518060591973 0.903 2.20311415886e-38
-0.026827443794 -0.0519781723508 0.906 2.18453210044e-38
-0.0251507285568 -0.0519781723508 0.906 2.19375166343e-38
-0.0234740133197 -0.0519781723508 0.906 2.16609297447e-38
-0.0217972980826 -0.0519781723508 0.906 2.17531253746e-38
-0.0201649991431 -0.0520929144531 0.908 2.22141035239e-38
-0.0185863698967 -0.0523797697089 0.913 2.19375166343e-38
-0.0168966999061 -0.0523797697089 0.913 2.17531253746e-38
-0.0152070299155 -0.0523797697089 0.913 2.2121907894e-38
-0.01354697079 -0.0524945118112 0.915 2.23981458603e-38
-0.0118535994412 -0.0524945118112 0.915 2.23059502304e-38
-0.0101935403157 -0.0526666249647 0.918 2.25828860433e-38
-0.00849461692979 -0.0526666249647 0.918 2.24910407381e-38
-0.00679569354383 -0.0526666249647 0.918 2.21226127472e-38
-0.00509677015787 -0.0526666249647 0.918 2.23066480771e-38
-0.00339784677192 -0.0526666249647 0.918 2.17534785018e-38
-0.00169892338596 -0.0526666249647 0.918 2.17531253746e-38
0.0 -0.0526666249647 0.918 2.23992220575e-38
0.00169892338596 -0.0526666249647 0.918 2.21226351679e-38
0.00339784677192 -0.0526666249647 0.918 2.22137489954e-38
0.00509677015787 -0.0526666249647 0.918 2.25821671772e-38
0.00679569354383 -0.0526666249647 0.918 2.16605668084e-38
0.00851312372049 -0.052781367067 0.92 2.12910584163e-38
0.0102157484646 -0.052781367067 0.92 2.23044900774e-38
0.0119183732087 -0.052781367067 0.92 2.2581076967e-38
0.0136654142505 -0.0529534802205 0.923 2.21204659579e-38
0.0153735910318 -0.0529534802205 0.923 2.2028993398e-38
