# .PCD v0.7 - Point Cloud Data file format
VERSION 0.7
FIELDS x y z rgb
SIZE 4 4 4 4
TYPE F F F F
COUNT 1 1 1 1
WIDTH 841
HEIGHT 1
VIEWPOINT 0 0 0 1 0 0 0
POINTS 841
DATA ascii
-0.0153236226969 -0.0851312372049 0.92 2.02805092262e-38
-0.0136209979528 -0.0851312372049 0.92 1.98188234212e-38
-0.0119183732087 -0.0851312372049 0.92 2.07400636563e-38
-0.0102490606878 -0.0854088390653 0.923 1.97259089252e-38
-0.00854088390653 -0.0854088390653 0.923 2.02794386342e-38
-0.00683270712523 -0.0854088390653 0.923 2.08318907446e-38
-0.00512453034392 -0.0854088390653 0.923 2.02790742966e-38
-0.00342375627889 -0.0855939069723 0.925 2.05556583836e-38
-0.00171187813945 -0.0855939069723 0.925 2.06478512108e-38
0.0 -0.0858715088327 0.928 2.00035664068e-38
0.00171743017665 -0.0858715088327 0.928 2.03716314614e-38
0.00343486035331 -0.0858715088327 0.928 2.05553066577e-38
0.00515229052996 -0.0858715088327 0.928 1.99088610514e-38
0.00688452613918 -0.0860565767397 0.93 2.04620376332e-38
0.00860565767397 -0.0860565767397 0.93 1.99095841214e-38
0.010360101432 -0.0863341786002 0.933 2.000250142e-38
0.012086785004 -0.0863341786002 0.933 2.03716440731e-38
0.0138430794411 -0.0865192465071 0.935 1.98191751471e-38
0.0155734643713 -0.0865192465071 0.935 1.95429441873e-38
0.0173038493014 -0.0865192465071 0.935 2.02794344303e-38
0.0190953066409 -0.0867968483676 0.938 2.02794344303e-38
0.0208312436082 -0.0867968483676 0.938 2.07404125796e-38
0.0225671805756 -0.0867968483676 0.938 2.120102499e-38
0.0243031175429 -0.0867968483676 0.938 2.00950333615e-38
0.0260390545103 -0.0867968483676 0.938 1.9818442268e-38
0.0278342132079 -0.0869819162745 0.94 2.04631082252e-38
0.0295738515333 -0.0869819162745 0.94 2.05553066577e-38
0.0314134265286 -0.087259518135 0.943 2.03709125953e-38
0.0331586168913 -0.087259518135 0.943 2.0002487407e-38
0.034903807254 -0.087259518135 0.943 2.06478540134e-38
0.0366489976167 -0.087259518135 0.943 2.00946830368e-38
0.0383941879794 -0.087259518135 0.943 1.9909934446e-38
0.0401393783421 -0.087259518135 0.943 1.97255459889e-38
0.0417513198118 -0.0869819162745 0.94 1.90808926434e-38
0.0434909581373 -0.0869819162745 0.94 2.07404139809e-38
0.0451343611511 -0.0867968483676 0.938 1.90808926434e-38
0.0468702981185 -0.0867968483676 0.938 1.95418707927e-38
0.0486062350858 -0.0867968483676 0.938 1.90808926434e-38
0.0503421720532 -0.0867968483676 0.938 2.03709125953e-38
0.0520781090205 -0.0867968483676 0.938 1.94489562967e-38
0.0538140459879 -0.0867968483676 0.938 2.01865213356e-38
0.0553723177646 -0.0865192465071 0.935 1.90812471719e-38
0.0569805578761 -0.0863341786002 0.933 1.90812471719e-38
0.058518472183 -0.0860565767397 0.93 1.96344181485e-38
0.0602396037178 -0.0860565767397 0.93 1.98180905421e-38
0.0618274863596 -0.0858715088327 0.928 1.95415064551e-38
0.0633394911595 -0.0855939069723 0.925 2.0370188124e-38
0.0650513692989 -0.0855939069723 0.925 2.00936012344e-38
0.0666188944709 -0.0854088390653 0.923 2.00936012344e-38
0.0683270712523 -0.0854088390653 0.923 2.09233647058e-38
0.069807614508 -0.0851312372049 0.92 2.10166365329e-38
0.0715102392521 -0.0851312372049 0.92 2.05549353136e-38
0.0730537055962 -0.0849461692979 0.918 2.01861499915e-38
0.074508339345 -0.0846685674374 0.915 1.99095631019e-38
0.0760351495774 -0.0844834995305 0.913 1.93556732592e-38
0.0774694258564 -0.08420589767 0.91 1.87103066528e-38
0.0789795799773 -0.0840208297631 0.908 2.18446021383e-38
0.0806599965725 -0.0840208297631 0.908 2.35091583412e-38
-0.0318575895053 -0.082159046619 0.906 2.35095114685e-38
-0.0301808742682 -0.082159046619 0.906 1.79741611292e-38
-0.0285041590311 -0.082159046619 0.906 1.75117354386e-38
-0.0269458872544 -0.0825217797166 0.91 2.29527223392e-38
-0.0252062489289 -0.0823404131678 0.908 2.12928492758e-38
-0.0235258323337 -0.0823404131678 0.908 2.15698075095e-38
-0.0218935333942 -0.0825217797166 0.91 2.01865213356e-38
-0.020320456185 -0.0829751960887 0.915 2.04634739641e-38
-0.0186881572455 -0.0832472459119 0.918 2.11095594367e-38
-0.017026247441 -0.0834286124608 0.92 1.9267081769e-38
-0.0153236226969 -0.0834286124608 0.92 2.04656207533e-38
-0.0136209979528 -0.0834286124608 0.92 2.05578163832e-38
-0.0119183732087 -0.0834286124608 0.92 2.10177183353e-38
-0.0102490606878 -0.083700662284 0.923 2.00957620367e-38
-0.00854088390653 -0.083700662284 0.923 2.07404139809e-38
-0.00683270712523 -0.083700662284 0.923 2.08318935472e-38
-0.00513563441834 -0.0838820288328 0.925 2.0462032028e-38
-0.00342375627889 -0.0838820288328 0.925 2.05542304604e-38
-0.00171187813945 -0.0838820288328 0.925 2.10144897436e-38
0.0 -0.0841540786561 0.928 2.0187603138e-38
0.00171743017665 -0.0841540786561 0.928 2.09244521134e-38
0.00343486035331 -0.0841540786561 0.928 2.04631138304e-38
0.00515229052996 -0.0841540786561 0.928 2.03691203346e-38
0.00688452613918 -0.0843354452049 0.93 2.02769275073e-38
0.00860565767397 -0.0843354452049 0.93 2.07386245228e-38
0.010360101432 -0.0846074950282 0.933 1.98181073576e-38
0.012112694511 -0.084788861577 0.935 2.03720000029e-38
0.0138430794411 -0.084788861577 0.935 2.01883107937e-38
0.0155734643713 -0.084788861577 0.935 2.00964696924e-38
0.0173593696735 -0.0850609114002 0.938 2.09251569665e-38
0.0190953066409 -0.0850609114002 0.938 1.97266165809e-38
0.0208312436082 -0.0850609114002 0.938 2.04641816198e-38
0.0225671805756 -0.0850609114002 0.938 2.00024818018e-38
0.0243031175429 -0.0850609114002 0.938 1.93574669213e-38
0.0260945748824 -0.085242277949 0.94 1.95418553784e-38
0.0278342132079 -0.085242277949 0.94 2.04631082252e-38
0.0296682361659 -0.0855143277723 0.943 2.073970072e-38
0.0314134265286 -0.0855143277723 0.943 2.03709125953e-38
0.0331586168913 -0.0855143277723 0.943 2.02790742966e-38
0.034903807254 -0.0855143277723 0.943 2.09244381004e-38
0.0366489976167 -0.0855143277723 0.943 2.08322424706e-38
0.0383941879794 -0.0855143277723 0.943 2.00946802343e-38
0.0401393783421 -0.0855143277723 0.943 2.00946830368e-38
0.0417513198118 -0.085242277949 0.94 2.04645459574e-38
0.0434909581373 -0.085242277949 0.94 1.94511170989e-38
0.0451343611511 -0.0850609114002 0.938 1.93578424692e-38
0.0468702981185 -0.0850609114002 0.938 2.11091993029e-38
0.0486062350858 -0.0850609114002 0.938 2.03709153979e-38
0.0503421720532 -0.0850609114002 0.938 1.96322713592e-38
0.0520781090205 -0.0850609114002 0.938 1.94478800995e-38
0.0538140459879 -0.0850609114002 0.938 2.02776407682e-38
0.0553723177646 -0.084788861577 0.935 1.86195473538e-38
0.0569805578761 -0.0846074950282 0.933 2.02797847549e-38
0.058518472183 -0.0843354452049 0.93 1.96344153459e-38
0.0602396037178 -0.0843354452049 0.93 1.98180905421e-38
0.0618274863596 -0.0841540786561 0.928 2.06478540134e-38
0.0633394911595 -0.0838820288328 0.925 2.01857996669e-38
0.0650513692989 -0.0838820288328 0.925 1.96326258877e-38
0.0666188944709 -0.083700662284 0.923 2.04623865565e-38
0.0683270712523 -0.083700662284 0.923 1.98177388162e-38
0.069807614508 -0.0834286124608 0.92 1.97262606511e-38
0.0715102392521 -0.0834286124608 0.92 1.93571123927e-38
0.0730537055962 -0.0832472459119 0.918 2.01861499915e-38
0.074508339345 -0.0829751960887 0.915 1.95400617164e-38
0.0760351495774 -0.0827938295399 0.913 2.03687461879e-38
0.0774694258564 -0.0825217797166 0.91 1.98148563452e-38
0.0789795799773 -0.0823404131678 0.908 2.03673154622e-38
0.0806599965725 -0.0823404131678 0.908 1.91712848021e-38
-0.0398858353096 -0.0797716706191 0.898 2.32332987256e-38
-0.038223925505 -0.0797716706191 0.898 2.32332987256e-38
-0.0365620157004 -0.0797716706191 0.898 2.32329315854e-38
-0.0349001058959 -0.0797716706191 0.898 2.35098730035e-38
-0.0332381960913 -0.0797716706191 0.898 1.83454729924e-38
-0.0317521007983 -0.0802158335958 0.903 1.67767081512e-38
-0.0301808742682 -0.0804823313819 0.906 2.19389459587e-38
-0.0285041590311 -0.0804823313819 0.906 2.08315194006e-38
-0.0268866655242 -0.0806599965725 0.908 2.1661278668e-38
-0.0252062489289 -0.0806599965725 0.908 2.05560115108e-38
-0.0235258323337 -0.0806599965725 0.908 2.10166365329e-38
-0.0218454157384 -0.0806599965725 0.908 2.04638270913e-38
-0.020320456185 -0.08128182474 0.915 2.01868870745e-38
-0.0186881572455 -0.081548322526 0.918 1.98188206186e-38
-0.0169892338596 -0.081548322526 0.918 2.03734293274e-38
-0.0153236226969 -0.0817259877167 0.92 2.05578163832e-38
-0.0136209979528 -0.0817259877167 0.92 2.02797987679e-38
-0.0119183732087 -0.0817259877167 0.92 2.02798015705e-38
-0.0102490606878 -0.0819924855027 0.923 2.0187603138e-38
-0.00854088390653 -0.0819924855027 0.923 2.03723503276e-38
-0.00684751255778 -0.0821701506934 0.925 2.00035678081e-38
-0.00513563441834 -0.0821701506934 0.925 2.0371634264e-38
-0.00342375627889 -0.0821701506934 0.925 2.06478680264e-38
-0.00171187813945 -0.0821701506934 0.925 2.06478680264e-38
0.0 -0.0824366484794 0.928 1.95418834044e-38
0.00171743017665 -0.0824366484794 0.928 2.04641900276e-38
0.00343486035331 -0.0824366484794 0.928 1.93578312589e-38
0.00516339460438 -0.0826143136701 0.93 2.1017355399e-38
0.00690673428801 -0.0828808114561 0.933 2.04634739641e-38
0.00863341786002 -0.0828808114561 0.933 2.02787309785e-38
0.010360101432 -0.0828808114561 0.933 1.97262746641e-38
0.012112694511 -0.0830584766468 0.935 2.08333270756e-38
0.0138430794411 -0.0830584766468 0.935 2.00961151639e-38
0.0155734643713 -0.0830584766468 0.935 2.06492889431e-38
0.0173593696735 -0.0833249744329 0.938 1.99117267067e-38
0.0190953066409 -0.0833249744329 0.938 2.01879576665e-38
0.0208312436082 -0.0833249744329 0.938 1.90816101082e-38
0.0225671805756 -0.0833249744329 0.938 1.99113707769e-38
0.0243031175429 -0.0833249744329 0.938 2.046382569e-38
0.0260945748824 -0.0835026396236 0.94 2.03716300601e-38
0.0278342132079 -0.0835026396236 0.94 2.10166505459e-38
0.0296682361659 -0.0837691374096 0.943 2.00946970498e-38
0.0315133631984 -0.0840356351956 0.946 2.01868898771e-38
0.0332641055983 -0.0840356351956 0.946 2.07400636563e-38
0.0350148479982 -0.0840356351956 0.946 2.00946914446e-38
0.0367655903981 -0.0840356351956 0.946 1.91730882732e-38
0.0383941879794 -0.0837691374096 0.943 1.97262606511e-38
0.0401393783421 -0.0837691374096 0.943 2.00032006679e-38
0.0418845687048 -0.0837691374096 0.943 1.95415176655e-38
0.0434909581373 -0.0835026396236 0.94 1.93571264057e-38
0.0452305964628 -0.0835026396236 0.94 1.81589391473e-38
0.0468702981185 -0.0833249744329 0.938 2.05560213199e-38
0.0486062350858 -0.0833249744329 0.938 1.9265635629e-38
0.0503421720532 -0.0833249744329 0.938 2.06485700769e-38
0.0520781090205 -0.0833249744329 0.938 1.82507648344e-38
0.0538140459879 -0.0833249744329 0.938 2.00024818018e-38
0.0553723177646 -0.0830584766468 0.935 1.9909934446e-38
0.0571027026947 -0.0830584766468 0.935 2.00021300759e-38
0.0587072414481 -0.0828808114561 0.933 1.94493136278e-38
0.0602396037178 -0.0826143136701 0.93 2.08322452732e-38
0.0618274863596 -0.0824366484794 0.928 2.00024846044e-38
0.0635449165362 -0.0824366484794 0.928 2.00946830368e-38
0.0650513692989 -0.0821701506934 0.925 2.03709153979e-38
0.0666188944709 -0.0819924855027 0.923 1.98173884915e-38
0.0683270712523 -0.0819924855027 0.923 2.00943313109e-38
0.069807614508 -0.0817259877167 0.92 1.93567634694e-38
0.0715102392521 -0.0817259877167 0.92 1.9909934446e-38
0.0730537055962 -0.081548322526 0.918 1.93571151953e-38
0.074508339345 -0.08128182474 0.915 1.99092099747e-38
0.0760351495774 -0.0811041595493 0.913 2.00014084072e-38
0.0774694258564 -0.0808376617632 0.91 1.94482360293e-38
0.0789795799773 -0.0806599965725 0.908 2.11995998695e-38
0.0806599965725 -0.0806599965725 0.908 1.97251746448e-38
0.0823404131678 -0.0806599965725 0.908 2.04627579006e-38
-0.0398858353096 -0.0781097608145 0.898 2.35095268827e-38
-0.038223925505 -0.0781097608145 0.898 2.35091681503e-38
-0.0365620157004 -0.0781097608145 0.898 2.22173419246e-38
-0.0349001058959 -0.0781097608145 0.898 1.73313252678e-38
-0.0332381960913 -0.0781097608145 0.898 2.0280503621e-38
-0.0317521007983 -0.0785446703959 0.903 2.13861323133e-38
-0.0301808742682 -0.0788056161447 0.906 2.14783335483e-38
-0.0285041590311 -0.0788056161447 0.906 2.0002848942e-38
-0.0268866655242 -0.0789795799773 0.908 2.07400468407e-38
-0.0252062489289 -0.0789795799773 0.908 1.98180905421e-38
-0.0235258323337 -0.0789795799773 0.908 2.03716300601e-38
-0.0218454157384 -0.0789795799773 0.908 2.04638298939e-38
-0.020320456185 -0.0795884533912 0.915 2.14783419561e-38
-0.0186881572455 -0.07984939914 0.918 1.9542233729e-38
-0.0169892338596 -0.07984939914 0.918 2.0650016217e-38
-0.0153236226969 -0.0800233629726 0.92 1.99124497768e-38
-0.0136209979528 -0.0800233629726 0.92 2.0095763438e-38
-0.0119183732087 -0.0800233629726 0.92 1.97269809185e-38
-0.0102490606878 -0.0802843087214 0.923 2.07411314457e-38
-0.00854088390653 -0.0802843087214 0.923 1.96351398172e-38
-0.00684751255778 -0.0804582725539 0.925 2.02805092262e-38
-0.00513563441834 -0.0804582725539 0.925 2.09255227054e-38
-0.00342375627889 -0.0804582725539 0.925 2.03723503276e-38
-0.00171743017665 -0.0807192183028 0.928 2.05563856575e-38
0.0 -0.0807192183028 0.928 2.00950571835e-38
0.00171743017665 -0.0807192183028 0.928 2.09251681769e-38
0.00344226306959 -0.0808931821353 0.93 2.09258730301e-38
0.00516339460438 -0.0808931821353 0.93 2.0280503621e-38
0.00690673428801 -0.0811541278841 0.933 1.9265649642e-38
0.00863341786002 -0.0811541278841 0.933 2.0648232364e-38
0.0103823095809 -0.0813280917167 0.935 2.04641956328e-38
0.012112694511 -0.0813280917167 0.935 2.02805064236e-38
0.0138430794411 -0.0813280917167 0.935 1.97273326444e-38
0.0155734643713 -0.0813280917167 0.935 2.05570961158e-38
0.0173593696735 -0.0815890374655 0.938 2.09258786352e-38
0.0190953066409 -0.0815890374655 0.938 2.10177183353e-38
0.0208312436082 -0.0815890374655 0.938 2.03723503276e-38
0.0225671805756 -0.0815890374655 0.938 2.04645459574e-38
0.0243549365569 -0.0817630012981 0.94 2.05563856575e-38
0.0260945748824 -0.0817630012981 0.94 2.08329725471e-38
0.0278342132079 -0.0817630012981 0.94 2.00028475407e-38
0.0296682361659 -0.0820239470469 0.943 2.08326082095e-38
0.0315133631984 -0.0822848927957 0.946 2.00950473744e-38
0.0332641055983 -0.0822848927957 0.946 2.08322564835e-38
0.0350148479982 -0.0822848927957 0.946 1.98181073576e-38
0.0367655903981 -0.0822848927957 0.946 2.00024986174e-38
0.0383941879794 -0.0820239470469 0.943 2.11088433731e-38
0.0401393783421 -0.0820239470469 0.943 1.98184604849e-38
0.0418845687048 -0.0820239470469 0.943 1.97259117278e-38
0.0434909581373 -0.0817630012981 0.94 2.01868870745e-38
0.0452305964628 -0.0817630012981 0.94 1.93574795329e-38
0.0469702347883 -0.0817630012981 0.94 2.04641816198e-38
0.0486062350858 -0.0815890374655 0.938 1.94500240861e-38
0.0503421720532 -0.0815890374655 0.938 2.11095454237e-38
0.0520781090205 -0.0815890374655 0.938 1.88046546771e-38
0.0536419328344 -0.0813280917167 0.935 1.98188094082e-38
0.0553723177646 -0.0813280917167 0.935 2.00943285083e-38
0.0571027026947 -0.0813280917167 0.935 2.01865241382e-38
0.0587072414481 -0.0811541278841 0.933 1.9909934446e-38
0.0602396037178 -0.0808931821353 0.93 2.0279071494e-38
0.0618274863596 -0.0807192183028 0.928 1.99102917771e-38
0.0635449165362 -0.0807192183028 0.928 1.95411519266e-38
0.0650513692989 -0.0804582725539 0.925 1.95411575318e-38
0.0666188944709 -0.0802843087214 0.923 1.98173884915e-38
0.0683270712523 -0.0802843087214 0.923 1.98177444213e-38
0.069807614508 -0.0800233629726 0.92 2.00943285083e-38
0.0715102392521 -0.0800233629726 0.92 2.09240863745e-38
0.0730537055962 -0.07984939914 0.918 1.96337020849e-38
0.074508339345 -0.0795884533912 0.915 2.03712643212e-38
0.0760351495774 -0.0794144895587 0.913 1.96337048875e-38
0.077724819568 -0.0794144895587 0.913 2.03709125953e-38
0.0789795799773 -0.0789795799773 0.908 1.99099372486e-38
0.0806599965725 -0.0789795799773 0.908 1.98180905421e-38
0.0823404131678 -0.0789795799773 0.908 1.96326455059e-38
-0.0398858353096 -0.07644785101 0.898 2.35084506855e-38
-0.0381387942678 -0.0762775885356 0.896 1.25346525984e-38
-0.0364805858214 -0.0762775885356 0.896 2.06482211536e-38
-0.0349001058959 -0.07644785101 0.898 2.14783335483e-38
-0.0333492368355 -0.0767032447216 0.901 2.09251597691e-38
-0.0317521007983 -0.076873507196 0.903 2.05570961158e-38
-0.0301808742682 -0.0771289009076 0.906 2.04645459574e-38
-0.0285041590311 -0.0771289009076 0.906 1.98188234212e-38
-0.026827443794 -0.0771289009076 0.906 2.11095510289e-38
-0.0252062489289 -0.077299163382 0.908 2.06485728795e-38
-0.0235258323337 -0.077299163382 0.908 2.06482169497e-38
-0.0218454157384 -0.077299163382 0.908 2.0187603138e-38
-0.020320456185 -0.0778950820425 0.915 2.04641900276e-38
-0.0186881572455 -0.0781504757541 0.918 2.04641900276e-38
-0.0169892338596 -0.0781504757541 0.918 2.04656249572e-38
-0.0153236226969 -0.0783207382285 0.92 2.02812336975e-38
-0.0136209979528 -0.0783207382285 0.92 2.08333270756e-38
-0.0119183732087 -0.0783207382285 0.92 2.08336830054e-38
-0.0102490606878 -0.0785761319401 0.923 2.07414845729e-38
-0.00854088390653 -0.0785761319401 0.923 2.01883079911e-38
-0.00684751255778 -0.0787463944145 0.925 2.03726992509e-38
-0.00513563441834 -0.0787463944145 0.925 2.04648948807e-38
-0.00342375627889 -0.0787463944145 0.925 2.10180714625e-38
-0.00171743017665 -0.0790017881261 0.928 2.06492917457e-38
0.0 -0.0790017881261 0.928 2.05563912627e-38
0.00171743017665 -0.0790017881261 0.928 2.00954075082e-38
0.00344226306959 -0.0791720506005 0.93 1.99117239042e-38
0.00516339460438 -0.0791720506005 0.93 2.03727020535e-38
0.00690673428801 -0.0794274443121 0.933 2.08333284769e-38
0.00863341786002 -0.0794274443121 0.933 1.98188234212e-38
0.0103823095809 -0.0795977067866 0.935 2.02801546977e-38
0.012112694511 -0.0795977067866 0.935 2.1018425991e-38
0.0138430794411 -0.0795977067866 0.935 2.04648976833e-38
0.0155734643713 -0.0795977067866 0.935 2.07414873755e-38
0.0173593696735 -0.0798531004982 0.938 2.07411314457e-38
0.0190953066409 -0.0798531004982 0.938 1.99113707769e-38
0.0208312436082 -0.0798531004982 0.938 2.06489372171e-38
0.0226152982314 -0.0800233629726 0.94 2.05567415873e-38
0.0243549365569 -0.0800233629726 0.94 2.06489372171e-38
0.0260945748824 -0.0800233629726 0.94 2.00035678081e-38
0.0279230458032 -0.0802787566842 0.943 1.90815960952e-38
0.0296682361659 -0.0802787566842 0.943 2.10177043223e-38
0.0315133631984 -0.0805341503958 0.946 2.0187589125e-38
0.0332641055983 -0.0805341503958 0.946 2.07404139809e-38
0.0350148479982 -0.0805341503958 0.946 1.9818104555e-38
0.0367655903981 -0.0805341503958 0.946 2.0647870829e-38
0.0383941879794 -0.0802787566842 0.943 2.04634795693e-38
0.0401393783421 -0.0802787566842 0.943 2.03712839394e-38
0.0418845687048 -0.0802787566842 0.943 2.00946914446e-38
0.0434909581373 -0.0800233629726 0.94 2.00950445719e-38
0.0451343611511 -0.0798531004982 0.938 1.91730868719e-38
0.0468702981185 -0.0798531004982 0.938 2.00953962978e-38
0.0486062350858 -0.0798531004982 0.938 2.02797875575e-38
0.0503421720532 -0.0798531004982 0.938 2.00953962978e-38
0.0520781090205 -0.0798531004982 0.938 1.94500296913e-38
0.0536419328344 -0.0795977067866 0.935 2.01872388004e-38
0.0553723177646 -0.0795977067866 0.935 2.00943285083e-38
0.0571027026947 -0.0795977067866 0.935 2.02787197681e-38
0.0587072414481 -0.0794274443121 0.933 2.02787169655e-38
0.0602396037178 -0.0791720506005 0.93 2.0002487407e-38
0.0618274863596 -0.0790017881261 0.928 1.99102917771e-38
0.0635449165362 -0.0790017881261 0.928 2.00946830368e-38
0.0650513692989 -0.0787463944145 0.925 2.00021300759e-38
0.0667632474384 -0.0787463944145 0.925 2.02787197681e-38
0.0683270712523 -0.0785761319401 0.923 2.03709125953e-38
0.0700352480336 -0.0785761319401 0.923 2.03712699264e-38
0.0715102392521 -0.0783207382285 0.92 2.05556583836e-38
0.0730537055962 -0.0781504757541 0.918 1.97258949122e-38
0.0747526289822 -0.0781504757541 0.918 2.05560115108e-38
0.0762017106937 -0.0778950820425 0.915 2.0555655581e-38
0.0778950820425 -0.0778950820425 0.915 1.96337020849e-38
0.0791535438098 -0.0774694258564 0.91 2.05556611862e-38
0.0806599965725 -0.077299163382 0.908 2.00028377316e-38
0.0823404131678 -0.077299163382 0.908 2.06471533642e-38
0.0840208297631 -0.077299163382 0.908 2.120102499e-38
-0.0398858353096 -0.0747859412054 0.898 1.00446545286e-38
-0.0381387942678 -0.0746193800891 0.896 2.27662123162e-38
-0.0364805858214 -0.0746193800891 0.896 2.13839911292e-38
-0.0349001058959 -0.0747859412054 0.898 2.07396979174e-38
-0.0333492368355 -0.0750357828798 0.901 2.08326096108e-38
-0.0317521007983 -0.0752023439961 0.903 2.03723503276e-38
-0.0301808742682 -0.0754521856705 0.906 1.97277067911e-38
-0.0285041590311 -0.0754521856705 0.906 2.06496658923e-38
-0.026827443794 -0.0754521856705 0.906 2.10177183353e-38
-0.0252062489289 -0.0756187467868 0.908 2.08333270756e-38
-0.0235258323337 -0.0756187467868 0.908 2.10177183353e-38
-0.0218454157384 -0.0756187467868 0.908 2.12021109963e-38
-0.020320456185 -0.0762017106937 0.915 2.07407769172e-38
-0.0186881572455 -0.0764515523681 0.918 2.0187603138e-38
-0.0169892338596 -0.0764515523681 0.918 2.05574646573e-38
-0.0153236226969 -0.0766181134844 0.92 2.02808777677e-38
-0.0136209979528 -0.0766181134844 0.92 2.09255241067e-38
-0.0119183732087 -0.0766181134844 0.92 2.07411314457e-38
-0.0102490606878 -0.0768679551588 0.923 2.03727020535e-38
-0.00854088390653 -0.0768679551588 0.923 2.07414845729e-38
-0.00684751255778 -0.0770345162751 0.925 2.03727020535e-38
-0.00513563441834 -0.0770345162751 0.925 2.00961151639e-38
-0.00342375627889 -0.0770345162751 0.925 2.07414873755e-38
-0.00171743017665 -0.0772843579495 0.928 2.08333270756e-38
0.0 -0.0772843579495 0.928 2.00954103108e-38
0.00172113153479 -0.0774509190657 0.93 2.13861463262e-38
0.00344226306959 -0.0774509190657 0.93 2.00957620367e-38
0.00518005071601 -0.0777007607401 0.933 2.1110269895e-38
0.00692153972057 -0.0778673218564 0.935 2.00961179665e-38
0.00865192465071 -0.0778673218564 0.935 2.00035664068e-38
0.0103823095809 -0.0778673218564 0.935 2.01883107937e-38
0.012112694511 -0.0778673218564 0.935 2.05574478417e-38
0.0138430794411 -0.0778673218564 0.935 1.99117267067e-38
0.0156234327062 -0.0781171635308 0.938 2.06489358158e-38
0.0173593696735 -0.0781171635308 0.938 2.04645445561e-38
0.0190953066409 -0.0781171635308 0.938 2.07411314457e-38
0.0208312436082 -0.0781171635308 0.938 2.03723489263e-38
0.0226152982314 -0.0782837246471 0.94 2.01879590678e-38
0.0243549365569 -0.0782837246471 0.94 2.08333284769e-38
0.0261778554405 -0.0785335663215 0.943 2.06489372171e-38
0.0279230458032 -0.0785335663215 0.943 2.07411174327e-38
0.0296682361659 -0.0785335663215 0.943 2.10177043223e-38
0.0315133631984 -0.0787834079959 0.946 2.06485672744e-38
0.0332641055983 -0.0787834079959 0.946 1.93574781316e-38
0.0350148479982 -0.0787834079959 0.946 2.09248080432e-38
0.0367655903981 -0.0787834079959 0.946 2.04634739641e-38
0.0383941879794 -0.0785335663215 0.943 2.00024958148e-38
0.0401393783421 -0.0785335663215 0.943 1.96337132953e-38
0.0418845687048 -0.0785335663215 0.943 2.02794358316e-38
0.0434909581373 -0.0782837246471 0.94 1.96340650212e-38
0.0451343611511 -0.0781171635308 0.938 1.88046602823e-38
0.0468702981185 -0.0781171635308 0.938 1.9911005038e-38
0.0486062350858 -0.0781171635308 0.938 1.98188122108e-38
0.0503421720532 -0.0781171635308 0.938 2.02794344303e-38
0.0520781090205 -0.0781171635308 0.938 1.97262620524e-38
0.0536419328344 -0.0778673218564 0.935 1.94493220356e-38
0.0553723177646 -0.0778673218564 0.935 1.95411547292e-38
0.0569805578761 -0.0777007607401 0.933 2.02787197681e-38
0.0587072414481 -0.0777007607401 0.933 2.00021300759e-38
0.0602396037178 -0.0774509190657 0.93 2.03712699264e-38
0.0618274863596 -0.0772843579495 0.928 1.99102917771e-38
0.0635449165362 -0.0772843579495 0.928 2.04634655563e-38
0.0650513692989 -0.0770345162751 0.925 2.0002487407e-38
0.0667632474384 -0.0770345162751 0.925 2.03712699264e-38
0.0683270712523 -0.0768679551588 0.923 2.00946802343e-38
0.0700352480336 -0.0768679551588 0.923 2.00946774317e-38
0.0715102392521 -0.0766181134844 0.92 2.01872289913e-38
0.0730537055962 -0.0764515523681 0.918 2.01872289913e-38
0.0747526289822 -0.0764515523681 0.918 1.96340552121e-38
0.0762017106937 -0.0762017106937 0.915 2.03716202511e-38
0.0778950820425 -0.0762017106937 0.915 1.89886858031e-38
0.0794144895587 -0.0760351495774 0.913 2.02790686914e-38
0.0808376617632 -0.075785307903 0.91 2.00028363303e-38
0.0823404131678 -0.0756187467868 0.908 1.97251956643e-38
0.0840208297631 -0.0756187467868 0.908 2.00021300759e-38
0.0857012463583 -0.0756187467868 0.908 1.92656244186e-38
-0.0414552111606 -0.0729611716427 0.896 9.40106897252e-39
-0.0397970027142 -0.0729611716427 0.896 2.28584051435e-38
-0.0381387942678 -0.0729611716427 0.896 2.17520603877e-38
-0.0364805858214 -0.0729611716427 0.896 2.00010566813e-38
-0.0349001058959 -0.0731240314008 0.898 2.00943313109e-38
-0.0332381960913 -0.0731240314008 0.898 2.00946914446e-38
-0.0317521007983 -0.0735311807962 0.903 2.07407797198e-38
-0.0300809375984 -0.0735311807962 0.903 2.04652746326e-38
-0.0285041590311 -0.0737754704334 0.906 2.02812477105e-38
-0.026827443794 -0.0737754704334 0.906 2.09262471767e-38
-0.0252062489289 -0.0739383301915 0.908 2.0650016217e-38
-0.0235258323337 -0.0739383301915 0.908 2.00046468079e-38
-0.0218454157384 -0.0739383301915 0.908 2.00968424378e-38
-0.020320456185 -0.074508339345 0.915 2.00968424378e-38
-0.0186881572455 -0.0747526289822 0.918 1.93589214691e-38
-0.0169892338596 -0.0747526289822 0.918 2.09251709795e-38
-0.0153236226969 -0.0749154887403 0.92 2.05563884601e-38
-0.0136209979528 -0.0749154887403 0.92 2.11095650418e-38
-0.0119572374691 -0.0751597783775 0.923 2.03719972003e-38
-0.0102490606878 -0.0751597783775 0.923 2.05563856575e-38
-0.00854088390653 -0.0751597783775 0.923 2.04645459574e-38
-0.00684751255778 -0.0753226381356 0.925 2.08333284769e-38
-0.00513563441834 -0.0753226381356 0.925 2.07407769172e-38
-0.00342375627889 -0.0753226381356 0.925 2.04641928302e-38
-0.00171743017665 -0.0755669277728 0.928 2.07407825224e-38
0.0 -0.0757297875309 0.93 2.03719972003e-38
0.00172113153479 -0.0757297875309 0.93 2.07407797198e-38
0.00345336714401 -0.0759740771681 0.933 1.99110162484e-38
0.00519115479043 -0.0761369369263 0.935 2.12021109963e-38
0.00692153972057 -0.0761369369263 0.935 2.04649004859e-38
0.00865192465071 -0.0761369369263 0.935 1.94507457548e-38
0.0103823095809 -0.0761369369263 0.935 2.12024599196e-38
0.012112694511 -0.0761369369263 0.935 1.95429385821e-38
0.0138430794411 -0.0761369369263 0.935 2.03723489263e-38
0.0156234327062 -0.0763812265635 0.938 2.0095763438e-38
0.0173593696735 -0.0763812265635 0.938 1.99113721782e-38
0.0190953066409 -0.0763812265635 0.938 2.08333270756e-38
0.0208312436082 -0.0763812265635 0.938 2.04645445561e-38
0.0226152982314 -0.0765440863216 0.94 2.04645445561e-38
0.0243549365569 -0.0765440863216 0.94 1.93581969978e-38
0.0261778554405 -0.0767883759588 0.943 2.07411314457e-38
0.0279230458032 -0.0767883759588 0.943 1.9818456281e-38
0.0296682361659 -0.0767883759588 0.943 2.08326082095e-38
0.0315133631984 -0.077032665596 0.946 2.09248052406e-38
0.0332641055983 -0.077032665596 0.946 1.94496779654e-38
0.0350148479982 -0.077032665596 0.946 1.98184576823e-38
0.0367655903981 -0.077032665596 0.946 2.08326082095e-38
0.0383941879794 -0.0767883759588 0.943 2.00032006679e-38
0.0401393783421 -0.0767883759588 0.943 2.04645333457e-38
0.0418845687048 -0.0767883759588 0.943 2.04641816198e-38
0.0434909581373 -0.0765440863216 0.94 1.92656384316e-38
0.0451343611511 -0.0763812265635 0.938 1.98188094082e-38
0.0468702981185 -0.0763812265635 0.938 2.01875919276e-38
0.0486062350858 -0.0763812265635 0.938 1.99110078406e-38
0.0503421720532 -0.0763812265635 0.938 1.96340664225e-38
0.0520781090205 -0.0763812265635 0.938 2.01868870745e-38
0.0536419328344 -0.0761369369263 0.935 1.96337160979e-38
0.0553723177646 -0.0761369369263 0.935 2.00021328785e-38
0.0569805578761 -0.0759740771681 0.933 1.97255431863e-38
0.0587072414481 -0.0759740771681 0.933 2.00021300759e-38
0.0602396037178 -0.0757297875309 0.93 2.03709125953e-38
0.0618274863596 -0.0755669277728 0.928 2.0002487407e-38
0.0635449165362 -0.0755669277728 0.928 1.99102889745e-38
0.0650513692989 -0.0753226381356 0.925 2.08322452732e-38
0.0667632474384 -0.0753226381356 0.925 2.01868758641e-38
0.0683270712523 -0.0751597783775 0.923 2.10169896601e-38
0.0700352480336 -0.0751597783775 0.923 2.02794246212e-38
0.0715102392521 -0.0749154887403 0.92 2.04638158809e-38
0.0730537055962 -0.0747526289822 0.918 2.06482071406e-38
0.0747526289822 -0.0747526289822 0.918 1.98184464719e-38
0.0762017106937 -0.074508339345 0.915 2.19389459587e-38
0.0778950820425 -0.074508339345 0.915 2.01872289913e-38
0.0794144895587 -0.0743454795868 0.913 2.00028377316e-38
0.0811041595493 -0.0743454795868 0.913 2.0556726173e-38
0.0823404131678 -0.0739383301915 0.908 2.02790883096e-38
0.0840208297631 -0.0739383301915 0.908 2.0279085507e-38
0.0857012463583 -0.0739383301915 0.908 1.99113595666e-38
-0.0431134196071 -0.0713029631963 0.896 2.1202109595e-38
-0.0414552111606 -0.0713029631963 0.896 1.10595085076e-38
-0.0397970027142 -0.0713029631963 0.896 2.26747271447e-38
-0.0381387942678 -0.0713029631963 0.896 2.02776435708e-38
-0.0364805858214 -0.0713029631963 0.896 2.073970072e-38
-0.0349001058959 -0.0714621215963 0.898 2.06478652238e-38
-0.0332381960913 -0.0714621215963 0.898 2.03719972003e-38
-0.0316817749937 -0.0717008591963 0.901 2.03730790028e-38
-0.0300809375984 -0.0718600175963 0.903 2.03734419391e-38
-0.0285041590311 -0.0720987551962 0.906 2.07433034583e-38
-0.026827443794 -0.0720987551962 0.906 2.06503819559e-38
-0.0252062489289 -0.0722579135962 0.908 1.99128113118e-38
-0.0235258323337 -0.0722579135962 0.908 2.02815938312e-38
-0.0218454157384 -0.0722579135962 0.908 2.07422104455e-38
-0.0202760398873 -0.0726558095962 0.913 2.08344074767e-38
-0.0186881572455 -0.0730537055962 0.918 1.99120952482e-38
-0.0169892338596 -0.0730537055962 0.918 2.01876059406e-38
-0.0153236226969 -0.0732128639962 0.92 2.06485868925e-38
-0.0136654142505 -0.0734516015962 0.923 2.03716454744e-38
-0.0119572374691 -0.0734516015962 0.923 2.00950585848e-38
-0.0102490606878 -0.0734516015962 0.923 2.0463839703e-38
-0.00855939069723 -0.0736107599962 0.925 2.05563912627e-38
-0.00684751255778 -0.0736107599962 0.925 2.03720000029e-38
-0.00513563441834 -0.0736107599962 0.925 2.03720000029e-38
-0.00343486035331 -0.0738494975962 0.928 2.03716440731e-38
-0.00172113153479 -0.0740086559961 0.93 2.09248192536e-38
0.0 -0.0742473935961 0.933 1.99110162484e-38
0.001726683572 -0.0742473935961 0.933 2.13861491288e-38
0.00346076986028 -0.0744065519961 0.935 2.08326222224e-38
0.00519115479043 -0.0744065519961 0.935 2.09251737821e-38
0.00692153972057 -0.0744065519961 0.935 2.04645445561e-38
0.00865192465071 -0.0744065519961 0.935 2.05570905106e-38
0.0103823095809 -0.0744065519961 0.935 2.04648976833e-38
0.012112694511 -0.0744065519961 0.935 2.06489358158e-38
0.0138874957388 -0.0746452895961 0.938 2.06489372171e-38
0.0156234327062 -0.0746452895961 0.938 2.00035678081e-38
0.0173593696735 -0.0746452895961 0.938 2.05567415873e-38
0.0190953066409 -0.0746452895961 0.938 2.06489372171e-38
0.0208312436082 -0.0746452895961 0.938 2.08333270756e-38
0.0226152982314 -0.0748044479961 0.94 2.11099139652e-38
0.0243549365569 -0.0748044479961 0.94 1.99117267067e-38
0.0261778554405 -0.0750431855961 0.943 2.05570961158e-38
0.0279230458032 -0.0750431855961 0.943 1.98181073576e-38
0.0296682361659 -0.0750431855961 0.943 2.16620227575e-38
0.0315133631984 -0.0752819231961 0.946 2.05556751992e-38
0.0332641055983 -0.0752819231961 0.946 1.99103029875e-38
0.0350148479982 -0.0752819231961 0.946 1.95418707927e-38
0.0367655903981 -0.0752819231961 0.946 2.07407657068e-38
0.0383941879794 -0.0750431855961 0.943 2.00957480237e-38
0.0401393783421 -0.0750431855961 0.943 2.03726880405e-38
0.0418845687048 -0.0750431855961 0.943 1.91734428017e-38
0.0434909581373 -0.0748044479961 0.94 1.99106519108e-38
0.0451343611511 -0.0746452895961 0.938 2.1017355399e-38
0.0468702981185 -0.0746452895961 0.938 1.95422253212e-38
0.0486062350858 -0.0746452895961 0.938 2.02794344303e-38
0.0503421720532 -0.0746452895961 0.938 1.92652839031e-38
0.0519115479043 -0.0744065519961 0.935 2.03712783342e-38
0.0536419328344 -0.0744065519961 0.935 1.99103057901e-38
0.0553723177646 -0.0744065519961 0.935 1.99099372486e-38
0.0571027026947 -0.0744065519961 0.935 2.08318907446e-38
0.0587072414481 -0.0742473935961 0.933 2.00943285083e-38
0.0602396037178 -0.0740086559961 0.93 2.04631082252e-38
0.0618274863596 -0.0738494975962 0.928 2.04634655563e-38
0.0635449165362 -0.0738494975962 0.928 2.03712671238e-38
0.0650513692989 -0.0736107599962 0.925 2.01868730615e-38
0.0667632474384 -0.0736107599962 0.925 2.00028377316e-38
0.0683270712523 -0.0734516015962 0.923 2.05560101095e-38
0.0700352480336 -0.0734516015962 0.923 1.99106421017e-38
0.0715102392521 -0.0732128639962 0.92 1.98180905421e-38
0.0732128639962 -0.0732128639962 0.92 2.0555655581e-38
0.0747526289822 -0.0730537055962 0.918 1.95415064551e-38
0.0764515523681 -0.0730537055962 0.918 2.01868730615e-38
0.0781504757541 -0.0730537055962 0.918 2.06482071406e-38
0.0795884533912 -0.0728149679962 0.915 2.07404013692e-38
0.0811041595493 -0.0726558095962 0.913 1.9911356764e-38
0.0825217797166 -0.0724170719962 0.91 2.12010418056e-38
0.0840208297631 -0.0722579135962 0.908 1.97255571993e-38
0.0857012463583 -0.0722579135962 0.908 2.05563716445e-38
0.0873816629536 -0.0722579135962 0.908 1.98191611341e-38
-0.0431134196071 -0.0696447547499 0.896 1.82514865031e-38
-0.0414552111606 -0.0696447547499 0.896 1.46544150023e-38
-0.0397970027142 -0.0696447547499 0.896 2.31371388223e-38
-0.0381387942678 -0.0696447547499 0.896 1.96344293588e-38
-0.0364805858214 -0.0696447547499 0.896 2.11095594367e-38
-0.0349001058959 -0.0698002117917 0.898 1.94511170989e-38
-0.0332381960913 -0.0698002117917 0.898 2.06503819559e-38
-0.0316817749937 -0.0700333973545 0.901 2.0558909396e-38
-0.0300809375984 -0.0701888543963 0.903 1.94525618376e-38
-0.0285041590311 -0.0704220399591 0.906 2.05596282621e-38
-0.026827443794 -0.0704220399591 0.906 2.11120803726e-38
-0.0252062489289 -0.070577497001 0.908 2.0006088744e-38
-0.0235258323337 -0.070577497001 0.908 2.02815938312e-38
-0.0218454157384 -0.070577497001 0.908 2.03741467922e-38
-0.0202760398873 -0.0709661396056 0.913 2.05578205871e-38
-0.0186881572455 -0.0713547822102 0.918 2.03730733976e-38
-0.017026247441 -0.0715102392521 0.92 2.05563884601e-38
-0.0153236226969 -0.0715102392521 0.92 2.09248178523e-38
-0.0136654142505 -0.0717434248149 0.923 2.08326222224e-38
-0.0119831469761 -0.0718988818567 0.925 2.10170134822e-38
-0.0102712688367 -0.0718988818567 0.925 2.11095622392e-38
-0.00855939069723 -0.0718988818567 0.925 2.08329725471e-38
-0.00684751255778 -0.0718988818567 0.925 2.10173638068e-38
-0.00515229052996 -0.0721320674195 0.928 2.13861491288e-38
-0.00343486035331 -0.0721320674195 0.928 2.11095650418e-38
-0.00172113153479 -0.0722875244614 0.93 2.06482309627e-38
0.0 -0.0725207100241 0.933 2.01879590678e-38
0.001726683572 -0.0725207100241 0.933 2.05563884601e-38
0.00346076986028 -0.072676167066 0.935 1.98184744978e-38
0.00519115479043 -0.072676167066 0.935 2.0002862955e-38
0.00692153972057 -0.072676167066 0.935 2.02801546977e-38
0.00865192465071 -0.072676167066 0.935 2.11102670924e-38
0.0103823095809 -0.072676167066 0.935 2.06489358158e-38
0.0121515587715 -0.0729093526288 0.938 1.99106659238e-38
0.0138874957388 -0.0729093526288 0.938 2.1293953499e-38
0.0156234327062 -0.0729093526288 0.938 2.07407769172e-38
0.0173593696735 -0.0729093526288 0.938 2.09255241067e-38
0.0190953066409 -0.0729093526288 0.938 1.99113721782e-38
0.0208312436082 -0.0729093526288 0.938 2.07411314457e-38
0.0226152982314 -0.0730648096706 0.94 2.02805092262e-38
0.0243549365569 -0.0730648096706 0.94 2.10180742651e-38
0.0261778554405 -0.0732979952334 0.943 2.12024655248e-38
0.0279230458032 -0.0732979952334 0.943 2.08322564835e-38
0.0296682361659 -0.0732979952334 0.943 2.10166505459e-38
0.0315133631984 -0.0735311807962 0.946 1.95415204681e-38
0.0332641055983 -0.0735311807962 0.946 2.04634767667e-38
0.0350148479982 -0.0735311807962 0.946 2.03712783342e-38
0.0367655903981 -0.0735311807962 0.946 2.11091965003e-38
0.038516332798 -0.0735311807962 0.946 2.04641788172e-38
0.0401393783421 -0.0732979952334 0.943 2.01879464561e-38
0.0418845687048 -0.0732979952334 0.943 2.07404125796e-38
0.0434909581373 -0.0730648096706 0.94 2.0002848942e-38
0.0451343611511 -0.0729093526288 0.938 1.99106519108e-38
0.0468702981185 -0.0729093526288 0.938 1.9818456281e-38
0.0486062350858 -0.0729093526288 0.938 2.03716300601e-38
0.0503421720532 -0.0729093526288 0.938 2.02794358316e-38
0.0519115479043 -0.072676167066 0.935 2.00946914446e-38
0.0536419328344 -0.072676167066 0.935 2.03712811368e-38
0.0553723177646 -0.072676167066 0.935 2.09240863745e-38
0.0571027026947 -0.072676167066 0.935 1.9909934446e-38
0.0587072414481 -0.0725207100241 0.933 1.98177416187e-38
0.0602396037178 -0.0722875244614 0.93 1.99099372486e-38
0.0618274863596 -0.0721320674195 0.928 2.00943257057e-38
0.0635449165362 -0.0721320674195 0.928 1.95415064551e-38
0.0650513692989 -0.0718988818567 0.925 2.00028377316e-38
0.0667632474384 -0.0718988818567 0.925 2.04638144796e-38
0.0684751255778 -0.0718988818567 0.925 1.91730756615e-38
0.0700352480336 -0.0717434248149 0.923 2.14779678094e-38
0.0715102392521 -0.0715102392521 0.92 2.00024818018e-38
0.0732128639962 -0.0715102392521 0.92 2.04634655563e-38
0.0747526289822 -0.0713547822102 0.918 2.02790742966e-38
0.0764515523681 -0.0713547822102 0.918 1.98180933447e-38
0.0781504757541 -0.0713547822102 0.918 2.09247940302e-38
0.0795884533912 -0.0711215966475 0.915 2.10169882588e-38
0.08128182474 -0.0711215966475 0.915 1.9911356764e-38
0.0825217797166 -0.0707329540428 0.91 2.03719972003e-38
0.0840208297631 -0.070577497001 0.908 2.02790967174e-38
0.0855124770932 -0.0704220399591 0.906 2.04649004859e-38
0.0869004863955 -0.0701888543963 0.903 2.0557796765e-38
0.088375477614 -0.0700333973545 0.901 2.02805092262e-38
0.0900429394558 -0.0700333973545 0.901 1.99106659238e-38
0.0917104012975 -0.0700333973545 0.901 1.96347852886e-38
-0.0447716280535 -0.0679865463034 0.896 2.350988001e-38
-0.0431134196071 -0.0679865463034 0.896 2.1017355399e-38
-0.0414552111606 -0.0679865463034 0.896 4.78876093822e-39
-0.0397970027142 -0.0679865463034 0.896 2.25853999728e-38
-0.0381387942678 -0.0679865463034 0.896 1.94521904936e-38
-0.0364805858214 -0.0679865463034 0.896 2.06503763507e-38
-0.0349001058959 -0.0681383019871 0.898 2.07436537829e-38
-0.0332381960913 -0.0681383019871 0.898 2.07432978531e-38
-0.0316817749937 -0.0683659355127 0.901 2.05596254595e-38
-0.0300809375984 -0.0685176911964 0.903 2.08362123491e-38
-0.0285041590311 -0.068745324722 0.906 2.03752341998e-38
-0.0268866655242 -0.0688970804057 0.908 2.0651823892e-38
-0.025261769301 -0.0690488360894 0.91 2.07436537829e-38
-0.0235776513476 -0.0690488360894 0.91 1.98216946817e-38
-0.0218935333942 -0.0690488360894 0.91 2.05585380519e-38
-0.0202760398873 -0.069276469615 0.913 2.12031885948e-38
-0.0187288721851 -0.069807614508 0.92 2.0741855917e-38
-0.017026247441 -0.069807614508 0.92 2.08329781523e-38
-0.0153735910318 -0.0700352480336 0.923 2.09248178523e-38
-0.0136950251156 -0.0701870037173 0.925 2.10173666094e-38
-0.0119831469761 -0.0701870037173 0.925 2.06489372171e-38
-0.0102712688367 -0.0701870037173 0.925 2.04645445561e-38
-0.00855939069723 -0.0701870037173 0.925 2.10180742651e-38
-0.00686972070662 -0.0704146372428 0.928 2.08336830054e-38
-0.00515229052996 -0.0704146372428 0.928 2.06489358158e-38
-0.00343486035331 -0.0704146372428 0.928 2.03723503276e-38
-0.00172113153479 -0.0705663929266 0.93 2.05563856575e-38
0.0 -0.0707940264521 0.933 2.1110269895e-38
0.00173038493014 -0.0709457821358 0.935 2.07407797198e-38
0.00346076986028 -0.0709457821358 0.935 2.07400748667e-38
0.00519115479043 -0.0709457821358 0.935 2.10170176861e-38
0.00692153972057 -0.0709457821358 0.935 2.07407769172e-38
0.00865192465071 -0.0709457821358 0.935 2.02805092262e-38
0.0103823095809 -0.0709457821358 0.935 2.00954075082e-38
0.0121515587715 -0.0711734156614 0.938 2.08322704965e-38
0.0138874957388 -0.0711734156614 0.938 1.99110218536e-38
0.0156234327062 -0.0711734156614 0.938 2.09251681769e-38
0.0173593696735 -0.0711734156614 0.938 2.09255241067e-38
0.0190953066409 -0.0711734156614 0.938 2.0741132847e-38
0.0208312436082 -0.0711734156614 0.938 2.04645445561e-38
0.0226152982314 -0.0713251713451 0.94 2.02805092262e-38
0.0243549365569 -0.0713251713451 0.94 2.02805092262e-38
0.0261778554405 -0.0715528048707 0.943 2.01883107937e-38
0.0279230458032 -0.0715528048707 0.943 1.99110078406e-38
0.0296682361659 -0.0715528048707 0.943 2.19389557678e-38
0.0315133631984 -0.0717804383963 0.946 2.0371634264e-38
0.0332641055983 -0.0717804383963 0.946 2.00024986174e-38
0.0350148479982 -0.0717804383963 0.946 2.06478680264e-38
0.0367655903981 -0.0717804383963 0.946 2.10166505459e-38
0.038516332798 -0.0717804383963 0.946 2.03712811368e-38
0.0402670751979 -0.0717804383963 0.946 2.04634739641e-38
0.0418845687048 -0.0715528048707 0.943 1.99103001849e-38
0.0436297590675 -0.0715528048707 0.943 2.00024958148e-38
0.0451343611511 -0.0711734156614 0.938 2.01872402017e-38
0.0468702981185 -0.0711734156614 0.938 1.97262606511e-38
0.0486062350858 -0.0711734156614 0.938 2.00028475407e-38
0.0503421720532 -0.0711734156614 0.938 2.08326096108e-38
0.0520781090205 -0.0711734156614 0.938 2.04638298939e-38
0.0536419328344 -0.0709457821358 0.935 1.99103001849e-38
0.0553723177646 -0.0709457821358 0.935 2.01865213356e-38
0.0571027026947 -0.0709457821358 0.935 2.07396951148e-38
0.0587072414481 -0.0707940264521 0.933 2.02787197681e-38
0.0602396037178 -0.0705663929266 0.93 2.1016284807e-38
0.0619607352526 -0.0705663929266 0.93 1.9909934446e-38
0.0635449165362 -0.0704146372428 0.928 2.08322452732e-38
0.0650513692989 -0.0701870037173 0.925 2.03716202511e-38
0.0667632474384 -0.0701870037173 0.925 2.05560073069e-38
0.0684751255778 -0.0701870037173 0.925 2.03716188498e-38
0.0700352480336 -0.0700352480336 0.923 2.04634599511e-38
0.0715102392521 -0.069807614508 0.92 2.12010277926e-38
0.0732128639962 -0.069807614508 0.92 2.07396951148e-38
0.0747526289822 -0.0696558588243 0.918 2.07396951148e-38
0.0764515523681 -0.0696558588243 0.918 2.10166393355e-38
0.0781504757541 -0.0696558588243 0.918 2.03712643212e-38
0.0795884533912 -0.0694282252987 0.915 2.01872289913e-38
0.08128182474 -0.0694282252987 0.915 2.0556726173e-38
0.0825217797166 -0.0690488360894 0.91 2.01876059406e-38
0.0838357618561 -0.068745324722 0.906 2.01869038901e-38
0.0855124770932 -0.068745324722 0.906 2.00957620367e-38
0.0869004863955 -0.0685176911964 0.903 1.89908241846e-38
0.088375477614 -0.0683659355127 0.901 2.00957620367e-38
0.0897431294465 -0.0681383019871 0.898 2.06478820394e-38
0.0914050392511 -0.0681383019871 0.898 2.02801546977e-38
0.0930669490556 -0.0681383019871 0.898 1.93592759976e-38
-0.0447716280535 -0.066328337857 0.896 2.35098828126e-38
-0.0431134196071 -0.066328337857 0.896 2.35098828126e-38
-0.0414552111606 -0.066328337857 0.896 1.56588096896e-39
-0.0397970027142 -0.066328337857 0.896 2.35076939843e-38
-0.038223925505 -0.0664763921826 0.898 2.09251457561e-38
-0.0365620157004 -0.0664763921826 0.898 1.89897900263e-38
-0.0349001058959 -0.0664763921826 0.898 2.06493225742e-38
-0.0333492368355 -0.0666984736709 0.901 1.95429624042e-38
-0.0317521007983 -0.0668465279965 0.903 2.07411314457e-38
-0.0300809375984 -0.0668465279965 0.903 2.00046454066e-38
-0.0285041590311 -0.0670686094849 0.906 2.00972081767e-38
-0.0268866655242 -0.0672166638105 0.908 1.972807253e-38
-0.025261769301 -0.067364718136 0.91 2.07422244585e-38
-0.0235776513476 -0.067364718136 0.91 2.05574674599e-38
-0.0218935333942 -0.067364718136 0.91 2.09266031066e-38
-0.0202760398873 -0.0675867996244 0.913 2.04645459574e-38
-0.0187288721851 -0.0681049897639 0.92 2.05560255238e-38
-0.017026247441 -0.0681049897639 0.92 2.12010418056e-38
-0.0153735910318 -0.0683270712523 0.923 2.000250142e-38
-0.0136950251156 -0.0684751255778 0.925 2.13865022561e-38
-0.0119831469761 -0.0684751255778 0.925 2.05578191858e-38
-0.0102712688367 -0.0684751255778 0.925 2.08344074767e-38
-0.00855939069723 -0.0684751255778 0.925 2.06496602872e-38
-0.00686972070662 -0.0686972070662 0.928 2.0741855917e-38
-0.00515229052996 -0.0686972070662 0.928 2.05574646573e-38
-0.00343486035331 -0.0686972070662 0.928 2.02808777677e-38
-0.00172113153479 -0.0688452613918 0.93 2.12031899961e-38
0.0 -0.0690673428801 0.933 2.01883135963e-38
0.00173038493014 -0.0692153972057 0.935 2.0741132847e-38
0.00346076986028 -0.0692153972057 0.935 2.02798015705e-38
0.00519115479043 -0.0692153972057 0.935 2.02798015705e-38
0.00692153972057 -0.0692153972057 0.935 2.04645445561e-38
0.00865192465071 -0.0692153972057 0.935 2.10180714625e-38
0.0103823095809 -0.0692153972057 0.935 2.05567415873e-38
0.0121515587715 -0.0694374786941 0.938 2.02794498446e-38
0.0138874957388 -0.0694374786941 0.938 2.09251709795e-38
0.0156234327062 -0.0694374786941 0.938 2.00035678081e-38
0.0173593696735 -0.0694374786941 0.938 2.13865022561e-38
0.0190953066409 -0.0694374786941 0.938 2.06489372171e-38
0.0208756599059 -0.0695855330196 0.94 2.11099153665e-38
0.0226152982314 -0.0695855330196 0.94 2.09255241067e-38
0.0244326650778 -0.069807614508 0.943 2.04645459574e-38
0.0261778554405 -0.069807614508 0.943 2.09255227054e-38
0.0280118783985 -0.0700296959964 0.946 2.02805064236e-38
0.0297626207984 -0.0700296959964 0.946 2.15712424391e-38
0.0315133631984 -0.0700296959964 0.946 1.96351398172e-38
0.0332641055983 -0.0700296959964 0.946 2.06489372171e-38
0.035088875161 -0.0701777503219 0.948 2.01872430043e-38
0.0367655903981 -0.0700296959964 0.946 2.07400608537e-38
0.038516332798 -0.0700296959964 0.946 2.06478680264e-38
0.0402670751979 -0.0700296959964 0.946 2.03705650733e-38
0.0420178175978 -0.0700296959964 0.946 2.01872388004e-38
0.0436297590675 -0.069807614508 0.943 2.00032006679e-38
0.0451343611511 -0.0694374786941 0.938 1.99110078406e-38
0.0468702981185 -0.0694374786941 0.938 1.99106519108e-38
0.0486062350858 -0.0694374786941 0.938 2.02794344303e-38
0.0503421720532 -0.0694374786941 0.938 2.16623688782e-38
0.0520781090205 -0.0694374786941 0.938 1.99106519108e-38
0.0536419328344 -0.0692153972057 0.935 2.06485728795e-38
0.0553723177646 -0.0692153972057 0.935 2.00946830368e-38
0.0571027026947 -0.0692153972057 0.935 2.01872388004e-38
0.0587072414481 -0.0690673428801 0.933 1.90816101082e-38
0.0602396037178 -0.0688452613918 0.93 1.96358642885e-38
0.0619607352526 -0.0688452613918 0.93 2.01890366663e-38
0.0635449165362 -0.0686972070662 0.928 2.06489358158e-38
0.0650513692989 -0.0684751255778 0.925 2.01875947302e-38
0.0667632474384 -0.0684751255778 0.925 2.00946774317e-38
0.0683270712523 -0.0683270712523 0.923 2.03727020535e-38
0.0700352480336 -0.0683270712523 0.923 2.02805064236e-38
0.0715102392521 -0.0681049897639 0.92 2.06492917457e-38
0.0730537055962 -0.0679569354383 0.918 1.95429441873e-38
0.0747526289822 -0.0679569354383 0.918 1.95425896588e-38
0.0764515523681 -0.0679569354383 0.918 2.11099153665e-38
0.0781504757541 -0.0679569354383 0.918 2.10173638068e-38
0.0795884533912 -0.06773485395 0.915 1.92656468394e-38
0.08128182474 -0.06773485395 0.915 2.08326124134e-38
0.0825217797166 -0.067364718136 0.91 2.04631138304e-38
0.0838357618561 -0.0670686094849 0.906 2.07393447902e-38
0.0855124770932 -0.0670686094849 0.906 2.05556611862e-38
0.0869004863955 -0.0668465279965 0.903 2.00028377316e-38
0.088375477614 -0.0666984736709 0.901 2.12932206199e-38
0.0897431294465 -0.0664763921826 0.898 2.10166393355e-38
0.0914050392511 -0.0664763921826 0.898 2.00950333615e-38
0.0928596729998 -0.066328337857 0.896 2.02797903601e-38
0.0943069040323 -0.0661802835314 0.894 2.10177183353e-38
0.0959614111206 -0.0661802835314 0.894 2.02797903601e-38
-0.0447716280535 -0.0646701294106 0.896 2.31411030957e-38
-0.0431134196071 -0.0646701294106 0.896 2.35098856151e-38
-0.0414552111606 -0.0646701294106 0.896 1.52122789274e-38
-0.0397970027142 -0.0646701294106 0.896 5.06390869429e-39
-0.0381387942678 -0.0646701294106 0.896 2.35077276155e-38
-0.0364805858214 -0.0646701294106 0.896 2.07393588032e-38
-0.0349001058959 -0.064814482378 0.898 2.00954327315e-38
-0.0333492368355 -0.0650310118292 0.901 2.00957816548e-38
