# .PCD v0.7 - Point Cloud Data file format
VERSION 0.7
FIELDS x y z rgb
SIZE 4 4 4 4
TYPE F F F F
COUNT 1 1 1 1
WIDTH 842
HEIGHT 1
VIEWPOINT 0 0 0 1 0 0 0
POINTS 842
DATA ascii
0.0930669490556 -0.0565049333552 0.898 2.21211932318e-38
0.0945178814462 -0.0563790871785 0.896 2.14758238228e-38
0.0959614111206 -0.0562532410017 0.894 2.055421925e-38
0.0976159182089 -0.0562532410017 0.894 2.14768874083e-38
0.0992704252972 -0.0562532410017 0.894 2.01861485902e-38
0.100924932385 -0.0562532410017 0.894 2.08311662733e-38
-0.0204981213757 -0.0563698337831 0.923 2.08286593504e-38
-0.0187899445944 -0.0563698337831 0.923 1.99077736438e-38
-0.0170817678131 -0.0563698337831 0.923 2.06464120773e-38
-0.015406903255 -0.0564919786017 0.925 2.08315194006e-38
-0.0137394414132 -0.0566751958296 0.928 2.06467750136e-38
-0.0120479207436 -0.0567973406482 0.93 2.05545821863e-38
-0.0103267892088 -0.0567973406482 0.93 2.08311690759e-38
-0.00863341786002 -0.0569805578761 0.933 2.11077559655e-38
-0.00690673428801 -0.0569805578761 0.933 1.98170171474e-38
-0.00518005071601 -0.0569805578761 0.933 2.01857996669e-38
-0.00345336714401 -0.0569805578761 0.933 2.10155603357e-38
-0.001726683572 -0.0569805578761 0.933 2.05545821863e-38
0.0 -0.0571027026947 0.935 2.05556611862e-38
0.00173038493014 -0.0571027026947 0.935 2.04634655563e-38
0.00346076986028 -0.0571027026947 0.935 2.0370188124e-38
0.00519115479043 -0.0571027026947 0.935 2.01857968643e-38
0.00692153972057 -0.0571027026947 0.935 2.12917814864e-38
0.00865192465071 -0.0571027026947 0.935 2.12910584163e-38
0.0103823095809 -0.0571027026947 0.935 2.09222758969e-38
0.0121515587715 -0.0572859199226 0.938 2.06449687399e-38
0.0138874957388 -0.0572859199226 0.938 2.12914283591e-38
0.0156234327062 -0.0572859199226 0.938 2.07386217202e-38
0.0173593696735 -0.0572859199226 0.938 2.05542304604e-38
0.0190953066409 -0.0572859199226 0.938 2.09230157825e-38
0.0208312436082 -0.0572859199226 0.938 2.02776435708e-38
0.0225671805756 -0.0572859199226 0.938 2.11995970669e-38
0.0243031175429 -0.0572859199226 0.938 2.0093604037e-38
0.0260390545103 -0.0572859199226 0.938 2.11081090927e-38
0.0278342132079 -0.0574080647412 0.94 2.10159344824e-38
0.0295738515333 -0.0574080647412 0.94 2.00021440889e-38
0.0313134898588 -0.0574080647412 0.94 1.97259117278e-38
0.0329828023797 -0.0572859199226 0.938 2.11091993029e-38
0.034718739347 -0.0572859199226 0.938 2.03712699264e-38
0.0364546763144 -0.0572859199226 0.938 2.08308005344e-38
0.0381906132817 -0.0572859199226 0.938 2.16594765982e-38
0.0399265502491 -0.0572859199226 0.938 2.05516871037e-38
0.0416624872164 -0.0572859199226 0.938 2.18446021383e-38
0.0433984241838 -0.0572859199226 0.938 2.04616718943e-38
0.0451343611511 -0.0572859199226 0.938 2.15665761152e-38
0.0468702981185 -0.0572859199226 0.938 2.02754743608e-38
0.0486062350858 -0.0572859199226 0.938 2.07364497075e-38
0.0503421720532 -0.0572859199226 0.938 2.11977935958e-38
0.0520781090205 -0.0572859199226 0.938 2.09215682412e-38
0.0538140459879 -0.0572859199226 0.938 2.04620348306e-38
0.0555499829552 -0.0572859199226 0.938 2.04609446204e-38
0.0572859199226 -0.0572859199226 0.938 2.06453330775e-38
0.0590218568899 -0.0572859199226 0.938 1.94471458191e-38
0.0607577938573 -0.0572859199226 0.938 2.0645687606e-38
0.0624937308247 -0.0572859199226 0.938 2.07378846372e-38
0.064229667792 -0.0572859199226 0.938 2.073753151e-38
0.0657546273454 -0.0571027026947 0.935 2.11059623035e-38
0.0674850122756 -0.0571027026947 0.935 2.09212179166e-38
0.0692153972057 -0.0571027026947 0.935 1.99077680386e-38
0.0707940264521 -0.0569805578761 0.933 2.04612977476e-38
0.0722875244614 -0.0567973406482 0.93 2.0276550558e-38
0.0738494975962 -0.0566751958296 0.928 2.073753151e-38
0.0755669277728 -0.0566751958296 0.928 2.03687517931e-38
0.0770345162751 -0.0564919786017 0.925 2.04605900919e-38
0.0787463944145 -0.0564919786017 0.925 2.05527885243e-38
0.0804582725539 -0.0564919786017 0.925 2.0460595697e-38
0.0821701506934 -0.0564919786017 0.925 2.0922647241e-38
0.083700662284 -0.0563698337831 0.923 1.97241068554e-38
0.0846685674374 -0.0558812545087 0.915 2.08304544137e-38
0.0858900156234 -0.0555758924622 0.91 2.11070413033e-38
0.0873816629536 -0.0554537476436 0.908 2.16602122799e-38
0.0888659075675 -0.055331602825 0.906 2.09230017695e-38
0.0902428127953 -0.0551483855971 0.903 2.15683655733e-38
0.0917104012975 -0.0550262407785 0.901 2.1476524472e-38
0.0930669490556 -0.0548430235506 0.898 2.23967011216e-38
0.0945178814462 -0.054720878732 0.896 2.23967039242e-38
0.0959614111206 -0.0545987339134 0.894 2.12917814864e-38
0.0976159182089 -0.0545987339134 0.894 2.21226127472e-38
0.0992704252972 -0.0545987339134 0.894 2.08318711265e-38
0.100924932385 -0.0545987339134 0.894 2.110918529e-38
-0.0187899445944 -0.0546616570018 0.923 1.99099400512e-38
-0.0170817678131 -0.0546616570018 0.923 2.1017355399e-38
-0.015406903255 -0.0547801004623 0.925 1.99095841214e-38
-0.0137394414132 -0.054957765653 0.928 2.02776463734e-38
-0.0120479207436 -0.0550762091134 0.93 2.11074042396e-38
-0.0103267892088 -0.0550762091134 0.93 2.06464232877e-38
-0.00863341786002 -0.0552538743041 0.933 2.08311704772e-38
-0.00690673428801 -0.0552538743041 0.933 2.07389734461e-38
-0.00518005071601 -0.0552538743041 0.933 2.04623879578e-38
-0.00345336714401 -0.0552538743041 0.933 2.06467792175e-38
-0.001726683572 -0.0552538743041 0.933 2.05542276578e-38
0.0 -0.0553723177646 0.935 2.10152058072e-38
0.00173038493014 -0.0553723177646 0.935 2.00932495085e-38
0.00346076986028 -0.0553723177646 0.935 2.00014098085e-38
0.00519115479043 -0.0553723177646 0.935 2.03701909266e-38
0.00692153972057 -0.0553723177646 0.935 2.13843428551e-38
0.00865192465071 -0.0553723177646 0.935 2.09233661071e-38
0.0103823095809 -0.0553723177646 0.935 2.03694734618e-38
0.0138874957388 -0.0555499829552 0.938 2.11988810034e-38
0.0156234327062 -0.0555499829552 0.938 2.03691203346e-38
0.0173593696735 -0.0555499829552 0.938 2.0922647241e-38
0.0190953066409 -0.0555499829552 0.938 2.09230017695e-38
0.0208312436082 -0.0555499829552 0.938 2.15683683759e-38
0.0225671805756 -0.0555499829552 0.938 1.97244529761e-38
0.0243031175429 -0.0555499829552 0.938 2.12917786838e-38
0.0260390545103 -0.0555499829552 0.938 2.10151917942e-38
0.034718739347 -0.0555499829552 0.938 1.97255459889e-38
0.0364546763144 -0.0555499829552 0.938 2.05545821863e-38
0.0399265502491 -0.0555499829552 0.938 2.13825337788e-38
0.0416624872164 -0.0555499829552 0.938 2.11985068567e-38
0.0433984241838 -0.0555499829552 0.938 1.9999966471e-38
0.0451343611511 -0.0555499829552 0.938 2.17516834385e-38
0.0468702981185 -0.0555499829552 0.938 2.10141183995e-38
0.0486062350858 -0.0555499829552 0.938 2.14743776827e-38
0.0503421720532 -0.0555499829552 0.938 2.06453386827e-38
0.0520781090205 -0.0555499829552 0.938 2.07371769814e-38
0.0538140459879 -0.0555499829552 0.938 2.07371769814e-38
0.0555499829552 -0.0555499829552 0.938 2.06460603514e-38
0.0572859199226 -0.0555499829552 0.938 2.05538647215e-38
0.0590218568899 -0.0555499829552 0.938 1.9355320132e-38
0.0607577938573 -0.0555499829552 0.938 2.00932411007e-38
0.0624937308247 -0.0555499829552 0.938 2.11073902266e-38
0.064229667792 -0.0555499829552 0.938 2.04620208176e-38
0.0659656047594 -0.0555499829552 0.938 2.02776295579e-38
0.0674850122756 -0.0553723177646 0.935 2.07386077072e-38
0.0692153972057 -0.0553723177646 0.935 2.02776295579e-38
0.0707940264521 -0.0552538743041 0.933 2.05542164474e-38
0.0722875244614 -0.0550762091134 0.93 2.055421925e-38
0.0738494975962 -0.054957765653 0.928 2.02772764306e-38
0.0755669277728 -0.054957765653 0.928 2.08304502098e-38
0.0770345162751 -0.0547801004623 0.925 2.01850808008e-38
0.0787463944145 -0.0547801004623 0.925 2.07386105098e-38
0.0804582725539 -0.0547801004623 0.925 2.00932382981e-38
0.0819924855027 -0.0546616570018 0.923 2.05538647215e-38
0.083700662284 -0.0546616570018 0.923 1.97244669891e-38
0.0846685674374 -0.05418788316 0.915 2.13839883266e-38
0.0858900156234 -0.0538917745088 0.91 2.20297136655e-38
0.0873816629536 -0.0537733310484 0.908 2.18453210044e-38
0.0888659075675 -0.0536548875879 0.906 2.11999487928e-38
0.0902428127953 -0.0534772223972 0.903 2.18456741316e-38
0.0917104012975 -0.0533587789368 0.901 2.09237150304e-38
0.0928596729998 -0.0530626702856 0.896 2.1383623989e-38
0.0945178814462 -0.0530626702856 0.896 2.09226458397e-38
0.0959614111206 -0.0529442268251 0.894 2.12917814864e-38
0.0970699678833 -0.052648118174 0.889 2.07393223694e-38
0.097937936367 -0.0522335660624 0.882 2.22144524472e-38
0.0995702353064 -0.0522335660624 0.882 2.02794246212e-38
0.101202534246 -0.0522335660624 0.882 2.11088321627e-38
-0.0187899445944 -0.0529534802205 0.923 2.00021356811e-38
-0.0170817678131 -0.0529534802205 0.923 1.91730868719e-38
-0.0153735910318 -0.0529534802205 0.923 2.09244577186e-38
-0.0136950251156 -0.0530682223228 0.925 1.99085079242e-38
-0.0120220112366 -0.0532403354763 0.928 2.00932551137e-38
-0.0103267892088 -0.0533550775786 0.93 2.06464260903e-38
-0.00863341786002 -0.0535271907321 0.933 2.00936054383e-38
-0.00690673428801 -0.0535271907321 0.933 2.05545821863e-38
-0.00518005071601 -0.0535271907321 0.933 2.03701923279e-38
-0.00345336714401 -0.0535271907321 0.933 2.00010538787e-38
-0.001726683572 -0.0535271907321 0.933 2.06464260903e-38
0.0 -0.0535271907321 0.933 2.08308145474e-38
0.00173038493014 -0.0536419328344 0.935 2.20293577356e-38
0.00346076986028 -0.0536419328344 0.935 1.9632627289e-38
0.00519115479043 -0.0536419328344 0.935 2.09233647058e-38
0.00692153972057 -0.0536419328344 0.935 2.05545821863e-38
0.00865192465071 -0.0536419328344 0.935 2.1660931146e-38
0.0103823095809 -0.0536419328344 0.935 2.01854451384e-38
0.0555499829552 -0.0538140459879 0.938 2.07382559813e-38
0.0572859199226 -0.0538140459879 0.938 2.06460603514e-38
0.0590218568899 -0.0538140459879 0.938 2.03694720605e-38
0.0607577938573 -0.0538140459879 0.938 2.06464148799e-38
0.0624937308247 -0.0538140459879 0.938 2.11073902266e-38
0.064229667792 -0.0538140459879 0.938 2.06464092747e-38
0.0659656047594 -0.0538140459879 0.938 2.1107387424e-38
0.0674850122756 -0.0536419328344 0.935 2.09233534954e-38
0.0692153972057 -0.0536419328344 0.935 2.00932382981e-38
0.0707940264521 -0.0535271907321 0.933 2.08304502098e-38
0.0722875244614 -0.0533550775786 0.93 2.05538647215e-38
0.0738494975962 -0.0532403354763 0.928 2.07382587839e-38
0.0755669277728 -0.0532403354763 0.928 2.0922647241e-38
0.0770345162751 -0.0530682223228 0.925 1.96319070216e-38
0.0787463944145 -0.0530682223228 0.925 2.00010426683e-38
0.0804582725539 -0.0530682223228 0.925 2.1107387424e-38
0.0819924855027 -0.0529534802205 0.923 2.07389734461e-38
0.0834286124608 -0.052781367067 0.92 2.00936054383e-38
0.0846685674374 -0.0524945118112 0.915 2.04623879578e-38
0.0858900156234 -0.0522076565554 0.91 2.15687355161e-38
0.0873816629536 -0.0520929144531 0.908 2.23984947836e-38
0.0888659075675 -0.0519781723508 0.906 2.17531253746e-38
0.0902428127953 -0.0518060591973 0.903 2.23062991538e-38
0.0914050392511 -0.0515192039415 0.898 2.15687313122e-38
0.0928596729998 -0.0514044618392 0.896 2.16602108786e-38
0.0939904379114 -0.0511176065834 0.891 2.23055802876e-38
0.0952100354183 -0.0508881223787 0.887 2.19371508954e-38
0.0963056374275 -0.0506012671229 0.882 2.15690844395e-38
0.0977158548786 -0.0504865250206 0.88 2.12924975499e-38
0.0993444524599 -0.0504865250206 0.88 2.15698075095e-38
0.100973050041 -0.0504865250206 0.88 2.06478540134e-38
-0.0187288721851 -0.0510787423229 0.92 2.11992369332e-38
-0.017026247441 -0.0510787423229 0.92 2.09240919797e-38
-0.0153735910318 -0.0512453034392 0.923 2.06482211536e-38
-0.0136950251156 -0.0513563441834 0.925 2.00939753811e-38
-0.0120220112366 -0.0515229052996 0.928 2.07386245228e-38
-0.0103267892088 -0.0516339460438 0.93 1.95400785319e-38
-0.00860565767397 -0.0516339460438 0.93 2.1660931146e-38
-0.001726683572 -0.0518005071601 0.933 2.11074042396e-38
0.0 -0.0518005071601 0.933 2.06464232877e-38
0.0674850122756 -0.0519115479043 0.935 1.99088470384e-38
0.0692153972057 -0.0519115479043 0.935 2.03698279903e-38
0.0707940264521 -0.0518005071601 0.933 2.10148428709e-38
0.0722875244614 -0.0516339460438 0.93 2.0000693745e-38
0.0740086559961 -0.0516339460438 0.93 1.99081421853e-38
0.0755669277728 -0.0515229052996 0.928 2.04616718943e-38
0.0770345162751 -0.0513563441834 0.925 2.00006909424e-38
0.0787463944145 -0.0513563441834 0.925 2.00010454709e-38
0.0802843087214 -0.0512453034392 0.923 2.00010426683e-38
0.0817259877167 -0.0510787423229 0.92 2.01857968643e-38
0.0832472459119 -0.0509677015787 0.918 2.07389734461e-38
0.0844834995305 -0.0506900997183 0.913 2.07389734461e-38
0.0858900156234 -0.050523538602 0.91 2.15687341148e-38
0.0873816629536 -0.0504124978578 0.908 2.13843442564e-38
0.0888659075675 -0.0503014571137 0.906 2.19375180356e-38
0.0902428127953 -0.0501348959974 0.903 2.27672787044e-38
0.0914050392511 -0.0498572941369 0.898 2.15687355161e-38
0.0928596729998 -0.0497462533928 0.896 2.17524079098e-38
0.0939904379114 -0.0494686515323 0.891 2.24899729487e-38
0.0952100354183 -0.0492465700439 0.887 2.1383623989e-38
0.0963056374275 -0.0489689681835 0.882 2.20297094616e-38
0.0977158548786 -0.0488579274393 0.88 2.18453182018e-38
0.0993444524599 -0.0488579274393 0.88 2.0924440903e-38
0.100973050041 -0.0488579274393 0.88 2.22151825237e-38
-0.0203870806315 -0.0492687781928 0.918 2.15658390322e-38
-0.0186881572455 -0.0492687781928 0.918 2.27633228388e-38
-0.017026247441 -0.0493761175788 0.92 2.1198883806e-38
-0.0153236226969 -0.0493761175788 0.92 1.95429441873e-38
-0.0136654142505 -0.0495371266579 0.923 1.95411575318e-38
-0.0120220112366 -0.049805475123 0.928 2.07386245228e-38
-0.0103267892088 -0.049912814509 0.93 2.00932523111e-38
-0.00860565767397 -0.049912814509 0.93 2.09233661071e-38
0.0707940264521 -0.0500738235881 0.933 2.06449841542e-38
0.0722875244614 -0.049912814509 0.93 2.05527913269e-38
0.0740086559961 -0.049912814509 0.93 2.05527913269e-38
0.0755669277728 -0.049805475123 0.928 2.09215738464e-38
0.0770345162751 -0.0496444660439 0.925 2.08293726113e-38
0.0787463944145 -0.0496444660439 0.925 2.07375343126e-38
0.0802843087214 -0.0495371266579 0.923 2.08297271398e-38
0.0817259877167 -0.0493761175788 0.92 2.01861527941e-38
0.0832472459119 -0.0492687781928 0.918 2.05549353136e-38
0.08420589767 -0.0488394206486 0.91 2.06467750136e-38
0.0858900156234 -0.0488394206486 0.91 2.15687341148e-38
0.0871891923303 -0.0486247418765 0.906 2.15687355161e-38
0.0885716495954 -0.0484637327975 0.903 2.20293577356e-38
0.0900429394558 -0.0483563934114 0.901 2.23981402551e-38
0.0914050392511 -0.0481953843324 0.898 2.1107401437e-38
0.0928596729998 -0.0480880449463 0.896 2.1291432563e-38
0.0937794604974 -0.0477123570952 0.889 2.21211904292e-38
0.0952100354183 -0.0476050177091 0.887 2.11992341306e-38
0.0963056374275 -0.047336669244 0.882 2.18453224057e-38
0.0977158548786 -0.047229329858 0.88 2.21219092953e-38
0.0991186696134 -0.047121990472 0.878 2.26758033419e-38
0.100743565837 -0.047121990472 0.878 2.05553038551e-38
-0.0203870806315 -0.0475698548068 0.918 1.28972890228e-38
-0.0186881572455 -0.0475698548068 0.918 2.35012522153e-38
-0.017026247441 -0.0476734928347 0.92 2.03669651376e-38
-0.0153236226969 -0.0476734928347 0.92 1.94507429522e-38
-0.0136654142505 -0.0478289498766 0.923 2.14772657589e-38
-0.0119831469761 -0.0479325879045 0.925 2.01854507436e-38
-0.0103045810599 -0.0480880449463 0.928 2.03698392007e-38
0.0722875244614 -0.0481916829742 0.93 2.08293754139e-38
0.0740086559961 -0.0481916829742 0.93 2.1198160736e-38
0.0755669277728 -0.0480880449463 0.928 2.11981579334e-38
0.0770345162751 -0.0479325879045 0.925 2.08293726113e-38
0.0785761319401 -0.0478289498766 0.923 1.98155780139e-38
0.0802843087214 -0.0478289498766 0.923 2.04609446204e-38
0.0817259877167 -0.0476734928347 0.92 2.10151945968e-38
0.0829751960887 -0.047414397765 0.915 2.13846959823e-38
0.08420589767 -0.0471553026952 0.91 2.14765356824e-38
0.0857012463583 -0.0470516646673 0.908 2.10155603357e-38
0.0871891923303 -0.0469480266394 0.906 2.17531267759e-38
0.0885716495954 -0.0467925695976 0.903 2.13839883266e-38
0.0900429394558 -0.0466889315697 0.901 2.2490335885e-38
0.0914050392511 -0.0465334745278 0.898 2.24903386876e-38
0.092652396944 -0.046326198472 0.894 2.22133888617e-38
0.0937794604974 -0.0460671034023 0.889 2.22133860591e-38
0.0949953566462 -0.0458598273464 0.885 2.22133860591e-38
0.0963056374275 -0.0457043703046 0.882 2.13839883266e-38
0.0974937733903 -0.0454970942488 0.878 2.13839883266e-38
0.0991186696134 -0.0454970942488 0.878 2.21226295627e-38
0.100743565837 -0.0454970942488 0.878 2.01865213356e-38
0.10236846206 -0.0454970942488 0.878 2.25836077121e-38
-0.0203870806315 -0.0458709314209 0.918 4.320947255e-39
-0.0186881572455 -0.0458709314209 0.918 2.35034144188e-38
-0.0170817678131 -0.0461207730953 0.923 2.13796723273e-38
-0.0153735910318 -0.0461207730953 0.923 1.88975719757e-38
-0.0136654142505 -0.0461207730953 0.923 2.00943313109e-38
-0.0119831469761 -0.046220709765 0.925 2.00010594839e-38
0.0722875244614 -0.0464705514394 0.93 2.07371769814e-38
0.0738494975962 -0.0463706147697 0.928 2.04605900919e-38
0.0755669277728 -0.0463706147697 0.928 2.06449813516e-38
0.0770345162751 -0.046220709765 0.925 2.01843605334e-38
0.0785761319401 -0.0461207730953 0.923 2.05531402502e-38
0.0800233629726 -0.0459708680906 0.92 2.10141155969e-38
0.081548322526 -0.0458709314209 0.918 2.09229989669e-38
0.0829751960887 -0.0457210264162 0.915 2.10155575331e-38
0.08420589767 -0.0454711847418 0.91 2.12921472253e-38
0.0857012463583 -0.0453712480721 0.908 2.12921472253e-38
0.0871891923303 -0.0452713114023 0.906 2.21219092953e-38
0.0885716495954 -0.0451214063976 0.903 2.23984961849e-38
0.0900429394558 -0.0450214697279 0.901 2.21219092953e-38
0.0912014645534 -0.0447716280535 0.896 2.17531267759e-38
0.092652396944 -0.0446716913837 0.894 2.2766558437e-38
0.0937794604974 -0.0444218497093 0.889 2.26743628071e-38
0.0946733384881 -0.0440720713651 0.882 2.22133860591e-38
0.0958688771671 -0.0438721980256 0.878 2.14765398863e-38
0.0971606511577 -0.043722293021 0.875 2.1660931146e-38
0.0987799953437 -0.043722293021 0.875 2.15694557836e-38
0.10039933953 -0.043722293021 0.875 2.11088349653e-38
-0.0170817678131 -0.044412596314 0.923 2.35001648077e-38
-0.0153735910318 -0.044412596314 0.923 2.11109943663e-38
0.0738494975962 -0.044653184593 0.928 2.04602285568e-38
0.0753226381356 -0.0445088316256 0.925 2.09212067062e-38
0.0768679551588 -0.044412596314 0.923 2.09212039036e-38
0.0783207382285 -0.0442682433465 0.92 2.04605788815e-38
0.07984939914 -0.0441720080349 0.918 2.13825337788e-38
0.08128182474 -0.0440276550675 0.915 2.08308061396e-38
0.0827938295399 -0.0439314197559 0.913 2.07389748474e-38
0.0840208297631 -0.0436908314768 0.908 2.14765398863e-38
0.0857012463583 -0.0436908314768 0.908 2.17531267759e-38
0.0869004863955 -0.0434502431977 0.903 2.23984947836e-38
0.088375477614 -0.0433540078861 0.901 2.17531253746e-38
0.0897431294465 -0.0432096549187 0.898 2.23062991538e-38
0.0912014645534 -0.0431134196071 0.896 2.20297122642e-38
0.092652396944 -0.0430171842954 0.894 2.24903246746e-38
0.0937794604974 -0.0427765960164 0.889 2.23981290447e-38
0.0946733384881 -0.0424397724257 0.882 2.22133846578e-38
0.0958688771671 -0.0422473018025 0.878 2.26750830745e-38
0.096716488181 -0.0419104782118 0.871 2.21219092953e-38
0.0975381896879 -0.0415736546211 0.864 2.16620087445e-38
0.0991371764041 -0.0415736546211 0.864 2.20307884614e-38
0.10073616312 -0.0415736546211 0.864 2.23995681782e-38
0.0753226381356 -0.0427969534861 0.925 2.07368126438e-38
0.0766181134844 -0.0425656186024 0.92 2.11059510931e-38
0.0781504757541 -0.042473084649 0.918 2.09215556295e-38
0.07984939914 -0.042473084649 0.918 2.10141071892e-38
0.08128182474 -0.0423342837187 0.915 2.09226458397e-38
0.0827938295399 -0.0422417497652 0.913 2.09230101773e-38
0.0840208297631 -0.0420104148815 0.908 2.19371621058e-38
0.0855124770932 -0.041917880928 0.906 2.19375180356e-38
0.0869004863955 -0.0417790799978 0.903 2.19375166343e-38
0.088375477614 -0.0416865460443 0.901 2.13843400525e-38
0.0897431294465 -0.0415477451141 0.898 2.21219050914e-38
0.0912014645534 -0.0414552111606 0.896 2.27676304303e-38
0.092652396944 -0.0413626772071 0.894 2.15683655733e-38
0.0937794604974 -0.0411313423234 0.889 2.21215393525e-38
0.0946733384881 -0.0408074734862 0.882 2.18449580681e-38
0.0963056374275 -0.0408074734862 0.882 2.17531253746e-38
0.096716488181 -0.0402985367421 0.871 2.15687341148e-38
0.0975381896879 -0.0399746679049 0.864 2.17542043744e-38
0.0991371764041 -0.0399746679049 0.864 2.10166337303e-38
0.10073616312 -0.0399746679049 0.864 2.24921197379e-38
0.0766181134844 -0.0408629938583 0.92 2.11070160799e-38
0.0781504757541 -0.040774161263 0.918 2.09219087567e-38
0.0795884533912 -0.04064091237 0.915 2.1198146723e-38
0.08128182474 -0.04064091237 0.915 2.2672920871e-38
0.0827938295399 -0.0405520797746 0.913 2.04609446204e-38
0.0840208297631 -0.0403299982863 0.908 2.30424250591e-38
0.0855124770932 -0.0402411656909 0.906 2.11992327293e-38
0.0867080157722 -0.0400190842026 0.901 2.21211890279e-38
0.0880812196419 -0.0398858353096 0.898 2.19367977682e-38
0.0897431294465 -0.0398858353096 0.898 2.33186546176e-38
0.0912014645534 -0.0397970027142 0.896 2.23037866256e-38
0.092652396944 -0.0397081701189 0.894 2.21190310283e-38
0.0937794604974 -0.0394860886305 0.889 2.26707656739e-38
0.0946733384881 -0.0391751745468 0.882 2.33150574845e-38
0.0963056374275 -0.0391751745468 0.882 2.3316496618e-38
0.0995702353064 -0.0391751745468 0.882 2.29534720339e-38
0.0766181134844 -0.0391603691142 0.92 2.10137414503e-38
0.0781504757541 -0.039075237877 0.918 2.01836276543e-38
0.0795884533912 -0.0389475410212 0.915 2.20271913282e-38
0.08128182474 -0.0389475410212 0.915 2.1659485006e-38
0.0827938295399 -0.038862409784 0.913 2.08315194006e-38
0.0840208297631 -0.038649581691 0.908 2.26765109976e-38
0.0855124770932 -0.0385644504538 0.906 2.24002870444e-38
0.0867080157722 -0.0383516223608 0.901 2.2032223391e-38
0.0880812196419 -0.038223925505 0.898 2.19393116976e-38
0.089543256107 -0.0381387942678 0.896 2.23995737834e-38
0.0909978898557 -0.0380536630306 0.894 2.23062991538e-38
0.0923414828603 -0.0379259661748 0.891 2.15734102478e-38
0.0935684830835 -0.0377557037004 0.887 2.23102550193e-38
0.094458659716 -0.0374577443701 0.88 2.25843251769e-38
0.0960872572973 -0.0374577443701 0.88 2.12010305952e-38
0.0977158548786 -0.0374577443701 0.88 2.23077382873e-38
0.0766181134844 -0.0374577443701 0.92 2.16587577321e-38
0.0781504757541 -0.0373763144911 0.918 2.08293599996e-38
0.0795884533912 -0.0372541696725 0.915 2.18431602022e-38
0.0811041595493 -0.0371727397934 0.913 2.09229989669e-38
0.0825217797166 -0.0370505949748 0.91 2.12925003525e-38
0.0840208297631 -0.0369691650957 0.908 2.13854162497e-38
0.0852293231956 -0.0367655903981 0.903 2.22158957846e-38
0.0867080157722 -0.036684160519 0.901 2.16627192028e-38
0.0880812196419 -0.0365620157004 0.898 2.20315017223e-38
0.089543256107 -0.0364805858214 0.896 2.3137489147e-38
0.0909978898557 -0.0363991559423 0.894 2.22144538485e-38
0.0923414828603 -0.0362770111237 0.891 2.22173377207e-38
0.0935684830835 -0.0361141513656 0.887 2.19414724999e-38
0.094458659716 -0.0358291467888 0.88 2.16659618075e-38
0.0960872572973 -0.0358291467888 0.88 2.19425486971e-38
0.0764515523681 -0.0356773911051 0.918 2.08297271398e-38
0.0781504757541 -0.0356773911051 0.918 2.03698251877e-38
0.0795884533912 -0.0355607983237 0.915 2.07386077072e-38
0.0811041595493 -0.0354830698028 0.913 2.19353558321e-38
0.0825217797166 -0.0353664770214 0.91 2.26729236736e-38
0.0835581599956 -0.0350944271982 0.903 2.20282731306e-38
0.0850405539305 -0.0350166986772 0.901 2.3505203877e-38
0.0864193098374 -0.0349001058959 0.898 2.26743628071e-38
0.0880812196419 -0.0349001058959 0.898 2.27658325644e-38
0.089543256107 -0.0348223773749 0.896 2.23044914787e-38
0.0909978898557 -0.034744648854 0.894 2.35033933994e-38
0.0923414828603 -0.0346280560726 0.891 2.21197498944e-38
0.0935684830835 -0.0344725990308 0.887 2.28591184044e-38
0.094458659716 -0.0342005492075 0.88 2.24006541845e-38
0.0960872572973 -0.0342005492075 0.88 2.20329492636e-38
0.0977158548786 -0.0342005492075 0.88 2.05563744471e-38
0.0795884533912 -0.033867426975 0.915 2.12932206199e-38
0.0811041595493 -0.0337933998122 0.913 2.09244437056e-38
0.0823404131678 -0.0336083319052 0.908 2.18460426731e-38
0.0835581599956 -0.0334232639983 0.903 2.1754568712e-38
0.0850405539305 -0.0333492368355 0.901 2.29534748365e-38
0.0864193098374 -0.0332381960913 0.898 2.22151909315e-38
0.0880812196419 -0.0332381960913 0.898 2.32282568537e-38
0.089543256107 -0.0331641689285 0.896 2.31356968862e-38
0.0909978898557 -0.0330901417657 0.894 2.30420565176e-38
0.0923414828603 -0.0329791010215 0.891 2.28601946016e-38
0.0935684830835 -0.032831046696 0.887 2.25857685143e-38
0.0952100354183 -0.032831046696 0.887 2.25857685143e-38
0.0968515877531 -0.032831046696 0.887 2.35077304181e-38
0.0811041595493 -0.0321037298216 0.913 2.13879329818e-38
0.0823404131678 -0.03192791531 0.908 2.12046277284e-38
0.0835581599956 -0.0317521007983 0.903 2.21265854283e-38
0.0850405539305 -0.0316817749937 0.901 2.35088066153e-38
0.0864193098374 -0.0315762862867 0.898 2.29534748365e-38
0.0880812196419 -0.0315762862867 0.898 2.35059241444e-38
0.089543256107 -0.0315059604821 0.896 2.35062786729e-38
0.0909978898557 -0.0314356346774 0.894 2.35066374053e-38
0.092652396944 -0.0314356346774 0.894 2.3505926947e-38
0.0943069040323 -0.0314356346774 0.894 2.35023284125e-38
0.0959614111206 -0.0314356346774 0.894 2.05452313217e-38
0.0823404131678 -0.0302474987147 0.908 2.35059087301e-38
0.0835581599956 -0.0300809375984 0.903 2.35023158008e-38
0.0850405539305 -0.0300143131519 0.901 2.35055640107e-38
0.0864193098374 -0.0299143764822 0.898 2.35052094822e-38
0.0880812196419 -0.0299143764822 0.898 2.06334612769e-38
0.0897431294465 -0.0299143764822 0.898 1.65739682894e-38
0.0914050392511 -0.0299143764822 0.898 8.82773190974e-39
0.0877814096326 -0.0282154530962 0.847 9.18535869212e-39
0.0893489348046 -0.0282154530962 0.847 7.89785266959e-39
0.0909164599767 -0.0282154530962 0.847 9.18644609972e-39
0.0924839851487 -0.0282154530962 0.847 1.17661314752e-38
-0.0156752517201 -0.0266479279242 0.847 2.34987144638e-38
-0.0109467666971 -0.0265850048358 0.845 1.44448452118e-38
-0.00938294288323 -0.0265850048358 0.845 1.66542837109e-38
0.0808376617632 -0.0286300052078 0.91 1.43572976889e-38
0.0823404131678 -0.0285670821194 0.908 1.05725951264e-38
0.0833730920887 -0.0283468513102 0.901 8.26663659034e-39
0.0850405539305 -0.0283468513102 0.901 8.7251064154e-39
0.0864193098374 -0.0282524666776 0.898 1.10267615638e-38
0.0880812196419 -0.0282524666776 0.898 1.00100872981e-38
0.0850461059677 -0.0267737741009 0.851 1.12039487482e-38
0.0864174591583 -0.0267108510126 0.849 1.33230048976e-38
0.0877814096326 -0.0266479279242 0.847 1.45222557415e-38
0.0893489348046 -0.0266479279242 0.847 1.36953733398e-38
0.0909164599767 -0.0266479279242 0.847 1.55414509432e-38
0.0924839851487 -0.0266479279242 0.847 1.49861303748e-38
-0.0156752517201 -0.0250804027522 0.847 2.21161443534e-38
-0.0141077265481 -0.0250804027522 0.847 2.1284225685e-38
-0.0125402013761 -0.0250804027522 0.847 1.67572805493e-38
-0.0109467666971 -0.025021181022 0.845 1.56458925204e-38
-0.00938294288323 -0.025021181022 0.845 1.61929524343e-38
-0.00781911906936 -0.025021181022 0.845 1.54489147978e-38
0.0466926329278 -0.0249027375615 0.841 2.35059045262e-38
0.0481343119231 -0.0248435158313 0.839 2.35051870614e-38
0.0496870316625 -0.0248435158313 0.839 2.35070003416e-38
0.051239751402 -0.0248435158313 0.839 2.35026871449e-38
0.0527924711414 -0.0248435158313 0.839 2.35034088136e-38
0.054215643346 -0.024784294101 0.837 2.35005347505e-38
0.0557646617273 -0.024784294101 0.837 2.34915370131e-38
0.0823404131678 -0.0268866655242 0.908 1.34155564573e-38
0.0833730920887 -0.0266793894684 0.901 1.39683757079e-38
0.0799437837726 -0.0250804027522 0.847 1.41524138404e-38
0.0815113089446 -0.0250804027522 0.847 1.54431554611e-38
0.0830788341166 -0.0250804027522 0.847 1.66416986494e-38
0.0846463592886 -0.0250804027522 0.847 1.51658469028e-38
0.0862138844606 -0.0250804027522 0.847 1.60870829341e-38
0.0877814096326 -0.0250804027522 0.847 1.59970340934e-38
0.0893489348046 -0.0250804027522 0.847 1.46205792496e-38
0.0909164599767 -0.0250804027522 0.847 1.43468580154e-38
0.0924839851487 -0.0250804027522 0.847 1.48013831852e-38
-0.0156752517201 -0.0235128775802 0.847 2.30381034547e-38
-0.0141077265481 -0.0235128775802 0.847 2.20225123927e-38
-0.0125402013761 -0.0235128775802 0.847 1.87888129979e-38
-0.0109467666971 -0.0234573572081 0.845 1.47268102849e-38
-0.00938294288323 -0.0234573572081 0.845 1.44437550016e-38
-0.00781911906936 -0.0234573572081 0.845 1.49908205207e-38
-0.00624048982293 -0.023401836836 0.843 1.59995746476e-38
-0.0046803673672 -0.023401836836 0.843 1.66431405855e-38
0.026270389394 -0.0231797553476 0.835 1.48143017558e-38
0.0278157064172 -0.0231797553476 0.835 1.43554675931e-38
0.0293610234403 -0.0231797553476 0.835 1.51852282619e-38
0.0309063404635 -0.0231797553476 0.835 1.5184876536e-38
0.0324516574867 -0.0231797553476 0.835 1.48150276284e-38
0.0339969745099 -0.0231797553476 0.835 1.43522516131e-38
0.035542291533 -0.0231797553476 0.835 1.26912855369e-38
0.0370876085562 -0.0231797553476 0.835 1.48132423742e-38
0.0386329255794 -0.0231797553476 0.835 1.45366582872e-38
0.0401782426026 -0.0231797553476 0.835 1.27834979823e-38
0.0417235596257 -0.0231797553476 0.835 1.16760686216e-38
0.0434761527047 -0.0232907960918 0.839 1.01073009778e-38
0.0450288724442 -0.0232907960918 0.839 9.83071689077e-39
0.0465815921836 -0.0232907960918 0.839 9.64596970124e-39
0.0481343119231 -0.0232907960918 0.839 9.27755151938e-39
0.0496870316625 -0.0232907960918 0.839 9.37082614906e-39
0.051239751402 -0.0232907960918 0.839 9.92292092843e-39
0.0527924711414 -0.0232907960918 0.839 9.73709053518e-39
0.054215643346 -0.0232352757197 0.837 9.73493253554e-39
0.0557646617273 -0.0232352757197 0.837 1.10220784244e-38
0.0573136801086 -0.0232352757197 0.837 1.08366081648e-38
0.0768087334286 -0.0235128775802 0.847 1.47959783771e-38
0.0783762586006 -0.0235128775802 0.847 1.52573166601e-38
0.0799437837726 -0.0235128775802 0.847 1.50729310056e-38
0.0815113089446 -0.0235128775802 0.847 1.47970643834e-38
0.0830788341166 -0.0235128775802 0.847 1.42446122729e-38
0.0846463592886 -0.0235128775802 0.847 1.40605839495e-38
0.0862138844606 -0.0235128775802 0.847 1.46148367285e-38
0.0877814096326 -0.0235128775802 0.847 1.28638358246e-38
0.0893489348046 -0.0235128775802 0.847 1.47116986822e-38
0.0909164599767 -0.0235128775802 0.847 1.44365565314e-38
0.0924839851487 -0.0235128775802 0.847 1.48049705093e-38
-0.0141077265481 -0.0219453524082 0.847 2.17466485731e-38
-0.0125402013761 -0.0219453524082 0.847 2.06356066649e-38
-0.0109726762041 -0.0219453524082 0.847 1.43616248986e-38
-0.00938294288323 -0.0218935333942 0.845 1.49097680163e-38
-0.00781911906936 -0.0218935333942 0.845 1.59167298823e-38
-0.00624048982293 -0.0218417143803 0.843 1.55425523638e-38
-0.00466926329278 -0.0217898953663 0.841 1.38801485553e-38
-0.00310543947891 -0.0217380763524 0.839 1.42485625333e-38
-0.00155271973945 -0.0217380763524 0.839 1.45255011488e-38
0.0 -0.0217380763524 0.839 1.67284964775e-38
0.00154901838131 -0.0216862573384 0.837 1.68185313052e-38
0.00309803676263 -0.0216862573384 0.837 1.69110968778e-38
0.00464705514394 -0.0216862573384 0.837 1.57129390467e-38
0.00619607352526 -0.0216862573384 0.837 1.53459501893e-38
0.00776359869727 -0.0217380763524 0.839 1.51651238328e-38
0.00931631843672 -0.0217380763524 0.839 1.5166551756e-38
0.0108690381762 -0.0217380763524 0.839 1.53509598313e-38
0.0124217579156 -0.0217380763524 0.839 1.37836201106e-38
0.0139744776551 -0.0217380763524 0.839 1.47041316705e-38
0.0155271973945 -0.0217380763524 0.839 1.47952483006e-38
0.0170392021945 -0.0216862573384 0.837 1.43342701513e-38
0.0185882205758 -0.0216862573384 0.837 1.47952511032e-38
0.0201372389571 -0.0216862573384 0.837 1.38747339381e-38
0.0216862573384 -0.0216862573384 0.837 1.30460522691e-38
0.0231797553476 -0.0216344383245 0.835 1.31389667651e-38
0.0247250723708 -0.0216344383245 0.835 1.20304612071e-38
0.026270389394 -0.0216344383245 0.835 1.2676182342e-38
0.0278157064172 -0.0216344383245 0.835 1.22155559186e-38
0.0293610234403 -0.0216344383245 0.835 1.19396906978e-38
0.0309063404635 -0.0216344383245 0.835 1.31378765549e-38
0.0324516574867 -0.0216344383245 0.835 1.29524175057e-38
0.0339969745099 -0.0216344383245 0.835 1.33197580891e-38
0.035542291533 -0.0216344383245 0.835 1.2950611232e-38
0.0370876085562 -0.0216344383245 0.835 1.23070480967e-38
0.0386329255794 -0.0216344383245 0.835 1.25832790565e-38
0.0401782426026 -0.0216344383245 0.835 1.36881846787e-38
0.0417235596257 -0.0216344383245 0.835 1.41477208919e-38
0.0434761527047 -0.0217380763524 0.839 1.38707724673e-38
0.0450288724442 -0.0217380763524 0.839 1.47005345374e-38
0.0465815921836 -0.0217380763524 0.839 1.49767654971e-38
0.0481343119231 -0.0217380763524 0.839 1.45165090165e-38
0.0496870316625 -0.0217380763524 0.839 1.49807171588e-38
0.051239751402 -0.0217380763524 0.839 1.40598328535e-38
0.0527924711414 -0.0217380763524 0.839 1.38747255303e-38
0.0543451908809 -0.0217380763524 0.839 1.44268231122e-38
0.0557646617273 -0.0216862573384 0.837 1.61771023474e-38
0.0573136801086 -0.0216862573384 0.837 1.40558825931e-38
0.0591440017085 -0.0217898953663 0.841 1.35019899478e-38
0.0608447757736 -0.0218417143803 0.843 1.61738667492e-38
0.0624048982293 -0.0218417143803 0.843 1.53520248181e-38
0.063965020685 -0.0218417143803 0.843 1.39694463e-38
0.0655251431408 -0.0218417143803 0.843 1.58094002291e-38
0.0672444239965 -0.0218935333942 0.845 1.57172102044e-38
0.0719358954381 -0.0218935333942 0.845 1.42449654001e-38
0.073499719252 -0.0218935333942 0.845 1.3229364529e-38
0.0750635430659 -0.0218935333942 0.845 1.43357176926e-38
0.0768087334286 -0.0219453524082 0.847 1.42442437314e-38
0.0783762586006 -0.0219453524082 0.847 1.40598552743e-38
0.0799437837726 -0.0219453524082 0.847 1.44293566598e-38
0.0815113089446 -0.0219453524082 0.847 1.40609370767e-38
0.0830788341166 -0.0219453524082 0.847 1.4522638296e-38
0.0846463592886 -0.0219453524082 0.847 1.47077512245e-38
0.0862138844606 -0.0219453524082 0.847 1.48917851531e-38
0.0877814096326 -0.0219453524082 0.847 1.41574599162e-38
0.0893489348046 -0.0219453524082 0.847 1.53541968307e-38
0.0909164599767 -0.0219453524082 0.847 1.55378846386e-38
-0.0141077265481 -0.0203778272361 0.847 2.16551718093e-38
-0.0125402013761 -0.0203778272361 0.847 2.33107204657e-38
-0.0109726762041 -0.0203778272361 0.847 1.70378191005e-38
-0.00940515103207 -0.0203778272361 0.847 1.48186541888e-38
-0.00781911906936 -0.0203297095803 0.845 1.47203446938e-38
-0.00625529525549 -0.0203297095803 0.845 1.54521517973e-38
-0.00466926329278 -0.0202334742687 0.841 1.55411090264e-38
-0.00310543947891 -0.0201853566129 0.839 1.49868464383e-38
-0.00155271973945 -0.0201853566129 0.839 1.36035476527e-38
0.0 -0.0201853566129 0.839 1.50765141257e-38
0.00154901838131 -0.0201372389571 0.837 1.55364160778e-38
0.00309803676263 -0.0201372389571 0.837 1.4521915226e-38
0.00464705514394 -0.0201372389571 0.837 1.43378953104e-38
0.00619607352526 -0.0201372389571 0.837 1.44311643349e-38
0.00774509190657 -0.0201372389571 0.837 1.48017222995e-38
0.00931631843672 -0.0201853566129 0.839 1.3143271554e-38
0.0108431286692 -0.0201372389571 0.837 1.42489114566e-38
0.0123921470505 -0.0201372389571 0.837 1.45236920725e-38
0.0139411654318 -0.0201372389571 0.837 1.52605340414e-38
0.0155271973945 -0.0201853566129 0.839 1.49825122221e-38
0.0170392021945 -0.0201372389571 0.837 1.45215368754e-38
0.0185882205758 -0.0201372389571 0.837 1.50747120559e-38
0.0201372389571 -0.0201372389571 0.837 1.53516646844e-38
0.0216862573384 -0.0201372389571 0.837 1.50754407311e-38
0.0231797553476 -0.0200891213013 0.835 1.48917711401e-38
0.0247250723708 -0.0200891213013 0.835 1.49814556431e-38
0.0263333124823 -0.0201372389571 0.837 1.40587734719e-38
0.0278823308637 -0.0201372389571 0.837 1.42435164575e-38
0.029431349245 -0.0201372389571 0.837 1.433571489e-38
0.0309063404635 -0.0200891213013 0.835 1.44275587939e-38
0.0324516574867 -0.0200891213013 0.835 1.41499027136e-38
0.0339969745099 -0.0200891213013 0.835 1.49789403124e-38
0.0356274227702 -0.0201372389571 0.837 1.54402687863e-38
0.0371764411516 -0.0201372389571 0.837 1.48906865351e-38
0.0387254595329 -0.0201372389571 0.837 1.38765346066e-38
0.0402744779142 -0.0201372389571 0.837 1.50732771263e-38
0.0418234962955 -0.0201372389571 0.837 1.55328161421e-38
0.0433725146768 -0.0201372389571 0.837 1.44264685837e-38
0.0449215330581 -0.0201372389571 0.837 1.48867278669e-38
0.0464705514394 -0.0201372389571 0.837 1.45186670162e-38
0.0481343119231 -0.0201853566129 0.839 1.47037813459e-38
0.0496870316625 -0.0201853566129 0.839 1.35992316535e-38
0.051239751402 -0.0201853566129 0.839 1.45215480858e-38
0.0527924711414 -0.0201853566129 0.839 1.49825276364e-38
0.0543451908809 -0.0201853566129 0.839 1.44297167936e-38
0.0558979106203 -0.0201853566129 0.839 1.32311764079e-38
0.0574506303598 -0.0201853566129 0.839 1.3876545817e-38
0.0591440017085 -0.0202334742687 0.841 1.50750862026e-38
0.0608447757736 -0.0202815919245 0.843 1.35081164247e-38
0.0624048982293 -0.0202815919245 0.843 1.41542117064e-38
0.063965020685 -0.0202815919245 0.843 1.46130262509e-38
0.0655251431408 -0.0202815919245 0.843 1.56250145745e-38
0.0672444239965 -0.0203297095803 0.845 1.52558761253e-38
0.0688082478104 -0.0203297095803 0.845 1.35985239978e-38
0.0703720716242 -0.0203297095803 0.845 1.46148381298e-38
0.0719358954381 -0.0203297095803 0.845 1.51683636349e-38
0.073499719252 -0.0203297095803 0.845 1.55357000143e-38
0.0750635430659 -0.0203297095803 0.845 1.4613745117e-38
0.0766273668797 -0.0203297095803 0.845 1.43375211637e-38
0.0783762586006 -0.0203778272361 0.847 1.42453255338e-38
0.0799437837726 -0.0203778272361 0.847 1.42464045336e-38
0.0815113089446 -0.0203778272361 0.847 1.53531150283e-38
0.0830788341166 -0.0203778272361 0.847 1.4524436162e-38
0.0846463592886 -0.0203778272361 0.847 1.34184515399e-38
0.0864174591583 -0.020425944892 0.849 1.42478576802e-38
0.0879886856884 -0.020425944892 0.849 1.52674102129e-38
0.0895599122186 -0.020425944892 0.849 1.56286481415e-38
0.0911311387487 -0.020425944892 0.849 1.57208325609e-38
-0.0141077265481 -0.0188103020641 0.847 2.1655531943e-38
-0.0125402013761 -0.0188103020641 0.847 2.14675295372e-38
-0.0109467666971 -0.0187658857665 0.845 2.1002232586e-38
-0.00938294288323 -0.0187658857665 0.845 1.50963200782e-38
-0.00781911906936 -0.0187658857665 0.845 1.5090206213e-38
-0.00625529525549 -0.0187658857665 0.845 1.41617731129e-38
-0.00466926329278 -0.0186770531711 0.841 1.54485532628e-38
-0.00310543947891 -0.0186326368734 0.839 1.5722973745e-38
-0.00155271973945 -0.0186326368734 0.839 1.48924900062e-38
0.0 -0.0186326368734 0.839 1.46158877023e-38
0.00155271973945 -0.0186326368734 0.839 1.48914025986e-38
0.00310543947891 -0.0186326368734 0.839 1.50750890052e-38
0.00464705514394 -0.0185882205758 0.837 1.47985021156e-38
0.00619607352526 -0.0185882205758 0.837 1.41534816299e-38
0.00774509190657 -0.0185882205758 0.837 1.55367678037e-38
0.00931631843672 -0.0186326368734 0.839 1.49839499544e-38
0.0108431286692 -0.0185882205758 0.837 1.43385805453e-38
0.0123921470505 -0.0185882205758 0.837 1.47066470013e-38
0.0139411654318 -0.0185882205758 0.837 1.45215382767e-38
0.0155271973945 -0.0186326368734 0.839 1.4612298977e-38
0.0170392021945 -0.0185882205758 0.837 1.44271916537e-38
0.0185882205758 -0.0185882205758 0.837 1.47027037474e-38
0.0201372389571 -0.0185882205758 0.837 1.47956252499e-38
0.0216862573384 -0.0185882205758 0.837 1.38740318875e-38
0.0232352757197 -0.0185882205758 0.837 1.32297442809e-38
0.024784294101 -0.0185882205758 0.837 1.46130262509e-38
0.0263333124823 -0.0185882205758 0.837 1.47966902367e-38
0.0278823308637 -0.0185882205758 0.837 1.4797400695e-38
0.029431349245 -0.0185882205758 0.837 1.51651084185e-38
0.0309803676263 -0.0185882205758 0.837 1.54413463848e-38
0.0325293860076 -0.0185882205758 0.837 1.44268399278e-38
0.0340784043889 -0.0185882205758 0.837 1.49803682355e-38
0.0356274227702 -0.0185882205758 0.837 1.47030554733e-38
0.0371764411516 -0.0185882205758 0.837 1.45215480858e-38
0.0387254595329 -0.0185882205758 0.837 1.45215494871e-38
0.0402744779142 -0.0185882205758 0.837 1.48896131405e-38
0.0418234962955 -0.0185882205758 0.837 1.47034268174e-38
0.0433725146768 -0.0185882205758 0.837 1.46101549903e-38
0.0449215330581 -0.0185882205758 0.837 1.470342962e-38
0.0464705514394 -0.0185882205758 0.837 1.42431703368e-38
0.0481343119231 -0.0186326368734 0.839 1.65487813508e-38
0.0496870316625 -0.0186326368734 0.839 1.47938301865e-38
0.051239751402 -0.0186326368734 0.839 1.57150704216e-38
0.0527924711414 -0.0186326368734 0.839 1.50700653502e-38
0.0543451908809 -0.0186326368734 0.839 1.48871160266e-38
0.0558979106203 -0.0186326368734 0.839 1.47956392628e-38
0.0574506303598 -0.0186326368734 0.839 1.42435416809e-38
0.0591440017085 -0.0186770531711 0.841 1.39683897209e-38
0.0607004228061 -0.0186770531711 0.841 1.37843529897e-38
0.0624048982293 -0.0187214694688 0.843 1.47992293895e-38
0.063965020685 -0.0187214694688 0.843 1.47970643834e-38
0.0655251431408 -0.0187214694688 0.843 1.39651373072e-38
0.0672444239965 -0.0187658857665 0.845 1.53480731564e-38
0.0688082478104 -0.0187658857665 0.845 1.44290035326e-38
0.0703720716242 -0.0187658857665 0.845 1.47995895232e-38
0.0719358954381 -0.0187658857665 0.845 1.40634580126e-38
0.073499719252 -0.0187658857665 0.845 1.32322498026e-38
0.0750635430659 -0.0187658857665 0.845 1.43386029661e-38
0.0766273668797 -0.0187658857665 0.845 1.36010379272e-38
0.0783762586006 -0.0188103020641 0.847 1.38783408803e-38
0.0799437837726 -0.0188103020641 0.847 1.37861424478e-38
0.0815113089446 -0.0188103020641 0.847 1.44322349269e-38
0.0830788341166 -0.0188103020641 0.847 1.39716225165e-38
0.0848462326281 -0.0188547183618 0.849 1.42485737437e-38
0.0864174591583 -0.0188547183618 0.849 1.43414952461e-38
0.0879886856884 -0.0188547183618 0.849 1.36093294102e-38
0.0897708896325 -0.0188991346595 0.851 1.52627508955e-38
0.0913458175208 -0.0188991346595 0.851 1.31443953953e-38
-0.0141077265481 -0.0172427768921 0.847 2.14722168805e-38
-0.0125402013761 -0.0172427768921 0.847 2.21132618825e-38
-0.0109467666971 -0.0172020619526 0.845 2.26628357259e-38
-0.00938294288323 -0.0172020619526 0.845 1.77714324778e-38
-0.00781911906936 -0.0172020619526 0.845 1.47228586232e-38
-0.00625529525549 -0.0172020619526 0.845 1.42550477426e-38
-0.00466926329278 -0.0171206320735 0.841 1.55414649562e-38
-0.00310543947891 -0.017079917134 0.839 1.6091759067e-38
-0.00155271973945 -0.017079917134 0.839 1.51683636349e-38
0.0 -0.017079917134 0.839 1.50761427816e-38
0.00155271973945 -0.017079917134 0.839 1.47066582117e-38
0.00310543947891 -0.017079917134 0.839 1.5166214043e-38
0.00465815921836 -0.017079917134 0.839 1.54427897222e-38
0.00621087895782 -0.017079917134 0.839 1.44293426469e-38
0.00776359869727 -0.017079917134 0.839 1.52576711886e-38
0.00931631843672 -0.017079917134 0.839 1.45201089523e-38
0.0108431286692 -0.0170392021945 0.837 1.45197404108e-38
0.0123921470505 -0.0170392021945 0.837 1.47059393455e-38
0.0139411654318 -0.0170392021945 0.837 1.44293566598e-38
0.0155271973945 -0.017079917134 0.839 1.47963413134e-38
0.017079917134 -0.017079917134 0.839 1.48867418799e-38
0.0186326368734 -0.017079917134 0.839 1.44257665332e-38
0.0201853566129 -0.017079917134 0.839 1.48867474851e-38
0.0217380763524 -0.017079917134 0.839 1.44264910045e-38
0.0232907960918 -0.017079917134 0.839 1.46116011303e-38
0.0248435158313 -0.017079917134 0.839 1.53509598313e-38
0.0263962355707 -0.017079917134 0.839 1.45215494871e-38
0.0279489553102 -0.017079917134 0.839 1.38758157405e-38
0.0295016750496 -0.017079917134 0.839 1.4611947251e-38
0.0309803676263 -0.0170392021945 0.837 1.50718590122e-38
0.0325293860076 -0.0170392021945 0.837 1.41499069175e-38
0.0340784043889 -0.0170392021945 0.837 1.4888183816e-38
0.0356274227702 -0.0170392021945 0.837 1.4704500212e-38
0.0371764411516 -0.0170392021945 0.837 1.49832465025e-38
0.0387254595329 -0.0170392021945 0.837 1.39687414468e-38
0.0402744779142 -0.0170392021945 0.837 1.48899788794e-38
0.0418234962955 -0.0170392021945 0.837 1.42438962094e-38
0.0434761527047 -0.017079917134 0.839 1.42428186109e-38
0.0450288724442 -0.017079917134 0.839 1.40591476186e-38
0.0465815921836 -0.017079917134 0.839 1.43364533743e-38
0.0481343119231 -0.017079917134 0.839 1.51669329091e-38
0.0496870316625 -0.017079917134 0.839 1.4886014606e-38
0.051239751402 -0.017079917134 0.839 1.39626191738e-38
0.0527924711414 -0.017079917134 0.839 1.39629835114e-38
0.0543451908809 -0.017079917134 0.839 1.51622497697e-38
0.0558979106203 -0.017079917134 0.839 1.48867418799e-38
0.057587580611 -0.0171206320735 0.841 1.46112311875e-38
0.0591440017085 -0.0171206320735 0.841 1.51665545586e-38
0.0607004228061 -0.0171206320735 0.841 1.48903207962e-38
0.0624048982293 -0.0171613470131 0.843 1.55367930271e-38
0.063965020685 -0.0171613470131 0.843 1.4613397595e-38
0.0655251431408 -0.0171613470131 0.843 1.43339212279e-38
0.0672444239965 -0.0172020619526 0.845 1.4794897976e-38
0.0688082478104 -0.0172020619526 0.845 1.442900073e-38
0.0703720716242 -0.0172020619526 0.845 1.39701861856e-38
0.0719358954381 -0.0172020619526 0.845 1.36024798633e-38
0.073499719252 -0.0172020619526 0.845 1.38776220142e-38
0.0750635430659 -0.0172020619526 0.845 1.51680077051e-38
0.0766273668797 -0.0172020619526 0.845 1.36014008635e-38
0.0783762586006 -0.0172427768921 0.847 1.46159059192e-38
0.0799437837726 -0.0172427768921 0.847 1.46169821164e-38
0.0815113089446 -0.0172427768921 0.847 1.46173450527e-38
0.083275006098 -0.0172834918317 0.849 1.41567326423e-38
0.0848462326281 -0.0172834918317 0.849 1.44340468058e-38
0.086621033856 -0.0173242067712 0.851 1.46180849383e-38
0.0881959617442 -0.0173242067712 0.851 1.37933675427e-38
0.0900873557534 -0.0173852791805 0.854 1.24122281581e-38
0.0916678356789 -0.0173852791805 0.854 1.34325079648e-38
-0.0125698122412 -0.0157122653015 0.849 2.10101513236e-38
-0.0109726762041 -0.0156752517201 0.847 2.07296085684e-38
-0.00940515103207 -0.0156752517201 0.847 2.01724747198e-38
-0.00781911906936 -0.0156382381387 0.845 1.50952382758e-38
-0.00625529525549 -0.0156382381387 0.845 1.50887628756e-38
-0.00466926329278 -0.0155642109759 0.841 1.39770175156e-38
-0.00311284219519 -0.0155642109759 0.841 1.48021020514e-38
-0.00155271973945 -0.0155271973945 0.839 1.43400449022e-38
0.0 -0.0155271973945 0.839 1.41574262851e-38
0.00155271973945 -0.0155271973945 0.839 1.52630773981e-38
0.00310543947891 -0.0155271973945 0.839 1.46162912763e-38
0.00465815921836 -0.0155271973945 0.839 1.48010230515e-38
0.00621087895782 -0.0155271973945 0.839 1.42485513229e-38
0.00776359869727 -0.0155271973945 0.839 1.4338968705e-38
0.00931631843672 -0.0155271973945 0.839 1.38776388298e-38
0.0108690381762 -0.0155271973945 0.839 1.47077456193e-38
0.0124217579156 -0.0155271973945 0.839 1.42482094061e-38
0.0139744776551 -0.0155271973945 0.839 1.38794296892e-38
0.0155271973945 -0.0155271973945 0.839 1.37865151932e-38
0.017079917134 -0.0155271973945 0.839 1.3877268887e-38
0.0186326368734 -0.0155271973945 0.839 1.44297223987e-38
0.0201853566129 -0.0155271973945 0.839 1.4521915226e-38
0.0217380763524 -0.0155271973945 0.839 1.36932335571e-38
0.0232907960918 -0.0155271973945 0.839 1.40620160765e-38
0.0248435158313 -0.0155271973945 0.839 1.37868823334e-38
0.0264591586591 -0.0155642109759 0.841 1.36943237673e-38
0.0280155797567 -0.0155642109759 0.841 1.3601046335e-38
0.0295016750496 -0.0155271973945 0.839 1.43368191132e-38
0.0310543947891 -0.0155271973945 0.839 1.38747731744e-38
0.0326071145285 -0.0155271973945 0.839 1.49814850704e-38
0.034159834268 -0.0155271973945 0.839 1.45219376468e-38
0.0357125540074 -0.0155271973945 0.839 1.3969831657e-38
0.0371764411516 -0.0154901838131 0.837 1.39716127074e-38
0.0387254595329 -0.0154901838131 0.837 1.40627279361e-38
0.0402744779142 -0.0154901838131 0.837 1.38776220142e-38
0.0418234962955 -0.0154901838131 0.837 1.37843529897e-38
