# .PCD v0.7 - Point Cloud Data file format
VERSION 0.7
FIELDS x y z rgb
SIZE 4 4 4 4
TYPE F F F F
COUNT 1 1 1 1
WIDTH 837
HEIGHT 1
VIEWPOINT 0 0 0 1 0 0 0
POINTS 837
DATA ascii
-0.0864174591583 -0.0267108510126 0.849 1.97226635179e-38
-0.0848462326281 -0.0267108510126 0.849 1.99070519751e-38
-0.0834711780794 -0.0267737741009 0.851 1.99996035347e-38
-0.0818962501911 -0.0267737741009 0.851 2.01839947945e-38
-0.0807932454656 -0.0269310818219 0.856 2.00917991646e-38
-0.0799493358098 -0.0271827741753 0.864 2.06446198166e-38
-0.0783503490936 -0.0271827741753 0.864 2.09212081075e-38
-0.0770178601634 -0.0272771588079 0.867 2.06446198166e-38
-0.07541332141 -0.0272771588079 0.867 2.05524213841e-38
-0.0738087826566 -0.0272771588079 0.867 2.02758344945e-38
-0.0722042439032 -0.0272771588079 0.867 2.08290082737e-38
-0.0705997051498 -0.0272771588079 0.867 2.08290082737e-38
-0.0689951663964 -0.0272771588079 0.867 2.0644617014e-38
-0.067390627643 -0.0272771588079 0.867 2.11055951633e-38
-0.0659378445733 -0.0273400818963 0.869 2.0644617014e-38
-0.0643296044618 -0.0273400818963 0.869 2.11048805011e-38
-0.0627213643502 -0.0273400818963 0.869 2.11970761309e-38
-0.0611131242387 -0.0273400818963 0.869 2.13821862568e-38
-0.0595048841271 -0.0273400818963 0.869 2.13821848555e-38
-0.0578966440156 -0.0273400818963 0.869 2.06453358801e-38
-0.056288403904 -0.0273400818963 0.869 2.1659485006e-38
-0.0546801637925 -0.0273400818963 0.869 2.15672893761e-38
-0.053071923681 -0.0273400818963 0.869 2.07386077072e-38
-0.0514636835694 -0.0273400818963 0.869 2.11059623035e-38
-0.0498554434579 -0.0273400818963 0.869 2.09212179166e-38
-0.0483582440905 -0.0274030049846 0.871 2.16591388853e-38
-0.0467463026208 -0.0274030049846 0.871 2.09215710438e-38
-0.0451343611511 -0.0274030049846 0.871 2.11059623035e-38
-0.0434224830117 -0.0273400818963 0.869 2.13825463905e-38
-0.0418142429001 -0.0273400818963 0.869 2.12907080917e-38
-0.0402060027886 -0.0273400818963 0.869 2.16594906112e-38
-0.0385977626771 -0.0273400818963 0.869 2.1291057015e-38
-0.0369895225655 -0.0273400818963 0.869 2.11988585826e-38
-0.035381282454 -0.0273400818963 0.869 2.1291057015e-38
-0.0337730423424 -0.0273400818963 0.869 2.18442321955e-38
-0.0321648022309 -0.0273400818963 0.869 2.14750965489e-38
-0.0305565621193 -0.0273400818963 0.869 2.1106316832e-38
-0.0289483220078 -0.0273400818963 0.869 2.15669404528e-38
-0.0274030049846 -0.0274030049846 0.871 2.13825491931e-38
-0.0257318417847 -0.0273400818963 0.869 2.18438818709e-38
-0.0241236016732 -0.0273400818963 0.869 2.16594878086e-38
-0.0225153615616 -0.0273400818963 0.869 2.17516806359e-38
-0.0209552391059 -0.0274030049846 0.871 2.14761699435e-38
-0.0193432976362 -0.0274030049846 0.871 2.11995830539e-38
-0.017690641227 -0.0273400818963 0.869 2.24906876109e-38
-0.0160824011154 -0.0273400818963 0.869 2.35084450803e-38
-0.0144741610039 -0.0273400818963 0.869 2.23981402551e-38
-0.0128659208924 -0.0273400818963 0.869 2.17513289099e-38
-0.0112576807808 -0.0273400818963 0.869 2.15672949813e-38
-0.00964944066926 -0.0273400818963 0.869 2.14761755487e-38
-0.00804120055772 -0.0273400818963 0.869 2.18453182018e-38
-0.00643296044618 -0.0273400818963 0.869 2.35066402079e-38
-0.00481361626021 -0.0272771588079 0.867 2.31356968862e-38
-0.00320907750681 -0.0272771588079 0.867 2.073753151e-38
-0.0016045387534 -0.0272771588079 0.867 2.14743776827e-38
0.0 -0.0271827741753 0.864 2.11070413033e-38
0.0015989867162 -0.0271827741753 0.864 2.11992369332e-38
0.00319057071611 -0.027119851087 0.862 2.07382587839e-38
0.00478585607417 -0.027119851087 0.862 2.11981551308e-38
0.00638114143223 -0.027119851087 0.862 2.08297299424e-38
0.00797642679028 -0.027119851087 0.862 2.11985096593e-38
0.0095495039995 -0.0270569279986 0.86 2.07368126438e-38
0.0111410879994 -0.0270569279986 0.86 2.06449729438e-38
0.0127326719993 -0.0270569279986 0.86 2.16591248723e-38
0.014290943776 -0.0269940049102 0.858 2.11981439204e-38
0.0158788264178 -0.0269940049102 0.858 2.05527745113e-38
0.0173852791805 -0.0268681587335 0.854 2.09215598334e-38
0.0188991346595 -0.0267737741009 0.851 2.07371685737e-38
0.020425944892 -0.0267108510126 0.849 2.0644617014e-38
0.0218935333942 -0.0265850048358 0.845 2.09212039036e-38
0.0234573572081 -0.0265850048358 0.845 2.11977907932e-38
0.0249619592917 -0.0265220817475 0.843 2.24878135477e-38
0.0265220817475 -0.0265220817475 0.843 2.22080036717e-38
0.0280822042032 -0.0265220817475 0.843 1.99120784327e-38
0.0295720008543 -0.0264591586591 0.841 2.0640677964e-38
0.0311284219519 -0.0264591586591 0.841 2.35062716664e-38
-0.0960391396415 -0.024784294101 0.837 2.35091527361e-38
-0.0944901212602 -0.024784294101 0.837 9.58077849408e-39
-0.0929411028789 -0.024784294101 0.837 2.35070031442e-38
-0.0916104646278 -0.0248435158313 0.839 1.96301021492e-38
-0.0904871024325 -0.0249619592917 0.843 1.87088647167e-38
-0.0891379573907 -0.025021181022 0.845 1.93538781959e-38
-0.0877814096326 -0.0250804027522 0.847 1.9261682566e-38
-0.0864174591583 -0.0251396244824 0.849 1.99070519751e-38
-0.0850461059677 -0.0251988462126 0.851 2.01836388647e-38
-0.0834711780794 -0.0251988462126 0.851 2.02758372971e-38
-0.0818962501911 -0.0251988462126 0.851 2.02758386984e-38
-0.0809820147307 -0.0254061222684 0.858 2.06442652881e-38
-0.0799493358098 -0.0255837874591 0.864 2.02754855712e-38
-0.0786223989168 -0.0256726200545 0.867 2.110524624e-38
-0.0770178601634 -0.0256726200545 0.867 2.1013763871e-38
-0.07541332141 -0.0256726200545 0.867 2.06449813516e-38
-0.0738087826566 -0.0256726200545 0.867 2.09215710438e-38
-0.0722042439032 -0.0256726200545 0.867 2.09215710438e-38
-0.0705997051498 -0.0256726200545 0.867 2.11981551308e-38
-0.0691543247964 -0.0257318417847 0.869 2.13829037216e-38
-0.0675460846849 -0.0257318417847 0.869 2.09222758969e-38
-0.0659378445733 -0.0257318417847 0.869 2.1291057015e-38
-0.0643296044618 -0.0257318417847 0.869 2.11063140294e-38
-0.0627213643502 -0.0257318417847 0.869 2.13829037216e-38
-0.0611131242387 -0.0257318417847 0.869 2.10141212021e-38
-0.0595048841271 -0.0257318417847 0.869 2.12907080917e-38
-0.0580298929086 -0.0257910635149 0.871 2.05538633202e-38
-0.0564179514389 -0.0257910635149 0.871 2.09226458397e-38
-0.0548060099692 -0.0257910635149 0.871 2.09226458397e-38
-0.0531940684996 -0.0257910635149 0.871 2.10148414696e-38
-0.0515821270299 -0.0257910635149 0.871 2.11070413033e-38
-0.0499701855602 -0.0257910635149 0.871 2.09226500436e-38
-0.0483582440905 -0.0257910635149 0.871 2.13836253903e-38
-0.0468536420069 -0.0258502852452 0.873 2.10148414696e-38
-0.0451343611511 -0.0257910635149 0.871 2.1383623989e-38
-0.0435224196815 -0.0257910635149 0.871 2.11070370994e-38
-0.0419104782118 -0.0257910635149 0.871 2.11992341306e-38
-0.0402060027886 -0.0257318417847 0.869 2.11070385007e-38
-0.0385977626771 -0.0257318417847 0.869 2.12907052891e-38
-0.0369895225655 -0.0257318417847 0.869 2.18438762657e-38
-0.035381282454 -0.0257318417847 0.869 2.1659485006e-38
-0.0337730423424 -0.0257318417847 0.869 2.18438762657e-38
-0.0322388293937 -0.0257910635149 0.871 2.23048572176e-38
-0.030626887924 -0.0257910635149 0.871 2.11063140294e-38
-0.0290149464543 -0.0257910635149 0.871 2.19360775008e-38
-0.0274030049846 -0.0257910635149 0.871 2.15672949813e-38
-0.0257910635149 -0.0257910635149 0.871 2.11985124619e-38
-0.0241236016732 -0.0257318417847 0.869 2.1751686241e-38
-0.0225153615616 -0.0257318417847 0.869 2.15672949813e-38
-0.0209552391059 -0.0257910635149 0.871 2.19367991695e-38
-0.0193432976362 -0.0257910635149 0.871 2.16602122799e-38
-0.0177313561665 -0.0257910635149 0.871 2.16602150825e-38
-0.0161194146968 -0.0257910635149 0.871 2.35062912846e-38
-0.0144741610039 -0.0257318417847 0.869 2.28591240096e-38
-0.0128659208924 -0.0257318417847 0.869 2.00943285083e-38
-0.0112576807808 -0.0257318417847 0.869 2.23977773188e-38
-0.00964944066926 -0.0257318417847 0.869 2.19357201697e-38
-0.00804120055772 -0.0257318417847 0.869 2.14765398863e-38
-0.00643296044618 -0.0257318417847 0.869 2.31382192235e-38
-0.00482472033463 -0.0257318417847 0.869 2.35095198762e-38
-0.00321648022309 -0.0257318417847 0.869 2.11091950991e-38
-0.00160824011154 -0.0257318417847 0.869 2.19367977682e-38
0.0 -0.0256726200545 0.867 2.0922647241e-38
0.0016045387534 -0.0256726200545 0.867 2.12914297604e-38
0.00319797343239 -0.0255837874591 0.864 2.06460603514e-38
0.00479696014859 -0.0255837874591 0.864 2.15680152487e-38
0.00638114143223 -0.0255245657289 0.862 2.06460589501e-38
0.00797642679028 -0.0255245657289 0.862 2.15683711785e-38
0.00957171214834 -0.0255245657289 0.862 2.06464120773e-38
0.0111410879994 -0.0254653439987 0.86 2.17516806359e-38
0.0127326719993 -0.0254653439987 0.86 2.11985068567e-38
0.0143242559993 -0.0254653439987 0.86 2.08297271398e-38
0.0158788264178 -0.0254061222684 0.858 2.04609446204e-38
0.0173852791805 -0.025287678808 0.854 2.11063140294e-38
0.0188991346595 -0.0251988462126 0.851 2.00921621009e-38
0.020425944892 -0.0251396244824 0.849 2.16594878086e-38
0.0218935333942 -0.025021181022 0.845 2.17516834385e-38
0.0234573572081 -0.025021181022 0.845 2.19360746982e-38
0.0249619592917 -0.0249619592917 0.843 2.04598768309e-38
0.0265220817475 -0.0249619592917 0.843 2.11038001e-38
0.0280822042032 -0.0249619592917 0.843 1.98206030702e-38
0.0295720008543 -0.0249027375615 0.841 2.09190571143e-38
0.0311284219519 -0.0249027375615 0.841 2.35087996088e-38
-0.0960391396415 -0.0232352757197 0.837 2.35059241444e-38
-0.0944901212602 -0.0232352757197 0.837 1.3174615798e-38
-0.0929411028789 -0.0232352757197 0.837 2.29473525635e-38
-0.0916104646278 -0.0232907960918 0.839 1.81546189442e-38
-0.0904871024325 -0.023401836836 0.843 1.86163159596e-38
-0.0889269799768 -0.023401836836 0.843 2.00907271713e-38
-0.0877814096326 -0.0235128775802 0.847 1.95382694556e-38
-0.0864174591583 -0.0235683979523 0.849 1.98148563452e-38
-0.0850461059677 -0.0236239183244 0.851 2.00914460374e-38
-0.0837654360515 -0.0237071988825 0.854 2.04602299581e-38
-0.082184956126 -0.0237071988825 0.854 1.9998895879e-38
-0.0811707839958 -0.0238737599988 0.86 2.09208549803e-38
-0.0799493358098 -0.0239848007429 0.864 2.04598796335e-38
-0.0783503490936 -0.0239848007429 0.864 2.10130534127e-38
-0.0770178601634 -0.0240680813011 0.867 2.13825463905e-38
-0.07541332141 -0.0240680813011 0.867 2.10148428709e-38
-0.0738087826566 -0.0240680813011 0.867 2.11070413033e-38
-0.0723708050195 -0.0241236016732 0.869 2.09222941138e-38
-0.0707625649079 -0.0241236016732 0.869 2.10148456734e-38
-0.0691543247964 -0.0241236016732 0.869 2.10148414696e-38
-0.0675460846849 -0.0241236016732 0.869 2.03698251877e-38
-0.0659378445733 -0.0241236016732 0.869 2.1199940385e-38
-0.0643296044618 -0.0241236016732 0.869 2.15683711785e-38
-0.0628657173177 -0.0241791220453 0.871 2.08304502098e-38
-0.061253775848 -0.0241791220453 0.871 2.08304502098e-38
-0.0596418343783 -0.0241791220453 0.871 2.12914283591e-38
-0.0580298929086 -0.0241791220453 0.871 2.073825458e-38
-0.0564179514389 -0.0241791220453 0.871 2.12914283591e-38
-0.0548060099692 -0.0241791220453 0.871 2.12914283591e-38
-0.0531940684996 -0.0241791220453 0.871 2.11992327293e-38
-0.0515821270299 -0.0241791220453 0.871 2.15680194526e-38
-0.0499701855602 -0.0241791220453 0.871 2.11992341306e-38
-0.0483582440905 -0.0241791220453 0.871 2.16602108786e-38
-0.0468536420069 -0.0242346424173 0.873 2.1291784289e-38
-0.045237999179 -0.0242346424173 0.873 2.11073930292e-38
-0.0435224196815 -0.0241791220453 0.871 2.09226458397e-38
-0.0419104782118 -0.0241791220453 0.871 2.11070385007e-38
-0.0402985367421 -0.0241791220453 0.871 2.15680194526e-38
-0.0386865952724 -0.0241791220453 0.871 2.15672949813e-38
-0.0370746538027 -0.0241791220453 0.871 2.16594878086e-38
-0.035381282454 -0.0241236016732 0.869 2.18438790683e-38
-0.0337730423424 -0.0241236016732 0.869 2.2028270328e-38
-0.0322388293937 -0.0241791220453 0.871 2.14750965489e-38
-0.030626887924 -0.0241791220453 0.871 2.23048572176e-38
-0.0290149464543 -0.0241791220453 0.871 2.17516834385e-38
-0.0274030049846 -0.0241791220453 0.871 2.22126615878e-38
-0.0257910635149 -0.0241791220453 0.871 2.23048600202e-38
-0.0241791220453 -0.0241791220453 0.871 2.22123070593e-38
-0.0225671805756 -0.0241791220453 0.871 2.23045026891e-38
-0.0209552391059 -0.0241791220453 0.871 2.1291432563e-38
-0.0193432976362 -0.0241791220453 0.871 2.17524107124e-38
-0.0177313561665 -0.0241791220453 0.871 2.25825343174e-38
-0.0161194146968 -0.0241791220453 0.871 2.35066542209e-38
-0.0145074732272 -0.0241791220453 0.871 2.31357108992e-38
-0.0128955317575 -0.0241791220453 0.871 2.20304367355e-38
-0.0112835902878 -0.0241791220453 0.871 2.15687355161e-38
-0.0096716488181 -0.0241791220453 0.871 2.18435245398e-38
-0.00804120055772 -0.0241236016732 0.869 2.17531267759e-38
-0.00643296044618 -0.0241236016732 0.869 2.31392982233e-38
-0.00482472033463 -0.0241236016732 0.869 2.350988001e-38
-0.00321648022309 -0.0241236016732 0.869 2.01890380676e-38
-0.00160824011154 -0.0241236016732 0.869 2.12921486266e-38
0.0 -0.0241236016732 0.869 2.16602122799e-38
0.0016045387534 -0.0240680813011 0.867 2.12914297604e-38
0.00319797343239 -0.0239848007429 0.864 2.04616676904e-38
0.00479696014859 -0.0239848007429 0.864 2.1383623989e-38
0.00639594686478 -0.0239848007429 0.864 2.04620236202e-38
0.00797642679028 -0.0239292803708 0.862 2.11995886591e-38
0.00957171214834 -0.0239292803708 0.862 2.04620208176e-38
0.0111410879994 -0.0238737599988 0.86 2.18449552655e-38
0.0127326719993 -0.0238737599988 0.86 2.06464148799e-38
0.0143242559993 -0.0238737599988 0.86 2.16605668084e-38
0.0158788264178 -0.0238182396267 0.858 2.08308061396e-38
0.0173852791805 -0.0237071988825 0.854 2.11073930292e-38
0.0188991346595 -0.0236239183244 0.851 2.03698279903e-38
0.020425944892 -0.0235683979523 0.849 2.14761755487e-38
0.0218935333942 -0.0234573572081 0.845 2.11995886591e-38
0.0234573572081 -0.0234573572081 0.845 2.14761755487e-38
0.0249619592917 -0.023401836836 0.843 2.16587829555e-38
0.0265220817475 -0.023401836836 0.843 2.15662103763e-38
0.0280155797567 -0.0233463164639 0.841 1.99127987001e-38
0.0295720008543 -0.0233463164639 0.841 2.07357420518e-38
-0.09735497246 -0.0216344383245 0.835 2.31400325037e-38
-0.0960391396415 -0.0216862573384 0.837 1.41920187389e-38
-0.0944901212602 -0.0216862573384 0.837 2.00893020507e-38
-0.0929411028789 -0.0216862573384 0.837 2.19332118454e-38
-0.0916104646278 -0.0217380763524 0.839 1.86159642337e-38
-0.0902724236604 -0.0217898953663 0.841 1.89854656192e-38
-0.0889269799768 -0.0218417143803 0.843 1.98137885558e-38
-0.0875741335768 -0.0218935333942 0.845 1.95382722582e-38
-0.0864174591583 -0.0219971714221 0.849 2.01843577308e-38
-0.0850461059677 -0.0220489904361 0.851 2.03687517931e-38
-0.0837654360515 -0.022126718957 0.854 2.00918075724e-38
-0.0823774267492 -0.0221785379709 0.856 2.0091810375e-38
-0.0811707839958 -0.0222821759988 0.86 2.08293782165e-38
-0.0799493358098 -0.0223858140267 0.864 2.07371825866e-38
-0.0783503490936 -0.0223858140267 0.864 2.10134135464e-38
-0.0770178601634 -0.0224635425477 0.867 2.08304516111e-38
-0.07541332141 -0.0224635425477 0.867 2.11070370994e-38
-0.0738087826566 -0.0224635425477 0.867 2.11992341306e-38
-0.0723708050195 -0.0225153615616 0.869 2.11070413033e-38
-0.0707625649079 -0.0225153615616 0.869 2.13836281929e-38
-0.0691543247964 -0.0225153615616 0.869 2.14758210202e-38
-0.0675460846849 -0.0225153615616 0.869 2.04616676904e-38
-0.0659378445733 -0.0225153615616 0.869 2.15683711785e-38
-0.0644776587873 -0.0225671805756 0.871 2.1383623989e-38
-0.0628657173177 -0.0225671805756 0.871 2.10148414696e-38
-0.061253775848 -0.0225671805756 0.871 2.18446021383e-38
-0.0596418343783 -0.0225671805756 0.871 2.1383623989e-38
-0.0468536420069 -0.0226189995895 0.873 2.13839799188e-38
-0.045237999179 -0.0226189995895 0.873 2.16605668084e-38
-0.0436223563512 -0.0226189995895 0.873 2.14758196189e-38
-0.0419104782118 -0.0225671805756 0.871 2.11992341306e-38
-0.0402985367421 -0.0225671805756 0.871 2.16602150825e-38
-0.0386865952724 -0.0225671805756 0.871 2.16594906112e-38
-0.0370746538027 -0.0225671805756 0.871 2.1751686241e-38
-0.035462712333 -0.0225671805756 0.871 2.18438818709e-38
-0.0338507708634 -0.0225671805756 0.871 2.23048600202e-38
-0.0322388293937 -0.0225671805756 0.871 2.12907080917e-38
-0.0306972137286 -0.0226189995895 0.873 2.19360775008e-38
-0.0290815709008 -0.0226189995895 0.873 2.15672949813e-38
-0.0274030049846 -0.0225671805756 0.871 2.23970556501e-38
-0.0257910635149 -0.0225671805756 0.871 2.2396698319e-38
-0.0241791220453 -0.0225671805756 0.871 2.19357201697e-38
-0.0225671805756 -0.0225671805756 0.871 2.22133888617e-38
-0.0209552391059 -0.0225671805756 0.871 2.15680194526e-38
-0.0193432976362 -0.0225671805756 0.871 2.17527708461e-38
-0.0177313561665 -0.0225671805756 0.871 2.32279037265e-38
-0.0161194146968 -0.0225671805756 0.871 2.35062912846e-38
-0.0145074732272 -0.0225671805756 0.871 2.26758089471e-38
-0.0128955317575 -0.0225671805756 0.871 2.13857861925e-38
-0.0112835902878 -0.0225671805756 0.871 2.20297136655e-38
-0.0096716488181 -0.0225671805756 0.871 2.2396698319e-38
-0.00804120055772 -0.0225153615616 0.869 2.2306300555e-38
-0.00643296044618 -0.0225153615616 0.869 2.12031899961e-38
-0.00483582440905 -0.0225671805756 0.871 2.350988001e-38
-0.00321648022309 -0.0225153615616 0.869 2.16641681455e-38
-0.00160824011154 -0.0225153615616 0.869 2.13843442564e-38
0.0 -0.0225153615616 0.869 2.13836253903e-38
0.0016045387534 -0.0224635425477 0.867 2.156801665e-38
0.00320907750681 -0.0224635425477 0.867 2.14758196189e-38
0.00481361626021 -0.0224635425477 0.867 2.15680152487e-38
0.00639594686478 -0.0223858140267 0.864 2.14761755487e-38
0.00799493358098 -0.0223858140267 0.864 2.14761755487e-38
0.00957171214834 -0.0223339950128 0.862 2.04620208176e-38
0.0111669975064 -0.0223339950128 0.862 2.13839771162e-38
0.0127622828645 -0.0223339950128 0.862 2.08308061396e-38
0.0143242559993 -0.0222821759988 0.86 2.073825458e-38
0.0158788264178 -0.0222303569849 0.858 2.10148414696e-38
0.01742599412 -0.0221785379709 0.856 2.16602108786e-38
0.018965759106 -0.022126718957 0.854 2.11070370994e-38
0.0204740625478 -0.0220489904361 0.851 2.2028993398e-38
0.0219453524082 -0.0219453524082 0.847 2.17524065085e-38
0.023401836836 -0.0218417143803 0.843 2.23977759175e-38
0.0249619592917 -0.0218417143803 0.843 2.10134135464e-38
0.0264591586591 -0.0217898953663 0.841 2.15662103763e-38
0.0280155797567 -0.0217898953663 0.841 2.04659724793e-38
0.0295720008543 -0.0217898953663 0.841 2.03669595324e-38
-0.09735497246 -0.0200891213013 0.835 2.35088094179e-38
-0.0958096554369 -0.0200891213013 0.835 7.83016574986e-39
-0.0942643384137 -0.0200891213013 0.835 2.35005431583e-38
-0.0929411028789 -0.0201372389571 0.837 1.97205195313e-38
-0.0916104646278 -0.0201853566129 0.839 1.88007184297e-38
-0.0902724236604 -0.0202334742687 0.841 1.92620525088e-38
-0.0889269799768 -0.0202815919245 0.843 1.97215901233e-38
-0.0875741335768 -0.0203297095803 0.845 1.94460766284e-38
-0.0864174591583 -0.020425944892 0.849 1.99077736438e-38
-0.0850461059677 -0.0204740625478 0.851 2.03687517931e-38
-0.0837654360515 -0.0205462390315 0.854 2.06449813516e-38
-0.0823774267492 -0.0205943566873 0.856 2.09215710438e-38
-0.0811707839958 -0.0206905919989 0.86 2.05527885243e-38
-0.0797642679028 -0.0207387096547 0.862 2.1198160736e-38
-0.0783503490936 -0.0207868273105 0.864 2.14747476255e-38
-0.0770178601634 -0.0208590037943 0.867 2.0922647241e-38
-0.07541332141 -0.0208590037943 0.867 2.14758196189e-38
-0.073979045131 -0.0209071214501 0.869 2.11070385007e-38
-0.0723708050195 -0.0209071214501 0.869 2.08304516111e-38
-0.0707625649079 -0.0209071214501 0.869 2.15680194526e-38
-0.0691543247964 -0.0209071214501 0.869 2.18446063422e-38
-0.0675460846849 -0.0209071214501 0.869 2.05538675241e-38
-0.0386865952724 -0.0209552391059 0.871 2.12914297604e-38
-0.0370746538027 -0.0209552391059 0.871 2.21211890279e-38
-0.035462712333 -0.0209552391059 0.871 2.14758196189e-38
-0.0338507708634 -0.0209552391059 0.871 2.22133846578e-38
-0.0323128565565 -0.0210033567617 0.873 2.2028993398e-38
-0.0306972137286 -0.0210033567617 0.873 2.21211890279e-38
-0.0290815709008 -0.0210033567617 0.873 2.18446021383e-38
-0.027465928073 -0.0210033567617 0.873 2.23977759175e-38
-0.0257910635149 -0.0209552391059 0.871 2.22133860591e-38
-0.0241791220453 -0.0209552391059 0.871 2.19368019721e-38
-0.0225671805756 -0.0209552391059 0.871 2.15680194526e-38
-0.0209552391059 -0.0209552391059 0.871 2.23981402551e-38
-0.0193432976362 -0.0209552391059 0.871 2.16605752162e-38
-0.0177313561665 -0.0209552391059 0.871 2.23981402551e-38
-0.0161194146968 -0.0209552391059 0.871 2.3505926947e-38
-0.0145074732272 -0.0209552391059 0.871 2.19382439082e-38
-0.0128955317575 -0.0209552391059 0.871 2.21233512314e-38
-0.0112835902878 -0.0209552391059 0.871 2.2306300555e-38
-0.0096716488181 -0.0209552391059 0.871 2.16591332801e-38
-0.00805970734842 -0.0209552391059 0.871 2.18453224057e-38
-0.00644776587873 -0.0209552391059 0.871 2.23095375545e-38
-0.00483582440905 -0.0209552391059 0.871 2.350988001e-38
-0.00321648022309 -0.0209071214501 0.869 2.11109943663e-38
-0.00160824011154 -0.0209071214501 0.869 2.11077573668e-38
0.0 -0.0209071214501 0.869 2.16602122799e-38
0.00160824011154 -0.0209071214501 0.869 2.16602122799e-38
0.00321648022309 -0.0209071214501 0.869 2.14758196189e-38
0.00481361626021 -0.0208590037943 0.867 2.10148414696e-38
0.00641815501362 -0.0208590037943 0.867 2.13839799188e-38
0.00799493358098 -0.0207868273105 0.864 2.14761755487e-38
0.00957171214834 -0.0207387096547 0.862 2.0830803337e-38
0.0111669975064 -0.0207387096547 0.862 2.15683683759e-38
0.0127622828645 -0.0207387096547 0.862 2.07389734461e-38
0.0143242559993 -0.0206905919989 0.86 2.07389734461e-38
0.0158788264178 -0.0206424743431 0.858 2.11077559655e-38
0.0174667090596 -0.0206424743431 0.858 2.15687341148e-38
0.018965759106 -0.0205462390315 0.854 2.11999515954e-38
0.0204740625478 -0.0204740625478 0.851 2.22141035239e-38
0.0219453524082 -0.0203778272361 0.847 2.19375166343e-38
0.023401836836 -0.0202815919245 0.843 2.23062991538e-38
0.0249619592917 -0.0202815919245 0.843 2.23041523645e-38
0.0264591586591 -0.0202334742687 0.841 2.1750601636e-38
0.0279489553102 -0.0201853566129 0.839 2.03744957155e-38
0.0295016750496 -0.0201853566129 0.839 2.08286565478e-38
-0.0971217868973 -0.0184993879804 0.833 2.35088094179e-38
-0.0955801712322 -0.0184993879804 0.833 6.07772150856e-39
-0.0940385555672 -0.0184993879804 0.833 2.35044962213e-38
-0.0927190213905 -0.0185438042781 0.835 1.88929042505e-38
-0.0916104646278 -0.0186326368734 0.839 1.91709288723e-38
-0.0902724236604 -0.0186770531711 0.841 1.94467926919e-38
-0.0889269799768 -0.0187214694688 0.843 1.94457136921e-38
-0.0877814096326 -0.0188103020641 0.847 2.07368154464e-38
-0.0864174591583 -0.0188547183618 0.849 2.05527857217e-38
-0.0850461059677 -0.0188991346595 0.851 2.02761988321e-38
-0.0837654360515 -0.018965759106 0.854 2.09215682412e-38
-0.0823774267492 -0.0190101754037 0.856 2.16591332801e-38
-0.0811707839958 -0.019099007999 0.86 2.04605928945e-38
-0.0797642679028 -0.0191434242967 0.862 2.14747448229e-38
-0.0783503490936 -0.0191878405943 0.864 2.16591360827e-38
-0.0770178601634 -0.0192544650409 0.867 2.10148428709e-38
-0.07541332141 -0.0192544650409 0.867 2.17524079098e-38
-0.073979045131 -0.0192988813385 0.869 2.10148428709e-38
-0.0723708050195 -0.0192988813385 0.869 2.156801665e-38
-0.0707625649079 -0.0192988813385 0.869 2.16602122799e-38
-0.0691543247964 -0.0192988813385 0.869 2.17524107124e-38
-0.0675460846849 -0.0192988813385 0.869 2.09222941138e-38
-0.0257910635149 -0.0193432976362 0.871 2.17524107124e-38
-0.0241791220453 -0.0193432976362 0.871 2.23977801214e-38
-0.0225671805756 -0.0193432976362 0.871 2.16605752162e-38
-0.0209552391059 -0.0193432976362 0.871 2.26747271447e-38
-0.0193432976362 -0.0193432976362 0.871 2.26747271447e-38
-0.0177313561665 -0.0193432976362 0.871 2.35055668133e-38
-0.0161194146968 -0.0193432976362 0.871 2.26758061445e-38
-0.0145074732272 -0.0193432976362 0.871 2.23070236251e-38
-0.0128955317575 -0.0193432976362 0.871 2.19389571691e-38
-0.0112835902878 -0.0193432976362 0.871 2.19375180356e-38
-0.0096716488181 -0.0193432976362 0.871 2.28576764683e-38
-0.00805970734842 -0.0193432976362 0.871 2.2306300555e-38
-0.00644776587873 -0.0193432976362 0.871 2.1295385626e-38
-0.00483582440905 -0.0193432976362 0.871 2.350988001e-38
-0.00322388293937 -0.0193432976362 0.871 2.10187987364e-38
-0.00161194146968 -0.0193432976362 0.871 2.17531267759e-38
0.0 -0.0193432976362 0.871 2.18446035396e-38
0.00160824011154 -0.0192988813385 0.869 2.13836253903e-38
0.00321648022309 -0.0192988813385 0.869 2.15680152487e-38
0.00482472033463 -0.0192988813385 0.869 2.11992327293e-38
0.00641815501362 -0.0192544650409 0.867 2.14761755487e-38
0.00799493358098 -0.0191878405943 0.864 2.15683711785e-38
0.00957171214834 -0.0191434242967 0.862 2.11995858565e-38
0.0111669975064 -0.0191434242967 0.862 2.18449552655e-38
0.0127622828645 -0.0191434242967 0.862 2.09233647058e-38
0.0143242559993 -0.019099007999 0.86 2.15687355161e-38
0.0159158399992 -0.019099007999 0.86 2.18453224057e-38
0.0174667090596 -0.0190545917013 0.858 2.17531267759e-38
0.0190101754037 -0.0190101754037 0.856 2.2306300555e-38
0.0205462390315 -0.018965759106 0.854 2.22141049252e-38
0.0220489904361 -0.0188991346595 0.851 2.18453224057e-38
0.023401836836 -0.0187214694688 0.843 2.21219092953e-38
0.0249027375615 -0.0186770531711 0.841 2.16598619553e-38
0.0264591586591 -0.0186770531711 0.841 2.13825379827e-38
0.0279489553102 -0.0186326368734 0.839 1.99135175662e-38
0.0295016750496 -0.0186326368734 0.839 2.06442652881e-38
-0.0971217868973 -0.0169577723154 0.833 2.10177197366e-38
-0.0955801712322 -0.0169577723154 0.833 1.52050790559e-38
-0.0940385555672 -0.0169577723154 0.833 2.2948791697e-38
-0.0927190213905 -0.0169984872549 0.835 1.84319218973e-38
-0.0916104646278 -0.017079917134 0.839 1.880249948e-38
-0.0904871024325 -0.0171613470131 0.843 1.93549501892e-38
-0.0891379573907 -0.0172020619526 0.845 1.95379037167e-38
-0.0875741335768 -0.0172020619526 0.845 1.99077736438e-38
-0.0864174591583 -0.0172834918317 0.849 2.01850822021e-38
-0.0850461059677 -0.0173242067712 0.851 2.02772778319e-38
-0.0837654360515 -0.0173852791805 0.854 2.04616690917e-38
-0.0823774267492 -0.01742599412 0.856 2.08304516111e-38
-0.0811707839958 -0.0175074239991 0.86 2.05538647215e-38
-0.0797642679028 -0.0175481389386 0.862 2.13836253903e-38
-0.0783503490936 -0.0175888538782 0.864 2.18446035396e-38
-0.0770178601634 -0.0176499262875 0.867 2.17524107124e-38
-0.07541332141 -0.0176499262875 0.867 2.12910766332e-38
-0.0241791220453 -0.0177313561665 0.871 2.2213751798e-38
-0.0225671805756 -0.0177313561665 0.871 2.18449692785e-38
-0.0209552391059 -0.0177313561665 0.871 2.25825315148e-38
-0.0193432976362 -0.0177313561665 0.871 2.23992192549e-38
-0.0177313561665 -0.0177313561665 0.871 2.26758061445e-38
-0.0161194146968 -0.0177313561665 0.871 2.29531090976e-38
-0.0145074732272 -0.0177313561665 0.871 2.24921309483e-38
-0.00805970734842 -0.0177313561665 0.871 2.19375180356e-38
-0.00644776587873 -0.0177313561665 0.871 2.18485594052e-38
-0.00483582440905 -0.0177313561665 0.871 2.350988001e-38
-0.00322388293937 -0.0177313561665 0.871 2.12031899961e-38
-0.00161194146968 -0.0177313561665 0.871 2.22141049252e-38
0.0 -0.0177313561665 0.871 2.156801665e-38
0.00161194146968 -0.0177313561665 0.871 2.17524079098e-38
0.00321648022309 -0.017690641227 0.869 2.16602108786e-38
0.00482472033463 -0.017690641227 0.869 2.17524065085e-38
0.00643296044618 -0.017690641227 0.869 2.15683711785e-38
0.00799493358098 -0.0175888538782 0.864 2.16605668084e-38
0.00959392029717 -0.0175888538782 0.864 2.12917814864e-38
0.0111669975064 -0.0175481389386 0.862 2.13839771162e-38
0.0127622828645 -0.0175481389386 0.862 2.1476538485e-38
0.0143242559993 -0.0175074239991 0.86 2.15694557836e-38
0.0159158399992 -0.0175074239991 0.86 2.17538470433e-38
0.0174667090596 -0.0174667090596 0.858 2.1938238303e-38
0.0190101754037 -0.01742599412 0.856 2.22148251926e-38
0.0205462390315 -0.0173852791805 0.854 2.24914120822e-38
0.0220489904361 -0.0173242067712 0.851 2.22148251926e-38
0.023401836836 -0.0171613470131 0.843 2.23070208225e-38
0.0249027375615 -0.0171206320735 0.841 2.1844253215e-38
0.0264591586591 -0.0171206320735 0.841 2.19357117619e-38
0.0279489553102 -0.017079917134 0.839 2.03755747153e-38
0.0295016750496 -0.017079917134 0.839 2.03683972646e-38
-0.0971217868973 -0.0154161566504 0.833 1.40101315996e-38
-0.0955801712322 -0.0154161566504 0.833 2.1013402336e-38
-0.0940385555672 -0.0154161566504 0.833 2.1658052879e-38
-0.0927190213905 -0.0154531702318 0.835 1.91702086049e-38
-0.0916104646278 -0.0155271973945 0.839 1.93560361955e-38
-0.0902724236604 -0.0155642109759 0.841 1.96322629514e-38
-0.0889269799768 -0.0156012245573 0.843 1.99992476049e-38
-0.0875741335768 -0.0156382381387 0.845 2.0368394462e-38
-0.0864174591583 -0.0157122653015 0.849 2.02772806345e-38
-0.0850461059677 -0.0157492788829 0.851 2.01850822021e-38
-0.0837654360515 -0.015804799255 0.854 2.08304516111e-38
-0.0825698973724 -0.0158788264178 0.858 2.08304516111e-38
-0.0811707839958 -0.0159158399992 0.86 2.12914297604e-38
-0.0797642679028 -0.0159528535806 0.862 2.14758210202e-38
-0.0783503490936 -0.015989867162 0.864 2.16602122799e-38
-0.0767513623774 -0.015989867162 0.864 2.19364488449e-38
-0.07541332141 -0.016045387534 0.867 2.20286472773e-38
-0.0225671805756 -0.0161194146968 0.871 2.25825343174e-38
-0.0177313561665 -0.0161194146968 0.871 2.2031152799e-38
-0.0161194146968 -0.0161194146968 0.871 2.34140872469e-38
-0.00644776587873 -0.0161194146968 0.871 2.32314938531e-38
-0.00483582440905 -0.0161194146968 0.871 2.350988001e-38
-0.00322388293937 -0.0161194146968 0.871 2.1295385626e-38
-0.00161194146968 -0.0161194146968 0.871 2.14765398863e-38
0.0 -0.0161194146968 0.871 2.16602122799e-38
0.00161194146968 -0.0161194146968 0.871 2.18446035396e-38
0.00321648022309 -0.0160824011154 0.869 2.1383623989e-38
0.00482472033463 -0.0160824011154 0.869 2.14758196189e-38
0.00643296044618 -0.0160824011154 0.869 2.16605668084e-38
0.00804120055772 -0.0160824011154 0.869 2.16605668084e-38
0.00959392029717 -0.015989867162 0.864 2.18449552655e-38
0.0111669975064 -0.0159528535806 0.862 2.17527596357e-38
0.0127622828645 -0.0159528535806 0.862 2.18453210044e-38
0.0143242559993 -0.0159158399992 0.86 2.17538470433e-38
0.0159158399992 -0.0159158399992 0.86 2.17538470433e-38
0.0174667090596 -0.0158788264178 0.858 2.22148251926e-38
0.0190101754037 -0.0158418128364 0.856 2.18460426731e-38
0.0205462390315 -0.015804799255 0.854 2.22148251926e-38
0.0220489904361 -0.0157492788829 0.851 2.1938238303e-38
0.0235683979523 -0.0157122653015 0.849 2.1938238303e-38
0.0249619592917 -0.0156012245573 0.843 2.14761895617e-38
0.0264591586591 -0.0155642109759 0.841 2.14750937463e-38
0.0280155797567 -0.0155642109759 0.841 2.02833790855e-38
0.0295720008543 -0.0155642109759 0.841 2.09215710438e-38
-0.0971217868973 -0.0138745409853 0.833 7.74011130406e-39
-0.0955801712322 -0.0138745409853 0.833 2.35030500812e-38
-0.0940385555672 -0.0138745409853 0.833 1.9998895879e-38
-0.0927190213905 -0.0139078532086 0.835 1.90787374463e-38
-0.0916104646278 -0.0139744776551 0.839 1.91723722097e-38
-0.0902724236604 -0.0140077898783 0.841 1.96319112255e-38
-0.0889269799768 -0.0140411021016 0.843 2.01832871387e-38
-0.0875741335768 -0.0140744143248 0.845 2.06449841542e-38
-0.0864174591583 -0.0141410387714 0.849 2.05538675241e-38
-0.0850461059677 -0.0141743509946 0.851 2.04616718943e-38
-0.0839616080328 -0.0142576315527 0.856 2.0922647241e-38
-0.0825698973724 -0.014290943776 0.858 2.11070385007e-38
-0.0811707839958 -0.0143242559993 0.86 2.13836253903e-38
-0.0795791999959 -0.0143242559993 0.86 2.19367991695e-38
-0.0781689825448 -0.0143575682225 0.862 2.16602122799e-38
-0.0767513623774 -0.0143908804458 0.864 2.19360943164e-38
-0.00644776587873 -0.0145074732272 0.871 2.13875812559e-38
-0.00483582440905 -0.0145074732272 0.871 2.31407373568e-38
-0.00322388293937 -0.0145074732272 0.871 2.16641681455e-38
-0.00161194146968 -0.0145074732272 0.871 2.18453224057e-38
0.0 -0.0145074732272 0.871 2.23977773188e-38
0.00161194146968 -0.0145074732272 0.871 2.22133860591e-38
0.00322388293937 -0.0145074732272 0.871 2.23977759175e-38
0.00482472033463 -0.0144741610039 0.869 2.2766558437e-38
0.00643296044618 -0.0144741610039 0.869 2.24903274772e-38
0.00804120055772 -0.0144741610039 0.869 2.1937153698e-38
0.00959392029717 -0.0143908804458 0.864 2.20293465253e-38
0.0111929070134 -0.0143908804458 0.864 2.17527596357e-38
0.0127622828645 -0.0143575682225 0.862 2.2306300555e-38
0.0143242559993 -0.0143242559993 0.86 2.23070236251e-38
0.0159158399992 -0.0143242559993 0.86 2.23992192549e-38
0.0174667090596 -0.014290943776 0.858 2.26758061445e-38
0.0190101754037 -0.0142576315527 0.856 2.28601974042e-38
0.0205462390315 -0.0142243193295 0.854 2.29523930341e-38
0.0220489904361 -0.0141743509946 0.851 2.23992192549e-38
0.0235683979523 -0.0141410387714 0.849 2.24914148848e-38
0.0249619592917 -0.0140411021016 0.843 2.23059502304e-38
0.0264591586591 -0.0140077898783 0.841 2.2304854415e-38
0.0280155797567 -0.0140077898783 0.841 2.06521616049e-38
0.0295720008543 -0.0140077898783 0.841 2.06449841542e-38
-0.0971217868973 -0.0123329253203 0.833 4.69227733506e-39
-0.0955801712322 -0.0123329253203 0.833 2.35016235594e-38
-0.0940385555672 -0.0123329253203 0.833 2.01814920754e-38
-0.0927190213905 -0.0123625361854 0.835 1.89865418165e-38
-0.0916104646278 -0.0124217579156 0.839 1.94500380991e-38
-0.0902724236604 -0.0124513687807 0.841 1.90823345795e-38
-0.0889269799768 -0.0124809796459 0.843 2.00028517446e-38
-0.0875741335768 -0.012510590511 0.845 2.03701909266e-38
-0.0864174591583 -0.0125698122412 0.849 2.08311690759e-38
-0.0850461059677 -0.0125994231063 0.851 2.07389734461e-38
-0.0837654360515 -0.012643839404 0.854 2.08311704772e-38
-0.0825698973724 -0.0127030611342 0.858 2.12917926967e-38
-0.0809820147307 -0.0127030611342 0.858 2.11995970669e-38
-0.0795791999959 -0.0127326719993 0.86 2.13839911292e-38
-0.0781689825448 -0.0127622828645 0.862 2.15683823889e-38
-0.0767513623774 -0.0127918937296 0.864 2.27669283797e-38
0.00322388293937 -0.0128955317575 0.871 2.23977759175e-38
0.00482472033463 -0.0128659208924 0.869 2.2582523107e-38
0.00643296044618 -0.0128659208924 0.869 2.21215421551e-38
0.00804120055772 -0.0128659208924 0.869 2.20293493279e-38
0.00962723252043 -0.0128363100272 0.867 2.23977759175e-38
0.0111669975064 -0.0127622828645 0.862 2.25821685785e-38
0.0127622828645 -0.0127622828645 0.862 2.24899757513e-38
0.0143242559993 -0.0127326719993 0.86 2.27665626409e-38
0.0159158399992 -0.0127326719993 0.86 2.23055844915e-38
0.0174667090596 -0.0127030611342 0.858 2.31360612238e-38
0.0190101754037 -0.0126734502691 0.856 2.28601946016e-38
0.0205943566873 -0.0126734502691 0.856 2.29531090976e-38
0.0220489904361 -0.0125994231063 0.851 2.16623702795e-38
0.0236239183244 -0.0125994231063 0.851 2.19389571691e-38
0.025021181022 -0.012510590511 0.845 2.17527708461e-38
0.0265220817475 -0.0124809796459 0.843 2.14750937463e-38
0.0280822042032 -0.0124809796459 0.843 2.14822838087e-38
0.0296423266589 -0.0124809796459 0.843 2.05535115943e-38
-0.0971217868973 -0.0107913096553 0.833 8.19643433987e-39
-0.0955801712322 -0.0107913096553 0.833 2.35062982911e-38
-0.0940385555672 -0.0107913096553 0.833 1.99981798155e-38
-0.0927190213905 -0.0108172191622 0.835 1.97241040528e-38
-0.0916104646278 -0.0108690381762 0.839 1.92649223681e-38
-0.0902724236604 -0.0108949476832 0.841 1.94489562967e-38
-0.0889269799768 -0.0109208571901 0.843 2.03701923279e-38
-0.0877814096326 -0.0109726762041 0.847 2.01857996669e-38
-0.0864174591583 -0.0109985857111 0.849 2.05545821863e-38
-0.0850461059677 -0.011024495218 0.851 2.07389748474e-38
-0.0837654360515 -0.0110633594785 0.854 2.11077573668e-38
-0.0825698973724 -0.0111151784924 0.858 2.11999529967e-38
-0.0809820147307 -0.0111151784924 0.858 2.17527708461e-38
-0.0795791999959 -0.0111410879994 0.86 2.20293577356e-38
-0.0781689825448 -0.0111669975064 0.862 2.15683795863e-38
-0.0767513623774 -0.0111929070134 0.864 2.21226351679e-38
0.00643296044618 -0.0112576807808 0.869 2.15687313122e-38
0.00804120055772 -0.0112576807808 0.869 2.18453210044e-38
0.00962723252043 -0.0112317712738 0.867 2.21219092953e-38
0.0111669975064 -0.0111669975064 0.862 2.23981402551e-38
0.0127622828645 -0.0111669975064 0.862 2.29509539006e-38
0.0143242559993 -0.0111410879994 0.86 2.32275407902e-38
0.0158788264178 -0.0111151784924 0.858 2.30435096641e-38
0.0174667090596 -0.0111151784924 0.858 2.35048437433e-38
0.018965759106 -0.0110633594785 0.854 2.30445858614e-38
0.0204740625478 -0.011024495218 0.851 2.33218916171e-38
0.0219971714221 -0.0109985857111 0.849 2.20311513977e-38
0.023401836836 -0.0109208571901 0.843 2.21233470275e-38
0.0249027375615 -0.0108949476832 0.841 2.14772629563e-38
0.0264591586591 -0.0108949476832 0.841 2.18449552655e-38
0.0280155797567 -0.0108949476832 0.841 2.05603303126e-38
0.0295720008543 -0.0108949476832 0.841 2.06457072242e-38
-0.0971217868973 -0.00924969399022 0.833 1.57597087842e-38
-0.0955801712322 -0.00924969399022 0.833 2.25818210565e-38
-0.0940385555672 -0.00924969399022 0.833 1.98159465554e-38
-0.0929411028789 -0.00929411028789 0.837 1.98152206828e-38
-0.0916104646278 -0.00931631843672 0.839 1.99992504075e-38
-0.0902724236604 -0.00933852658556 0.841 2.09204878401e-38
-0.0893489348046 -0.00940515103207 0.847 2.07350189818e-38
-0.0879886856884 -0.0094273591809 0.849 2.04616690917e-38
-0.0864174591583 -0.0094273591809 0.849 2.05542276578e-38
-0.0850461059677 -0.00944956732974 0.851 2.10152058072e-38
-0.0837654360515 -0.00948287955299 0.854 2.14765398863e-38
-0.0823774267492 -0.00950508770183 0.856 2.1660931146e-38
-0.0809820147307 -0.00952729585067 0.858 2.1660931146e-38
-0.0795791999959 -0.0095495039995 0.86 2.1660931146e-38
-0.0781689825448 -0.00957171214834 0.862 2.15687355161e-38
0.00804120055772 -0.00964944066926 0.869 2.27672773031e-38
0.00962723252043 -0.00962723252043 0.867 2.27672787044e-38
0.0111929070134 -0.00959392029717 0.864 2.32279009239e-38
0.0127326719993 -0.0095495039995 0.86 2.2490335885e-38
0.0143242559993 -0.0095495039995 0.86 2.32279009239e-38
0.0158788264178 -0.00952729585067 0.858 2.32279009239e-38
0.01742599412 -0.00950508770183 0.856 2.31367814912e-38
0.018965759106 -0.00948287955299 0.854 2.31367814912e-38
0.0204740625478 -0.00944956732974 0.851 2.34140872469e-38
0.0219971714221 -0.0094273591809 0.849 2.22155426574e-38
0.023401836836 -0.0093607347344 0.843 2.23999339171e-38
0.0249027375615 -0.00933852658556 0.841 2.14772629563e-38
0.0264591586591 -0.00933852658556 0.841 2.21215421551e-38
0.0280155797567 -0.00933852658556 0.841 2.06518070764e-38
0.0295720008543 -0.00933852658556 0.841 2.14743916957e-38
-0.0986634025623 -0.00770807832518 0.833 1.10570099925e-38
-0.0971217868973 -0.00770807832518 0.833 2.10134177503e-38
-0.0955801712322 -0.00770807832518 0.833 2.11996026721e-38
-0.0940385555672 -0.00770807832518 0.833 1.98166626189e-38
-0.0927190213905 -0.00772658511588 0.835 2.0460947423e-38
-0.0916104646278 -0.00776359869727 0.839 2.0183278731e-38
-0.0904871024325 -0.00780061227866 0.843 2.0275118431e-38
-0.0893489348046 -0.00783762586006 0.847 2.06446212179e-38
-0.0879886856884 -0.00785613265075 0.849 2.09222941138e-38
-0.086621033856 -0.00787463944145 0.851 2.10152086097e-38
-0.0853459159769 -0.0079023996275 0.854 2.15683823889e-38
-0.0837654360515 -0.0079023996275 0.854 2.14761839565e-38
-0.0823774267492 -0.00792090641819 0.856 2.18453224057e-38
-0.0809820147307 -0.00793941320889 0.858 2.18453210044e-38
-0.0795791999959 -0.00795791999959 0.86 2.20297122642e-38
-0.0781689825448 -0.00797642679028 0.862 2.2398491981e-38
0.0111929070134 -0.00799493358098 0.864 2.33211783562e-38
0.0127326719993 -0.00795791999959 0.86 2.25836105146e-38
0.014290943776 -0.00793941320889 0.858 2.35070073481e-38
0.0158788264178 -0.00793941320889 0.858 2.3044588664e-38
0.01742599412 -0.00792090641819 0.856 2.30445858614e-38
0.018965759106 -0.0079023996275 0.854 2.28609134678e-38
0.0204740625478 -0.00787463944145 0.851 2.29531090976e-38
0.0219453524082 -0.00783762586006 0.847 2.17545645081e-38
0.023401836836 -0.00780061227866 0.843 2.25843251769e-38
0.0249027375615 -0.00778210548797 0.841 2.18460454757e-38
0.0264591586591 -0.00778210548797 0.841 2.13839771162e-38
0.0280155797567 -0.00778210548797 0.841 2.10205895959e-38
0.0295720008543 -0.00778210548797 0.841 2.10130534127e-38
-0.0971217868973 -0.00616646266014 0.833 2.34991012222e-38
-0.0955801712322 -0.00616646266014 0.833 2.1381830327e-38
-0.0940385555672 -0.00616646266014 0.833 1.92638447696e-38
-0.0927190213905 -0.0061812680927 0.835 1.96311867542e-38
-0.0913920844976 -0.00619607352526 0.837 2.03687489905e-38
-0.0900577448883 -0.00621087895782 0.839 2.0093604037e-38
-0.0889269799768 -0.00624048982293 0.843 2.02801532964e-38
-0.0879886856884 -0.0062849061206 0.849 2.04631138304e-38
-0.086621033856 -0.00629971155316 0.851 2.14761867591e-38
-0.0853459159769 -0.006321919702 0.854 2.10152086097e-38
-0.0837654360515 -0.006321919702 0.854 2.13839883266e-38
-0.0823774267492 -0.00633672513455 0.856 2.13843442564e-38
-0.0809820147307 -0.00635153056711 0.858 2.12921472253e-38
-0.0795791999959 -0.00636633599967 0.86 2.21219050914e-38
0.0111929070134 -0.00639594686478 0.864 2.30449516003e-38
0.0127326719993 -0.00636633599967 0.86 2.33218944197e-38
0.014290943776 -0.00635153056711 0.858 2.35062856794e-38
0.0158418128364 -0.00633672513455 0.856 2.35062856794e-38
0.0173852791805 -0.006321919702 0.854 2.35070031442e-38
0.0188991346595 -0.00629971155316 0.851 2.27687178379e-38
0.020425944892 -0.0062849061206 0.849 2.29531090976e-38
0.0219453524082 -0.00627010068805 0.847 2.22155426574e-38
0.0233463164639 -0.00622568439037 0.841 2.23077382873e-38
0.0249027375615 -0.00622568439037 0.841 2.27680017744e-38
0.0264591586591 -0.00622568439037 0.841 2.27658353669e-38
0.0280155797567 -0.00622568439037 0.841 2.12039046584e-38
-0.0986634025623 -0.00462484699511 0.833 5.14713040879e-39
-0.0971217868973 -0.00462484699511 0.833 2.34969418212e-38
-0.0955801712322 -0.00462484699511 0.833 2.08282936115e-38
-0.0940385555672 -0.00462484699511 0.833 1.93560389981e-38
-0.0927190213905 -0.00463595106953 0.835 2.00010454709e-38
-0.0913920844976 -0.00464705514394 0.837 2.07371685737e-38
-0.0900577448883 -0.00465815921836 0.839 2.00946802343e-38
-0.0889269799768 -0.0046803673672 0.843 1.98231310126e-38
-0.0877814096326 -0.00470257551603 0.847 2.01872430043e-38
-0.0864174591583 -0.00471367959045 0.849 2.07386189176e-38
-0.0853459159769 -0.0047414397765 0.854 2.13839883266e-38
-0.0837654360515 -0.0047414397765 0.854 2.18449664759e-38
-0.0823774267492 -0.00475254385092 0.856 2.1660931146e-38
-0.0809820147307 -0.00476364792533 0.858 2.19375180356e-38
-0.0795791999959 -0.00477475199975 0.86 2.23062991538e-38
0.00959392029717 -0.00479696014859 0.864 2.30456676638e-38
0.0111669975064 -0.00478585607417 0.862 2.35084506855e-38
0.0127326719993 -0.00477475199975 0.86 2.35066458131e-38
0.014290943776 -0.00476364792533 0.858 2.35080863479e-38
0.0158418128364 -0.00475254385092 0.856 2.35073660805e-38
0.0173852791805 -0.0047414397765 0.854 2.3414806113e-38
0.0188991346595 -0.00472478366487 0.851 2.35062828768e-38
0.020425944892 -0.00471367959045 0.849 2.30453047275e-38
0.0218935333942 -0.00469147144162 0.845 2.27687164366e-38
0.0232907960918 -0.00465815921836 0.839 2.25839650432e-38
0.0248435158313 -0.00465815921836 0.839 2.2213751798e-38
0.0263962355707 -0.00465815921836 0.839 2.24892484774e-38
0.0278823308637 -0.00464705514394 0.837 2.09273177688e-38
-0.0986634025623 -0.00308323133007 0.833 3.67343245801e-39
-0.0971217868973 -0.00308323133007 0.833 2.34990984196e-38
-0.0955801712322 -0.00308323133007 0.833 2.05538633202e-38
-0.0940385555672 -0.00308323133007 0.833 1.97266165809e-38
-0.0927190213905 -0.00309063404635 0.835 2.04609418178e-38
-0.0913920844976 -0.00309803676263 0.837 2.08275663376e-38
-0.0900577448883 -0.00310543947891 0.839 2.05531402502e-38
-0.0889269799768 -0.00312024491147 0.843 2.009828017e-38
-0.0877814096326 -0.00313505034402 0.847 2.02794344303e-38
-0.0864174591583 -0.0031424530603 0.849 2.18453224057e-38
-0.0850461059677 -0.00314985577658 0.851 2.13843442564e-38
-0.0837654360515 -0.003160959851 0.854 2.20297136655e-38
-0.0823774267492 -0.00316836256728 0.856 2.1660931146e-38
0.00959392029717 -0.00319797343239 0.864 2.31389450961e-38
0.0111669975064 -0.00319057071611 0.862 2.35084506855e-38
0.0127326719993 -0.00318316799983 0.86 2.34155319856e-38
0.014290943776 -0.00317576528356 0.858 2.35091653477e-38
0.0158418128364 -0.00316836256728 0.856 2.35084450803e-38
0.0173852791805 -0.003160959851 0.854 2.32304148533e-38
0.0188991346595 -0.00314985577658 0.851 2.35077234116e-38
0.020425944892 -0.0031424530603 0.849 2.30453047275e-38
0.0218935333942 -0.00312764762774 0.845 2.31371388223e-38
0.0232907960918 -0.00310543947891 0.839 2.25839650432e-38
0.024784294101 -0.00309803676263 0.837 2.24896198215e-38
0.0263333124823 -0.00309803676263 0.837 2.28573149333e-38
0.0278823308637 -0.00309803676263 0.837 2.12961030908e-38
-0.0986634025623 -0.00154161566504 0.833 6.90100257323e-39
-0.0971217868973 -0.00154161566504 0.833 2.35026913488e-38
-0.0955801712322 -0.00154161566504 0.833 1.9727335447e-38
-0.0940385555672 -0.00154161566504 0.833 1.95443805182e-38
-0.0927190213905 -0.00154531702318 0.835 2.06456890073e-38
-0.0913920844976 -0.00154901838131 0.837 2.12856676212e-38
-0.0900577448883 -0.00155271973945 0.839 2.13789450534e-38
-0.0889269799768 -0.00156012245573 0.843 2.12921472253e-38
-0.0875741335768 -0.00156382381387 0.845 2.01868758641e-38
-0.0864174591583 -0.00157122653015 0.849 2.1753122572e-38
-0.0850461059677 -0.00157492788829 0.851 2.1476538485e-38
-0.0837654360515 -0.0015804799255 0.854 2.22141049252e-38
-0.0823774267492 -0.00158418128364 0.856 2.21215533655e-38
0.00957171214834 -0.00159528535806 0.862 2.33233363558e-38
0.0111410879994 -0.00159158399992 0.86 2.35077304181e-38
0.0127030611342 -0.00158788264178 0.858 2.30474683323e-38
0.0142576315527 -0.00158418128364 0.856 2.3508443679e-38
0.0158418128364 -0.00158418128364 0.856 2.35077248129e-38
0.0173852791805 -0.0015804799255 0.854 2.33226104832e-38
0.0188991346595 -0.00157492788829 0.851 2.33226104832e-38
0.0203778272361 -0.00156752517201 0.847 2.30453047275e-38
0.0217898953663 -0.00155642109759 0.841 2.30449431925e-38
0.0232352757197 -0.00154901838131 0.837 2.23995737834e-38
0.0247250723708 -0.00154531702318 0.835 2.24896198215e-38
0.026270389394 -0.00154531702318 0.835 2.27651193034e-38
-0.0986634025623 0.0 0.833 1.21626358821e-38
-0.0971217868973 0.0 0.833 2.35044920174e-38
-0.0955801712322 0.0 0.833 1.93567634694e-38
-0.0942643384137 0.0 0.835 2.0002487407e-38
-0.0929411028789 0.0 0.837 2.04620236202e-38
-0.0913920844976 0.0 0.837 2.0644617014e-38
-0.0900577448883 0.0 0.839 2.11985124619e-38
-0.0887160025628 0.0 0.841 2.12921486266e-38
-0.0875741335768 0.0 0.845 2.18449580681e-38
-0.0862138844606 0.0 0.847 2.11073930292e-38
-0.0850461059677 0.0 0.851 2.22133860591e-38
-0.0837654360515 0.0 0.854 2.18446063422e-38
0.00957171214834 0.0 0.862 2.35095268827e-38
0.0111410879994 0.0 0.86 2.35095268827e-38
0.0127030611342 0.0 0.858 2.3417327049e-38
0.0142576315527 0.0 0.856 2.34162480492e-38
0.0158418128364 0.0 0.856 2.34162480492e-38
0.0173852791805 0.0 0.854 2.32314938531e-38
0.0188547183618 0.0 0.849 2.35084422777e-38
0.0202334742687 0.0 0.841 2.28609120665e-38
0.0217898953663 0.0 0.841 2.32293344522e-38
0.0232352757197 0.0 0.837 2.24917694133e-38
0.0247250723708 0.0 0.835 2.23055802876e-38
0.026270389394 0.0 0.835 2.30431467278e-38
-0.0986634025623 0.00154161566504 0.833 1.54841980919e-38
-0.0971217868973 0.00154161566504 0.833 2.29513196395e-38
-0.0955801712322 0.00154161566504 0.833 1.99088610514e-38
-0.0942643384137 0.00154531702318 0.835 2.01858010682e-38
-0.0929411028789 0.00154901838131 0.837 2.10155575331e-38
-0.0913920844976 0.00154901838131 0.837 2.12921472253e-38
-0.0900577448883 0.00155271973945 0.839 2.11999529967e-38
-0.0887160025628 0.00155642109759 0.841 2.13839883266e-38
-0.087366857521 0.00156012245573 0.843 2.23981318473e-38
