# .PCD v0.7 - Point Cloud Data file format
VERSION 0.7
FIELDS x y z rgb
SIZE 4 4 4 4
TYPE F F F F
COUNT 1 1 1 1
WIDTH 834
HEIGHT 1
VIEWPOINT 0 0 0 1 0 0 0
POINTS 834
DATA ascii
0.00656620933919 -0.0607374363875 0.887 1.97259005174e-38
0.00820776167399 -0.0607374363875 0.887 2.03712699264e-38
0.00984931400879 -0.0607374363875 0.887 2.0002487407e-38
0.0114260925761 -0.0603950607596 0.882 1.98180961473e-38
0.0130287806505 -0.0602581105085 0.88 1.95418707927e-38
0.0146240660085 -0.0601211602573 0.878 1.96340692251e-38
0.0162489622317 -0.0601211602573 0.878 1.96337132953e-38
0.0178738584549 -0.0601211602573 0.878 1.94493276408e-38
0.0194321302315 -0.0599157348806 0.875 1.97259145304e-38
0.0210033567617 -0.0597787846294 0.873 1.91727379486e-38
0.0225671805756 -0.0596418343783 0.871 1.91730910758e-38
0.0241791220453 -0.0596418343783 0.871 1.92652839031e-38
0.0257318417847 -0.0595048841271 0.869 1.8619914494e-38
0.0273400818963 -0.0595048841271 0.869 1.8619914494e-38
0.0289483220078 -0.0595048841271 0.869 1.871282899e-38
-0.076396031996 -0.057297023997 0.86 2.35084464816e-38
-0.0748044479961 -0.057297023997 0.86 2.04638298939e-38
-0.0732128639962 -0.057297023997 0.86 1.88039526266e-38
-0.0716212799963 -0.057297023997 0.86 1.88039526266e-38
-0.0700296959964 -0.057297023997 0.86 1.88957881227e-38
-0.0684381119964 -0.057297023997 0.86 1.94486059721e-38
-0.0670019850384 -0.05743027289 0.862 1.93564103422e-38
-0.0654066996803 -0.05743027289 0.862 1.91712988151e-38
-0.0641815501362 -0.0577633951226 0.867 1.92645706422e-38
-0.0627213643502 -0.0578966440156 0.869 1.93567634694e-38
-0.0611131242387 -0.0578966440156 0.869 1.9633350359e-38
-0.0595048841271 -0.0578966440156 0.869 1.93567634694e-38
-0.0580298929086 -0.0580298929086 0.871 1.97255459889e-38
-0.0564179514389 -0.0580298929086 0.871 1.93567634694e-38
-0.0548060099692 -0.0580298929086 0.871 1.91723722097e-38
-0.0531940684996 -0.0580298929086 0.871 2.00021328785e-38
-0.0515821270299 -0.0580298929086 0.871 1.89886956122e-38
-0.0500849276625 -0.0581631418016 0.873 1.99106519108e-38
-0.0484692848347 -0.0581631418016 0.873 1.99106519108e-38
-0.0469609813929 -0.0582963906946 0.875 1.9818456281e-38
-0.0453416372069 -0.0582963906946 0.875 2.046382569e-38
-0.043722293021 -0.0582963906946 0.875 2.00032034705e-38
-0.042102948835 -0.0582963906946 0.875 1.99110078406e-38
-0.0406224055793 -0.0584962640342 0.878 2.00032034705e-38
-0.0389975093561 -0.0584962640342 0.878 1.95418735953e-38
-0.0373726131329 -0.0584962640342 0.878 1.97259089252e-38
-0.0357477169098 -0.0584962640342 0.878 2.00028517446e-38
-0.0342005492075 -0.0586295129272 0.88 1.98184576823e-38
-0.0325719516262 -0.0586295129272 0.88 1.96340664225e-38
-0.0310136798495 -0.0587627618202 0.882 1.96340664225e-38
-0.0293813809101 -0.0587627618202 0.882 1.99106533121e-38
-0.0277490819706 -0.0587627618202 0.882 2.02794358316e-38
-0.0262056156265 -0.0589626351597 0.885 2.00028517446e-38
-0.0245677646499 -0.0589626351597 0.885 1.94496779654e-38
-0.0229817326872 -0.0590958840527 0.887 2.0371634264e-38
-0.0213401803524 -0.0590958840527 0.887 2.04638298939e-38
-0.0197430443153 -0.0592291329458 0.889 1.91730910758e-38
-0.0180977906223 -0.0592291329458 0.889 1.99106561147e-38
-0.0164525369294 -0.0592291329458 0.889 1.96340692251e-38
-0.0148072832364 -0.0592291329458 0.889 2.00028517446e-38
-0.0131620295435 -0.0592291329458 0.889 1.99106533121e-38
-0.0115167758506 -0.0592291329458 0.889 2.04638270913e-38
-0.00987152215763 -0.0592291329458 0.889 1.97262620524e-38
-0.00824477525538 -0.0593623818388 0.891 2.01872402017e-38
-0.00659582020431 -0.0593623818388 0.891 1.98184576823e-38
-0.00494686515323 -0.0593623818388 0.891 2.03716314614e-38
-0.00329791010215 -0.0593623818388 0.891 2.0648218351e-38
-0.00164525369294 -0.0592291329458 0.889 2.01872402017e-38
0.0 -0.0592291329458 0.889 2.01868786667e-38
0.00164525369294 -0.0592291329458 0.889 1.98180961473e-38
0.00329050738588 -0.0592291329458 0.889 2.0002487407e-38
0.00493576107881 -0.0592291329458 0.889 2.00946830368e-38
0.00658101477175 -0.0592291329458 0.889 1.96337048875e-38
0.00820776167399 -0.0590958840527 0.887 2.00946830368e-38
0.00984931400879 -0.0590958840527 0.887 2.00946830368e-38
0.0114649568366 -0.0589626351597 0.885 2.00946830368e-38
0.0130287806505 -0.0586295129272 0.88 2.0002848942e-38
0.0146240660085 -0.0584962640342 0.878 1.95418735953e-38
0.0162489622317 -0.0584962640342 0.878 1.96337160979e-38
0.0178738584549 -0.0584962640342 0.878 1.98181101602e-38
0.0194321302315 -0.0582963906946 0.875 1.97259145304e-38
0.0210033567617 -0.0581631418016 0.873 1.93571292083e-38
0.0225671805756 -0.0580298929086 0.871 1.96337132953e-38
0.0241791220453 -0.0580298929086 0.871 1.94496751628e-38
0.0257318417847 -0.0578966440156 0.869 1.98184576823e-38
0.0272771588079 -0.0577633951226 0.867 1.88972202497e-38
0.0288816975613 -0.0577633951226 0.867 1.89894144783e-38
-0.0781689825448 -0.055834987532 0.862 2.01872430043e-38
-0.076396031996 -0.0557054399971 0.86 1.86192012331e-38
-0.0748044479961 -0.0557054399971 0.86 1.84344540436e-38
-0.0732128639962 -0.0557054399971 0.86 1.86181250359e-38
-0.0716212799963 -0.0557054399971 0.86 1.94478857047e-38
-0.0701925557545 -0.055834987532 0.862 1.94478857047e-38
-0.0685972703964 -0.055834987532 0.862 1.96322769644e-38
-0.0670019850384 -0.055834987532 0.862 1.95400785319e-38
-0.065558455364 -0.0559645350669 0.864 1.93556872722e-38
-0.0641815501362 -0.0561588563692 0.867 1.94489619019e-38
-0.0627213643502 -0.056288403904 0.869 1.9356766272e-38
-0.0611131242387 -0.056288403904 0.869 1.94489619019e-38
-0.0595048841271 -0.056288403904 0.869 1.9633350359e-38
-0.0580298929086 -0.0564179514389 0.871 1.9633350359e-38
-0.0564179514389 -0.0564179514389 0.871 2.00943285083e-38
-0.0548060099692 -0.0564179514389 0.871 1.95411519266e-38
-0.0533162133182 -0.0565474989738 0.873 2.01865213356e-38
-0.0517005704903 -0.0565474989738 0.873 1.94496751628e-38
-0.0501996697648 -0.0566770465087 0.875 2.01872402017e-38
-0.0485803255789 -0.0566770465087 0.875 2.02794358316e-38
-0.0469609813929 -0.0566770465087 0.875 2.03716314614e-38
-0.0453416372069 -0.0566770465087 0.875 1.96340650212e-38
-0.0438721980256 -0.056871367811 0.878 1.97262606511e-38
-0.0422473018025 -0.056871367811 0.878 2.00950431706e-38
-0.0406224055793 -0.056871367811 0.878 1.98188122108e-38
-0.0390863419515 -0.0570009153459 0.88 2.00946914446e-38
-0.0374577443701 -0.0570009153459 0.88 1.97259089252e-38
-0.0358291467888 -0.0570009153459 0.88 1.9726264855e-38
-0.0342005492075 -0.0570009153459 0.88 2.0002848942e-38
-0.032645978789 -0.0571304628807 0.882 1.95418693914e-38
-0.0310136798495 -0.0571304628807 0.882 1.99106533121e-38
-0.0293813809101 -0.0571304628807 0.882 2.01872402017e-38
-0.0278434666032 -0.0573247841831 0.885 1.99106561147e-38
-0.0262056156265 -0.0573247841831 0.885 2.00024958148e-38
-0.0245677646499 -0.0573247841831 0.885 1.97259089252e-38
-0.0229817326872 -0.0574543317179 0.887 2.00946914446e-38
-0.0213401803524 -0.0574543317179 0.887 1.98184604849e-38
-0.0197430443153 -0.0575838792528 0.889 2.00028517446e-38
-0.0180977906223 -0.0575838792528 0.889 1.98184604849e-38
-0.0164525369294 -0.0575838792528 0.889 2.03716314614e-38
-0.0148072832364 -0.0575838792528 0.889 2.03716314614e-38
-0.0131916404086 -0.0577134267877 0.891 2.01872402017e-38
-0.0115426853575 -0.0577134267877 0.891 2.03716314614e-38
-0.00989373030646 -0.0577134267877 0.891 2.02794358316e-38
-0.00824477525538 -0.0577134267877 0.891 2.01872402017e-38
-0.00659582020431 -0.0577134267877 0.891 2.00950445719e-38
-0.00494686515323 -0.0577134267877 0.891 2.00950445719e-38
-0.00329791010215 -0.0577134267877 0.891 2.01872402017e-38
-0.00164895505108 -0.0577134267877 0.891 2.03716314614e-38
0.0 -0.0577134267877 0.891 2.05556611862e-38
0.00164895505108 -0.0577134267877 0.891 2.04634655563e-38
0.00329050738588 -0.0575838792528 0.889 2.03712699264e-38
0.00493576107881 -0.0575838792528 0.889 1.97259005174e-38
0.00658101477175 -0.0575838792528 0.889 1.94493136278e-38
0.00820776167399 -0.0574543317179 0.887 2.03712699264e-38
0.00984931400879 -0.0574543317179 0.887 2.02790742966e-38
0.0114649568366 -0.0573247841831 0.885 2.0647856816e-38
0.0130583915156 -0.0571304628807 0.882 1.94496737615e-38
0.0146240660085 -0.056871367811 0.878 2.03716314614e-38
0.0162489622317 -0.056871367811 0.878 2.04634739641e-38
0.0178738584549 -0.056871367811 0.878 1.98181073576e-38
0.0194321302315 -0.0566770465087 0.875 2.00946942472e-38
0.0210033567617 -0.0565474989738 0.873 1.96337160979e-38
0.0225671805756 -0.0564179514389 0.871 1.93574823355e-38
0.0241791220453 -0.0564179514389 0.871 1.89886970135e-38
0.0257318417847 -0.056288403904 0.869 1.96344293588e-38
0.0272771588079 -0.0561588563692 0.867 1.89890599498e-38
0.0288816975613 -0.0561588563692 0.867 1.93581969978e-38
0.0304862363147 -0.0561588563692 0.867 1.86209878887e-38
-0.0797642679028 -0.0542397021739 0.862 1.93567634694e-38
-0.0781689825448 -0.0542397021739 0.862 1.81582202812e-38
-0.076396031996 -0.0541138559972 0.86 1.97241166645e-38
-0.0748044479961 -0.0541138559972 0.86 1.91702254205e-38
-0.0732128639962 -0.0541138559972 0.86 1.94471696412e-38
-0.0716212799963 -0.0541138559972 0.86 1.96322769644e-38
-0.0701925557545 -0.0542397021739 0.862 2.00010594839e-38
-0.0685972703964 -0.0542397021739 0.862 1.98166654215e-38
-0.0671574420802 -0.0543655483507 0.864 1.99088610514e-38
-0.0657860888896 -0.0545543176158 0.867 1.97244669891e-38
-0.0641815501362 -0.0545543176158 0.867 1.98177444213e-38
-0.0627213643502 -0.0546801637925 0.869 1.97251928617e-38
-0.0611131242387 -0.0546801637925 0.869 1.96333531616e-38
-0.0595048841271 -0.0546801637925 0.869 2.00943285083e-38
-0.0580298929086 -0.0548060099692 0.871 1.94489590993e-38
-0.0564179514389 -0.0548060099692 0.871 2.03709125953e-38
-0.054931856146 -0.054931856146 0.873 1.97255431863e-38
-0.0533162133182 -0.054931856146 0.873 2.0002487407e-38
-0.0518190139508 -0.0550577023227 0.875 2.00024958148e-38
-0.0501996697648 -0.0550577023227 0.875 2.00024958148e-38
-0.0485803255789 -0.0550577023227 0.875 1.9818104555e-38
-0.047121990472 -0.0552464715878 0.878 1.99106561147e-38
-0.0454970942488 -0.0552464715878 0.878 2.0371634264e-38
-0.0438721980256 -0.0552464715878 0.878 1.99106533121e-38
-0.0422473018025 -0.0552464715878 0.878 1.98184576823e-38
-0.0406224055793 -0.0552464715878 0.878 1.9818456281e-38
-0.0390863419515 -0.0553723177646 0.88 2.00024986174e-38
-0.0374577443701 -0.0553723177646 0.88 2.00024986174e-38
-0.0358291467888 -0.0553723177646 0.88 2.01872430043e-38
-0.0342005492075 -0.0553723177646 0.88 1.99106533121e-38
-0.032645978789 -0.0554981639413 0.882 1.96340650212e-38
-0.0311191685565 -0.0556869332064 0.885 1.98184576823e-38
-0.0294813175799 -0.0556869332064 0.885 2.00950473744e-38
-0.0278434666032 -0.0556869332064 0.885 2.03712783342e-38
-0.0262056156265 -0.0556869332064 0.885 2.03712811368e-38
-0.024623285022 -0.0558127793831 0.887 2.00946942472e-38
-0.0229817326872 -0.0558127793831 0.887 1.9818104555e-38
-0.0213401803524 -0.0558127793831 0.887 2.02794386342e-38
-0.0197430443153 -0.0559386255599 0.889 2.06482211536e-38
-0.0180977906223 -0.0559386255599 0.889 1.96340664225e-38
-0.0164525369294 -0.0559386255599 0.889 2.04638270913e-38
-0.0148405954597 -0.0560644717366 0.891 1.99106519108e-38
-0.0131916404086 -0.0560644717366 0.891 2.02794358316e-38
-0.0115426853575 -0.0560644717366 0.891 2.00950445719e-38
-0.00989373030646 -0.0560644717366 0.891 2.05560227212e-38
-0.00827253544143 -0.0562532410017 0.894 2.01872402017e-38
-0.00661802835314 -0.0562532410017 0.894 2.0002848942e-38
-0.00496352126486 -0.0562532410017 0.894 2.02794358316e-38
-0.00330901417657 -0.0562532410017 0.894 2.04638270913e-38
-0.00164895505108 -0.0560644717366 0.891 2.02794358316e-38
0.0 -0.0560644717366 0.891 2.01868786667e-38
0.00164895505108 -0.0560644717366 0.891 2.03712699264e-38
0.00329050738588 -0.0559386255599 0.889 2.05556611862e-38
0.00493576107881 -0.0559386255599 0.889 1.98180961473e-38
0.00658101477175 -0.0559386255599 0.889 2.0002487407e-38
0.00820776167399 -0.0558127793831 0.887 2.03712699264e-38
0.00984931400879 -0.0558127793831 0.887 2.0002487407e-38
0.0114649568366 -0.0556869332064 0.885 2.11088349653e-38
0.0130583915156 -0.0554981639413 0.882 1.95422253212e-38
0.0146573782318 -0.0553723177646 0.88 2.05560213199e-38
0.0162489622317 -0.0552464715878 0.878 2.03716314614e-38
0.0178738584549 -0.0552464715878 0.878 2.00028517446e-38
0.0194321302315 -0.0550577023227 0.875 2.00024958148e-38
0.0210033567617 -0.054931856146 0.873 2.00028517446e-38
0.0225671805756 -0.0548060099692 0.871 2.0002848942e-38
0.0241791220453 -0.0548060099692 0.871 2.01872388004e-38
0.0257318417847 -0.0546801637925 0.869 1.89890627524e-38
0.0272771588079 -0.0545543176158 0.867 1.87124758628e-38
0.0287817608915 -0.0543655483507 0.864 1.95425896588e-38
0.0303807476077 -0.0543655483507 0.864 1.91741616678e-38
0.0319797343239 -0.0543655483507 0.864 1.96344181485e-38
-0.085745662656 -0.0524001271787 0.858 1.38275494162e-38
-0.0841577800142 -0.0524001271787 0.858 2.35091681503e-38
-0.0825698973724 -0.0524001271787 0.858 1.9818104555e-38
-0.0811707839958 -0.0525222719973 0.86 1.67752858333e-38
-0.0797642679028 -0.0526444168159 0.862 2.00932495085e-38
-0.0781689825448 -0.0526444168159 0.862 1.91712932099e-38
-0.0765736971867 -0.0526444168159 0.862 1.99077904594e-38
-0.0749784118287 -0.0526444168159 0.862 1.96312063724e-38
-0.0733831264706 -0.0526444168159 0.862 1.944681231e-38
-0.0717878411125 -0.0526444168159 0.862 1.98159521606e-38
-0.0701925557545 -0.0526444168159 0.862 1.95393624684e-38
-0.0687564287964 -0.0527665616345 0.864 1.92634916423e-38
-0.0671574420802 -0.0527665616345 0.864 1.96322713592e-38
-0.0657860888896 -0.0529497788624 0.867 1.92638447696e-38
-0.0641815501362 -0.0529497788624 0.867 1.91723750123e-38
-0.0627213643502 -0.053071923681 0.869 1.94486059721e-38
-0.0611131242387 -0.053071923681 0.869 1.92645706422e-38
-0.0596418343783 -0.0531940684996 0.871 1.97255487915e-38
-0.0581631418016 -0.0533162133182 0.873 1.97255459889e-38
-0.0565474989738 -0.0533162133182 0.873 2.00021300759e-38
-0.054931856146 -0.0533162133182 0.873 1.9909934446e-38
-0.0534383581368 -0.0534383581368 0.875 1.99102917771e-38
-0.0518190139508 -0.0534383581368 0.875 2.03712811368e-38
-0.0501996697648 -0.0534383581368 0.875 2.00024986174e-38
-0.0487468866951 -0.0536215753646 0.878 2.00946942472e-38
-0.047121990472 -0.0536215753646 0.878 2.04634739641e-38
-0.0454970942488 -0.0536215753646 0.878 2.08326124134e-38
-0.0438721980256 -0.0536215753646 0.878 2.04638298939e-38
-0.0422473018025 -0.0536215753646 0.878 2.04638270913e-38
-0.0407149395328 -0.0537437201832 0.88 2.02794358316e-38
-0.0390863419515 -0.0537437201832 0.88 2.00946970498e-38
-0.0374577443701 -0.0537437201832 0.88 2.00024986174e-38
-0.0359105766679 -0.0538658650018 0.882 2.00024958148e-38
-0.0342782777284 -0.0538658650018 0.882 1.98184576823e-38
-0.032645978789 -0.0538658650018 0.882 2.00950431706e-38
-0.0311191685565 -0.0540490822297 0.885 2.00950445719e-38
-0.0294813175799 -0.0540490822297 0.885 2.02794386342e-38
-0.0278434666032 -0.0540490822297 0.885 2.02790827044e-38
-0.0262648373568 -0.0541712270483 0.887 2.00024986174e-38
-0.024623285022 -0.0541712270483 0.887 2.04634767667e-38
-0.0229817326872 -0.0541712270483 0.887 1.99103001849e-38
-0.0213401803524 -0.0541712270483 0.887 2.02790827044e-38
-0.0197874606129 -0.0544155166855 0.891 2.04638298939e-38
-0.0181385055618 -0.0544155166855 0.891 2.01872402017e-38
-0.0164895505108 -0.0544155166855 0.891 2.07404139809e-38
-0.0148405954597 -0.0544155166855 0.891 2.08326082095e-38
-0.0131916404086 -0.0544155166855 0.891 2.02794358316e-38
-0.0115426853575 -0.0544155166855 0.891 2.03716314614e-38
-0.00989373030646 -0.0544155166855 0.891 2.07404139809e-38
-0.00827253544143 -0.0545987339134 0.894 2.0648218351e-38
-0.00661802835314 -0.0545987339134 0.894 2.03716314614e-38
-0.00496352126486 -0.0545987339134 0.894 2.04638270913e-38
-0.00330901417657 -0.0545987339134 0.894 2.05560227212e-38
-0.00164895505108 -0.0544155166855 0.891 2.0648218351e-38
0.0 -0.0544155166855 0.891 2.0647856816e-38
0.00164895505108 -0.0544155166855 0.891 2.03712699264e-38
0.00329050738588 -0.0542933718669 0.889 2.04634655563e-38
0.00493576107881 -0.0542933718669 0.889 2.01868786667e-38
0.00658101477175 -0.0542933718669 0.889 2.0002487407e-38
0.00822626846469 -0.0542933718669 0.889 2.05556611862e-38
0.00984931400879 -0.0541712270483 0.887 2.03712699264e-38
0.0114649568366 -0.0540490822297 0.885 2.04634655563e-38
0.0130583915156 -0.0538658650018 0.882 2.04641816198e-38
0.014690690455 -0.0538658650018 0.882 2.04641816198e-38
0.0162859758131 -0.0537437201832 0.88 2.046382569e-38
0.0178738584549 -0.0536215753646 0.878 2.01872402017e-38
0.0194321302315 -0.0534383581368 0.875 1.98184576823e-38
0.0210033567617 -0.0533162133182 0.873 2.0002848942e-38
0.0225671805756 -0.0531940684996 0.871 1.97262606511e-38
0.0241791220453 -0.0531940684996 0.871 2.00953991004e-38
0.0257318417847 -0.053071923681 0.869 1.9634434964e-38
0.0273400818963 -0.053071923681 0.869 1.90812611849e-38
0.0287817608915 -0.0527665616345 0.864 1.97266249887e-38
0.0303807476077 -0.0527665616345 0.864 1.95422253212e-38
0.0319797343239 -0.0527665616345 0.864 1.94500268887e-38
0.0335787210401 -0.0527665616345 0.864 1.91730868719e-38
-0.0913458175208 -0.0503976924253 0.851 2.34176899853e-38
-0.0897708896325 -0.0503976924253 0.851 2.35098856151e-38
-0.0885068758279 -0.050575357616 0.854 2.35095170737e-38
-0.0869263959024 -0.050575357616 0.854 1.23513291281e-38
-0.0855457893165 -0.0506938010764 0.856 2.34144501832e-38
-0.0841577800142 -0.0508122445369 0.858 1.95415204681e-38
-0.0825698973724 -0.0508122445369 0.858 1.87117626019e-38
-0.0811707839958 -0.0509306879973 0.86 1.80663875876e-38
-0.0795791999959 -0.0509306879973 0.86 1.8619914494e-38
-0.0781689825448 -0.0510491314578 0.862 1.88039414162e-38
-0.0765736971867 -0.0510491314578 0.862 1.8803236563e-38
-0.0749784118287 -0.0510491314578 0.862 1.92631399164e-38
-0.0733831264706 -0.0510491314578 0.862 1.97241166645e-38
-0.0717878411125 -0.0510491314578 0.862 1.98166682241e-38
-0.0701925557545 -0.0510491314578 0.862 1.90791003826e-38
-0.0687564287964 -0.0511675749183 0.864 1.92645678396e-38
-0.067390627643 -0.051345240109 0.867 1.95411519266e-38
-0.0657860888896 -0.051345240109 0.867 1.9264565037e-38
-0.0641815501362 -0.051345240109 0.867 1.95400757293e-38
-0.0627213643502 -0.0514636835694 0.869 1.98163024852e-38
-0.061253775848 -0.0515821270299 0.871 1.98163024852e-38
-0.0596418343783 -0.0515821270299 0.871 2.00010538787e-38
-0.0581631418016 -0.0517005704903 0.873 2.00943257057e-38
-0.0566770465087 -0.0518190139508 0.875 1.99106533121e-38
-0.0550577023227 -0.0518190139508 0.875 1.98184576823e-38
-0.0534383581368 -0.0518190139508 0.875 1.99106533121e-38
-0.0518190139508 -0.0518190139508 0.875 1.97259089252e-38
-0.0503717829183 -0.0519966791415 0.878 2.06485840899e-38
-0.0487468866951 -0.0519966791415 0.878 2.02798015705e-38
-0.047121990472 -0.0519966791415 0.878 2.10173666094e-38
-0.0454970942488 -0.0519966791415 0.878 1.97266277913e-38
-0.0438721980256 -0.0519966791415 0.878 2.03719972003e-38
-0.0423435371141 -0.0521151226019 0.88 2.00954103108e-38
-0.0407149395328 -0.0521151226019 0.88 2.00032146809e-38
-0.0390863419515 -0.0521151226019 0.88 2.00950571835e-38
-0.0375428756073 -0.0522335660624 0.882 2.01872528134e-38
-0.0359105766679 -0.0522335660624 0.882 1.97266305939e-38
-0.0343948705098 -0.0524112312531 0.885 1.98188206186e-38
-0.0327570195332 -0.0524112312531 0.885 2.04645445561e-38
-0.0311191685565 -0.0524112312531 0.885 2.0556740186e-38
-0.0294813175799 -0.0524112312531 0.885 2.02805092262e-38
-0.0278434666032 -0.0524112312531 0.885 2.04649004859e-38
-0.0262648373568 -0.0525296747135 0.887 2.07407797198e-38
-0.024623285022 -0.0525296747135 0.887 2.06485868925e-38
-0.0229817326872 -0.0525296747135 0.887 2.04641928302e-38
-0.0213882980082 -0.052648118174 0.889 1.98188234212e-38
-0.0197874606129 -0.0527665616345 0.891 2.13861463262e-38
-0.0181385055618 -0.0527665616345 0.891 2.02801546977e-38
-0.0164895505108 -0.0527665616345 0.891 2.05567415873e-38
-0.0148905637946 -0.0529442268251 0.894 2.00957620367e-38
-0.0132360567063 -0.0529442268251 0.894 2.08326124134e-38
-0.011581549618 -0.0529442268251 0.894 2.02790827044e-38
-0.00992704252972 -0.0529442268251 0.894 2.07400608537e-38
-0.00827253544143 -0.0529442268251 0.894 2.06482211536e-38
-0.0066328337857 -0.0530626702856 0.896 2.05560255238e-38
-0.00496352126486 -0.0529442268251 0.894 1.98184576823e-38
-0.00330901417657 -0.0529442268251 0.894 2.05560227212e-38
-0.00165450708829 -0.0529442268251 0.894 2.10170008705e-38
0.0 -0.0529442268251 0.894 2.09248052406e-38
0.00164895505108 -0.0527665616345 0.891 1.96340664225e-38
0.00329791010215 -0.0527665616345 0.891 2.0555669594e-38
0.00494686515323 -0.0527665616345 0.891 2.10166505459e-38
0.00658101477175 -0.052648118174 0.889 2.03712811368e-38
0.00822626846469 -0.052648118174 0.889 2.06478652238e-38
0.00984931400879 -0.0525296747135 0.887 2.00950473744e-38
0.0114649568366 -0.0524112312531 0.885 2.11091965003e-38
0.0130583915156 -0.0522335660624 0.882 2.05560213199e-38
0.014690690455 -0.0522335660624 0.882 2.02801546977e-38
0.0162859758131 -0.0521151226019 0.88 2.11095594367e-38
0.0178738584549 -0.0519966791415 0.878 2.05563884601e-38
0.0194321302315 -0.0518190139508 0.875 2.04641928302e-38
0.0210514744175 -0.0518190139508 0.875 2.0095763438e-38
0.0226189995895 -0.0517005704903 0.873 1.99117267067e-38
0.0241791220453 -0.0515821270299 0.871 1.98195282743e-38
0.0257318417847 -0.0514636835694 0.869 1.98191765484e-38
0.0273400818963 -0.0514636835694 0.869 1.98188234212e-38
0.0287817608915 -0.0511675749183 0.864 1.95422365316e-38
0.0303807476077 -0.0511675749183 0.864 1.95422365316e-38
0.0319797343239 -0.0511675749183 0.864 1.9911019051e-38
0.0335009925192 -0.0510491314578 0.862 1.91734512095e-38
0.0350962778772 -0.0510491314578 0.862 1.88968643199e-38
-0.0932483156044 -0.0489948776905 0.854 2.35098856151e-38
-0.0913458175208 -0.048822764537 0.851 2.34176899853e-38
-0.0897708896325 -0.048822764537 0.851 2.35098856151e-38
-0.0885068758279 -0.0489948776905 0.854 1.00467915088e-38
-0.0869263959024 -0.0489948776905 0.854 2.35091555386e-38
-0.0855457893165 -0.0491096197928 0.856 2.11091965003e-38
-0.0841577800142 -0.0492243618951 0.858 1.71444340916e-38
-0.0827623679957 -0.0493391039974 0.86 1.88961538616e-38
-0.0811707839958 -0.0493391039974 0.86 1.84351729097e-38
-0.0795791999959 -0.0493391039974 0.86 1.88043057538e-38
-0.0781689825448 -0.0494538460997 0.862 1.88046602823e-38
-0.0765736971867 -0.0494538460997 0.862 1.90801793824e-38
-0.0749784118287 -0.0494538460997 0.862 1.98173884915e-38
-0.0733831264706 -0.0494538460997 0.862 1.91720190825e-38
-0.0717878411125 -0.0494538460997 0.862 1.9356766272e-38
-0.0701925557545 -0.0494538460997 0.862 1.95411575318e-38
-0.0687564287964 -0.0495685882021 0.864 1.98177416187e-38
-0.067390627643 -0.0497407013555 0.867 1.93567634694e-38
-0.0657860888896 -0.0497407013555 0.867 1.98177388162e-38
-0.0643296044618 -0.0498554434579 0.869 2.04616690917e-38
-0.0628657173177 -0.0499701855602 0.871 2.03694734618e-38
-0.061253775848 -0.0499701855602 0.871 2.00936054383e-38
-0.0597787846294 -0.0500849276625 0.873 2.00936054383e-38
-0.0581631418016 -0.0500849276625 0.873 2.02787169655e-38
-0.0566770465087 -0.0501996697648 0.875 1.98184576823e-38
-0.0550577023227 -0.0501996697648 0.875 2.0648218351e-38
-0.0534383581368 -0.0501996697648 0.875 2.04638270913e-38
-0.0519966791415 -0.0503717829183 0.878 2.03719972003e-38
-0.0503717829183 -0.0503717829183 0.878 2.00032146809e-38
-0.0487468866951 -0.0503717829183 0.878 2.02798015705e-38
-0.047121990472 -0.0503717829183 0.878 2.08329753497e-38
-0.0454970942488 -0.0503717829183 0.878 2.04641928302e-38
-0.0438721980256 -0.0503717829183 0.878 2.05563884601e-38
-0.0423435371141 -0.0504865250206 0.88 2.02798015705e-38
-0.0408074734862 -0.0506012671229 0.882 2.05563884601e-38
-0.0391751745468 -0.0506012671229 0.882 2.00954131133e-38
-0.0375428756073 -0.0506012671229 0.882 2.06485868925e-38
-0.0360327214865 -0.0507733802764 0.885 2.03719972003e-38
-0.0343948705098 -0.0507733802764 0.885 2.0187603138e-38
-0.0327570195332 -0.0507733802764 0.885 2.01879590678e-38
-0.0311191685565 -0.0507733802764 0.885 2.03723489263e-38
-0.0295479420264 -0.0508881223787 0.887 2.00039223366e-38
-0.0279063896916 -0.0508881223787 0.887 1.9727335447e-38
-0.0262648373568 -0.0508881223787 0.887 1.98188234212e-38
-0.024623285022 -0.0508881223787 0.887 2.04641956328e-38
-0.0229817326872 -0.0508881223787 0.887 2.04641928302e-38
-0.0213882980082 -0.0510028644811 0.889 2.00032118783e-38
-0.0197874606129 -0.0511176065834 0.891 2.08329725471e-38
-0.0181385055618 -0.0511176065834 0.891 2.02801546977e-38
-0.0164895505108 -0.0511176065834 0.891 2.0741132847e-38
-0.0148905637946 -0.0512897197369 0.894 2.0556740186e-38
-0.0132360567063 -0.0512897197369 0.894 2.06482211536e-38
-0.011581549618 -0.0512897197369 0.894 2.05560255238e-38
-0.00992704252972 -0.0512897197369 0.894 2.07404167835e-38
-0.00829104223213 -0.0514044618392 0.896 1.9726264855e-38
-0.0066328337857 -0.0514044618392 0.896 2.0648218351e-38
-0.00497462533928 -0.0514044618392 0.896 2.12935877601e-38
-0.00330901417657 -0.0512897197369 0.894 2.03716300601e-38
-0.00165450708829 -0.0512897197369 0.894 2.02794344303e-38
0.0 -0.0512897197369 0.894 2.06482169497e-38
0.00164895505108 -0.0511176065834 0.891 2.00950445719e-38
0.00329791010215 -0.0511176065834 0.891 2.0555669594e-38
0.00494686515323 -0.0511176065834 0.891 2.06478680264e-38
0.00658101477175 -0.0510028644811 0.889 2.14776286952e-38
0.00822626846469 -0.0510028644811 0.889 2.10166505459e-38
0.00984931400879 -0.0508881223787 0.887 2.02794386342e-38
0.0114649568366 -0.0507733802764 0.885 2.08326096108e-38
0.0131028078133 -0.0507733802764 0.885 2.12943066262e-38
0.014690690455 -0.0506012671229 0.882 2.06485812873e-38
0.0162859758131 -0.0504865250206 0.88 2.10173666094e-38
0.0178738584549 -0.0503717829183 0.878 2.06485840899e-38
0.0194987546781 -0.0503717829183 0.878 1.96344321614e-38
0.0210514744175 -0.0501996697648 0.875 2.04641900276e-38
0.0226189995895 -0.0500849276625 0.873 2.00957620367e-38
0.0241791220453 -0.0499701855602 0.871 2.02805064236e-38
0.0257910635149 -0.0499701855602 0.871 1.99113721782e-38
0.0273400818963 -0.0498554434579 0.869 1.9911019051e-38
0.0287817608915 -0.0495685882021 0.864 1.94500437043e-38
0.0303807476077 -0.0495685882021 0.864 1.94500437043e-38
0.0319797343239 -0.0495685882021 0.864 1.97266305939e-38
0.0335009925192 -0.0494538460997 0.862 1.95422365316e-38
0.0350962778772 -0.0494538460997 0.862 1.85284377303e-38
0.0366915632353 -0.0494538460997 0.862 1.85287922588e-38
-0.0929207454091 -0.0472478366487 0.851 2.2956711836e-38
-0.0913458175208 -0.0472478366487 0.851 2.34176899853e-38
-0.0897708896325 -0.0472478366487 0.851 2.32332987256e-38
-0.0885068758279 -0.047414397765 0.854 4.97567873908e-39
-0.0871299706001 -0.0475254385092 0.856 2.35066374053e-38
-0.085745662656 -0.0476364792533 0.858 1.72369828487e-38
-0.0841577800142 -0.0476364792533 0.858 1.88039554291e-38
-0.0827623679957 -0.0477475199975 0.86 1.90805423187e-38
-0.0811707839958 -0.0477475199975 0.86 1.89883438863e-38
-0.0795791999959 -0.0477475199975 0.86 1.90808926434e-38
-0.0781689825448 -0.0478585607417 0.862 1.92656384316e-38
-0.0765736971867 -0.0478585607417 0.862 1.92645706422e-38
-0.0749784118287 -0.0478585607417 0.862 1.92642147124e-38
-0.0733831264706 -0.0478585607417 0.862 1.95408016019e-38
-0.0717878411125 -0.0478585607417 0.862 2.01865269408e-38
-0.0703554155126 -0.0479696014859 0.864 1.92645706422e-38
-0.0689951663964 -0.0481361626021 0.867 2.02787197681e-38
-0.067390627643 -0.0481361626021 0.867 1.98177416187e-38
-0.0657860888896 -0.0481361626021 0.867 1.99099372486e-38
-0.0643296044618 -0.0482472033463 0.869 1.9632627289e-38
-0.0630100702851 -0.0484692848347 0.873 1.95404316591e-38
-0.0613944274573 -0.0484692848347 0.873 2.01858010682e-38
-0.0597787846294 -0.0484692848347 0.873 2.03709125953e-38
-0.0582963906946 -0.0485803255789 0.875 2.02787169655e-38
-0.0566770465087 -0.0485803255789 0.875 1.96340664225e-38
-0.0550577023227 -0.0485803255789 0.875 2.05560227212e-38
-0.0534383581368 -0.0485803255789 0.875 1.99106533121e-38
-0.0519966791415 -0.0487468866951 0.878 2.03719972003e-38
-0.0503717829183 -0.0487468866951 0.878 2.03719972003e-38
-0.0487468866951 -0.0487468866951 0.878 2.00954103108e-38
-0.047121990472 -0.0487468866951 0.878 2.05563884601e-38
-0.0456007322767 -0.0488579274393 0.88 2.10173666094e-38
-0.0439721346954 -0.0488579274393 0.88 2.04641928302e-38
-0.0424397724257 -0.0489689681835 0.882 2.02798015705e-38
-0.0408074734862 -0.0489689681835 0.882 2.04641928302e-38
-0.0393084234398 -0.0491355292998 0.885 2.03719943977e-38
-0.0376705724632 -0.0491355292998 0.885 2.03719943977e-38
-0.0360327214865 -0.0491355292998 0.885 1.99110162484e-38
-0.0343948705098 -0.0491355292998 0.885 2.05567415873e-38
-0.0327570195332 -0.0491355292998 0.885 2.08333284769e-38
-0.0311191685565 -0.0491355292998 0.885 2.06489372171e-38
-0.0295479420264 -0.0492465700439 0.887 2.03723503276e-38
-0.0279063896916 -0.0492465700439 0.887 2.08333284769e-38
-0.0262648373568 -0.0492465700439 0.887 2.00954103108e-38
-0.024623285022 -0.0492465700439 0.887 2.06485840899e-38
-0.0229817326872 -0.0492465700439 0.887 2.05563884601e-38
-0.0213882980082 -0.0493576107881 0.889 2.00954075082e-38
-0.0197874606129 -0.0494686515323 0.891 2.07407769172e-38
-0.0181385055618 -0.0494686515323 0.891 2.06485812873e-38
-0.0164895505108 -0.0494686515323 0.891 2.09255241067e-38
-0.0148905637946 -0.0496352126486 0.894 2.06489372171e-38
-0.0132360567063 -0.0496352126486 0.894 2.02794358316e-38
-0.011581549618 -0.0496352126486 0.894 2.05560227212e-38
-0.00994925067855 -0.0497462533928 0.896 2.10170008705e-38
-0.00829104223213 -0.0497462533928 0.896 2.10169994692e-38
-0.0066328337857 -0.0497462533928 0.896 2.06482169497e-38
-0.00497462533928 -0.0497462533928 0.896 2.1017355399e-38
-0.00331641689285 -0.0497462533928 0.896 2.08329641393e-38
-0.00165450708829 -0.0496352126486 0.894 2.08329641393e-38
0.0 -0.0496352126486 0.894 2.01875947302e-38
0.00164895505108 -0.0494686515323 0.891 2.02794344303e-38
0.00329791010215 -0.0494686515323 0.891 2.09248052406e-38
0.00494686515323 -0.0494686515323 0.891 2.10170036731e-38
0.00658101477175 -0.0493576107881 0.889 2.10166477433e-38
0.00822626846469 -0.0493576107881 0.889 2.06482211536e-38
0.00984931400879 -0.0492465700439 0.887 2.08326096108e-38
0.0114908663436 -0.0492465700439 0.887 2.10169994692e-38
0.0131028078133 -0.0491355292998 0.885 2.03723503276e-38
0.0147406587899 -0.0491355292998 0.885 2.06485812873e-38
0.0162859758131 -0.0488579274393 0.88 2.11095594367e-38
0.0179145733944 -0.0488579274393 0.88 2.03719972003e-38
0.0194987546781 -0.0487468866951 0.878 2.06485812873e-38
0.0210514744175 -0.0485803255789 0.875 2.04645459574e-38
0.0226189995895 -0.0484692848347 0.873 2.07411314457e-38
0.0241791220453 -0.0483582440905 0.871 2.03727048561e-38
0.0257910635149 -0.0483582440905 0.871 2.01879590678e-38
0.0273400818963 -0.0482472033463 0.869 2.00954075082e-38
0.0287817608915 -0.0479696014859 0.864 1.96344321614e-38
0.0303807476077 -0.0479696014859 0.864 1.95422365316e-38
0.0319797343239 -0.0479696014859 0.864 1.97266277913e-38
0.0335009925192 -0.0478585607417 0.862 2.00032118783e-38
0.0350148479982 -0.0477475199975 0.86 1.93581983991e-38
0.0365213007609 -0.0476364792533 0.858 1.95429441873e-38
0.0381091834027 -0.0476364792533 0.858 1.96347852886e-38
-0.0929207454091 -0.0456729087604 0.851 2.32332987256e-38
-0.0913458175208 -0.0456729087604 0.851 2.35098856151e-38
-0.0897708896325 -0.0456729087604 0.851 2.35098856151e-38
-0.0885068758279 -0.0458339178395 0.854 9.21667911409e-39
-0.0871299706001 -0.0459412572255 0.856 2.35088038127e-38
-0.085745662656 -0.0460485966116 0.858 1.89883438863e-38
-0.0841577800142 -0.0460485966116 0.858 1.89883466889e-38
-0.0825698973724 -0.0460485966116 0.858 1.84351729097e-38
-0.0811707839958 -0.0461559359976 0.86 1.87117569967e-38
-0.0795791999959 -0.0461559359976 0.86 1.88043057538e-38
-0.0781689825448 -0.0462632753836 0.862 1.91734428017e-38
-0.0765736971867 -0.0462632753836 0.862 1.92645678396e-38
-0.0749784118287 -0.0462632753836 0.862 1.90801793824e-38
-0.073553388945 -0.0463706147697 0.864 1.88957881227e-38
-0.0719544022288 -0.0463706147697 0.864 1.96333531616e-38
-0.0703554155126 -0.0463706147697 0.864 1.99099400512e-38
-0.0689951663964 -0.0465316238487 0.867 1.97255487915e-38
-0.067390627643 -0.0465316238487 0.867 1.9356766272e-38
-0.0659378445733 -0.0466389632348 0.869 2.00021356811e-38
-0.0644776587873 -0.0467463026208 0.871 2.01865213356e-38
-0.0630100702851 -0.0468536420069 0.873 1.97255431863e-38
-0.0613944274573 -0.0468536420069 0.873 2.00943257057e-38
-0.0597787846294 -0.0468536420069 0.873 2.01865213356e-38
-0.0582963906946 -0.0469609813929 0.875 1.98184576823e-38
-0.0566770465087 -0.0469609813929 0.875 1.98184576823e-38
-0.0550577023227 -0.0469609813929 0.875 2.03716314614e-38
-0.0534383581368 -0.0469609813929 0.875 2.01872402017e-38
-0.0519966791415 -0.047121990472 0.878 2.04641900276e-38
-0.0503717829183 -0.047121990472 0.878 2.03719943977e-38
-0.0487468866951 -0.047121990472 0.878 2.06485812873e-38
-0.047121990472 -0.047121990472 0.878 2.06485812873e-38
-0.0456007322767 -0.047229329858 0.88 2.11095594367e-38
-0.0439721346954 -0.047229329858 0.88 2.07407769172e-38
-0.0424397724257 -0.047336669244 0.882 2.07407769172e-38
-0.0409462744165 -0.0474976783231 0.885 2.00032118783e-38
-0.0393084234398 -0.0474976783231 0.885 1.98191751471e-38
-0.0376705724632 -0.0474976783231 0.885 2.06489358158e-38
-0.0360327214865 -0.0474976783231 0.885 2.07411314457e-38
-0.0344725990308 -0.0476050177091 0.887 2.05567415873e-38
-0.032831046696 -0.0476050177091 0.887 2.03719943977e-38
-0.0311894943612 -0.0476050177091 0.887 2.05563856575e-38
-0.0295479420264 -0.0476050177091 0.887 2.03719943977e-38
-0.0279063896916 -0.0476050177091 0.887 2.05563884601e-38
-0.0262648373568 -0.0476050177091 0.887 2.11095622392e-38
-0.024623285022 -0.0476050177091 0.887 2.05563856575e-38
-0.0229817326872 -0.0476050177091 0.887 2.10173638068e-38
-0.0213882980082 -0.0477123570952 0.889 2.07407769172e-38
-0.0197874606129 -0.0478196964812 0.891 2.02797987679e-38
-0.0181385055618 -0.0478196964812 0.891 2.06485812873e-38
-0.0164895505108 -0.0478196964812 0.891 2.10173638068e-38
-0.0148905637946 -0.0479807055603 0.894 2.08329725471e-38
-0.0132360567063 -0.0479807055603 0.894 2.0648218351e-38
-0.011607459125 -0.0480880449463 0.896 2.10169994692e-38
-0.00994925067855 -0.0480880449463 0.896 2.09248038393e-38
-0.00829104223213 -0.0480880449463 0.896 2.02797903601e-38
-0.0066328337857 -0.0480880449463 0.896 2.1017355399e-38
-0.00497462533928 -0.0480880449463 0.896 2.07407657068e-38
-0.00331641689285 -0.0480880449463 0.896 2.07407657068e-38
-0.00165450708829 -0.0479807055603 0.894 2.08329613367e-38
0.0 -0.0479807055603 0.894 2.09251597691e-38
0.00164895505108 -0.0478196964812 0.891 2.01875947302e-38
0.00329791010215 -0.0478196964812 0.891 2.11091950991e-38
0.00494686515323 -0.0478196964812 0.891 2.11091950991e-38
0.00658101477175 -0.0477123570952 0.889 2.10170008705e-38
0.00822626846469 -0.0477123570952 0.889 2.10169994692e-38
0.00984931400879 -0.0476050177091 0.887 2.17545645081e-38
0.0114908663436 -0.0476050177091 0.887 2.05563772497e-38
0.0131324186784 -0.0476050177091 0.887 2.08333284769e-38
0.0147406587899 -0.0474976783231 0.885 2.12943066262e-38
0.0162859758131 -0.047229329858 0.88 2.14783419561e-38
0.0179145733944 -0.047229329858 0.88 2.06485812873e-38
0.0194987546781 -0.047121990472 0.878 2.14783419561e-38
0.0211236509012 -0.047121990472 0.878 2.08333284769e-38
0.0226708186035 -0.0469609813929 0.875 2.0741132847e-38
0.0242346424173 -0.0468536420069 0.873 2.04645445561e-38
0.0257910635149 -0.0467463026208 0.871 2.03723503276e-38
0.0273400818963 -0.0466389632348 0.869 2.03719943977e-38
0.0289483220078 -0.0466389632348 0.869 2.00032118783e-38
0.0303807476077 -0.0463706147697 0.864 2.00032118783e-38
0.0319797343239 -0.0463706147697 0.864 2.00954075082e-38
0.0335009925192 -0.0462632753836 0.862 1.94500380991e-38
0.0350148479982 -0.0461559359976 0.86 1.98191751471e-38
0.0365213007609 -0.0460485966116 0.858 1.95425882575e-38
0.0381091834027 -0.0460485966116 0.858 1.871282899e-38
0.0396970660444 -0.0460485966116 0.858 1.76064814317e-38
-0.0929207454091 -0.0440979808721 0.851 2.31411030957e-38
-0.0913458175208 -0.0440979808721 0.851 2.35098856151e-38
-0.0900873557534 -0.044253437914 0.854 2.35098856151e-38
-0.0885068758279 -0.044253437914 0.854 1.04148691751e-38
-0.0871299706001 -0.0443570759419 0.856 2.322934286e-38
-0.085745662656 -0.0444607139698 0.858 1.76976078708e-38
-0.0841577800142 -0.0444607139698 0.858 1.93571292083e-38
-0.0825698973724 -0.0444607139698 0.858 1.90805395161e-38
-0.0811707839958 -0.0445643519977 0.86 1.89886998161e-38
-0.0795791999959 -0.0445643519977 0.86 1.93574795329e-38
-0.0781689825448 -0.0446679900256 0.862 2.00028475407e-38
-0.0765736971867 -0.0446679900256 0.862 1.9633350359e-38
-0.0751523756612 -0.0447716280535 0.864 1.99099400512e-38
-0.073553388945 -0.0447716280535 0.864 1.99099400512e-38
-0.0719544022288 -0.0447716280535 0.864 1.99099400512e-38
-0.0705997051498 -0.0449270850953 0.867 1.98177444213e-38
-0.0689951663964 -0.0449270850953 0.867 2.00021356811e-38
-0.067390627643 -0.0449270850953 0.867 1.99099400512e-38
-0.0659378445733 -0.0450307231232 0.869 1.96333531616e-38
-0.0644776587873 -0.0451343611511 0.871 1.99106561147e-38
-0.0630100702851 -0.045237999179 0.873 2.04638270913e-38
-0.0613944274573 -0.045237999179 0.873 2.03716314614e-38
-0.0599157348806 -0.0453416372069 0.875 2.05560227212e-38
-0.0582963906946 -0.0453416372069 0.875 2.04638270913e-38
-0.0566770465087 -0.0453416372069 0.875 2.0648218351e-38
-0.0552464715878 -0.0454970942488 0.878 2.04638270913e-38
-0.0536215753646 -0.0454970942488 0.878 2.0002848942e-38
-0.0519966791415 -0.0454970942488 0.878 1.99110162484e-38
-0.0503717829183 -0.0454970942488 0.878 2.08329725471e-38
-0.0488579274393 -0.0456007322767 0.88 2.0187603138e-38
-0.047229329858 -0.0456007322767 0.88 2.07407769172e-38
-0.0456007322767 -0.0456007322767 0.88 2.07407769172e-38
-0.0439721346954 -0.0456007322767 0.88 2.16627332158e-38
-0.0424397724257 -0.0457043703046 0.882 2.03719943977e-38
-0.0409462744165 -0.0458598273464 0.885 2.0187603138e-38
-0.0393084234398 -0.0458598273464 0.885 2.03723489263e-38
-0.0376705724632 -0.0458598273464 0.885 1.98195310769e-38
-0.0360327214865 -0.0458598273464 0.885 2.10177183353e-38
-0.0344725990308 -0.0459634653743 0.887 2.08333284769e-38
-0.032831046696 -0.0459634653743 0.887 2.08329725471e-38
-0.0311894943612 -0.0459634653743 0.887 2.03719972003e-38
-0.0295479420264 -0.0459634653743 0.887 2.09251709795e-38
-0.0279063896916 -0.0459634653743 0.887 2.09251737821e-38
-0.0262648373568 -0.0459634653743 0.887 2.07407797198e-38
-0.024623285022 -0.0459634653743 0.887 2.12017550665e-38
-0.0230335517011 -0.0460671034023 0.889 2.11095594367e-38
-0.0213882980082 -0.0460671034023 0.889 2.06485812873e-38
-0.0198540850594 -0.046326198472 0.894 2.09251681769e-38
-0.0181995779711 -0.046326198472 0.894 2.08329725471e-38
-0.0165450708829 -0.046326198472 0.894 2.08329725471e-38
-0.0148905637946 -0.046326198472 0.894 2.07407797198e-38
-0.0132656675714 -0.0464298364999 0.896 2.12013921302e-38
-0.011607459125 -0.0464298364999 0.896 2.05560213199e-38
-0.00994925067855 -0.0464298364999 0.896 2.12017466587e-38
-0.00829104223213 -0.0464298364999 0.896 2.06485728795e-38
-0.0066328337857 -0.0464298364999 0.896 2.17549204379e-38
-0.00497462533928 -0.0464298364999 0.896 2.02797875575e-38
-0.00331641689285 -0.0464298364999 0.896 2.06485700769e-38
-0.00165450708829 -0.046326198472 0.894 2.00953962978e-38
0.0 -0.046326198472 0.894 2.11095510289e-38
0.00164895505108 -0.0461707414302 0.891 2.07404125796e-38
0.00329791010215 -0.0461707414302 0.891 2.12939422886e-38
0.00494686515323 -0.0461707414302 0.891 2.1662724808e-38
0.00658101477175 -0.0460671034023 0.889 2.1017355399e-38
0.00822626846469 -0.0460671034023 0.889 2.1662724808e-38
0.00984931400879 -0.0459634653743 0.887 2.14779776185e-38
0.0114908663436 -0.0459634653743 0.887 2.08326082095e-38
0.0131324186784 -0.0459634653743 0.887 2.20318716651e-38
0.0147406587899 -0.0458598273464 0.885 2.13865022561e-38
0.0163229893945 -0.0457043703046 0.882 2.13865022561e-38
0.0179145733944 -0.0456007322767 0.88 2.11099153665e-38
0.0194987546781 -0.0454970942488 0.878 2.11099153665e-38
0.0211236509012 -0.0454970942488 0.878 2.06489372171e-38
0.0226708186035 -0.0453416372069 0.875 2.08329725471e-38
0.0242346424173 -0.045237999179 0.873 2.08329725471e-38
0.0257910635149 -0.0451343611511 0.871 2.03719943977e-38
0.0274030049846 -0.0451343611511 0.871 2.02797987679e-38
0.0289483220078 -0.0450307231232 0.869 2.00954075082e-38
0.0304862363147 -0.0449270850953 0.867 2.0095763438e-38
0.0319797343239 -0.0447716280535 0.864 2.02801546977e-38
0.0335009925192 -0.0446679900256 0.862 1.99113707769e-38
0.0350148479982 -0.0445643519977 0.86 1.99113707769e-38
0.0365213007609 -0.0444607139698 0.858 1.96347838873e-38
0.0381091834027 -0.0444607139698 0.858 2.05563884601e-38
0.0396970660444 -0.0444607139698 0.858 1.83436961459e-38
-0.0929207454091 -0.0425230529838 0.851 2.35098856151e-38
-0.0913458175208 -0.0425230529838 0.851 2.32332987256e-38
-0.0897708896325 -0.0425230529838 0.851 2.35098856151e-38
-0.0885068758279 -0.0426729579885 0.854 5.25191670535e-39
-0.0871299706001 -0.0427728946582 0.856 2.35062954885e-38
-0.085745662656 -0.042872831328 0.858 1.94493248382e-38
-0.0841577800142 -0.042872831328 0.858 1.80663903902e-38
-0.0827623679957 -0.0429727679978 0.86 1.87117569967e-38
-0.0811707839958 -0.0429727679978 0.86 1.91730910758e-38
-0.0797642679028 -0.0430727046675 0.862 1.88965013836e-38
-0.0783503490936 -0.0431726413373 0.864 1.90808912421e-38
-0.0767513623774 -0.0431726413373 0.864 1.94489590993e-38
-0.07541332141 -0.0433225463419 0.867 1.9633350359e-38
-0.0738087826566 -0.0433225463419 0.867 1.98177416187e-38
-0.0722042439032 -0.0433225463419 0.867 1.99099400512e-38
-0.0705997051498 -0.0433225463419 0.867 1.99099400512e-38
-0.0691543247964 -0.0434224830117 0.869 2.0186171011e-38
-0.0675460846849 -0.0434224830117 0.869 2.00017797513e-38
-0.0659378445733 -0.0434224830117 0.869 2.07393447902e-38
-0.0644776587873 -0.0435224196815 0.871 1.94500380991e-38
-0.0630100702851 -0.0436223563512 0.873 2.04645459574e-38
-0.0615350790666 -0.043722293021 0.875 1.99113721782e-38
-0.0599157348806 -0.043722293021 0.875 1.98191765484e-38
-0.0582963906946 -0.043722293021 0.875 2.01872402017e-38
-0.056871367811 -0.0438721980256 0.878 2.0648218351e-38
-0.0552464715878 -0.0438721980256 0.878 2.07404139809e-38
-0.0536215753646 -0.0438721980256 0.878 2.07396951148e-38
-0.0519966791415 -0.0438721980256 0.878 2.09255241067e-38
-0.0504865250206 -0.0439721346954 0.88 2.09255241067e-38
-0.0488579274393 -0.0439721346954 0.88 2.09255241067e-38
-0.047229329858 -0.0439721346954 0.88 2.12943066262e-38
-0.0457043703046 -0.0440720713651 0.882 2.16630891456e-38
-0.0440720713651 -0.0440720713651 0.882 2.10177197366e-38
-0.0425841253931 -0.0442219763698 0.885 2.10177197366e-38
-0.0409462744165 -0.0442219763698 0.885 2.03723503276e-38
-0.0393972560352 -0.0443219130396 0.887 2.00035664068e-38
-0.0377557037004 -0.0443219130396 0.887 2.11099139652e-38
-0.0361141513656 -0.0443219130396 0.887 2.06489358158e-38
-0.0344725990308 -0.0443219130396 0.887 2.0095763438e-38
-0.032831046696 -0.0443219130396 0.887 2.10173638068e-38
-0.0311894943612 -0.0443219130396 0.887 2.06485812873e-38
-0.0295479420264 -0.0443219130396 0.887 2.10173666094e-38
-0.0279063896916 -0.0443219130396 0.887 2.09251709795e-38
-0.026324059087 -0.0444218497093 0.889 2.1570537586e-38
-0.0246788053941 -0.0444218497093 0.889 2.05567415873e-38
-0.0230335517011 -0.0444218497093 0.889 2.07407769172e-38
-0.021436415664 -0.0445217863791 0.891 2.05563856575e-38
-0.0198540850594 -0.0446716913837 0.894 2.07407769172e-38
-0.0181995779711 -0.0446716913837 0.894 2.08329753497e-38
-0.0165450708829 -0.0446716913837 0.894 2.10173666094e-38
-0.0148905637946 -0.0446716913837 0.894 2.12017578691e-38
-0.0132656675714 -0.0447716280535 0.896 2.13857833899e-38
-0.011607459125 -0.0447716280535 0.896 2.12013921302e-38
-0.00994925067855 -0.0447716280535 0.896 2.12935863588e-38
-0.00829104223213 -0.0447716280535 0.896 2.09248038393e-38
-0.0066328337857 -0.0447716280535 0.896 2.14783335483e-38
-0.00497462533928 -0.0447716280535 0.896 2.037198599e-38
-0.00331641689285 -0.0447716280535 0.896 2.06485728795e-38
-0.00165820844643 -0.0447716280535 0.896 2.07407657068e-38
0.0 -0.0446716913837 0.894 2.10170008705e-38
0.00165450708829 -0.0446716913837 0.894 2.05560227212e-38
0.00329791010215 -0.0445217863791 0.891 2.10169994692e-38
0.00494686515323 -0.0445217863791 0.891 2.12939422886e-38
0.00658101477175 -0.0444218497093 0.889 2.12017466587e-38
0.00822626846469 -0.0444218497093 0.889 2.10169994692e-38
0.00984931400879 -0.0443219130396 0.887 2.21233484288e-38
0.0114908663436 -0.0443219130396 0.887 2.18467615393e-38
0.0131324186784 -0.0443219130396 0.887 2.12943066262e-38
0.0147739710132 -0.0443219130396 0.887 2.17552847755e-38
0.0163229893945 -0.0440720713651 0.882 2.09255227054e-38
0.0179145733944 -0.0439721346954 0.88 2.11099139652e-38
0.0194987546781 -0.0438721980256 0.878 2.14786964846e-38
0.0211236509012 -0.0438721980256 0.878 2.12943066262e-38
0.0226708186035 -0.043722293021 0.875 2.10173638068e-38
0.0242346424173 -0.0436223563512 0.873 2.11095622392e-38
0.0258502852452 -0.0436223563512 0.873 2.03719972003e-38
0.0274030049846 -0.0435224196815 0.871 2.08329725471e-38
0.0289483220078 -0.0434224830117 0.869 2.01879590678e-38
0.0303807476077 -0.0431726413373 0.864 2.03723503276e-38
0.0319797343239 -0.0431726413373 0.864 2.02801532964e-38
0.0335009925192 -0.0430727046675 0.862 2.01883135963e-38
0.0350148479982 -0.0429727679978 0.86 1.99113707769e-38
0.0365213007609 -0.042872831328 0.858 1.94503940289e-38
0.0380203508073 -0.0427728946582 0.856 1.91741798847e-38
0.039604532091 -0.0427728946582 0.856 2.00039405535e-38
-0.0929207454091 -0.0409481250955 0.851 2.35098856151e-38
-0.0913458175208 -0.0409481250955 0.851 2.35098856151e-38
-0.0897708896325 -0.0409481250955 0.851 2.26801249464e-38
-0.0885068758279 -0.041092478063 0.854 2.02471373033e-39
-0.0871299706001 -0.0411887133746 0.856 2.35066570235e-38
-0.0855457893165 -0.0411887133746 0.856 2.01868926797e-38
-0.0841577800142 -0.0412849486862 0.858 2.06478680264e-38
-0.0825698973724 -0.0412849486862 0.858 1.87117569967e-38
-0.0811707839958 -0.0413811839978 0.86 1.96340692251e-38
-0.0797642679028 -0.0414774193095 0.862 1.92652839031e-38
-0.0783503490936 -0.0415736546211 0.864 1.96340664225e-38
-0.0767513623774 -0.0415736546211 0.864 1.94489562967e-38
-0.07541332141 -0.0417180075885 0.867 1.95411547292e-38
-0.0738087826566 -0.0417180075885 0.867 2.01865241382e-38
-0.0722042439032 -0.0417180075885 0.867 2.03709182005e-38
-0.0705997051498 -0.0417180075885 0.867 2.04631138304e-38
-0.0691543247964 -0.0418142429001 0.869 2.03705622707e-38
-0.0675460846849 -0.0418142429001 0.869 2.00939753811e-38
-0.066089600257 -0.0419104782118 0.871 2.06471519629e-38
-0.0646257131129 -0.0420067135234 0.873 1.9542233729e-38
-0.0631544232525 -0.042102948835 0.875 2.05578205871e-38
-0.0615350790666 -0.042102948835 0.875 2.01890380676e-38
-0.0599157348806 -0.042102948835 0.875 2.06489372171e-38
-0.0582963906946 -0.042102948835 0.875 2.02794358316e-38
-0.056871367811 -0.0422473018025 0.878 2.08326096108e-38
-0.0552464715878 -0.0422473018025 0.878 2.05553038551e-38
-0.0536215753646 -0.0422473018025 0.878 2.06474994849e-38
-0.0519966791415 -0.0422473018025 0.878 2.07404139809e-38
-0.0504865250206 -0.0423435371141 0.88 2.0741132847e-38
-0.0488579274393 -0.0423435371141 0.88 2.11099153665e-38
-0.047229329858 -0.0423435371141 0.88 2.12021109963e-38
-0.0457043703046 -0.0424397724257 0.882 2.12021109963e-38
-0.0440720713651 -0.0424397724257 0.882 2.10177197366e-38
