# .PCD v0.7 - Point Cloud Data file format
VERSION 0.7
FIELDS x y z rgb
SIZE 4 4 4 4
TYPE F F F F
COUNT 1 1 1 1
WIDTH 844
HEIGHT 1
VIEWPOINT 0 0 0 1 0 0 0
POINTS 844
DATA ascii
0.0208312436082 -0.102420281074 0.938 1.88957881227e-38
0.0225671805756 -0.102420281074 0.938 1.91723750123e-38
0.0243031175429 -0.102420281074 0.938 1.9356766272e-38
0.0260390545103 -0.102420281074 0.938 1.97255487915e-38
0.0278342132079 -0.102638661204 0.94 1.94514730287e-38
0.0295738515333 -0.102638661204 0.94 1.87139079898e-38
0.0312468654123 -0.102420281074 0.938 1.91748847379e-38
0.0329828023797 -0.102420281074 0.938 1.88972188484e-38
0.034718739347 -0.102420281074 0.938 1.89897704081e-38
0.036338083533 -0.102092710878 0.935 1.94507485574e-38
0.0380684684631 -0.102092710878 0.935 1.8343682133e-38
0.0397988533933 -0.102092710878 0.935 1.86202690226e-38
0.0415292383234 -0.102092710878 0.935 1.99088442358e-38
0.0432596232536 -0.102092710878 0.935 1.93556704566e-38
0.010360101432 -0.100147647176 0.933 2.16620171523e-38
0.012086785004 -0.100147647176 0.933 2.00939753811e-38
0.013813468576 -0.100147647176 0.933 1.93560361955e-38
0.0155734643713 -0.100362325948 0.935 2.01861527941e-38
0.0173038493014 -0.100362325948 0.935 1.98180933447e-38
0.0190342342316 -0.100362325948 0.935 1.91730882732e-38
0.0208312436082 -0.100684344106 0.938 2.0371634264e-38
0.0225671805756 -0.100684344106 0.938 1.96344293588e-38
0.0243031175429 -0.100684344106 0.938 1.91734512095e-38
0.0260390545103 -0.100684344106 0.938 1.94514730287e-38
0.0278342132079 -0.100899022878 0.94 1.90823345795e-38
0.0295738515333 -0.100899022878 0.94 1.9542233729e-38
0.0312468654123 -0.100684344106 0.938 2.00954075082e-38
0.0329828023797 -0.100684344106 0.938 1.98191765484e-38
0.034718739347 -0.100684344106 0.938 1.87121101239e-38
0.036338083533 -0.100362325948 0.935 1.92652825018e-38
0.0380684684631 -0.100362325948 0.935 1.91727267382e-38
0.0397988533933 -0.100362325948 0.935 1.97258977148e-38
0.0415292383234 -0.100362325948 0.935 1.9540064519e-38
0.0432596232536 -0.100362325948 0.935 1.88946951099e-38
0.0451343611511 -0.100684344106 0.938 1.86181082203e-38
-0.00509677015787 -0.0968386329996 0.918 2.3509166749e-38
-0.00339784677192 -0.0968386329996 0.918 2.35091569399e-38
0.00344226306959 -0.0981044974833 0.93 2.05592625232e-38
0.00516339460438 -0.0981044974833 0.93 1.92677992338e-38
0.00688452613918 -0.0981044974833 0.93 2.00046454066e-38
0.00863341786002 -0.0984209636042 0.933 1.87121101239e-38
0.010360101432 -0.0984209636042 0.933 2.04631138304e-38
0.012086785004 -0.0984209636042 0.933 1.92642147124e-38
0.0138430794411 -0.0986319410181 0.935 1.90794493059e-38
0.0155734643713 -0.0986319410181 0.935 1.96322629514e-38
0.0173038493014 -0.0986319410181 0.935 1.91716477384e-38
0.0190342342316 -0.0986319410181 0.935 1.98184576823e-38
0.0208312436082 -0.098948407139 0.938 1.90812555797e-38
0.0225671805756 -0.098948407139 0.938 1.95436686586e-38
0.0243031175429 -0.098948407139 0.938 1.9728420052e-38
0.0260390545103 -0.098948407139 0.938 1.90841282415e-38
0.0278342132079 -0.099159384553 0.94 2.00954103108e-38
0.0295738515333 -0.099159384553 0.94 1.99095841214e-38
0.0312468654123 -0.098948407139 0.938 1.88957881227e-38
0.0329828023797 -0.098948407139 0.938 2.07396979174e-38
0.034718739347 -0.098948407139 0.938 2.01854451384e-38
0.0364546763144 -0.098948407139 0.938 1.99092141786e-38
0.0381906132817 -0.098948407139 0.938 1.99084939112e-38
0.0397988533933 -0.0986319410181 0.935 1.97241026515e-38
0.0415292383234 -0.0986319410181 0.935 1.83415241333e-38
0.0432596232536 -0.0986319410181 0.935 1.92638405657e-38
0.0449900081837 -0.0986319410181 0.935 1.98170143448e-38
0.0467203931138 -0.0986319410181 0.935 1.98166514085e-38
-0.00849461692979 -0.0951397096136 0.918 2.35098786087e-38
-0.00679569354383 -0.0951397096136 0.918 2.35095170737e-38
-0.00509677015787 -0.0951397096136 0.918 1.89890487394e-38
-0.00339784677192 -0.0951397096136 0.918 1.88028624163e-38
-0.00171187813945 -0.095865175809 0.925 1.9448234628e-38
0.0 -0.0963833659485 0.93 2.20315185379e-38
0.00172113153479 -0.0963833659485 0.93 2.03730790028e-38
0.00344226306959 -0.0963833659485 0.93 1.97277067911e-38
0.00516339460438 -0.0963833659485 0.93 1.97277039885e-38
0.00688452613918 -0.0963833659485 0.93 2.10177197366e-38
0.00863341786002 -0.0966942800322 0.933 1.9173805738e-38
0.010360101432 -0.0966942800322 0.933 1.97269809185e-38
0.012086785004 -0.0966942800322 0.933 1.91730868719e-38
0.0138430794411 -0.096901556088 0.935 1.98188122108e-38
0.0155734643713 -0.096901556088 0.935 2.01868758641e-38
0.0173038493014 -0.096901556088 0.935 1.99102917771e-38
0.0190342342316 -0.096901556088 0.935 2.00950445719e-38
0.0208312436082 -0.0972124701717 0.938 1.91730882732e-38
0.0225671805756 -0.0972124701717 0.938 1.89894158796e-38
0.0243031175429 -0.0972124701717 0.938 1.99117267067e-38
0.0260390545103 -0.0972124701717 0.938 1.85287894562e-38
0.0278342132079 -0.0974197462275 0.94 2.04648948807e-38
0.0295738515333 -0.0974197462275 0.94 1.98195254717e-38
0.0313134898588 -0.0974197462275 0.94 1.97269683068e-38
0.0329828023797 -0.0972124701717 0.938 1.97262494407e-38
0.034718739347 -0.0972124701717 0.938 1.90798024332e-38
0.0364546763144 -0.0972124701717 0.938 2.0185433928e-38
0.0381906132817 -0.0972124701717 0.938 1.9078012975e-38
0.0399265502491 -0.0972124701717 0.938 2.01840032023e-38
0.0415292383234 -0.096901556088 0.935 2.09230017695e-38
0.0432596232536 -0.096901556088 0.935 1.88950580462e-38
0.0449900081837 -0.096901556088 0.935 1.96326258877e-38
0.0467203931138 -0.096901556088 0.935 1.95404302579e-38
0.048450778044 -0.096901556088 0.935 1.97248215176e-38
0.0501811629741 -0.096901556088 0.935 1.98173702747e-38
0.0519115479043 -0.096901556088 0.935 1.89868879372e-38
0.0566751958296 -0.0961760898927 0.928 1.76053954253e-38
0.0583926260063 -0.0961760898927 0.928 1.88968531095e-38
0.0601100561829 -0.0961760898927 0.928 2.00032034705e-38
-0.0119572374691 -0.0939497229719 0.923 2.28645162061e-38
-0.0102157484646 -0.0936443609254 0.92 2.26797578062e-38
-0.00849461692979 -0.0934407862277 0.918 1.64093689692e-38
-0.00679569354383 -0.0934407862277 0.918 1.63157300019e-38
-0.00512453034392 -0.0939497229719 0.923 2.06471281408e-38
-0.00341635356261 -0.0939497229719 0.923 2.09226458397e-38
-0.00171187813945 -0.0941532976695 0.925 2.1291432563e-38
0.0 -0.094458659716 0.928 1.93571264057e-38
0.00172113153479 -0.0946622344137 0.93 1.98188234212e-38
0.00344226306959 -0.0946622344137 0.93 1.95422365316e-38
0.00516339460438 -0.0946622344137 0.93 1.94500409017e-38
0.00690673428801 -0.0949675964602 0.933 1.88046686901e-38
0.00863341786002 -0.0949675964602 0.933 1.92656468394e-38
0.010360101432 -0.0949675964602 0.933 1.98188206186e-38
0.012086785004 -0.0949675964602 0.933 1.94503940289e-38
0.0138430794411 -0.0951711711578 0.935 1.99110078406e-38
0.0155734643713 -0.0951711711578 0.935 1.94496737615e-38
0.0173038493014 -0.0951711711578 0.935 1.90808926434e-38
0.0190342342316 -0.0951711711578 0.935 1.96340664225e-38
0.0208312436082 -0.0954765332043 0.938 2.03716314614e-38
0.0225671805756 -0.0954765332043 0.938 2.02794344303e-38
0.0243031175429 -0.0954765332043 0.938 1.91734399991e-38
0.0260945748824 -0.095680107902 0.94 1.99110022354e-38
0.0278342132079 -0.095680107902 0.94 1.94511002833e-38
0.0295738515333 -0.095680107902 0.94 2.01886653223e-38
0.0313134898588 -0.095680107902 0.94 1.94503814172e-38
0.0330531281843 -0.095680107902 0.94 1.92652712914e-38
0.0347927665098 -0.095680107902 0.94 2.1015909259e-38
0.0364546763144 -0.0954765332043 0.938 1.91712819995e-38
0.0381906132817 -0.0954765332043 0.938 2.01843605334e-38
0.0399265502491 -0.0954765332043 0.938 1.99074191153e-38
0.0415292383234 -0.0951711711578 0.935 1.94478716917e-38
0.0432596232536 -0.0951711711578 0.935 1.85262755268e-38
0.0449900081837 -0.0951711711578 0.935 1.95404302579e-38
0.0467203931138 -0.0951711711578 0.935 1.95404316591e-38
0.048450778044 -0.0951711711578 0.935 1.89872564787e-38
0.0501811629741 -0.0951711711578 0.935 1.99092099747e-38
0.0518005071601 -0.0949675964602 0.933 1.8526628654e-38
0.0535271907321 -0.0949675964602 0.933 1.99099176304e-38
0.0566751958296 -0.094458659716 0.928 1.86195501564e-38
0.0583926260063 -0.094458659716 0.928 1.92652839031e-38
0.0601100561829 -0.094458659716 0.928 1.88972202497e-38
0.06162761302 -0.0941532976695 0.925 1.83440464706e-38
0.0632025409083 -0.0939497229719 0.923 2.10166393355e-38
0.0649107176896 -0.0939497229719 0.923 2.14761727461e-38
-0.0171187813945 -0.0924414195301 0.925 2.35095240801e-38
-0.0153735910318 -0.0922415461905 0.923 2.35091653477e-38
-0.0136654142505 -0.0922415461905 0.923 2.3322257356e-38
-0.0119572374691 -0.0922415461905 0.923 1.74217342421e-38
-0.0102157484646 -0.0919417361813 0.92 1.89894144783e-38
-0.00851312372049 -0.0919417361813 0.92 2.21237001548e-38
-0.00683270712523 -0.0922415461905 0.923 2.06482071406e-38
-0.00513563441834 -0.0924414195301 0.925 2.08311662733e-38
-0.00342375627889 -0.0924414195301 0.925 1.93556844696e-38
-0.00171743017665 -0.0927412295394 0.928 1.99088610514e-38
0.0 -0.0927412295394 0.928 1.9818104555e-38
0.00172113153479 -0.0929411028789 0.93 1.9265649642e-38
0.00344226306959 -0.0929411028789 0.93 2.00032146809e-38
0.00516339460438 -0.0929411028789 0.93 1.98188234212e-38
0.00690673428801 -0.0932409128882 0.933 1.96344321614e-38
0.00863341786002 -0.0932409128882 0.933 1.91734568147e-38
0.010360101432 -0.0932409128882 0.933 2.00954131133e-38
0.012086785004 -0.0932409128882 0.933 2.02798043731e-38
0.0138430794411 -0.0934407862277 0.935 1.92652839031e-38
0.0155734643713 -0.0934407862277 0.935 2.00950445719e-38
0.0173038493014 -0.0934407862277 0.935 2.05560255238e-38
0.0190342342316 -0.0934407862277 0.935 1.98184604849e-38
0.0208312436082 -0.093740596237 0.938 1.88965013836e-38
0.0225671805756 -0.093740596237 0.938 2.08329641393e-38
0.0243549365569 -0.0939404695765 0.94 1.98188066056e-38
0.0260945748824 -0.0939404695765 0.94 2.0280142086e-38
0.0278342132079 -0.0939404695765 0.94 1.94507485574e-38
0.0295738515333 -0.0939404695765 0.94 1.9727335447e-38
0.0313134898588 -0.0939404695765 0.94 2.00032034705e-38
0.0330531281843 -0.0939404695765 0.94 1.96336992823e-38
0.0347927665098 -0.0939404695765 0.94 1.99095659045e-38
0.0364546763144 -0.093740596237 0.938 2.00014056046e-38
0.0381906132817 -0.093740596237 0.938 2.00928851709e-38
0.0399265502491 -0.093740596237 0.938 2.00006909424e-38
0.0415292383234 -0.0934407862277 0.935 1.94482318254e-38
0.0432596232536 -0.0934407862277 0.935 1.96326230851e-38
0.0449900081837 -0.0934407862277 0.935 1.97248215176e-38
0.0467203931138 -0.0934407862277 0.935 1.91716477384e-38
0.048450778044 -0.0934407862277 0.935 1.93560389981e-38
0.0501811629741 -0.0934407862277 0.935 1.99092099747e-38
0.0518005071601 -0.0932409128882 0.933 1.95407805825e-38
0.0535271907321 -0.0932409128882 0.933 1.97251704409e-38
0.0550762091134 -0.0929411028789 0.93 1.92652726927e-38
0.0566751958296 -0.0927412295394 0.928 1.89883298733e-38
0.0583926260063 -0.0927412295394 0.928 1.96340650212e-38
0.0601100561829 -0.0927412295394 0.928 1.97262620524e-38
0.06162761302 -0.0924414195301 0.925 2.00950445719e-38
0.0632025409083 -0.0922415461905 0.923 2.01865213356e-38
0.0649107176896 -0.0922415461905 0.923 1.85255594632e-38
0.0666188944709 -0.0922415461905 0.923 2.04609446204e-38
-0.0171187813945 -0.0907295413906 0.925 1.98191765484e-38
-0.0153236226969 -0.0902391114372 0.92 1.84355232343e-38
-0.0136209979528 -0.0902391114372 0.92 2.03701923279e-38
-0.0119183732087 -0.0902391114372 0.92 2.14765398863e-38
-0.0102490606878 -0.0905333694092 0.923 2.10155575331e-38
-0.00854088390653 -0.0905333694092 0.923 1.98173702747e-38
-0.00684751255778 -0.0907295413906 0.925 2.11999487928e-38
-0.00513563441834 -0.0907295413906 0.925 2.06467778162e-38
-0.00342375627889 -0.0907295413906 0.925 2.01865269408e-38
-0.00171743017665 -0.0910237993627 0.928 1.91720218851e-38
0.0 -0.0910237993627 0.928 2.01868870745e-38
0.00172113153479 -0.0912199713441 0.93 1.97266249887e-38
0.00344226306959 -0.0912199713441 0.93 2.04641928302e-38
0.00516339460438 -0.0912199713441 0.93 2.02798043731e-38
0.00690673428801 -0.0915142293162 0.933 2.04641956328e-38
0.00863341786002 -0.0915142293162 0.933 1.94496877745e-38
0.010360101432 -0.0915142293162 0.933 1.98184702939e-38
0.012112694511 -0.0917104012975 0.935 1.95418848057e-38
0.0138430794411 -0.0917104012975 0.935 2.04634739641e-38
0.0155734643713 -0.0917104012975 0.935 1.95415176655e-38
0.0173593696735 -0.0920046592696 0.938 1.93571264057e-38
0.0190953066409 -0.0920046592696 0.938 1.9818104555e-38
0.0208312436082 -0.0920046592696 0.938 1.92652839031e-38
0.0226152982314 -0.092200831251 0.94 1.97266165809e-38
0.0243549365569 -0.092200831251 0.94 1.9634772677e-38
0.0261778554405 -0.0924950892231 0.943 1.9911356764e-38
0.0279230458032 -0.0924950892231 0.943 2.00950445719e-38
0.0296682361659 -0.0924950892231 0.943 1.99106561147e-38
0.0314134265286 -0.0924950892231 0.943 1.93574795329e-38
0.0331586168913 -0.0924950892231 0.943 1.91727239356e-38
0.034903807254 -0.0924950892231 0.943 1.94493108252e-38
0.0365324048353 -0.092200831251 0.94 1.86184739592e-38
0.0381906132817 -0.0920046592696 0.938 1.95404316591e-38
0.0399265502491 -0.0920046592696 0.938 1.93553215333e-38
0.0416624872164 -0.0920046592696 0.938 1.93560389981e-38
0.0432596232536 -0.0917104012975 0.935 1.93571151953e-38
0.0449900081837 -0.0917104012975 0.935 1.89883354785e-38
0.0467203931138 -0.0917104012975 0.935 1.99102917771e-38
0.048450778044 -0.0917104012975 0.935 1.95415092577e-38
0.0501811629741 -0.0917104012975 0.935 1.95415064551e-38
0.0518005071601 -0.0915142293162 0.933 1.89883326759e-38
0.0535271907321 -0.0915142293162 0.933 1.96336992823e-38
0.0550762091134 -0.0912199713441 0.93 1.99106421017e-38
0.0566751958296 -0.0910237993627 0.928 1.87124618498e-38
0.0583926260063 -0.0910237993627 0.928 1.95422253212e-38
0.0601100561829 -0.0910237993627 0.928 1.96340650212e-38
0.06162761302 -0.0907295413906 0.925 1.9909934446e-38
0.0633394911595 -0.0907295413906 0.925 1.86181194307e-38
0.0649107176896 -0.0905333694092 0.923 1.91712932099e-38
0.0666188944709 -0.0905333694092 0.923 1.97241040528e-38
0.0683270712523 -0.0905333694092 0.923 1.98162772619e-38
-0.017026247441 -0.0885364866931 0.92 2.00943257057e-38
-0.0153236226969 -0.0885364866931 0.92 2.18453224057e-38
-0.0136209979528 -0.0885364866931 0.92 2.03694720605e-38
-0.0119183732087 -0.0885364866931 0.92 2.00928851709e-38
-0.0102490606878 -0.0888251926279 0.923 2.00006895411e-38
-0.00854088390653 -0.0888251926279 0.923 2.03701909266e-38
-0.00684751255778 -0.0890176632512 0.925 2.05545821863e-38
-0.00513563441834 -0.0890176632512 0.925 2.09240863745e-38
-0.00342375627889 -0.0890176632512 0.925 2.01865269408e-38
-0.00171743017665 -0.089306369186 0.928 2.000250142e-38
0.0 -0.089306369186 0.928 1.88968643199e-38
0.00172113153479 -0.0894988398093 0.93 1.96344293588e-38
0.00344226306959 -0.0894988398093 0.93 1.98188206186e-38
0.00516339460438 -0.0894988398093 0.93 1.98188234212e-38
0.00690673428801 -0.0897875457442 0.933 1.85280874057e-38
0.00863341786002 -0.0897875457442 0.933 2.02794484433e-38
0.0103823095809 -0.0899800163674 0.935 2.02794484433e-38
0.012112694511 -0.0899800163674 0.935 1.97262760654e-38
0.0138430794411 -0.0899800163674 0.935 2.01868898771e-38
0.0155734643713 -0.0899800163674 0.935 1.90805423187e-38
0.0173593696735 -0.0902687223023 0.938 1.93571292083e-38
0.0190953066409 -0.0902687223023 0.938 1.96337132953e-38
0.0208312436082 -0.0902687223023 0.938 1.99106561147e-38
0.0226152982314 -0.0904611929255 0.94 2.00032034705e-38
0.0244326650778 -0.0907498988604 0.943 1.97266109757e-38
0.0261778554405 -0.0907498988604 0.943 2.02804952132e-38
0.0279230458032 -0.0907498988604 0.943 2.00950473744e-38
0.0296682361659 -0.0907498988604 0.943 2.00946914446e-38
0.0314134265286 -0.0907498988604 0.943 2.00943257057e-38
0.0331586168913 -0.0907498988604 0.943 1.95415092577e-38
0.034903807254 -0.0907498988604 0.943 1.97259005174e-38
0.0365324048353 -0.0904611929255 0.94 1.96326258877e-38
0.0382720431608 -0.0904611929255 0.94 2.00936054383e-38
0.0399265502491 -0.0902687223023 0.938 1.97244669891e-38
0.0416624872164 -0.0902687223023 0.938 1.97259005174e-38
0.0433984241838 -0.0902687223023 0.938 1.97259005174e-38
0.0449900081837 -0.0899800163674 0.935 1.93571151953e-38
0.0467203931138 -0.0899800163674 0.935 1.96337020849e-38
0.048450778044 -0.0899800163674 0.935 1.91727239356e-38
0.0501811629741 -0.0899800163674 0.935 1.94493136278e-38
0.0518005071601 -0.0897875457442 0.933 1.95415092577e-38
0.0535271907321 -0.0897875457442 0.933 1.92649223681e-38
0.0550762091134 -0.0894988398093 0.93 1.98188122108e-38
0.0566751958296 -0.089306369186 0.928 1.93578340615e-38
0.0583926260063 -0.089306369186 0.928 1.94493108252e-38
0.0601100561829 -0.089306369186 0.928 2.0002487407e-38
0.06162761302 -0.0890176632512 0.925 1.88028666202e-38
0.0633394911595 -0.0890176632512 0.925 2.06464232877e-38
0.0649107176896 -0.0888251926279 0.923 1.89869047528e-38
0.0664023650198 -0.0885364866931 0.92 1.94478829021e-38
0.0679569354383 -0.0883440160698 0.918 1.9447497545e-38
0.0696558588243 -0.0883440160698 0.918 1.94474933411e-38
0.0713547822102 -0.0883440160698 0.918 1.92641824825e-38
-0.0220138275337 -0.0863619387862 0.915 1.85291664055e-38
-0.020320456185 -0.0863619387862 0.915 2.06485868925e-38
-0.0186881572455 -0.0866450926839 0.918 2.21229981042e-38
-0.0169892338596 -0.0866450926839 0.918 2.06475050901e-38
-0.0152903104736 -0.0866450926839 0.918 1.98177416187e-38
-0.0136209979528 -0.086833861949 0.92 2.00014098085e-38
-0.0119183732087 -0.086833861949 0.92 2.02779966981e-38
-0.0102490606878 -0.0871170158466 0.923 1.98170185487e-38
-0.00854088390653 -0.0871170158466 0.923 2.04631082252e-38
-0.00684751255778 -0.0873057851117 0.925 2.07396979174e-38
-0.00513563441834 -0.0873057851117 0.925 2.00943285083e-38
-0.00342375627889 -0.0873057851117 0.925 2.00946914446e-38
-0.00171743017665 -0.0875889390094 0.928 2.03712783342e-38
0.0 -0.0875889390094 0.928 2.00032118783e-38
0.00172113153479 -0.0877777082745 0.93 1.98191765484e-38
0.00344226306959 -0.0877777082745 0.93 1.99110162484e-38
0.00518005071601 -0.0880608621722 0.933 1.94500380991e-38
0.00692153972057 -0.0882496314373 0.935 1.99110162484e-38
0.00865192465071 -0.0882496314373 0.935 1.96344321614e-38
0.0103823095809 -0.0882496314373 0.935 2.00954131133e-38
0.012112694511 -0.0882496314373 0.935 1.97266305939e-38
0.0138430794411 -0.0882496314373 0.935 2.06478652238e-38
0.0156234327062 -0.0885327853349 0.938 1.99103001849e-38
0.0173593696735 -0.0885327853349 0.938 2.04634767667e-38
0.0190953066409 -0.0885327853349 0.938 2.01868870745e-38
0.0208756599059 -0.0887215546 0.94 1.9080895446e-38
0.0226152982314 -0.0887215546 0.94 2.00950431706e-38
0.0244326650778 -0.0890047084977 0.943 1.96344181485e-38
0.0261778554405 -0.0890047084977 0.943 2.05567289756e-38
0.0279230458032 -0.0890047084977 0.943 1.93567606668e-38
0.0296682361659 -0.0890047084977 0.943 1.9633350359e-38
0.0315133631984 -0.0892878623953 0.946 1.9909934446e-38
0.0332641055983 -0.0892878623953 0.946 1.99102917771e-38
0.034903807254 -0.0890047084977 0.943 2.05556583836e-38
0.0366489976167 -0.0890047084977 0.943 1.93571179979e-38
0.0382720431608 -0.0887215546 0.94 1.94489562967e-38
0.0400116814863 -0.0887215546 0.94 1.94489619019e-38
0.0417513198118 -0.0887215546 0.94 1.96333475564e-38
0.0433984241838 -0.0885327853349 0.938 1.94496737615e-38
0.0449900081837 -0.0882496314373 0.935 1.90812471719e-38
0.0467203931138 -0.0882496314373 0.935 2.01875947302e-38
0.048450778044 -0.0882496314373 0.935 1.97266165809e-38
0.0501811629741 -0.0882496314373 0.935 1.97262606511e-38
0.0518005071601 -0.0880608621722 0.933 1.96340664225e-38
0.0535271907321 -0.0880608621722 0.933 1.96340692251e-38
0.0550762091134 -0.0877777082745 0.93 1.93581983991e-38
0.0566751958296 -0.0875889390094 0.928 1.97262620524e-38
0.0583926260063 -0.0875889390094 0.928 1.93571179979e-38
0.0601100561829 -0.0875889390094 0.928 1.99092127773e-38
0.06162761302 -0.0873057851117 0.925 2.03694720605e-38
0.0633394911595 -0.0873057851117 0.925 2.03701923279e-38
0.0649107176896 -0.0871170158466 0.923 1.98166626189e-38
0.0664023650198 -0.086833861949 0.92 2.01865269408e-38
0.0679569354383 -0.0866450926839 0.918 1.93563893227e-38
0.0696558588243 -0.0866450926839 0.918 1.94489366785e-38
0.0713547822102 -0.0866450926839 0.918 1.9724804702e-38
0.0730537055962 -0.0866450926839 0.918 1.90794380956e-38
0.0747526289822 -0.0866450926839 0.918 2.02783442201e-38
0.0764515523681 -0.0866450926839 0.918 2.12013809198e-38
-0.0235776513476 -0.08420589767 0.91 1.89890599498e-38
-0.0218935333942 -0.08420589767 0.91 2.20308024744e-38
-0.020320456185 -0.0846685674374 0.915 1.94493276408e-38
-0.0186881572455 -0.0849461692979 0.918 2.02790883096e-38
-0.0169892338596 -0.0849461692979 0.918 2.00946942472e-38
-0.0152903104736 -0.0849461692979 0.918 2.08322592861e-38
-0.0135913870877 -0.0849461692979 0.918 1.94493220356e-38
-0.0119183732087 -0.0851312372049 0.92 2.04634739641e-38
-0.0102490606878 -0.0854088390653 0.923 2.00024958148e-38
-0.00854088390653 -0.0854088390653 0.923 1.9818104555e-38
-0.00684751255778 -0.0855939069723 0.925 2.02794386342e-38
-0.00513563441834 -0.0855939069723 0.925 1.92652867057e-38
-0.00342375627889 -0.0855939069723 0.925 1.96340692251e-38
-0.00171743017665 -0.0858715088327 0.928 2.04638298939e-38
0.0 -0.0860565767397 0.93 1.92660027692e-38
0.00172113153479 -0.0860565767397 0.93 2.05567415873e-38
0.00344226306959 -0.0860565767397 0.93 1.99113721782e-38
0.00518005071601 -0.0863341786002 0.933 2.0095763438e-38
0.00692153972057 -0.0865192465071 0.935 2.04645459574e-38
0.00865192465071 -0.0865192465071 0.935 1.93581983991e-38
0.0103823095809 -0.0865192465071 0.935 2.02801546977e-38
0.012112694511 -0.0865192465071 0.935 1.96347838873e-38
0.0138430794411 -0.0865192465071 0.935 1.97262620524e-38
0.0156234327062 -0.0867968483676 0.938 1.95418735953e-38
0.0173593696735 -0.0867968483676 0.938 2.02790827044e-38
0.0190953066409 -0.0867968483676 0.938 1.96337132953e-38
0.0208756599059 -0.0869819162745 0.94 2.02790827044e-38
0.0226152982314 -0.0869819162745 0.94 2.08326096108e-38
0.0244326650778 -0.087259518135 0.943 1.93578340615e-38
0.0261778554405 -0.087259518135 0.943 2.08329613367e-38
0.0279230458032 -0.087259518135 0.943 1.99102889745e-38
0.0297626207984 -0.0875371199954 0.946 2.03712699264e-38
0.0315133631984 -0.0875371199954 0.946 2.00946802343e-38
0.0332641055983 -0.0875371199954 0.946 1.96336992823e-38
0.0350148479982 -0.0875371199954 0.946 1.98180933447e-38
0.0366489976167 -0.087259518135 0.943 1.97259005174e-38
0.0382720431608 -0.0869819162745 0.94 2.08318935472e-38
0.0400116814863 -0.0869819162745 0.94 1.95411575318e-38
0.0417513198118 -0.0869819162745 0.94 1.99106561147e-38
0.0433984241838 -0.0867968483676 0.938 1.9818456281e-38
0.0451343611511 -0.0867968483676 0.938 1.95422253212e-38
0.0467203931138 -0.0865192465071 0.935 2.00032006679e-38
0.048450778044 -0.0865192465071 0.935 1.90812471719e-38
0.0501811629741 -0.0865192465071 0.935 1.97262606511e-38
0.0519115479043 -0.0865192465071 0.935 1.99106561147e-38
0.0535271907321 -0.0863341786002 0.933 1.94493248382e-38
0.0550762091134 -0.0860565767397 0.93 1.89890627524e-38
0.0566751958296 -0.0858715088327 0.928 1.97266277913e-38
0.0583926260063 -0.0858715088327 0.928 1.97255431863e-38
0.0601100561829 -0.0858715088327 0.928 2.04623865565e-38
0.06162761302 -0.0855939069723 0.925 1.9263480432e-38
0.0633394911595 -0.0855939069723 0.925 2.00006895411e-38
0.0649107176896 -0.0854088390653 0.923 1.898725788e-38
0.0664023650198 -0.0851312372049 0.92 1.88957853201e-38
0.0681049897639 -0.0851312372049 0.92 1.97269795172e-38
0.069807614508 -0.0851312372049 0.92 2.02805092262e-38
0.0713547822102 -0.0849461692979 0.918 1.84351560941e-38
0.0730537055962 -0.0849461692979 0.918 2.00017587318e-38
0.074508339345 -0.0846685674374 0.915 1.89868879372e-38
0.0760351495774 -0.0844834995305 0.913 2.00939571642e-38
0.077724819568 -0.0844834995305 0.913 1.83429632668e-38
-0.0252062489289 -0.0823404131678 0.908 2.22151797211e-38
-0.0235258323337 -0.0823404131678 0.908 2.00943257057e-38
-0.0218935333942 -0.0825217797166 0.91 2.01868898771e-38
-0.020320456185 -0.0829751960887 0.915 2.00946970498e-38
-0.0186881572455 -0.0832472459119 0.918 2.04638411043e-38
-0.0169892338596 -0.0832472459119 0.918 1.96340804355e-38
-0.0152903104736 -0.0832472459119 0.918 2.15701872614e-38
-0.0135913870877 -0.0832472459119 0.918 2.00042964833e-38
-0.0119183732087 -0.0834286124608 0.92 2.02808833729e-38
-0.0102490606878 -0.083700662284 0.923 2.02808833729e-38
-0.00854088390653 -0.083700662284 0.923 2.00964921132e-38
-0.00684751255778 -0.0838820288328 0.925 2.06485840899e-38
-0.00513563441834 -0.0838820288328 0.925 2.09248080432e-38
-0.00342375627889 -0.0838820288328 0.925 1.98184576823e-38
-0.00171743017665 -0.0841540786561 0.928 2.05560213199e-38
0.0 -0.0843354452049 0.93 1.96347852886e-38
0.00172113153479 -0.0843354452049 0.93 2.09255241067e-38
0.00344226306959 -0.0843354452049 0.93 1.96347852886e-38
0.00518005071601 -0.0846074950282 0.933 1.97269795172e-38
0.00690673428801 -0.0846074950282 0.933 1.94503926276e-38
0.00865192465071 -0.084788861577 0.935 1.98195310769e-38
0.0103823095809 -0.084788861577 0.935 2.04648976833e-38
0.012112694511 -0.084788861577 0.935 1.95429413847e-38
0.0138874957388 -0.0850609114002 0.938 2.00950431706e-38
0.0156234327062 -0.0850609114002 0.938 2.05560227212e-38
0.0173593696735 -0.0850609114002 0.938 2.12013949328e-38
0.0190953066409 -0.0850609114002 0.938 1.88961482564e-38
0.0208756599059 -0.085242277949 0.94 2.02790827044e-38
0.0226874747151 -0.0855143277723 0.943 2.04638298939e-38
0.0244326650778 -0.0855143277723 0.943 1.90808926434e-38
0.0262611359986 -0.0857863775955 0.946 2.02794344303e-38
0.0280118783985 -0.0857863775955 0.946 2.0278348424e-38
0.0297626207984 -0.0857863775955 0.946 2.04627396837e-38
0.0315133631984 -0.0857863775955 0.946 1.99095631019e-38
0.0332641055983 -0.0857863775955 0.946 1.99106421017e-38
0.034903807254 -0.0855143277723 0.943 2.07400468407e-38
0.0366489976167 -0.0855143277723 0.943 1.91727267382e-38
0.0382720431608 -0.085242277949 0.94 1.97255459889e-38
0.0400116814863 -0.085242277949 0.94 1.91727379486e-38
0.0417513198118 -0.085242277949 0.94 2.02794386342e-38
0.0433984241838 -0.0850609114002 0.938 1.88964999823e-38
0.0451343611511 -0.0850609114002 0.938 1.93578340615e-38
0.0467203931138 -0.084788861577 0.935 1.96344181485e-38
0.048450778044 -0.084788861577 0.935 1.91734428017e-38
0.0501811629741 -0.084788861577 0.935 1.95418707927e-38
0.0519115479043 -0.084788861577 0.935 1.9818104555e-38
0.0535271907321 -0.0846074950282 0.933 1.99103029875e-38
0.0550762091134 -0.0843354452049 0.93 1.96340790342e-38
0.0567973406482 -0.0843354452049 0.93 1.93578480744e-38
0.0583926260063 -0.0841540786561 0.928 1.94489590993e-38
0.0601100561829 -0.0841540786561 0.928 2.01850808008e-38
0.06162761302 -0.0838820288328 0.925 2.01843577308e-38
0.0633394911595 -0.0838820288328 0.925 2.08308061396e-38
0.0649107176896 -0.083700662284 0.923 2.00936054383e-38
0.0664023650198 -0.0834286124608 0.92 2.02794386342e-38
0.0681049897639 -0.0834286124608 0.92 1.87139177989e-38
0.069807614508 -0.0834286124608 0.92 1.90830562482e-38
0.0713547822102 -0.0832472459119 0.918 1.86206333602e-38
0.0730537055962 -0.0832472459119 0.918 1.91727239356e-38
0.074508339345 -0.0829751960887 0.915 2.0830803337e-38
0.0760351495774 -0.0827938295399 0.913 1.94478716917e-38
0.0774694258564 -0.0825217797166 0.91 1.90794521085e-38
0.0789795799773 -0.0823404131678 0.908 1.9909934446e-38
0.0804823313819 -0.082159046619 0.906 1.9818456281e-38
0.082159046619 -0.082159046619 0.906 2.22165992365e-38
-0.0352110199796 -0.0804823313819 0.906 2.34176787749e-38
-0.0335343047424 -0.0804823313819 0.906 2.35095170737e-38
-0.0318575895053 -0.0804823313819 0.906 2.01883135963e-38
-0.0301808742682 -0.0804823313819 0.906 1.4932443828e-38
-0.0285670821194 -0.0806599965725 0.908 2.31378548859e-38
-0.0268866655242 -0.0806599965725 0.908 2.13861379185e-38
-0.0252062489289 -0.0806599965725 0.908 2.11091950991e-38
-0.0235258323337 -0.0806599965725 0.908 1.97259089252e-38
-0.0218935333942 -0.0808376617632 0.91 2.04631222382e-38
-0.020320456185 -0.08128182474 0.915 2.08319075602e-38
-0.0186881572455 -0.081548322526 0.918 1.98177528291e-38
-0.0169892338596 -0.081548322526 0.918 1.96337132953e-38
-0.0152903104736 -0.081548322526 0.918 2.18467615393e-38
-0.0136209979528 -0.0817259877167 0.92 2.0279085507e-38
-0.0119183732087 -0.0817259877167 0.92 1.98177528291e-38
-0.0102490606878 -0.0819924855027 0.923 2.000250142e-38
-0.00854088390653 -0.0819924855027 0.923 2.01868898771e-38
-0.00684751255778 -0.0821701506934 0.925 1.9911019051e-38
-0.00513563441834 -0.0821701506934 0.925 1.96347852886e-38
-0.00343486035331 -0.0824366484794 0.928 1.98191751471e-38
-0.00171743017665 -0.0824366484794 0.928 1.96358628872e-38
0.0 -0.0826143136701 0.93 1.90826905093e-38
0.00172113153479 -0.0826143136701 0.93 2.00968424378e-38
0.00344226306959 -0.0826143136701 0.93 1.871355206e-38
0.00518005071601 -0.0828808114561 0.933 1.98198996184e-38
0.00690673428801 -0.0828808114561 0.933 2.02808777677e-38
0.00865192465071 -0.0830584766468 0.935 1.99120952482e-38
0.0103823095809 -0.0830584766468 0.935 2.01886821378e-38
0.012112694511 -0.0830584766468 0.935 2.0096486508e-38
0.0138874957388 -0.0833249744329 0.938 1.88043057538e-38
0.0156234327062 -0.0833249744329 0.938 1.99106519108e-38
0.0173593696735 -0.0833249744329 0.938 2.0002848942e-38
0.0191360215804 -0.0835026396236 0.94 2.03716314614e-38
0.0208756599059 -0.0835026396236 0.94 2.01872430043e-38
0.0226874747151 -0.0837691374096 0.943 2.02794358316e-38
0.0244326650778 -0.0837691374096 0.943 2.01872402017e-38
0.0262611359986 -0.0840356351956 0.946 2.10170008705e-38
0.0280118783985 -0.0840356351956 0.946 2.08311690759e-38
0.0297626207984 -0.0840356351956 0.946 2.00936012344e-38
0.0315133631984 -0.0840356351956 0.946 2.07393265733e-38
0.0332641055983 -0.0840356351956 0.946 2.02783456214e-38
0.034903807254 -0.0837691374096 0.943 2.0554932511e-38
0.0366489976167 -0.0837691374096 0.943 2.00017615344e-38
0.0382720431608 -0.0835026396236 0.94 1.98170171474e-38
0.0400116814863 -0.0835026396236 0.94 1.98170185487e-38
0.0417513198118 -0.0835026396236 0.94 2.00017587318e-38
0.0433984241838 -0.0833249744329 0.938 2.03705398499e-38
0.0451343611511 -0.0833249744329 0.938 1.96329790149e-38
0.0467203931138 -0.0830584766468 0.935 1.98170171474e-38
0.048450778044 -0.0830584766468 0.935 1.88947063203e-38
0.0501811629741 -0.0830584766468 0.935 1.92634888397e-38
0.0519115479043 -0.0830584766468 0.935 1.907909758e-38
0.0535271907321 -0.0828808114561 0.933 2.0462032028e-38
0.0550762091134 -0.0826143136701 0.93 1.94489619019e-38
0.0567973406482 -0.0826143136701 0.93 1.90805395161e-38
0.058518472183 -0.0826143136701 0.93 1.9264565037e-38
0.0601100561829 -0.0824366484794 0.928 2.00946830368e-38
0.06162761302 -0.0821701506934 0.925 2.0370188124e-38
0.0633394911595 -0.0821701506934 0.925 2.0093604037e-38
0.0649107176896 -0.0819924855027 0.923 2.00021300759e-38
0.0666188944709 -0.0819924855027 0.923 1.92645706422e-38
0.0681049897639 -0.0817259877167 0.92 2.03716300601e-38
0.069807614508 -0.0817259877167 0.92 1.95422253212e-38
0.0713547822102 -0.081548322526 0.918 1.9634420951e-38
0.0730537055962 -0.081548322526 0.918 1.90805311084e-38
0.074508339345 -0.08128182474 0.915 2.01868786667e-38
0.0760351495774 -0.0811041595493 0.913 1.94482318254e-38
0.0774694258564 -0.0808376617632 0.91 1.92649167629e-38
0.0789795799773 -0.0806599965725 0.908 1.94496639524e-38
0.0804823313819 -0.0804823313819 0.906 2.02808581495e-38
0.082159046619 -0.0804823313819 0.906 1.92677852208e-38
-0.0350944271982 -0.0785446703959 0.903 2.31410890827e-38
-0.0334232639983 -0.0785446703959 0.903 1.74235208977e-38
-0.0318575895053 -0.0788056161447 0.906 2.12024655248e-38
-0.0301808742682 -0.0788056161447 0.906 2.11091965003e-38
-0.0285041590311 -0.0788056161447 0.906 1.93574823355e-38
-0.0268866655242 -0.0789795799773 0.908 1.94496737615e-38
-0.0252062489289 -0.0789795799773 0.908 2.02794358316e-38
-0.0235258323337 -0.0789795799773 0.908 2.00024986174e-38
-0.0218454157384 -0.0789795799773 0.908 2.04631222382e-38
-0.020320456185 -0.0795884533912 0.915 2.12928857095e-38
-0.0186881572455 -0.07984939914 0.918 1.98181101602e-38
-0.0169892338596 -0.07984939914 0.918 1.99106561147e-38
-0.0152903104736 -0.07984939914 0.918 2.00950431706e-38
-0.0136209979528 -0.0800233629726 0.92 2.05549535304e-38
-0.0119183732087 -0.0800233629726 0.92 1.98173912941e-38
-0.0102490606878 -0.0802843087214 0.923 2.07400664589e-38
-0.00854088390653 -0.0802843087214 0.923 1.99103029875e-38
-0.00684751255778 -0.0804582725539 0.925 1.98188234212e-38
-0.00513563441834 -0.0804582725539 0.925 2.01886821378e-38
-0.00343486035331 -0.0807192183028 0.928 2.0650016217e-38
-0.00171743017665 -0.0807192183028 0.928 1.99124511781e-38
0.0 -0.0808931821353 0.93 1.88061036197e-38
0.00172113153479 -0.0808931821353 0.93 2.02812336975e-38
0.00344226306959 -0.0808931821353 0.93 1.98198996184e-38
0.00518005071601 -0.0811541278841 0.933 2.00042908781e-38
0.00690673428801 -0.0811541278841 0.933 1.95433155314e-38
0.00865192465071 -0.0813280917167 0.935 2.02808805703e-38
0.0104156218041 -0.0815890374655 0.938 1.97277067911e-38
0.0121515587715 -0.0815890374655 0.938 1.96355111613e-38
0.0138874957388 -0.0815890374655 0.938 2.00950445719e-38
0.0156234327062 -0.0815890374655 0.938 2.0002848942e-38
0.0173963832549 -0.0817630012981 0.94 1.98184576823e-38
0.0191360215804 -0.0817630012981 0.94 2.01872402017e-38
0.0208756599059 -0.0817630012981 0.94 2.07404139809e-38
0.0226874747151 -0.0820239470469 0.943 1.96340664225e-38
0.0245103935987 -0.0822848927957 0.946 2.02794358316e-38
0.0262611359986 -0.0822848927957 0.946 2.02794386342e-38
0.0280118783985 -0.0822848927957 0.946 2.02779966981e-38
0.0297626207984 -0.0822848927957 0.946 2.06467750136e-38
0.0315133631984 -0.0822848927957 0.946 2.00939571642e-38
0.0332641055983 -0.0822848927957 0.946 2.0554932511e-38
0.034903807254 -0.0820239470469 0.943 2.07393237707e-38
0.0366489976167 -0.0820239470469 0.943 1.92641964955e-38
0.0383941879794 -0.0820239470469 0.943 1.96326230851e-38
0.0400116814863 -0.0817630012981 0.94 2.0093604037e-38
0.0417513198118 -0.0817630012981 0.94 1.92652712914e-38
0.0433984241838 -0.0815890374655 0.938 2.03716188498e-38
0.0451343611511 -0.0815890374655 0.938 2.06478512108e-38
0.0468702981185 -0.0815890374655 0.938 2.01868786667e-38
0.0486062350858 -0.0815890374655 0.938 1.97255459889e-38
0.0501811629741 -0.0813280917167 0.935 2.04631110278e-38
0.0519115479043 -0.0813280917167 0.935 2.06475022875e-38
0.0536419328344 -0.0813280917167 0.935 1.97255431863e-38
0.0552538743041 -0.0811541278841 0.933 1.97255459889e-38
0.0569805578761 -0.0811541278841 0.933 2.04631110278e-38
0.058518472183 -0.0808931821353 0.93 1.99102917771e-38
0.0601100561829 -0.0807192183028 0.928 1.99102889745e-38
0.0618274863596 -0.0807192183028 0.928 2.07400468407e-38
0.0635449165362 -0.0807192183028 0.928 2.00946802343e-38
0.0650513692989 -0.0804582725539 0.925 1.97255431863e-38
0.0666188944709 -0.0802843087214 0.923 2.00021328785e-38
0.0681049897639 -0.0800233629726 0.92 1.99102861719e-38
0.069807614508 -0.0800233629726 0.92 1.95415036525e-38
0.0715102392521 -0.0800233629726 0.92 2.04634627537e-38
0.0730537055962 -0.07984939914 0.918 1.97259005174e-38
0.074508339345 -0.0795884533912 0.915 2.0002487407e-38
0.0760351495774 -0.0794144895587 0.913 1.95415064551e-38
0.077724819568 -0.0794144895587 0.913 1.98180905421e-38
0.0789795799773 -0.0789795799773 0.908 2.02794232199e-38
0.0806599965725 -0.0789795799773 0.908 2.02808581495e-38
0.0823404131678 -0.0789795799773 0.908 1.95429413847e-38
0.0840208297631 -0.0789795799773 0.908 1.96347838873e-38
-0.0400190842026 -0.0767032447216 0.901 2.30474627271e-38
-0.038223925505 -0.07644785101 0.898 2.35095198762e-38
-0.0365620157004 -0.07644785101 0.898 1.60402305199e-38
-0.0350166986772 -0.0767032447216 0.901 1.54870567407e-38
-0.0334232639983 -0.076873507196 0.903 2.22166174533e-38
-0.0317521007983 -0.076873507196 0.903 2.07411314457e-38
-0.0301808742682 -0.0771289009076 0.906 2.02797987679e-38
-0.0285041590311 -0.0771289009076 0.906 2.02798015705e-38
-0.026827443794 -0.0771289009076 0.906 2.06489372171e-38
-0.0252062489289 -0.077299163382 0.908 2.06489372171e-38
-0.0235258323337 -0.077299163382 0.908 2.00032174835e-38
-0.0218454157384 -0.077299163382 0.908 2.00950585848e-38
-0.020320456185 -0.0778950820425 0.915 2.02794498446e-38
-0.0186881572455 -0.0781504757541 0.918 2.08326222224e-38
-0.0169892338596 -0.0781504757541 0.918 2.04641928302e-38
-0.0152903104736 -0.0781504757541 0.918 2.09255227054e-38
-0.0136209979528 -0.0783207382285 0.92 2.0555669594e-38
-0.0119183732087 -0.0783207382285 0.92 2.00024986174e-38
-0.0102490606878 -0.0785761319401 0.923 2.00946914446e-38
-0.00854088390653 -0.0785761319401 0.923 1.97259089252e-38
-0.00684751255778 -0.0787463944145 0.925 1.9911019051e-38
-0.00513563441834 -0.0787463944145 0.925 2.04641928302e-38
-0.00343486035331 -0.0790017881261 0.928 2.046527183e-38
-0.00171743017665 -0.0790017881261 0.928 2.01886849404e-38
0.0 -0.0791720506005 0.93 2.11099153665e-38
0.00172113153479 -0.0791720506005 0.93 2.04645459574e-38
0.00344226306959 -0.0791720506005 0.93 1.92660027692e-38
0.00518005071601 -0.0794274443121 0.933 2.05563856575e-38
0.00690673428801 -0.0794274443121 0.933 1.9542233729e-38
0.00865192465071 -0.0795977067866 0.935 2.00032146809e-38
0.0104156218041 -0.0798531004982 0.938 2.06485840899e-38
0.0121515587715 -0.0798531004982 0.938 2.06485840899e-38
0.0138874957388 -0.0798531004982 0.938 1.99106561147e-38
0.0156234327062 -0.0798531004982 0.938 2.01872430043e-38
0.0173963832549 -0.0800233629726 0.94 1.99106561147e-38
0.0191360215804 -0.0800233629726 0.94 2.0002848942e-38
0.0209422843524 -0.0802787566842 0.943 1.97262620524e-38
0.0226874747151 -0.0802787566842 0.943 2.0648218351e-38
0.0245103935987 -0.0805341503958 0.946 2.0002848942e-38
0.0262611359986 -0.0805341503958 0.946 2.07404139809e-38
0.0280118783985 -0.0805341503958 0.946 1.95404302579e-38
0.0297626207984 -0.0805341503958 0.946 2.01857968643e-38
0.0315133631984 -0.0805341503958 0.946 2.05549353136e-38
0.0332641055983 -0.0805341503958 0.946 2.06471281408e-38
0.034903807254 -0.0802787566842 0.943 1.99095631019e-38
0.0366489976167 -0.0802787566842 0.943 1.98173702747e-38
0.0382720431608 -0.0800233629726 0.94 1.9724818715e-38
0.0400116814863 -0.0800233629726 0.94 2.01857996669e-38
0.0417513198118 -0.0800233629726 0.94 1.97258949122e-38
0.0433984241838 -0.0798531004982 0.938 1.96344181485e-38
0.0451343611511 -0.0798531004982 0.938 1.93578340615e-38
0.0467203931138 -0.0795977067866 0.935 1.96340664225e-38
0.048450778044 -0.0795977067866 0.935 1.91730882732e-38
0.0501811629741 -0.0795977067866 0.935 1.92652839031e-38
0.0519115479043 -0.0795977067866 0.935 1.99106519108e-38
0.0535271907321 -0.0794274443121 0.933 2.00953991004e-38
0.0552538743041 -0.0794274443121 0.933 2.05556611862e-38
0.0567973406482 -0.0791720506005 0.93 1.93571179979e-38
0.058518472183 -0.0791720506005 0.93 1.97258977148e-38
0.0601100561829 -0.0790017881261 0.928 1.99102861719e-38
0.0618274863596 -0.0790017881261 0.928 1.94493080226e-38
0.0633394911595 -0.0787463944145 0.925 2.00946774317e-38
0.0650513692989 -0.0787463944145 0.925 2.0002487407e-38
0.0666188944709 -0.0785761319401 0.923 2.05556611862e-38
0.0681049897639 -0.0783207382285 0.92 1.86195473538e-38
0.069807614508 -0.0783207382285 0.92 1.98180905421e-38
0.0713547822102 -0.0781504757541 0.918 2.01868758641e-38
0.0730537055962 -0.0781504757541 0.918 2.0002487407e-38
0.074508339345 -0.0778950820425 0.915 1.99102917771e-38
0.0762017106937 -0.0778950820425 0.915 1.98180961473e-38
0.077724819568 -0.077724819568 0.913 1.98180905421e-38
0.0791535438098 -0.0774694258564 0.91 1.98184464719e-38
0.0806599965725 -0.077299163382 0.908 1.88046546771e-38
0.0823404131678 -0.077299163382 0.908 2.00950431706e-38
0.0840208297631 -0.077299163382 0.908 2.00950445719e-38
-0.0400190842026 -0.0750357828798 0.901 2.35077178064e-38
-0.038223925505 -0.0747859412054 0.898 9.49217999737e-39
-0.0365620157004 -0.0747859412054 0.898 2.32293316496e-38
-0.0349001058959 -0.0747859412054 0.898 2.27687164366e-38
-0.0333492368355 -0.0750357828798 0.901 1.96340664225e-38
-0.0317521007983 -0.0752023439961 0.903 2.04641900276e-38
-0.0300809375984 -0.0752023439961 0.903 1.96344321614e-38
-0.0285041590311 -0.0754521856705 0.906 1.9635158034e-38
-0.026827443794 -0.0754521856705 0.906 2.08329725471e-38
-0.0252062489289 -0.0756187467868 0.908 2.07407769172e-38
-0.0235258323337 -0.0756187467868 0.908 2.03720000029e-38
-0.0218454157384 -0.0756187467868 0.908 2.05560353329e-38
-0.020320456185 -0.0762017106937 0.915 2.03716440731e-38
-0.0186881572455 -0.0764515523681 0.918 2.04641956328e-38
-0.0169892338596 -0.0764515523681 0.918 2.04641928302e-38
-0.0152903104736 -0.0764515523681 0.918 1.93581983991e-38
-0.0136209979528 -0.0766181134844 0.92 2.05560255238e-38
-0.0119572374691 -0.0768679551588 0.923 2.05560255238e-38
-0.0102490606878 -0.0768679551588 0.923 2.11091993029e-38
-0.00855939069723 -0.0770345162751 0.925 1.9911019051e-38
-0.00684751255778 -0.0770345162751 0.925 2.01876059406e-38
-0.00513563441834 -0.0770345162751 0.925 2.05563912627e-38
-0.00343486035331 -0.0772843579495 0.928 2.00954131133e-38
-0.00171743017665 -0.0772843579495 0.928 1.97266305939e-38
0.0 -0.0774509190657 0.93 1.97269809185e-38
0.00172113153479 -0.0774509190657 0.93 2.07411314457e-38
0.00345336714401 -0.0777007607401 0.933 1.94503940289e-38
0.00519115479043 -0.0778673218564 0.935 1.99113721782e-38
0.00692153972057 -0.0778673218564 0.935 2.07407769172e-38
0.00865192465071 -0.0778673218564 0.935 1.99110162484e-38
0.0104156218041 -0.0781171635308 0.938 1.9265649642e-38
0.0121515587715 -0.0781171635308 0.938 2.00032146809e-38
0.0138874957388 -0.0781171635308 0.938 1.92649307759e-38
0.0156234327062 -0.0781171635308 0.938 2.04634739641e-38
0.0173963832549 -0.0782837246471 0.94 1.99106561147e-38
0.0191360215804 -0.0782837246471 0.94 2.08326124134e-38
0.0209422843524 -0.0785335663215 0.943 2.02794386342e-38
0.0226874747151 -0.0785335663215 0.943 2.09248052406e-38
0.0245103935987 -0.0787834079959 0.946 2.0002848942e-38
0.0262611359986 -0.0787834079959 0.946 2.10170008705e-38
0.0280118783985 -0.0787834079959 0.946 2.05553038551e-38
0.0297626207984 -0.0787834079959 0.946 2.04634655563e-38
0.0315133631984 -0.0787834079959 0.946 2.06478540134e-38
0.0332641055983 -0.0787834079959 0.946 2.01868730615e-38
0.034903807254 -0.0785335663215 0.943 1.97258949122e-38
0.0366489976167 -0.0785335663215 0.943 1.93571151953e-38
0.0382720431608 -0.0782837246471 0.94 1.95415092577e-38
0.0400116814863 -0.0782837246471 0.94 1.9264565037e-38
0.0417513198118 -0.0782837246471 0.94 1.92652825018e-38
0.0433984241838 -0.0781171635308 0.938 2.00957620367e-38
0.0451343611511 -0.0781171635308 0.938 1.94503940289e-38
0.0467203931138 -0.0778673218564 0.935 2.00957620367e-38
0.048450778044 -0.0778673218564 0.935 1.95425882575e-38
0.0501811629741 -0.0778673218564 0.935 1.97269795172e-38
0.0519115479043 -0.0778673218564 0.935 1.96351398172e-38
0.0535271907321 -0.0777007607401 0.933 2.0003919534e-38
0.0552538743041 -0.0777007607401 0.933 2.04634627537e-38
0.0567973406482 -0.0774509190657 0.93 1.98180933447e-38
0.058518472183 -0.0774509190657 0.93 2.04634599511e-38
0.0601100561829 -0.0772843579495 0.928 1.90805255032e-38
0.0618274863596 -0.0772843579495 0.928 2.00946774317e-38
0.0633394911595 -0.0770345162751 0.925 2.00946774317e-38
0.0650513692989 -0.0770345162751 0.925 1.8896137046e-38
0.0666188944709 -0.0768679551588 0.923 2.00024846044e-38
0.0681049897639 -0.0766181134844 0.92 2.03712643212e-38
0.069807614508 -0.0766181134844 0.92 2.01868730615e-38
0.0713547822102 -0.0764515523681 0.918 2.00024846044e-38
0.0730537055962 -0.0764515523681 0.918 1.97259005174e-38
0.074508339345 -0.0762017106937 0.915 2.01865213356e-38
0.0762017106937 -0.0762017106937 0.915 2.04634655563e-38
0.0778950820425 -0.0762017106937 0.915 2.00024846044e-38
0.0794144895587 -0.0760351495774 0.913 1.96336992823e-38
0.0808376617632 -0.075785307903 0.91 2.02790742966e-38
0.0823404131678 -0.0756187467868 0.908 1.99088582488e-38
0.0840208297631 -0.0756187467868 0.908 1.99092141786e-38
0.0857012463583 -0.0756187467868 0.908 1.98170143448e-38
-0.0414552111606 -0.0729611716427 0.896 2.31400100829e-38
-0.0397970027142 -0.0729611716427 0.896 1.14282882245e-38
-0.0381387942678 -0.0729611716427 0.896 2.35051954692e-38
-0.0364805858214 -0.0729611716427 0.896 2.10155575331e-38
-0.0349001058959 -0.0731240314008 0.898 2.00021300759e-38
-0.0333492368355 -0.073368321038 0.901 2.08326124134e-38
-0.0317521007983 -0.0735311807962 0.903 2.02798015705e-38
-0.0300809375984 -0.0735311807962 0.903 2.02808833729e-38
-0.0285041590311 -0.0737754704334 0.906 2.07415055924e-38
-0.026827443794 -0.0737754704334 0.906 2.06496630897e-38
-0.0252062489289 -0.0739383301915 0.908 2.01886849404e-38
-0.0235258323337 -0.0739383301915 0.908 1.95433155314e-38
-0.0218454157384 -0.0739383301915 0.908 1.98199052236e-38
-0.020320456185 -0.074508339345 0.915 1.99121008534e-38
-0.0186881572455 -0.0747526289822 0.918 2.08340571521e-38
-0.0169892338596 -0.0747526289822 0.918 2.00964893106e-38
-0.0153236226969 -0.0749154887403 0.92 2.04652690274e-38
-0.0136209979528 -0.0749154887403 0.92 2.16627332158e-38
-0.0119572374691 -0.0751597783775 0.923 2.08329725471e-38
-0.0102490606878 -0.0751597783775 0.923 2.0187603138e-38
-0.00855939069723 -0.0753226381356 0.925 2.06485840899e-38
-0.00684751255778 -0.0753226381356 0.925 2.02798015705e-38
-0.00513563441834 -0.0753226381356 0.925 2.00946942472e-38
-0.00343486035331 -0.0755669277728 0.928 2.06478680264e-38
-0.00171743017665 -0.0755669277728 0.928 2.10166505459e-38
0.0 -0.0757297875309 0.93 1.93574795329e-38
0.001726683572 -0.0759740771681 0.933 2.16623688782e-38
0.00345336714401 -0.0759740771681 0.933 2.03716300601e-38
0.00519115479043 -0.0761369369263 0.935 2.0648218351e-38
0.00692153972057 -0.0761369369263 0.935 1.98184576823e-38
0.00865192465071 -0.0761369369263 0.935 1.9726264855e-38
0.0104156218041 -0.0763812265635 0.938 2.00950473744e-38
0.0121515587715 -0.0763812265635 0.938 2.08326124134e-38
0.0138874957388 -0.0763812265635 0.938 2.02790827044e-38
0.0156234327062 -0.0763812265635 0.938 2.13854330653e-38
0.0173963832549 -0.0765440863216 0.94 2.00024958148e-38
0.0191970939897 -0.0767883759588 0.943 2.01868870745e-38
0.0209422843524 -0.0767883759588 0.943 2.08326124134e-38
0.0227596511988 -0.077032665596 0.946 1.99106533121e-38
0.0245103935987 -0.077032665596 0.946 1.96340664225e-38
0.0262611359986 -0.077032665596 0.946 2.19389571691e-38
0.0280118783985 -0.077032665596 0.946 1.95411519266e-38
0.0297626207984 -0.077032665596 0.946 2.01868786667e-38
0.0315133631984 -0.077032665596 0.946 1.99102889745e-38
0.0332641055983 -0.077032665596 0.946 2.07400468407e-38
0.034903807254 -0.0767883759588 0.943 1.98180905421e-38
0.0366489976167 -0.0767883759588 0.943 1.97258977148e-38
0.0382720431608 -0.0765440863216 0.94 2.07400524459e-38
0.0400116814863 -0.0765440863216 0.94 1.91723694071e-38
0.0416624872164 -0.0763812265635 0.938 1.94496779654e-38
0.0433984241838 -0.0763812265635 0.938 1.96344293588e-38
0.0449900081837 -0.0761369369263 0.935 1.99113721782e-38
0.0467203931138 -0.0761369369263 0.935 1.99113707769e-38
0.048450778044 -0.0761369369263 0.935 1.92663572977e-38
0.0501811629741 -0.0761369369263 0.935 2.00039223366e-38
0.0519115479043 -0.0761369369263 0.935 2.02805064236e-38
0.0535271907321 -0.0759740771681 0.933 2.01883079911e-38
0.0552538743041 -0.0759740771681 0.933 1.98180933447e-38
0.0567973406482 -0.0757297875309 0.93 2.08322452732e-38
0.058518472183 -0.0757297875309 0.93 1.92649195655e-38
0.0601100561829 -0.0755669277728 0.928 2.06478540134e-38
0.0618274863596 -0.0755669277728 0.928 2.03712671238e-38
0.0633394911595 -0.0753226381356 0.925 1.98180933447e-38
0.0650513692989 -0.0753226381356 0.925 2.00946802343e-38
