# .PCD v0.7 - Point Cloud Data file format
VERSION 0.7
FIELDS x y z rgb
SIZE 4 4 4 4
TYPE F F F F
COUNT 1 1 1 1
WIDTH 847
HEIGHT 1
VIEWPOINT 0 0 0 1 0 0 0
POINTS 847
DATA ascii
0.0515229052996 -0.0824366484794 0.928 2.01839905906e-38
0.0532403354763 -0.0824366484794 0.928 2.08293599996e-38
0.0547801004623 -0.0821701506934 0.925 1.90776472361e-38
0.0564919786017 -0.0821701506934 0.925 1.99077736438e-38
0.0582038567412 -0.0821701506934 0.925 2.0368394462e-38
0.0599157348806 -0.0821701506934 0.925 2.07382559813e-38
0.06162761302 -0.0821701506934 0.925 2.0000693745e-38
0.0632025409083 -0.0819924855027 0.923 2.03694734618e-38
0.0649107176896 -0.0819924855027 0.923 1.98166542111e-38
0.0664023650198 -0.0817259877167 0.92 2.00010398657e-38
0.0681049897639 -0.0817259877167 0.92 2.02758344945e-38
0.069807614508 -0.0817259877167 0.92 1.98148591478e-38
0.0715102392521 -0.0817259877167 0.92 1.9907056179e-38
0.0730537055962 -0.081548322526 0.918 2.00918075724e-38
0.0747526289822 -0.081548322526 0.918 1.97233823841e-38
0.0764515523681 -0.081548322526 0.918 1.97241026515e-38
0.0778950820425 -0.08128182474 0.915 2.04620208176e-38
0.0795884533912 -0.08128182474 0.915 2.05542136449e-38
0.0811041595493 -0.0811041595493 0.913 1.96315552957e-38
0.0825217797166 -0.0808376617632 0.91 1.97237537281e-38
0.0840208297631 -0.0806599965725 0.908 2.01847290749e-38
0.0857012463583 -0.0806599965725 0.908 2.00921649035e-38
0.0873816629536 -0.0806599965725 0.908 1.96304650855e-38
0.0888659075675 -0.0804823313819 0.906 1.95393414489e-38
0.0905426228046 -0.0804823313819 0.906 1.9907403701e-38
0.0922193380417 -0.0804823313819 0.906 2.12903381489e-38
0.0938960532788 -0.0804823313819 0.906 2.2210855314e-38
0.095572768516 -0.0804823313819 0.906 1.9168045e-38
0.096927465595 -0.0802158335958 0.903 1.67716844962e-38
0.106954444794 -0.0802158335958 0.903 1.46936933983e-39
0.108625607994 -0.0802158335958 0.903 4.78590369065e-39
-0.013413721897 -0.0788056161447 0.906 2.35070157559e-38
-0.0117370066599 -0.0788056161447 0.906 8.47264988537e-39
-0.0100602914227 -0.0788056161447 0.906 2.350449482e-38
-0.00840208297631 -0.0789795799773 0.908 2.02754827686e-38
-0.0067364718136 -0.0791535438098 0.91 2.03683972646e-38
-0.0050523538602 -0.0791535438098 0.91 2.03691231372e-38
-0.00337933998122 -0.0794144895587 0.913 2.0000703554e-38
-0.00169337134875 -0.0795884533912 0.915 2.00017839552e-38
0.0 -0.0795884533912 0.915 1.9264217515e-38
0.00169892338596 -0.07984939914 0.918 2.05553094603e-38
0.00340524948819 -0.0800233629726 0.92 1.99088582488e-38
0.00512453034392 -0.0802843087214 0.923 1.95397113917e-38
0.00684751255778 -0.0804582725539 0.925 2.02776323605e-38
0.00858715088327 -0.0807192183028 0.928 2.03687517931e-38
0.0103267892088 -0.0808931821353 0.93 2.00918075724e-38
0.0120479207436 -0.0808931821353 0.93 2.00910915089e-38
0.013813468576 -0.0811541278841 0.933 2.07368168477e-38
0.0155734643713 -0.0813280917167 0.935 2.04605900919e-38
0.0173038493014 -0.0813280917167 0.935 2.00928865722e-38
0.0190342342316 -0.0813280917167 0.935 1.96333475564e-38
0.0207646191617 -0.0813280917167 0.935 2.05553038551e-38
0.0224950040919 -0.0813280917167 0.935 1.93560403994e-38
0.024225389022 -0.0813280917167 0.935 2.08293726113e-38
0.0259557739521 -0.0813280917167 0.935 1.95382736595e-38
0.0276861588823 -0.0813280917167 0.935 1.97226607153e-38
0.0294165438124 -0.0813280917167 0.935 2.05527773139e-38
0.0311469287426 -0.0813280917167 0.935 2.05524213841e-38
0.0328773136727 -0.0813280917167 0.935 2.07368126438e-38
0.0346076986028 -0.0813280917167 0.935 1.98148591478e-38
0.036338083533 -0.0813280917167 0.935 2.05524241867e-38
0.0379870385841 -0.0811541278841 0.933 2.04602299581e-38
0.0397137221561 -0.0811541278841 0.933 2.00914474387e-38
0.0414404057281 -0.0811541278841 0.933 2.02769247047e-38
0.0430282883699 -0.0808931821353 0.93 2.0462032028e-38
0.044653184593 -0.0807192183028 0.928 1.9539712793e-38
0.0463706147697 -0.0807192183028 0.928 1.9908849841e-38
0.0480880449463 -0.0807192183028 0.928 1.99081239684e-38
0.049805475123 -0.0807192183028 0.928 2.08293599996e-38
0.0515229052996 -0.0807192183028 0.928 2.05527745113e-38
0.0532403354763 -0.0807192183028 0.928 1.99074051023e-38
0.054957765653 -0.0807192183028 0.928 1.99999636685e-38
0.0564919786017 -0.0804582725539 0.925 2.01850808008e-38
0.0582038567412 -0.0804582725539 0.925 2.01850822021e-38
0.0599157348806 -0.0804582725539 0.925 2.00928893748e-38
0.06162761302 -0.0804582725539 0.925 2.03694734618e-38
0.0633394911595 -0.0804582725539 0.925 1.97241026515e-38
0.0649107176896 -0.0802843087214 0.923 2.04620208176e-38
0.0664023650198 -0.0800233629726 0.92 2.04623753461e-38
0.0681049897639 -0.0800233629726 0.92 1.99999636685e-38
0.069807614508 -0.0800233629726 0.92 1.94467926919e-38
0.0715102392521 -0.0800233629726 0.92 1.97233823841e-38
0.0730537055962 -0.07984939914 0.918 2.06449813516e-38
0.0747526289822 -0.07984939914 0.918 2.05527857217e-38
0.0764515523681 -0.07984939914 0.918 1.99077736438e-38
0.0778950820425 -0.0795884533912 0.915 2.01843577308e-38
0.0795884533912 -0.0795884533912 0.915 1.98159283385e-38
0.0811041595493 -0.0794144895587 0.913 2.04620236202e-38
0.0825217797166 -0.0791535438098 0.91 1.97241026515e-38
0.0840208297631 -0.0789795799773 0.908 1.97244585813e-38
0.0857012463583 -0.0789795799773 0.908 2.00921621009e-38
0.0873816629536 -0.0789795799773 0.908 2.03687461879e-38
0.0888659075675 -0.0788056161447 0.906 1.99081239684e-38
0.0905426228046 -0.0788056161447 0.906 1.93542313231e-38
0.0922193380417 -0.0788056161447 0.906 1.99074051023e-38
0.0938960532788 -0.0788056161447 0.906 1.99066890388e-38
0.095572768516 -0.0788056161447 0.906 2.09204878401e-38
0.096927465595 -0.0785446703959 0.903 2.15662215867e-38
0.0985986287949 -0.0785446703959 0.903 1.98148591478e-38
0.100269791995 -0.0785446703959 0.903 1.65890770894e-38
0.101376498078 -0.0781097608145 0.898 1.80645588932e-38
0.103038407883 -0.0781097608145 0.898 2.35051814562e-38
0.105283281595 -0.0785446703959 0.903 2.35087897997e-38
0.106954444794 -0.0785446703959 0.903 2.35059353548e-38
0.108625607994 -0.0785446703959 0.903 2.04613187671e-38
-0.0166746184177 -0.0767032447216 0.901 2.35070143546e-38
-0.015007156576 -0.0767032447216 0.901 2.35077332207e-38
-0.0133693055993 -0.076873507196 0.903 6.63089809034e-39
-0.0117370066599 -0.0771289009076 0.906 2.35026955527e-38
-0.0100602914227 -0.0771289009076 0.906 1.97230306581e-38
-0.00840208297631 -0.077299163382 0.908 2.00928893748e-38
-0.0067364718136 -0.0774694258564 0.91 2.0462032028e-38
-0.0050523538602 -0.0774694258564 0.91 2.00010566813e-38
-0.00337933998122 -0.077724819568 0.913 2.02783666409e-38
-0.00168966999061 -0.077724819568 0.913 2.000250142e-38
0.0 -0.0781504757541 0.918 1.99095841214e-38
0.00169892338596 -0.0781504757541 0.918 2.00932523111e-38
0.00340524948819 -0.0783207382285 0.92 1.98166626189e-38
0.00512453034392 -0.0785761319401 0.923 2.03694720605e-38
0.00684751255778 -0.0787463944145 0.925 2.09226458397e-38
0.00858715088327 -0.0790017881261 0.928 1.96319070216e-38
0.0103267892088 -0.0791720506005 0.93 2.08293726113e-38
0.0120479207436 -0.0791720506005 0.93 2.03683972646e-38
0.013813468576 -0.0794274443121 0.933 2.10134037373e-38
0.0155734643713 -0.0795977067866 0.935 2.07371769814e-38
0.0173038493014 -0.0795977067866 0.935 2.08304516111e-38
0.0190342342316 -0.0795977067866 0.935 1.95411519266e-38
0.0207646191617 -0.0795977067866 0.935 2.03709125953e-38
0.0224950040919 -0.0795977067866 0.935 2.04623879578e-38
0.024225389022 -0.0795977067866 0.935 2.06449813516e-38
0.0259557739521 -0.0795977067866 0.935 1.98148605491e-38
0.0276861588823 -0.0795977067866 0.935 1.89858145426e-38
0.0294165438124 -0.0795977067866 0.935 2.04609446204e-38
0.0311469287426 -0.0795977067866 0.935 2.01843577308e-38
0.0328773136727 -0.0795977067866 0.935 2.04609446204e-38
0.0346076986028 -0.0795977067866 0.935 2.00921649035e-38
0.036338083533 -0.0795977067866 0.935 2.03687517931e-38
0.0379870385841 -0.0794274443121 0.933 2.03687517931e-38
0.0397137221561 -0.0794274443121 0.933 2.01840032023e-38
0.0414404057281 -0.0794274443121 0.933 2.06457072242e-38
0.0430282883699 -0.0791720506005 0.93 2.01850850047e-38
0.0447494199046 -0.0791720506005 0.93 1.99084939112e-38
0.0463706147697 -0.0790017881261 0.928 2.08297243372e-38
0.0480880449463 -0.0790017881261 0.928 2.00003195983e-38
0.049805475123 -0.0790017881261 0.928 2.04612977476e-38
0.0515229052996 -0.0790017881261 0.928 2.04605788815e-38
0.0532403354763 -0.0790017881261 0.928 2.04605816841e-38
0.054957765653 -0.0790017881261 0.928 2.03687517931e-38
0.0566751958296 -0.0790017881261 0.928 2.03694734618e-38
0.0582038567412 -0.0787463944145 0.925 2.03694762644e-38
0.0599157348806 -0.0787463944145 0.925 2.00003378151e-38
0.06162761302 -0.0787463944145 0.925 2.02772806345e-38
0.0633394911595 -0.0787463944145 0.925 2.07382559813e-38
0.0649107176896 -0.0785761319401 0.923 2.073825458e-38
0.0666188944709 -0.0785761319401 0.923 1.95400673215e-38
0.0681049897639 -0.0783207382285 0.92 1.99999636685e-38
0.069807614508 -0.0783207382285 0.92 2.06453358801e-38
0.0715102392521 -0.0783207382285 0.92 2.10141212021e-38
0.0730537055962 -0.0781504757541 0.918 2.00918075724e-38
0.0747526289822 -0.0781504757541 0.918 2.09215682412e-38
0.0764515523681 -0.0781504757541 0.918 1.98155780139e-38
0.0778950820425 -0.0778950820425 0.915 1.96311839516e-38
0.0795884533912 -0.0778950820425 0.915 2.06453330775e-38
0.0811041595493 -0.077724819568 0.913 1.92638293553e-38
0.0825217797166 -0.0774694258564 0.91 1.99091959617e-38
0.08420589767 -0.0774694258564 0.91 2.05545681734e-38
0.0857012463583 -0.077299163382 0.908 1.99081225671e-38
0.0873816629536 -0.077299163382 0.908 1.99999636685e-38
0.0890620795488 -0.077299163382 0.908 1.9999966471e-38
0.0905426228046 -0.0771289009076 0.906 1.96304692894e-38
0.0922193380417 -0.0771289009076 0.906 1.91694911401e-38
0.0938960532788 -0.0771289009076 0.906 2.03676643855e-38
0.095572768516 -0.0771289009076 0.906 2.02754715582e-38
0.096927465595 -0.076873507196 0.903 1.98148605491e-38
0.0985986287949 -0.076873507196 0.903 1.96304678881e-38
0.100047710506 -0.0767032447216 0.901 1.96315356775e-38
0.101376498078 -0.07644785101 0.898 2.26743417876e-38
0.103038407883 -0.07644785101 0.898 1.78801718373e-38
0.104700317688 -0.07644785101 0.898 1.91712791969e-38
0.106717557874 -0.0767032447216 0.901 2.24017331844e-38
0.108385019715 -0.0767032447216 0.901 2.29556244284e-38
0.110052481557 -0.0767032447216 0.901 2.35098730035e-38
-0.0166746184177 -0.0750357828798 0.901 2.35066570235e-38
-0.015007156576 -0.0750357828798 0.901 7.0882735013e-39
-0.0133693055993 -0.0752023439961 0.903 2.35073744883e-38
-0.0117370066599 -0.0754521856705 0.906 1.88018002321e-38
-0.0100602914227 -0.0754521856705 0.906 1.99088610514e-38
-0.00840208297631 -0.0756187467868 0.908 2.30435096641e-38
-0.0067364718136 -0.075785307903 0.91 2.06474994849e-38
-0.0050523538602 -0.075785307903 0.91 1.99106561147e-38
-0.00337933998122 -0.0760351495774 0.913 1.99103001849e-38
-0.00168966999061 -0.0760351495774 0.913 2.01876087432e-38
0.0 -0.0764515523681 0.918 1.98173912941e-38
0.00169892338596 -0.0764515523681 0.918 2.04613187671e-38
0.00340524948819 -0.0766181134844 0.92 2.0000693745e-38
0.00512453034392 -0.0768679551588 0.923 2.01850808008e-38
0.00684751255778 -0.0770345162751 0.925 2.05538633202e-38
0.00858715088327 -0.0772843579495 0.928 1.99084953125e-38
0.0103267892088 -0.0774509190657 0.93 2.0000693745e-38
0.0120479207436 -0.0774509190657 0.93 2.00928893748e-38
0.013813468576 -0.0777007607401 0.933 1.9907056179e-38
0.0155734643713 -0.0778673218564 0.935 2.0368394462e-38
0.0173038493014 -0.0778673218564 0.935 2.02772778319e-38
0.0190342342316 -0.0778673218564 0.935 2.08318907446e-38
0.0207646191617 -0.0778673218564 0.935 2.09240863745e-38
0.0224950040919 -0.0778673218564 0.935 2.00936054383e-38
0.024225389022 -0.0778673218564 0.935 2.13825463905e-38
0.0259557739521 -0.0778673218564 0.935 2.07368168477e-38
0.0276861588823 -0.0778673218564 0.935 2.05531402502e-38
0.0294165438124 -0.0778673218564 0.935 2.01843577308e-38
0.0311469287426 -0.0778673218564 0.935 2.08297271398e-38
0.0328773136727 -0.0778673218564 0.935 2.08297271398e-38
0.0346076986028 -0.0778673218564 0.935 2.03687517931e-38
0.036338083533 -0.0778673218564 0.935 2.02765561632e-38
0.0379870385841 -0.0777007607401 0.933 2.0460947423e-38
0.0397137221561 -0.0777007607401 0.933 2.02765561632e-38
0.0414404057281 -0.0777007607401 0.933 2.11070413033e-38
0.0430282883699 -0.0774509190657 0.93 1.98162996826e-38
0.0447494199046 -0.0774509190657 0.93 2.0460947423e-38
0.0463706147697 -0.0772843579495 0.928 2.06453330775e-38
0.0480880449463 -0.0772843579495 0.928 2.04612977476e-38
0.049805475123 -0.0772843579495 0.928 2.05534933774e-38
0.0515229052996 -0.0772843579495 0.928 2.11985068567e-38
0.0532403354763 -0.0772843579495 0.928 2.04609446204e-38
0.054957765653 -0.0772843579495 0.928 2.05538647215e-38
0.0566751958296 -0.0772843579495 0.928 2.03694762644e-38
0.0582038567412 -0.0770345162751 0.925 2.03694762644e-38
0.0599157348806 -0.0770345162751 0.925 1.96315552957e-38
0.06162761302 -0.0770345162751 0.925 2.0646063154e-38
0.0633394911595 -0.0770345162751 0.925 2.0000693745e-38
0.0649107176896 -0.0768679551588 0.923 1.96319084229e-38
0.0666188944709 -0.0768679551588 0.923 2.03694734618e-38
0.0681049897639 -0.0766181134844 0.92 2.0276550558e-38
0.069807614508 -0.0766181134844 0.92 1.98155724087e-38
0.0715102392521 -0.0766181134844 0.92 2.00921649035e-38
0.0730537055962 -0.0764515523681 0.918 2.07371769814e-38
0.0747526289822 -0.0764515523681 0.918 2.02761988321e-38
0.0764515523681 -0.0764515523681 0.918 2.05527857217e-38
0.0781504757541 -0.0764515523681 0.918 1.97233823841e-38
0.0795884533912 -0.0762017106937 0.915 2.08297271398e-38
0.08128182474 -0.0762017106937 0.915 2.02779812838e-38
0.0827938295399 -0.0760351495774 0.913 1.96326090721e-38
0.08420589767 -0.075785307903 0.91 1.98170031345e-38
0.0857012463583 -0.0756187467868 0.908 2.02769050866e-38
0.0873816629536 -0.0756187467868 0.908 2.02769064879e-38
0.0890620795488 -0.0756187467868 0.908 1.99999636685e-38
0.0907424961441 -0.0756187467868 0.908 1.99992476049e-38
0.0922193380417 -0.0754521856705 0.906 2.04602285568e-38
0.0938960532788 -0.0754521856705 0.906 2.12899780152e-38
0.095572768516 -0.0754521856705 0.906 1.99066862362e-38
0.096927465595 -0.0752023439961 0.903 2.04602285568e-38
0.0985986287949 -0.0752023439961 0.903 1.9907056179e-38
0.100047710506 -0.0750357828798 0.901 2.07375287074e-38
0.101376498078 -0.0747859412054 0.898 1.80642071672e-38
0.103038407883 -0.0747859412054 0.898 2.04612935437e-38
0.104700317688 -0.0747859412054 0.898 2.27669115642e-38
0.106717557874 -0.0750357828798 0.901 1.83451240691e-38
0.108385019715 -0.0750357828798 0.901 1.81614488729e-38
0.110052481557 -0.0750357828798 0.901 2.19411039584e-38
-0.0167116319991 -0.0735311807962 0.903 7.36630232701e-39
-0.0150404687992 -0.0735311807962 0.903 2.34994543494e-38
-0.013413721897 -0.0737754704334 0.906 2.1013416349e-38
-0.0117370066599 -0.0737754704334 0.906 2.00017825539e-38
-0.0100602914227 -0.0737754704334 0.906 1.94486059721e-38
-0.00840208297631 -0.0739383301915 0.908 2.04631110278e-38
-0.0067364718136 -0.0741011899496 0.91 1.97262620524e-38
-0.0050523538602 -0.0741011899496 0.91 2.04638270913e-38
-0.00337933998122 -0.0743454795868 0.913 1.98188206186e-38
-0.00169337134875 -0.074508339345 0.915 2.03719972003e-38
0.0 -0.0747526289822 0.918 2.11070511124e-38
0.0017026247441 -0.0749154887403 0.92 2.04613187671e-38
0.00340524948819 -0.0749154887403 0.92 2.02769247047e-38
0.00513563441834 -0.0753226381356 0.925 2.01850822021e-38
0.00684751255778 -0.0753226381356 0.925 2.0922647241e-38
0.00858715088327 -0.0755669277728 0.928 2.11992341306e-38
0.0103267892088 -0.0757297875309 0.93 2.02772806345e-38
0.0120479207436 -0.0757297875309 0.93 2.04620348306e-38
0.013813468576 -0.0759740771681 0.933 2.01840032023e-38
0.0155734643713 -0.0761369369263 0.935 2.12903507606e-38
0.0173038493014 -0.0761369369263 0.935 1.97241040528e-38
0.0190342342316 -0.0761369369263 0.935 2.09240863745e-38
0.0207646191617 -0.0761369369263 0.935 1.98177388162e-38
0.0224950040919 -0.0761369369263 0.935 2.05545835876e-38
0.024225389022 -0.0761369369263 0.935 1.97230250529e-38
0.0259557739521 -0.0761369369263 0.935 2.0552425588e-38
0.0276861588823 -0.0761369369263 0.935 1.97233823841e-38
0.0294165438124 -0.0761369369263 0.935 2.06453386827e-38
0.0311469287426 -0.0761369369263 0.935 1.97233823841e-38
0.0328773136727 -0.0761369369263 0.935 2.05531430528e-38
0.0346076986028 -0.0761369369263 0.935 2.05531402502e-38
0.036338083533 -0.0761369369263 0.935 2.00921621009e-38
0.0379870385841 -0.0759740771681 0.933 2.09219227697e-38
0.0397137221561 -0.0759740771681 0.933 1.96311839516e-38
0.0414404057281 -0.0759740771681 0.933 2.07371769814e-38
0.0430282883699 -0.0757297875309 0.93 2.01840032023e-38
0.0447494199046 -0.0757297875309 0.93 2.11063140294e-38
0.0463706147697 -0.0755669277728 0.928 2.02769064879e-38
0.0480880449463 -0.0755669277728 0.928 2.0830080267e-38
0.049805475123 -0.0755669277728 0.928 2.04612977476e-38
0.0515229052996 -0.0755669277728 0.928 2.06464120773e-38
0.0532403354763 -0.0755669277728 0.928 2.01854367306e-38
0.054957765653 -0.0755669277728 0.928 2.00006909424e-38
0.0566751958296 -0.0755669277728 0.928 2.05538675241e-38
0.0582038567412 -0.0753226381356 0.925 2.04616718943e-38
0.0599157348806 -0.0753226381356 0.925 2.04616718943e-38
0.06162761302 -0.0753226381356 0.925 2.14758238228e-38
0.0633394911595 -0.0753226381356 0.925 1.97241068554e-38
0.0649107176896 -0.0751597783775 0.923 2.0646063154e-38
0.0666188944709 -0.0751597783775 0.923 2.00003378151e-38
0.0681049897639 -0.0749154887403 0.92 2.11063112268e-38
0.069807614508 -0.0749154887403 0.92 2.00003195983e-38
0.0715102392521 -0.0749154887403 0.92 1.9999966471e-38
0.0730537055962 -0.0747526289822 0.918 2.04605900919e-38
0.0747526289822 -0.0747526289822 0.918 2.0368394462e-38
0.0764515523681 -0.0747526289822 0.918 2.05527857217e-38
0.0781504757541 -0.0747526289822 0.918 1.97233823841e-38
0.0795884533912 -0.074508339345 0.915 2.04609446204e-38
0.08128182474 -0.074508339345 0.915 2.10148414696e-38
0.0827938295399 -0.0743454795868 0.913 2.00928851709e-38
0.08420589767 -0.0741011899496 0.91 2.01854367306e-38
0.0858900156234 -0.0741011899496 0.91 2.07375287074e-38
0.0875741335768 -0.0741011899496 0.91 2.05534933774e-38
0.0890620795488 -0.0739383301915 0.908 2.02769050866e-38
0.0907424961441 -0.0739383301915 0.908 1.98155640009e-38
0.0924229127394 -0.0739383301915 0.908 1.99999524581e-38
0.0938960532788 -0.0737754704334 0.906 1.92620244829e-38
0.095572768516 -0.0737754704334 0.906 2.04598600154e-38
0.096927465595 -0.0735311807962 0.903 1.92616867699e-38
0.0985986287949 -0.0735311807962 0.903 1.98145046193e-38
0.100047710506 -0.073368321038 0.901 2.14750965489e-38
0.101376498078 -0.0731240314008 0.898 2.00925138268e-38
0.103038407883 -0.0731240314008 0.898 2.09222744956e-38
0.104700317688 -0.0731240314008 0.898 1.87103038502e-38
0.106717557874 -0.073368321038 0.901 1.94475157619e-38
0.108986490413 -0.0737754704334 0.906 2.25828860433e-38
-0.0182810078502 -0.0714621215963 0.898 7.18514526414e-39
-0.0166190980456 -0.0714621215963 0.898 2.26707768843e-38
-0.0150404687992 -0.0718600175963 0.903 2.19317727119e-38
-0.013413721897 -0.0720987551962 0.906 2.05535171995e-38
-0.0117370066599 -0.0720987551962 0.906 2.00017825539e-38
-0.0100602914227 -0.0720987551962 0.906 2.03705622707e-38
-0.00840208297631 -0.0722579135962 0.908 1.99099372486e-38
-0.0067364718136 -0.0724170719962 0.91 1.98180961473e-38
-0.0050523538602 -0.0724170719962 0.91 2.03712699264e-38
-0.00337933998122 -0.0726558095962 0.913 2.00021300759e-38
-0.00169337134875 -0.0728149679962 0.915 2.00950473744e-38
0.0 -0.0732128639962 0.92 2.00925390502e-38
0.00170817678131 -0.0734516015962 0.923 2.00914600504e-38
0.00341635356261 -0.0734516015962 0.923 2.03691203346e-38
0.00513563441834 -0.0736107599962 0.925 2.03694734618e-38
0.00684751255778 -0.0736107599962 0.925 2.04616690917e-38
0.00858715088327 -0.0738494975962 0.928 1.97248229189e-38
0.0103267892088 -0.0740086559961 0.93 2.07386189176e-38
0.0120479207436 -0.0740086559961 0.93 1.93556872722e-38
0.013813468576 -0.0742473935961 0.933 2.01840060049e-38
0.0155734643713 -0.0744065519961 0.935 2.0368394462e-38
0.0173038493014 -0.0744065519961 0.935 2.07382559813e-38
0.0190342342316 -0.0744065519961 0.935 2.00021300759e-38
0.0207646191617 -0.0744065519961 0.935 1.9264565037e-38
0.0224950040919 -0.0744065519961 0.935 2.06467792175e-38
0.024225389022 -0.0744065519961 0.935 2.09215682412e-38
0.0259557739521 -0.0744065519961 0.935 2.06446212179e-38
0.0276861588823 -0.0744065519961 0.935 1.95386337932e-38
0.0294165438124 -0.0744065519961 0.935 2.06460589501e-38
0.0311469287426 -0.0744065519961 0.935 1.97241026515e-38
0.0328773136727 -0.0744065519961 0.935 2.06460589501e-38
0.0346076986028 -0.0744065519961 0.935 2.02776323605e-38
0.036338083533 -0.0744065519961 0.935 1.9908849841e-38
0.0379870385841 -0.0742473935961 0.933 2.04620236202e-38
0.0397137221561 -0.0742473935961 0.933 1.96322601488e-38
0.0414404057281 -0.0742473935961 0.933 2.02765561632e-38
0.0430282883699 -0.0740086559961 0.93 2.06446198166e-38
0.0447494199046 -0.0740086559961 0.93 2.0276550558e-38
0.0463706147697 -0.0738494975962 0.928 2.05534933774e-38
0.0480880449463 -0.0738494975962 0.928 2.0830080267e-38
0.049805475123 -0.0738494975962 0.928 2.03698251877e-38
0.0515229052996 -0.0738494975962 0.928 2.03698279903e-38
0.0532403354763 -0.0738494975962 0.928 2.06460589501e-38
0.054957765653 -0.0738494975962 0.928 2.02772778319e-38
0.0566751958296 -0.0738494975962 0.928 2.02772778319e-38
0.0583926260063 -0.0738494975962 0.928 2.00006909424e-38
0.0599157348806 -0.0736107599962 0.925 2.02772764306e-38
0.06162761302 -0.0736107599962 0.925 2.10148414696e-38
0.0633394911595 -0.0736107599962 0.925 1.97241040528e-38
0.0649107176896 -0.0734516015962 0.923 2.10144897436e-38
0.0666188944709 -0.0734516015962 0.923 2.03691203346e-38
0.0683270712523 -0.0734516015962 0.923 2.01843549282e-38
0.069807614508 -0.0732128639962 0.92 2.06456890073e-38
0.0715102392521 -0.0732128639962 0.92 2.11985096593e-38
0.0732128639962 -0.0732128639962 0.92 2.02761988321e-38
0.0747526289822 -0.0730537055962 0.918 2.08293754139e-38
0.0764515523681 -0.0730537055962 0.918 2.00918075724e-38
0.0781504757541 -0.0730537055962 0.918 2.07371769814e-38
0.0795884533912 -0.0728149679962 0.915 2.02765561632e-38
0.08128182474 -0.0728149679962 0.915 2.01847318775e-38
0.0827938295399 -0.0726558095962 0.913 1.92627755788e-38
0.08420589767 -0.0724170719962 0.91 2.04613159645e-38
0.0858900156234 -0.0724170719962 0.91 2.03687517931e-38
0.0875741335768 -0.0724170719962 0.91 2.09222758969e-38
0.0890620795488 -0.0722579135962 0.908 1.93549459853e-38
0.0907424961441 -0.0722579135962 0.908 2.06453190645e-38
0.0924229127394 -0.0722579135962 0.908 2.02768938762e-38
0.0938960532788 -0.0720987551962 0.906 2.03683720412e-38
0.095572768516 -0.0720987551962 0.906 2.02754715582e-38
0.0972494837531 -0.0720987551962 0.906 2.06442652881e-38
0.0985986287949 -0.0718600175963 0.903 2.09208549803e-38
0.100047710506 -0.0717008591963 0.901 1.99077736438e-38
0.101376498078 -0.0714621215963 0.898 1.98159283385e-38
0.103038407883 -0.0714621215963 0.898 2.07378804333e-38
0.104700317688 -0.0714621215963 0.898 1.88946923073e-38
0.106362227492 -0.0714621215963 0.898 2.12881913597e-38
0.108024137297 -0.0714621215963 0.898 1.95364743923e-38
-0.0198985013571 -0.0696447547499 0.896 8.75245275494e-39
-0.0182402929107 -0.0696447547499 0.896 2.25807252411e-38
-0.0166190980456 -0.0698002117917 0.898 2.09215738464e-38
-0.015007156576 -0.0700333973545 0.901 2.07375511281e-38
-0.0133693055993 -0.0701888543963 0.903 2.0093979585e-38
-0.0117370066599 -0.0704220399591 0.906 1.98173912941e-38
-0.0100602914227 -0.0704220399591 0.906 2.04627579006e-38
-0.00840208297631 -0.070577497001 0.908 2.03698363981e-38
-0.0067364718136 -0.0707329540428 0.91 1.96326258877e-38
-0.00506900997183 -0.0709661396056 0.913 2.11077559655e-38
-0.0033867426975 -0.0711215966475 0.915 1.97248215176e-38
-0.00169337134875 -0.0711215966475 0.915 2.00936054383e-38
0.0 -0.0715102392521 0.92 2.01836556802e-38
0.00170817678131 -0.0717434248149 0.923 2.00914600504e-38
0.00341635356261 -0.0717434248149 0.923 2.05524353971e-38
0.00513563441834 -0.0718988818567 0.925 2.00928893748e-38
0.00684751255778 -0.0718988818567 0.925 2.07382559813e-38
0.00858715088327 -0.0721320674195 0.928 2.0462032028e-38
0.0103267892088 -0.0722875244614 0.93 2.00021356811e-38
0.0120479207436 -0.0722875244614 0.93 2.06471491603e-38
0.013813468576 -0.0725207100241 0.933 2.14747448229e-38
0.0155734643713 -0.072676167066 0.935 2.05527857217e-38
0.0173038493014 -0.072676167066 0.935 2.06460603514e-38
0.0190342342316 -0.072676167066 0.935 1.95411519266e-38
0.0207646191617 -0.072676167066 0.935 2.06474994849e-38
0.0224950040919 -0.072676167066 0.935 2.05545835876e-38
0.024225389022 -0.072676167066 0.935 2.09215682412e-38
0.0259557739521 -0.072676167066 0.935 2.09212081075e-38
0.0276861588823 -0.072676167066 0.935 2.05527857217e-38
0.0294165438124 -0.072676167066 0.935 2.13836253903e-38
0.0311469287426 -0.072676167066 0.935 2.02772764306e-38
0.0328773136727 -0.072676167066 0.935 2.02772764306e-38
0.0346076986028 -0.072676167066 0.935 2.03698279903e-38
0.036338083533 -0.072676167066 0.935 2.03698279903e-38
0.0380684684631 -0.072676167066 0.935 2.04620208176e-38
0.0397988533933 -0.072676167066 0.935 2.0830803337e-38
0.0415292383234 -0.072676167066 0.935 2.06446198166e-38
0.0431670893001 -0.0725207100241 0.933 2.11977907932e-38
0.0447494199046 -0.0722875244614 0.93 2.02761904243e-38
0.0464705514394 -0.0722875244614 0.93 2.05534933774e-38
0.0481916829742 -0.0722875244614 0.93 2.06464092747e-38
0.049912814509 -0.0722875244614 0.93 1.9540064519e-38
0.0516339460438 -0.0722875244614 0.93 2.00936012344e-38
0.0532403354763 -0.0721320674195 0.928 2.05545835876e-38
0.054957765653 -0.0721320674195 0.928 2.06460589501e-38
0.0566751958296 -0.0721320674195 0.928 2.03694720605e-38
0.0583926260063 -0.0721320674195 0.928 1.9908849841e-38
0.0601100561829 -0.0721320674195 0.928 2.00010426683e-38
0.06162761302 -0.0718988818567 0.925 2.05542164474e-38
0.0633394911595 -0.0718988818567 0.925 1.96319070216e-38
0.0650513692989 -0.0718988818567 0.925 2.01850850047e-38
0.0667632474384 -0.0718988818567 0.925 2.02769247047e-38
0.0683270712523 -0.0717434248149 0.923 2.00003195983e-38
0.0700352480336 -0.0717434248149 0.923 2.00925138268e-38
0.0717434248149 -0.0717434248149 0.923 2.01843549282e-38
0.0732128639962 -0.0715102392521 0.92 2.02761988321e-38
0.0747526289822 -0.0713547822102 0.918 2.10137666736e-38
0.0764515523681 -0.0713547822102 0.918 1.99996147451e-38
0.0781504757541 -0.0713547822102 0.918 2.11059595009e-38
0.07984939914 -0.0713547822102 0.918 2.02761988321e-38
0.081548322526 -0.0713547822102 0.918 2.0737902854e-38
0.0827938295399 -0.0709661396056 0.913 2.01847290749e-38
0.08420589767 -0.0707329540428 0.91 2.0000693745e-38
0.0858900156234 -0.0707329540428 0.91 2.04605900919e-38
0.0875741335768 -0.0707329540428 0.91 2.08297299424e-38
0.0890620795488 -0.070577497001 0.908 2.00921592983e-38
0.0907424961441 -0.070577497001 0.908 2.06449701412e-38
0.0924229127394 -0.070577497001 0.908 1.95386211815e-38
0.0941033293346 -0.070577497001 0.908 2.03680217166e-38
0.095572768516 -0.0704220399591 0.906 2.03676699907e-38
0.0972494837531 -0.0704220399591 0.906 2.03676840037e-38
0.0989261989902 -0.0704220399591 0.906 2.03673280739e-38
0.100602914227 -0.0704220399591 0.906 2.01840032023e-38
0.101376498078 -0.0698002117917 0.898 2.0000318197e-38
0.103038407883 -0.0698002117917 0.898 2.03690979138e-38
0.104700317688 -0.0698002117917 0.898 1.96326118747e-38
0.106362227492 -0.0698002117917 0.898 1.95379065193e-38
0.108024137297 -0.0698002117917 0.898 1.94457080869e-38
0.109686047101 -0.0698002117917 0.898 2.10137526606e-38
-0.0215567098035 -0.0679865463034 0.896 1.5483081257e-38
-0.0198985013571 -0.0679865463034 0.896 2.2487791127e-38
-0.0182402929107 -0.0679865463034 0.896 2.08289998659e-38
-0.0165820844643 -0.0679865463034 0.896 2.1107401437e-38
-0.0149571882411 -0.0681383019871 0.898 2.33219084327e-38
-0.0133693055993 -0.0685176911964 0.903 2.01858192851e-38
-0.0117370066599 -0.068745324722 0.906 2.07382685929e-38
-0.0100602914227 -0.068745324722 0.906 2.00010594839e-38
-0.00840208297631 -0.0688970804057 0.908 2.00932495085e-38
-0.0067364718136 -0.0690488360894 0.91 2.05538633202e-38
-0.00506900997183 -0.069276469615 0.913 2.09230017695e-38
-0.0033867426975 -0.0694282252987 0.915 2.01850808008e-38
-0.00169892338596 -0.0696558588243 0.918 2.073825458e-38
0.0 -0.069807614508 0.92 2.06446338296e-38
0.00171187813945 -0.0701870037173 0.925 2.036804694e-38
0.00342375627889 -0.0701870037173 0.925 2.09212179166e-38
0.00513563441834 -0.0701870037173 0.925 2.05538675241e-38
0.00686972070662 -0.0704146372428 0.928 2.07389748474e-38
0.00858715088327 -0.0704146372428 0.928 2.07386189176e-38
0.0103267892088 -0.0705663929266 0.93 1.97255487915e-38
0.0120479207436 -0.0705663929266 0.93 2.06471491603e-38
0.013813468576 -0.0707940264521 0.933 2.01840060049e-38
0.0155734643713 -0.0709457821358 0.935 2.11059595009e-38
0.0173038493014 -0.0709457821358 0.935 1.99084953125e-38
0.0190342342316 -0.0709457821358 0.935 2.08318907446e-38
0.0207646191617 -0.0709457821358 0.935 2.09240863745e-38
0.0224950040919 -0.0709457821358 0.935 1.99092141786e-38
0.024225389022 -0.0709457821358 0.935 2.06449813516e-38
0.0259557739521 -0.0709457821358 0.935 2.08290124776e-38
0.0276861588823 -0.0709457821358 0.935 2.11059595009e-38
0.0294165438124 -0.0709457821358 0.935 2.06460603514e-38
0.0311469287426 -0.0709457821358 0.935 2.05538647215e-38
0.0328773136727 -0.0709457821358 0.935 2.16602108786e-38
0.0346076986028 -0.0709457821358 0.935 2.06464148799e-38
0.036338083533 -0.0709457821358 0.935 2.0185433928e-38
0.0380684684631 -0.0709457821358 0.935 1.93556732592e-38
0.0397988533933 -0.0709457821358 0.935 2.07386077072e-38
0.0415292383234 -0.0709457821358 0.935 1.99992504075e-38
0.0431670893001 -0.0707940264521 0.933 2.02758344945e-38
0.0448937728721 -0.0707940264521 0.933 2.12903423528e-38
0.0464705514394 -0.0705663929266 0.93 2.04612977476e-38
0.0481916829742 -0.0705663929266 0.93 2.08308005344e-38
0.049912814509 -0.0705663929266 0.93 2.10151945968e-38
0.0516339460438 -0.0705663929266 0.93 2.07389734461e-38
0.0533550775786 -0.0705663929266 0.93 2.06467792175e-38
0.054957765653 -0.0704146372428 0.928 2.09226458397e-38
0.0566751958296 -0.0704146372428 0.928 2.11995886591e-38
0.0583926260063 -0.0704146372428 0.928 2.09229989669e-38
0.0601100561829 -0.0704146372428 0.928 2.0462018015e-38
0.0618274863596 -0.0704146372428 0.928 2.01854311254e-38
0.0635449165362 -0.0704146372428 0.928 2.11073930292e-38
0.0650513692989 -0.0701870037173 0.925 2.05538647215e-38
0.0667632474384 -0.0701870037173 0.925 2.06457072242e-38
0.0683270712523 -0.0700352480336 0.923 2.06456890073e-38
0.0700352480336 -0.0700352480336 0.923 2.1291057015e-38
0.0717434248149 -0.0700352480336 0.923 2.11985068567e-38
0.0732128639962 -0.069807614508 0.92 2.0460947423e-38
0.0749154887403 -0.069807614508 0.92 1.9446440966e-38
0.0766181134844 -0.069807614508 0.92 2.08293754139e-38
0.0781504757541 -0.0696558588243 0.918 2.06449813516e-38
0.07984939914 -0.0696558588243 0.918 2.05527857217e-38
0.081548322526 -0.0696558588243 0.918 2.01854367306e-38
0.0829751960887 -0.0694282252987 0.915 2.04620236202e-38
0.0844834995305 -0.069276469615 0.913 2.05538633202e-38
0.0858900156234 -0.0690488360894 0.91 2.02761988321e-38
0.0875741335768 -0.0690488360894 0.91 1.99996119425e-38
0.0890620795488 -0.0688970804057 0.908 2.0737179784e-38
0.0907424961441 -0.0688970804057 0.908 2.10130506101e-38
0.0924229127394 -0.0688970804057 0.908 2.02754883738e-38
0.0941033293346 -0.0688970804057 0.908 2.082864814e-38
0.095572768516 -0.068745324722 0.906 2.06439023518e-38
0.0972494837531 -0.068745324722 0.906 2.04595237037e-38
0.0989261989902 -0.068745324722 0.906 2.06439163647e-38
0.100602914227 -0.068745324722 0.906 2.15669376502e-38
0.101715172348 -0.0683659355127 0.901 2.04612963463e-38
0.103038407883 -0.0681383019871 0.898 2.02772582138e-38
0.104700317688 -0.0681383019871 0.898 1.90797912228e-38
0.106362227492 -0.0681383019871 0.898 1.96333307408e-38
0.108024137297 -0.0681383019871 0.898 2.00943060876e-38
0.109686047101 -0.0681383019871 0.898 1.99102693563e-38
0.111347956906 -0.0681383019871 0.898 1.95404162449e-38
-0.0230335517011 -0.0658101477175 0.889 2.09244381004e-38
-0.0213882980082 -0.0658101477175 0.889 1.6129896806e-38
-0.0198985013571 -0.066328337857 0.896 2.26750676602e-38
-0.0182402929107 -0.066328337857 0.896 2.00017587318e-38
-0.0165820844643 -0.066328337857 0.896 1.97255459889e-38
-0.0149571882411 -0.0664763921826 0.898 1.95411659395e-38
-0.0133693055993 -0.0668465279965 0.903 2.11992467423e-38
-0.0117370066599 -0.0670686094849 0.906 2.01865269408e-38
-0.0100602914227 -0.0670686094849 0.906 2.02794358316e-38
-0.00840208297631 -0.0672166638105 0.908 2.1202109595e-38
-0.0067364718136 -0.067364718136 0.91 2.08336830054e-38
-0.00506900997183 -0.0675867996244 0.913 1.91730868719e-38
-0.0033867426975 -0.06773485395 0.915 1.9633350359e-38
-0.00169892338596 -0.0679569354383 0.918 2.11074042396e-38
0.0 -0.0681049897639 0.92 1.98163122943e-38
0.00171187813945 -0.0684751255778 0.925 2.12914423721e-38
0.00342375627889 -0.0684751255778 0.925 2.05542304604e-38
0.00513563441834 -0.0684751255778 0.925 2.06464232877e-38
0.00686972070662 -0.0686972070662 0.928 2.02776407682e-38
0.00858715088327 -0.0686972070662 0.928 2.11066853735e-38
0.0103267892088 -0.0688452613918 0.93 2.05535143969e-38
0.0120479207436 -0.0688452613918 0.93 2.06457128294e-38
0.013813468576 -0.0690673428801 0.933 1.97237509256e-38
0.0155734643713 -0.0692153972057 0.935 2.13836281929e-38
0.0173038493014 -0.0692153972057 0.935 2.09230101773e-38
0.0190342342316 -0.0692153972057 0.935 2.04623879578e-38
0.0207646191617 -0.0692153972057 0.935 2.03694720605e-38
0.0224950040919 -0.0692153972057 0.935 2.073825458e-38
0.024225389022 -0.0692153972057 0.935 2.19360746982e-38
0.0259557739521 -0.0692153972057 0.935 2.02765533606e-38
0.0277749914776 -0.0694374786941 0.938 2.11995886591e-38
0.029510928445 -0.0694374786941 0.938 2.01857968643e-38
0.0312468654123 -0.0694374786941 0.938 2.03701909266e-38
0.0329828023797 -0.0694374786941 0.938 1.9539712793e-38
0.034718739347 -0.0694374786941 0.938 2.01850808008e-38
0.0364546763144 -0.0694374786941 0.938 2.00921592983e-38
0.0380684684631 -0.0692153972057 0.935 1.97237313074e-38
0.0397988533933 -0.0692153972057 0.935 2.07378804333e-38
0.0415292383234 -0.0692153972057 0.935 2.14750853385e-38
0.0431670893001 -0.0690673428801 0.933 2.055277311e-38
0.0448937728721 -0.0690673428801 0.933 2.12907024865e-38
0.0466204564441 -0.0690673428801 0.933 2.06453358801e-38
0.0483471400161 -0.0690673428801 0.933 2.073825458e-38
0.049912814509 -0.0688452613918 0.93 2.08311690759e-38
0.0516339460438 -0.0688452613918 0.93 2.01857968643e-38
0.0533550775786 -0.0688452613918 0.93 2.01868758641e-38
0.0550762091134 -0.0688452613918 0.93 2.00010426683e-38
0.0566751958296 -0.0686972070662 0.928 2.08297243372e-38
0.0583926260063 -0.0686972070662 0.928 2.01843549282e-38
0.0601100561829 -0.0686972070662 0.928 1.99999636685e-38
0.0618274863596 -0.0686972070662 0.928 2.11063140294e-38
0.0635449165362 -0.0686972070662 0.928 2.08297299424e-38
0.0650513692989 -0.0684751255778 0.925 2.06449813516e-38
0.0667632474384 -0.0684751255778 0.925 2.01840060049e-38
0.0683270712523 -0.0683270712523 0.923 2.11985124619e-38
0.0700352480336 -0.0683270712523 0.923 1.97233767789e-38
0.0717434248149 -0.0683270712523 0.923 2.10144715268e-38
0.0732128639962 -0.0681049897639 0.92 2.09219199671e-38
0.0749154887403 -0.0681049897639 0.92 2.11059595009e-38
0.0766181134844 -0.0681049897639 0.92 2.0460595697e-38
0.0781504757541 -0.0679569354383 0.918 2.00918075724e-38
0.07984939914 -0.0679569354383 0.918 2.02765533606e-38
0.081548322526 -0.0679569354383 0.918 2.0462018015e-38
0.0829751960887 -0.06773485395 0.915 2.01854311254e-38
0.0844834995305 -0.0675867996244 0.913 2.03701797162e-38
0.0861731695211 -0.0675867996244 0.913 2.03701797162e-38
0.0878628395117 -0.0675867996244 0.913 1.98166486059e-38
0.0892582515302 -0.067364718136 0.91 2.00932382981e-38
0.0909423694836 -0.067364718136 0.91 2.06460603514e-38
0.0924229127394 -0.0672166638105 0.908 2.08293754139e-38
0.0941033293346 -0.0672166638105 0.908 2.02761904243e-38
0.095572768516 -0.0670686094849 0.906 2.02754715582e-38
0.0972494837531 -0.0670686094849 0.906 2.02754827686e-38
0.0989261989902 -0.0670686094849 0.906 2.00918131776e-38
0.100602914227 -0.0670686094849 0.906 1.9447164036e-38
0.101715172348 -0.0666984736709 0.901 2.02779952968e-38
0.103038407883 -0.0664763921826 0.898 2.00950333615e-38
0.104700317688 -0.0664763921826 0.898 2.04638144796e-38
0.106362227492 -0.0664763921826 0.898 2.08297159294e-38
0.108024137297 -0.0664763921826 0.898 2.02761988321e-38
0.109441757464 -0.066328337857 0.896 1.94500128757e-38
0.11109996591 -0.066328337857 0.896 1.96336992823e-38
-0.024623285022 -0.0640205410571 0.887 2.29523902315e-38
-0.0229817326872 -0.0640205410571 0.887 9.21559591038e-39
-0.0213882980082 -0.0641648940246 0.889 2.28605463276e-38
-0.0198985013571 -0.0646701294106 0.896 2.03712643212e-38
-0.0182402929107 -0.0646701294106 0.896 1.96337048875e-38
-0.0165820844643 -0.0646701294106 0.896 2.08318935472e-38
-0.0149571882411 -0.064814482378 0.898 2.05549535304e-38
-0.0133693055993 -0.0651753647966 0.903 2.07386217202e-38
-0.0117370066599 -0.0653918942478 0.906 2.08318935472e-38
-0.0100824995716 -0.0655362472152 0.908 2.09248052406e-38
-0.00840208297631 -0.0655362472152 0.908 1.97280557144e-38
-0.00675867996244 -0.0658971296338 0.913 1.96358600846e-38
-0.00508011404625 -0.0660414826012 0.915 2.15708935158e-38
-0.0033867426975 -0.0660414826012 0.915 2.00943285083e-38
-0.00169892338596 -0.0662580120524 0.918 2.10152114123e-38
0.0 -0.0664023650198 0.92 2.08315432226e-38
0.00171187813945 -0.0667632474384 0.925 1.93564103422e-38
0.00342375627889 -0.0667632474384 0.925 2.06475050901e-38
0.00513563441834 -0.0667632474384 0.925 2.09230101773e-38
0.00686972070662 -0.0669797768895 0.928 2.02776407682e-38
0.00858715088327 -0.0669797768895 0.928 2.0646063154e-38
0.0103267892088 -0.067124129857 0.93 2.03691231372e-38
0.0120479207436 -0.067124129857 0.93 2.11988866086e-38
0.013813468576 -0.0673406593081 0.933 2.0554233263e-38
0.0155734643713 -0.0674850122756 0.935 2.02776407682e-38
0.0173038493014 -0.0674850122756 0.935 2.09230101773e-38
0.0190342342316 -0.0674850122756 0.935 2.06460603514e-38
0.0207646191617 -0.0674850122756 0.935 2.073825458e-38
0.0224950040919 -0.0674850122756 0.935 2.14750965489e-38
0.024225389022 -0.0674850122756 0.935 2.07375287074e-38
0.0259557739521 -0.0674850122756 0.935 2.15672893761e-38
0.0277749914776 -0.0677015417267 0.938 2.055421925e-38
0.029510928445 -0.0677015417267 0.938 2.0093604037e-38
0.0312468654123 -0.0677015417267 0.938 2.08311704772e-38
0.0329828023797 -0.0677015417267 0.938 2.05538647215e-38
0.034718739347 -0.0677015417267 0.938 1.92631245021e-38
0.0364546763144 -0.0677015417267 0.938 2.12907024865e-38
0.0380684684631 -0.0674850122756 0.935 2.0000318197e-38
0.0397988533933 -0.0674850122756 0.935 2.04616494735e-38
0.0415292383234 -0.0674850122756 0.935 2.046093341e-38
0.0431670893001 -0.0673406593081 0.933 2.05534919761e-38
0.0448937728721 -0.0673406593081 0.933 2.06453330775e-38
0.0466204564441 -0.0673406593081 0.933 2.02772764306e-38
0.0483471400161 -0.0673406593081 0.933 2.00006909424e-38
0.0500738235881 -0.0673406593081 0.933 2.07389734461e-38
0.0518005071601 -0.0673406593081 0.933 2.07400496433e-38
0.0535271907321 -0.0673406593081 0.933 2.07400468407e-38
0.0550762091134 -0.067124129857 0.93 2.06464120773e-38
0.0567973406482 -0.067124129857 0.93 2.04609418178e-38
0.058518472183 -0.067124129857 0.93 2.06453358801e-38
0.0602396037178 -0.067124129857 0.93 2.12907052891e-38
0.0619607352526 -0.067124129857 0.93 2.0460947423e-38
0.0635449165362 -0.0669797768895 0.928 2.07371769814e-38
0.0652623467129 -0.0669797768895 0.928 2.1013763871e-38
0.0667632474384 -0.0667632474384 0.925 2.06449813516e-38
0.0684751255778 -0.0667632474384 0.925 2.08293726113e-38
0.0700352480336 -0.0666188944709 0.923 2.10141183995e-38
0.0717434248149 -0.0666188944709 0.923 2.05534933774e-38
0.0732128639962 -0.0664023650198 0.92 2.00925152281e-38
0.0749154887403 -0.0664023650198 0.92 1.99996119425e-38
0.0766181134844 -0.0664023650198 0.92 2.1198160736e-38
0.0781504757541 -0.0662580120524 0.918 2.05527885243e-38
0.07984939914 -0.0662580120524 0.918 2.11985096593e-38
0.081548322526 -0.0662580120524 0.918 2.0185433928e-38
0.0829751960887 -0.0660414826012 0.915 2.01854311254e-38
0.0844834995305 -0.0658971296338 0.913 2.00935928266e-38
0.0861731695211 -0.0658971296338 0.913 2.00935928266e-38
0.0878628395117 -0.0658971296338 0.913 2.10155491253e-38
0.0892582515302 -0.0656806001826 0.91 2.08308005344e-38
0.0909423694836 -0.0656806001826 0.91 2.04620236202e-38
0.0924229127394 -0.0655362472152 0.908 2.06460603514e-38
0.0941033293346 -0.0655362472152 0.908 2.09215570308e-38
0.095572768516 -0.0653918942478 0.906 2.04605816841e-38
0.0972494837531 -0.0653918942478 0.906 2.05524241867e-38
0.0989261989902 -0.0653918942478 0.906 2.04613159645e-38
0.100602914227 -0.0653918942478 0.906 2.03698392007e-38
0.101715172348 -0.0650310118292 0.901 2.03709153979e-38
0.10338263419 -0.0650310118292 0.901 1.99110078406e-38
0.104700317688 -0.064814482378 0.898 1.99110022354e-38
0.106362227492 -0.064814482378 0.898 1.99992391971e-38
0.108024137297 -0.064814482378 0.898 2.06442708933e-38
0.109441757464 -0.0646701294106 0.896 2.00950291576e-38
0.11109996591 -0.0646701294106 0.896 2.08329641393e-38
0.112758174357 -0.0646701294106 0.896 2.23981458603e-38
-0.024623285022 -0.0623789887223 0.887 7.83301458964e-39
-0.0229817326872 -0.0623789887223 0.887 2.28605491302e-38
-0.021436415664 -0.0626602919409 0.891 2.03712699264e-38
-0.0198540850594 -0.0628712693549 0.894 2.1016284807e-38
-0.0181995779711 -0.0628712693549 0.894 2.00021328785e-38
-0.0165450708829 -0.0628712693549 0.894 2.07396979174e-38
-0.0149571882411 -0.0631525725735 0.898 2.08318935472e-38
-0.0133396947342 -0.0633635499874 0.901 2.13839911292e-38
-0.0117370066599 -0.0637151790106 0.906 2.00021328785e-38
-0.0100824995716 -0.0638558306199 0.908 2.07404139809e-38
-0.008420589767 -0.0639964822292 0.91 1.93581969978e-38
-0.00675867996244 -0.0642074596432 0.913 2.0556740186e-38
-0.00508011404625 -0.0643481112525 0.915 1.93574795329e-38
-0.0033867426975 -0.0643481112525 0.915 2.02787197681e-38
-0.00169892338596 -0.0645590886664 0.918 2.06464232877e-38
0.0 -0.0646997402757 0.92 1.97251928617e-38
0.00171187813945 -0.0650513692989 0.925 2.02783666409e-38
0.00342375627889 -0.0650513692989 0.925 2.12006760667e-38
0.00513563441834 -0.0650513692989 0.925 2.01858010682e-38
0.00686972070662 -0.0652623467129 0.928 2.04623879578e-38
0.00858715088327 -0.0652623467129 0.928 2.10148456734e-38
0.0103267892088 -0.0654029983222 0.93 2.08300984839e-38
0.0120479207436 -0.0654029983222 0.93 2.01847318775e-38
0.013813468576 -0.0656139757361 0.933 2.02776435708e-38
0.0155734643713 -0.0657546273454 0.935 2.06464232877e-38
0.0173038493014 -0.0657546273454 0.935 2.09230101773e-38
0.0190342342316 -0.0657546273454 0.935 2.05538647215e-38
0.0207646191617 -0.0657546273454 0.935 2.01850808008e-38
0.0224950040919 -0.0657546273454 0.935 2.09219227697e-38
0.024225389022 -0.0657546273454 0.935 2.08297243372e-38
0.0260390545103 -0.0659656047594 0.938 2.07375287074e-38
0.0277749914776 -0.0659656047594 0.938 1.97241026515e-38
0.029510928445 -0.0659656047594 0.938 2.08311704772e-38
0.0312468654123 -0.0659656047594 0.938 2.06464232877e-38
0.0329828023797 -0.0659656047594 0.938 2.11992369332e-38
0.034718739347 -0.0659656047594 0.938 2.0922647241e-38
0.0364546763144 -0.0659656047594 0.938 2.04609446204e-38
0.0381906132817 -0.0659656047594 0.938 2.04609418178e-38
0.0397988533933 -0.0657546273454 0.935 2.1291057015e-38
0.0415292383234 -0.0657546273454 0.935 1.96315356775e-38
0.0431670893001 -0.0656139757361 0.933 2.0184710858e-38
0.0448937728721 -0.0656139757361 0.933 1.97244557787e-38
0.0466204564441 -0.0656139757361 0.933 2.08304502098e-38
0.0483471400161 -0.0656139757361 0.933 2.06460589501e-38
0.0500738235881 -0.0656139757361 0.933 2.00014084072e-38
0.0518005071601 -0.0656139757361 0.933 1.98170143448e-38
0.0535271907321 -0.0656139757361 0.933 2.08311662733e-38
0.0552538743041 -0.0656139757361 0.933 1.97244557787e-38
0.0569805578761 -0.0656139757361 0.933 2.12907024865e-38
0.058518472183 -0.0654029983222 0.93 2.06453358801e-38
0.0602396037178 -0.0654029983222 0.93 2.05531402502e-38
0.0619607352526 -0.0654029983222 0.93 2.05531430528e-38
0.0636818667874 -0.0654029983222 0.93 2.07375343126e-38
0.0652623467129 -0.0652623467129 0.928 2.09219255723e-38
0.0669797768895 -0.0652623467129 0.928 2.02765561632e-38
0.0684751255778 -0.0650513692989 0.925 2.04605900919e-38
0.0701870037173 -0.0650513692989 0.925 2.08297271398e-38
0.0717434248149 -0.0649107176896 0.923 2.10144715268e-38
0.0732128639962 -0.0646997402757 0.92 2.09222758969e-38
0.0749154887403 -0.0646997402757 0.92 2.05527857217e-38
0.0766181134844 -0.0646997402757 0.92 2.08293782165e-38
0.0781504757541 -0.0645590886664 0.918 2.08293754139e-38
0.07984939914 -0.0645590886664 0.918 2.08297271398e-38
0.081548322526 -0.0645590886664 0.918 2.00932411007e-38
0.0829751960887 -0.0643481112525 0.915 2.09230017695e-38
0.0844834995305 -0.0642074596432 0.913 2.05542164474e-38
0.0858900156234 -0.0639964822292 0.91 2.09229989669e-38
0.0875741335768 -0.0639964822292 0.91 1.96322601488e-38
0.0892582515302 -0.0639964822292 0.91 2.04620208176e-38
0.0909423694836 -0.0639964822292 0.91 1.98162982813e-38
0.0924229127394 -0.0638558306199 0.908 2.0646063154e-38
0.0941033293346 -0.0638558306199 0.908 2.10137554632e-38
0.095572768516 -0.0637151790106 0.906 2.01839947945e-38
0.0972494837531 -0.0637151790106 0.906 1.99999692736e-38
0.0989261989902 -0.0637151790106 0.906 2.04616718943e-38
0.100602914227 -0.0637151790106 0.906 2.00932495085e-38
0.101715172348 -0.0633635499874 0.901 2.1015561737e-38
0.103038407883 -0.0631525725735 0.898 1.99102889745e-38
0.104700317688 -0.0631525725735 0.898 2.04638158809e-38
0.106362227492 -0.0631525725735 0.898 2.00910774959e-38
0.108024137297 -0.0631525725735 0.898 2.09212179166e-38
0.109441757464 -0.0630119209642 0.896 2.02794246212e-38
0.11109996591 -0.0630119209642 0.896 2.13854218549e-38
0.112758174357 -0.0630119209642 0.896 2.23052313643e-38
-0.0262648373568 -0.0607374363875 0.887 1.75146263173e-38
-0.024623285022 -0.0607374363875 0.887 2.10169854562e-38
-0.0229817326872 -0.0607374363875 0.887 2.14776146822e-38
-0.021436415664 -0.0610113368898 0.891 2.03709182005e-38
-0.0198540850594 -0.0612167622666 0.894 2.06471519629e-38
-0.0181995779711 -0.0612167622666 0.894 2.00017825539e-38
-0.0165450708829 -0.0612167622666 0.894 2.05553094603e-38
-0.0149571882411 -0.0614906627689 0.898 2.04631082252e-38
-0.0133396947342 -0.0616960881456 0.901 2.12917926967e-38
-0.0117370066599 -0.0620384637735 0.906 2.0462032028e-38
-0.0100824995716 -0.0621754140247 0.908 2.01872430043e-38
-0.008420589767 -0.0623123642758 0.91 2.04645459574e-38
-0.006773485395 -0.0626547399037 0.915 1.98191765484e-38
-0.00508011404625 -0.0626547399037 0.915 2.09248052406e-38
-0.00339784677192 -0.0628601652804 0.918 2.08318907446e-38
-0.00169892338596 -0.0628601652804 0.918 2.02772778319e-38
0.0 -0.0629971155316 0.92 2.06475050901e-38
0.00170817678131 -0.0632025409083 0.923 2.00943313109e-38
0.00342375627889 -0.0633394911595 0.925 2.02787197681e-38
0.00513563441834 -0.0633394911595 0.925 2.12921486266e-38
0.00686972070662 -0.0635449165362 0.928 2.08311704772e-38
0.00858715088327 -0.0635449165362 0.928 2.07382587839e-38
0.0103267892088 -0.0636818667874 0.93 2.04613159645e-38
0.0120479207436 -0.0636818667874 0.93 2.00925362476e-38
0.013813468576 -0.0638872921641 0.933 2.10152086097e-38
