# .PCD v0.7 - Point Cloud Data file format
VERSION 0.7
FIELDS x y z rgb
SIZE 4 4 4 4
TYPE F F F F
COUNT 1 1 1 1
WIDTH 844
HEIGHT 1
VIEWPOINT 0 0 0 1 0 0 0
POINTS 844
DATA ascii
0.0509677015787 -0.0866450926839 0.918 2.00921480879e-38
0.0526666249647 -0.0866450926839 0.918 2.14750797333e-38
0.0033867426975 -0.0846685674374 0.915 1.6866039527e-38
0.00508011404625 -0.0846685674374 0.915 2.18449580681e-38
0.006773485395 -0.0846685674374 0.915 2.19367977682e-38
0.00846685674374 -0.0846685674374 0.915 2.2120114232e-38
0.0101602280925 -0.0846685674374 0.915 2.09212221204e-38
0.0118535994412 -0.0846685674374 0.915 2.04598908439e-38
0.01354697079 -0.0846685674374 0.915 2.10144925462e-38
0.0152903104736 -0.0849461692979 0.918 2.05542276578e-38
0.0169892338596 -0.0849461692979 0.918 2.08304544137e-38
0.0186881572455 -0.0849461692979 0.918 2.06460603514e-38
0.0203870806315 -0.0849461692979 0.918 2.10148428709e-38
0.0220860040175 -0.0849461692979 0.918 2.11059595009e-38
0.0237849274034 -0.0849461692979 0.918 2.06453386827e-38
0.0254838507894 -0.0849461692979 0.918 2.08290110763e-38
0.0272419959056 -0.0851312372049 0.92 2.04616718943e-38
0.0289446206497 -0.0851312372049 0.92 2.07382587839e-38
0.0306472453938 -0.0851312372049 0.92 1.97241068554e-38
0.0324553588448 -0.0854088390653 0.923 2.0646063154e-38
0.0341635356261 -0.0854088390653 0.923 2.0646063154e-38
0.0358717124074 -0.0854088390653 0.923 2.01850850047e-38
0.0375798891887 -0.0854088390653 0.923 2.01850822021e-38
0.03928806597 -0.0854088390653 0.923 2.05538647215e-38
0.0408629938583 -0.0851312372049 0.92 2.15669432554e-38
0.042473084649 -0.0849461692979 0.918 2.03680441374e-38
0.0441720080349 -0.0849461692979 0.918 1.98152234854e-38
0.0458709314209 -0.0849461692979 0.918 2.06449813516e-38
0.047414397765 -0.0846685674374 0.915 1.98155752113e-38
0.0491077691137 -0.0846685674374 0.915 2.02761904243e-38
0.0508011404625 -0.0846685674374 0.915 1.99995993309e-38
0.0524945118112 -0.0846685674374 0.915 2.046093341e-38
0.05418788316 -0.0846685674374 0.915 1.89865151918e-38
0.0560644717366 -0.0849461692979 0.918 2.18445811188e-38
0.00337933998122 -0.0827938295399 0.913 2.25800105789e-38
0.00506900997183 -0.0827938295399 0.913 2.11974306595e-38
0.006773485395 -0.0829751960887 0.915 2.12892703595e-38
0.00846685674374 -0.0829751960887 0.915 2.10130478075e-38
0.0101602280925 -0.0829751960887 0.915 2.08283076245e-38
0.0118535994412 -0.0829751960887 0.915 2.09201529297e-38
0.0135913870877 -0.0832472459119 0.918 2.07386245228e-38
0.0152903104736 -0.0832472459119 0.918 2.12006760667e-38
0.0169892338596 -0.0832472459119 0.918 2.12006760667e-38
0.0186881572455 -0.0832472459119 0.918 2.00943257057e-38
0.0203870806315 -0.0832472459119 0.918 2.03701923279e-38
0.0220860040175 -0.0832472459119 0.918 2.04623879578e-38
0.0237849274034 -0.0832472459119 0.918 1.96319070216e-38
0.0255393711615 -0.0834286124608 0.92 2.12914283591e-38
0.0272419959056 -0.0834286124608 0.92 2.21197498944e-38
0.0289446206497 -0.0834286124608 0.92 2.15665775165e-38
0.0307471820635 -0.083700662284 0.923 2.09212067062e-38
0.0324553588448 -0.083700662284 0.923 2.1289986423e-38
0.0341635356261 -0.083700662284 0.923 2.16591248723e-38
0.0358717124074 -0.083700662284 0.923 2.1198146723e-38
0.0374577443701 -0.0834286124608 0.92 2.07371657711e-38
0.0391603691142 -0.0834286124608 0.92 2.04605788815e-38
0.040774161263 -0.0832472459119 0.918 2.06453386827e-38
0.042473084649 -0.0832472459119 0.918 1.99084953125e-38
0.0441720080349 -0.0832472459119 0.918 2.0368394462e-38
0.0458709314209 -0.0832472459119 0.918 2.07371769814e-38
0.047414397765 -0.0829751960887 0.915 1.99074163127e-38
0.0491077691137 -0.0829751960887 0.915 2.09215682412e-38
0.0508011404625 -0.0829751960887 0.915 2.00914474387e-38
0.0524945118112 -0.0829751960887 0.915 1.96304692894e-38
0.05418788316 -0.0829751960887 0.915 2.02754743608e-38
0.0558812545087 -0.0829751960887 0.915 2.02754743608e-38
-0.00838357618561 -0.0804823313819 0.906 2.28605519327e-38
-0.00670686094849 -0.0804823313819 0.906 1.37321027739e-38
-0.00503014571137 -0.0804823313819 0.906 1.81574930073e-38
-0.00335343047424 -0.0804823313819 0.906 2.28605463276e-38
-0.00167671523712 -0.0804823313819 0.906 2.08322424706e-38
0.0 -0.0808376617632 0.91 2.07382559813e-38
0.0016841179534 -0.0808376617632 0.91 2.18435273424e-38
0.0033682359068 -0.0808376617632 0.91 1.95386365958e-38
0.0050523538602 -0.0808376617632 0.91 2.11059595009e-38
0.006773485395 -0.08128182474 0.915 2.08293726113e-38
0.00846685674374 -0.08128182474 0.915 2.12903535632e-38
0.0101602280925 -0.08128182474 0.915 2.09215738464e-38
0.0118535994412 -0.08128182474 0.915 2.08290222867e-38
0.0135913870877 -0.081548322526 0.918 1.99084981151e-38
0.0152903104736 -0.081548322526 0.918 2.01854451384e-38
0.0169892338596 -0.081548322526 0.918 1.93556872722e-38
0.0186881572455 -0.081548322526 0.918 2.14754706956e-38
0.0203870806315 -0.081548322526 0.918 1.97237537281e-38
0.0220860040175 -0.081548322526 0.918 2.12910766332e-38
0.0238367464174 -0.0817259877167 0.92 2.08304544137e-38
0.0255393711615 -0.0817259877167 0.92 2.0922647241e-38
0.0272419959056 -0.0817259877167 0.92 2.11063140294e-38
0.0289446206497 -0.0817259877167 0.92 2.1382900919e-38
0.0307471820635 -0.0819924855027 0.923 2.08297271398e-38
0.0324553588448 -0.0819924855027 0.923 2.11985096593e-38
0.0341635356261 -0.0819924855027 0.923 2.02758344945e-38
0.0358717124074 -0.0819924855027 0.923 2.11977907932e-38
0.0374577443701 -0.0817259877167 0.92 2.09212067062e-38
0.0391603691142 -0.0817259877167 0.92 2.11977935958e-38
0.040774161263 -0.081548322526 0.918 2.04609418178e-38
0.042473084649 -0.081548322526 0.918 2.04609418178e-38
0.0441720080349 -0.081548322526 0.918 2.03687517931e-38
0.0458709314209 -0.081548322526 0.918 2.11059595009e-38
0.047414397765 -0.08128182474 0.915 1.95386365958e-38
0.0491077691137 -0.08128182474 0.915 2.04605900919e-38
0.0508011404625 -0.08128182474 0.915 1.93545998646e-38
0.0524945118112 -0.08128182474 0.915 2.09219227697e-38
0.05418788316 -0.08128182474 0.915 2.04602257543e-38
0.0558812545087 -0.08128182474 0.915 2.04602257543e-38
0.0575746258575 -0.08128182474 0.915 2.01839947945e-38
-0.0116981423994 -0.0785446703959 0.903 1.93574781316e-38
-0.0100269791995 -0.0785446703959 0.903 1.84351616993e-38
-0.00835581599956 -0.0785446703959 0.903 2.02772764306e-38
-0.00670686094849 -0.0788056161447 0.906 2.3134620689e-38
-0.00503014571137 -0.0788056161447 0.906 2.16602108786e-38
-0.00335343047424 -0.0788056161447 0.906 2.03694720605e-38
-0.00167671523712 -0.0788056161447 0.906 2.11077559655e-38
0.0 -0.0789795799773 0.908 2.03694720605e-38
0.0016841179534 -0.0791535438098 0.91 2.11992341306e-38
0.0033682359068 -0.0791535438098 0.91 2.00006909424e-38
0.0050523538602 -0.0791535438098 0.91 2.11070385007e-38
0.006773485395 -0.0795884533912 0.915 2.07382559813e-38
0.00846685674374 -0.0795884533912 0.915 2.05538647215e-38
0.0101602280925 -0.0795884533912 0.915 2.08304544137e-38
0.0118535994412 -0.0795884533912 0.915 2.0646063154e-38
0.0135913870877 -0.07984939914 0.918 2.17524079098e-38
0.0152903104736 -0.07984939914 0.918 2.04616690917e-38
0.0169892338596 -0.07984939914 0.918 2.16598591527e-38
0.0186881572455 -0.07984939914 0.918 1.9815949358e-38
0.0204314969292 -0.0800233629726 0.92 2.03691231372e-38
0.0221341216733 -0.0800233629726 0.92 2.03691231372e-38
0.0238367464174 -0.0800233629726 0.92 2.08304544137e-38
0.0255393711615 -0.0800233629726 0.92 2.04616690917e-38
0.0273308285009 -0.0802843087214 0.923 2.1291784289e-38
0.0290390052822 -0.0802843087214 0.923 2.15683683759e-38
0.0307471820635 -0.0802843087214 0.923 2.11073930292e-38
0.0324553588448 -0.0802843087214 0.923 2.11985096593e-38
0.0341635356261 -0.0802843087214 0.923 1.94467954945e-38
0.0358717124074 -0.0802843087214 0.923 2.06453386827e-38
0.0374577443701 -0.0800233629726 0.92 2.03680343283e-38
0.0391603691142 -0.0800233629726 0.92 2.0552425588e-38
0.0408629938583 -0.0800233629726 0.92 2.05531374476e-38
0.042473084649 -0.07984939914 0.918 2.10141155969e-38
0.0441720080349 -0.07984939914 0.918 2.02765561632e-38
0.0458709314209 -0.07984939914 0.918 2.02761988321e-38
0.0475698548068 -0.07984939914 0.918 2.0091810375e-38
0.0491077691137 -0.0795884533912 0.915 2.14747420203e-38
0.0508011404625 -0.0795884533912 0.915 2.0460947423e-38
0.0524945118112 -0.0795884533912 0.915 2.00921592983e-38
0.05418788316 -0.0795884533912 0.915 2.06453330775e-38
0.0555758924622 -0.0791535438098 0.91 2.08297243372e-38
0.0571341642389 -0.0789795799773 0.908 2.05531374476e-38
0.058490711997 -0.0785446703959 0.903 1.99077680386e-38
0.0601618751969 -0.0785446703959 0.903 2.00921592983e-38
-0.0166746184177 -0.0767032447216 0.901 2.3509142927e-38
-0.015007156576 -0.0767032447216 0.901 1.83451016483e-38
-0.0133396947342 -0.0767032447216 0.901 1.58544001267e-38
-0.0116722328924 -0.0767032447216 0.901 2.20304339329e-38
-0.0100269791995 -0.076873507196 0.903 2.22133860591e-38
-0.00835581599956 -0.076873507196 0.903 2.14747420203e-38
-0.00670686094849 -0.0771289009076 0.906 2.0922647241e-38
-0.00503014571137 -0.0771289009076 0.906 2.11992341306e-38
-0.00335343047424 -0.0771289009076 0.906 2.03701923279e-38
-0.00167671523712 -0.0771289009076 0.906 2.11091965003e-38
0.0 -0.077299163382 0.908 2.01857968643e-38
0.0016841179534 -0.0774694258564 0.91 2.09230017695e-38
0.0033682359068 -0.0774694258564 0.91 2.06464148799e-38
0.0050523538602 -0.0774694258564 0.91 2.073825458e-38
0.006773485395 -0.0778950820425 0.915 2.073825458e-38
0.00846685674374 -0.0778950820425 0.915 2.02772778319e-38
0.0101602280925 -0.0778950820425 0.915 2.14758210202e-38
0.0118535994412 -0.0778950820425 0.915 2.16602150825e-38
0.0135913870877 -0.0781504757541 0.918 2.03694720605e-38
0.0152903104736 -0.0781504757541 0.918 2.14758196189e-38
0.0169892338596 -0.0781504757541 0.918 2.02772778319e-38
0.0186881572455 -0.0781504757541 0.918 2.14758238228e-38
0.0204314969292 -0.0783207382285 0.92 2.11066853735e-38
0.0221341216733 -0.0783207382285 0.92 2.11070413033e-38
0.0238367464174 -0.0783207382285 0.92 2.10148428709e-38
0.0256226517196 -0.0785761319401 0.923 2.08304502098e-38
0.0273900502311 -0.0787463944145 0.925 2.05542164474e-38
0.0291019283706 -0.0787463944145 0.925 2.0830803337e-38
0.03081380651 -0.0787463944145 0.925 2.08308061396e-38
0.0325256846495 -0.0787463944145 0.925 2.10141183995e-38
0.0342375627889 -0.0787463944145 0.925 2.1106316832e-38
0.0358717124074 -0.0785761319401 0.923 2.00921649035e-38
0.0374577443701 -0.0783207382285 0.92 2.0552425588e-38
0.0391603691142 -0.0783207382285 0.92 2.09212081075e-38
0.0408629938583 -0.0783207382285 0.92 2.03687489905e-38
0.042473084649 -0.0781504757541 0.918 2.04609446204e-38
0.0441720080349 -0.0781504757541 0.918 1.99077736438e-38
0.0458709314209 -0.0781504757541 0.918 2.06449813516e-38
0.0475698548068 -0.0781504757541 0.918 2.04605900919e-38
0.0491077691137 -0.0778950820425 0.915 2.04605900919e-38
0.0508011404625 -0.0778950820425 0.915 2.03687489905e-38
0.0524945118112 -0.0778950820425 0.915 2.10141155969e-38
0.05418788316 -0.0778950820425 0.915 2.11066671566e-38
0.0555758924622 -0.0774694258564 0.91 2.05531374476e-38
0.0570083180621 -0.0771289009076 0.906 2.01843549282e-38
0.058490711997 -0.076873507196 0.903 2.05531402502e-38
0.0601618751969 -0.076873507196 0.903 2.11063140294e-38
0.0614906627689 -0.07644785101 0.898 2.00921649035e-38
0.0631525725735 -0.07644785101 0.898 2.0460947423e-38
0.064814482378 -0.07644785101 0.898 2.01843605334e-38
-0.0166746184177 -0.0750357828798 0.901 1.8065999428e-38
-0.015007156576 -0.0750357828798 0.901 2.16612674576e-38
-0.0133396947342 -0.0750357828798 0.901 2.32278925161e-38
-0.0116722328924 -0.0750357828798 0.901 2.0000693745e-38
-0.0100269791995 -0.0752023439961 0.903 2.10137666736e-38
-0.00835581599956 -0.0752023439961 0.903 2.0737179784e-38
-0.00670686094849 -0.0754521856705 0.906 2.09226500436e-38
-0.00503014571137 -0.0754521856705 0.906 2.0462032028e-38
-0.00335343047424 -0.0754521856705 0.906 2.05560255238e-38
-0.00167671523712 -0.0754521856705 0.906 2.08329725471e-38
0.0 -0.0756187467868 0.908 2.00939571642e-38
0.0016841179534 -0.075785307903 0.91 2.1107387424e-38
0.0033682359068 -0.075785307903 0.91 2.10151917942e-38
0.00506900997183 -0.0760351495774 0.913 2.10151945968e-38
0.006773485395 -0.0762017106937 0.915 2.14761755487e-38
0.00849461692979 -0.0764515523681 0.918 2.06460589501e-38
0.0101935403157 -0.0764515523681 0.918 2.05538647215e-38
0.0118924637017 -0.0764515523681 0.918 1.98162996826e-38
0.0135913870877 -0.0764515523681 0.918 2.06460589501e-38
0.0152903104736 -0.0764515523681 0.918 2.11995886591e-38
0.0169892338596 -0.0764515523681 0.918 2.16605668084e-38
0.0187288721851 -0.0766181134844 0.92 2.11070370994e-38
0.0204314969292 -0.0766181134844 0.92 2.1383623989e-38
0.0221341216733 -0.0766181134844 0.92 2.11992327293e-38
0.0239144749383 -0.0768679551588 0.923 2.11073930292e-38
0.0256226517196 -0.0768679551588 0.923 2.13839799188e-38
0.0273900502311 -0.0770345162751 0.925 2.12917814864e-38
0.0291019283706 -0.0770345162751 0.925 2.10151945968e-38
0.03081380651 -0.0770345162751 0.925 2.11995886591e-38
0.0325256846495 -0.0770345162751 0.925 2.15672921787e-38
0.0342375627889 -0.0770345162751 0.925 2.1106316832e-38
0.0358717124074 -0.0768679551588 0.923 2.05531430528e-38
0.0374577443701 -0.0766181134844 0.92 2.04602299581e-38
0.0391603691142 -0.0766181134844 0.92 2.04602299581e-38
0.0408629938583 -0.0766181134844 0.92 2.1106316832e-38
0.042473084649 -0.0764515523681 0.918 2.07375343126e-38
0.0441720080349 -0.0764515523681 0.918 2.09219255723e-38
0.0458709314209 -0.0764515523681 0.918 2.09219255723e-38
0.0475698548068 -0.0764515523681 0.918 2.02765561632e-38
0.0491077691137 -0.0762017106937 0.915 2.0460947423e-38
0.0508011404625 -0.0762017106937 0.915 2.11063140294e-38
0.0524945118112 -0.0762017106937 0.915 2.05531374476e-38
0.05418788316 -0.0762017106937 0.915 2.04612977476e-38
0.0557591096901 -0.0760351495774 0.913 2.0276550558e-38
0.0570083180621 -0.0754521856705 0.906 2.05531402502e-38
0.0586850332993 -0.0754521856705 0.906 2.12907080917e-38
0.0601618751969 -0.0752023439961 0.903 2.03687517931e-38
0.0614906627689 -0.0747859412054 0.898 2.08297299424e-38
0.0631525725735 -0.0747859412054 0.898 2.00921649035e-38
0.064814482378 -0.0747859412054 0.898 2.05531402502e-38
0.0666984736709 -0.0750357828798 0.901 2.1105232227e-38
-0.0199429176548 -0.0731240314008 0.898 1.90798052357e-38
-0.0182810078502 -0.0731240314008 0.898 2.2859107194e-38
-0.0166746184177 -0.073368321038 0.901 2.35044780044e-38
-0.0150404687992 -0.0735311807962 0.903 2.13825379827e-38
-0.0133693055993 -0.0735311807962 0.903 2.16602122799e-38
-0.0116981423994 -0.0735311807962 0.903 2.05538675241e-38
-0.0100269791995 -0.0735311807962 0.903 2.16591360827e-38
-0.00835581599956 -0.0735311807962 0.903 2.02762016347e-38
-0.00670686094849 -0.0737754704334 0.906 2.11070413033e-38
-0.00503014571137 -0.0737754704334 0.906 2.05542276578e-38
-0.00335343047424 -0.0737754704334 0.906 1.99106561147e-38
-0.00168041659526 -0.0739383301915 0.908 2.02808777677e-38
0.0 -0.0739383301915 0.908 2.12003047226e-38
0.0016841179534 -0.0741011899496 0.91 2.13839743136e-38
0.00337933998122 -0.0743454795868 0.913 2.00010426683e-38
0.00506900997183 -0.0743454795868 0.913 2.09229989669e-38
0.006773485395 -0.074508339345 0.915 2.055421925e-38
0.00849461692979 -0.0747526289822 0.918 2.02772764306e-38
0.0101935403157 -0.0747526289822 0.918 2.11070370994e-38
0.0118924637017 -0.0747526289822 0.918 2.156801665e-38
0.0135913870877 -0.0747526289822 0.918 2.14758196189e-38
0.0152903104736 -0.0747526289822 0.918 2.18449580681e-38
0.017026247441 -0.0749154887403 0.92 2.05542164474e-38
0.0187288721851 -0.0749154887403 0.92 2.10151945968e-38
0.0204981213757 -0.0751597783775 0.923 2.15683683759e-38
0.022206298157 -0.0751597783775 0.923 2.11073902266e-38
0.0239144749383 -0.0751597783775 0.923 2.055421925e-38
0.0256781720917 -0.0753226381356 0.925 2.18449580681e-38
0.0273900502311 -0.0753226381356 0.925 2.10151945968e-38
0.0291019283706 -0.0753226381356 0.925 2.12917814864e-38
0.03081380651 -0.0753226381356 0.925 2.07386105098e-38
0.0325256846495 -0.0753226381356 0.925 2.10141183995e-38
0.0342375627889 -0.0753226381356 0.925 2.07375343126e-38
0.0358717124074 -0.0751597783775 0.923 2.09219255723e-38
0.0374577443701 -0.0749154887403 0.92 2.12899906269e-38
0.0391603691142 -0.0749154887403 0.92 2.0552425588e-38
0.0408629938583 -0.0749154887403 0.92 2.04605900919e-38
0.042473084649 -0.0747526289822 0.918 2.0368394462e-38
0.0441720080349 -0.0747526289822 0.918 2.07375343126e-38
0.0458709314209 -0.0747526289822 0.918 1.9999966471e-38
0.0475698548068 -0.0747526289822 0.918 2.08297271398e-38
0.0491077691137 -0.074508339345 0.915 2.04609446204e-38
0.0508011404625 -0.074508339345 0.915 2.11063112268e-38
0.0524945118112 -0.074508339345 0.915 2.09219199671e-38
0.05418788316 -0.074508339345 0.915 2.10144715268e-38
0.0557591096901 -0.0743454795868 0.913 2.01843549282e-38
0.0571341642389 -0.0739383301915 0.908 2.06453358801e-38
0.0586850332993 -0.0737754704334 0.906 2.07371769814e-38
0.0601618751969 -0.0735311807962 0.903 2.01840060049e-38
0.0618330383968 -0.0735311807962 0.903 2.02761988321e-38
0.0635042015967 -0.0735311807962 0.903 2.07375343126e-38
0.0650310118292 -0.073368321038 0.901 2.02765533606e-38
0.0664763921826 -0.0731240314008 0.898 2.0459862818e-38
0.0681383019871 -0.0731240314008 0.898 2.05520584478e-38
-0.0216048274593 -0.0714621215963 0.898 2.29520174861e-38
-0.0199429176548 -0.0714621215963 0.898 2.23981318473e-38
-0.0182810078502 -0.0714621215963 0.898 2.08304516111e-38
-0.0166746184177 -0.0717008591963 0.901 2.10137666736e-38
-0.0150404687992 -0.0718600175963 0.903 2.14743916957e-38
-0.0133693055993 -0.0718600175963 0.903 2.00010538787e-38
-0.0116981423994 -0.0718600175963 0.903 2.17531267759e-38
-0.0100269791995 -0.0718600175963 0.903 2.10148428709e-38
-0.00835581599956 -0.0718600175963 0.903 2.16591332801e-38
-0.00670686094849 -0.0720987551962 0.906 2.0922647241e-38
-0.00503014571137 -0.0720987551962 0.906 2.1015561737e-38
-0.00335343047424 -0.0720987551962 0.906 2.08318907446e-38
-0.00168041659526 -0.0722579135962 0.908 2.09255241067e-38
0.0 -0.0724170719962 0.91 2.02779952968e-38
0.0016841179534 -0.0724170719962 0.91 2.1291784289e-38
0.00337933998122 -0.0726558095962 0.913 2.06464148799e-38
0.00508011404625 -0.0728149679962 0.915 2.08304502098e-38
0.006773485395 -0.0728149679962 0.915 2.08304502098e-38
0.00849461692979 -0.0730537055962 0.918 2.11070370994e-38
0.0101935403157 -0.0730537055962 0.918 2.06460589501e-38
0.0118924637017 -0.0730537055962 0.918 2.10148414696e-38
0.0136209979528 -0.0732128639962 0.92 2.08304502098e-38
0.0153236226969 -0.0732128639962 0.92 2.08304502098e-38
0.017026247441 -0.0732128639962 0.92 2.05542164474e-38
0.0187899445944 -0.0734516015962 0.923 2.14761727461e-38
0.0204981213757 -0.0734516015962 0.923 2.0830803337e-38
0.022206298157 -0.0734516015962 0.923 2.14761727461e-38
0.0239662939522 -0.0736107599962 0.925 2.03698279903e-38
0.0256781720917 -0.0736107599962 0.925 2.03694720605e-38
0.0273900502311 -0.0736107599962 0.925 2.09229989669e-38
0.0291019283706 -0.0736107599962 0.925 2.03698251877e-38
0.03081380651 -0.0736107599962 0.925 2.06464148799e-38
0.0325256846495 -0.0736107599962 0.925 2.1382900919e-38
0.0342375627889 -0.0736107599962 0.925 2.10141212021e-38
0.0359494409284 -0.0736107599962 0.925 2.00921649035e-38
0.0374577443701 -0.0732128639962 0.92 2.13821862568e-38
0.0391603691142 -0.0732128639962 0.92 2.03680343283e-38
0.0408629938583 -0.0732128639962 0.92 2.0737179784e-38
0.042473084649 -0.0730537055962 0.918 2.03683972646e-38
0.0441720080349 -0.0730537055962 0.918 2.07375343126e-38
0.0458709314209 -0.0730537055962 0.918 2.03687489905e-38
0.0475698548068 -0.0730537055962 0.918 2.04609418178e-38
0.0491077691137 -0.0728149679962 0.915 1.99077680386e-38
0.0508011404625 -0.0728149679962 0.915 2.0276550558e-38
0.0524945118112 -0.0728149679962 0.915 2.00921592983e-38
0.05418788316 -0.0728149679962 0.915 2.13832540462e-38
0.0557591096901 -0.0726558095962 0.913 2.11063112268e-38
0.0571341642389 -0.0722579135962 0.908 2.0460947423e-38
0.0586850332993 -0.0720987551962 0.906 2.0737179784e-38
0.0603617485364 -0.0720987551962 0.906 2.06449869568e-38
0.0618330383968 -0.0718600175963 0.903 2.02762016347e-38
0.0635042015967 -0.0718600175963 0.903 2.09219255723e-38
0.0651753647966 -0.0718600175963 0.903 2.08297271398e-38
0.0664763921826 -0.0714621215963 0.898 2.09219199671e-38
0.0681383019871 -0.0714621215963 0.898 2.03687489905e-38
0.0701888543963 -0.0718600175963 0.903 2.06453386827e-38
-0.0263832808172 -0.0692561121452 0.891 1.63150111358e-38
-0.0247343257662 -0.0692561121452 0.891 2.31367618731e-38
-0.023163099236 -0.069489297708 0.894 2.19382214874e-38
-0.0215567098035 -0.0696447547499 0.896 2.10159106603e-38
-0.0199429176548 -0.0698002117917 0.898 2.0370188124e-38
-0.0182810078502 -0.0698002117917 0.898 2.14761839565e-38
-0.0166746184177 -0.0700333973545 0.901 2.00010594839e-38
-0.0150404687992 -0.0701888543963 0.903 2.20286472773e-38
-0.0133693055993 -0.0701888543963 0.903 2.12013949328e-38
-0.0117370066599 -0.0704220399591 0.906 2.17542043744e-38
-0.0100602914227 -0.0704220399591 0.906 2.05545821863e-38
-0.00838357618561 -0.0704220399591 0.906 2.1383623989e-38
-0.00670686094849 -0.0704220399591 0.906 2.13829037216e-38
-0.00503014571137 -0.0704220399591 0.906 2.08304502098e-38
-0.00336083319052 -0.070577497001 0.908 2.05545821863e-38
-0.00168041659526 -0.070577497001 0.908 2.13854218549e-38
0.0 -0.0707329540428 0.91 2.08308145474e-38
0.00168966999061 -0.0709661396056 0.913 2.11992369332e-38
0.0033867426975 -0.0711215966475 0.915 2.09226500436e-38
0.00508011404625 -0.0711215966475 0.915 2.19368019721e-38
0.006773485395 -0.0711215966475 0.915 2.04616690917e-38
0.00849461692979 -0.0713547822102 0.918 2.1383623989e-38
0.0101935403157 -0.0713547822102 0.918 2.02776323605e-38
0.0118924637017 -0.0713547822102 0.918 2.09230017695e-38
0.0136209979528 -0.0715102392521 0.92 2.16602122799e-38
0.0153236226969 -0.0715102392521 0.92 2.13836253903e-38
0.0170817678131 -0.0717434248149 0.923 2.1937153698e-38
0.0187899445944 -0.0717434248149 0.923 2.09229989669e-38
0.0204981213757 -0.0717434248149 0.923 2.11073902266e-38
0.022206298157 -0.0717434248149 0.923 2.10151973994e-38
0.0239662939522 -0.0718988818567 0.925 2.12914283591e-38
0.0256781720917 -0.0718988818567 0.925 2.0922647241e-38
0.0273900502311 -0.0718988818567 0.925 2.15683711785e-38
0.0291019283706 -0.0718988818567 0.925 2.16605640058e-38
0.03081380651 -0.0718988818567 0.925 2.055421925e-38
0.0325256846495 -0.0718988818567 0.925 2.1382900919e-38
0.0342375627889 -0.0718988818567 0.925 2.12907080917e-38
0.0359494409284 -0.0718988818567 0.925 2.16594906112e-38
0.0375798891887 -0.0717434248149 0.923 2.14743818866e-38
0.0391603691142 -0.0715102392521 0.92 2.10134037373e-38
0.0408629938583 -0.0715102392521 0.92 2.1198160736e-38
0.042473084649 -0.0713547822102 0.918 2.06449869568e-38
0.0441720080349 -0.0713547822102 0.918 2.08293726113e-38
0.0458709314209 -0.0713547822102 0.918 2.11985096593e-38
0.0475698548068 -0.0713547822102 0.918 2.12907024865e-38
0.0491077691137 -0.0711215966475 0.915 2.12910584163e-38
0.0508011404625 -0.0711215966475 0.915 2.14750937463e-38
0.0524945118112 -0.0711215966475 0.915 2.09219227697e-38
0.05418788316 -0.0711215966475 0.915 2.02769064879e-38
0.0557591096901 -0.0709661396056 0.913 2.11063112268e-38
0.0572600104156 -0.0707329540428 0.91 2.01843605334e-38
0.0588145808341 -0.070577497001 0.908 2.07371825866e-38
0.0604949974294 -0.070577497001 0.908 2.13821960659e-38
0.0620384637735 -0.0704220399591 0.906 2.05527913269e-38
0.0637151790106 -0.0704220399591 0.906 2.08293726113e-38
0.0653918942478 -0.0704220399591 0.906 2.02765533606e-38
0.0668465279965 -0.0701888543963 0.903 2.06464148799e-38
0.0685176911964 -0.0701888543963 0.903 2.073825458e-38
0.0701888543963 -0.0701888543963 0.903 2.11992341306e-38
0.0717008591963 -0.0700333973545 0.901 2.00936054383e-38
0.0731240314008 -0.0698002117917 0.898 2.14758196189e-38
0.0747859412054 -0.0698002117917 0.898 2.01854367306e-38
0.07644785101 -0.0698002117917 0.898 2.12917786838e-38
0.077935796982 -0.0696447547499 0.896 1.98170059371e-38
0.0795940054284 -0.0696447547499 0.896 2.24903246746e-38
0.0807987975028 -0.0692561121452 0.891 2.35048395394e-38
0.0824477525538 -0.0692561121452 0.891 1.63146622125e-38
-0.0296811909194 -0.0676071570942 0.891 1.73295414149e-38
-0.0280322358683 -0.0676071570942 0.891 2.26768879469e-38
-0.0263832808172 -0.0676071570942 0.891 2.25839622406e-38
-0.0247343257662 -0.0676071570942 0.891 2.16612828719e-38
-0.023163099236 -0.0678347906197 0.894 2.12925003525e-38
-0.0215567098035 -0.0679865463034 0.896 2.08311662733e-38
-0.0199429176548 -0.0681383019871 0.898 2.08322480758e-38
-0.0182810078502 -0.0681383019871 0.898 2.10166393355e-38
-0.0166746184177 -0.0683659355127 0.901 2.10162820044e-38
-0.0150404687992 -0.0685176911964 0.903 2.07396979174e-38
-0.0133693055993 -0.0685176911964 0.903 2.03723489263e-38
-0.0117370066599 -0.068745324722 0.906 2.00961179665e-38
-0.0100602914227 -0.068745324722 0.906 2.13854190523e-38
-0.00838357618561 -0.068745324722 0.906 2.09230017695e-38
-0.00670686094849 -0.068745324722 0.906 2.11063140294e-38
-0.00504124978578 -0.0688970804057 0.908 2.17516834385e-38
-0.00336083319052 -0.0688970804057 0.908 2.17527624383e-38
-0.0016841179534 -0.0690488360894 0.91 2.17527624383e-38
0.0 -0.069276469615 0.913 2.1198883806e-38
0.00168966999061 -0.069276469615 0.913 2.12910822384e-38
0.0033867426975 -0.0694282252987 0.915 2.09222969164e-38
0.00508011404625 -0.0694282252987 0.915 2.10144897436e-38
0.006773485395 -0.0694282252987 0.915 2.10148428709e-38
0.00849461692979 -0.0696558588243 0.918 2.17524065085e-38
0.0101935403157 -0.0696558588243 0.918 2.08308061396e-38
0.0119183732087 -0.069807614508 0.92 2.16605640058e-38
0.0136209979528 -0.069807614508 0.92 2.14758238228e-38
0.0153236226969 -0.069807614508 0.92 2.0000693745e-38
0.0170817678131 -0.0700352480336 0.923 2.17524065085e-38
0.0187899445944 -0.0700352480336 0.923 2.13839799188e-38
0.0205425376733 -0.0701870037173 0.925 2.16605668084e-38
0.0222544158128 -0.0701870037173 0.925 2.05538633202e-38
0.0239662939522 -0.0701870037173 0.925 2.02772778319e-38
0.0256781720917 -0.0701870037173 0.925 2.18442504124e-38
0.0273900502311 -0.0701870037173 0.925 2.17527624383e-38
0.0291019283706 -0.0701870037173 0.925 2.19371508954e-38
0.03081380651 -0.0701870037173 0.925 2.09230017695e-38
0.0326311733564 -0.0704146372428 0.928 2.16594878086e-38
0.0342375627889 -0.0701870037173 0.925 2.15672949813e-38
0.0359494409284 -0.0701870037173 0.925 2.02765561632e-38
0.0376613190678 -0.0701870037173 0.925 2.06446212179e-38
0.03928806597 -0.0700352480336 0.923 2.0552425588e-38
0.0409962427514 -0.0700352480336 0.923 2.11056091763e-38
0.0425656186024 -0.069807614508 0.92 2.02762044373e-38
0.0441720080349 -0.0696558588243 0.918 2.04605900919e-38
0.0458709314209 -0.0696558588243 0.918 2.1382900919e-38
0.0475698548068 -0.0696558588243 0.918 2.15676453059e-38
0.0492687781928 -0.0696558588243 0.918 2.05534933774e-38
0.0509677015787 -0.0696558588243 0.918 2.00921592983e-38
0.0524945118112 -0.0694282252987 0.915 2.09219227697e-38
0.05418788316 -0.0694282252987 0.915 2.07378846372e-38
0.0558812545087 -0.0694282252987 0.915 2.10141155969e-38
0.0572600104156 -0.0690488360894 0.91 2.02761988321e-38
0.0588145808341 -0.0688970804057 0.908 2.1843530145e-38
0.0604949974294 -0.0688970804057 0.908 2.08290250893e-38
0.0621754140247 -0.0688970804057 0.908 2.0460595697e-38
0.0637151790106 -0.068745324722 0.906 2.15669376502e-38
0.0653918942478 -0.068745324722 0.906 2.04609446204e-38
0.0668465279965 -0.0685176911964 0.903 2.01868758641e-38
0.0685176911964 -0.0685176911964 0.903 2.04634655563e-38
0.0700333973545 -0.0683659355127 0.901 2.03709125953e-38
0.0717008591963 -0.0683659355127 0.901 2.00021300759e-38
0.0731240314008 -0.0681383019871 0.898 2.06467778162e-38
0.0747859412054 -0.0681383019871 0.898 2.01857968643e-38
0.0762775885356 -0.0679865463034 0.896 2.03701797162e-38
0.077935796982 -0.0679865463034 0.896 2.01857856539e-38
0.0794163402377 -0.0678347906197 0.894 2.03698251877e-38
0.0807987975028 -0.0676071570942 0.891 2.11995886591e-38
0.0822626846469 -0.0674554014104 0.889 2.35066402079e-38
0.0839079383398 -0.0674554014104 0.889 1.81585748097e-38
0.0855531920328 -0.0674554014104 0.889 1.23513291281e-38
-0.0311894943612 -0.0656620933919 0.887 2.05581807208e-38
-0.0295479420264 -0.0656620933919 0.887 2.21255064285e-38
-0.0280322358683 -0.0659582020431 0.891 2.04656249572e-38
-0.0263832808172 -0.0659582020431 0.891 2.02794358316e-38
-0.0247343257662 -0.0659582020431 0.891 2.13850645238e-38
-0.023163099236 -0.0661802835314 0.894 2.03709125953e-38
-0.0215567098035 -0.066328337857 0.896 2.06467792175e-38
-0.0199429176548 -0.0664763921826 0.898 2.11995970669e-38
-0.0182810078502 -0.0664763921826 0.898 2.0462032028e-38
-0.0166746184177 -0.0666984736709 0.901 2.10152058072e-38
-0.0150404687992 -0.0668465279965 0.903 2.10152086097e-38
-0.0133693055993 -0.0668465279965 0.903 2.1016284807e-38
-0.0117370066599 -0.0670686094849 0.906 2.11091950991e-38
-0.0100602914227 -0.0670686094849 0.906 2.120102499e-38
-0.00838357618561 -0.0670686094849 0.906 2.11081048888e-38
-0.00670686094849 -0.0670686094849 0.906 2.1661278668e-38
-0.00504124978578 -0.0672166638105 0.908 2.16605612032e-38
-0.00336083319052 -0.0672166638105 0.908 2.15683711785e-38
-0.0016841179534 -0.067364718136 0.91 2.10148428709e-38
0.0 -0.0675867996244 0.913 2.10152058072e-38
0.00169337134875 -0.06773485395 0.915 2.05542276578e-38
0.0033867426975 -0.06773485395 0.915 2.11999529967e-38
0.00508011404625 -0.06773485395 0.915 2.17531253746e-38
0.00679569354383 -0.0679569354383 0.918 1.99092127773e-38
0.00849461692979 -0.0679569354383 0.918 2.06467792175e-38
0.0101935403157 -0.0679569354383 0.918 2.14761839565e-38
0.0119183732087 -0.0681049897639 0.92 2.09230101773e-38
0.0136209979528 -0.0681049897639 0.92 2.14758238228e-38
0.0153236226969 -0.0681049897639 0.92 2.19367991695e-38
0.0170817678131 -0.0683270712523 0.923 2.22133846578e-38
0.0188306595339 -0.0684751255778 0.925 2.10148414696e-38
0.0205425376733 -0.0684751255778 0.925 2.00010454709e-38
0.0222544158128 -0.0684751255778 0.925 2.17527624383e-38
0.0239662939522 -0.0684751255778 0.925 2.07386105098e-38
0.0256781720917 -0.0684751255778 0.925 2.11995886591e-38
0.0273900502311 -0.0684751255778 0.925 2.12917786838e-38
0.0291963130031 -0.0686972070662 0.928 2.15687229045e-38
0.0309137431798 -0.0686972070662 0.928 2.08308005344e-38
0.0326311733564 -0.0686972070662 0.928 2.1107387424e-38
0.0343486035331 -0.0686972070662 0.928 2.05542164474e-38
0.0360660337097 -0.0686972070662 0.928 2.04620236202e-38
0.0376613190678 -0.0684751255778 0.925 2.07386105098e-38
0.0393731972073 -0.0684751255778 0.925 2.06453386827e-38
0.0409962427514 -0.0683270712523 0.923 2.13825519957e-38
0.0427044195327 -0.0683270712523 0.923 2.08293782165e-38
0.0442682433465 -0.0681049897639 0.92 2.10137666736e-38
0.0458709314209 -0.0679569354383 0.918 2.12903507606e-38
0.0475698548068 -0.0679569354383 0.918 2.05531430528e-38
0.0492687781928 -0.0679569354383 0.918 2.17516834385e-38
0.0509677015787 -0.0679569354383 0.918 2.00921621009e-38
0.0524945118112 -0.06773485395 0.915 2.15672921787e-38
0.05418788316 -0.06773485395 0.915 2.04612935437e-38
0.0558812545087 -0.06773485395 0.915 2.14754496761e-38
0.0574487796807 -0.0675867996244 0.913 2.05527885243e-38
0.058944128369 -0.067364718136 0.91 2.08293782165e-38
0.0604949974294 -0.0672166638105 0.908 2.09215710438e-38
0.0621754140247 -0.0672166638105 0.908 2.09219255723e-38
0.0637151790106 -0.0670686094849 0.906 2.15672949813e-38
0.0653918942478 -0.0670686094849 0.906 2.04605900919e-38
0.0668465279965 -0.0668465279965 0.903 2.01854367306e-38
0.0685176911964 -0.0668465279965 0.903 2.00010454709e-38
0.0700333973545 -0.0666984736709 0.901 2.08304502098e-38
0.0717008591963 -0.0666984736709 0.901 1.99084953125e-38
0.0731240314008 -0.0664763921826 0.898 2.01847290749e-38
0.0747859412054 -0.0664763921826 0.898 2.07371825866e-38
0.0762775885356 -0.066328337857 0.896 2.03684000672e-38
0.077935796982 -0.066328337857 0.896 2.11056091763e-38
0.0794163402377 -0.0661802835314 0.894 2.05527857217e-38
0.0807987975028 -0.0659582020431 0.891 2.08297299424e-38
0.0822626846469 -0.0658101477175 0.889 1.95386337932e-38
0.0839079383398 -0.0658101477175 0.889 2.28587554681e-38
0.0853607214095 -0.0656620933919 0.887 2.35052024757e-38
0.0870022737443 -0.0656620933919 0.887 1.26268342153e-38
-0.0342782777284 -0.0636596586385 0.882 1.80674581797e-38
-0.032645978789 -0.0636596586385 0.882 2.29538265624e-38
-0.0310136798495 -0.0636596586385 0.882 2.17552833742e-38
-0.0294813175799 -0.0638761880897 0.885 2.08333270756e-38
-0.0279693127799 -0.0641648940246 0.889 2.0556740186e-38
-0.026324059087 -0.0641648940246 0.889 2.02794358316e-38
-0.0248176063243 -0.0645257764432 0.894 2.12006732641e-38
-0.023163099236 -0.0645257764432 0.894 2.09240891771e-38
-0.0215567098035 -0.0646701294106 0.896 2.15683795863e-38
-0.0199429176548 -0.064814482378 0.898 2.083081735e-38
-0.0182810078502 -0.064814482378 0.898 2.13832722631e-38
-0.0166746184177 -0.0650310118292 0.901 2.18442504124e-38
-0.0150404687992 -0.0651753647966 0.903 2.15676635228e-38
-0.0133693055993 -0.0651753647966 0.903 2.10152086097e-38
-0.0117370066599 -0.0653918942478 0.906 2.1292868894e-38
-0.0100602914227 -0.0653918942478 0.906 2.20307884614e-38
-0.00838357618561 -0.0653918942478 0.906 2.14768874083e-38
-0.00670686094849 -0.0653918942478 0.906 2.06471267395e-38
-0.00504124978578 -0.0655362472152 0.908 2.13839743136e-38
-0.00336083319052 -0.0655362472152 0.908 2.18446021383e-38
-0.0016841179534 -0.0656806001826 0.91 2.09226500436e-38
0.0 -0.0658971296338 0.913 2.1107401437e-38
0.00169337134875 -0.0660414826012 0.915 2.11077573668e-38
0.0033867426975 -0.0660414826012 0.915 2.13843428551e-38
0.00508011404625 -0.0660414826012 0.915 2.15687341148e-38
0.00679569354383 -0.0662580120524 0.918 2.11999515954e-38
0.00849461692979 -0.0662580120524 0.918 2.15687355161e-38
0.0101935403157 -0.0662580120524 0.918 2.13839911292e-38
0.0119183732087 -0.0664023650198 0.92 2.11992467423e-38
0.0136209979528 -0.0664023650198 0.92 2.09226500436e-38
0.0153236226969 -0.0664023650198 0.92 2.12914297604e-38
0.0170817678131 -0.0666188944709 0.923 2.12914283591e-38
0.0188306595339 -0.0667632474384 0.925 2.16602108786e-38
0.0205425376733 -0.0667632474384 0.925 2.09230017695e-38
0.0222544158128 -0.0667632474384 0.925 2.13839799188e-38
0.0239662939522 -0.0667632474384 0.925 2.10151945968e-38
0.0256781720917 -0.0667632474384 0.925 2.17527596357e-38
0.0274788828265 -0.0669797768895 0.928 2.13843316447e-38
0.0291963130031 -0.0669797768895 0.928 2.0554570976e-38
0.0309137431798 -0.0669797768895 0.928 2.07386049046e-38
0.0326311733564 -0.0669797768895 0.928 2.1107387424e-38
0.0343486035331 -0.0669797768895 0.928 2.16605640058e-38
0.0360660337097 -0.0669797768895 0.928 2.10151973994e-38
0.0376613190678 -0.0667632474384 0.925 2.06464148799e-38
0.0393731972073 -0.0667632474384 0.925 2.07386105098e-38
0.0409962427514 -0.0666188944709 0.923 2.0368394462e-38
0.0427044195327 -0.0666188944709 0.923 2.11981579334e-38
0.0442682433465 -0.0664023650198 0.92 2.11059623035e-38
0.0458709314209 -0.0662580120524 0.918 2.12903507606e-38
0.0475698548068 -0.0662580120524 0.918 2.16591332801e-38
0.0492687781928 -0.0662580120524 0.918 2.0460947423e-38
0.0509677015787 -0.0662580120524 0.918 2.06453358801e-38
0.0524945118112 -0.0660414826012 0.915 2.09219227697e-38
0.05418788316 -0.0660414826012 0.915 2.06456848034e-38
0.0558812545087 -0.0660414826012 0.915 2.07378846372e-38
0.0574487796807 -0.0658971296338 0.913 2.09215710438e-38
0.058944128369 -0.0656806001826 0.91 2.12903563658e-38
0.0606282463224 -0.0656806001826 0.91 2.11059595009e-38
0.0621754140247 -0.0655362472152 0.908 2.01843577308e-38
0.0638558306199 -0.0655362472152 0.908 2.03687489905e-38
0.0653918942478 -0.0653918942478 0.906 2.06449813516e-38
0.0670686094849 -0.0653918942478 0.906 2.11985124619e-38
0.0685176911964 -0.0651753647966 0.903 2.11063140294e-38
0.0700333973545 -0.0650310118292 0.901 2.1751686241e-38
0.0717008591963 -0.0650310118292 0.901 2.09215682412e-38
0.0731240314008 -0.064814482378 0.898 2.01840060049e-38
0.0747859412054 -0.064814482378 0.898 2.11059651061e-38
0.0762775885356 -0.0646701294106 0.896 2.11978048061e-38
0.077935796982 -0.0646701294106 0.896 2.07368294594e-38
0.0794163402377 -0.0645257764432 0.894 2.07371769814e-38
0.0807987975028 -0.064309246992 0.891 2.06453386827e-38
0.0822626846469 -0.0641648940246 0.889 2.17513289099e-38
0.0839079383398 -0.0641648940246 0.889 1.94475171632e-38
0.0853607214095 -0.0640205410571 0.887 2.11992327293e-38
0.0870022737443 -0.0640205410571 0.887 2.35051996731e-38
0.0886438260791 -0.0640205410571 0.887 1.80656491034e-38
-0.0359105766679 -0.0620273596991 0.882 2.35070017429e-38
-0.0342782777284 -0.0620273596991 0.882 2.23077382873e-38
-0.032645978789 -0.0620273596991 0.882 2.12013907289e-38
-0.0310136798495 -0.0620273596991 0.882 2.14779776185e-38
-0.0294813175799 -0.062238337113 0.885 2.09248038393e-38
-0.0279063896916 -0.0623789887223 0.887 2.11091950991e-38
-0.0262648373568 -0.0623789887223 0.887 2.05553038551e-38
-0.0248176063243 -0.0628712693549 0.894 2.10162820044e-38
-0.023163099236 -0.0628712693549 0.894 2.12006732641e-38
-0.0215567098035 -0.0630119209642 0.896 2.17527708461e-38
-0.0199429176548 -0.0631525725735 0.898 2.10152058072e-38
-0.0182810078502 -0.0631525725735 0.898 2.13832722631e-38
-0.0166746184177 -0.0633635499874 0.901 2.15676635228e-38
-0.0150404687992 -0.0635042015967 0.903 2.17520547825e-38
-0.0133693055993 -0.0635042015967 0.903 2.16605808214e-38
-0.0117370066599 -0.0637151790106 0.906 2.12928716966e-38
-0.0100602914227 -0.0637151790106 0.906 2.14776174848e-38
-0.00838357618561 -0.0637151790106 0.906 2.11081090927e-38
-0.00670686094849 -0.0637151790106 0.906 2.14768916122e-38
-0.00504124978578 -0.0638558306199 0.908 2.16605668084e-38
-0.0033682359068 -0.0639964822292 0.91 2.16602122799e-38
-0.00168966999061 -0.0642074596432 0.913 2.12910766332e-38
0.0 -0.0643481112525 0.915 2.17527736487e-38
0.00169337134875 -0.0643481112525 0.915 2.10152058072e-38
0.0033867426975 -0.0643481112525 0.915 2.1015561737e-38
0.00509677015787 -0.0645590886664 0.918 2.15687355161e-38
0.00679569354383 -0.0645590886664 0.918 2.02779966981e-38
0.00849461692979 -0.0645590886664 0.918 2.07386189176e-38
0.0102157484646 -0.0646997402757 0.92 2.08308201526e-38
0.0119183732087 -0.0646997402757 0.92 2.17524205214e-38
0.0136209979528 -0.0646997402757 0.92 2.04616718943e-38
0.0153735910318 -0.0649107176896 0.923 2.12914297604e-38
0.0171187813945 -0.0650513692989 0.925 2.09226458397e-38
0.0188306595339 -0.0650513692989 0.925 2.1383623989e-38
0.0205425376733 -0.0650513692989 0.925 2.16605668084e-38
0.0222544158128 -0.0650513692989 0.925 2.11995886591e-38
0.0239662939522 -0.0650513692989 0.925 2.11073902266e-38
0.0257614526498 -0.0652623467129 0.928 2.15683683759e-38
0.0274788828265 -0.0652623467129 0.928 2.06464092747e-38
0.0291963130031 -0.0652623467129 0.928 2.12917786838e-38
0.0309137431798 -0.0652623467129 0.928 2.11995830539e-38
0.0326311733564 -0.0652623467129 0.928 2.15683683759e-38
0.0343486035331 -0.0652623467129 0.928 2.06464120773e-38
0.0360660337097 -0.0652623467129 0.928 2.08308061396e-38
0.0376613190678 -0.0650513692989 0.925 2.08308061396e-38
0.0393731972073 -0.0650513692989 0.925 2.07386105098e-38
0.0409962427514 -0.0649107176896 0.923 2.12907080917e-38
0.0427044195327 -0.0649107176896 0.923 2.08293726113e-38
0.0442682433465 -0.0646997402757 0.92 2.08297299424e-38
0.0459708680906 -0.0646997402757 0.92 2.07375343126e-38
0.0475698548068 -0.0645590886664 0.918 2.06453358801e-38
0.0492687781928 -0.0645590886664 0.918 2.10141183995e-38
0.0509677015787 -0.0645590886664 0.918 2.1659485006e-38
0.0524945118112 -0.0643481112525 0.915 2.09219199671e-38
0.05418788316 -0.0643481112525 0.915 2.11988585826e-38
0.0558812545087 -0.0643481112525 0.915 2.03687461879e-38
0.0574487796807 -0.0642074596432 0.913 2.11981579334e-38
0.0591384496713 -0.0642074596432 0.913 2.06449841542e-38
0.0606282463224 -0.0639964822292 0.91 2.13829037216e-38
0.0621754140247 -0.0638558306199 0.908 2.14750937463e-38
0.0638558306199 -0.0638558306199 0.908 2.16594878086e-38
0.0653918942478 -0.0637151790106 0.906 2.1013763871e-38
0.0670686094849 -0.0637151790106 0.906 2.18438818709e-38
0.068745324722 -0.0637151790106 0.906 2.08297271398e-38
0.0701888543963 -0.0635042015967 0.903 2.11985096593e-38
0.0717008591963 -0.0633635499874 0.901 2.03687489905e-38
0.0731240314008 -0.0631525725735 0.898 2.1751686241e-38
0.0746193800891 -0.0630119209642 0.896 2.09219255723e-38
0.0762775885356 -0.0630119209642 0.896 2.09219255723e-38
0.077935796982 -0.0630119209642 0.896 2.11985124619e-38
0.0794163402377 -0.0628712693549 0.894 2.1106316832e-38
0.0807987975028 -0.0626602919409 0.891 2.08297299424e-38
0.0822626846469 -0.0625196403316 0.889 2.12903507606e-38
0.0839079383398 -0.0625196403316 0.889 2.07382559813e-38
0.0853607214095 -0.0623789887223 0.887 2.01850808008e-38
0.0870022737443 -0.0623789887223 0.887 1.91716449358e-38
0.0886438260791 -0.0623789887223 0.887 2.06471281408e-38
-0.042102948835 -0.0599157348806 0.875 2.35084324686e-38
-0.0404836046491 -0.0599157348806 0.875 1.6593756025e-38
-0.0389975093561 -0.0601211602573 0.878 1.97258977148e-38
-0.0374577443701 -0.0602581105085 0.88 2.23984947836e-38
-0.0358291467888 -0.0602581105085 0.88 2.06467778162e-38
-0.0342005492075 -0.0602581105085 0.88 2.19375166343e-38
-0.032645978789 -0.0603950607596 0.882 2.1476538485e-38
-0.0310136798495 -0.0603950607596 0.882 2.07389734461e-38
-0.0294813175799 -0.0606004861364 0.885 2.18453210044e-38
-0.0279063896916 -0.0607374363875 0.887 2.11999515954e-38
-0.0262648373568 -0.0607374363875 0.887 2.19385956341e-38
-0.0248176063243 -0.0612167622666 0.894 2.15698131147e-38
-0.023163099236 -0.0612167622666 0.894 2.1292868894e-38
-0.0215567098035 -0.0613537125177 0.896 2.11077573668e-38
-0.0199429176548 -0.0614906627689 0.898 2.11995970669e-38
-0.0182810078502 -0.0614906627689 0.898 2.08304544137e-38
-0.0166746184177 -0.0616960881456 0.901 2.1475467893e-38
-0.0150404687992 -0.0618330383968 0.903 2.19364460423e-38
-0.0133693055993 -0.0618330383968 0.903 2.08308201526e-38
-0.0117370066599 -0.0620384637735 0.906 2.14772657589e-38
-0.0100602914227 -0.0620384637735 0.906 2.14772601537e-38
-0.00838357618561 -0.0620384637735 0.906 2.1476538485e-38
-0.00672166638105 -0.0621754140247 0.908 2.13843428551e-38
-0.00504124978578 -0.0621754140247 0.908 2.11070370994e-38
-0.0033682359068 -0.0623123642758 0.91 2.09226500436e-38
-0.00168966999061 -0.0625177896526 0.913 2.08301012865e-38
0.0 -0.0626547399037 0.915 2.11996026721e-38
0.00169337134875 -0.0626547399037 0.915 2.09230129799e-38
0.0033867426975 -0.0626547399037 0.915 2.19371621058e-38
0.00509677015787 -0.0628601652804 0.918 2.08311704772e-38
0.00679569354383 -0.0628601652804 0.918 2.21215533655e-38
0.00851312372049 -0.0629971155316 0.92 2.17527736487e-38
0.0102157484646 -0.0629971155316 0.92 2.11996026721e-38
0.0119183732087 -0.0629971155316 0.92 2.12914423721e-38
0.0136209979528 -0.0629971155316 0.92 2.13836281929e-38
0.0153735910318 -0.0632025409083 0.923 2.19367991695e-38
0.0171187813945 -0.0633394911595 0.925 2.14758196189e-38
0.0188306595339 -0.0633394911595 0.925 2.16602108786e-38
0.0205425376733 -0.0633394911595 0.925 2.1291784289e-38
0.0222544158128 -0.0633394911595 0.925 2.14761755487e-38
0.0239662939522 -0.0633394911595 0.925 2.16605640058e-38
0.0257614526498 -0.0635449165362 0.928 2.16605640058e-38
0.0274788828265 -0.0635449165362 0.928 2.14761727461e-38
0.0291963130031 -0.0635449165362 0.928 2.14761727461e-38
0.0309137431798 -0.0635449165362 0.928 2.12917814864e-38
0.0326311733564 -0.0635449165362 0.928 2.16605640058e-38
0.0343486035331 -0.0635449165362 0.928 2.14761727461e-38
0.0360660337097 -0.0635449165362 0.928 2.15683711785e-38
0.0376613190678 -0.0633394911595 0.925 2.08308061396e-38
0.0393731972073 -0.0633394911595 0.925 2.055421925e-38
0.0409962427514 -0.0632025409083 0.923 2.00921621009e-38
0.0427044195327 -0.0632025409083 0.923 2.06453358801e-38
0.0442682433465 -0.0629971155316 0.92 2.12907024865e-38
0.0459708680906 -0.0629971155316 0.92 2.11985068567e-38
0.0475698548068 -0.0628601652804 0.918 2.11063112268e-38
0.0492687781928 -0.0628601652804 0.918 2.03687461879e-38
0.0509677015787 -0.0628601652804 0.918 2.1659485006e-38
0.0524945118112 -0.0626547399037 0.915 2.09222758969e-38
0.05418788316 -0.0626547399037 0.915 2.17520351644e-38
0.0558812545087 -0.0626547399037 0.915 2.04609446204e-38
0.0574487796807 -0.0625177896526 0.913 2.13825491931e-38
0.0591384496713 -0.0625177896526 0.913 2.14747448229e-38
0.0606282463224 -0.0623123642758 0.91 2.09219227697e-38
0.0621754140247 -0.0621754140247 0.908 2.06456890073e-38
0.0638558306199 -0.0621754140247 0.908 2.073753151e-38
0.0655362472152 -0.0621754140247 0.908 2.13825463905e-38
0.0670686094849 -0.0620384637735 0.906 2.09219255723e-38
0.068745324722 -0.0620384637735 0.906 2.03687489905e-38
0.0701888543963 -0.0618330383968 0.903 2.23970528475e-38
0.0717008591963 -0.0616960881456 0.901 2.00921592983e-38
0.0731240314008 -0.0614906627689 0.898 2.09219199671e-38
0.0746193800891 -0.0613537125177 0.896 2.0830080267e-38
0.0762775885356 -0.0613537125177 0.896 2.18442321955e-38
0.077935796982 -0.0613537125177 0.896 2.11066671566e-38
0.0794163402377 -0.0612167622666 0.894 2.04609418178e-38
0.0807987975028 -0.0610113368898 0.891 2.11985096593e-38
0.0822626846469 -0.0608743866387 0.889 2.07375343126e-38
0.0839079383398 -0.0608743866387 0.889 2.03694734618e-38
0.0853607214095 -0.0607374363875 0.887 2.073825458e-38
0.0870022737443 -0.0607374363875 0.887 2.11999487928e-38
0.0886438260791 -0.0607374363875 0.887 2.03705412512e-38
0.0902853784139 -0.0607374363875 0.887 2.17538302277e-38
-0.042102948835 -0.0582963906946 0.875 1.68692681187e-38
-0.0404836046491 -0.0582963906946 0.875 2.15708809041e-38
-0.0389975093561 -0.0584962640342 0.878 2.35087996088e-38
-0.0374577443701 -0.0586295129272 0.88 2.07389734461e-38
-0.0358291467888 -0.0586295129272 0.88 2.12921472253e-38
-0.0342005492075 -0.0586295129272 0.88 2.09233647058e-38
-0.032645978789 -0.0587627618202 0.882 2.11077559655e-38
-0.0311191685565 -0.0589626351597 0.885 2.2121907894e-38
-0.0294813175799 -0.0589626351597 0.885 2.16609297447e-38
-0.0279063896916 -0.0590958840527 0.887 2.13843428551e-38
-0.0262648373568 -0.0590958840527 0.887 2.19385956341e-38
-0.0248176063243 -0.0595622551783 0.894 2.08322480758e-38
-0.023163099236 -0.0595622551783 0.894 2.12932262251e-38
-0.0216048274593 -0.0598287529643 0.898 2.21219092953e-38
-0.0199429176548 -0.0598287529643 0.898 2.1660931146e-38
-0.0183420802595 -0.0600286263038 0.901 2.09226500436e-38
-0.0167116319991 -0.0601618751969 0.903 2.13836281929e-38
-0.0150904371341 -0.0603617485364 0.906 2.15680194526e-38
-0.013413721897 -0.0603617485364 0.906 2.11074042396e-38
-0.0117370066599 -0.0603617485364 0.906 2.12928744992e-38
-0.0100824995716 -0.0604949974294 0.908 2.1661654216e-38
-0.00840208297631 -0.0604949974294 0.908 2.12921486266e-38
-0.0067364718136 -0.0606282463224 0.91 2.19375180356e-38
-0.0050523538602 -0.0606282463224 0.91 2.09226500436e-38
-0.00337933998122 -0.0608281196619 0.913 2.20289976019e-38
-0.00168966999061 -0.0608281196619 0.913 2.1475467893e-38
0.0 -0.060961368555 0.915 2.09230157825e-38
0.00169337134875 -0.060961368555 0.915 2.11074070422e-38
0.0033867426975 -0.060961368555 0.915 2.21215533655e-38
0.00509677015787 -0.0611612418945 0.918 2.1015561737e-38
0.00679569354383 -0.0611612418945 0.918 2.11077573668e-38
0.00851312372049 -0.0612944907875 0.92 2.13839883266e-38
0.0102157484646 -0.0612944907875 0.92 2.21215561681e-38
0.0119572374691 -0.061494364127 0.923 2.07386245228e-38
0.0136950251156 -0.06162761302 0.925 2.21211932318e-38
0.015406903255 -0.06162761302 0.925 2.0922647241e-38
0.0171187813945 -0.06162761302 0.925 2.10148414696e-38
