# .PCD v0.7 - Point Cloud Data file format
VERSION 0.7
FIELDS x y z rgb
SIZE 4 4 4 4
TYPE F F F F
COUNT 1 1 1 1
WIDTH 847
HEIGHT 1
VIEWPOINT 0 0 0 1 0 0 0
POINTS 847
DATA ascii
0.041092478063 -0.03160959851 0.854 2.0556740186e-38
0.0425230529838 -0.0314985577658 0.851 2.11099153665e-38
0.0439943428442 -0.031424530603 0.849 2.05567415873e-38
0.0454582299883 -0.0313505034402 0.847 1.96344293588e-38
0.0470257551603 -0.0313505034402 0.847 1.98188206186e-38
-0.0802269376702 -0.0304862363147 0.867 2.22148420082e-38
-0.0786223989168 -0.0304862363147 0.867 2.0370188124e-38
-0.0771955253541 -0.0305565621193 0.869 2.04645445561e-38
-0.0755872852426 -0.0305565621193 0.869 2.09262499793e-38
-0.0741493076054 -0.030626887924 0.871 2.08340543495e-38
-0.072703927252 -0.0306972137286 0.873 2.06496630897e-38
-0.0710882844242 -0.0306972137286 0.873 2.08340543495e-38
-0.0694726415964 -0.0306972137286 0.873 2.08340543495e-38
-0.0680124558104 -0.0307675395333 0.875 2.09262499793e-38
-0.0663931116244 -0.0307675395333 0.875 2.03730733976e-38
-0.0649958489268 -0.0308730282403 0.878 2.05574674599e-38
-0.0633709527037 -0.0308730282403 0.878 2.05574702625e-38
-0.0618867080898 -0.0309433540449 0.88 2.02808805703e-38
-0.0602581105085 -0.0309433540449 0.88 2.08340543495e-38
-0.0586295129272 -0.0309433540449 0.88 2.05563856575e-38
-0.0571304628807 -0.0310136798495 0.882 2.13865022561e-38
-0.0554981639413 -0.0310136798495 0.882 2.13857819886e-38
-0.0540490822297 -0.0311191685565 0.885 2.11091950991e-38
-0.0524112312531 -0.0311191685565 0.885 2.17552847755e-38
-0.0507733802764 -0.0311191685565 0.885 2.0741132847e-38
-0.0491355292998 -0.0311191685565 0.885 2.16630891456e-38
-0.0474976783231 -0.0311191685565 0.885 2.09255241067e-38
-0.0458598273464 -0.0311191685565 0.885 2.12021109963e-38
-0.0442219763698 -0.0311191685565 0.885 2.17552847755e-38
-0.0426803607048 -0.0311894943612 0.887 2.18474804054e-38
-0.04103880837 -0.0311894943612 0.887 2.12021109963e-38
-0.0393972560352 -0.0311894943612 0.887 2.18474790041e-38
-0.0377557037004 -0.0311894943612 0.887 2.19400305637e-38
-0.0361141513656 -0.0311894943612 0.887 2.24928484131e-38
-0.0344725990308 -0.0311894943612 0.887 2.23084585547e-38
0.0115167758506 -0.0312598201658 0.889 2.18471300808e-38
0.0131620295435 -0.0312598201658 0.889 2.22173419246e-38
0.0147739710132 -0.0311894943612 0.887 2.24020933181e-38
0.016415523348 -0.0311894943612 0.887 2.23099004908e-38
0.0179552883339 -0.0310136798495 0.882 2.24942945531e-38
0.0195431709757 -0.0309433540449 0.88 2.25861342532e-38
0.021171768557 -0.0309433540449 0.88 2.30474683323e-38
0.0228003661383 -0.0309433540449 0.88 2.24020989233e-38
0.0243734433476 -0.0308730282403 0.878 2.31396611596e-38
0.0259983395707 -0.0308730282403 0.878 2.17563637753e-38
0.0275288511614 -0.0307675395333 0.875 2.23095375545e-38
0.0290815709008 -0.0306972137286 0.873 2.21251462948e-38
0.0303807476077 -0.0303807476077 0.864 2.17563637753e-38
0.0319057071611 -0.0303104218031 0.862 2.18485594052e-38
0.0335009925192 -0.0303104218031 0.862 2.18485594052e-38
0.0350148479982 -0.0302400959984 0.86 2.14797768857e-38
0.0366064319981 -0.0302400959984 0.86 2.15719725156e-38
0.0381091834027 -0.0301697701938 0.858 2.14786964846e-38
0.0395119981375 -0.0300291185845 0.854 2.16630877443e-38
0.041092478063 -0.0300291185845 0.854 2.12943052249e-38
0.0425230529838 -0.0299236298775 0.851 2.09255227054e-38
0.0439943428442 -0.0298533040729 0.849 2.03723503276e-38
0.0453508906023 -0.0297126524636 0.845 2.0095763438e-38
0.0465815921836 -0.0295016750496 0.839 1.96344293588e-38
0.0481343119231 -0.0295016750496 0.839 2.35088066153e-38
-0.0802269376702 -0.0288816975613 0.867 2.2307037638e-38
-0.0786223989168 -0.0288816975613 0.867 2.04623879578e-38
-0.0771955253541 -0.0289483220078 0.869 2.06482211536e-38
-0.0757612490751 -0.0290149464543 0.871 2.10173666094e-38
-0.0741493076054 -0.0290149464543 0.871 2.1293953499e-38
-0.072703927252 -0.0290815709008 0.873 2.14783447587e-38
-0.0710882844242 -0.0290815709008 0.873 2.15705403886e-38
-0.0694726415964 -0.0290815709008 0.873 2.09251709795e-38
-0.0680124558104 -0.0291481953473 0.875 2.07407797198e-38
-0.06662074515 -0.0292481320171 0.878 2.09251709795e-38
-0.0649958489268 -0.0292481320171 0.878 2.02808833729e-38
-0.0633709527037 -0.0292481320171 0.878 2.10188113481e-38
-0.0618867080898 -0.0293147564636 0.88 2.08344172858e-38
-0.0602581105085 -0.0293147564636 0.88 2.10184456092e-38
-0.0586295129272 -0.0293147564636 0.88 2.13861463262e-38
-0.0571304628807 -0.0293813809101 0.882 2.06489372171e-38
-0.0556869332064 -0.0294813175799 0.885 2.12935863588e-38
-0.0540490822297 -0.0294813175799 0.885 2.12939422886e-38
-0.0524112312531 -0.0294813175799 0.885 2.11099153665e-38
-0.0507733802764 -0.0294813175799 0.885 2.08333284769e-38
-0.0491355292998 -0.0294813175799 0.885 2.20318716651e-38
-0.0474976783231 -0.0294813175799 0.885 2.11099153665e-38
0.0147739710132 -0.0295479420264 0.887 2.28634287985e-38
0.016415523348 -0.0295479420264 0.887 2.27708786401e-38
0.0179552883339 -0.0293813809101 0.882 2.19411207739e-38
0.0195431709757 -0.0293147564636 0.88 2.29549167726e-38
0.021171768557 -0.0293147564636 0.88 2.29549167726e-38
0.0228003661383 -0.0293147564636 0.88 2.3231859592e-38
0.0243734433476 -0.0292481320171 0.878 2.29552698998e-38
0.0259983395707 -0.0292481320171 0.878 2.24942889479e-38
0.0275288511614 -0.0291481953473 0.875 2.26786802077e-38
0.0290815709008 -0.0290815709008 0.873 2.20333107986e-38
0.0303807476077 -0.0287817608915 0.864 2.24020933181e-38
0.0319057071611 -0.028715136445 0.862 2.14801370194e-38
0.0335009925192 -0.028715136445 0.862 2.20333107986e-38
0.0350148479982 -0.0286485119985 0.86 2.20333107986e-38
0.0366064319981 -0.0286485119985 0.86 2.15723326493e-38
0.0381091834027 -0.028581887552 0.858 2.18474790041e-38
0.0395119981375 -0.028448638659 0.854 2.18478349339e-38
0.0409481250955 -0.0283487019892 0.851 2.11099139652e-38
0.0424231163141 -0.0282820775427 0.849 2.08333270756e-38
0.0438907048163 -0.0282154530962 0.847 2.07411314457e-38
0.0453508906023 -0.0281488286497 0.845 2.0741132847e-38
0.0465815921836 -0.0279489553102 0.839 1.92660027692e-38
0.0480195698208 -0.0278823308637 0.837 2.2769436704e-38
0.0495685882021 -0.0278823308637 0.837 1.7144431289e-38
-0.0802269376702 -0.0272771588079 0.867 2.35080919531e-38
-0.0786223989168 -0.0272771588079 0.867 2.0462032028e-38
-0.0771955253541 -0.0273400818963 0.869 2.07400608537e-38
-0.0757612490751 -0.0274030049846 0.871 2.07400636563e-38
-0.0743195700798 -0.027465928073 0.873 2.10166477433e-38
-0.072703927252 -0.027465928073 0.873 2.11088433731e-38
-0.0712511441823 -0.0275288511614 0.875 2.16620171523e-38
-0.0696317999964 -0.0275288511614 0.875 2.1201039003e-38
-0.0680124558104 -0.0275288511614 0.875 2.0924454916e-38
-0.06662074515 -0.0276232357939 0.878 2.08322592861e-38
-0.0649958489268 -0.0276232357939 0.878 2.08344200884e-38
-0.0633709527037 -0.0276232357939 0.878 2.12032026078e-38
-0.0618867080898 -0.0276861588823 0.88 2.03734391365e-38
-0.0602581105085 -0.0276861588823 0.88 2.12028368689e-38
-0.0586295129272 -0.0276861588823 0.88 2.09251681769e-38
-0.0571304628807 -0.0277490819706 0.882 2.16630891456e-38
0.0147739710132 -0.0279063896916 0.887 2.23109752867e-38
0.016415523348 -0.0279063896916 0.887 2.26797620101e-38
0.0179552883339 -0.0277490819706 0.882 2.29559957725e-38
0.0195875872734 -0.0277490819706 0.882 2.26794116855e-38
0.021171768557 -0.0276861588823 0.88 2.24950176231e-38
0.0228003661383 -0.0276861588823 0.88 2.27716017101e-38
0.0243734433476 -0.0276232357939 0.878 2.27719548373e-38
0.0259983395707 -0.0276232357939 0.878 2.27708758375e-38
0.0275288511614 -0.0275288511614 0.875 2.25864845778e-38
0.0290149464543 -0.0274030049846 0.871 2.24020933181e-38
0.0305565621193 -0.0273400818963 0.869 2.24020933181e-38
0.0319797343239 -0.0271827741753 0.864 2.22177020583e-38
0.0335009925192 -0.027119851087 0.862 2.22177020583e-38
0.0350148479982 -0.0270569279986 0.86 2.1756723909e-38
0.0366064319981 -0.0270569279986 0.86 2.18489195389e-38
0.0381091834027 -0.0269940049102 0.858 2.19396746339e-38
0.0395119981375 -0.0268681587335 0.854 2.14790524144e-38
0.0409481250955 -0.0267737741009 0.851 2.12946611547e-38
0.0424231163141 -0.0267108510126 0.849 2.11099139652e-38
0.0437870667884 -0.0265850048358 0.845 2.06489358158e-38
0.0452435512162 -0.0265220817475 0.843 2.11099153665e-38
0.0465815921836 -0.0263962355707 0.839 2.03723503276e-38
0.0480195698208 -0.0263333124823 0.837 2.13865022561e-38
0.0495685882021 -0.0263333124823 0.837 2.35084506855e-38
0.0511176065834 -0.0263333124823 0.837 6.91071637418e-39
-0.0802269376702 -0.0256726200545 0.867 2.35080919531e-38
-0.0786223989168 -0.0256726200545 0.867 2.1292868894e-38
-0.0770178601634 -0.0256726200545 0.867 2.00028517446e-38
-0.0755872852426 -0.0257318417847 0.869 2.14783447587e-38
-0.0743195700798 -0.0258502852452 0.873 2.07407797198e-38
-0.072703927252 -0.0258502852452 0.873 2.20315157353e-38
-0.0712511441823 -0.0259095069754 0.875 2.17552847755e-38
-0.0696317999964 -0.0259095069754 0.875 2.18474804054e-38
-0.0680124558104 -0.0259095069754 0.875 2.12943052249e-38
-0.06662074515 -0.0259983395707 0.878 2.11099139652e-38
-0.0649958489268 -0.0259983395707 0.878 2.12017550665e-38
-0.0633709527037 -0.0259983395707 0.878 2.12950324988e-38
-0.0618867080898 -0.026057561301 0.88 2.06485840899e-38
-0.0602581105085 -0.026057561301 0.88 2.11095594367e-38
-0.0586295129272 -0.026057561301 0.88 2.12939506964e-38
-0.0571304628807 -0.0261167830312 0.882 2.13861463262e-38
0.0179552883339 -0.0261167830312 0.882 2.35095268827e-38
0.0195431709757 -0.026057561301 0.88 2.29552727024e-38
0.021171768557 -0.026057561301 0.88 2.35084464816e-38
0.0227485471244 -0.0259983395707 0.878 2.3231859592e-38
0.0243734433476 -0.0259983395707 0.878 2.29552727024e-38
0.0259983395707 -0.0259983395707 0.878 2.28627113337e-38
0.0275288511614 -0.0259095069754 0.875 2.24017331844e-38
0.0290149464543 -0.0257910635149 0.871 2.2678320074e-38
0.0305565621193 -0.0257318417847 0.869 2.33233335532e-38
0.0319797343239 -0.0255837874591 0.864 2.25857685143e-38
0.0335009925192 -0.0255245657289 0.862 2.2493575687e-38
0.0350962778772 -0.0255245657289 0.862 2.20325975377e-38
0.0366064319981 -0.0254653439987 0.86 2.14794237585e-38
0.0381091834027 -0.0254061222684 0.858 2.13865022561e-38
0.0395119981375 -0.025287678808 0.854 2.19396746339e-38
0.0409481250955 -0.0251988462126 0.851 2.12943052249e-38
0.0424231163141 -0.0251396244824 0.849 2.12943052249e-38
0.0435797907326 -0.0249027375615 0.841 2.1202109595e-38
0.0451362118302 -0.0249027375615 0.841 2.16630877443e-38
0.0465815921836 -0.0248435158313 0.839 2.0556740186e-38
0.0480195698208 -0.024784294101 0.837 2.03723489263e-38
0.0495685882021 -0.024784294101 0.837 2.35084408764e-38
0.0511176065834 -0.024784294101 0.837 7.55715637525e-39
-0.0799493358098 -0.0239848007429 0.864 2.13850925498e-38
-0.0783503490936 -0.0239848007429 0.864 2.1292868894e-38
-0.0770178601634 -0.0240680813011 0.867 2.07404139809e-38
-0.0755872852426 -0.0241236016732 0.869 2.05563856575e-38
-0.0741493076054 -0.0241791220453 0.871 2.18471244756e-38
-0.072703927252 -0.0242346424173 0.873 2.20318716651e-38
-0.0710882844242 -0.0242346424173 0.873 2.13865022561e-38
-0.0696317999964 -0.0242901627894 0.875 2.18474804054e-38
-0.0680124558104 -0.0242901627894 0.875 2.12943052249e-38
-0.06662074515 -0.0243734433476 0.878 2.08333270756e-38
-0.0649958489268 -0.0243734433476 0.878 2.08333284769e-38
-0.0635153056711 -0.0244289637197 0.88 2.12939506964e-38
-0.0618867080898 -0.0244289637197 0.88 2.11095594367e-38
-0.0602581105085 -0.0244289637197 0.88 2.16627332158e-38
0.0179552883339 -0.0244844840917 0.882 2.35084464816e-38
0.0195431709757 -0.0244289637197 0.88 2.33240552219e-38
0.021171768557 -0.0244289637197 0.88 2.34162508518e-38
0.0227485471244 -0.0243734433476 0.878 2.31396639622e-38
0.0243734433476 -0.0243734433476 0.878 2.35084464816e-38
0.0259983395707 -0.0243734433476 0.878 2.32314938531e-38
0.0275288511614 -0.0242901627894 0.875 2.28627113337e-38
0.0290149464543 -0.0241791220453 0.871 2.28627113337e-38
0.0305565621193 -0.0241236016732 0.869 2.32311379233e-38
0.0319797343239 -0.0239848007429 0.864 2.23091816247e-38
0.0335009925192 -0.0239292803708 0.862 2.2493575687e-38
0.0350962778772 -0.0239292803708 0.862 2.21247959702e-38
0.0366064319981 -0.0238737599988 0.86 2.21247959702e-38
0.0381091834027 -0.0238182396267 0.858 2.19396760352e-38
0.039604532091 -0.0237627192546 0.856 2.23084571534e-38
0.0409481250955 -0.0236239183244 0.851 2.14786964846e-38
0.0424231163141 -0.0235683979523 0.849 2.12943052249e-38
0.0434761527047 -0.0232907960918 0.839 2.10177183353e-38
0.0450288724442 -0.0232907960918 0.839 2.18474790041e-38
0.0464705514394 -0.0232352757197 0.837 2.00957620367e-38
0.0480195698208 -0.0232352757197 0.837 2.00035664068e-38
0.0494501447416 -0.0231797553476 0.835 2.35095198762e-38
0.0509954617648 -0.0231797553476 0.835 1.19836270098e-38
-0.0799493358098 -0.0223858140267 0.864 1.88039708434e-38
-0.0783503490936 -0.0223858140267 0.864 2.33211755536e-38
-0.0770178601634 -0.0224635425477 0.867 2.04638270913e-38
-0.0755872852426 -0.0225153615616 0.869 2.09255241067e-38
-0.0741493076054 -0.0225671805756 0.871 2.19396760352e-38
-0.072703927252 -0.0226189995895 0.873 2.16630891456e-38
-0.0710882844242 -0.0226189995895 0.873 2.17549288457e-38
-0.0696317999964 -0.0226708186035 0.875 2.17549288457e-38
-0.0680124558104 -0.0226708186035 0.875 2.12939506964e-38
-0.06662074515 -0.0227485471244 0.878 2.17549288457e-38
-0.0649958489268 -0.0227485471244 0.878 2.17549288457e-38
-0.0618867080898 -0.0228003661383 0.88 2.14783419561e-38
0.0179552883339 -0.0228521851523 0.882 2.3509166749e-38
0.0195875872734 -0.0228521851523 0.882 2.29552727024e-38
0.021171768557 -0.0228003661383 0.88 2.34162508518e-38
0.0227485471244 -0.0227485471244 0.878 2.33240552219e-38
0.0243734433476 -0.0227485471244 0.878 2.35084464816e-38
0.0259095069754 -0.0226708186035 0.875 2.30474627271e-38
0.0275288511614 -0.0226708186035 0.875 2.29552670973e-38
0.0290149464543 -0.0225671805756 0.871 2.24942917505e-38
0.0305565621193 -0.0225153615616 0.869 2.26786830103e-38
0.0319797343239 -0.0223858140267 0.864 2.30474655297e-38
0.0335009925192 -0.0223339950128 0.862 2.31396639622e-38
0.0350148479982 -0.0222821759988 0.86 2.21255120337e-38
0.0366064319981 -0.0222821759988 0.86 2.22177076635e-38
0.0381091834027 -0.0222303569849 0.858 2.19396760352e-38
0.039604532091 -0.0221785379709 0.856 2.2124067295e-38
0.0409481250955 -0.0220489904361 0.851 2.17552847755e-38
0.0424231163141 -0.0219971714221 0.849 2.16630891456e-38
0.0434761527047 -0.0217380763524 0.839 2.12943066262e-38
0.0450288724442 -0.0217380763524 0.839 2.22162629248e-38
0.0464705514394 -0.0216862573384 0.837 2.0741132847e-38
0.0480195698208 -0.0216862573384 0.837 2.06489372171e-38
0.0494501447416 -0.0216344383245 0.835 2.20325975377e-38
0.0509954617648 -0.0216344383245 0.835 2.09262527819e-38
0.052540778788 -0.0216344383245 0.835 1.1891441189e-38
-0.0799493358098 -0.0207868273105 0.864 5.98877689113e-39
-0.0783503490936 -0.0207868273105 0.864 2.35062940872e-38
-0.0770178601634 -0.0208590037943 0.867 2.01872402017e-38
-0.0755872852426 -0.0209071214501 0.869 2.15708921145e-38
-0.0741493076054 -0.0209552391059 0.871 2.11099153665e-38
-0.072703927252 -0.0210033567617 0.873 2.14786978859e-38
-0.0710882844242 -0.0210033567617 0.873 2.20315157353e-38
-0.0696317999964 -0.0210514744175 0.875 2.18471272782e-38
-0.0680124558104 -0.0210514744175 0.875 2.13861491288e-38
-0.06662074515 -0.0211236509012 0.878 2.19393257106e-38
-0.0649958489268 -0.0211236509012 0.878 2.17549288457e-38
0.0195875872734 -0.0212198862128 0.882 2.33247754893e-38
0.021171768557 -0.021171768557 0.88 2.34169711192e-38
0.0227485471244 -0.0211236509012 0.878 2.32325798594e-38
0.0243734433476 -0.0211236509012 0.878 2.35095268827e-38
0.0259095069754 -0.0210514744175 0.875 2.33240524193e-38
0.027465928073 -0.0210033567617 0.873 2.35088038127e-38
0.0290149464543 -0.0209552391059 0.871 2.32318567894e-38
0.0305565621193 -0.0209071214501 0.869 2.3508443679e-38
0.0319797343239 -0.0207868273105 0.864 2.24020961207e-38
0.0335009925192 -0.0207387096547 0.862 2.27708786401e-38
0.0350148479982 -0.0206905919989 0.86 2.20333136012e-38
0.0366064319981 -0.0206905919989 0.86 2.27708814427e-38
0.0381091834027 -0.0206424743431 0.858 2.21237113651e-38
0.039604532091 -0.0205943566873 0.856 2.2124067295e-38
0.0409481250955 -0.0204740625478 0.851 2.18474804054e-38
0.0422232429745 -0.0203297095803 0.845 2.16630891456e-38
0.0434761527047 -0.0201853566129 0.839 2.16630891456e-38
0.0449215330581 -0.0201372389571 0.837 2.17552847755e-38
0.0464705514394 -0.0201372389571 0.837 2.13865022561e-38
0.0479048277184 -0.0200891213013 0.835 2.03723503276e-38
0.0494501447416 -0.0200891213013 0.835 2.00039405535e-38
0.0509954617648 -0.0200891213013 0.835 2.35073744883e-38
0.052540778788 -0.0200891213013 0.835 4.23920811428e-39
-0.0799493358098 -0.0191878405943 0.864 2.48534015373e-39
-0.0783503490936 -0.0191878405943 0.864 2.35080919531e-38
-0.0770178601634 -0.0192544650409 0.867 2.12935877601e-38
-0.0755872852426 -0.0192988813385 0.869 2.14786964846e-38
-0.0741493076054 -0.0193432976362 0.871 2.13865022561e-38
-0.072703927252 -0.0193877139339 0.873 2.2215906995e-38
-0.0710882844242 -0.0193877139339 0.873 2.23081054275e-38
-0.0696317999964 -0.0194321302315 0.875 2.27690863794e-38
-0.0680124558104 -0.0194321302315 0.875 2.17549344509e-38
0.021171768557 -0.0195431709757 0.88 2.33247754893e-38
0.0227485471244 -0.0194987546781 0.878 2.33247754893e-38
0.0243734433476 -0.0194987546781 0.878 2.34169711192e-38
0.0259095069754 -0.0194321302315 0.875 2.3509166749e-38
0.027465928073 -0.0193877139339 0.873 2.35091639464e-38
0.0290149464543 -0.0193432976362 0.871 2.30474655297e-38
0.0305565621193 -0.0192988813385 0.869 2.29552698998e-38
0.0319797343239 -0.0191878405943 0.864 2.35091639464e-38
0.0335009925192 -0.0191434242967 0.862 2.29552698998e-38
0.0350148479982 -0.019099007999 0.86 2.286307427e-38
0.0366064319981 -0.019099007999 0.86 2.27708786401e-38
0.0381091834027 -0.0190545917013 0.858 2.24924938846e-38
0.0395119981375 -0.018965759106 0.854 2.28612764041e-38
0.0409481250955 -0.0188991346595 0.851 2.24002982547e-38
0.0422232429745 -0.0187658857665 0.845 2.2215906995e-38
0.0433725146768 -0.0185882205758 0.837 2.20315157353e-38
0.0449215330581 -0.0185882205758 0.837 2.17549288457e-38
0.0464705514394 -0.0185882205758 0.837 2.12939506964e-38
0.0479048277184 -0.0185438042781 0.835 2.10173638068e-38
0.0494501447416 -0.0185438042781 0.835 2.04649201041e-38
0.0509954617648 -0.0185438042781 0.835 2.32304330702e-38
0.052540778788 -0.0185438042781 0.835 2.48749114687e-39
-0.0804120055772 -0.017690641227 0.869 3.13106549258e-39
-0.0786223989168 -0.0176499262875 0.867 2.23063187719e-38
-0.0770178601634 -0.0176499262875 0.867 2.19386040419e-38
-0.0755872852426 -0.017690641227 0.869 2.05563856575e-38
-0.0741493076054 -0.0177313561665 0.871 2.17549288457e-38
-0.072703927252 -0.0177720711061 0.873 2.18471272782e-38
-0.0710882844242 -0.0177720711061 0.873 2.25846923171e-38
-0.0696317999964 -0.0178127860456 0.875 2.22159097976e-38
-0.0680124558104 -0.0178127860456 0.875 2.31378688988e-38
0.0227485471244 -0.0178738584549 0.878 2.34176899853e-38
0.0243734433476 -0.0178738584549 0.878 2.35098856151e-38
0.0259095069754 -0.0178127860456 0.875 2.31403842296e-38
0.027465928073 -0.0177720711061 0.873 2.35095268827e-38
0.0290149464543 -0.0177313561665 0.871 2.34169711192e-38
0.0305565621193 -0.017690641227 0.869 2.29563488997e-38
0.0319797343239 -0.0175888538782 0.864 2.26797620101e-38
0.0335009925192 -0.0175481389386 0.862 2.29563488997e-38
0.0350148479982 -0.0175074239991 0.86 2.27719548373e-38
0.0365213007609 -0.0174667090596 0.858 2.24031723179e-38
0.0381091834027 -0.0174667090596 0.858 2.26779641441e-38
0.0395119981375 -0.0173852791805 0.854 2.25846895145e-38
0.0408518897839 -0.0172834918317 0.849 2.30456676638e-38
0.042023369635 -0.0171206320735 0.841 2.25846895145e-38
0.0433725146768 -0.0170392021945 0.837 2.19393201054e-38
0.0448141936721 -0.0169984872549 0.835 2.18471244756e-38
0.0463595106953 -0.0169984872549 0.835 2.21237113651e-38
0.0479048277184 -0.0169984872549 0.835 2.11095594367e-38
0.0494501447416 -0.0169984872549 0.835 2.05571143327e-38
0.0509954617648 -0.0169984872549 0.835 2.35088094179e-38
0.052540778788 -0.0169984872549 0.835 1.06007051735e-38
-0.0804120055772 -0.0160824011154 0.869 1.36413630931e-38
-0.0786223989168 -0.016045387534 0.867 1.21648050922e-38
-0.0770178601634 -0.016045387534 0.867 2.35066556222e-38
-0.0755872852426 -0.0160824011154 0.869 2.09251737821e-38
-0.0741493076054 -0.0161194146968 0.871 2.20315213405e-38
-0.072703927252 -0.0161564282782 0.873 2.15705403886e-38
-0.0710882844242 -0.0161564282782 0.873 2.23081054275e-38
0.0227485471244 -0.0162489622317 0.878 2.33254943554e-38
0.0243734433476 -0.0162489622317 0.878 2.34176899853e-38
0.0259095069754 -0.0161934418596 0.875 2.35095268827e-38
0.027465928073 -0.0161564282782 0.873 2.34169739218e-38
0.0290149464543 -0.0161194146968 0.871 2.34169711192e-38
0.0305565621193 -0.0160824011154 0.869 2.3417327049e-38
0.0319797343239 -0.015989867162 0.864 2.35095226788e-38
0.0335009925192 -0.0159528535806 0.862 2.34173242464e-38
0.0350148479982 -0.0159158399992 0.86 2.26797592075e-38
0.0365213007609 -0.0158788264178 0.858 2.24953665465e-38
0.037931518212 -0.015804799255 0.854 2.2124790365e-38
0.0393731972073 -0.0157492788829 0.851 2.26768851443e-38
0.0407556544723 -0.0156752517201 0.847 2.24002982547e-38
0.0419234329653 -0.0155271973945 0.839 2.21237113651e-38
0.0432688766489 -0.0154531702318 0.835 2.23081026249e-38
0.044706854286 -0.0154161566504 0.833 2.1570537586e-38
0.0462484699511 -0.0154161566504 0.833 2.19393201054e-38
0.0476753435138 -0.015379143069 0.831 2.13861463262e-38
0.0490948143602 -0.0153421294876 0.829 1.96355083587e-38
0.050629027309 -0.0153421294876 0.829 2.33233335532e-38
0.0521632402577 -0.0153421294876 0.829 1.88064693586e-38
-0.0788037654657 -0.0144741610039 0.869 2.94488477472e-39
-0.0770178601634 -0.0144408487806 0.867 2.35070157559e-38
-0.07541332141 -0.0144408487806 0.867 2.18467741509e-38
-0.073979045131 -0.0144741610039 0.869 2.17545785211e-38
0.0242901627894 -0.0145740976737 0.875 2.35098856151e-38
0.0258502852452 -0.0145407854504 0.873 2.35095268827e-38
0.0274030049846 -0.0145074732272 0.871 2.35091681503e-38
0.0290149464543 -0.0145074732272 0.871 2.35095268827e-38
0.0305565621193 -0.0144741610039 0.869 2.3509166749e-38
0.0319797343239 -0.0143908804458 0.864 2.33251314191e-38
0.0334232639983 -0.0143242559993 0.86 2.30485417269e-38
0.0349334181191 -0.014290943776 0.858 2.30485417269e-38
0.0364361695237 -0.0142576315527 0.856 2.29563446958e-38
0.037931518212 -0.0142243193295 0.854 2.26779641441e-38
0.0393731972073 -0.0141743509946 0.851 2.26768851443e-38
0.0407556544723 -0.0141077265481 0.847 2.2215906995e-38
0.0419234329653 -0.0139744776551 0.839 2.21237113651e-38
0.0432688766489 -0.0139078532086 0.835 2.25846895145e-38
0.044706854286 -0.0138745409853 0.833 2.21237113651e-38
0.0461374292069 -0.0138412287621 0.831 2.19393201054e-38
0.0476753435138 -0.0138412287621 0.831 2.17549288457e-38
0.0490948143602 -0.0138079165388 0.829 2.19407536338e-38
0.050629027309 -0.0138079165388 0.829 2.24017317831e-38
0.0521632402577 -0.0138079165388 0.829 2.24024506492e-38
-0.0770178601634 -0.0128363100272 0.867 2.22130497474e-38
-0.07541332141 -0.0128363100272 0.867 2.35062856794e-38
-0.0738087826566 -0.0128363100272 0.867 2.10202364686e-38
-0.0725373661358 -0.0128955317575 0.871 2.14815705478e-38
0.0242346424173 -0.0129251426226 0.873 2.35098856151e-38
0.0258502852452 -0.0129251426226 0.873 2.35098856151e-38
0.0274030049846 -0.0128955317575 0.871 2.35098856151e-38
0.0289483220078 -0.0128659208924 0.869 2.35098856151e-38
0.0304862363147 -0.0128363100272 0.867 2.35098828126e-38
0.0319057071611 -0.0127622828645 0.862 2.35095226788e-38
0.0334232639983 -0.0127326719993 0.86 2.35084408764e-38
0.0349334181191 -0.0127030611342 0.858 2.33240496167e-38
0.0364361695237 -0.0126734502691 0.856 2.20333107986e-38
0.037798269319 -0.0125994231063 0.851 2.30474655297e-38
0.0392806632538 -0.0125698122412 0.849 2.34162480492e-38
0.0406594191607 -0.012510590511 0.845 2.286307427e-38
0.0419234329653 -0.0124217579156 0.839 2.20333136012e-38
0.0433725146768 -0.0123921470505 0.837 2.23091816247e-38
0.044706854286 -0.0123329253203 0.833 2.24935728844e-38
0.0461374292069 -0.0123033144552 0.831 2.17560078455e-38
0.0476753435138 -0.0123033144552 0.831 2.17560078455e-38
0.0490948143602 -0.0122737035901 0.829 2.184927687e-38
0.050629027309 -0.0122737035901 0.829 2.06500288286e-38
0.0521632402577 -0.0122737035901 0.829 2.33233391584e-38
-0.07541332141 -0.0112317712738 0.867 2.35066472144e-38
-0.0738087826566 -0.0112317712738 0.867 2.19425486971e-38
0.0242346424173 -0.0113094997948 0.873 2.35098856151e-38
0.0258502852452 -0.0113094997948 0.873 2.35098856151e-38
0.0274030049846 -0.0112835902878 0.871 2.35098856151e-38
0.0289483220078 -0.0112576807808 0.869 2.35098856151e-38
0.0303807476077 -0.0111929070134 0.864 2.35098828126e-38
0.0319057071611 -0.0111669975064 0.862 2.32329357893e-38
0.0334232639983 -0.0111410879994 0.86 2.35084408764e-38
0.0349334181191 -0.0111151784924 0.858 2.35084408764e-38
0.0364361695237 -0.0110892689855 0.856 2.28630714674e-38
0.037798269319 -0.011024495218 0.851 2.27719576399e-38
0.0392806632538 -0.0109985857111 0.849 2.25875663802e-38
0.0404669485374 -0.0108949476832 0.841 2.31407401594e-38
0.0419234329653 -0.0108690381762 0.839 2.29552698998e-38
0.0433725146768 -0.0108431286692 0.837 2.19411179714e-38
0.044706854286 -0.0107913096553 0.833 2.24942917505e-38
0.0461374292069 -0.0107654001483 0.831 2.15716165858e-38
0.0476753435138 -0.0107654001483 0.831 2.15716165858e-38
0.0490948143602 -0.0107394906413 0.829 2.19414696973e-38
0.050629027309 -0.0107394906413 0.829 2.18485734182e-38
0.0521632402577 -0.0107394906413 0.829 2.35084506855e-38
-0.07541332141 -0.00962723252043 0.867 2.35080919531e-38
-0.0738087826566 -0.00962723252043 0.867 2.19414724999e-38
-0.0723708050195 -0.00964944066926 0.869 2.15726871778e-38
0.0258502852452 -0.00969385696694 0.873 2.35098856151e-38
0.0274030049846 -0.0096716488181 0.871 2.35098856151e-38
0.0289483220078 -0.00964944066926 0.869 2.35098856151e-38
0.0303807476077 -0.00959392029717 0.864 2.35098828126e-38
0.0319057071611 -0.00957171214834 0.862 2.35098828126e-38
0.0334232639983 -0.0095495039995 0.86 2.35095212775e-38
0.0349334181191 -0.00952729585067 0.858 2.35088010101e-38
0.0363510382865 -0.00948287955299 0.854 2.33240496167e-38
0.037798269319 -0.00944956732974 0.851 2.24031751205e-38
0.0392806632538 -0.0094273591809 0.849 2.32329357893e-38
0.0404669485374 -0.00933852658556 0.841 2.2034392601e-38
0.0418234962955 -0.00929411028789 0.837 2.21255092311e-38
0.0432688766489 -0.00927190213905 0.835 2.20333136012e-38
0.044706854286 -0.00924969399022 0.833 2.27708786401e-38
0.0461374292069 -0.00922748584138 0.831 2.22169859948e-38
0.0475606014115 -0.00920527769254 0.829 2.24935728844e-38
0.0490948143602 -0.00920527769254 0.829 2.30478172556e-38
0.050629027309 -0.00920527769254 0.829 2.13875952689e-38
0.0521632402577 -0.00920527769254 0.829 2.29542007091e-38
-0.07541332141 -0.00802269376702 0.867 1.80656743267e-38
-0.0738087826566 -0.00802269376702 0.867 2.35091611438e-38
0.0257910635149 -0.00805970734842 0.871 2.35098856151e-38
0.0274030049846 -0.00805970734842 0.871 2.35098856151e-38
0.0289483220078 -0.00804120055772 0.869 2.35098856151e-38
0.0303807476077 -0.00799493358098 0.864 2.35098828126e-38
0.0319057071611 -0.00797642679028 0.862 2.30485445295e-38
0.0333455354773 -0.00793941320889 0.858 2.35084408764e-38
0.03485198824 -0.00792090641819 0.856 2.32318539868e-38
0.0363510382865 -0.0079023996275 0.854 2.34162452466e-38
0.037798269319 -0.00787463944145 0.851 2.35098828126e-38
0.0392806632538 -0.00785613265075 0.849 2.27719576399e-38
0.0404669485374 -0.00778210548797 0.841 2.31407401594e-38
0.0418234962955 -0.00774509190657 0.837 2.32318567894e-38
0.0432688766489 -0.00772658511588 0.835 2.23099004908e-38
0.044706854286 -0.00770807832518 0.833 2.22177048609e-38
0.0461374292069 -0.00768957153448 0.831 2.22169859948e-38
0.0475606014115 -0.00767106474379 0.829 2.24013772546e-38
0.0490948143602 -0.00767106474379 0.829 2.16648828077e-38
0.050629027309 -0.00767106474379 0.829 2.24017471974e-38
0.0521632402577 -0.00767106474379 0.829 2.34151788584e-38
0.0289483220078 -0.00643296044618 0.869 2.35098856151e-38
0.0303104218031 -0.00638114143223 0.862 2.35098828126e-38
0.0318316799983 -0.00636633599967 0.86 2.35098828126e-38
0.0333455354773 -0.00635153056711 0.858 2.35095212775e-38
0.03485198824 -0.00633672513455 0.856 2.35095212775e-38
0.0363510382865 -0.006321919702 0.854 2.35091611438e-38
0.037798269319 -0.00629971155316 0.851 2.31407401594e-38
0.0392806632538 -0.0062849061206 0.849 2.29563488997e-38
0.0406594191607 -0.00625529525549 0.845 2.26797620101e-38
0.0418234962955 -0.00619607352526 0.837 2.27708786401e-38
0.0432688766489 -0.0061812680927 0.835 2.27708786401e-38
0.0445995149 -0.00615165722759 0.831 2.25864873804e-38
0.0460263884627 -0.00613685179503 0.829 2.28623554039e-38
0.0475606014115 -0.00613685179503 0.829 2.26779641441e-38
0.0489763708998 -0.00612204636247 0.827 2.23102494141e-38
0.0505068824904 -0.00612204636247 0.827 2.07422244585e-38
0.052037394081 -0.00612204636247 0.827 2.35091681503e-38
0.0273400818963 -0.00482472033463 0.869 2.35098856151e-38
0.0288816975613 -0.00481361626021 0.867 2.35098856151e-38
0.0303104218031 -0.00478585607417 0.862 2.35098828126e-38
0.0318316799983 -0.00477475199975 0.86 2.3417327049e-38
0.0333455354773 -0.00476364792533 0.858 2.35091611438e-38
0.03485198824 -0.00475254385092 0.856 2.35091611438e-38
0.0363510382865 -0.0047414397765 0.854 2.35084408764e-38
0.037798269319 -0.00472478366487 0.851 2.33251314191e-38
0.0392806632538 -0.00471367959045 0.849 2.3417327049e-38
0.0406594191607 -0.00469147144162 0.845 2.33251314191e-38
0.0418234962955 -0.00464705514394 0.837 2.33240524193e-38
0.0432688766489 -0.00463595106953 0.835 2.23099004908e-38
0.0445995149 -0.00461374292069 0.831 2.27708786401e-38
0.0460263884627 -0.00460263884627 0.829 2.2770159774e-38
0.0474458593092 -0.00459153477185 0.827 2.2770159774e-38
0.0489763708998 -0.00459153477185 0.827 2.15726843752e-38
0.0505068824904 -0.00459153477185 0.827 2.3139310835e-38
0.052037394081 -0.00459153477185 0.827 2.35091681503e-38
0.0288816975613 -0.00320907750681 0.867 2.35098856151e-38
0.0303104218031 -0.00319057071611 0.862 2.35098828126e-38
0.0318316799983 -0.00318316799983 0.86 2.35098828126e-38
0.0333455354773 -0.00317576528356 0.858 2.35095212775e-38
0.034770558361 -0.003160959851 0.854 2.35095212775e-38
0.0363510382865 -0.003160959851 0.854 2.35091611438e-38
0.037798269319 -0.00314985577658 0.851 2.3417327049e-38
0.0392806632538 -0.0031424530603 0.849 2.35095226788e-38
0.0406594191607 -0.00312764762774 0.845 2.32329357893e-38
0.0418234962955 -0.00309803676263 0.837 2.286307427e-38
0.0432688766489 -0.00309063404635 0.835 2.33240524193e-38
0.0445995149 -0.00307582861379 0.831 2.30474655297e-38
0.0460263884627 -0.00306842589751 0.829 2.22169859948e-38
0.0474458593092 -0.00306102318124 0.827 2.28623554039e-38
0.0489763708998 -0.00306102318124 0.827 2.29556188232e-38
0.0505068824904 -0.00306102318124 0.827 2.28627211428e-38
0.052037394081 -0.00306102318124 0.827 2.29545538363e-38
0.0302400959984 -0.00159158399992 0.86 2.35098828126e-38
0.0317576528356 -0.00158788264178 0.858 2.3417327049e-38
0.0332678069564 -0.00158418128364 0.856 2.35091611438e-38
0.034770558361 -0.0015804799255 0.854 2.35091611438e-38
0.0362233414307 -0.00157492788829 0.851 2.35084408764e-38
0.037798269319 -0.00157492788829 0.851 2.35098828126e-38
0.0392806632538 -0.00157122653015 0.849 2.35098828126e-38
0.040563183849 -0.00156012245573 0.843 2.3417327049e-38
0.0418234962955 -0.00154901838131 0.837 2.3508443679e-38
0.0432688766489 -0.00154531702318 0.835 2.26786830103e-38
0.044706854286 -0.00154161566504 0.833 2.34162480492e-38
0.0456932662302 -0.00152310887434 0.823 2.3508805214e-38
0.0472163751045 -0.00152310887434 0.823 2.30467466636e-38
0.0489763708998 -0.00153051159062 0.827 2.25868363037e-38
0.0505068824904 -0.00153051159062 0.827 2.35084506855e-38
0.0302400959984 0.0 0.86 2.31425436305e-38
0.0317576528356 0.0 0.858 2.32343791267e-38
0.0332678069564 0.0 0.856 2.32343735215e-38
0.034770558361 0.0 0.854 2.34180445138e-38
0.0362233414307 0.0 0.851 2.3418050119e-38
0.037798269319 0.0 0.851 2.35091681503e-38
0.0391881293003 0.0 0.847 2.34155291831e-38
0.0404669485374 0.0 0.841 2.32311407259e-38
0.0418234962955 0.0 0.837 2.35084478829e-38
0.0432688766489 0.0 0.835 2.32311407259e-38
0.044706854286 0.0 0.833 2.35088094179e-38
0.045582225486 0.0 0.821 2.3506650017e-38
0.0471016330022 0.0 0.821 2.30445914666e-38
0.0486210405184 0.0 0.821 2.35077304181e-38
0.0496518687602 0.0 0.813 2.35062968898e-38
0.0287817608915 0.0015989867162 0.864 2.35098856151e-38
0.0302400959984 0.00159158399992 0.86 2.35095268827e-38
0.0316836256728 0.00158418128364 0.856 2.35098856151e-38
0.0332678069564 0.00158418128364 0.856 2.35098786087e-38
0.034770558361 0.0015804799255 0.854 2.350988001e-38
0.0362233414307 0.00157492788829 0.851 2.35095268827e-38
0.0377094367236 0.00157122653015 0.849 2.35091681503e-38
0.0390955953468 0.00156382381387 0.845 2.34169711192e-38
0.0404669485374 0.00155642109759 0.841 2.33254943554e-38
0.0418234962955 0.00154901838131 0.837 2.34176899853e-38
0.0432688766489 0.00154531702318 0.835 2.14815817582e-38
0.044706854286 0.00154161566504 0.833 2.35098828126e-38
0.0453601439976 0.00151200479992 0.817 2.21265882309e-38
0.0466426645929 0.00150460208364 0.813 2.35095240801e-38
0.0481472666766 0.00150460208364 0.813 2.35080919531e-38
0.0496518687602 0.00150460208364 0.813 1.14272344481e-38
0.0511564708438 0.00150460208364 0.813 5.06717091712e-39
0.0302400959984 0.00318316799983 0.86 2.35095170737e-38
0.0316836256728 0.00316836256728 0.856 2.35091681503e-38
0.0332678069564 0.00316836256728 0.856 2.35084506855e-38
0.0346484135424 0.00314985577658 0.851 2.35091681503e-38
0.0361382101935 0.0031424530603 0.849 2.35098758061e-38
0.0376206041283 0.00313505034402 0.847 2.31425394266e-38
0.0390030613933 0.00312024491147 0.843 2.29588726382e-38
0.0403707132258 0.00310543947891 0.839 2.31425436305e-38
0.0418234962955 0.00309803676263 0.837 2.32343763241e-38
0.0432688766489 0.00309063404635 0.835 2.28652322696e-38
0.0448141936721 0.00309063404635 0.835 2.350988001e-38
0.0452491032535 0.00301660688356 0.815 2.25882824437e-38
0.0465279224906 0.00300180145101 0.811 2.2864867932e-38
0.0480288232161 0.00300180145101 0.811 7.27698916809e-39
0.0495297239416 0.00300180145101 0.811 1.46938195151e-39
0.0510306246671 0.00300180145101 0.811 2.27676528511e-38
0.0302400959984 0.00477475199975 0.86 2.35098786087e-38
0.0316836256728 0.00475254385092 0.856 2.350988001e-38
0.0332678069564 0.00475254385092 0.856 2.35091681503e-38
0.0346484135424 0.00472478366487 0.851 2.35091681503e-38
0.0361382101935 0.00471367959045 0.849 2.35098758061e-38
0.0376206041283 0.00470257551603 0.847 2.29588726382e-38
0.0390030613933 0.0046803673672 0.843 2.29588726382e-38
0.0403707132258 0.00465815921836 0.839 2.35098856151e-38
0.0419234329653 0.00465815921836 0.839 2.35091625451e-38
0.0434761527047 0.00465815921836 0.839 2.3508443679e-38
0.0450288724442 0.00465815921836 0.839 2.3508082144e-38
0.0452491032535 0.00452491032535 0.815 1.65880093e-38
0.0465279224906 0.00450270217651 0.811 1.56120343469e-39
0.0480288232161 0.00450270217651 0.811 5.06105705192e-39
0.0495297239416 0.00450270217651 0.811 2.02747779155e-38
0.0510306246671 0.00450270217651 0.811 2.32268331344e-38
0.0316836256728 0.00633672513455 0.856 2.27751722186e-38
0.0332678069564 0.00633672513455 0.856 2.32343623111e-38
0.034770558361 0.006321919702 0.854 2.3418050119e-38
0.0362233414307 0.00629971155316 0.851 2.3418050119e-38
0.0376206041283 0.00627010068805 0.847 2.2771967449e-38
0.0390030613933 0.00624048982293 0.843 2.35091681503e-38
0.0403707132258 0.00621087895782 0.839 2.35055668133e-38
0.0419234329653 0.00621087895782 0.839 2.35059297496e-38
0.0434761527047 0.00621087895782 0.839 1.43656003823e-38
0.0450288724442 0.00621087895782 0.839 4.59177901179e-39
0.0452491032535 0.00603321376713 0.815 5.32719445886e-39
0.0466426645929 0.00601840833457 0.813 1.41772588622e-38
0.0481472666766 0.00601840833457 0.813 1.56617538177e-38
0.0317576528356 0.00793941320889 0.858 2.25882670294e-38
0.0333455354773 0.00793941320889 0.858 2.35084506855e-38
0.034770558361 0.0079023996275 0.854 2.35077332207e-38
0.0362233414307 0.00787463944145 0.851 2.35087996088e-38
0.0376206041283 0.00783762586006 0.847 2.35070101507e-38
0.0390030613933 0.00780061227866 0.843 1.54762709464e-38
0.0403707132258 0.00776359869727 0.839 6.0669174974e-39
0.0419234329653 0.00776359869727 0.839 6.33882264882e-39
0.0434761527047 0.00776359869727 0.839 8.08694108177e-39
0.0299439873473 0.00898319620418 0.809 2.35041178707e-38
0.0314411867146 0.00898319620418 0.809 2.35030696994e-38
0.032938386082 0.00898319620418 0.809 1.47333627565e-38
0.0345207166866 0.00900540435302 0.811 4.13295605952e-39
0.0360216174121 0.00900540435302 0.811 4.95911819383e-39
0.0375225181376 0.00900540435302 0.811 6.89092303338e-39
0.0390234188631 0.00900540435302 0.811 1.20513531659e-38
0.0405243195886 0.00900540435302 0.811 1.25090915132e-38
0.0298699601845 0.0104544860646 0.807 4.5917748079e-39
0.0313634581937 0.0104544860646 0.807 6.33704440107e-39
0.032938386082 0.0104803955715 0.809 7.25506445232e-39
0.0345207166866 0.0105063050785 0.811 1.19552128808e-38
0.0360216174121 0.0105063050785 0.811 1.37072829755e-38
0.0375225181376 0.0105063050785 0.811 1.38902322991e-38
0.0390234188631 0.0105063050785 0.811 1.46263540006e-38
0.0402245095793 0.0104285765576 0.805 1.50891272132e-38
0.0253265430684 0.0119183732087 0.805 6.97952573398e-39
0.0268163397195 0.0119183732087 0.805 6.33668566866e-39
0.0283764621753 0.0119479840738 0.807 8.17628506925e-39
0.0298699601845 0.0119479840738 0.807 1.05729987003e-38
0.0313634581937 0.0119479840738 0.807 1.35218211237e-38
0.0328569562029 0.0119479840738 0.807 1.33367053927e-38
0.0343504542122 0.0119479840738 0.807 1.39820607887e-38
0.035755119626 0.0119183732087 0.805 1.37980352679e-38
0.0372449162771 0.0119183732087 0.805 1.38902322991e-38
0.0387347129282 0.0119183732087 0.805 1.42582959524e-38
0.0402245095793 0.0119183732087 0.805 1.47207160378e-38
0.0192951799804 0.0133582015249 0.802 6.61647732784e-39
0.0207794245943 0.0133582015249 0.802 6.24482354783e-39
0.0222636692081 0.0133582015249 0.802 8.3613923925e-39
0.023747913822 0.0133582015249 0.802 1.07548648202e-38
0.0253265430684 0.0134081698598 0.805 1.30583164333e-38
0.0268163397195 0.0134081698598 0.805 1.31505204709e-38
0.0283764621753 0.013441482083 0.807 1.37955423579e-38
0.0298699601845 0.013441482083 0.807 1.35200344682e-38
0.0313634581937 0.013441482083 0.807 1.25062300617e-38
0.0328569562029 0.013441482083 0.807 1.30601100953e-38
0.0343504542122 0.013441482083 0.807 1.28760677589e-38
0.035755119626 0.0134081698598 0.805 1.29686277264e-38
0.0372449162771 0.0134081698598 0.805 1.39835069288e-38
0.0387347129282 0.0134081698598 0.805 1.37072829755e-38
0.0404243829188 0.0134747943063 0.809 1.49079897685e-38
0.0419215822862 0.0134747943063 0.809 1.40832667677e-38
0.0148054325574 0.0148054325574 0.8 7.16321914707e-39
0.0162859758131 0.0148054325574 0.8 8.08157971384e-39
0.0178109353665 0.0148424461388 0.802 9.55559856197e-39
0.0192951799804 0.0148424461388 0.802 1.35185532957e-38
0.0207794245943 0.0148424461388 0.802 1.42539743479e-38
0.0222636692081 0.0148424461388 0.802 1.36986733977e-38
0.023747913822 0.0148424461388 0.802 1.25966166152e-38
0.0253265430684 0.0148979665109 0.805 1.31512267253e-38
0.0268163397195 0.0148979665109 0.805 1.23211171333e-38
0.0283764621753 0.0149349800922 0.807 1.37036970527e-38
0.0298699601845 0.0149349800922 0.807 1.35193085956e-38
0.0313634581937 0.0149349800922 0.807 1.27828169513e-38
0.0328569562029 0.0149349800922 0.807 1.35207337161e-38
0.0343504542122 0.0149349800922 0.807 1.24147378837e-38
0.0358439522214 0.0149349800922 0.807 1.33374130484e-38
0.0374299841841 0.0149719936736 0.809 1.34314121494e-38
0.0389271835515 0.0149719936736 0.809 1.4079305297e-38
0.0404243829188 0.0149719936736 0.809 1.27006896509e-38
0.0014768418976 0.0162452608736 0.798 2.01757453504e-38
0.00295368379519 0.0162452608736 0.798 1.32596199642e-38
0.00443052569279 0.0162452608736 0.798 5.32827345867e-39
0.00590736759039 0.0162452608736 0.798 7.26007409433e-39
0.00891657175768 0.0163470482224 0.803 7.34687052121e-39
0.0104026670506 0.0163470482224 0.803 8.26594855279e-39
0.011873956911 0.0163266907526 0.802 1.03857333774e-38
0.0133582015249 0.0163266907526 0.802 1.21374475422e-38
0.0148054325574 0.0162859758131 0.8 1.25976984177e-38
0.0162859758131 0.0162859758131 0.8 1.30590324968e-38
0.0178109353665 0.0163266907526 0.802 1.32427034891e-38
0.0192951799804 0.0163266907526 0.802 1.26891695762e-38
0.0207794245943 0.0163266907526 0.802 1.25962452711e-38
0.0222636692081 0.0163266907526 0.802 1.31497735788e-38
0.0237775246871 0.0163470482224 0.803 1.222961935e-38
0.0253265430684 0.0163877631619 0.805 1.25984060734e-38
0.0268163397195 0.0163877631619 0.805 1.27824456072e-38
0.0283764621753 0.0164284781015 0.807 1.27820952826e-38
0.0298699601845 0.0164284781015 0.807 1.30583248411e-38
0.0313634581937 0.0164284781015 0.807 1.28750125811e-38
0.032938386082 0.016469193041 0.809 1.30601213057e-38
0.0344355854494 0.016469193041 0.809 1.33377815899e-38
0.0359327848167 0.016469193041 0.809 1.3707637504e-38
0.0375225181376 0.0165099079805 0.811 1.36183215425e-38
0.0390234188631 0.0165099079805 0.811 1.33460562573e-38
-0.00148054325574 0.0177665190688 0.8 4.86800857028e-39
0.0 0.0177665190688 0.8 6.61219075584e-39
0.0014768418976 0.0177221027712 0.798 7.71422231493e-39
0.00295368379519 0.0177221027712 0.798 9.18718598531e-39
0.00443052569279 0.0177221027712 0.798 1.11222082061e-38
0.00590736759039 0.0177221027712 0.798 1.30558025038e-38
0.00740271627868 0.0177665190688 0.8 1.34227913612e-38
0.00891657175768 0.0178331435154 0.803 1.45276955822e-38
0.0104026670506 0.0178331435154 0.803 1.44351342134e-38
0.011873956911 0.0178109353665 0.802 1.34256724309e-38
0.0133582015249 0.0178109353665 0.802 1.2506578985e-38
0.0148424461388 0.0178109353665 0.802 1.27842252562e-38
0.0163266907526 0.0178109353665 0.802 1.23236072406e-38
0.0178109353665 0.0178109353665 0.802 1.18630060406e-38
0.0193192388083 0.0178331435154 0.803 1.241654696e-38
0.0208053341012 0.0178331435154 0.803 1.22325046236e-38
0.0222914293942 0.0178331435154 0.803 1.20491699429e-38
0.0238367464174 0.017877559813 0.805 1.21392187835e-38
0.0254523892452 0.0179663924084 0.809 1.28757132304e-38
0.0269495886125 0.0179663924084 0.809 1.27824442059e-38
0.0284467879799 0.0179663924084 0.809 1.24136630877e-38
0.0299439873473 0.0179663924084 0.809 1.32441496291e-38
0.0314411867146 0.0179663924084 0.809 1.28768090458e-38
0.032938386082 0.0179663924084 0.809 1.27856924157e-38
0.0346058479238 0.0180552250037 0.813 1.25109033921e-38
0.0361104500074 0.0180552250037 0.813 1.23290190553e-38
0.0377075860445 0.0180996413014 0.815 1.39910599275e-38
-0.0014768418976 0.0191989446688 0.798 1.30547277079e-38
0.0 0.0191989446688 0.798 1.29636208869e-38
0.00148054325574 0.0192470623246 0.8 1.29639740142e-38
0.00296108651147 0.0192470623246 0.8 1.34256570166e-38
0.00443052569279 0.0191989446688 0.798 1.30568702932e-38
0.00590736759039 0.0191989446688 0.798 1.28724818361e-38
0.00740271627868 0.0192470623246 0.8 1.31487141972e-38
0.00891657175768 0.0193192388083 0.803 1.26880905764e-38
0.0104026670506 0.0193192388083 0.803 1.2411856814e-38
0.0118887623436 0.0193192388083 0.803 1.22281634009e-38
0.0133748576365 0.0193192388083 0.803 1.26894974801e-38
0.0148609529295 0.0193192388083 0.803 1.29657326437e-38
0.0163470482224 0.0193192388083 0.803 1.28739069567e-38
0.017877559813 0.0193673564641 0.805 1.23211003177e-38
0.0193673564641 0.0193673564641 0.805 1.28742853072e-38
0.0208571531152 0.0193673564641 0.805 1.2321838802e-38
0.0223469497663 0.0193673564641 0.805 1.22292900449e-38
0.0238959681476 0.0194154741199 0.807 1.23229065914e-38
0.0254523892452 0.0194635917757 0.809 1.2875716033e-38
0.0269495886125 0.0194635917757 0.809 1.27835204031e-38
0.0284467879799 0.0194635917757 0.809 1.25069335135e-38
0.0300180145101 0.0195117094315 0.811 1.26927681107e-38
0.0315189152356 0.0195117094315 0.811 1.25109005895e-38
0.0330198159611 0.0195117094315 0.811 1.20528035098e-38
-0.00296108651147 0.0207276055803 0.8 1.37904724601e-38
-0.0014768418976 0.0206757865664 0.798 1.37897451862e-38
0.0 0.0206757865664 0.798 1.29643229375e-38
0.00148054325574 0.0207276055803 0.8 1.23214674579e-38
0.00296108651147 0.0207276055803 0.8 1.25062076409e-38
0.00444162976721 0.0207276055803 0.8 1.213850272e-38
0.00592217302295 0.0207276055803 0.8 1.16771700422e-38
0.00742122306938 0.0207794245943 0.802 1.223106549e-38
0.00890546768326 0.0207794245943 0.802 1.16778889083e-38
0.0103897122971 0.0207794245943 0.802 1.20470259562e-38
0.0118887623436 0.0208053341012 0.803 1.25958949465e-38
0.0133748576365 0.0208053341012 0.803 1.36089734804e-38
0.0148979665109 0.0208571531152 0.805 1.30561654401e-38
0.0163877631619 0.0208571531152 0.805 1.28721273076e-38
0.0179219761107 0.0209089721291 0.807 1.25969683412e-38
0.0194154741199 0.0209089721291 0.807 1.30586541462e-38
0.0209089721291 0.0209089721291 0.807 1.26898716267e-38
0.0224579905105 0.0209607911431 0.809 1.29661053891e-38
0.0239551898778 0.0209607911431 0.809 1.20459553642e-38
0.0255153123336 0.021012610157 0.811 1.23225450564e-38
0.0270162130591 0.021012610157 0.811 1.27835204031e-38
0.0285171137846 0.021012610157 0.811 1.25998452069e-38
0.0300180145101 0.021012610157 0.811 1.27863972689e-38
-0.0338822324075 0.0220971080919 0.796 1.26902709968e-38
-0.0324090918681 0.0220971080919 0.796 1.18601389839e-38
-0.0308582228077 0.0220415877198 0.794 1.31505078592e-38
-0.0293147564636 0.0219860673477 0.792 1.26891667736e-38
-0.0278490186404 0.0219860673477 0.792 1.36104000022e-38
-0.0264499052637 0.0220415877198 0.794 1.33327411193e-38
-0.0249804660824 0.0220415877198 0.794 1.29628838039e-38
-0.019150827013 0.0220971080919 0.796 1.39781217388e-38
-0.0176776864735 0.0220971080919 0.796 1.36086217545e-38
-0.016204545934 0.0220971080919 0.796 1.37933703453e-38
-0.0147314053946 0.0220971080919 0.796 1.34238619533e-38
-0.0132915770784 0.022152628464 0.798 1.26866486403e-38
-0.0117851243157 0.0220971080919 0.796 1.32430538137e-38
-0.0103119837762 0.0220971080919 0.796 1.28746370332e-38
-0.00886105138558 0.022152628464 0.798 1.1953410811e-38
-0.00738420948799 0.022152628464 0.798 1.29672110136e-38
-0.00590736759039 0.022152628464 0.798 1.30597667772e-38
-0.00444162976721 0.0222081488361 0.8 1.21381622045e-38
-0.00296108651147 0.0222081488361 0.8 1.21399432548e-38
-0.0014768418976 0.022152628464 0.798 1.20484552807e-38
0.0 0.022152628464 0.798 1.21381509941e-38
0.00148054325574 0.0222081488361 0.8 1.26902457734e-38
0.00296108651147 0.0222081488361 0.8 1.2321449241e-38
0.00445273384163 0.0222636692081 0.802 1.25061964305e-38
0.0059369784555 0.0222636692081 0.802 1.23207359801e-38
0.00742122306938 0.0222636692081 0.802 1.2689163971e-38
0.00890546768326 0.0222636692081 0.802 1.25040496413e-38
0.0103897122971 0.0222636692081 0.802 1.25965997997e-38
0.0118887623436 0.0222914293942 0.803 1.16761218709e-38
0.0133748576365 0.0222914293942 0.803 1.21388894784e-38
0.0148979665109 0.0223469497663 0.805 1.22321388847e-38
0.0164284781015 0.0224024701384 0.807 1.19559093262e-38
0.0179219761107 0.0224024701384 0.807 1.15860646225e-38
0.0194154741199 0.0224024701384 0.807 1.20466938485e-38
0.0209607911431 0.0224579905105 0.809 1.19544786005e-38
0.0224579905105 0.0224579905105 0.809 1.26012549132e-38
0.0240144116081 0.0225135108825 0.811 1.25991263408e-38
0.0255153123336 0.0225135108825 0.811 1.24143833551e-38
0.0270162130591 0.0225135108825 0.811 1.25991291434e-38
