# .PCD v0.7 - Point Cloud Data file format
VERSION 0.7
FIELDS x y z rgb
SIZE 4 4 4 4
TYPE F F F F
COUNT 1 1 1 1
WIDTH 847
HEIGHT 1
VIEWPOINT 0 0 0 1 0 0 0
POINTS 847
DATA ascii
0.0960872572973 -0.0276861588823 0.88 1.81225740509e-38
-0.0361382101935 -0.0251396244824 0.849 2.35098730035e-38
-0.0345669836633 -0.0251396244824 0.849 2.21244190209e-38
-0.0329957571332 -0.0251396244824 0.849 2.35091513348e-38
-0.0313505034402 -0.0250804027522 0.847 2.01829228011e-38
-0.0297829782682 -0.0250804027522 0.847 1.52900706104e-38
-0.0282154530962 -0.0250804027522 0.847 1.74015737611e-38
-0.0265220817475 -0.0249619592917 0.843 1.73943696857e-38
-0.0249619592917 -0.0249619592917 0.843 1.69330257975e-38
-0.023401836836 -0.0249619592917 0.843 1.71174170572e-38
-0.0218417143803 -0.0249619592917 0.843 1.59177976718e-38
-0.0202815919245 -0.0249619592917 0.843 1.65610118838e-38
0.0637151790106 -0.026827443794 0.906 2.12903423528e-38
0.0653918942478 -0.026827443794 0.906 2.20279073917e-38
0.0670686094849 -0.026827443794 0.906 2.11995886591e-38
0.0685176911964 -0.0267386111986 0.903 2.23055802876e-38
0.0701888543963 -0.0267386111986 0.903 2.19360775008e-38
0.0717008591963 -0.0266793894684 0.901 2.23048572176e-38
0.0731240314008 -0.026590556873 0.898 2.29513028239e-38
0.0747859412054 -0.026590556873 0.898 2.14768916122e-38
0.07644785101 -0.026590556873 0.898 2.16623590691e-38
0.077935796982 -0.0265313351428 0.896 2.23077284782e-38
0.0794163402377 -0.0264721134126 0.894 2.30445662432e-38
0.0807987975028 -0.0263832808172 0.891 2.24906764005e-38
0.0822626846469 -0.026324059087 0.889 2.33208014069e-38
0.0839079383398 -0.026324059087 0.889 2.14790524144e-38
0.0853607214095 -0.0262648373568 0.887 2.3415157839e-38
0.0870022737443 -0.0262648373568 0.887 2.35077150038e-38
0.0886438260791 -0.0262648373568 0.887 1.97136517675e-38
0.0900818037162 -0.0262056156265 0.885 7.71922074655e-39
0.0917196546929 -0.0262056156265 0.885 1.00161927555e-38
0.0933575056696 -0.0262056156265 0.885 1.61018231926e-38
0.0949953566462 -0.0262056156265 0.885 1.58273943026e-38
-0.0345669836633 -0.0235683979523 0.849 2.2954176887e-38
-0.0329957571332 -0.0235683979523 0.849 2.31378520833e-38
-0.031424530603 -0.0235683979523 0.849 2.35084408764e-38
-0.0297829782682 -0.0235128775802 0.847 1.88885840473e-38
-0.0282154530962 -0.0235128775802 0.847 1.71271420686e-38
-0.0265220817475 -0.023401836836 0.843 1.78571400958e-38
-0.0249619592917 -0.023401836836 0.843 1.79468274014e-38
-0.023401836836 -0.023401836836 0.843 1.58266894495e-38
-0.0217898953663 -0.0233463164639 0.841 1.60110807092e-38
-0.0202334742687 -0.0233463164639 0.841 1.49940547176e-38
0.0685176911964 -0.0250674479987 0.903 2.16627220054e-38
0.0701888543963 -0.0250674479987 0.903 2.23088130832e-38
0.0717008591963 -0.0250119276266 0.901 2.19400305637e-38
0.0731240314008 -0.0249286470685 0.898 2.23080942171e-38
0.0747859412054 -0.0249286470685 0.898 2.27672773031e-38
0.07644785101 -0.0249286470685 0.898 2.23970556501e-38
0.077935796982 -0.0248731266964 0.896 2.25807280437e-38
0.0794163402377 -0.0248176063243 0.894 2.12003047226e-38
0.0807987975028 -0.0247343257662 0.891 2.2402445044e-38
0.0822626846469 -0.0246788053941 0.889 2.19414696973e-38
0.0839079383398 -0.0246788053941 0.889 2.35059185392e-38
0.0855531920328 -0.0246788053941 0.889 2.30309049845e-38
0.0870022737443 -0.024623285022 0.887 6.79582671569e-39
0.0886438260791 -0.024623285022 0.887 1.10296244166e-38
0.0902853784139 -0.024623285022 0.887 1.45316122114e-38
0.0919269307487 -0.024623285022 0.887 1.73889606736e-38
0.0891379573907 -0.0234573572081 0.845 1.73922004757e-38
0.0907017812046 -0.0234573572081 0.845 1.60128645622e-38
-0.0345669836633 -0.0219971714221 0.849 2.35091555386e-38
-0.0329957571332 -0.0219971714221 0.849 2.20307884614e-38
-0.031424530603 -0.0219971714221 0.849 2.35066430105e-38
-0.0297829782682 -0.0219453524082 0.847 2.15644181156e-38
-0.0282154530962 -0.0219453524082 0.847 1.62087885083e-38
-0.0265850048358 -0.0218935333942 0.845 1.82302470223e-38
-0.0249619592917 -0.0218417143803 0.843 1.81330249348e-38
-0.023401836836 -0.0218417143803 0.843 1.70259613129e-38
-0.0217898953663 -0.0217898953663 0.841 1.73947438324e-38
-0.0201853566129 -0.0217380763524 0.839 1.65613860305e-38
-0.0185438042781 -0.0216344383245 0.835 1.48049901275e-38
-0.0169170573759 -0.0215308002966 0.831 1.48946690253e-38
-0.015379143069 -0.0215308002966 0.831 1.63723158352e-38
0.0685176911964 -0.0233962847988 0.903 2.11131369516e-38
0.0701888543963 -0.0233962847988 0.903 2.20322205884e-38
0.0717008591963 -0.0233444657848 0.901 2.26750788706e-38
0.0731240314008 -0.0232667372639 0.898 2.35055640107e-38
0.0747859412054 -0.0232667372639 0.898 2.2490335885e-38
0.07644785101 -0.0232667372639 0.898 2.21229953016e-38
0.077935796982 -0.02321491825 0.896 2.16638178208e-38
0.0794163402377 -0.023163099236 0.894 2.24010269299e-38
0.0806174309539 -0.0230335517011 0.889 2.35052164887e-38
0.0822626846469 -0.0230335517011 0.889 2.34976536809e-38
0.0839079383398 -0.0230335517011 0.889 8.91670175054e-39
0.0855531920328 -0.0230335517011 0.889 9.82893303783e-39
0.0824903181724 -0.0217898953663 0.841 1.38815750772e-38
0.08404673927 -0.0217898953663 0.841 1.8121846777e-38
0.0858067350653 -0.0218417143803 0.843 1.68325414872e-38
0.087366857521 -0.0218417143803 0.843 1.61000197215e-38
0.0891379573907 -0.0218935333942 0.845 1.72996475147e-38
0.0907017812046 -0.0218935333942 0.845 1.77617074664e-38
-0.0330734856541 -0.0204740625478 0.851 2.35080793414e-38
-0.031424530603 -0.020425944892 0.849 2.28601946016e-38
-0.0298533040729 -0.020425944892 0.849 2.35070073481e-38
-0.0282154530962 -0.0203778272361 0.847 2.0362272189e-38
-0.0265850048358 -0.0203297095803 0.845 1.48254883214e-38
-0.0249619592917 -0.0202815919245 0.843 1.78585960449e-38
-0.023401836836 -0.0202815919245 0.843 1.65657020297e-38
-0.0217898953663 -0.0202334742687 0.841 1.6012525448e-38
-0.0201372389571 -0.0201372389571 0.837 1.55493864964e-38
-0.0185438042781 -0.0200891213013 0.835 1.64666638595e-38
-0.0169170573759 -0.0199928859897 0.831 1.37904710588e-38
-0.015379143069 -0.0199928859897 0.831 1.65548980186e-38
-0.0138412287621 -0.0199928859897 0.831 1.61861154991e-38
0.0717008591963 -0.0216770039431 0.901 2.1662724808e-38
0.0731240314008 -0.0216048274593 0.898 2.13868567846e-38
0.0695392660429 -0.0200891213013 0.835 2.2492129547e-38
0.0709143205917 -0.0200410036455 0.833 2.35062842781e-38
0.0724559362567 -0.0200410036455 0.833 2.35084450803e-38
0.0741752171124 -0.0200891213013 0.835 2.33096722945e-38
0.0757205341356 -0.0200891213013 0.835 9.83759866753e-39
0.0774509190657 -0.0201372389571 0.837 9.64275792516e-39
0.078999937447 -0.0201372389571 0.837 1.19418823286e-38
0.0807414264516 -0.0201853566129 0.839 1.6737841737e-38
0.0824903181724 -0.0202334742687 0.841 1.65592000049e-38
0.08404673927 -0.0202334742687 0.841 1.63780485472e-38
0.0858067350653 -0.0202815919245 0.843 1.63769709487e-38
0.087366857521 -0.0202815919245 0.843 1.66564389079e-38
0.0891379573907 -0.0203297095803 0.845 1.68397539704e-38
0.0907017812046 -0.0203297095803 0.845 1.59163627421e-38
0.0927023652789 -0.020425944892 0.849 1.66604059839e-38
-0.0314985577658 -0.0188991346595 0.851 2.35062814755e-38
-0.0298533040729 -0.0188547183618 0.849 2.35059241444e-38
-0.0281488286497 -0.0187658857665 0.845 2.35059255457e-38
-0.0265220817475 -0.0187214694688 0.843 1.64893284608e-38
-0.0249027375615 -0.0186770531711 0.841 1.7676715912e-38
-0.0233463164639 -0.0186770531711 0.841 1.74887261178e-38
-0.0217898953663 -0.0186770531711 0.841 1.68433539062e-38
-0.0201372389571 -0.0185882205758 0.837 1.54600565219e-38
-0.0185438042781 -0.0185438042781 0.835 1.65649621442e-38
-0.0169170573759 -0.0184549716828 0.831 1.60096261614e-38
-0.015379143069 -0.0184549716828 0.831 1.67453891305e-38
-0.0138412287621 -0.0184549716828 0.831 1.62818900453e-38
0.0676682295035 -0.0184549716828 0.831 2.34180375073e-38
0.0692061438103 -0.0184549716828 0.831 2.35080751375e-38
0.0709143205917 -0.0184993879804 0.833 2.26621196624e-38
0.0724559362567 -0.0184993879804 0.833 7.90182394944e-39
0.0741752171124 -0.0185438042781 0.835 1.03774432957e-38
0.0757205341356 -0.0185438042781 0.835 1.32329924907e-38
0.0774509190657 -0.0185882205758 0.837 1.6001727042e-38
0.078999937447 -0.0185882205758 0.837 1.618682876e-38
0.0807414264516 -0.0186326368734 0.839 1.69247497288e-38
0.0824903181724 -0.0186770531711 0.841 1.60045955e-38
0.08404673927 -0.0186770531711 0.841 1.53660686313e-38
0.0858067350653 -0.0187214694688 0.843 1.40807332201e-38
0.0875741335768 -0.0187658857665 0.845 1.59239199448e-38
0.0891379573907 -0.0187658857665 0.845 1.67504422128e-38
0.0911311387487 -0.0188547183618 0.849 1.69348376764e-38
0.0927023652789 -0.0188547183618 0.849 1.81405807361e-38
-0.0297126524636 -0.0172020619526 0.845 2.31360598225e-38
-0.0281488286497 -0.0172020619526 0.845 2.35077234116e-38
-0.0265220817475 -0.0171613470131 0.843 2.11945453859e-38
-0.0249027375615 -0.0171206320735 0.841 1.67597930774e-38
-0.0233463164639 -0.0171206320735 0.841 1.52792623953e-38
-0.0217898953663 -0.0171206320735 0.841 1.70291772929e-38
-0.0201372389571 -0.0170392021945 0.837 1.55540444125e-38
-0.0185438042781 -0.0169984872549 0.835 1.52781749877e-38
-0.0169170573759 -0.0169170573759 0.831 1.54622005086e-38
-0.015379143069 -0.0169170573759 0.831 1.56444309661e-38
-0.0138412287621 -0.0169170573759 0.831 1.52727687783e-38
-0.0123625361854 -0.0169984872549 0.835 1.63740856751e-38
0.0612204636247 -0.0168356274968 0.827 2.20333136012e-38
0.0627509752153 -0.0168356274968 0.827 2.31396639622e-38
0.064281486806 -0.0168356274968 0.827 2.35070059468e-38
0.0659711567966 -0.0168763424363 0.829 2.35052052783e-38
0.0675053697453 -0.0168763424363 0.829 1.99862883967e-38
0.0692061438103 -0.0169170573759 0.831 7.53159949386e-39
0.0709143205917 -0.0169577723154 0.833 1.05664952741e-38
0.0724559362567 -0.0169577723154 0.833 1.1023513354e-38
0.0741752171124 -0.0169984872549 0.835 1.70122762321e-38
0.0757205341356 -0.0169984872549 0.835 1.71069899953e-38
0.0774509190657 -0.0170392021945 0.837 1.48071313115e-38
0.078999937447 -0.0170392021945 0.837 1.46259770513e-38
0.0807414264516 -0.017079917134 0.839 1.55479361525e-38
0.0824903181724 -0.0171206320735 0.841 1.61918748358e-38
0.08404673927 -0.0171206320735 0.841 1.59163767551e-38
0.0858067350653 -0.0171613470131 0.843 1.65639083677e-38
0.0875741335768 -0.0172020619526 0.845 1.5092727149e-38
0.0893489348046 -0.0172427768921 0.847 1.72150216992e-38
0.0911311387487 -0.0172834918317 0.849 1.60200812493e-38
-0.0264591586591 -0.0155642109759 0.841 2.35062772716e-38
-0.0249027375615 -0.0155642109759 0.841 2.06381233969e-38
-0.0233463164639 -0.0155642109759 0.841 1.70363771644e-38
-0.0217898953663 -0.0155642109759 0.841 1.71231749926e-38
-0.0201853566129 -0.0155271973945 0.839 1.61976215608e-38
-0.0185438042781 -0.0154531702318 0.835 1.64760035137e-38
-0.0169577723154 -0.0154161566504 0.833 1.42640244605e-38
-0.0154161566504 -0.0154161566504 0.833 1.55526038777e-38
-0.0139078532086 -0.0154531702318 0.835 1.55493668782e-38
-0.0123329253203 -0.0154161566504 0.833 1.61907846256e-38
-0.0107654001483 -0.015379143069 0.831 1.57326903485e-38
-0.00922748584138 -0.015379143069 0.831 1.53657113002e-38
0.0596899520341 -0.0153051159062 0.827 2.35008808712e-38
0.0612204636247 -0.0153051159062 0.827 2.35091513348e-38
0.0627509752153 -0.0153051159062 0.827 2.35012325971e-38
0.064281486806 -0.0153051159062 0.827 1.47293396286e-38
0.0659711567966 -0.0153421294876 0.829 8.9080627455e-39
0.0675053697453 -0.0153421294876 0.829 1.17571337377e-38
0.0692061438103 -0.015379143069 0.831 1.65509463569e-38
0.0709143205917 -0.0154161566504 0.833 1.57251401524e-38
0.0724559362567 -0.0154161566504 0.833 1.69279993399e-38
0.0741752171124 -0.0154531702318 0.835 1.50891160028e-38
0.0757205341356 -0.0154531702318 0.835 1.63766178215e-38
0.0774509190657 -0.0154901838131 0.837 1.63733836246e-38
0.078999937447 -0.0154901838131 0.837 1.69272804738e-38
0.0807414264516 -0.0155271973945 0.839 1.5734133686e-38
0.0824903181724 -0.0155642109759 0.841 1.60128785752e-38
0.08404673927 -0.0155642109759 0.841 1.6470619725e-38
0.0858067350653 -0.0156012245573 0.843 1.79403534025e-38
0.0875741335768 -0.0156382381387 0.845 1.7211424566e-38
0.0891379573907 -0.0156382381387 0.845 1.54676263362e-38
0.0907017812046 -0.0156382381387 0.845 2.15615342433e-38
-0.0264591586591 -0.0140077898783 0.841 2.24874422036e-38
-0.0249027375615 -0.0140077898783 0.841 2.35048297303e-38
-0.0233463164639 -0.0140077898783 0.841 1.87931346024e-38
-0.0217898953663 -0.0140077898783 0.841 1.74001290224e-38
-0.0201853566129 -0.0139744776551 0.839 1.75794854167e-38
-0.0185882205758 -0.0139411654318 0.837 1.60125170402e-38
-0.0169984872549 -0.0139078532086 0.835 1.59203214103e-38
-0.0154531702318 -0.0139078532086 0.835 1.59174445446e-38
-0.0139078532086 -0.0139078532086 0.835 1.6190434301e-38
-0.0123329253203 -0.0138745409853 0.833 1.4996568647e-38
-0.0107654001483 -0.0138412287621 0.831 1.44419627408e-38
-0.00922748584138 -0.0138412287621 0.831 1.60064115828e-38
-0.00768957153448 -0.0138412287621 0.831 1.54499923963e-38
-0.00615165722759 -0.0138412287621 0.831 1.65559672093e-38
0.0581594404435 -0.0137746043156 0.827 2.3507359074e-38
0.0596899520341 -0.0137746043156 0.827 1.8703466915e-38
0.0612204636247 -0.0137746043156 0.827 1.23218051708e-38
0.0627509752153 -0.0137746043156 0.827 9.55089160043e-39
0.0644369438478 -0.0138079165388 0.829 1.15774031967e-38
0.0659711567966 -0.0138079165388 0.829 1.50815630041e-38
0.0675053697453 -0.0138079165388 0.829 1.47124273574e-38
0.0692061438103 -0.0138412287621 0.831 1.61882847091e-38
0.0709143205917 -0.0138745409853 0.833 1.4900066827e-38
0.0726299000892 -0.0139078532086 0.835 1.35178526465e-38
0.0741752171124 -0.0139078532086 0.835 1.41650101123e-38
0.0759019006844 -0.0139411654318 0.837 1.53635533006e-38
0.0776359869727 -0.0139744776551 0.839 1.526956541e-38
0.0791887067122 -0.0139744776551 0.839 1.61893665116e-38
0.0809338970749 -0.0140077898783 0.841 1.67414584883e-38
0.0826864901538 -0.0140411021016 0.843 1.56383395216e-38
0.0842466126096 -0.0140411021016 0.843 1.70252186248e-38
0.0858067350653 -0.0140411021016 0.843 1.68451321539e-38
0.0875741335768 -0.0140744143248 0.845 1.7213579763e-38
0.0891379573907 -0.0140744143248 0.845 2.20163957249e-38
-0.0249027375615 -0.0124513687807 0.841 2.23041299437e-38
-0.0233463164639 -0.0124513687807 0.841 2.30370104419e-38
-0.0217898953663 -0.0124513687807 0.841 1.69441843372e-38
-0.0201853566129 -0.0124217579156 0.839 1.72139342915e-38
-0.0185882205758 -0.0123921470505 0.837 1.70248683001e-38
-0.0169984872549 -0.0123625361854 0.835 1.59170844109e-38
-0.0154531702318 -0.0123625361854 0.835 1.68383232447e-38
-0.0139078532086 -0.0123625361854 0.835 1.52706416072e-38
-0.0123329253203 -0.0123329253203 0.833 1.59174487485e-38
-0.0107654001483 -0.0123033144552 0.831 1.52713604733e-38
-0.00922748584138 -0.0123033144552 0.831 1.53613953009e-38
-0.00767106474379 -0.0122737035901 0.829 1.64655792545e-38
-0.00613685179503 -0.0122737035901 0.829 1.55436201532e-38
-0.00459153477185 -0.0122440927249 0.827 1.57290876102e-38
-0.00306102318124 -0.0122440927249 0.827 1.62822613894e-38
0.0438481391977 -0.0120960383994 0.817 2.3138573752e-38
0.0453601439976 -0.0120960383994 0.817 2.3506621991e-38
0.0468721487976 -0.0120960383994 0.817 2.35051982718e-38
0.0483841535975 -0.0120960383994 0.817 2.30507067331e-38
0.050018303216 -0.0121256492645 0.819 2.31425436305e-38
0.0581594404435 -0.0122440927249 0.827 8.90947805695e-39
0.0596899520341 -0.0122440927249 0.827 1.03817214599e-38
0.0612204636247 -0.0122440927249 0.827 1.41556508399e-38
0.062902730899 -0.0122737035901 0.829 1.55375118932e-38
0.0644369438478 -0.0122737035901 0.829 1.55389510268e-38
0.0659711567966 -0.0122737035901 0.829 1.50801308771e-38
0.0676682295035 -0.0123033144552 0.831 1.48046201847e-38
0.0692061438103 -0.0123033144552 0.831 1.32380133431e-38
0.0709143205917 -0.0123329253203 0.833 1.44372753975e-38
0.0726299000892 -0.0123625361854 0.835 1.59124026727e-38
0.0743528823031 -0.0123921470505 0.837 1.61915076956e-38
0.0760832672332 -0.0124217579156 0.839 1.57308966865e-38
0.0778210548797 -0.0124513687807 0.841 1.45312815049e-38
0.0793774759773 -0.0124513687807 0.841 1.66521369216e-38
0.0811263676981 -0.0124809796459 0.843 1.5731251215e-38
0.0826864901538 -0.0124809796459 0.843 1.72096126871e-38
0.0842466126096 -0.0124809796459 0.843 1.7400117812e-38
0.0858067350653 -0.0124809796459 0.843 1.5283937127e-38
0.087366857521 -0.0124809796459 0.843 1.92562763566e-38
0.0891379573907 -0.012510590511 0.845 2.35055598068e-38
-0.0233463164639 -0.0108949476832 0.841 2.34065188339e-38
-0.0217898953663 -0.0108949476832 0.841 2.27550285532e-38
-0.0202334742687 -0.0108949476832 0.841 1.86004686752e-38
-0.0185882205758 -0.0108431286692 0.837 1.7119580662e-38
-0.0170392021945 -0.0108431286692 0.837 1.69326754729e-38
-0.0154531702318 -0.0108172191622 0.835 1.69308818108e-38
-0.0139078532086 -0.0108172191622 0.835 1.61011239447e-38
-0.0123329253203 -0.0107913096553 0.833 1.573233582e-38
-0.0107654001483 -0.0107654001483 0.831 1.54553873954e-38
-0.00922748584138 -0.0107654001483 0.831 1.56383395216e-38
-0.00767106474379 -0.0107394906413 0.829 1.61897126323e-38
-0.00613685179503 -0.0107394906413 0.829 1.41614087753e-38
-0.00459153477185 -0.0107135811343 0.827 1.51759166336e-38
-0.00305362046496 -0.0106876716274 0.825 1.58216461763e-38
-0.00152681023248 -0.0106876716274 0.825 1.48074942478e-38
0.0409240662676 -0.0106099431064 0.819 2.29585026954e-38
0.0424397724257 -0.0106099431064 0.819 2.3142536624e-38
0.0438481391977 -0.0105840335994 0.817 2.31421708851e-38
0.0453601439976 -0.0105840335994 0.817 2.2956697823e-38
0.0468721487976 -0.0105840335994 0.817 2.35095114685e-38
0.0483841535975 -0.0105840335994 0.817 2.35070003416e-38
0.050018303216 -0.0106099431064 0.819 2.35012606231e-38
0.0516598555508 -0.0106358526134 0.821 1.40846778753e-38
0.053179263067 -0.0106358526134 0.821 8.4524529706e-39
0.0548319194762 -0.0106617621204 0.823 8.72438614799e-39
0.0564919786017 -0.0106876716274 0.825 1.27694962081e-38
0.0581594404435 -0.0107135811343 0.827 1.50721869161e-38
0.0596899520341 -0.0107135811343 0.827 1.59008713876e-38
0.0613685179503 -0.0107394906413 0.829 1.58137330439e-38
0.062902730899 -0.0107394906413 0.829 1.49857786489e-38
0.0645924008897 -0.0107654001483 0.831 1.39723441852e-38
0.0661303151966 -0.0107654001483 0.831 1.53563548304e-38
0.0676682295035 -0.0107654001483 0.831 1.58180490432e-38
0.0693727049266 -0.0107913096553 0.833 1.46205820522e-38
0.0710845830661 -0.0108172191622 0.835 1.54510615871e-38
0.0728038639218 -0.0108431286692 0.837 1.50822790676e-38
0.0745305474938 -0.0108690381762 0.839 1.61907846256e-38
0.0762646337821 -0.0108949476832 0.841 1.62826271283e-38
0.0780061227866 -0.0109208571901 0.843 1.60989631424e-38
0.0795662452424 -0.0109208571901 0.843 1.70216383072e-38
0.0811263676981 -0.0109208571901 0.843 1.66568046468e-38
0.0826864901538 -0.0109208571901 0.843 1.60164644979e-38
0.08404673927 -0.0108949476832 0.841 1.58367549764e-38
0.0856031603676 -0.0108949476832 0.841 1.85140351847e-38
0.087366857521 -0.0109208571901 0.843 2.3507720609e-38
-0.0233463164639 -0.00933852658556 0.841 2.18395574639e-38
-0.0217898953663 -0.00933852658556 0.841 2.34979998016e-38
-0.0202334742687 -0.00933852658556 0.841 2.13713780417e-38
-0.0186326368734 -0.00931631843672 0.839 1.58346011806e-38
-0.017079917134 -0.00931631843672 0.839 1.73972521566e-38
-0.0154531702318 -0.00927190213905 0.835 1.5918887882e-38
-0.0139078532086 -0.00927190213905 0.835 1.69308818108e-38
-0.0123329253203 -0.00924969399022 0.833 1.58256048445e-38
-0.0107913096553 -0.00924969399022 0.833 1.56404947187e-38
-0.00924969399022 -0.00924969399022 0.833 1.59156396721e-38
-0.00768957153448 -0.00922748584138 0.831 1.59138446088e-38
-0.00613685179503 -0.00920527769254 0.829 1.51755607038e-38
-0.00459153477185 -0.00918306954371 0.827 1.58209301128e-38
-0.00305362046496 -0.00916086139487 0.825 1.60982358685e-38
-0.00152681023248 -0.00916086139487 0.825 1.47153042232e-38
0.0 -0.00916086139487 0.825 1.48118018393e-38
0.00152681023248 -0.00916086139487 0.825 1.50855132645e-38
0.00306102318124 -0.00918306954371 0.827 1.59080866734e-38
0.0394083601096 -0.00909423694836 0.819 2.23131346877e-38
0.0409240662676 -0.00909423694836 0.819 2.35091681503e-38
0.0424397724257 -0.00909423694836 0.819 2.35087926023e-38
0.0439554785838 -0.00909423694836 0.819 2.35069989403e-38
0.0454711847418 -0.00909423694836 0.819 2.34937020192e-38
0.0469868908999 -0.00909423694836 0.819 1.46403809982e-38
0.0485025970579 -0.00909423694836 0.819 1.01098219137e-38
0.050018303216 -0.00909423694836 0.819 9.09171411964e-39
0.0516598555508 -0.0091164450972 0.821 1.1483753019e-38
0.053179263067 -0.0091164450972 0.821 1.36006455636e-38
0.0548319194762 -0.00913865324604 0.823 1.54409946589e-38
0.0564919786017 -0.00916086139487 0.825 1.59001819488e-38
0.0581594404435 -0.00918306954371 0.827 1.65458890708e-38
0.0596899520341 -0.00918306954371 0.827 1.63618635499e-38
0.0613685179503 -0.00920527769254 0.829 1.57215346115e-38
0.062902730899 -0.00920527769254 0.829 1.53549100916e-38
0.0645924008897 -0.00922748584138 0.831 1.48024551786e-38
0.0661303151966 -0.00922748584138 0.831 1.58173301771e-38
0.0676682295035 -0.00922748584138 0.831 1.48038971147e-38
0.0693727049266 -0.00924969399022 0.833 1.73864537507e-38
0.0710845830661 -0.00927190213905 0.835 1.64648575858e-38
0.0728038639218 -0.00929411028789 0.837 1.46216638546e-38
0.0747082126845 -0.00933852658556 0.841 1.71112989881e-38
0.0762646337821 -0.00933852658556 0.841 1.49915253739e-38
0.0780061227866 -0.0093607347344 0.843 1.70209194411e-38
0.0797550145075 -0.00938294288323 0.845 1.61014840784e-38
0.0813188383213 -0.00938294288323 0.845 1.6383817693e-38
0.0826864901538 -0.0093607347344 0.843 1.61129817323e-38
0.08404673927 -0.00933852658556 0.841 1.76853507131e-38
0.0856031603676 -0.00933852658556 0.841 2.35044836096e-38
-0.0186770531711 -0.00778210548797 0.841 1.80527011055e-38
-0.0171206320735 -0.00778210548797 0.841 1.62963052026e-38
-0.0154901838131 -0.00774509190657 0.837 1.56455379918e-38
-0.0139078532086 -0.00772658511588 0.835 1.7208907834e-38
-0.0123329253203 -0.00770807832518 0.833 1.58256020419e-38
-0.0107913096553 -0.00770807832518 0.833 1.54568167199e-38
-0.00922748584138 -0.00768957153448 0.831 1.55479333499e-38
-0.00768957153448 -0.00768957153448 0.831 1.54539426567e-38
-0.00613685179503 -0.00767106474379 0.829 1.58209301128e-38
-0.00460263884627 -0.00767106474379 0.829 1.51755635064e-38
-0.00305362046496 -0.00763405116239 0.825 1.61897168362e-38
-0.00152681023248 -0.00763405116239 0.825 1.48993381518e-38
0.0 -0.00763405116239 0.825 1.47167335476e-38
0.00152681023248 -0.00763405116239 0.825 1.58194881767e-38
0.00304621774868 -0.0076155443717 0.823 1.5631143854e-38
0.00456932662302 -0.0076155443717 0.823 1.71955856895e-38
0.00609243549736 -0.0076155443717 0.823 1.73803286751e-38
0.0394083601096 -0.0075785307903 0.819 2.35059241444e-38
0.0409240662676 -0.0075785307903 0.819 2.20160468015e-38
0.0424397724257 -0.0075785307903 0.819 1.30662155527e-38
0.0439554785838 -0.0075785307903 0.819 7.4386751888e-39
0.0454711847418 -0.0075785307903 0.819 1.1482358727e-38
0.0471016330022 -0.007597037581 0.821 1.27694849977e-38
0.0486210405184 -0.007597037581 0.821 1.48910354584e-38
0.0501404480346 -0.007597037581 0.821 1.47995586946e-38
0.0517857017275 -0.0076155443717 0.823 1.64587142933e-38
0.0534383581368 -0.00763405116239 0.825 1.42452975079e-38
0.0549651683692 -0.00763405116239 0.825 1.53516618818e-38
0.0566289288529 -0.00765255795309 0.827 1.4707382683e-38
0.0583000920528 -0.00767106474379 0.829 1.62765020527e-38
0.0598343050015 -0.00767106474379 0.829 1.48942948786e-38
0.0613685179503 -0.00767106474379 0.829 1.50786777306e-38
0.0630544865828 -0.00768957153448 0.831 1.52623473216e-38
0.0645924008897 -0.00768957153448 0.831 1.544746025e-38
0.0662894735965 -0.00770807832518 0.833 1.57244086746e-38
0.0679939490197 -0.00772658511588 0.835 1.48038971147e-38
0.0695392660429 -0.00772658511588 0.835 1.42521652716e-38
0.0712548455405 -0.00774509190657 0.837 1.44379956649e-38
0.0729778277543 -0.00776359869727 0.839 1.49007744827e-38
0.0747082126845 -0.00778210548797 0.841 1.53595806194e-38
0.0764460003309 -0.00780061227866 0.843 1.64666526491e-38
0.0781911906936 -0.00781911906936 0.845 1.61011211421e-38
0.0797550145075 -0.00781911906936 0.845 1.61054427465e-38
-0.0170392021945 -0.00619607352526 0.837 1.86977103809e-38
-0.0154901838131 -0.00619607352526 0.837 1.46349859991e-38
-0.0139078532086 -0.0061812680927 0.835 1.63831058333e-38
-0.0123329253203 -0.00616646266014 0.833 1.68422721037e-38
-0.0107913096553 -0.00616646266014 0.833 1.61954607586e-38
-0.00922748584138 -0.00615165722759 0.831 1.62862172549e-38
-0.00768957153448 -0.00615165722759 0.831 1.55468571527e-38
-0.00615165722759 -0.00615165722759 0.831 1.54528664595e-38
-0.00460263884627 -0.00613685179503 0.829 1.48067809869e-38
-0.00306102318124 -0.00612204636247 0.827 1.55443474271e-38
-0.00152681023248 -0.00610724092991 0.825 1.50837294115e-38
0.0 -0.00610724092991 0.825 1.55411090264e-38
0.00152681023248 -0.00610724092991 0.825 1.60020913796e-38
0.0030388150324 -0.0060776300648 0.821 1.49886625211e-38
0.0045582225486 -0.0060776300648 0.821 1.4436559334e-38
0.00606282463224 -0.00606282463224 0.819 1.43447112261e-38
0.0075785307903 -0.00606282463224 0.819 1.51730285575e-38
0.00909423694836 -0.00606282463224 0.819 1.52627116592e-38
0.0105581240925 -0.00603321376713 0.815 1.24021416118e-38
0.0120368166691 -0.00601840833457 0.813 1.10231742398e-38
0.0135414187528 -0.00601840833457 0.813 1.05675924908e-38
0.0378926539515 -0.00606282463224 0.819 1.01030073993e-38
0.0394083601096 -0.00606282463224 0.819 1.01948386915e-38
0.0409240662676 -0.00606282463224 0.819 9.45905750557e-39
0.0424397724257 -0.00606282463224 0.819 1.2496132305e-38
0.0439554785838 -0.00606282463224 0.819 1.54431526585e-38
0.0454711847418 -0.00606282463224 0.819 1.59934411642e-38
0.0469868908999 -0.00606282463224 0.819 1.6545181415e-38
0.0486210405184 -0.0060776300648 0.821 1.57208115415e-38
0.0501404480346 -0.0060776300648 0.821 1.40638041334e-38
0.0516598555508 -0.0060776300648 0.821 1.5631129841e-38
0.0533088106019 -0.00609243549736 0.823 1.48017251021e-38
0.0550984172622 -0.00612204636247 0.827 1.49868324253e-38
0.0566289288529 -0.00612204636247 0.827 1.41585136927e-38
0.0583000920528 -0.00613685179503 0.829 1.46212981157e-38
0.0598343050015 -0.00613685179503 0.829 1.48982479416e-38
0.0615165722759 -0.00615165722759 0.831 1.55403691408e-38
0.0630544865828 -0.00615165722759 0.831 1.46173338423e-38
0.0647478579315 -0.00616646266014 0.833 1.46169779125e-38
0.0664486319965 -0.0061812680927 0.835 1.57236898085e-38
0.0679939490197 -0.0061812680927 0.835 1.41578088395e-38
0.0697058271592 -0.00619607352526 0.837 1.5451427326e-38
0.0714251080149 -0.00621087895782 0.839 1.50848084113e-38
0.0731517915869 -0.00622568439037 0.841 1.55479473629e-38
0.0748858778752 -0.00624048982293 0.843 1.69301433266e-38
0.0764460003309 -0.00624048982293 0.843 1.62854983888e-38
0.0780061227866 -0.00624048982293 0.843 1.70270333063e-38
-0.0154901838131 -0.00464705514394 0.837 1.80505431059e-38
-0.0139411654318 -0.00464705514394 0.837 1.54665445338e-38
-0.0123329253203 -0.00462484699511 0.833 1.50927159386e-38
-0.0107913096553 -0.00462484699511 0.833 1.70255843637e-38
-0.00924969399022 -0.00462484699511 0.833 1.51802326329e-38
-0.00770807832518 -0.00462484699511 0.833 1.61922293643e-38
-0.00615165722759 -0.00461374292069 0.831 1.56372577192e-38
-0.00460263884627 -0.00460263884627 0.829 1.5728734483e-38
-0.00306102318124 -0.00459153477185 0.827 1.63741066946e-38
-0.00152681023248 -0.00458043069744 0.825 1.52677591362e-38
0.0 -0.00458043069744 0.825 1.5727659687e-38
0.00152681023248 -0.00458043069744 0.825 1.49897415209e-38
0.0030388150324 -0.0045582225486 0.821 1.48975486937e-38
0.0045582225486 -0.0045582225486 0.821 1.55425523638e-38
0.00606282463224 -0.00454711847418 0.819 1.57265764833e-38
0.0075785307903 -0.00454711847418 0.819 1.53556289578e-38
0.00907202879953 -0.00453601439976 0.817 1.57229793502e-38
0.0105581240925 -0.00452491032535 0.815 1.65505932297e-38
0.0120368166691 -0.00451380625093 0.813 1.7377116899e-38
0.0135414187528 -0.00451380625093 0.813 1.35981694692e-38
0.0150460208364 -0.00451380625093 0.813 1.06529371725e-38
0.0165506229201 -0.00451380625093 0.813 1.03806620783e-38
0.0348612416354 -0.00454711847418 0.819 9.45943585616e-39
0.0363769477935 -0.00454711847418 0.819 1.17567483806e-38
0.0378926539515 -0.00454711847418 0.819 1.49803822485e-38
0.0394083601096 -0.00454711847418 0.819 1.44279133224e-38
0.0409240662676 -0.00454711847418 0.819 1.51672594117e-38
0.0424397724257 -0.00454711847418 0.819 1.59956075716e-38
0.0439554785838 -0.00454711847418 0.819 1.55346294223e-38
0.0454711847418 -0.00454711847418 0.819 1.5628237561e-38
0.0469868908999 -0.00454711847418 0.819 1.5627180982e-38
0.0486210405184 -0.0045582225486 0.821 1.53520500415e-38
0.0501404480346 -0.0045582225486 0.821 1.59062916101e-38
0.0516598555508 -0.0045582225486 0.821 1.53524017674e-38
0.0533088106019 -0.00456932662302 0.823 1.57211842868e-38
0.0550984172622 -0.00459153477185 0.827 1.56300396308e-38
0.0566289288529 -0.00459153477185 0.827 1.47084364594e-38
0.0583000920528 -0.00460263884627 0.829 1.51690754945e-38
0.059978657969 -0.00461374292069 0.831 1.49846842348e-38
0.0615165722759 -0.00461374292069 0.831 1.50783119917e-38
0.0632062422665 -0.00462484699511 0.833 1.50779560619e-38
0.0649033149734 -0.00463595106953 0.835 1.50768798646e-38
0.0664486319965 -0.00463595106953 0.835 1.54471057215e-38
0.0681568087778 -0.00464705514394 0.837 1.47109854213e-38
0.0697058271592 -0.00464705514394 0.837 1.50833692778e-38
0.0714251080149 -0.00465815921836 0.839 1.48096634579e-38
0.0733257554194 -0.0046803673672 0.843 1.44430445432e-38
0.0748858778752 -0.0046803673672 0.843 1.44455388545e-38
0.0766273668797 -0.00469147144162 0.845 1.49083218763e-38
-0.0139411654318 -0.00309803676263 0.837 1.72240194366e-38
-0.0123921470505 -0.00309803676263 0.837 1.38959762215e-38
-0.0108431286692 -0.00309803676263 0.837 1.63812995596e-38
-0.00927190213905 -0.00309063404635 0.835 1.57334092146e-38
-0.00772658511588 -0.00309063404635 0.835 1.6008558372e-38
-0.00616646266014 -0.00308323133007 0.833 1.59138446088e-38
-0.00461374292069 -0.00307582861379 0.831 1.56368947829e-38
-0.00306842589751 -0.00306842589751 0.829 1.55446991531e-38
-0.00153051159062 -0.00306102318124 0.827 1.50833650739e-38
0.0 -0.00306102318124 0.827 1.37011466895e-38
0.00152681023248 -0.00305362046496 0.825 1.45301912947e-38
0.00304621774868 -0.00304621774868 0.823 1.44362020028e-38
0.0045582225486 -0.0030388150324 0.821 1.5909174081e-38
0.00606282463224 -0.00303141231612 0.819 1.50786861384e-38
0.0075785307903 -0.00303141231612 0.819 1.55400202175e-38
0.00907202879953 -0.00302400959984 0.817 1.58158994513e-38
0.0105581240925 -0.00301660688356 0.815 1.50790644889e-38
0.0120368166691 -0.00300920416729 0.813 1.41596151133e-38
0.0135414187528 -0.00300920416729 0.813 1.50815630041e-38
0.0150460208364 -0.00300920416729 0.813 1.50779560619e-38
0.0165506229201 -0.00300920416729 0.813 1.60888639844e-38
0.0180996413014 -0.00301660688356 0.815 1.47019722696e-38
0.0195598270874 -0.00300920416729 0.813 1.39629680972e-38
0.021064429171 -0.00300920416729 0.813 1.3592754852e-38
0.0285874395892 -0.00300920416729 0.813 1.19400746535e-38
0.0300920416729 -0.00300920416729 0.813 1.25832818591e-38
0.0315966437565 -0.00300920416729 0.813 1.61767506215e-38
0.0332641055983 -0.00302400959984 0.817 1.65422989441e-38
0.0347761103982 -0.00302400959984 0.817 1.70940335897e-38
0.0362881151981 -0.00302400959984 0.817 1.4707007135e-38
0.037800119998 -0.00302400959984 0.817 1.43411126917e-38
0.0394083601096 -0.00303141231612 0.819 1.47091735424e-38
0.0409240662676 -0.00303141231612 0.819 1.55378482049e-38
0.0424397724257 -0.00303141231612 0.819 1.51672846351e-38
0.0439554785838 -0.00303141231612 0.819 1.53509598313e-38
0.0454711847418 -0.00303141231612 0.819 1.55349825495e-38
0.0471016330022 -0.0030388150324 0.821 1.57179472874e-38
0.0486210405184 -0.0030388150324 0.821 1.55346434353e-38
0.0501404480346 -0.0030388150324 0.821 1.56286159116e-38
0.0517857017275 -0.00304621774868 0.823 1.5258767004e-38
0.0534383581368 -0.00305362046496 0.825 1.58115862547e-38
0.0550984172622 -0.00306102318124 0.827 1.55360363259e-38
0.0566289288529 -0.00306102318124 0.827 1.46144317532e-38
0.0583000920528 -0.00306842589751 0.829 1.54417079198e-38
0.059978657969 -0.00307582861379 0.831 1.54420652509e-38
0.0616646266014 -0.00308323133007 0.833 1.572188914e-38
0.0633579979502 -0.00309063404635 0.835 1.4800292975e-38
0.0650587720152 -0.00309803676263 0.837 1.38783408803e-38
0.0666077903965 -0.00309803676263 0.837 1.50776099411e-38
0.0681568087778 -0.00309803676263 0.837 1.51719663732e-38
0.0697058271592 -0.00309803676263 0.837 1.46220351987e-38
0.0712548455405 -0.00309803676263 0.837 1.49944204565e-38
-0.0124513687807 -0.00155642109759 0.841 1.8045501234e-38
-0.0108949476832 -0.00155642109759 0.841 1.65653334882e-38
-0.00929411028789 -0.00154901838131 0.837 1.60107191742e-38
-0.00774509190657 -0.00154901838131 0.837 1.61007540019e-38
-0.00619607352526 -0.00154901838131 0.837 1.54528636569e-38
-0.00463595106953 -0.00154531702318 0.835 1.60056773024e-38
-0.00307582861379 -0.0015379143069 0.831 1.60056744998e-38
-0.00153421294876 -0.00153421294876 0.829 1.48993269414e-38
0.0 -0.00153051159062 0.827 1.56336437705e-38
0.00152681023248 -0.00152681023248 0.825 1.5817681903e-38
0.00304621774868 -0.00152310887434 0.823 1.4712777682e-38
0.0045582225486 -0.0015194075162 0.821 1.60042353662e-38
0.00606282463224 -0.00151570615806 0.819 1.46212981157e-38
0.0075785307903 -0.00151570615806 0.819 1.4989361769e-38
0.00907202879953 -0.00151200479992 0.817 1.51716090421e-38
0.0105581240925 -0.00150830344178 0.815 1.50772694256e-38
0.0120368166691 -0.00150460208364 0.813 1.49897303105e-38
0.0135414187528 -0.00150460208364 0.813 1.48964416679e-38
0.0150460208364 -0.00150460208364 0.813 1.47080861348e-38
0.0165506229201 -0.00150460208364 0.813 1.53498500029e-38
0.0180996413014 -0.00150830344178 0.815 1.46104814929e-38
0.0195598270874 -0.00150460208364 0.813 1.63625599953e-38
0.021064429171 -0.00150460208364 0.813 1.57193569936e-38
0.0225690312546 -0.00150460208364 0.813 1.44315006465e-38
0.0240736333383 -0.00150460208364 0.813 1.7746601469e-38
0.0255782354219 -0.00150460208364 0.813 1.55339063523e-38
0.0270828375056 -0.00150460208364 0.813 1.54431442507e-38
0.0285874395892 -0.00150460208364 0.813 1.62736181804e-38
0.0300920416729 -0.00150460208364 0.813 1.553640767e-38
0.0315966437565 -0.00150460208364 0.813 1.53512975442e-38
0.0332641055983 -0.00151200479992 0.817 1.65487631339e-38
0.0347761103982 -0.00151200479992 0.817 1.37821753719e-38
0.0362881151981 -0.00151200479992 0.817 1.52558761253e-38
0.037800119998 -0.00151200479992 0.817 1.49799940888e-38
0.0394083601096 -0.00151570615806 0.819 1.60867157939e-38
0.0409240662676 -0.00151570615806 0.819 1.54420820665e-38
0.0424397724257 -0.00151570615806 0.819 1.51672818325e-38
0.0439554785838 -0.00151570615806 0.819 1.52609250036e-38
0.045582225486 -0.0015194075162 0.821 1.50772722282e-38
0.0471016330022 -0.0015194075162 0.821 1.51705356475e-38
0.0486210405184 -0.0015194075162 0.821 1.47088246191e-38
0.0502625928532 -0.00152310887434 0.823 1.44322125061e-38
0.0517857017275 -0.00152310887434 0.823 1.53534681555e-38
0.0535679056716 -0.00153051159062 0.827 1.52609250036e-38
0.0550984172622 -0.00153051159062 0.827 1.39722951397e-38
0.056765879104 -0.00153421294876 0.829 1.52630297539e-38
0.0584407436621 -0.0015379143069 0.831 1.62747083906e-38
0.0601230109364 -0.00154161566504 0.833 1.49839695726e-38
0.061812680927 -0.00154531702318 0.835 1.3694669888e-38
0.0635097536339 -0.00154901838131 0.837 1.47999412491e-38
0.0652142290571 -0.00155271973945 0.839 1.59984844374e-38
0.0667669487965 -0.00155271973945 0.839 1.60914059398e-38
0.068319668536 -0.00155271973945 0.839 1.51716118447e-38
0.0698723882754 -0.00155271973945 0.839 1.4806429261e-38
-0.0124513687807 0.0 0.841 1.83307201222e-38
-0.0108949476832 0.0 0.841 1.60211462361e-38
-0.00931631843672 0.0 0.839 1.463353005e-38
-0.00776359869727 0.0 0.839 1.50880342004e-38
-0.00619607352526 0.0 0.837 1.60060402387e-38
-0.00464705514394 0.0 0.837 1.49900932468e-38
-0.00309063404635 0.0 0.835 1.58209301128e-38
-0.00154161566504 0.0 0.833 1.49000458075e-38
0.0 0.0 0.831 1.68332771689e-38
0.00153421294876 0.0 0.829 1.60960610533e-38
0.00305362046496 0.0 0.825 1.42528701248e-38
0.00456932662302 0.0 0.823 1.54503539313e-38
0.0060776300648 0.0 0.821 1.55421880262e-38
0.0075785307903 0.0 0.819 1.52652101743e-38
0.00907202879953 0.0 0.817 1.53556009318e-38
0.0105581240925 0.0 0.815 1.682680317e-38
0.0120664275343 0.0 0.815 1.5631129841e-38
0.013574730976 0.0 0.815 1.57225995983e-38
0.0150830344178 0.0 0.815 1.59055545271e-38
0.0165913378596 0.0 0.815 1.49821632988e-38
0.0180552250037 0.0 0.813 1.60867129913e-38
0.0195598270874 0.0 0.813 1.45197404108e-38
0.021064429171 0.0 0.813 1.55342468678e-38
0.0225690312546 0.0 0.813 1.55349629313e-38
0.0240736333383 0.0 0.813 1.5811921165e-38
0.0255782354219 0.0 0.813 1.48899704716e-38
0.0270828375056 0.0 0.813 1.63647432183e-38
0.0285874395892 0.0 0.813 1.39676568418e-38
0.0300920416729 0.0 0.813 1.4613745117e-38
0.0316743722774 0.0 0.815 1.55374950776e-38
0.0332641055983 0.0 0.817 1.49850345594e-38
0.0347761103982 0.0 0.817 1.53552506072e-38
0.0362881151981 0.0 0.817 1.57204472038e-38
0.037800119998 0.0 0.817 1.49821604962e-38
0.0394083601096 0.0 0.819 1.49828793623e-38
0.0409240662676 0.0 0.819 1.42456772597e-38
0.0424397724257 0.0 0.819 1.55378482049e-38
0.0440628179698 0.0 0.821 1.55374950776e-38
0.045582225486 0.0 0.821 1.44304454688e-38
0.0472163751045 0.0 0.823 1.48914236181e-38
0.0487394839789 0.0 0.823 1.44297223987e-38
0.0503847376718 0.0 0.825 1.5074721865e-38
0.052037394081 0.0 0.827 1.59970340934e-38
0.0535679056716 0.0 0.827 1.32311623949e-38
0.0552316661553 0.0 0.829 1.48917515219e-38
0.056765879104 0.0 0.829 1.59988249529e-38
0.0584407436621 0.0 0.831 1.53541940281e-38
0.0602673639038 0.0 0.835 1.59077349475e-38
0.0619607352526 0.0 0.837 1.35106443672e-38
0.0635097536339 0.0 0.837 1.49864961137e-38
0.0652142290571 0.0 0.839 1.48946690253e-38
0.0669261071965 0.0 0.841 1.49875863239e-38
0.0684825282941 0.0 0.841 1.54507196702e-38
0.0700389493917 0.0 0.841 1.47185496304e-38
-0.0124217579156 0.00155271973945 0.839 1.61194669416e-38
-0.0108690381762 0.00155271973945 0.839 1.47336472201e-38
-0.00931631843672 0.00155271973945 0.839 1.43598200262e-38
-0.00776359869727 0.00155271973945 0.839 1.55522493492e-38
-0.00621087895782 0.00155271973945 0.839 1.64695393239e-38
-0.00464705514394 0.00154901838131 0.837 1.55447103634e-38
-0.00309803676263 0.00154901838131 0.837 1.60053241752e-38
-0.00154531702318 0.00154531702318 0.835 1.59134760673e-38
0.0 0.00154161566504 0.833 1.58202042402e-38
0.0015379143069 0.0015379143069 0.831 1.60049500285e-38
0.00306102318124 0.00153051159062 0.827 1.42539547298e-38
0.00458043069744 0.00152681023248 0.825 1.52677605375e-38
0.00609243549736 0.00152310887434 0.823 1.48982507442e-38
0.007597037581 0.0015194075162 0.821 1.554251593e-38
0.00909423694836 0.00151570615806 0.819 1.48960591134e-38
0.0105840335994 0.00151200479992 0.817 1.57226024009e-38
0.0120960383994 0.00151200479992 0.817 1.52634193149e-38
0.013574730976 0.00150830344178 0.815 1.48024411656e-38
0.0150830344178 0.00150830344178 0.815 1.41560025658e-38
0.0165913378596 0.00150830344178 0.815 1.58137302413e-38
0.0180552250037 0.00150460208364 0.813 1.52591173286e-38
0.0195598270874 0.00150460208364 0.813 1.62718259197e-38
0.021064429171 0.00150460208364 0.813 1.47041302692e-38
0.0225690312546 0.00150460208364 0.813 1.61796106717e-38
0.0240736333383 0.00150460208364 0.813 1.60881395131e-38
0.0255782354219 0.00150460208364 0.813 1.47970461665e-38
0.0270828375056 0.00150460208364 0.813 1.52573082523e-38
0.0285874395892 0.00150460208364 0.813 1.58101289043e-38
0.0301660688356 0.00150830344178 0.815 1.49818087703e-38
0.0317521007983 0.00151200479992 0.817 1.54438687221e-38
0.0332641055983 0.00151200479992 0.817 1.43393190296e-38
0.0348612416354 0.00151570615806 0.819 1.46166261866e-38
0.0363769477935 0.00151570615806 0.819 1.48906865351e-38
0.0378926539515 0.00151570615806 0.819 1.50750749922e-38
0.0394083601096 0.00151570615806 0.819 1.50757938583e-38
0.0410240029374 0.0015194075162 0.821 1.5445652575e-38
0.0425434104536 0.0015194075162 0.821 1.44311447167e-38
0.0441701573558 0.00152310887434 0.823 1.51676335584e-38
0.0458043069744 0.00152681023248 0.825 1.42449625975e-38
0.0473311172068 0.00152681023248 0.825 1.48885369432e-38
0.0489763708998 0.00153051159062 0.827 1.5074735878e-38
0.0505068824904 0.00153051159062 0.827 1.59044965468e-38
0.0521632402577 0.00153421294876 0.829 1.46141080533e-38
0.0538270007414 0.0015379143069 0.831 1.46144639831e-38
0.0553649150483 0.0015379143069 0.831 1.48917711401e-38
0.0570397796063 0.00154161566504 0.833 1.48932130762e-38
0.0587220468807 0.00154531702318 0.835 1.44333195319e-38
0.0604117168713 0.00154901838131 0.837 1.48957438212e-38
0.0619607352526 0.00154901838131 0.837 1.45255151618e-38
0.0636615093176 0.00155271973945 0.839 1.48035453888e-38
0.0653696860989 0.00155642109759 0.841 1.53596058428e-38
0.0669261071965 0.00155642109759 0.841 1.50851783541e-38
0.0684825282941 0.00155642109759 0.841 1.49025807564e-38
-0.0124217579156 0.00310543947891 0.839 1.51038842873e-38
-0.0108690381762 0.00310543947891 0.839 1.44567114072e-38
-0.00931631843672 0.00310543947891 0.839 1.35318670324e-38
-0.00780061227866 0.00312024491147 0.843 1.40814408758e-38
-0.00622568439037 0.00311284219519 0.841 1.40767731506e-38
-0.00465815921836 0.00310543947891 0.839 1.43494069773e-38
-0.00309803676263 0.00309803676263 0.837 1.46241875931e-38
-0.00154901838131 0.00309803676263 0.837 1.52681066583e-38
0.0 0.00309063404635 0.835 1.49918714946e-38
0.00154161566504 0.00308323133007 0.833 1.49000458075e-38
0.00306842589751 0.00306842589751 0.829 1.37940695933e-38
0.00459153477185 0.00306102318124 0.827 1.5360668027e-38
0.00610724092991 0.00305362046496 0.825 1.52684611868e-38
0.0076155443717 0.00304621774868 0.823 1.42528645196e-38
0.0091164450972 0.0030388150324 0.821 1.45290912754e-38
0.0105840335994 0.00302400959984 0.817 1.52652157795e-38
0.0120960383994 0.00302400959984 0.817 1.49889904249e-38
0.013574730976 0.00301660688356 0.815 1.52652241873e-38
0.0150830344178 0.00301660688356 0.815 1.48957270057e-38
0.0165913378596 0.00301660688356 0.815 1.49861303748e-38
0.0180552250037 0.00300920416729 0.813 1.49843325089e-38
0.0195598270874 0.00300920416729 0.813 1.44300727234e-38
0.021064429171 0.00300920416729 0.813 1.46133779768e-38
0.0225690312546 0.00300920416729 0.813 1.52580229145e-38
0.0240736333383 0.00300920416729 0.813 1.49817919547e-38
0.0255782354219 0.00300920416729 0.813 1.52576571756e-38
0.0270828375056 0.00300920416729 0.813 1.54409694355e-38
0.0285874395892 0.00300920416729 0.813 1.58097575602e-38
0.0301660688356 0.00301660688356 0.815 1.51647566926e-38
0.0317521007983 0.00302400959984 0.817 1.54424337924e-38
0.0332641055983 0.00302400959984 0.817 1.49821885222e-38
0.0348612416354 0.00303141231612 0.819 1.52595054883e-38
0.0363769477935 0.00303141231612 0.819 1.39680141729e-38
0.0378926539515 0.00303141231612 0.819 1.5720081465e-38
0.0395045954212 0.0030388150324 0.821 1.49825262351e-38
0.0410240029374 0.0030388150324 0.821 1.48910508727e-38
0.0426470484815 0.00304621774868 0.823 1.36921545572e-38
0.0442774967419 0.00305362046496 0.825 1.53513129585e-38
0.0459153477185 0.00306102318124 0.827 1.53509486209e-38
0.0475606014115 0.00306842589751 0.829 1.5257668386e-38
0.0490948143602 0.00306842589751 0.829 1.39701805804e-38
0.050629027309 0.00306842589751 0.829 1.48006671217e-38
0.0522890864345 0.00307582861379 0.831 1.4155299114e-38
0.0539565482763 0.00308323133007 0.833 1.50772554126e-38
0.0554981639413 0.00308323133007 0.833 1.50776183489e-38
0.0571767298575 0.00309063404635 0.835 1.50794134123e-38
0.05886269849 0.00309803676263 0.837 1.54499923963e-38
0.0605560698387 0.00310543947891 0.839 1.47138622871e-38
0.0621087895782 0.00310543947891 0.839 1.42518023353e-38
0.0638132650013 0.00311284219519 0.841 1.47145867584e-38
0.0655251431408 0.00312024491147 0.843 1.41664576537e-38
0.0670852655965 0.00312024491147 0.843 1.39856635271e-38
0.0686453880522 0.00312024491147 0.843 1.42647643461e-38
-0.0109467666971 0.00469147144162 0.845 1.42719684215e-38
-0.00938294288323 0.00469147144162 0.845 1.24276858815e-38
-0.00780061227866 0.0046803673672 0.843 1.20574614259e-38
-0.00624048982293 0.0046803673672 0.843 1.22378996227e-38
-0.00466926329278 0.00466926329278 0.841 1.44459186064e-38
-0.00310543947891 0.00465815921836 0.839 1.50873237421e-38
-0.00154901838131 0.00464705514394 0.837 1.52688255244e-38
0.0 0.00464705514394 0.837 1.57305071255e-38
0.00154531702318 0.00463595106953 0.835 1.50840867426e-38
0.00306842589751 0.00460263884627 0.829 1.48989920311e-38
0.00460263884627 0.00460263884627 0.829 1.50837182011e-38
0.00612204636247 0.00459153477185 0.827 1.54524811024e-38
0.00763405116239 0.00458043069744 0.825 1.43450657546e-38
0.0091164450972 0.0045582225486 0.821 1.51730327614e-38
0.0106099431064 0.00454711847418 0.819 1.49886232848e-38
0.0121256492645 0.00454711847418 0.819 1.43429049524e-38
0.0136080431993 0.00453601439976 0.817 1.47113343446e-38
0.0151200479992 0.00453601439976 0.817 1.39726945098e-38
0.0165913378596 0.00452491032535 0.815 1.44326006658e-38
0.0180996413014 0.00452491032535 0.815 1.44311615323e-38
0.0195598270874 0.00451380625093 0.813 1.49828905727e-38
0.021064429171 0.00451380625093 0.813 1.57197311403e-38
0.0225690312546 0.00451380625093 0.813 1.51647566926e-38
0.0240736333383 0.00451380625093 0.813 1.5441699512e-38
0.0255782354219 0.00451380625093 0.813 1.507291419e-38
0.0271494619521 0.00452491032535 0.815 1.54409722381e-38
0.0286577653939 0.00452491032535 0.815 1.5993783081e-38
0.0301660688356 0.00452491032535 0.815 1.44264657811e-38
0.0317521007983 0.00453601439976 0.817 1.5072928203e-38
0.0333455354773 0.00454711847418 0.819 1.51651448523e-38
0.0348612416354 0.00454711847418 0.819 1.53502703924e-38
0.0363769477935 0.00454711847418 0.819 1.39669323705e-38
0.037985187905 0.0045582225486 0.821 1.59033923236e-38
0.0396008307328 0.00456932662302 0.823 1.47981391793e-38
0.0412238762769 0.00458043069744 0.825 1.48903460196e-38
0.0428543245373 0.00459153477185 0.827 1.4982544452e-38
0.044492175514 0.00460263884627 0.829 1.51672874377e-38
0.0460263884627 0.00460263884627 0.829 1.52591131247e-38
0.0476753435138 0.00461374292069 0.831 1.47059281352e-38
0.0493317012812 0.00462484699511 0.833 1.55382139438e-38
0.0508733169462 0.00462484699511 0.833 1.57229765476e-38
0.052540778788 0.00463595106953 0.835 1.46162772633e-38
0.0540860958111 0.00463595106953 0.835 1.42471444192e-38
0.0556314128343 0.00463595106953 0.835 1.37872452697e-38
0.0573136801086 0.00464705514394 0.837 1.38815890901e-38
0.05886269849 0.00464705514394 0.837 1.55436173506e-38
0.0605560698387 0.00465815921836 0.839 1.43465048881e-38
0.0622568439037 0.00466926329278 0.841 1.49000458075e-38
0.0638132650013 0.00466926329278 0.841 1.40742564186e-38
0.0655251431408 0.0046803673672 0.843 1.39885417941e-38
0.0670852655965 0.0046803673672 0.843 1.43627193127e-38
-0.00780061227866 0.00624048982293 0.843 1.22447295514e-38
-0.00624048982293 0.00624048982293 0.843 9.75293641821e-39
-0.0046803673672 0.00624048982293 0.843 1.06705767176e-38
-0.00311284219519 0.00622568439037 0.841 1.46299441272e-38
-0.00155271973945 0.00621087895782 0.839 1.39813265083e-38
0.0 0.00619607352526 0.837 1.42553770477e-38
0.00154531702318 0.0061812680927 0.835 1.48989780181e-38
0.00308323133007 0.00616646266014 0.833 1.6095740156e-38
0.00461374292069 0.00615165722759 0.831 1.53581470911e-38
0.00613685179503 0.00613685179503 0.829 1.55417970639e-38
0.00765255795309 0.00612204636247 0.827 1.57247660057e-38
