# .PCD v0.7 - Point Cloud Data file format
VERSION 0.7
FIELDS x y z rgb
SIZE 4 4 4 4
TYPE F F F F
COUNT 1 1 1 1
WIDTH 845
HEIGHT 1
VIEWPOINT 0 0 0 1 0 0 0
POINTS 845
DATA ascii
0.0561588563692 -0.0449270850953 0.867 2.35061903911e-38
0.0578966440156 -0.0450307231232 0.869 2.35018407607e-38
0.0595048841271 -0.0450307231232 0.869 2.34961094499e-38
0.061253775848 -0.0451343611511 0.871 2.34982478314e-38
0.0628657173177 -0.0451343611511 0.871 2.34996925701e-38
-0.00649958489268 -0.0438721980256 0.878 2.35036974811e-38
-0.00487468866951 -0.0438721980256 0.878 2.35043743083e-38
-0.00323868837192 -0.043722293021 0.875 2.35033177292e-38
-0.00161564282782 -0.0436223563512 0.873 2.00690574918e-38
0.0 -0.0436223563512 0.873 1.83227341222e-38
0.00161194146968 -0.0435224196815 0.871 1.95226968258e-38
0.00322388293937 -0.0435224196815 0.871 1.96149344946e-38
0.00482472033463 -0.0434224830117 0.869 2.00762433504e-38
0.00643296044618 -0.0434224830117 0.869 2.22885713269e-38
0.00804120055772 -0.0434224830117 0.869 2.17350037828e-38
0.00962723252043 -0.0433225463419 0.867 2.17342821141e-38
0.0111929070134 -0.0431726413373 0.864 2.3486381636e-38
0.0127918937296 -0.0431726413373 0.864 2.33008819492e-38
0.0143575682225 -0.0430727046675 0.862 2.33927328596e-38
0.0159528535806 -0.0430727046675 0.862 2.32076325429e-38
0.0175481389386 -0.0430727046675 0.862 2.34856501582e-38
0.0191434242967 -0.0430727046675 0.862 2.34860313114e-38
0.0207387096547 -0.0430727046675 0.862 2.34881795019e-38
0.0222821759988 -0.0429727679978 0.86 2.34906878262e-38
0.0238737599988 -0.0429727679978 0.86 2.34910535651e-38
0.0254653439987 -0.0429727679978 0.86 2.34903276925e-38
0.0270569279986 -0.0429727679978 0.86 2.34964443603e-38
0.0286485119985 -0.0429727679978 0.86 2.3494635284e-38
0.0302400959984 -0.0429727679978 0.86 2.34978989081e-38
0.0318316799983 -0.0429727679978 0.86 2.34975289653e-38
0.0334232639983 -0.0429727679978 0.86 2.35000569077e-38
0.0350148479982 -0.0429727679978 0.86 2.35040001616e-38
0.0366064319981 -0.0429727679978 0.86 2.35061679703e-38
0.038198015998 -0.0429727679978 0.86 2.35076043012e-38
0.0397895999979 -0.0429727679978 0.86 2.35061791807e-38
0.0413811839978 -0.0429727679978 0.86 2.3506208608e-38
0.0429727679978 -0.0429727679978 0.86 2.35083483907e-38
0.0445643519977 -0.0429727679978 0.86 2.35047722771e-38
0.0462632753836 -0.0430727046675 0.862 2.35097987346e-38
0.0478585607417 -0.0430727046675 0.862 2.35090588491e-38
0.0494538460997 -0.0430727046675 0.862 2.35079966648e-38
0.0510491314578 -0.0430727046675 0.862 2.35069050533e-38
0.0527665616345 -0.0431726413373 0.864 2.35076337285e-38
0.0545543176158 -0.0433225463419 0.867 2.3505485538e-38
0.0561588563692 -0.0433225463419 0.867 2.35011541244e-38
0.0578966440156 -0.0434224830117 0.869 2.35018547736e-38
0.0595048841271 -0.0434224830117 0.869 2.34957479149e-38
0.061253775848 -0.0435224196815 0.871 2.34972094692e-38
0.0630100702851 -0.0436223563512 0.873 2.34957633292e-38
0.0646257131129 -0.0436223563512 0.873 2.35097931294e-38
-0.00487468866951 -0.0422473018025 0.878 2.35022625515e-38
-0.00323868837192 -0.042102948835 0.875 2.34986373924e-38
-0.00161564282782 -0.0420067135234 0.873 1.98846522191e-38
0.0 -0.0420067135234 0.873 1.93372167572e-38
0.00161194146968 -0.0419104782118 0.871 1.91524849819e-38
0.00322388293937 -0.0419104782118 0.871 1.89670217288e-38
0.00482472033463 -0.0418142429001 0.869 2.09063375282e-38
0.00643296044618 -0.0418142429001 0.869 2.0630470906e-38
0.00804120055772 -0.0418142429001 0.869 2.16439053697e-38
0.00964944066926 -0.0418142429001 0.869 2.19201139087e-38
0.0112317712738 -0.0417180075885 0.867 2.23786005493e-38
0.0127918937296 -0.0415736546211 0.864 2.23775173456e-38
0.0143908804458 -0.0415736546211 0.864 2.34863760308e-38
0.0159528535806 -0.0414774193095 0.862 2.32998337779e-38
0.0175481389386 -0.0414774193095 0.862 2.34860130945e-38
0.0191434242967 -0.0414774193095 0.862 2.34896298458e-38
0.0207387096547 -0.0414774193095 0.862 2.34885396356e-38
0.0222821759988 -0.0413811839978 0.86 2.34939318321e-38
0.0238737599988 -0.0413811839978 0.86 2.34906878262e-38
0.0254653439987 -0.0413811839978 0.86 2.34935899153e-38
0.0270569279986 -0.0413811839978 0.86 2.34968016914e-38
0.0286485119985 -0.0413811839978 0.86 2.34939332334e-38
0.0302400959984 -0.0413811839978 0.86 2.34978862964e-38
0.0318316799983 -0.0413811839978 0.86 2.35007589582e-38
0.0334232639983 -0.0413811839978 0.86 2.35007645634e-38
0.0350148479982 -0.0413811839978 0.86 2.3499696774e-38
0.0366064319981 -0.0413811839978 0.86 2.3502950589e-38
0.038198015998 -0.0413811839978 0.86 2.35018547736e-38
0.0397895999979 -0.0413811839978 0.86 2.35051169965e-38
0.0413811839978 -0.0413811839978 0.86 2.35058260535e-38
0.0429727679978 -0.0413811839978 0.86 2.35097917282e-38
0.0446679900256 -0.0414774193095 0.862 2.35069148624e-38
0.0462632753836 -0.0414774193095 0.862 2.35069120598e-38
0.0478585607417 -0.0414774193095 0.862 2.35069064546e-38
0.0494538460997 -0.0414774193095 0.862 2.35073156338e-38
0.0511675749183 -0.0415736546211 0.864 2.35040323915e-38
0.0527665616345 -0.0415736546211 0.864 2.34989947235e-38
0.0545543176158 -0.0417180075885 0.867 2.34971702329e-38
0.0561588563692 -0.0417180075885 0.867 2.34982436275e-38
0.0578966440156 -0.0418142429001 0.869 2.34950416605e-38
0.0595048841271 -0.0418142429001 0.869 2.34921619922e-38
0.0613944274573 -0.0420067135234 0.873 2.34986570106e-38
0.0630100702851 -0.0420067135234 0.873 2.34964878005e-38
0.0646257131129 -0.0420067135234 0.873 2.35097819191e-38
-0.00485803255789 -0.0404836046491 0.875 2.35061917924e-38
-0.00323868837192 -0.0404836046491 0.875 2.35004590804e-38
-0.00161934418596 -0.0404836046491 0.875 2.10781255095e-38
0.0 -0.0403910706956 0.873 2.09038334078e-38
0.00161564282782 -0.0403910706956 0.873 1.95212745078e-38
0.00322388293937 -0.0402985367421 0.871 1.95241317554e-38
0.00483582440905 -0.0402985367421 0.871 1.95233848633e-38
0.00643296044618 -0.0402060027886 0.869 2.05364760089e-38
0.00804120055772 -0.0402060027886 0.869 2.0998533158e-38
0.00964944066926 -0.0402060027886 0.869 2.21041618503e-38
0.0112317712738 -0.0401134688351 0.867 2.26555279544e-38
0.0127918937296 -0.0399746679049 0.864 2.33005344272e-38
0.0143908804458 -0.0399746679049 0.864 2.29313791623e-38
0.0159528535806 -0.0398821339514 0.862 2.34892767186e-38
0.0175481389386 -0.0398821339514 0.862 2.34860186997e-38
0.0191434242967 -0.0398821339514 0.862 2.34874690436e-38
0.0207387096547 -0.0398821339514 0.862 2.34896242407e-38
0.0223339950128 -0.0398821339514 0.862 2.34907004379e-38
0.0238737599988 -0.0397895999979 0.86 2.34889095784e-38
0.0254653439987 -0.0397895999979 0.86 2.34921619922e-38
0.0270569279986 -0.0397895999979 0.86 2.34964737875e-38
0.0286485119985 -0.0397895999979 0.86 2.34910745846e-38
0.0302400959984 -0.0397895999979 0.86 2.34986009586e-38
0.0318316799983 -0.0397895999979 0.86 2.35011331049e-38
0.0334232639983 -0.0397895999979 0.86 2.35004044297e-38
0.0350148479982 -0.0397895999979 0.86 2.34997093857e-38
0.0366064319981 -0.0397895999979 0.86 2.3501128901e-38
0.038198015998 -0.0397895999979 0.86 2.35018379581e-38
0.0397895999979 -0.0397895999979 0.86 2.35054547094e-38
0.0413811839978 -0.0397895999979 0.86 2.350294078e-38
0.0429727679978 -0.0397895999979 0.86 2.35058260535e-38
0.0446679900256 -0.0398821339514 0.862 2.35022359268e-38
0.0462632753836 -0.0398821339514 0.862 2.35083413842e-38
0.0478585607417 -0.0398821339514 0.862 2.35029309709e-38
0.0494538460997 -0.0398821339514 0.862 2.35047498563e-38
0.0511675749183 -0.0399746679049 0.864 2.35000499012e-38
0.0527665616345 -0.0399746679049 0.864 2.34982800613e-38
0.0545543176158 -0.0401134688351 0.867 2.34982814626e-38
0.0561588563692 -0.0401134688351 0.867 2.349683252e-38
0.0578966440156 -0.0402060027886 0.869 2.3492879457e-38
0.0596418343783 -0.0402985367421 0.871 2.34954073994e-38
0.0613944274573 -0.0403910706956 0.873 2.34989975261e-38
0.0630100702851 -0.0403910706956 0.873 2.29378209314e-38
-0.00485803255789 -0.0388642604631 0.875 2.35058526782e-38
-0.00323868837192 -0.0388642604631 0.875 2.35058779015e-38
-0.00161934418596 -0.0388642604631 0.875 1.82186610866e-38
0.0 -0.0387754278677 0.873 2.01669970441e-38
0.00161564282782 -0.0387754278677 0.873 2.09055584062e-38
0.00322388293937 -0.0386865952724 0.871 1.8787620493e-38
0.00483582440905 -0.0386865952724 0.871 1.96155987101e-38
0.00643296044618 -0.0385977626771 0.869 2.06279583778e-38
0.00804120055772 -0.0385977626771 0.869 2.11825754944e-38
0.00964944066926 -0.0385977626771 0.869 2.12740438504e-38
0.0112317712738 -0.0385089300817 0.867 2.23785977467e-38
0.0127918937296 -0.0383756811887 0.864 2.32083387973e-38
0.0143908804458 -0.0383756811887 0.864 2.34841998143e-38
0.015989867162 -0.0383756811887 0.864 2.34856529608e-38
0.0175481389386 -0.0382868485934 0.862 2.34860257062e-38
0.0191434242967 -0.0382868485934 0.862 2.34874760501e-38
0.0207387096547 -0.0382868485934 0.862 2.34910605716e-38
0.0223339950128 -0.0382868485934 0.862 2.34867445723e-38
0.0239292803708 -0.0382868485934 0.862 2.34914108962e-38
0.0255245657289 -0.0382868485934 0.862 2.34921255584e-38
0.0270569279986 -0.038198015998 0.86 2.34960940357e-38
0.0286485119985 -0.038198015998 0.86 2.34960898318e-38
0.0302400959984 -0.038198015998 0.86 2.34960786214e-38
0.0318316799983 -0.038198015998 0.86 2.34971632264e-38
0.0334232639983 -0.038198015998 0.86 2.34971590225e-38
0.0350148479982 -0.038198015998 0.86 2.34993506533e-38
0.0366064319981 -0.038198015998 0.86 2.35007743725e-38
0.038198015998 -0.038198015998 0.86 2.35025834488e-38
0.0397895999979 -0.038198015998 0.86 2.34982702522e-38
0.0413811839978 -0.038198015998 0.86 2.35033247357e-38
0.0429727679978 -0.038198015998 0.86 2.35022569463e-38
0.0445643519977 -0.038198015998 0.86 2.35029379774e-38
0.0462632753836 -0.0382868485934 0.862 2.35014946399e-38
0.0478585607417 -0.0382868485934 0.862 2.34989793092e-38
0.0494538460997 -0.0382868485934 0.862 2.35032897033e-38
0.0511675749183 -0.0383756811887 0.864 2.34982534366e-38
0.0527665616345 -0.0383756811887 0.864 2.34989695001e-38
0.0545543176158 -0.0385089300817 0.867 2.34932325842e-38
0.056288403904 -0.0385977626771 0.869 2.34936053296e-38
0.0578966440156 -0.0385977626771 0.869 2.34928766544e-38
0.0596418343783 -0.0386865952724 0.871 2.34979045133e-38
0.0613944274573 -0.0387754278677 0.873 2.35011947621e-38
0.0630100702851 -0.0387754278677 0.873 1.62104784742e-38
-0.00487468866951 -0.0373726131329 0.878 2.35047526589e-38
-0.00324979244634 -0.0373726131329 0.878 2.35098337671e-38
-0.00162489622317 -0.0373726131329 0.878 8.36852780428e-39
0.0 -0.0371597850399 0.873 1.99915909101e-38
0.00161564282782 -0.0371597850399 0.873 2.16431963126e-38
0.00322388293937 -0.0370746538027 0.871 1.98921898036e-38
0.00483582440905 -0.0370746538027 0.871 1.98893311547e-38
0.00643296044618 -0.0369895225655 0.869 2.03495904379e-38
0.00804120055772 -0.0369895225655 0.869 2.07201708233e-38
0.00964944066926 -0.0369895225655 0.869 2.18275917763e-38
0.0112317712738 -0.0369043913283 0.867 2.16417487713e-38
0.0127918937296 -0.0367766944725 0.864 2.31150865884e-38
0.0143908804458 -0.0367766944725 0.864 2.21938491559e-38
0.015989867162 -0.0367766944725 0.864 2.34863606165e-38
0.0175481389386 -0.0366915632353 0.862 2.34863690243e-38
0.0191434242967 -0.0366915632353 0.862 2.34867319606e-38
0.0207387096547 -0.0366915632353 0.862 2.34899619536e-38
0.0223339950128 -0.0366915632353 0.862 2.34888969667e-38
0.0239292803708 -0.0366915632353 0.862 2.34921339662e-38
0.0255245657289 -0.0366915632353 0.862 2.3492851431e-38
0.0270569279986 -0.0366064319981 0.86 2.34953569527e-38
0.0286485119985 -0.0366064319981 0.86 2.34935941192e-38
0.0302400959984 -0.0366064319981 0.86 2.34950262462e-38
0.0318316799983 -0.0366064319981 0.86 2.34968072966e-38
0.0334232639983 -0.0366064319981 0.86 2.34953779721e-38
0.0350148479982 -0.0366064319981 0.86 2.34986443989e-38
0.0366064319981 -0.0366064319981 0.86 2.34982660483e-38
0.038198015998 -0.0366064319981 0.86 2.35018617801e-38
0.0397895999979 -0.0366064319981 0.86 2.34989905196e-38
0.0413811839978 -0.0366064319981 0.86 2.34972108705e-38
0.0429727679978 -0.0366064319981 0.86 2.34997093857e-38
0.0445643519977 -0.0366064319981 0.86 2.34961150551e-38
0.0462632753836 -0.0366915632353 0.862 2.349755559e-38
0.0478585607417 -0.0366915632353 0.862 2.349827866e-38
0.0494538460997 -0.0366915632353 0.862 2.34982548379e-38
0.0511675749183 -0.0367766944725 0.864 2.34950094307e-38
0.0527665616345 -0.0367766944725 0.864 2.34960982396e-38
0.0545543176158 -0.0369043913283 0.867 2.34953779721e-38
0.056288403904 -0.0369895225655 0.869 2.34975387744e-38
0.0580298929086 -0.0370746538027 0.871 2.34971814433e-38
0.0596418343783 -0.0370746538027 0.871 2.3497166029e-38
0.0613944274573 -0.0371597850399 0.873 2.35018912074e-38
0.0630100702851 -0.0371597850399 0.873 1.50126359352e-38
-0.00488579274393 -0.0358291467888 0.88 2.35026058696e-38
-0.00325719516262 -0.0358291467888 0.88 2.35098197541e-38
-0.00162489622317 -0.0357477169098 0.878 3.49190124844e-39
0.0 -0.0356255720912 0.875 2.11876103598e-38
0.00161564282782 -0.0355441422121 0.873 2.1366984971e-38
0.00322388293937 -0.035462712333 0.871 2.09967899427e-38
0.00483582440905 -0.035462712333 0.871 2.14577330596e-38
0.00644776587873 -0.035462712333 0.871 2.08130671024e-38
0.00804120055772 -0.035381282454 0.869 1.97056433468e-38
0.00964944066926 -0.035381282454 0.869 2.1642808153e-38
0.0112317712738 -0.0352998525749 0.867 2.12725963091e-38
0.0127918937296 -0.0351777077563 0.864 2.28367018329e-38
0.0143908804458 -0.0351777077563 0.864 2.26558838842e-38
0.015989867162 -0.0351777077563 0.864 2.33923797324e-38
0.0175481389386 -0.0350962778772 0.862 2.32062130275e-38
0.0191434242967 -0.0350962778772 0.862 2.34874788527e-38
0.0207387096547 -0.0350962778772 0.862 2.34892528966e-38
0.0223339950128 -0.0350962778772 0.862 2.34896144316e-38
0.0239292803708 -0.0350962778772 0.862 2.34878221708e-38
0.0255245657289 -0.0350962778772 0.862 2.34942793542e-38
0.027119851087 -0.0350962778772 0.862 2.34913940806e-38
0.0286485119985 -0.0350148479982 0.86 2.34931513089e-38
0.0302400959984 -0.0350148479982 0.86 2.34939486477e-38
0.0318316799983 -0.0350148479982 0.86 2.34957395071e-38
0.0334232639983 -0.0350148479982 0.86 2.34953779721e-38
0.0350148479982 -0.0350148479982 0.86 2.34975289653e-38
0.0366064319981 -0.0350148479982 0.86 2.34946633099e-38
0.038198015998 -0.0350148479982 0.86 2.34986135703e-38
0.0397895999979 -0.0350148479982 0.86 2.34960828253e-38
0.0413811839978 -0.0350148479982 0.86 2.34968058953e-38
0.0429727679978 -0.0350148479982 0.86 2.34943143866e-38
0.0446679900256 -0.0350962778772 0.862 2.34975289653e-38
0.0462632753836 -0.0350962778772 0.862 2.34957268955e-38
0.0478585607417 -0.0350962778772 0.862 2.34914375209e-38
0.0494538460997 -0.0350962778772 0.862 2.34928682466e-38
0.0511675749183 -0.0351777077563 0.864 2.34946282775e-38
0.0529497788624 -0.0352998525749 0.867 2.34950570748e-38
0.0546801637925 -0.035381282454 0.869 2.34950262462e-38
0.056288403904 -0.035381282454 0.869 2.34935941192e-38
0.0580298929086 -0.035462712333 0.871 2.34968395264e-38
0.0596418343783 -0.035462712333 0.871 2.3500405831e-38
0.0618867080898 -0.0358291467888 0.88 2.33084657765e-38
0.0635153056711 -0.0358291467888 0.88 1.53878265926e-38
-0.00492465700439 -0.0344725990308 0.887 2.34993800806e-38
-0.0032831046696 -0.0344725990308 0.887 2.350977211e-38
-0.00163229893945 -0.0342782777284 0.882 4.22694395012e-39
0.0 -0.0341228206866 0.878 1.64013563445e-38
0.00161564282782 -0.0339284993843 0.873 2.02682002205e-38
0.00323128565565 -0.0339284993843 0.873 2.16410453195e-38
0.00483582440905 -0.0338507708634 0.871 2.08112678351e-38
0.00644776587873 -0.0338507708634 0.871 2.10903756607e-38
0.00804120055772 -0.0337730423424 0.869 2.0445726519e-38
0.00964944066926 -0.0337730423424 0.869 2.13669569451e-38
0.0112576807808 -0.0337730423424 0.869 2.13644416143e-38
0.0127918937296 -0.0335787210401 0.864 2.21016563286e-38
0.0143908804458 -0.0335787210401 0.864 2.1641385835e-38
0.015989867162 -0.0335787210401 0.864 2.31158152636e-38
0.0175481389386 -0.0335009925192 0.862 2.24714968284e-38
0.0191434242967 -0.0335009925192 0.862 2.3486020101e-38
0.0207387096547 -0.0335009925192 0.862 2.34842180312e-38
0.0223339950128 -0.0335009925192 0.862 2.34852956297e-38
0.0239292803708 -0.0335009925192 0.862 2.34903262912e-38
0.0255245657289 -0.0335009925192 0.862 2.34896060238e-38
0.027119851087 -0.0335009925192 0.862 2.3488189311e-38
0.028715136445 -0.0335009925192 0.862 2.34925193233e-38
0.0303104218031 -0.0335009925192 0.862 2.34932185712e-38
0.0318316799983 -0.0334232639983 0.86 2.34953737683e-38
0.0334232639983 -0.0334232639983 0.86 2.34943143866e-38
0.0350148479982 -0.0334232639983 0.86 2.34903697314e-38
0.0366064319981 -0.0334232639983 0.86 2.34975625965e-38
0.038198015998 -0.0334232639983 0.86 2.3495733902e-38
0.0398821339514 -0.0335009925192 0.862 2.34961094499e-38
0.0414774193095 -0.0335009925192 0.862 2.34939472464e-38
0.0430727046675 -0.0335009925192 0.862 2.34975359718e-38
0.0446679900256 -0.0335009925192 0.862 2.3492142374e-38
0.0462632753836 -0.0335009925192 0.862 2.34968269148e-38
0.0479696014859 -0.0335787210401 0.864 2.3492865444e-38
0.0495685882021 -0.0335787210401 0.864 2.3494659106e-38
0.051345240109 -0.0336953138215 0.867 2.34907088457e-38
0.0529497788624 -0.0336953138215 0.867 2.34928808583e-38
0.0546801637925 -0.0337730423424 0.869 2.34935941192e-38
0.0564179514389 -0.0338507708634 0.871 2.34932101634e-38
0.0581631418016 -0.0339284993843 0.873 2.3496818507e-38
0.0597787846294 -0.0339284993843 0.873 2.35025820476e-38
0.0618867080898 -0.0342005492075 0.88 1.42775722141e-38
0.0635153056711 -0.0342005492075 0.88 1.44799042981e-38
-0.00493576107881 -0.0329050738588 0.889 2.35047596654e-38
-0.00329050738588 -0.0329050738588 0.889 2.35072946143e-38
-0.0016415523348 -0.032831046696 0.887 1.16053605024e-38
0.0 -0.032645978789 0.882 6.07728570474e-39
0.00161934418596 -0.0323868837192 0.875 2.08231242215e-38
0.00323128565565 -0.0323128565565 0.873 2.13651716908e-38
0.00483582440905 -0.0322388293937 0.871 2.08109020962e-38
0.00644776587873 -0.0322388293937 0.871 2.21020066532e-38
0.00804120055772 -0.0321648022309 0.869 2.09059844009e-38
0.00964944066926 -0.0321648022309 0.869 2.09960318403e-38
0.0112576807808 -0.0321648022309 0.869 2.14555680535e-38
0.0127918937296 -0.0319797343239 0.864 2.20090949599e-38
0.0143908804458 -0.0319797343239 0.864 2.16410355104e-38
0.015989867162 -0.0319797343239 0.864 2.26555601843e-38
0.0175481389386 -0.0319057071611 0.862 2.27484718777e-38
0.0191434242967 -0.0319057071611 0.862 2.27491753295e-38
0.0207387096547 -0.0319057071611 0.862 2.31147306586e-38
0.0223339950128 -0.0319057071611 0.862 2.3488175298e-38
0.0239292803708 -0.0319057071611 0.862 2.34888759473e-38
0.0255245657289 -0.0319057071611 0.862 2.34881921136e-38
0.027119851087 -0.0319057071611 0.862 2.34874648397e-38
0.028715136445 -0.0319057071611 0.862 2.34903697314e-38
0.0303104218031 -0.0319057071611 0.862 2.34914347183e-38
0.0318316799983 -0.0318316799983 0.86 2.34910563677e-38
0.0334232639983 -0.0318316799983 0.86 2.34907032405e-38
0.0350148479982 -0.0318316799983 0.86 2.34942919658e-38
0.0366915632353 -0.0319057071611 0.862 2.3492865444e-38
0.0382868485934 -0.0319057071611 0.862 2.34921311636e-38
0.0398821339514 -0.0319057071611 0.862 2.34924828895e-38
0.0414774193095 -0.0319057071611 0.862 2.34935787049e-38
0.0430727046675 -0.0319057071611 0.862 2.34914319157e-38
0.0446679900256 -0.0319057071611 0.862 2.34903557184e-38
0.0462632753836 -0.0319057071611 0.862 2.34921465779e-38
0.0479696014859 -0.0319797343239 0.864 2.34928486284e-38
0.0495685882021 -0.0319797343239 0.864 2.34953751695e-38
0.0514636835694 -0.0321648022309 0.869 2.34932185712e-38
0.053071923681 -0.0321648022309 0.869 2.34971772394e-38
0.0548060099692 -0.0322388293937 0.871 2.34957325007e-38
0.0565474989738 -0.0323128565565 0.873 2.34935955205e-38
0.0584962640342 -0.0324979244634 0.878 2.3497940947e-38
0.0602581105085 -0.0325719516262 0.88 2.34946605073e-38
0.0618867080898 -0.0325719516262 0.88 1.33663694799e-38
0.0635153056711 -0.0325719516262 0.88 1.65114269376e-38
-0.00494686515323 -0.0313301459705 0.891 2.35051268056e-38
-0.00329050738588 -0.0312598201658 0.889 2.35080176843e-38
-0.00164525369294 -0.0312598201658 0.889 1.52038795445e-38
0.0 -0.0312598201658 0.889 8.46716099929e-39
0.00161934418596 -0.0307675395333 0.875 1.41025290164e-38
0.00323128565565 -0.0306972137286 0.873 2.12819794036e-38
0.00483582440905 -0.030626887924 0.871 2.12729466337e-38
0.00644776587873 -0.030626887924 0.871 2.1458439314e-38
0.00805970734842 -0.030626887924 0.871 2.12729718571e-38
0.00964944066926 -0.0305565621193 0.869 2.1640329256e-38
0.0112576807808 -0.0305565621193 0.869 2.24697171794e-38
0.0128659208924 -0.0305565621193 0.869 2.20090893547e-38
0.0144408487806 -0.0304862363147 0.867 2.21016409143e-38
0.016045387534 -0.0304862363147 0.867 2.23767956769e-38
0.0175888538782 -0.0303807476077 0.864 2.19179881389e-38
0.0191878405943 -0.0303807476077 0.864 2.31172501932e-38
0.0207868273105 -0.0303807476077 0.864 2.31175907088e-38
0.0223339950128 -0.0303104218031 0.862 2.34870934956e-38
0.0239292803708 -0.0303104218031 0.862 2.34874508267e-38
0.0255245657289 -0.0303104218031 0.862 2.34849326934e-38
0.027119851087 -0.0303104218031 0.862 2.34878263747e-38
0.028715136445 -0.0303104218031 0.862 2.34878305786e-38
0.0303104218031 -0.0303104218031 0.862 2.34910689794e-38
0.0318316799983 -0.0302400959984 0.86 2.34903501133e-38
0.0334232639983 -0.0302400959984 0.86 2.34892627056e-38
0.0350148479982 -0.0302400959984 0.86 2.34896284445e-38
0.0366915632353 -0.0303104218031 0.862 2.34903136795e-38
0.0382868485934 -0.0303104218031 0.862 2.34910507625e-38
0.0398821339514 -0.0303104218031 0.862 2.34917836416e-38
0.0414774193095 -0.0303104218031 0.862 2.34921311636e-38
0.0430727046675 -0.0303104218031 0.862 2.34935843101e-38
0.0446679900256 -0.0303104218031 0.862 2.34932297816e-38
0.0463706147697 -0.0303807476077 0.864 2.34914263105e-38
0.0479696014859 -0.0303807476077 0.864 2.3492879457e-38
0.0497407013555 -0.0304862363147 0.867 2.34914291131e-38
0.0514636835694 -0.0305565621193 0.869 2.34921760052e-38
0.0531940684996 -0.030626887924 0.871 2.34914319157e-38
0.0548060099692 -0.030626887924 0.871 2.3492837418e-38
0.056871367811 -0.0308730282403 0.878 2.34950304501e-38
0.0586295129272 -0.0309433540449 0.88 2.35004590804e-38
0.0602581105085 -0.0309433540449 0.88 1.63065514969e-38
0.0620273596991 -0.0310136798495 0.882 1.1628669701e-38
0.0636596586385 -0.0310136798495 0.882 1.78921963794e-38
-0.00494686515323 -0.0296811909194 0.891 2.35022373281e-38
-0.00329791010215 -0.0296811909194 0.891 2.35051394172e-38
-0.00164895505108 -0.0296811909194 0.891 2.11036964039e-38
0.0 -0.0296811909194 0.891 8.09479676096e-39
0.00162859758131 -0.0293147564636 0.88 7.20083560304e-39
0.00325719516262 -0.0293147564636 0.88 1.78835896043e-38
0.00484692848347 -0.0290815709008 0.873 2.07277266246e-38
0.00646257131129 -0.0290815709008 0.873 2.04457125061e-38
0.00805970734842 -0.0290149464543 0.871 2.16435368282e-38
0.00964944066926 -0.0289483220078 0.869 2.25637134778e-38
0.0112576807808 -0.0289483220078 0.869 2.21945722259e-38
0.0128659208924 -0.0289483220078 0.869 2.1825444987e-38
0.0144408487806 -0.0288816975613 0.867 2.26548273052e-38
0.016045387534 -0.0288816975613 0.867 2.30228685378e-38
0.0175888538782 -0.0287817608915 0.864 2.31168718426e-38
0.0191878405943 -0.0287817608915 0.864 2.26577013684e-38
0.0207868273105 -0.0287817608915 0.864 2.26573300243e-38
0.0223339950128 -0.028715136445 0.862 2.28395562779e-38
0.0239292803708 -0.028715136445 0.862 2.30225378313e-38
0.0255245657289 -0.028715136445 0.862 2.3488527024e-38
0.027119851087 -0.028715136445 0.862 2.34856599673e-38
0.028715136445 -0.028715136445 0.862 2.34896298458e-38
0.0303104218031 -0.028715136445 0.862 2.34874648397e-38
0.0319057071611 -0.028715136445 0.862 2.34871159164e-38
0.0335009925192 -0.028715136445 0.862 2.34889053745e-38
0.0350962778772 -0.028715136445 0.862 2.34881823045e-38
0.0366915632353 -0.028715136445 0.862 2.3489597616e-38
0.0382868485934 -0.028715136445 0.862 2.34899815718e-38
0.0398821339514 -0.028715136445 0.862 2.34921297623e-38
0.0414774193095 -0.028715136445 0.862 2.34903361003e-38
0.0430727046675 -0.028715136445 0.862 2.34896340497e-38
0.0447716280535 -0.0287817608915 0.864 2.3491780839e-38
0.0463706147697 -0.0287817608915 0.864 2.3492865444e-38
0.0482472033463 -0.0289483220078 0.869 2.34921353675e-38
0.0498554434579 -0.0289483220078 0.869 2.34961080486e-38
0.0515821270299 -0.0290149464543 0.871 2.34917962533e-38
0.0531940684996 -0.0290149464543 0.871 2.34943241957e-38
0.054931856146 -0.0290815709008 0.873 2.34986359911e-38
0.056871367811 -0.0292481320171 0.878 2.35025932579e-38
0.0586295129272 -0.0293147564636 0.88 1.82376837132e-38
0.0602581105085 -0.0293147564636 0.88 1.41125328862e-38
0.0618867080898 -0.0293147564636 0.88 1.15389865993e-38
0.0635153056711 -0.0293147564636 0.88 2.06530332126e-38
0.00163785097666 -0.0278434666032 0.885 9.22731496944e-39
0.00327570195332 -0.0278434666032 0.885 6.27817585258e-39
0.00491355292998 -0.0278434666032 0.885 2.02756327075e-38
0.00651439032524 -0.0276861588823 0.88 2.1186906908e-38
0.00809672092981 -0.0275288511614 0.875 2.11807734246e-38
0.00971606511577 -0.0275288511614 0.875 2.21005843353e-38
0.0113094997948 -0.027465928073 0.873 2.16417543765e-38
0.0128955317575 -0.0274030049846 0.871 2.31161781999e-38
0.0144741610039 -0.0273400818963 0.869 2.23800228673e-38
0.016045387534 -0.0272771588079 0.867 2.33001841026e-38
0.0175888538782 -0.0271827741753 0.864 2.27470257377e-38
0.0191878405943 -0.0271827741753 0.864 2.31183333969e-38
0.0207868273105 -0.0271827741753 0.864 2.31168816517e-38
0.0223858140267 -0.0271827741753 0.864 2.3484935496e-38
0.0239848007429 -0.0271827741753 0.864 2.32994806507e-38
0.0255837874591 -0.0271827741753 0.864 2.34871005021e-38
0.0271827741753 -0.0271827741753 0.864 2.34842376494e-38
0.028715136445 -0.027119851087 0.862 2.3488550846e-38
0.0303104218031 -0.027119851087 0.862 2.34863802347e-38
0.0319057071611 -0.027119851087 0.862 2.34910731833e-38
0.0335009925192 -0.027119851087 0.862 2.34881696928e-38
0.0350962778772 -0.027119851087 0.862 2.34881837058e-38
0.0366915632353 -0.027119851087 0.862 2.34878235721e-38
0.0383756811887 -0.0271827741753 0.864 2.34906976353e-38
0.0399746679049 -0.0271827741753 0.864 2.34907004379e-38
0.0415736546211 -0.0271827741753 0.864 2.34914221066e-38
0.0431726413373 -0.0271827741753 0.864 2.3490358521e-38
0.0447716280535 -0.0271827741753 0.864 2.34896368523e-38
0.0465316238487 -0.0272771588079 0.867 2.34896564705e-38
0.0482472033463 -0.0273400818963 0.869 2.34932157686e-38
0.0499701855602 -0.0274030049846 0.871 2.34921437753e-38
0.0515821270299 -0.0274030049846 0.871 2.34935871127e-38
0.0534383581368 -0.0275288511614 0.875 2.34971898511e-38
0.0552464715878 -0.0276232357939 0.878 2.34982618444e-38
0.056871367811 -0.0276232357939 0.878 2.11861642198e-38
0.0586295129272 -0.0276861588823 0.88 1.41096630269e-38
0.0602581105085 -0.0276861588823 0.88 1.24616463498e-38
0.0618867080898 -0.0276861588823 0.88 1.41179138723e-38
0.0635153056711 -0.0276861588823 0.88 2.07445576205e-38
0.00163785097666 -0.0262056156265 0.885 9.78012160842e-39
0.00327570195332 -0.0262056156265 0.885 8.95252594578e-39
0.00491355292998 -0.0262056156265 0.885 8.48689128166e-39
0.0065291957578 -0.0261167830312 0.882 1.98115100445e-38
0.00814298790655 -0.026057561301 0.88 2.155496916e-38
0.00974937733903 -0.0259983395707 0.878 2.19179503038e-38
0.0113354093017 -0.0259095069754 0.875 2.19183160427e-38
0.0129251426226 -0.0258502852452 0.873 2.19183440687e-38
0.0145074732272 -0.0257910635149 0.871 2.19183412661e-38
0.0160824011154 -0.0257318417847 0.869 2.34852914258e-38
0.0176499262875 -0.0256726200545 0.867 2.30253922763e-38
0.0192544650409 -0.0256726200545 0.867 2.33009267907e-38
0.0208590037943 -0.0256726200545 0.867 2.32090828868e-38
0.0223858140267 -0.0255837874591 0.864 2.34845851714e-38
0.0239848007429 -0.0255837874591 0.864 2.34871089099e-38
0.0255837874591 -0.0255837874591 0.864 2.34842236364e-38
0.0271827741753 -0.0255837874591 0.864 2.34863606165e-38
0.0287817608915 -0.0255837874591 0.864 2.34856613686e-38
0.0303807476077 -0.0255837874591 0.864 2.34860327127e-38
0.0319797343239 -0.0255837874591 0.864 2.34910731833e-38
0.0335787210401 -0.0255837874591 0.864 2.34867361645e-38
0.0351777077563 -0.0255837874591 0.864 2.34910591703e-38
0.0369043913283 -0.0256726200545 0.867 2.34870878904e-38
0.0385089300817 -0.0256726200545 0.867 2.34928528323e-38
0.0401134688351 -0.0256726200545 0.867 2.34871159164e-38
0.0417180075885 -0.0256726200545 0.867 2.34910479599e-38
0.0434224830117 -0.0257318417847 0.869 2.34925431454e-38
0.0451343611511 -0.0257910635149 0.871 2.34932115647e-38
0.0467463026208 -0.0257910635149 0.871 2.34903431068e-38
0.0483582440905 -0.0257910635149 0.871 2.34953709657e-38
0.0500849276625 -0.0258502852452 0.873 2.34950094307e-38
0.0518190139508 -0.0259095069754 0.875 2.34925151194e-38
0.0536215753646 -0.0259983395707 0.878 2.34975920237e-38
0.0553723177646 -0.026057561301 0.88 2.1556739e-38
0.0570009153459 -0.026057561301 0.88 1.48472168554e-38
0.0586295129272 -0.026057561301 0.88 1.38427661162e-38
0.0602581105085 -0.026057561301 0.88 1.40239470011e-38
0.0618867080898 -0.026057561301 0.88 1.18098295665e-38
0.0635153056711 -0.026057561301 0.88 2.17586871282e-38
0.00327570195332 -0.0245677646499 0.885 9.41313835619e-39
0.00491355292998 -0.0245677646499 0.885 8.86176664684e-39
0.00655140390664 -0.0245677646499 0.885 7.75184857999e-39
0.00816149469725 -0.0244844840917 0.882 1.8431798583e-38
0.00977158548786 -0.0244289637197 0.88 2.20169954806e-38
0.0113742735622 -0.0243734433476 0.878 2.22856566261e-38
0.0129991697854 -0.0243734433476 0.878 2.21949253531e-38
0.0145407854504 -0.0242346424173 0.873 2.25633771661e-38
0.0161564282782 -0.0242346424173 0.873 2.24715122427e-38
0.0177313561665 -0.0241791220453 0.871 2.28392059532e-38
0.0192988813385 -0.0241236016732 0.869 2.29314183987e-38
0.0209071214501 -0.0241236016732 0.869 2.34867515788e-38
0.0224635425477 -0.0240680813011 0.867 2.3488536833e-38
0.0240680813011 -0.0240680813011 0.867 2.34860215023e-38
0.0256726200545 -0.0240680813011 0.867 2.3485311044e-38
0.0272771588079 -0.0240680813011 0.867 2.34867501775e-38
0.0288816975613 -0.0240680813011 0.867 2.34871313307e-38
0.0304862363147 -0.0240680813011 0.867 2.34871033047e-38
0.0320907750681 -0.0240680813011 0.867 2.34867529801e-38
0.0336953138215 -0.0240680813011 0.867 2.34831446366e-38
0.0352998525749 -0.0240680813011 0.867 2.34920989337e-38
0.0369043913283 -0.0240680813011 0.867 2.34921269597e-38
0.0385977626771 -0.0241236016732 0.869 2.34925081129e-38
0.0402060027886 -0.0241236016732 0.869 2.34907368716e-38
0.0418142429001 -0.0241236016732 0.869 2.34889235914e-38
0.0435224196815 -0.0241791220453 0.871 2.34939584568e-38
0.045237999179 -0.0242346424173 0.873 2.34928332141e-38
0.0469609813929 -0.0242901627894 0.875 2.34860285088e-38
0.0487468866951 -0.0243734433476 0.878 2.3492865444e-38
0.0503717829183 -0.0243734433476 0.878 2.34939444438e-38
0.0521151226019 -0.0244289637197 0.88 2.34982856665e-38
0.0537437201832 -0.0244289637197 0.88 2.07273384649e-38
0.0553723177646 -0.0244289637197 0.88 1.41089455621e-38
0.0570009153459 -0.0244289637197 0.88 1.25516881839e-38
0.0586295129272 -0.0244289637197 0.88 1.42086731712e-38
0.0602581105085 -0.0244289637197 0.88 1.37477020284e-38
0.0618867080898 -0.0244289637197 0.88 1.36533554054e-38
0.00492465700439 -0.0229817326872 0.887 9.41242089138e-39
0.00656620933919 -0.0229817326872 0.887 9.50820244401e-39
0.00818925488329 -0.0229299136732 0.885 8.03309478698e-39
0.0097937936367 -0.0228521851523 0.882 1.68701327198e-38
0.0114260925761 -0.0228521851523 0.882 2.16489794714e-38
0.0130287806505 -0.0228003661383 0.88 2.293286594e-38
0.0146240660085 -0.0227485471244 0.878 2.27477291895e-38
0.0161934418596 -0.0226708186035 0.875 2.33012532933e-38
0.0177720711061 -0.0226189995895 0.873 2.29328407166e-38
0.0193432976362 -0.0225671805756 0.871 2.3117234779e-38
0.0209552391059 -0.0225671805756 0.871 2.3299496065e-38
0.0225671805756 -0.0225671805756 0.871 2.34867515788e-38
0.0241236016732 -0.0225153615616 0.869 2.34867375658e-38
0.0257318417847 -0.0225153615616 0.869 2.34867543814e-38
0.0273400818963 -0.0225153615616 0.869 2.34874914644e-38
0.0289483220078 -0.0225153615616 0.869 2.34896298458e-38
0.030626887924 -0.0225671805756 0.871 2.34845711584e-38
0.0322388293937 -0.0225671805756 0.871 2.34892528966e-38
0.0337730423424 -0.0225153615616 0.869 2.3492142374e-38
0.035381282454 -0.0225153615616 0.869 2.34906850236e-38
0.0369895225655 -0.0225153615616 0.869 2.34903543172e-38
0.0386865952724 -0.0225671805756 0.871 2.34899773679e-38
0.0402985367421 -0.0225671805756 0.871 2.34885494447e-38
0.0419104782118 -0.0225671805756 0.871 2.3493950049e-38
0.0435224196815 -0.0225671805756 0.871 2.34907144509e-38
0.045237999179 -0.0226189995895 0.873 2.34935759023e-38
0.0469609813929 -0.0226708186035 0.875 2.3493602527e-38
0.0487468866951 -0.0227485471244 0.878 2.34957605266e-38
0.0504865250206 -0.0228003661383 0.88 2.34943368074e-38
0.0521151226019 -0.0228003661383 0.88 1.79646939568e-38
0.0538658650018 -0.0228521851523 0.882 1.45713516345e-38
0.0554981639413 -0.0228521851523 0.882 1.21850636641e-38
0.0571304628807 -0.0228521851523 0.882 1.37498544228e-38
0.0586295129272 -0.0228003661383 0.88 1.48543915036e-38
0.0602581105085 -0.0228003661383 0.88 1.40253609113e-38
0.0618867080898 -0.0228003661383 0.88 1.15332468808e-38
0.00168041659526 -0.0218454157384 0.908 9.22553952428e-39
0.00336083319052 -0.0218454157384 0.908 9.78083907323e-39
0.00498572941369 -0.0216048274593 0.898 9.41277962379e-39
0.00655140390664 -0.0212920626966 0.885 8.86212537925e-39
0.00818925488329 -0.0212920626966 0.885 9.3245314517e-39
0.00982710585995 -0.0212920626966 0.885 8.12780014239e-39
0.0114260925761 -0.0212198862128 0.882 1.26334791726e-38
0.0130583915156 -0.0212198862128 0.882 1.97181891719e-38
0.0146573782318 -0.021171768557 0.88 2.3215210765e-38
0.0162489622317 -0.0211236509012 0.878 2.33030707774e-38
0.0178127860456 -0.0210514744175 0.875 2.24733269242e-38
0.0193877139339 -0.0210033567617 0.873 2.34867319606e-38
0.0210033567617 -0.0210033567617 0.873 2.3484587974e-38
0.0226189995895 -0.0210033567617 0.873 2.34870948969e-38
0.0242346424173 -0.0210033567617 0.873 2.3488898368e-38
0.0257910635149 -0.0209552391059 0.871 2.3484587974e-38
0.0274030049846 -0.0209552391059 0.871 2.34878179669e-38
0.0290149464543 -0.0209552391059 0.871 2.34889095784e-38
0.030626887924 -0.0209552391059 0.871 2.34878586046e-38
0.0322388293937 -0.0209552391059 0.871 2.34921311636e-38
0.0338507708634 -0.0209552391059 0.871 2.34900081964e-38
0.035462712333 -0.0209552391059 0.871 2.34910647755e-38
0.0370746538027 -0.0209552391059 0.871 2.34892641069e-38
0.0386865952724 -0.0209552391059 0.871 2.34914094949e-38
0.0402985367421 -0.0209552391059 0.871 2.3490682221e-38
0.0420067135234 -0.0210033567617 0.873 2.34896130303e-38
0.043722293021 -0.0210514744175 0.875 2.34914136988e-38
0.0454970942488 -0.0211236509012 0.878 2.34960758188e-38
0.047121990472 -0.0211236509012 0.878 2.34985813404e-38
0.0488579274393 -0.021171768557 0.88 2.11876103598e-38
0.0504865250206 -0.021171768557 0.88 1.6770740021e-38
0.0521151226019 -0.021171768557 0.88 1.43880393746e-38
0.0538658650018 -0.0212198862128 0.882 1.08957793938e-38
0.0554981639413 -0.0212198862128 0.882 1.2737870303e-38
0.0571304628807 -0.0212198862128 0.882 1.30140942563e-38
0.0586295129272 -0.021171768557 0.88 1.33810775086e-38
0.0602581105085 -0.021171768557 0.88 1.39349743577e-38
0.0618867080898 -0.021171768557 0.88 1.08900396753e-38
0.00168041659526 -0.0201649991431 0.908 8.48979196948e-39
0.00336083319052 -0.0201649991431 0.908 9.50497385235e-39
0.00498572941369 -0.0199429176548 0.898 9.41313835619e-39
0.0066328337857 -0.0198985013571 0.896 9.41493201823e-39
0.00820776167399 -0.0196986280176 0.887 9.32345525448e-39
0.00984931400879 -0.0196986280176 0.887 9.14014299457e-39
0.0114649568366 -0.0196542117199 0.885 9.04651383638e-39
0.0131028078133 -0.0196542117199 0.885 9.59788554573e-39
0.014690690455 -0.0195875872734 0.882 1.54843270113e-38
0.0163229893945 -0.0195875872734 0.882 1.98114960315e-38
0.0179145733944 -0.0195431709757 0.88 2.3493522653e-38
0.0194987546781 -0.0194987546781 0.878 2.34871159164e-38
0.0211236509012 -0.0194987546781 0.878 2.34860299101e-38
0.0227485471244 -0.0194987546781 0.878 2.34877773293e-38
0.0242901627894 -0.0194321302315 0.875 2.34853082414e-38
0.0259095069754 -0.0194321302315 0.875 2.3488564859e-38
0.0275288511614 -0.0194321302315 0.875 2.34866955269e-38
0.0291481953473 -0.0194321302315 0.875 2.34881851071e-38
0.0307675395333 -0.0194321302315 0.875 2.34903389029e-38
0.0323868837192 -0.0194321302315 0.875 2.34878235721e-38
0.0339284993843 -0.0193877139339 0.873 2.34889109797e-38
0.0355441422121 -0.0193877139339 0.873 2.34910619729e-38
0.0371597850399 -0.0193877139339 0.873 2.34932213738e-38
0.0387754278677 -0.0193877139339 0.873 2.34932255777e-38
0.0403910706956 -0.0193877139339 0.873 2.34928710492e-38
0.042102948835 -0.0194321302315 0.875 2.34961248642e-38
0.0439721346954 -0.0195431709757 0.88 2.34964765901e-38
0.0456007322767 -0.0195431709757 0.88 2.28488693075e-38
0.047229329858 -0.0195431709757 0.88 1.7230993699e-38
0.0488579274393 -0.0195431709757 0.88 1.36479744193e-38
0.0506012671229 -0.0195875872734 0.882 1.36573014618e-38
0.0522335660624 -0.0195875872734 0.882 1.18144930878e-38
0.0540490822297 -0.0196542117199 0.885 1.17240925212e-38
0.0559386255599 -0.0197430443153 0.889 1.30148117211e-38
0.0581668431598 -0.0199429176548 0.898 1.30144529887e-38
0.0598287529643 -0.0199429176548 0.898 1.3936036542e-38
0.0620384637735 -0.0201205828455 0.906 1.3843483581e-38
0.0637151790106 -0.0201205828455 0.906 1.05226976906e-38
0.00168041659526 -0.0184845825479 0.908 9.58174258742e-39
0.00334232639983 -0.018382795199 0.903 9.50497385235e-39
0.00498572941369 -0.0182810078502 0.898 9.50533258476e-39
0.0066328337857 -0.0182402929107 0.896 9.41457748972e-39
0.00822626846469 -0.0180977906223 0.889 9.6900797743e-39
0.00987152215763 -0.0180977906223 0.889 9.69223216874e-39
0.0114908663436 -0.0180570756828 0.887 9.60075540499e-39
0.0131324186784 -0.0180570756828 0.887 9.69366709836e-39
0.0147739710132 -0.0180570756828 0.887 9.50820244401e-39
0.0163785097666 -0.0180163607432 0.885 1.01514096495e-38
0.0180163607432 -0.0180163607432 0.885 1.31816222903e-38
0.0195875872734 -0.0179552883339 0.882 1.79679659887e-38
0.021171768557 -0.0179145733944 0.88 2.13784055535e-38
0.0228003661383 -0.0179145733944 0.88 2.34946549021e-38
0.0244289637197 -0.0179145733944 0.88 2.34910675781e-38
0.0259983395707 -0.0178738584549 0.878 2.34935955205e-38
0.0276232357939 -0.0178738584549 0.878 2.34932017556e-38
0.0292481320171 -0.0178738584549 0.878 2.3492489896e-38
0.0308730282403 -0.0178738584549 0.878 2.34921311636e-38
0.0324979244634 -0.0178738584549 0.878 2.34921437753e-38
0.0340062279052 -0.0178127860456 0.875 2.34914375209e-38
0.0356255720912 -0.0178127860456 0.875 2.34961094499e-38
0.0372449162771 -0.0178127860456 0.875 2.34953695644e-38
0.0388642604631 -0.0178127860456 0.875 2.3495382176e-38
0.0406224055793 -0.0178738584549 0.878 2.17435937424e-38
0.0422473018025 -0.0178738584549 0.878 1.76938257662e-38
0.0439721346954 -0.0179145733944 0.88 1.50219195376e-38
0.0456007322767 -0.0179145733944 0.88 1.21760953539e-38
0.047229329858 -0.0179145733944 0.88 1.26460348069e-38
0.0489689681835 -0.0179552883339 0.882 1.14485860328e-38
0.0507733802764 -0.0180163607432 0.885 1.12652737728e-38
0.0525296747135 -0.0180570756828 0.887 1.34750653992e-38
0.054720878732 -0.0182402929107 0.896 1.22765404278e-38
0.0563790871785 -0.0182402929107 0.896 1.31988414459e-38
0.0581668431598 -0.0182810078502 0.898 1.3936036542e-38
0.0601618751969 -0.018382795199 0.903 1.32899594772e-38
0.0620384637735 -0.0184438676083 0.906 1.25524182604e-38
0.0637151790106 -0.0184438676083 0.906 1.33771314521e-38
0.00168041659526 -0.0168041659526 0.908 8.37568423553e-39
0.00333492368355 -0.0166746184177 0.901 9.87267456939e-39
0.00498572941369 -0.0166190980456 0.898 9.41277962379e-39
0.0066328337857 -0.0165820844643 0.896 9.50533258476e-39
0.00824477525538 -0.0164895505108 0.891 9.13763186772e-39
0.00987152215763 -0.0164525369294 0.889 1.0059215421e-38
0.0115167758506 -0.0164525369294 0.889 9.3248901841e-39
0.0131324186784 -0.016415523348 0.887 8.95754819947e-39
0.0147739710132 -0.016415523348 0.887 9.6014728698e-39
0.016415523348 -0.016415523348 0.887 1.01546382412e-38
0.0180570756828 -0.016415523348 0.887 1.09851037631e-38
0.0196542117199 -0.0163785097666 0.885 8.86822383016e-39
0.0212198862128 -0.0163229893945 0.882 8.95575453744e-39
0.0228003661383 -0.0162859758131 0.88 1.25380563524e-38
0.0244289637197 -0.0162859758131 0.88 1.58498739326e-38
0.026057561301 -0.0162859758131 0.88 1.70481578806e-38
0.0276861588823 -0.0162859758131 0.88 1.88923661519e-38
0.0293147564636 -0.0162859758131 0.88 1.98128749092e-38
0.0309433540449 -0.0162859758131 0.88 1.9906169157e-38
0.0325719516262 -0.0162859758131 0.88 1.92608025506e-38
0.0341228206866 -0.0162489622317 0.878 1.89838457182e-38
0.0357477169098 -0.0162489622317 0.878 1.66793375261e-38
0.0373726131329 -0.0162489622317 0.878 1.50219195376e-38
0.0389975093561 -0.0162489622317 0.878 1.48389660101e-38
0.0407149395328 -0.0162859758131 0.88 1.31895144033e-38
0.0425841253931 -0.0163785097666 0.885 1.0895061929e-38
0.0442219763698 -0.0163785097666 0.885 1.22768991602e-38
0.0458598273464 -0.0163785097666 0.885 1.12634801108e-38
0.0474976783231 -0.0163785097666 0.885 1.13560330718e-38
0.0491355292998 -0.0163785097666 0.885 1.16340506871e-38
0.0508881223787 -0.016415523348 0.887 1.21857811289e-38
0.052648118174 -0.0164525369294 0.889 1.23690933888e-38
0.054720878732 -0.0165820844643 0.896 1.29211825629e-38
0.0565049333552 -0.0166190980456 0.898 1.33825124382e-38
0.058490711997 -0.0167116319991 0.903 1.31967310904e-38
0.0601618751969 -0.0167116319991 0.903 1.34721955399e-38
0.0620384637735 -0.0167671523712 0.906 1.11691334878e-38
0.0637151790106 -0.0167671523712 0.906 2.22179178583e-38
0.00166190980456 -0.0149571882411 0.898 9.20294078395e-39
0.00332381960913 -0.0149571882411 0.898 9.77689301676e-39
0.00498572941369 -0.0149571882411 0.898 1.00559868293e-38
0.00664763921826 -0.0149571882411 0.898 9.50640878198e-39
0.00829104223213 -0.0149238760178 0.896 9.32345525448e-39
0.00992704252972 -0.0148905637946 0.894 9.50820244401e-39
0.0115426853575 -0.0148405954597 0.891 9.32381398688e-39
0.0131620295435 -0.0148072832364 0.889 1.02464737373e-38
0.0148072832364 -0.0148072832364 0.889 1.01549969736e-38
0.016415523348 -0.0147739710132 0.887 9.41959553952e-39
0.0180570756828 -0.0147739710132 0.887 9.4188780747e-39
0.0196986280176 -0.0147739710132 0.887 9.51107230327e-39
0.0212920626966 -0.0147406587899 0.885 9.32776004336e-39
0.0228521851523 -0.014690690455 0.882 1.03415378252e-38
0.0244844840917 -0.014690690455 0.882 9.88128414716e-39
0.0261167830312 -0.014690690455 0.882 9.14408905104e-39
0.0276861588823 -0.0146573782318 0.88 9.69617822521e-39
0.0293147564636 -0.0146573782318 0.88 9.97347837572e-39
0.0309433540449 -0.0146573782318 0.88 1.08017915032e-38
0.0325719516262 -0.0146573782318 0.88 9.69581949281e-39
0.0342005492075 -0.0146573782318 0.88 1.10798091185e-38
0.0358291467888 -0.0146573782318 0.88 1.12631213784e-38
0.0375428756073 -0.014690690455 0.882 1.16311808279e-38
0.0393084234398 -0.0147406587899 0.885 1.19992402773e-38
0.0409462744165 -0.0147406587899 0.885 1.12624039136e-38
0.0425841253931 -0.0147406587899 0.885 1.05270024795e-38
0.0442219763698 -0.0147406587899 0.885 1.08943444641e-38
0.0458598273464 -0.0147406587899 0.885 1.29222587602e-38
0.0474976783231 -0.0147406587899 0.885 1.17237337888e-38
0.0492465700439 -0.0147739710132 0.887 1.19992402773e-38
0.0510028644811 -0.0148072832364 0.889 1.21839874668e-38
0.0530626702856 -0.0149238760178 0.896 1.27367941058e-38
0.054720878732 -0.0149238760178 0.896 1.29219000278e-38
0.0566937026203 -0.015007156576 0.901 1.29219000278e-38
0.0586850332993 -0.0150904371341 0.906 1.36576601942e-38
0.0603617485364 -0.0150904371341 0.906 1.31023424284e-38
0.0620384637735 -0.0150904371341 0.906 1.19063285839e-38
0.0638558306199 -0.0151237493574 0.908 2.35097370775e-38
0.00166190980456 -0.0132952784365 0.898 1.80486639647e-38
0.00332381960913 -0.0132952784365 0.898 9.76541357974e-39
0.00498572941369 -0.0132952784365 0.898 8.86140791443e-39
0.00664763921826 -0.0132952784365 0.898 9.23126102591e-39
0.00829104223213 -0.0132656675714 0.896 8.95647200225e-39
0.00994925067855 -0.0132656675714 0.896 9.97024978406e-39
0.011581549618 -0.0132360567063 0.894 9.23269595554e-39
0.0131916404086 -0.0131916404086 0.891 9.78657879174e-39
0.0148405954597 -0.0131916404086 0.891 9.3248901841e-39
0.0164525369294 -0.0131620295435 0.889 9.87877302031e-39
0.0180977906223 -0.0131620295435 0.889 9.78693752415e-39
0.0196986280176 -0.0131324186784 0.887 9.87913175271e-39
0.0212920626966 -0.0131028078133 0.885 1.00645964071e-38
0.0228521851523 -0.0130583915156 0.882 9.97311964331e-39
0.0244844840917 -0.0130583915156 0.882 1.00656726043e-38
0.0261167830312 -0.0130583915156 0.882 1.03415378252e-38
0.0277490819706 -0.0130583915156 0.882 9.60434272905e-39
0.0293813809101 -0.0130583915156 0.882 1.04337320537e-38
0.0310136798495 -0.0130583915156 0.882 1.13549568746e-38
0.032645978789 -0.0130583915156 0.882 1.09854624955e-38
0.0343948705098 -0.0131028078133 0.885 1.06181205109e-38
0.0360327214865 -0.0131028078133 0.885 1.04340907861e-38
0.0376705724632 -0.0131028078133 0.885 1.0895061929e-38
0.0393972560352 -0.0131324186784 0.887 1.09854624955e-38
0.04103880837 -0.0131324186784 0.887 1.11705684174e-38
0.0426803607048 -0.0131324186784 0.887 1.10798091185e-38
0.0443219130396 -0.0131324186784 0.887 1.13560330718e-38
0.0459634653743 -0.0131324186784 0.887 1.17244512536e-38
0.0476050177091 -0.0131324186784 0.887 1.22765404278e-38
0.0492465700439 -0.0131324186784 0.887 1.31052122877e-38
0.0514044618392 -0.0132656675714 0.896 1.26453173421e-38
0.0530626702856 -0.0132656675714 0.896 1.2370169586e-38
0.0548430235506 -0.0132952784365 0.898 1.20939456327e-38
0.056819548797 -0.0133693055993 0.903 1.30140942563e-38
0.0586850332993 -0.013413721897 0.906 1.30123005943e-38
0.0603617485364 -0.013413721897 0.906 1.19048936543e-38
0.0620384637735 -0.013413721897 0.906 2.04665287947e-38
0.0638558306199 -0.0134433327621 0.908 2.35098211554e-38
0.00334232639983 -0.0116981423994 0.903 1.3263107796e-38
0.00501348959974 -0.0116981423994 0.903 8.94929735411e-39
0.00666984736709 -0.0116722328924 0.901 8.67988931656e-39
0.00830954902282 -0.011633368632 0.898 9.0475900336e-39
0.00997145882739 -0.011633368632 0.898 9.23126102591e-39
0.011633368632 -0.011633368632 0.898 9.1419366566e-39
0.0132656675714 -0.011607459125 0.896 9.50927864123e-39
0.0148905637946 -0.011581549618 0.894 9.78586132693e-39
0.0165450708829 -0.011581549618 0.894 9.87770523088e-39
0.0181385055618 -0.0115426853575 0.891 9.78693752415e-39
0.0197874606129 -0.0115426853575 0.891 9.97132598128e-39
0.0213882980082 -0.0115167758506 0.889 9.32776004336e-39
0.0229817326872 -0.0114908663436 0.887 1.00653138719e-38
0.024623285022 -0.0114908663436 0.887 9.88128414716e-39
0.0262648373568 -0.0114908663436 0.887 1.0249702329e-38
0.0279063896916 -0.0114908663436 0.887 9.88200161197e-39
0.0295479420264 -0.0114908663436 0.887 1.01564319032e-38
0.0311191685565 -0.0114649568366 0.885 1.03411790928e-38
0.0327570195332 -0.0114649568366 0.885 1.10772979917e-38
0.0344725990308 -0.0114908663436 0.887 1.10776567241e-38
0.0361141513656 -0.0114908663436 0.887 1.05270024795e-38
0.0377557037004 -0.0114908663436 0.887 1.0434808251e-38
0.0394860886305 -0.0115167758506 0.889 1.07103147394e-38
0.0411313423234 -0.0115167758506 0.889 1.09872561575e-38
0.0427765960164 -0.0115167758506 0.889 1.12638388432e-38
0.0444218497093 -0.0115167758506 0.889 1.12649150404e-38
0.0461707414302 -0.0115426853575 0.891 1.13574680014e-38
0.0479807055603 -0.011581549618 0.894 1.20921519707e-38
