# .PCD v0.7 - Point Cloud Data file format
VERSION 0.7
FIELDS x y z rgb
SIZE 4 4 4 4
TYPE F F F F
COUNT 1 1 1 1
WIDTH 851
HEIGHT 1
VIEWPOINT 0 0 0 1 0 0 0
POINTS 851
DATA ascii
0.0490411446672 -0.112943242264 0.803 2.05361228817e-38
0.0505272399602 -0.112943242264 0.803 2.03528302399e-38
0.0520133352531 -0.112943242264 0.803 2.05354460545e-38
0.0534994305461 -0.112943242264 0.803 2.09049306245e-38
0.0549170507134 -0.112802590655 0.802 2.08123818674e-38
0.0564012953273 -0.112802590655 0.802 2.05350985325e-38
0.0578855399412 -0.112802590655 0.802 2.09978325088e-38
0.059369784555 -0.112802590655 0.802 2.09070830189e-38
0.0608540291689 -0.112802590655 0.802 2.07205239505e-38
0.0621828167409 -0.112521287436 0.8 2.16417908103e-38
0.0636633599967 -0.112521287436 0.8 2.20101907753e-38
0.0651439032524 -0.112521287436 0.8 2.13630347107e-38
0.0666244465082 -0.112521287436 0.8 2.26534232041e-38
0.0681049897639 -0.112521287436 0.8 2.16421271219e-38
0.0697594968522 -0.112802590655 0.802 2.31151090092e-38
0.0712437414661 -0.112802590655 0.802 2.21924296405e-38
0.0727279860799 -0.112802590655 0.802 2.21002508263e-38
0.0742122306938 -0.112802590655 0.802 2.26530574652e-38
0.0756964753077 -0.112802590655 0.802 2.32987926132e-38
0.0772769552332 -0.112943242264 0.803 2.34856809868e-38
0.0789592225075 -0.113224545482 0.805 2.22864399519e-38
0.0804490191586 -0.113224545482 0.805 2.32998702117e-38
0.0821423905073 -0.113505848701 0.807 2.32998491922e-38
0.0836358885166 -0.113505848701 0.807 2.34835370001e-38
0.0851293865258 -0.113505848701 0.807 2.34853236557e-38
0.0868375633071 -0.11378715192 0.809 2.34853348661e-38
0.0883347626745 -0.11378715192 0.809 2.34871411398e-38
0.0900540435302 -0.114068455138 0.811 2.34889081771e-38
0.0920065099487 -0.114631061575 0.815 2.34892767186e-38
0.0937442975951 -0.114912364794 0.817 2.34914669481e-38
0.0954894879578 -0.115193668013 0.819 2.34918354896e-38
0.0970051941159 -0.115193668013 0.819 2.35058372639e-38
0.0247250723708 -0.115898776738 0.835 2.34950584761e-38
0.026270389394 -0.115898776738 0.835 2.34950822982e-38
0.0276158330776 -0.115065971157 0.829 2.3505147825e-38
0.0290797202217 -0.114788369296 0.827 3.489748854e-39
0.0304621774868 -0.114233165575 0.823 1.41861753243e-38
0.0319852863611 -0.114233165575 0.823 1.73193791984e-38
0.0334269653564 -0.113955563715 0.821 1.74958573257e-38
0.0348612416354 -0.113677961855 0.819 1.80468885195e-38
0.0362881151981 -0.113400359994 0.817 1.90617789323e-38
0.0377075860445 -0.113122758134 0.815 1.79557620804e-38
0.0391196541747 -0.112845156273 0.813 1.95216458519e-38
0.0404243829188 -0.112289952552 0.809 1.86011006609e-38
0.0418179442583 -0.112012350692 0.807 1.97060413156e-38
0.0433114422675 -0.112012350692 0.807 1.90610222311e-38
0.0446938995326 -0.111734748831 0.805 2.03496086548e-38
0.0461836961836 -0.111734748831 0.805 2.01666439169e-38
0.0476734928347 -0.111734748831 0.805 1.98907955116e-38
0.0490411446672 -0.111457146971 0.803 2.02595640181e-38
0.0505272399602 -0.111457146971 0.803 2.05365026336e-38
0.0520133352531 -0.111457146971 0.803 2.04436007493e-38
0.0534994305461 -0.111457146971 0.803 2.16421425362e-38
0.054985525839 -0.111457146971 0.803 2.07194673715e-38
0.0564012953273 -0.111318346041 0.802 2.17325431027e-38
0.0578855399412 -0.111318346041 0.802 2.0997129057e-38
0.059369784555 -0.111318346041 0.802 2.21034710101e-38
0.0608540291689 -0.111318346041 0.802 2.15492280402e-38
0.0623382737828 -0.111318346041 0.802 2.19173015027e-38
0.0638225183967 -0.111318346041 0.802 2.13658877543e-38
0.0653067630106 -0.111318346041 0.802 2.22857168819e-38
0.0667910076244 -0.111318346041 0.802 2.22860672065e-38
0.0682752522383 -0.111318346041 0.802 2.21945694233e-38
0.0697594968522 -0.111318346041 0.802 2.15495811674e-38
0.0712437414661 -0.111318346041 0.802 2.31147166456e-38
0.0727279860799 -0.111318346041 0.802 2.20995305588e-38
0.0743047646473 -0.111457146971 0.803 2.32073270598e-38
0.0757908599402 -0.111457146971 0.803 2.29318121636e-38
0.0772769552332 -0.111457146971 0.803 2.25630100259e-38
0.0789592225075 -0.111734748831 0.805 2.3022925991e-38
0.0804490191586 -0.111734748831 0.805 2.34864040568e-38
0.0821423905073 -0.112012350692 0.807 2.2747013126e-38
0.0836358885166 -0.112012350692 0.807 2.34835454079e-38
0.0853403639397 -0.112289952552 0.809 2.34846075921e-38
0.0868375633071 -0.112289952552 0.809 2.34878684137e-38
0.0885531428047 -0.112567554413 0.811 2.34875194904e-38
0.0900540435302 -0.112567554413 0.811 2.34889348018e-38
0.0922322927952 -0.113400359994 0.817 2.3488578872e-38
0.0937442975951 -0.113400359994 0.817 2.34853362674e-38
0.095256302395 -0.113400359994 0.817 2.34932381894e-38
0.096768307195 -0.113400359994 0.817 2.35008332271e-38
0.0276158330776 -0.113531758208 0.829 2.35083806206e-38
0.0290797202217 -0.113257857706 0.827 2.8469003809e-39
0.0304621774868 -0.112710056701 0.823 3.14213715175e-39
0.0319852863611 -0.112710056701 0.823 1.80598309121e-38
0.0334269653564 -0.112436156199 0.821 1.76820534578e-38
0.0348612416354 -0.112162255696 0.819 1.76799010634e-38
0.0363769477935 -0.112162255696 0.819 1.83223992119e-38
0.037800119998 -0.111888355194 0.817 1.92457820324e-38
0.0392158894863 -0.111614454692 0.815 1.97996592634e-38
0.0406242562583 -0.11134055419 0.813 1.84160059493e-38
0.0420252203141 -0.111066653687 0.811 1.94294446169e-38
0.0434187816536 -0.110792753185 0.809 2.04436007493e-38
0.0448049402767 -0.110518852683 0.807 2.0167362783e-38
0.0461836961836 -0.11024495218 0.805 2.01666439169e-38
0.0476734928347 -0.11024495218 0.805 1.9706038513e-38
0.0491632894858 -0.11024495218 0.805 2.06269158118e-38
0.0506530861369 -0.11024495218 0.805 2.08141390957e-38
0.0520133352531 -0.109971051678 0.803 2.03524799153e-38
0.0534994305461 -0.109971051678 0.803 2.02595640181e-38
0.054985525839 -0.109971051678 0.803 2.15495531415e-38
0.0564716211319 -0.109971051678 0.803 2.09031327586e-38
0.0579577164249 -0.109971051678 0.803 2.09967577129e-38
0.0594438117178 -0.109971051678 0.803 2.10889701583e-38
0.0609299070108 -0.109971051678 0.803 2.20091047689e-38
0.0624160023037 -0.109971051678 0.803 2.14570324104e-38
0.0639020975967 -0.109971051678 0.803 2.1365552844e-38
0.0653881928896 -0.109971051678 0.803 2.16410705429e-38
0.0668742881826 -0.109971051678 0.803 2.18247415352e-38
0.0683603834755 -0.109971051678 0.803 2.19169539806e-38
0.0698464787685 -0.109971051678 0.803 2.23779125118e-38
0.0713325740614 -0.109971051678 0.803 2.28388696416e-38
0.0728186693543 -0.109971051678 0.803 2.33009295933e-38
0.0743047646473 -0.109971051678 0.803 2.25633743635e-38
0.0757908599402 -0.109971051678 0.803 2.24722577335e-38
0.0772769552332 -0.109971051678 0.803 2.34853208531e-38
0.0789592225075 -0.11024495218 0.805 2.31154915637e-38
0.0804490191586 -0.11024495218 0.805 2.34842684779e-38
0.0821423905073 -0.110518852683 0.807 2.34856879933e-38
0.0836358885166 -0.110518852683 0.807 2.34885620564e-38
0.0853403639397 -0.110792753185 0.809 2.34885480434e-38
0.0868375633071 -0.110792753185 0.809 2.34860411205e-38
0.0885531428047 -0.111066653687 0.811 2.34882131331e-38
0.0900540435302 -0.111066653687 0.811 2.34881865084e-38
0.0922322927952 -0.111888355194 0.817 2.34929102856e-38
0.0937442975951 -0.111888355194 0.817 2.03532057879e-38
0.095256302395 -0.111888355194 0.817 2.35007099128e-38
0.0276824575241 -0.112267744403 0.831 2.35055051561e-38
0.0291500460264 -0.111997545259 0.829 4.68361030406e-39
0.0305362046496 -0.111457146971 0.825 6.27207740167e-39
0.0319852863611 -0.111186947827 0.823 1.44698906192e-38
0.0335083952355 -0.111186947827 0.823 1.85157980181e-38
0.0349463728726 -0.110916748683 0.821 1.87848066856e-38
0.0364657803888 -0.110916748683 0.821 1.87837066663e-38
0.0378926539515 -0.110646549538 0.819 1.79571928061e-38
0.039312124798 -0.110376350394 0.817 1.90610222311e-38
0.0407241929281 -0.11010615125 0.815 1.94287257508e-38
0.042128858342 -0.109835952106 0.813 1.92454134909e-38
0.0435261210396 -0.109565752962 0.811 1.97989558115e-38
0.0449159810209 -0.109295553818 0.809 1.95230947945e-38
0.046298438286 -0.109025354673 0.807 1.9890055626e-38
0.0477919362952 -0.109025354673 0.807 2.1365205322e-38
0.0491632894858 -0.108755155529 0.805 2.03521239855e-38
0.0506530861369 -0.108755155529 0.805 2.00748140259e-38
0.052142882788 -0.108755155529 0.805 2.05358019843e-38
0.0534994305461 -0.108484956385 0.803 2.09978493244e-38
0.054985525839 -0.108484956385 0.803 2.20098502597e-38
0.0564716211319 -0.108484956385 0.803 2.09956815156e-38
0.0579577164249 -0.108484956385 0.803 2.17339500064e-38
0.0594438117178 -0.108484956385 0.803 2.1274436214e-38
0.0609299070108 -0.108484956385 0.803 2.18261638531e-38
0.0624160023037 -0.108484956385 0.803 2.13648367805e-38
0.0639020975967 -0.108484956385 0.803 2.17350584335e-38
0.0653881928896 -0.108484956385 0.803 2.21942471246e-38
0.0668742881826 -0.108484956385 0.803 2.18261638531e-38
0.0683603834755 -0.108484956385 0.803 2.19176546299e-38
0.0698464787685 -0.108484956385 0.803 2.19169343625e-38
0.0713325740614 -0.108484956385 0.803 2.22860672065e-38
0.0728186693543 -0.108484956385 0.803 2.24701109442e-38
0.0743047646473 -0.108484956385 0.803 2.26552196688e-38
0.0757908599402 -0.108484956385 0.803 2.22875147478e-38
0.0774694258564 -0.108755155529 0.805 2.27488432218e-38
0.0789592225075 -0.108755155529 0.805 2.31161936142e-38
0.0804490191586 -0.108755155529 0.805 2.34831852742e-38
0.082345965205 -0.109295553818 0.809 2.34835510131e-38
0.0838431645724 -0.109295553818 0.809 2.34860649426e-38
0.0853403639397 -0.109295553818 0.809 2.21949477739e-38
0.0868375633071 -0.109295553818 0.809 2.34889488148e-38
0.0887715229349 -0.109835952106 0.813 2.34882075279e-38
0.0902761250186 -0.109835952106 0.813 2.34882131331e-38
0.0917807271022 -0.109835952106 0.813 2.34918242792e-38
0.094432750209 -0.111186947827 0.823 1.21550170224e-38
0.0959558590834 -0.111186947827 0.823 2.35050945757e-38
0.0276158330776 -0.110463332311 0.829 2.35058722963e-38
0.0291500460264 -0.110463332311 0.829 3.67341984632e-39
0.0306102318124 -0.110196834524 0.827 9.95878576132e-39
0.0320630148821 -0.109930336738 0.825 6.09055880379e-39
0.0335083952355 -0.109663838952 0.823 1.63124201349e-38
0.0349463728726 -0.109397341166 0.821 1.85128707056e-38
0.0364657803888 -0.109397341166 0.821 1.87840625962e-38
0.037985187905 -0.109397341166 0.821 1.91535835999e-38
0.0394083601096 -0.10913084338 0.819 1.87855101375e-38
0.0408241295979 -0.108864345594 0.817 1.94294446169e-38
0.042128858342 -0.108331350022 0.813 1.95223731258e-38
0.0435261210396 -0.108064852236 0.811 2.01677397323e-38
0.0450270217651 -0.108064852236 0.811 1.97982341428e-38
0.0464131803883 -0.10779835445 0.809 2.00737420326e-38
0.0477919362952 -0.107531856664 0.807 2.05343698573e-38
0.0492854343044 -0.107531856664 0.807 2.00755623193e-38
0.0506530861369 -0.107265358878 0.805 2.11822559984e-38
0.052142882788 -0.107265358878 0.805 2.0444322418e-38
0.0536326794391 -0.107265358878 0.805 2.07198331104e-38
0.0551224760902 -0.107265358878 0.805 2.15481364287e-38
0.0566122727412 -0.107265358878 0.805 2.19161930756e-38
0.0581020693923 -0.107265358878 0.805 2.14552331431e-38
0.0594438117178 -0.106998861092 0.803 2.16414264727e-38
0.0609299070108 -0.106998861092 0.803 2.16414236701e-38
0.0625714593456 -0.107265358878 0.805 2.14584547283e-38
0.0640612559967 -0.107265358878 0.805 2.13655556466e-38
0.0653881928896 -0.106998861092 0.803 2.29314366156e-38
0.0668742881826 -0.106998861092 0.803 2.31161683908e-38
0.0683603834755 -0.106998861092 0.803 2.18258079233e-38
0.0698464787685 -0.106998861092 0.803 2.22878650725e-38
0.0713325740614 -0.106998861092 0.803 2.21953135128e-38
0.0728186693543 -0.106998861092 0.803 2.24701081416e-38
0.0744898325543 -0.107265358878 0.805 2.28388906611e-38
0.0759796292053 -0.107265358878 0.805 2.25623205871e-38
0.0774694258564 -0.107265358878 0.805 2.31161992194e-38
0.0791553944889 -0.107531856664 0.807 2.29310834884e-38
0.0808487658376 -0.10779835445 0.809 2.32998463896e-38
0.082345965205 -0.10779835445 0.809 2.34835299936e-38
0.0838431645724 -0.10779835445 0.809 2.34860565348e-38
0.0855513413537 -0.108064852236 0.811 2.34896564705e-38
0.0872669208513 -0.108331350022 0.813 2.34824678094e-38
0.0889899030651 -0.108597847808 0.815 2.34903781392e-38
0.0907202879953 -0.108864345594 0.817 2.34928696479e-38
0.0924580756417 -0.10913084338 0.819 1.94370256416e-38
0.094432750209 -0.109663838952 0.823 1.37383749858e-38
0.0959558590834 -0.109663838952 0.823 2.350872534e-38
0.0278823308637 -0.109980305073 0.837 2.35011443153e-38
0.0290797202217 -0.108666322934 0.827 4.68361030406e-39
0.0306102318124 -0.108666322934 0.827 8.9435590369e-39
0.032140743403 -0.108666322934 0.827 7.56566646083e-39
0.0335898251145 -0.108403526506 0.825 1.09750830778e-38
0.0350315041098 -0.108140730078 0.823 1.71389494094e-38
0.0364657803888 -0.10787793365 0.821 1.93412118591e-38
0.037985187905 -0.10787793365 0.821 1.89684566585e-38
0.0394083601096 -0.107615137222 0.819 1.88744561562e-38
0.0408241295979 -0.107352340794 0.817 1.93386783115e-38
0.0422324963699 -0.107089544367 0.815 1.93386839166e-38
0.0436334604256 -0.106826747939 0.813 1.91528647338e-38
0.0450270217651 -0.106563951511 0.811 2.04428552585e-38
0.0465279224906 -0.106563951511 0.811 2.02584892221e-38
0.0479103797556 -0.106301155083 0.809 2.02588577636e-38
0.049407579123 -0.106301155083 0.809 2.05350719078e-38
0.0507789323136 -0.106038358655 0.807 2.05347173793e-38
0.052142882788 -0.105775562227 0.805 2.07212624348e-38
0.0536326794391 -0.105775562227 0.805 2.10900449542e-38
0.0551224760902 -0.105775562227 0.805 2.19180105597e-38
0.0566122727412 -0.105775562227 0.805 2.13637675898e-38
0.0581020693923 -0.105775562227 0.805 2.17328962299e-38
0.0595918660434 -0.105775562227 0.805 2.20094873234e-38
0.0610816626945 -0.105775562227 0.805 2.2193521252e-38
0.0625714593456 -0.105775562227 0.805 2.12741013036e-38
0.0640612559967 -0.105775562227 0.805 2.19194552984e-38
0.0655510526477 -0.105775562227 0.805 2.21009528768e-38
0.0670408492988 -0.105775562227 0.805 2.27456062223e-38
0.0685306459499 -0.105775562227 0.805 2.24711619181e-38
0.0698464787685 -0.105512765799 0.803 2.17350430192e-38
0.0713325740614 -0.105512765799 0.803 2.20112781829e-38
0.0730000359032 -0.105775562227 0.805 2.30250839906e-38
0.0744898325543 -0.105775562227 0.805 2.27488222023e-38
0.0759796292053 -0.105775562227 0.805 2.28392381831e-38
0.0776618964797 -0.106038358655 0.807 2.34878501968e-38
0.0793515664703 -0.106301155083 0.809 2.29310834884e-38
0.0808487658376 -0.106301155083 0.809 2.2837834082e-38
0.0825495399027 -0.106563951511 0.811 2.34875138852e-38
0.0840504406282 -0.106563951511 0.811 2.34860509296e-38
0.0857623187676 -0.106826747939 0.813 2.3486048127e-38
0.0874815996233 -0.107089544367 0.815 2.3487132732e-38
0.0892082831954 -0.107352340794 0.817 2.34900166042e-38
0.0909423694836 -0.107615137222 0.819 2.34925431454e-38
0.0924580756417 -0.107615137222 0.819 1.17918929461e-38
0.094432750209 -0.108140730078 0.823 1.78886076541e-38
0.0959558590834 -0.108140730078 0.823 2.35072988182e-38
0.0278823308637 -0.108431286692 0.837 2.34986458002e-38
0.029431349245 -0.108431286692 0.837 7.71418167727e-39
0.0308323133007 -0.107913096553 0.833 8.94463383283e-39
0.0322184719239 -0.107394906413 0.829 7.84547773818e-39
0.0336712549936 -0.107135811343 0.827 6.36857641911e-39
0.0350315041098 -0.106617621204 0.823 1.16182860794e-38
0.0365546129841 -0.106617621204 0.823 1.8520088794e-38
0.037985187905 -0.106358526134 0.821 1.92482805475e-38
0.0395045954212 -0.106358526134 0.821 1.91514185938e-38
0.0409240662676 -0.106099431064 0.819 1.90599656521e-38
0.0422324963699 -0.105581240925 0.815 1.95223436986e-38
0.0436334604256 -0.105322145855 0.813 1.95227262531e-38
0.0451380625093 -0.105322145855 0.813 2.00762657711e-38
0.0465279224906 -0.105063050785 0.811 1.99837001985e-38
0.0480288232161 -0.105063050785 0.811 2.0167362783e-38
0.049407579123 -0.104803955715 0.809 2.09946123249e-38
0.0509047784904 -0.104803955715 0.809 2.11797196482e-38
0.0522724303229 -0.104544860646 0.807 2.04436035519e-38
0.0536326794391 -0.104285765576 0.805 2.06290668049e-38
0.0551224760902 -0.104285765576 0.805 2.11811713934e-38
0.0566122727412 -0.104285765576 0.805 2.08131119439e-38
0.0581020693923 -0.104285765576 0.805 2.20112571634e-38
0.0595918660434 -0.104285765576 0.805 2.2655906305e-38
0.0610816626945 -0.104285765576 0.805 2.09024265041e-38
0.0625714593456 -0.104285765576 0.805 2.16406851858e-38
0.0640612559967 -0.104285765576 0.805 2.21024018194e-38
0.0655510526477 -0.104285765576 0.805 2.173434237e-38
0.0670408492988 -0.104285765576 0.805 2.24701109442e-38
0.0685306459499 -0.104285765576 0.805 2.26537973508e-38
0.070020442601 -0.104285765576 0.805 2.24718835868e-38
0.0715102392521 -0.104285765576 0.805 2.27481187505e-38
0.0730000359032 -0.104285765576 0.805 2.20113034062e-38
0.0746749004612 -0.104544860646 0.807 2.34860495283e-38
0.0761683984705 -0.104544860646 0.807 2.25626540961e-38
0.0778543671029 -0.104803955715 0.809 2.3484611796e-38
0.0795477384517 -0.105063050785 0.811 2.34842488597e-38
0.0810486391772 -0.105063050785 0.811 2.34849761336e-38
0.0827531146003 -0.105322145855 0.813 2.34892865277e-38
0.084257716684 -0.105322145855 0.813 2.34839013377e-38
0.0859732961816 -0.105581240925 0.815 2.34878445916e-38
0.0876962783954 -0.105840335994 0.817 2.34903697314e-38
0.0894266633256 -0.106099431064 0.819 2.34943452152e-38
0.0909423694836 -0.106099431064 0.819 1.51970580235e-38
0.0924580756417 -0.106099431064 0.819 1.18033723831e-38
0.0955801712322 -0.107913096553 0.833 2.18448095305e-38
0.0971217868973 -0.107913096553 0.833 2.35079560272e-38
0.0280155797567 -0.107393055734 0.841 2.32180974398e-38
0.029431349245 -0.106882268311 0.837 7.53625040347e-39
0.0308323133007 -0.106371480887 0.833 9.22229271574e-39
0.0322962004448 -0.106116087176 0.831 7.66001308383e-39
0.0337526848727 -0.105860693464 0.829 9.13479283703e-39
0.035116635347 -0.105349906041 0.825 7.66037181624e-39
0.0365546129841 -0.105094512329 0.823 1.13416977885e-38
0.0380777218585 -0.105094512329 0.823 1.85168672089e-38
0.0395045954212 -0.104839118618 0.821 1.90631704217e-38
0.0409240662676 -0.104583724906 0.819 1.979858727e-38
0.0423361343978 -0.104328331195 0.817 2.05361859401e-38
0.0437407998117 -0.104072937483 0.815 1.93383307894e-38
0.0451380625093 -0.103817543771 0.813 2.00762489556e-38
0.0466426645929 -0.103817543771 0.813 2.04446727426e-38
0.0480288232161 -0.10356215006 0.811 1.99833442687e-38
0.0495297239416 -0.10356215006 0.811 2.05347229845e-38
0.0509047784904 -0.103306756348 0.809 2.06258045821e-38
0.0524019778577 -0.103306756348 0.809 2.18265408024e-38
0.0537659283321 -0.103051362636 0.807 2.06290696075e-38
0.0552594263413 -0.103051362636 0.807 2.09052809491e-38
0.0567529243505 -0.103051362636 0.807 2.17354143633e-38
0.0582464223598 -0.103051362636 0.807 2.09978325088e-38
0.059739920369 -0.103051362636 0.807 2.11815245206e-38
0.0612334183782 -0.103051362636 0.807 2.15499469063e-38
0.0627269163874 -0.103051362636 0.807 2.20102061895e-38
0.0642204143967 -0.103051362636 0.807 2.22871462063e-38
0.0657139124059 -0.103051362636 0.807 2.19191175855e-38
0.0672074104151 -0.103051362636 0.807 2.22864147285e-38
0.0687009084243 -0.103051362636 0.807 2.25626597013e-38
0.0701944064336 -0.103051362636 0.807 2.21942219013e-38
0.0716879044428 -0.103051362636 0.807 2.2378613161e-38
0.073181402452 -0.103051362636 0.807 2.24704612688e-38
0.0748599683682 -0.103306756348 0.809 2.30232819208e-38
0.0763571677356 -0.103306756348 0.809 2.2375758716e-38
0.0778543671029 -0.103306756348 0.809 2.32984240717e-38
0.0795477384517 -0.10356215006 0.811 2.34842558662e-38
0.0812485125167 -0.103817543771 0.813 2.34828209366e-38
0.0827531146003 -0.103817543771 0.813 2.3485325057e-38
0.0844649927398 -0.104072937483 0.815 2.34885620564e-38
0.0861842735955 -0.104328331195 0.817 2.34885774707e-38
0.0879109571675 -0.104583724906 0.819 2.34911152222e-38
0.0894266633256 -0.104583724906 0.819 1.75952402154e-38
0.0909423694836 -0.104583724906 0.819 1.41085868297e-38
0.0933612070277 -0.105605299753 0.827 9.60075540499e-39
0.0955801712322 -0.106371480887 0.833 2.35086762946e-38
0.0971217868973 -0.106371480887 0.833 2.35097973333e-38
0.0280155797567 -0.105836634636 0.841 2.01763507113e-38
0.0295016750496 -0.105584942283 0.839 9.10570468351e-39
0.0309803676263 -0.105333249929 0.837 8.66912734435e-39
0.0322962004448 -0.104578172869 0.831 8.20994986356e-39
0.0337526848727 -0.104326480515 0.829 8.21138479319e-39
0.0352017665842 -0.104074788162 0.827 8.58231410189e-39
0.0366434455795 -0.103823095809 0.825 8.3057314162e-39
0.0380777218585 -0.103571403455 0.823 1.23536678953e-38
0.0395045954212 -0.103319711102 0.821 1.72289842371e-38
0.0410240029374 -0.103319711102 0.821 1.94348466225e-38
0.0423361343978 -0.102816326395 0.817 1.96156379464e-38
0.0437407998117 -0.102564634041 0.815 1.95230751764e-38
0.0452491032535 -0.102564634041 0.815 1.97064014493e-38
0.0466426645929 -0.102312941688 0.813 2.05361705258e-38
0.0481472666766 -0.102312941688 0.813 2.02610101581e-38
0.0495297239416 -0.102061249334 0.811 2.06283661557e-38
0.0510306246671 -0.102061249334 0.811 2.09960570636e-38
0.0524019778577 -0.101809556981 0.809 2.09978493244e-38
0.0537659283321 -0.101557864627 0.807 2.11811840051e-38
0.0552594263413 -0.101557864627 0.807 2.22867706584e-38
0.0567529243505 -0.101557864627 0.807 2.15499314921e-38
0.0582464223598 -0.101557864627 0.807 2.14588302763e-38
0.059739920369 -0.101557864627 0.807 2.18261848726e-38
0.0612334183782 -0.101557864627 0.807 2.24708242051e-38
0.0627269163874 -0.101557864627 0.807 2.21935184494e-38
0.0642204143967 -0.101557864627 0.807 2.12740830868e-38
0.0657139124059 -0.101557864627 0.807 2.15510427217e-38
0.0672074104151 -0.101557864627 0.807 2.21946002519e-38
0.0687009084243 -0.101557864627 0.807 2.23779125118e-38
0.0701944064336 -0.101557864627 0.807 2.24708143961e-38
0.0716879044428 -0.101557864627 0.807 2.26551804324e-38
0.073181402452 -0.101557864627 0.807 2.26552224714e-38
0.0748599683682 -0.101809556981 0.809 2.28389158845e-38
0.0765459370007 -0.102061249334 0.811 2.34853376686e-38
0.0780468377262 -0.102061249334 0.811 2.34842544649e-38
0.0797439104331 -0.102312941688 0.813 2.34835384014e-38
0.0814483858562 -0.102564634041 0.815 2.34853586881e-38
0.082956689298 -0.102564634041 0.815 2.3484250261e-38
0.0844649927398 -0.102564634041 0.815 2.34896410562e-38
0.0861842735955 -0.102816326395 0.817 2.3488217337e-38
0.0879109571675 -0.103068018748 0.819 1.78721381932e-38
0.0894266633256 -0.103068018748 0.819 1.33706742688e-38
0.0909423694836 -0.103068018748 0.819 1.23662235295e-38
0.0935869898742 -0.104326480515 0.829 9.87446823143e-39
0.095121202823 -0.104326480515 0.829 2.3509795932e-38
0.0265850048358 -0.104776195529 0.845 2.35044079395e-38
0.0280822042032 -0.104528204534 0.843 1.80565939127e-38
0.0295720008543 -0.104280213539 0.841 9.19861637689e-39
0.0309803676263 -0.103784231548 0.837 8.85566819592e-39
0.0323739289658 -0.103288249557 0.833 8.20959253245e-39
0.0338341147517 -0.103040258562 0.831 8.02699633606e-39
0.0352868978214 -0.102792267567 0.829 8.39900184198e-39
0.0367322781748 -0.102544276571 0.827 8.95144974856e-39
0.038170255812 -0.102296285576 0.825 7.56817758768e-39
0.0396008307328 -0.102048294581 0.823 1.20821214763e-38
0.0411239396072 -0.102048294581 0.823 1.63084544603e-38
0.0424397724257 -0.10155231259 0.819 1.87890946589e-38
0.0438481391977 -0.101304321595 0.817 1.94344962978e-38
0.0452491032535 -0.101056330599 0.815 2.08141811347e-38
0.0467574066952 -0.101056330599 0.815 2.03517568453e-38
0.0481472666766 -0.100808339604 0.813 2.05368683725e-38
0.0496518687602 -0.100808339604 0.813 2.06290696075e-38
0.0510306246671 -0.100560348609 0.811 2.13676884229e-38
0.0525315253926 -0.100560348609 0.811 1.98907983142e-38
0.0540324261181 -0.100560348609 0.811 2.11790161963e-38
0.0553963765925 -0.100312357613 0.809 2.09045746947e-38
0.0568935759598 -0.100312357613 0.809 2.13648213662e-38
0.0583907753272 -0.100312357613 0.809 2.15492280402e-38
0.0598879746946 -0.100312357613 0.809 2.17325431027e-38
0.0613851740619 -0.100312357613 0.809 2.15470770471e-38
0.0628823734293 -0.100312357613 0.809 2.28385375339e-38
0.0643795727966 -0.100312357613 0.809 2.20105565142e-38
0.065876772164 -0.100312357613 0.809 2.21956694426e-38
0.0673739715314 -0.100312357613 0.809 2.19169385663e-38
0.0688711708987 -0.100312357613 0.809 2.28370998016e-38
0.0703683702661 -0.100312357613 0.809 2.3114032812e-38
0.0718655696335 -0.100312357613 0.809 2.22856958624e-38
0.0733627690008 -0.100312357613 0.809 2.31154775507e-38
0.0750450362752 -0.100560348609 0.811 2.28403325972e-38
0.0767347062658 -0.100808339604 0.813 2.23778970975e-38
0.0782393083494 -0.100808339604 0.813 2.34853376686e-38
0.0799400824144 -0.101056330599 0.815 2.30229133793e-38
0.0816482591957 -0.101304321595 0.817 2.34896284445e-38
0.0831602639957 -0.101304321595 0.817 2.34856964011e-38
0.0848795448514 -0.10155231259 0.819 2.21063801057e-38
0.0863952510095 -0.10155231259 0.819 1.63097983055e-38
0.0879109571675 -0.10155231259 0.819 1.24544717016e-38
0.0894266633256 -0.10155231259 0.819 1.22754726384e-38
0.091164450972 -0.101800303585 0.821 1.13520870153e-38
0.0926838584882 -0.101800303585 0.821 9.87446823143e-39
0.0265850048358 -0.103212371716 0.845 2.35004772973e-38
0.0281488286497 -0.103212371716 0.845 1.60246733043e-38
0.0297126524636 -0.103212371716 0.845 9.93939879707e-39
0.0311284219519 -0.102723792441 0.841 9.59322903093e-39
0.0325293860076 -0.102235213167 0.837 7.93591473848e-39
0.0339155446308 -0.101746633892 0.833 8.02878999809e-39
0.0353720290586 -0.101502344255 0.831 7.47777702115e-39
0.0368211107702 -0.101258054618 0.829 7.93767196675e-39
0.0382627897654 -0.101013764981 0.827 8.03094239253e-39
0.0396970660444 -0.100769475344 0.825 8.30680761342e-39
0.0411239396072 -0.100525185706 0.823 1.05137293805e-38
0.0424397724257 -0.100036606432 0.819 1.49329707162e-38
0.0439554785838 -0.100036606432 0.819 1.72311324276e-38
0.0453601439976 -0.0997923167948 0.817 1.92511700249e-38
0.0467574066952 -0.0995480271576 0.815 1.9247578497e-38
0.048265710137 -0.0995480271576 0.815 2.08127195804e-38
0.0496518687602 -0.0993037375204 0.813 2.02584892221e-38
0.0511564708438 -0.0993037375204 0.813 2.10907484061e-38
0.0526610729275 -0.0993037375204 0.813 2.16425096764e-38
0.0540324261181 -0.0990594478832 0.811 2.12751424684e-38
0.0555333268436 -0.0990594478832 0.811 2.0998199649e-38
0.0570342275691 -0.0990594478832 0.811 2.14588302763e-38
0.0585351282946 -0.0990594478832 0.811 2.13651997168e-38
0.0600360290201 -0.0990594478832 0.811 2.19176546299e-38
0.0615369297456 -0.0990594478832 0.811 2.26545036053e-38
0.0630378304711 -0.0990594478832 0.811 2.21942499272e-38
0.0645387311966 -0.0990594478832 0.811 2.16414236701e-38
0.0660396319221 -0.0990594478832 0.811 2.22871658245e-38
0.0675405326476 -0.0990594478832 0.811 2.22860644039e-38
0.0690414333731 -0.0990594478832 0.811 2.32079828675e-38
0.0705423340987 -0.0990594478832 0.811 2.30218596029e-38
0.0720432348242 -0.0990594478832 0.811 2.28389130819e-38
0.0735441355497 -0.0990594478832 0.811 2.3300594683e-38
0.0752301041821 -0.0993037375204 0.813 2.31165761687e-38
0.0769234755309 -0.0995480271576 0.815 2.34842432545e-38
0.0786242495959 -0.0997923167948 0.817 2.33006072947e-38
0.0801362543958 -0.0997923167948 0.817 2.34878656111e-38
0.0818481325353 -0.100036606432 0.819 2.29346806215e-38
0.0833638386933 -0.100036606432 0.819 1.92540090556e-38
0.0848795448514 -0.100036606432 0.819 1.45624351724e-38
0.0866062284234 -0.100280896069 0.821 1.2639936356e-38
0.0881256359396 -0.100280896069 0.821 1.1723016324e-38
0.0896450434558 -0.100280896069 0.821 1.17219401268e-38
0.091164450972 -0.100280896069 0.821 1.06152506516e-38
0.0926838584882 -0.100280896069 0.821 1.12566641951e-38
0.0265850048358 -0.101648547902 0.845 2.35022723606e-38
0.0281488286497 -0.101648547902 0.845 1.2427599001e-38
0.0297126524636 -0.101648547902 0.845 9.3884026357e-39
0.0312024491147 -0.101407959623 0.843 8.39397958828e-39
0.0326071145285 -0.100926783065 0.839 8.12026676184e-39
0.0339969745099 -0.100445606506 0.835 7.75292477721e-39
0.0353720290586 -0.0999644299483 0.831 7.75400097443e-39
0.0368211107702 -0.0997238416692 0.829 7.29589969086e-39
0.0382627897654 -0.0994832533902 0.827 7.38809391943e-39
0.0396970660444 -0.0992426651111 0.825 7.20549912433e-39
0.0412238762769 -0.0992426651111 0.825 9.047948766e-39
0.0425434104536 -0.098761488553 0.821 7.57319984137e-39
0.0439554785838 -0.0985209002739 0.819 1.10701345539e-38
0.0454711847418 -0.0985209002739 0.819 1.3916772892e-38
0.0468721487976 -0.0982803119949 0.817 1.71356899892e-38
0.0483841535975 -0.0982803119949 0.817 1.97125237223e-38
0.0496518687602 -0.0977991354368 0.813 2.10000003175e-38
0.0511564708438 -0.0977991354368 0.813 2.11825909087e-38
0.0526610729275 -0.0977991354368 0.813 2.09049152102e-38
0.0541656750111 -0.0977991354368 0.813 2.16403474729e-38
0.0556702770948 -0.0977991354368 0.813 2.19198084256e-38
0.0571748791784 -0.0977991354368 0.813 2.12741013036e-38
0.0586794812621 -0.0977991354368 0.813 2.21042024879e-38
0.0601840833457 -0.0977991354368 0.813 2.17350458218e-38
0.0616886854293 -0.0977991354368 0.813 2.23779097092e-38
0.063193287513 -0.0977991354368 0.813 2.25633575479e-38
0.0646978895966 -0.0977991354368 0.813 2.18265113751e-38
0.0662024916803 -0.0977991354368 0.813 2.25633631531e-38
0.0677070937639 -0.0977991354368 0.813 2.26552042545e-38
0.0692116958476 -0.0977991354368 0.813 2.24708536324e-38
0.0707162979312 -0.0977991354368 0.813 2.27456034197e-38
0.0722209000148 -0.0977991354368 0.813 2.34842446558e-38
0.0739068686473 -0.0980397237158 0.815 2.33920448221e-38
0.0754151720891 -0.0980397237158 0.815 2.31161936142e-38
0.077112244796 -0.0982803119949 0.817 2.30254315127e-38
0.0786242495959 -0.0982803119949 0.817 2.13698590342e-38
0.0803324263772 -0.0985209002739 0.819 1.9806747031e-38
0.0818481325353 -0.0985209002739 0.819 1.62183677846e-38
0.0833638386933 -0.0985209002739 0.819 1.32781213078e-38
0.0850868209072 -0.098761488553 0.821 1.30090720026e-38
0.0866062284234 -0.098761488553 0.821 1.12616864488e-38
0.0883403147117 -0.0990020768321 0.823 1.09843862983e-38
0.089863423586 -0.0990020768321 0.823 1.15379104021e-38
0.0913865324604 -0.0990020768321 0.823 1.10769392592e-38
0.0251988462126 -0.100795384851 0.851 2.34957969604e-38
0.0267108510126 -0.10055849793 0.849 2.35040730291e-38
0.0282820775427 -0.10055849793 0.849 1.21506463725e-38
0.0297126524636 -0.100084724088 0.845 9.67216697603e-39
0.0312764762774 -0.100084724088 0.845 8.3954229257e-39
0.0326848430495 -0.099610950246 0.841 7.93659576953e-39
0.0340784043889 -0.0991371764041 0.837 7.75364224203e-39
0.0354571602958 -0.0986634025623 0.833 7.20334672989e-39
0.0369099433655 -0.0984265156414 0.831 7.38809391943e-39
0.0383553237189 -0.0981896287205 0.829 7.38809391943e-39
0.0398895366677 -0.0981896287205 0.829 6.74524544632e-39
0.0413238129467 -0.0979527417995 0.827 6.92963390345e-39
0.0427506865094 -0.0977158548786 0.825 7.48387547206e-39
0.0440628179698 -0.0972420810368 0.821 7.57571096822e-39
0.045582225486 -0.0972420810368 0.821 8.67881311934e-39
0.0471016330022 -0.0972420810368 0.821 1.09768529177e-38
0.0485025970579 -0.0970051941159 0.819 1.47482935916e-38
0.050018303216 -0.0970051941159 0.819 1.67711828314e-38
0.0514081631973 -0.096768307195 0.817 1.84235575467e-38
0.0529201679972 -0.096768307195 0.817 1.95281114431e-38
0.0544321727972 -0.096768307195 0.817 2.02624170617e-38
0.0559441775971 -0.096768307195 0.817 2.15535188161e-38
0.057456182397 -0.096768307195 0.817 2.04461202839e-38
0.0589681871969 -0.096768307195 0.817 2.18287058085e-38
0.0601840833457 -0.0962945333531 0.813 2.17368759176e-38
0.0616886854293 -0.0962945333531 0.813 2.13651997168e-38
0.063193287513 -0.0962945333531 0.813 2.2102752144e-38
0.0646978895966 -0.0962945333531 0.813 2.17350584335e-38
0.0663653514384 -0.096531420274 0.815 2.23804152308e-38
0.0678736548802 -0.096531420274 0.815 2.17350458218e-38
0.069381958322 -0.096531420274 0.815 2.18283316619e-38
0.0708902617637 -0.096531420274 0.815 2.22878790854e-38
0.0723985652055 -0.096531420274 0.815 2.15521175177e-38
0.0740882351961 -0.096768307195 0.817 2.21974813215e-38
0.075785307903 -0.0970051941159 0.819 2.00805369289e-38
0.0773010140611 -0.0970051941159 0.819 1.86136759133e-38
0.0788167202191 -0.0970051941159 0.819 1.69583570698e-38
0.0803324263772 -0.0970051941159 0.819 1.41064344352e-38
0.0820480058748 -0.0972420810368 0.821 1.14446399763e-38
0.083567413391 -0.0972420810368 0.821 1.1630463363e-38
0.0850868209072 -0.0972420810368 0.821 1.03401028955e-38
0.0868172058373 -0.0974789679577 0.823 1.02489848642e-38
0.0883403147117 -0.0974789679577 0.823 1.09851037631e-38
0.0900818037162 -0.0977158548786 0.825 1.12616934553e-38
0.0916086139487 -0.0977158548786 0.825 1.1260968984e-38
0.0251988462126 -0.0992204569623 0.851 2.35004590804e-38
0.0267108510126 -0.0989872713995 0.849 2.35069512962e-38
0.0282820775427 -0.0989872713995 0.849 8.37209691147e-39
0.0298533040729 -0.0989872713995 0.849 9.58607820487e-39
0.0313505034402 -0.0987540858367 0.847 8.85638566074e-39
0.0327625715704 -0.0982877147112 0.843 9.41026849694e-39
0.0340784043889 -0.0975881580228 0.837 7.66001308383e-39
0.0354571602958 -0.0971217868973 0.833 6.83564601285e-39
0.0369099433655 -0.0968886013345 0.831 7.38809391943e-39
0.0383553237189 -0.0966554157717 0.829 7.38809391943e-39
0.0398895366677 -0.0966554157717 0.829 7.38917011665e-39
0.0414237496164 -0.0966554157717 0.829 7.39024631387e-39
0.0428543245373 -0.0964222302089 0.827 7.20765151877e-39
0.0441701573558 -0.0959558590834 0.823 7.11617475502e-39
0.0456932662302 -0.0959558590834 0.823 7.11545729021e-39
0.0471016330022 -0.0957226735206 0.821 8.95790693188e-39
0.0486210405184 -0.0957226735206 0.821 8.31003620508e-39
0.0501404480346 -0.0957226735206 0.821 9.31986793041e-39
0.0515340093741 -0.0954894879578 0.819 1.19863875678e-38
0.0530497155321 -0.0954894879578 0.819 1.49340679329e-38
0.0545654216902 -0.0954894879578 0.819 1.64985840372e-38
0.0560811278482 -0.0954894879578 0.819 1.70474446197e-38
0.0575968340063 -0.0954894879578 0.819 1.81508970954e-38
0.0591125401644 -0.0954894879578 0.819 1.92554453866e-38
0.0604801919968 -0.095256302395 0.817 1.87937791997e-38
0.0619921967968 -0.095256302395 0.817 2.03600455257e-38
0.0635042015967 -0.095256302395 0.817 2.03589441051e-38
0.0650162063966 -0.095256302395 0.817 2.04511565506e-38
0.0666910709547 -0.0954894879578 0.819 2.00823516104e-38
0.0682067771127 -0.0954894879578 0.819 1.91632875918e-38
0.0697224832708 -0.0954894879578 0.819 1.89813976498e-38
0.0712381894288 -0.0954894879578 0.819 1.85193096721e-38
0.0727538955869 -0.0954894879578 0.819 1.76009491053e-38
0.074269601745 -0.0954894879578 0.819 1.57616972267e-38
0.07597037581 -0.0957226735206 0.821 1.33678044095e-38
0.0774897833262 -0.0957226735206 0.821 1.24537542368e-38
0.0792016614656 -0.0959558590834 0.823 1.06163268488e-38
0.08072477034 -0.0959558590834 0.823 1.12620451812e-38
0.0822478792143 -0.0959558590834 0.823 1.0155355706e-38
0.0837709880887 -0.0959558590834 0.823 9.88092541475e-39
0.0855013730188 -0.0961890446462 0.825 1.06177617785e-38
0.0872391606652 -0.0964222302089 0.827 1.0434808251e-38
0.0894137085721 -0.0971217868973 0.833 1.07110322042e-38
0.0911737043673 -0.09735497246 0.835 1.17230205279e-38
0.0929411028789 -0.0975881580228 0.837 8.86463650609e-39
0.0944901212602 -0.0975881580228 0.837 2.33221130222e-38
0.0251988462126 -0.097645529074 0.851 2.34968255135e-38
0.0267737741009 -0.097645529074 0.851 2.35044065382e-38
0.0283487019892 -0.097645529074 0.851 4.49993931174e-39
0.0299236298775 -0.097645529074 0.851 9.30697458324e-39
0.0313505034402 -0.0971865606647 0.847 8.76311523495e-39
0.0328403000913 -0.0969570764601 0.845 8.85746185796e-39
0.0343226940261 -0.0967275922554 0.843 7.11007630411e-39
0.035542291533 -0.0958096554369 0.835 7.57140617934e-39
0.0370876085562 -0.0958096554369 0.835 7.48028814799e-39
0.0386329255794 -0.0958096554369 0.835 7.20478165952e-39
0.0400820072909 -0.0955801712322 0.833 7.57355857378e-39
0.0415236862862 -0.0953506870276 0.831 7.20478866601e-39
0.0429579625652 -0.095121202823 0.829 7.02290432924e-39
0.0443848361279 -0.0948917186183 0.827 6.84030953414e-39
0.0458043069744 -0.0946622344137 0.825 6.93286249511e-39
0.0472163751045 -0.094432750209 0.823 7.30056321215e-39
0.0486210405184 -0.0942032660044 0.821 8.03596464623e-39
0.0501404480346 -0.0942032660044 0.821 7.66682899956e-39
0.0515340093741 -0.0939737817998 0.819 8.31147113471e-39
0.0530497155321 -0.0939737817998 0.819 8.40402409568e-39
0.0545654216902 -0.0939737817998 0.819 8.31147113471e-39
0.0560811278482 -0.0939737817998 0.819 1.02450430116e-38
0.0575968340063 -0.0939737817998 0.819 1.11619588397e-38
0.0591125401644 -0.0939737817998 0.819 1.21725150363e-38
0.0606282463224 -0.0939737817998 0.819 1.18955974403e-38
0.0621439524805 -0.0939737817998 0.819 1.29993862276e-38
0.0636596586385 -0.0939737817998 0.819 1.37358764706e-38
0.0651753647966 -0.0939737817998 0.819 1.29983100304e-38
0.0666910709547 -0.0939737817998 0.819 1.32756101809e-38
0.0682067771127 -0.0939737817998 0.819 1.18977190062e-38
0.0698927457452 -0.0942032660044 0.821 1.27271083308e-38
0.0714121532614 -0.0942032660044 0.821 1.16229299825e-38
0.0729315607776 -0.0942032660044 0.821 1.17183528027e-38
0.0744509682938 -0.0942032660044 0.821 9.97168471369e-39
0.07597037581 -0.0942032660044 0.821 1.05273612119e-38
0.0776785525913 -0.094432750209 0.823 8.2221467654e-39
0.0792016614656 -0.094432750209 0.823 8.77674706641e-39
0.0809209423214 -0.0946622344137 0.825 9.41995427192e-39
0.0824477525538 -0.0946622344137 0.825 9.60398399665e-39
0.0839745627863 -0.0946622344137 0.825 9.88128414716e-39
0.0859159251304 -0.095121202823 0.829 9.60541892627e-39
0.0874501380792 -0.095121202823 0.829 1.07113909366e-38
0.0894137085721 -0.0955801712322 0.833 1.13571120716e-38
0.0911737043673 -0.0958096554369 0.835 1.1630463363e-38
0.0929411028789 -0.0960391396415 0.837 8.49585959183e-39
0.0944901212602 -0.0960391396415 0.837 2.35097370775e-38
0.028448638659 -0.0964092754554 0.854 7.35867786207e-39
0.0299236298775 -0.0960706011857 0.851 1.02321454605e-38
0.0313505034402 -0.0956190354927 0.847 9.31699807115e-39
0.0328403000913 -0.0953932526462 0.845 8.39720817995e-39
0.0343226940261 -0.0951674697997 0.843 7.75615336887e-39
0.0357125540074 -0.0947159041067 0.839 7.38881138424e-39
0.0371764411516 -0.0944901212602 0.837 7.57284110897e-39
0.0386329255794 -0.0942643384137 0.835 6.92891643864e-39
0.0401782426026 -0.0942643384137 0.835 6.83743967489e-39
0.041623622956 -0.0940385555672 0.833 7.48315800725e-39
0.0429579625652 -0.0935869898742 0.829 7.574634771e-39
0.0443848361279 -0.0933612070277 0.827 7.94520534729e-39
0.0459153477185 -0.0933612070277 0.827 7.48423420447e-39
0.0473311172068 -0.0931354241812 0.825 7.39311617313e-39
0.0488579274393 -0.0931354241812 0.825 7.29984574734e-39
0.0502625928532 -0.0929096413347 0.823 7.76117562257e-39
0.0516598555508 -0.0926838584882 0.821 7.85336985114e-39
0.053179263067 -0.0926838584882 0.821 8.03704084345e-39
0.0545654216902 -0.0924580756417 0.819 7.76117562257e-39
0.0560811278482 -0.0924580756417 0.819 7.67077505604e-39
0.0575968340063 -0.0924580756417 0.819 8.49980564831e-39
0.0591125401644 -0.0924580756417 0.819 8.95970059391e-39
0.060776300648 -0.0926838584882 0.821 9.32632511373e-39
0.0621439524805 -0.0924580756417 0.819 8.12887633961e-39
0.0636596586385 -0.0924580756417 0.819 8.31505845877e-39
0.0653345231966 -0.0926838584882 0.821 8.13031126924e-39
0.0668539307128 -0.0926838584882 0.821 9.32885025356e-39
0.068373338229 -0.0926838584882 0.821 9.42103046915e-39
0.0698927457452 -0.0926838584882 0.821 9.51394216252e-39
0.0714121532614 -0.0926838584882 0.821 8.31685212081e-39
0.0729315607776 -0.0926838584882 0.821 8.31685212081e-39
0.0746323348426 -0.0929096413347 0.823 8.68527030266e-39
0.076155443717 -0.0929096413347 0.823 8.22429915984e-39
0.0776785525913 -0.0929096413347 0.823 9.79052484822e-39
0.0793941320889 -0.0931354241812 0.825 9.88164287956e-39
0.0811171143028 -0.0933612070277 0.827 9.42103046915e-39
0.0826476258934 -0.0933612070277 0.827 9.05368848451e-39
0.0843817121817 -0.0935869898742 0.829 1.05273612119e-38
0.0861232011862 -0.0938127727207 0.831 9.60434272905e-39
0.0878720929071 -0.0940385555672 0.833 1.08028677004e-38
0.0894137085721 -0.0940385555672 0.833 1.10794503861e-38
0.0911737043673 -0.0942643384137 0.835 1.17226575916e-38
0.0929411028789 -0.0944901212602 0.837 8.12744140998e-39
0.0944901212602 -0.0944901212602 0.837 2.35072834039e-38
0.0268681587335 -0.0948287955299 0.854 2.35051394172e-38
0.028448638659 -0.0948287955299 0.854 5.23713440785e-39
0.0299236298775 -0.0944956732974 0.851 8.76206005721e-39
0.0313505034402 -0.0940515103207 0.847 8.39362225718e-39
0.0328403000913 -0.0938294288323 0.845 8.76419143217e-39
0.0343226940261 -0.093607347344 0.843 7.84834759744e-39
0.0357976852446 -0.0933852658556 0.841 7.38846105963e-39
0.0372652737469 -0.0931631843672 0.839 7.57355857378e-39
0.0387254595329 -0.0929411028789 0.837 6.92999263586e-39
0.0402744779142 -0.0929411028789 0.837 7.02218686442e-39
0.0417235596257 -0.0927190213905 0.835 7.20621658915e-39
0.043165238621 -0.0924969399022 0.833 7.39096377868e-39
0.044492175514 -0.0920527769254 0.829 7.02362179405e-39
0.0459153477185 -0.0918306954371 0.827 6.84030953414e-39
0.0473311172068 -0.0916086139487 0.825 7.30092194456e-39
0.0488579274393 -0.0916086139487 0.825 7.39311617313e-39
0.0502625928532 -0.0913865324604 0.823 7.94448788248e-39
0.0517857017275 -0.0913865324604 0.823 7.66969885882e-39
0.0533088106019 -0.0913865324604 0.823 7.76189308738e-39
0.0546986705832 -0.091164450972 0.821 7.11760968465e-39
0.0562180780994 -0.091164450972 0.821 7.67077505604e-39
0.0577374856156 -0.091164450972 0.821 7.76189308738e-39
0.0592568931318 -0.091164450972 0.821 7.85408731595e-39
0.060776300648 -0.091164450972 0.821 7.94592281211e-39
0.0622957081642 -0.091164450972 0.821 8.03919323789e-39
0.0638151156804 -0.091164450972 0.821 8.59379353891e-39
0.0653345231966 -0.091164450972 0.821 8.03991070271e-39
0.0668539307128 -0.091164450972 0.821 8.13210493127e-39
0.068373338229 -0.091164450972 0.821 8.13389859331e-39
0.0700630082196 -0.0913865324604 0.823 7.85946830205e-39
0.0715861170939 -0.0913865324604 0.823 8.68634649988e-39
0.0731092259683 -0.0913865324604 0.823 8.77782326363e-39
0.0748137013915 -0.0916086139487 0.825 8.77710579882e-39
0.0763405116239 -0.0916086139487 0.825 9.69617822521e-39
0.0780560911215 -0.0918306954371 0.827 8.59199987688e-39
0.0797790733354 -0.0920527769254 0.829 8.8700174922e-39
0.0815094582655 -0.0922748584138 0.831 9.23771820924e-39
0.0830473725724 -0.0922748584138 0.831 9.23987060368e-39
0.084788861577 -0.0924969399022 0.833 9.51537709215e-39
0.0865377532978 -0.0927190213905 0.835 1.12631213784e-38
0.088083070321 -0.0927190213905 0.835 1.12638388432e-38
0.0898430661163 -0.0929411028789 0.837 1.19077635135e-38
0.0913920844976 -0.0929411028789 0.837 1.15371929373e-38
0.0929411028789 -0.0929411028789 0.837 9.23161975832e-39
0.0944901212602 -0.0929411028789 0.837 2.35097819191e-38
0.0285152631055 -0.0934666957347 0.856 5.32932863642e-39
0.0300994443891 -0.0934666957347 0.856 8.94572824693e-39
0.031424530603 -0.0927023652789 0.849 8.30357902175e-39
0.0329180286122 -0.0924839851487 0.847 8.48832621129e-39
0.0344041239052 -0.0922656050184 0.845 7.93803069916e-39
0.0357976852446 -0.091828844758 0.841 7.38737645462e-39
0.0372652737469 -0.0916104646278 0.839 6.9271227766e-39
0.0387254595329 -0.0913920844976 0.837 7.66682899956e-39
0.0402744779142 -0.0913920844976 0.837 7.39024631387e-39
0.0417235596257 -0.0911737043673 0.835 7.29876955012e-39
0.0432688766489 -0.0911737043673 0.835 7.11545729021e-39
0.044706854286 -0.0909553242371 0.833 6.84030953414e-39
0.0461374292069 -0.0907369441069 0.831 7.02505672368e-39
0.0475606014115 -0.0905185639767 0.829 6.93357995993e-39
0.0489763708998 -0.0903001838465 0.827 7.20836898359e-39
0.0503847376718 -0.0900818037162 0.825 7.39311617313e-39
0.0519115479043 -0.0900818037162 0.825 7.30128067697e-39
0.0534383581368 -0.0900818037162 0.825 7.39383363794e-39
0.0548319194762 -0.089863423586 0.823 7.30343307141e-39
0.0563550283506 -0.089863423586 0.823 7.57858082748e-39
0.0578781372249 -0.089863423586 0.823 7.76332801701e-39
0.0594012460992 -0.089863423586 0.823 8.03883450549e-39
0.060776300648 -0.0896450434558 0.821 7.67113378845e-39
0.0622957081642 -0.0896450434558 0.821 7.67113378845e-39
0.0638151156804 -0.0896450434558 0.821 8.40725268734e-39
0.0654936815966 -0.089863423586 0.823 8.13102873405e-39
0.0670167904709 -0.089863423586 0.823 8.40761141975e-39
0.0685398993453 -0.089863423586 0.823 7.8565984428e-39
0.0700630082196 -0.089863423586 0.823 7.94951013618e-39
0.0715861170939 -0.089863423586 0.823 8.22429915984e-39
0.073286891159 -0.0900818037162 0.825 8.86930002738e-39
0.0748137013915 -0.0900818037162 0.825 8.31756958562e-39
0.0763405116239 -0.0900818037162 0.825 9.69833061965e-39
0.0782448603866 -0.0905185639767 0.829 9.0529710197e-39
0.0797790733354 -0.0905185639767 0.829 8.96328791798e-39
0.0817056302469 -0.0909553242371 0.833 9.79339470747e-39
0.0834471192515 -0.0911737043673 0.835 9.69833061965e-39
0.0849924362746 -0.0911737043673 0.835 9.97419584053e-39
0.0867450293536 -0.0913920844976 0.837 9.97419584053e-39
0.0882940477349 -0.0913920844976 0.837 1.08939885343e-38
0.0898430661163 -0.0913920844976 0.837 1.14449987087e-38
0.0916104646278 -0.0916104646278 0.839 1.12599390296e-38
0.0931631843672 -0.0916104646278 0.839 1.15328881484e-38
0.0299236298775 -0.0913458175208 0.851 8.94788064137e-39
0.0314985577658 -0.0913458175208 0.851 8.57908551023e-39
0.0329957571332 -0.0911311387487 0.849 8.76490889699e-39
0.0344855537843 -0.0909164599767 0.847 8.30537268379e-39
0.0358828164819 -0.0904871024325 0.843 7.84655393541e-39
0.0373541063422 -0.0902724236604 0.841 6.65197502054e-39
0.0388179934863 -0.0900577448883 0.839 8.03632337864e-39
0.0403707132258 -0.0900577448883 0.839 7.39096377868e-39
0.0418234962955 -0.0898430661163 0.837 6.92999263586e-39
0.0432688766489 -0.0896283873442 0.835 7.02290432924e-39
0.044706854286 -0.0894137085721 0.833 7.85301392133e-39
0.0462484699511 -0.0894137085721 0.833 7.30092194456e-39
0.0475606014115 -0.0889843510279 0.829 7.30092194456e-39
0.0490948143602 -0.0889843510279 0.829 7.48531040169e-39
0.0505068824904 -0.0887696722558 0.827 7.48531040169e-39
0.052037394081 -0.0887696722558 0.827 7.66934012641e-39
0.0534383581368 -0.0885549934838 0.825 7.57858082748e-39
0.0549651683692 -0.0885549934838 0.825 7.57858082748e-39
0.0564919786017 -0.0885549934838 0.825 7.67077505604e-39
0.0580187888342 -0.0885549934838 0.825 8.12995253683e-39
0.0595455990667 -0.0885549934838 0.825 8.58984748243e-39
0.0609243549736 -0.0883403147117 0.823 7.66898139401e-39
0.0624474638479 -0.0883403147117 0.823 7.76296928461e-39
0.0639705727222 -0.0883403147117 0.823 8.40761141975e-39
0.0656528399966 -0.0885549934838 0.825 8.03919323789e-39
0.0671796502291 -0.0885549934838 0.825 8.40761141975e-39
0.0687064604615 -0.0885549934838 0.825 8.31541719118e-39
0.070233270694 -0.0885549934838 0.825 8.31541719118e-39
0.0717600809265 -0.0885549934838 0.825 8.77674706641e-39
0.0734645563497 -0.0887696722558 0.827 8.5934348065e-39
0.0749950679403 -0.0887696722558 0.827 8.31756958562e-39
0.0765255795309 -0.0887696722558 0.827 8.77674706641e-39
0.0782448603866 -0.0889843510279 0.829 9.14516524826e-39
0.0799715439586 -0.0891990298 0.831 9.23843567405e-39
0.0819018022283 -0.0896283873442 0.835 8.68706396469e-39
0.083646992591 -0.0898430661163 0.837 9.51537709215e-39
0.0851960109723 -0.0898430661163 0.837 1.00663900691e-38
0.0869523054094 -0.0900577448883 0.839 1.01589430301e-38
0.0887160025628 -0.0902724236604 0.841 1.1539708268e-38
0.0904871024325 -0.0904871024325 0.843 1.16297458982e-38
0.0920472248882 -0.0904871024325 0.843 1.02471912022e-38
0.093607347344 -0.0904871024325 0.843 1.57709906382e-38
0.0299236298775 -0.0897708896325 0.851 8.39003493311e-39
0.0314985577658 -0.0897708896325 0.851 8.57872677782e-39
0.0329957571332 -0.0895599122186 0.849 8.67271466842e-39
0.0344855537843 -0.0893489348046 0.847 8.95144974856e-39
