# .PCD v0.7 - Point Cloud Data file format
VERSION 0.7
FIELDS x y z rgb
SIZE 4 4 4 4
TYPE F F F F
COUNT 1 1 1 1
WIDTH 849
HEIGHT 1
VIEWPOINT 0 0 0 1 0 0 0
POINTS 849
DATA ascii
0.0366434455795 -0.108403526506 0.825 1.96217742324e-38
0.038170255812 -0.108403526506 0.825 1.9527054864e-38
0.0396008307328 -0.108140730078 0.823 2.00758930257e-38
0.0410240029374 -0.10787793365 0.821 2.01681236881e-38
0.0424397724257 -0.107615137222 0.819 2.02592108908e-38
0.0439554785838 -0.107615137222 0.819 2.06265626846e-38
0.0453601439976 -0.107352340794 0.817 2.09042243701e-38
0.0467574066952 -0.107089544367 0.815 2.17346954972e-38
0.048265710137 -0.107089544367 0.815 2.11815343297e-38
0.0497740135788 -0.107089544367 0.815 2.1182258801e-38
0.0511564708438 -0.106826747939 0.813 2.09953157768e-38
0.0526610729275 -0.106826747939 0.813 2.15499469063e-38
0.0541656750111 -0.106826747939 0.813 2.17343395674e-38
0.0556702770948 -0.106826747939 0.813 2.20091313936e-38
0.0571748791784 -0.106826747939 0.813 2.2192812195e-38
0.0586794812621 -0.106826747939 0.813 2.22875147478e-38
0.0601840833457 -0.106826747939 0.813 2.32101941165e-38
0.0616886854293 -0.106826747939 0.813 2.20105565142e-38
0.063193287513 -0.106826747939 0.813 2.32094528296e-38
0.0646978895966 -0.106826747939 0.813 2.22878846906e-38
0.0662024916803 -0.106826747939 0.813 2.31158306779e-38
0.0677070937639 -0.106826747939 0.813 2.34835355988e-38
0.0692116958476 -0.106826747939 0.813 2.34860537322e-38
0.0707162979312 -0.106826747939 0.813 2.28396137311e-38
0.0722209000148 -0.106826747939 0.813 2.34874984709e-38
0.0739068686473 -0.107089544367 0.815 2.34846075921e-38
0.0754151720891 -0.107089544367 0.815 2.34871215216e-38
0.077112244796 -0.107352340794 0.817 2.34878487955e-38
0.0788167202191 -0.107615137222 0.819 2.34878487955e-38
0.0805285983586 -0.10787793365 0.821 2.34874844579e-38
0.0820480058748 -0.10787793365 0.821 2.34882355539e-38
0.0837709880887 -0.108140730078 0.823 1.98972400832e-38
0.0855013730188 -0.108403526506 0.825 1.42897466951e-38
0.0870281832513 -0.108403526506 0.825 1.31952541218e-38
0.0885549934838 -0.108403526506 0.825 1.23647885999e-38
0.0234573572081 -0.109467666971 0.845 2.35095030607e-38
0.0248435158313 -0.108690381762 0.839 3.21424236553e-39
0.0263962355707 -0.108690381762 0.839 8.48762416076e-39
0.0279489553102 -0.108690381762 0.839 8.30322028935e-39
0.029431349245 -0.108431286692 0.837 7.93623703712e-39
0.0308323133007 -0.107913096553 0.833 7.66073054865e-39
0.0322962004448 -0.107654001483 0.831 7.57032998212e-39
0.0337526848727 -0.107394906413 0.829 7.66180674587e-39
0.0352017665842 -0.107135811343 0.827 1.134383617e-38
0.0367322781748 -0.107135811343 0.827 1.48376403817e-38
0.038170255812 -0.106876716274 0.825 1.78703655507e-38
0.0396970660444 -0.106876716274 0.825 2.05401362005e-38
0.0411239396072 -0.106617621204 0.823 2.02617262216e-38
0.0424397724257 -0.106099431064 0.819 1.99837001985e-38
0.0439554785838 -0.106099431064 0.819 2.08134384465e-38
0.0454711847418 -0.106099431064 0.819 2.09981968464e-38
0.0468721487976 -0.105840335994 0.817 2.08123664531e-38
0.0483841535975 -0.105840335994 0.817 2.12708418834e-38
0.0498961583974 -0.105840335994 0.817 2.14552303405e-38
0.0512823170206 -0.105581240925 0.815 2.32072822183e-38
0.0527906204624 -0.105581240925 0.815 2.15488524922e-38
0.0542989239041 -0.105581240925 0.815 2.14591806009e-38
0.0556702770948 -0.105322145855 0.813 2.21949505765e-38
0.0571748791784 -0.105322145855 0.813 2.31176271425e-38
0.0588238342295 -0.105581240925 0.815 2.21041772646e-38
0.0603321376713 -0.105581240925 0.815 2.22882153971e-38
0.0618404411131 -0.105581240925 0.815 2.23779125118e-38
0.0633487445548 -0.105581240925 0.815 2.25637302933e-38
0.0648570479966 -0.105581240925 0.815 2.31169264933e-38
0.0663653514384 -0.105581240925 0.815 2.32090997024e-38
0.0678736548802 -0.105581240925 0.815 2.31161992194e-38
0.069381958322 -0.105581240925 0.815 2.32998730143e-38
0.0708902617637 -0.105581240925 0.815 2.32076927987e-38
0.0723985652055 -0.105581240925 0.815 2.34835355988e-38
0.0739068686473 -0.105581240925 0.815 2.34853334648e-38
0.0756002399961 -0.105840335994 0.817 2.34863970503e-38
0.0773010140611 -0.106099431064 0.819 2.34903543172e-38
0.0790091908424 -0.106358526134 0.821 2.34914655468e-38
0.08072477034 -0.106617621204 0.823 2.34889291966e-38
0.0822478792143 -0.106617621204 0.823 1.6122596041e-38
0.0839745627863 -0.106876716274 0.825 1.31891556709e-38
0.0857086490746 -0.107135811343 0.827 1.17215813944e-38
0.0872391606652 -0.107135811343 0.827 1.22744006451e-38
0.0887696722558 -0.107135811343 0.827 1.03397441631e-38
0.0234573572081 -0.107903843157 0.845 2.3505147825e-38
0.0249619592917 -0.107648449446 0.843 3.58158435016e-39
0.0265220817475 -0.107648449446 0.843 7.65750475958e-39
0.0279489553102 -0.107137662022 0.839 7.93659576953e-39
0.029431349245 -0.106882268311 0.837 7.38701772221e-39
0.0309063404635 -0.106626874599 0.835 7.38809391943e-39
0.0322962004448 -0.106116087176 0.831 7.47777702115e-39
0.0338341147517 -0.106116087176 0.831 9.04472017434e-39
0.0352868978214 -0.105860693464 0.829 7.84906506225e-39
0.0367322781748 -0.105605299753 0.827 8.85710312555e-39
0.0382627897654 -0.105605299753 0.827 1.39195418578e-38
0.0396970660444 -0.105349906041 0.825 1.69538210667e-38
0.0411239396072 -0.105094512329 0.823 1.88830685366e-38
0.0425434104536 -0.104839118618 0.821 2.01727802029e-38
0.0440628179698 -0.104839118618 0.821 2.13683946773e-38
0.0454711847418 -0.104583724906 0.819 2.08138111919e-38
0.0469868908999 -0.104583724906 0.819 2.21952980985e-38
0.0483841535975 -0.104328331195 0.817 2.1825792509e-38
0.0498961583974 -0.104328331195 0.817 2.17321899755e-38
0.0514081631973 -0.104328331195 0.817 2.13644836533e-38
0.0529201679972 -0.104328331195 0.817 2.2102794183e-38
0.0542989239041 -0.104072937483 0.815 2.1457382735e-38
0.0558072273459 -0.104072937483 0.815 2.24715332622e-38
0.0573155307877 -0.104072937483 0.815 2.16417739947e-38
0.0588238342295 -0.104072937483 0.815 2.20098348454e-38
0.0604801919968 -0.104328331195 0.817 2.25633743635e-38
0.0619921967968 -0.104328331195 0.817 2.25626568987e-38
0.0635042015967 -0.104328331195 0.817 2.28392634065e-38
0.0650162063966 -0.104328331195 0.817 2.27470705792e-38
0.0665282111965 -0.104328331195 0.817 2.29314366156e-38
0.0680402159965 -0.104328331195 0.817 2.30236322454e-38
0.0695522207964 -0.104328331195 0.817 2.32994778481e-38
0.0708902617637 -0.104072937483 0.815 2.3484601987e-38
0.0723985652055 -0.104072937483 0.815 2.34860425218e-38
0.0740882351961 -0.104328331195 0.817 2.34867950191e-38
0.075785307903 -0.104583724906 0.819 2.34885676616e-38
0.0774897833262 -0.104839118618 0.821 2.25655407709e-38
0.0792016614656 -0.105094512329 0.823 1.97153739633e-38
0.0809209423214 -0.105349906041 0.825 1.45634595216e-38
0.0826476258934 -0.105605299753 0.827 1.30072783406e-38
0.084178137484 -0.105605299753 0.827 1.14460749059e-38
0.0857086490746 -0.105605299753 0.827 1.18159280174e-38
0.0872391606652 -0.105605299753 0.827 1.08014397773e-38
0.0234573572081 -0.106340019343 0.845 2.35058540795e-38
0.025021181022 -0.106340019343 0.845 3.85709083864e-39
0.0265220817475 -0.10608832699 0.843 8.21066732838e-39
0.0279489553102 -0.105584942283 0.839 7.65929561902e-39
0.0295016750496 -0.105584942283 0.839 7.66073054865e-39
0.0309803676263 -0.105333249929 0.837 7.66108928105e-39
0.0324516574867 -0.105081557576 0.835 6.9271227766e-39
0.0339155446308 -0.104829865222 0.833 7.38881138424e-39
0.0353720290586 -0.104578172869 0.831 7.4806468804e-39
0.0368211107702 -0.104326480515 0.829 8.40258916605e-39
0.0383553237189 -0.104326480515 0.829 6.92748150901e-39
0.0397933013561 -0.104074788162 0.827 1.06066410738e-38
0.0412238762769 -0.103823095809 0.825 1.41035855955e-38
0.0425434104536 -0.103319711102 0.821 1.71400059885e-38
0.0440628179698 -0.103319711102 0.821 1.94376744428e-38
0.045582225486 -0.103319711102 0.821 2.03557239213e-38
0.0469868908999 -0.103068018748 0.819 2.08166824524e-38
0.0485025970579 -0.103068018748 0.819 2.19205272917e-38
0.050018303216 -0.103068018748 0.819 2.11815343297e-38
0.0514081631973 -0.102816326395 0.817 2.19194552984e-38
0.0529201679972 -0.102816326395 0.817 2.26559259232e-38
0.0544321727972 -0.102816326395 0.817 2.20116257049e-38
0.0558072273459 -0.102564634041 0.815 2.29332190672e-38
0.0573155307877 -0.102564634041 0.815 2.34863900438e-38
0.0589681871969 -0.102816326395 0.817 2.32094458231e-38
0.0604801919968 -0.102816326395 0.817 2.21942471246e-38
0.0619921967968 -0.102816326395 0.817 2.26548539299e-38
0.0635042015967 -0.102816326395 0.817 2.34839013377e-38
0.0650162063966 -0.102816326395 0.817 2.28378018522e-38
0.0665282111965 -0.102816326395 0.817 2.31165313271e-38
0.0682067771127 -0.103068018748 0.819 2.34871159164e-38
0.0695522207964 -0.102816326395 0.817 2.34885466421e-38
0.0710642255963 -0.102816326395 0.817 2.32108947657e-38
0.0725762303962 -0.102816326395 0.817 2.33956615734e-38
0.0740882351961 -0.102816326395 0.817 2.18322791196e-38
0.075785307903 -0.103068018748 0.819 1.88863125425e-38
0.0774897833262 -0.103319711102 0.821 1.54815160066e-38
0.0793941320889 -0.103823095809 0.825 1.28221724187e-38
0.0811171143028 -0.104074788162 0.827 1.14467923707e-38
0.0828474992329 -0.104326480515 0.829 1.16308220954e-38
0.0843817121817 -0.104326480515 0.829 9.42103046915e-39
0.0859159251304 -0.104326480515 0.829 1.0436601913e-38
0.0876611154931 -0.104578172869 0.831 1.13549568746e-38
0.0891990298 -0.104578172869 0.831 8.58913001762e-39
0.0235128775802 -0.105024186525 0.847 2.350334015e-38
0.025021181022 -0.104776195529 0.845 4.31626831943e-39
0.0265220817475 -0.104528204534 0.843 8.39541451791e-39
0.0280155797567 -0.104280213539 0.841 8.11992764762e-39
0.0295016750496 -0.104032222543 0.839 7.75292477721e-39
0.0309803676263 -0.103784231548 0.837 7.20334672989e-39
0.0324516574867 -0.103536240553 0.835 7.01931700517e-39
0.0339155446308 -0.103288249557 0.833 6.74488671392e-39
0.0354571602958 -0.103288249557 0.833 7.11222869855e-39
0.0369099433655 -0.103040258562 0.831 6.83528728045e-39
0.0383553237189 -0.102792267567 0.829 8.31039914138e-39
0.0397933013561 -0.102544276571 0.827 8.49514212702e-39
0.0413238129467 -0.102544276571 0.827 8.40223043364e-39
0.0426470484815 -0.102048294581 0.823 9.78083907323e-39
0.0441701573558 -0.102048294581 0.823 1.32756101809e-38
0.045582225486 -0.101800303585 0.821 1.63141507385e-38
0.0471016330022 -0.101800303585 0.821 1.76005735573e-38
0.0485025970579 -0.10155231259 0.819 1.98075275542e-38
0.050018303216 -0.10155231259 0.819 2.02667358636e-38
0.0515340093741 -0.10155231259 0.819 2.11887089778e-38
0.0530497155321 -0.10155231259 0.819 2.09092438212e-38
0.0545654216902 -0.10155231259 0.819 2.18304812537e-38
0.0560811278482 -0.10155231259 0.819 2.16435942814e-38
0.0575968340063 -0.10155231259 0.819 2.24715542816e-38
0.0591125401644 -0.10155231259 0.819 2.23818627721e-38
0.0606282463224 -0.10155231259 0.819 2.2289679754e-38
0.0621439524805 -0.10155231259 0.819 2.25669742993e-38
0.0636596586385 -0.10155231259 0.819 2.25651722295e-38
0.0651753647966 -0.10155231259 0.819 2.31186991358e-38
0.0666910709547 -0.10155231259 0.819 2.19233957497e-38
0.0682067771127 -0.10155231259 0.819 2.24776457261e-38
0.0697224832708 -0.10155231259 0.819 2.08202543622e-38
0.0712381894288 -0.10155231259 0.819 1.93465844374e-38
0.0727538955869 -0.10155231259 0.819 1.56644891523e-38
0.074269601745 -0.10155231259 0.819 1.31823397551e-38
0.076155443717 -0.102048294581 0.823 1.24537542368e-38
0.0778673218564 -0.102296285576 0.825 1.15379104021e-38
0.0795866027121 -0.102544276571 0.827 1.12620451812e-38
0.0813132862841 -0.102792267567 0.829 1.00667488015e-38
0.0828474992329 -0.102792267567 0.829 1.04355257158e-38
0.0843817121817 -0.102792267567 0.829 1.05273612119e-38
0.0861232011862 -0.103040258562 0.831 1.15400627965e-38
0.0876611154931 -0.103040258562 0.831 1.1538999211e-38
0.0891990298 -0.103040258562 0.831 8.1281588748e-39
0.0251396244824 -0.10370095099 0.849 4.86728129637e-39
0.0265850048358 -0.103212371716 0.845 8.02627887125e-39
0.0281488286497 -0.103212371716 0.845 7.93551957231e-39
0.0295720008543 -0.102723792441 0.841 7.38701772221e-39
0.0310543947891 -0.102479502804 0.839 6.92784024142e-39
0.0325293860076 -0.102235213167 0.837 6.83743967489e-39
0.0339969745099 -0.10199092353 0.835 6.92999263586e-39
0.0354571602958 -0.101746633892 0.833 6.92999263586e-39
0.0369987759609 -0.101746633892 0.833 7.02146939961e-39
0.0384478576724 -0.101502344255 0.831 7.02218686442e-39
0.0398895366677 -0.101258054618 0.829 7.29876955012e-39
0.0414237496164 -0.101258054618 0.829 7.39096377868e-39
0.0427506865094 -0.100769475344 0.825 7.76081689016e-39
0.0441701573558 -0.100525185706 0.823 8.49693578906e-39
0.0456932662302 -0.100525185706 0.823 7.48172307762e-39
0.0471016330022 -0.100280896069 0.821 9.68936230948e-39
0.0486210405184 -0.100280896069 0.821 1.24469383211e-38
0.0501404480346 -0.100280896069 0.821 1.2813652524e-38
0.0516598555508 -0.100280896069 0.821 1.5854599111e-38
0.053179263067 -0.100280896069 0.821 1.73261166414e-38
0.0546986705832 -0.100280896069 0.821 1.70474236002e-38
0.0562180780994 -0.100280896069 0.821 1.77828558629e-38
0.0577374856156 -0.100280896069 0.821 1.84282112589e-38
0.0592568931318 -0.100280896069 0.821 1.80597958797e-38
0.060776300648 -0.100280896069 0.821 1.87051652887e-38
0.0621439524805 -0.100036606432 0.819 1.88899054718e-38
0.0636596586385 -0.100036606432 0.819 1.78768143262e-38
0.0651753647966 -0.100036606432 0.819 1.67715387612e-38
0.0666910709547 -0.100036606432 0.819 1.68655070336e-38
0.0682067771127 -0.100036606432 0.819 1.40110214241e-38
0.0697224832708 -0.100036606432 0.819 1.30919391886e-38
0.0712381894288 -0.100036606432 0.819 1.31887969385e-38
0.0727538955869 -0.100036606432 0.819 1.13513695505e-38
0.0746323348426 -0.100525185706 0.823 1.16301046306e-38
0.0763405116239 -0.100769475344 0.825 1.04330145889e-38
0.0780560911215 -0.101013764981 0.827 9.60541892627e-39
0.0797790733354 -0.101258054618 0.829 9.42282413118e-39
0.0815094582655 -0.101502344255 0.831 9.88307780919e-39
0.0830473725724 -0.101502344255 0.831 1.07128258663e-38
0.0845852868793 -0.101502344255 0.831 1.14475098355e-38
0.0861232011862 -0.101502344255 0.831 1.17233750564e-38
0.088083070321 -0.10199092353 0.835 1.14464378422e-38
0.0896283873442 -0.10199092353 0.835 9.87805555549e-39
0.0911737043673 -0.10199092353 0.835 2.35098169515e-38
0.0236239183244 -0.102370312739 0.851 2.34961318707e-38
0.0251396244824 -0.10212972446 0.849 5.69559442383e-39
0.0267108510126 -0.10212972446 0.849 8.39541451791e-39
0.0282154530962 -0.101889136181 0.847 8.12062549425e-39
0.0297126524636 -0.101648547902 0.845 6.92533471976e-39
0.0311284219519 -0.101167371344 0.841 7.57104744693e-39
0.0325293860076 -0.100686194785 0.837 6.92855770623e-39
0.0339969745099 -0.100445606506 0.835 6.83743967489e-39
0.035542291533 -0.100445606506 0.835 7.20478586342e-39
0.0369987759609 -0.100205018227 0.833 7.20621658915e-39
0.0384478576724 -0.0999644299483 0.831 7.02290432924e-39
0.0398895366677 -0.0997238416692 0.829 6.56229191882e-39
0.0414237496164 -0.0997238416692 0.829 7.76045815776e-39
0.0428543245373 -0.0994832533902 0.827 7.30056321215e-39
0.0442774967419 -0.0992426651111 0.825 7.76117562257e-39
0.0458043069744 -0.0992426651111 0.825 7.30128067697e-39
0.0472163751045 -0.0990020768321 0.823 8.31434099396e-39
0.0487394839789 -0.0990020768321 0.823 8.49693578906e-39
0.0502625928532 -0.0990020768321 0.823 7.85372858354e-39
0.0516598555508 -0.098761488553 0.821 8.68168297859e-39
0.053179263067 -0.098761488553 0.821 9.60219033461e-39
0.0546986705832 -0.098761488553 0.821 9.78335020008e-39
0.0562180780994 -0.098761488553 0.821 1.11637525017e-38
0.0578781372249 -0.0990020768321 0.823 1.01485397903e-38
0.0594012460992 -0.0990020768321 0.823 1.17144067462e-38
0.060776300648 -0.098761488553 0.821 1.06991940348e-38
0.0622957081642 -0.098761488553 0.821 1.10701233435e-38
0.0638151156804 -0.098761488553 0.821 1.19027412599e-38
0.0653345231966 -0.098761488553 0.821 1.07070861478e-38
0.0668539307128 -0.098761488553 0.821 1.02486261318e-38
0.068373338229 -0.098761488553 0.821 1.00656726043e-38
0.0700630082196 -0.0990020768321 0.823 1.07095972746e-38
0.0715861170939 -0.0990020768321 0.823 9.88200161197e-39
0.073286891159 -0.0992426651111 0.825 9.69581949281e-39
0.0749950679403 -0.0994832533902 0.827 9.69833061965e-39
0.0765255795309 -0.0994832533902 0.827 9.60577765868e-39
0.0782448603866 -0.0997238416692 0.829 9.79088358063e-39
0.0797790733354 -0.0997238416692 0.829 1.0436601913e-38
0.0815094582655 -0.0999644299483 0.831 1.02522134559e-38
0.0832472459119 -0.100205018227 0.833 1.0895061929e-38
0.084788861577 -0.100205018227 0.833 1.08936269993e-38
0.0865377532978 -0.100445606506 0.835 1.19985228125e-38
0.088083070321 -0.100445606506 0.835 1.12609759905e-38
0.0896283873442 -0.100445606506 0.835 1.24580660322e-38
0.0911737043673 -0.100445606506 0.835 2.35097566957e-38
0.0236239183244 -0.100795384851 0.851 2.17422484959e-38
0.0251988462126 -0.100795384851 0.851 7.26289630943e-39
0.0267108510126 -0.10055849793 0.849 7.84260787893e-39
0.0282154530962 -0.100321611009 0.847 8.48832621129e-39
0.0297126524636 -0.100084724088 0.845 7.29195363439e-39
0.0312024491147 -0.0998478371669 0.843 7.38773518702e-39
0.0326848430495 -0.099610950246 0.841 7.38881138424e-39
0.0340784043889 -0.0991371764041 0.837 7.20478165952e-39
0.035542291533 -0.0989002894832 0.835 7.48136434521e-39
0.0370876085562 -0.0989002894832 0.835 7.38917011665e-39
0.0385403916259 -0.0986634025623 0.833 7.57535223581e-39
0.0400820072909 -0.0986634025623 0.833 7.39060504628e-39
0.041623622956 -0.0986634025623 0.833 7.11581602262e-39
0.043165238621 -0.0986634025623 0.833 6.74739784076e-39
0.044492175514 -0.0981896287205 0.829 7.30020447975e-39
0.0460263884627 -0.0981896287205 0.829 6.93357995993e-39
0.0474458593092 -0.0979527417995 0.827 7.30163940937e-39
0.0489763708998 -0.0979527417995 0.827 7.57822209507e-39
0.0505068824904 -0.0979527417995 0.827 8.03883450549e-39
0.052037394081 -0.0979527417995 0.827 7.94592281211e-39
0.0535679056716 -0.0979527417995 0.827 8.31398226155e-39
0.0550984172622 -0.0979527417995 0.827 7.94592281211e-39
0.0564919786017 -0.0977158548786 0.825 7.57929829229e-39
0.0580187888342 -0.0977158548786 0.825 8.31505845877e-39
0.0596899520341 -0.0979527417995 0.827 8.59056494725e-39
0.0609243549736 -0.0974789679577 0.823 8.77459467197e-39
0.0624474638479 -0.0974789679577 0.823 8.96149425595e-39
0.0639705727222 -0.0974789679577 0.823 7.21123884284e-39
0.0654936815966 -0.0974789679577 0.823 8.8700174922e-39
0.0670167904709 -0.0974789679577 0.823 8.5934348065e-39
0.0685398993453 -0.0974789679577 0.823 8.31685212081e-39
0.070233270694 -0.0977158548786 0.825 8.31756958562e-39
0.0717600809265 -0.0977158548786 0.825 8.5930760741e-39
0.0734645563497 -0.0979527417995 0.827 8.96185298836e-39
0.0749950679403 -0.0979527417995 0.827 9.23735947683e-39
0.0767106474379 -0.0981896287205 0.829 9.9745882041e-39
0.0784336296517 -0.0984265156414 0.831 1.00667488015e-38
0.0799715439586 -0.0984265156414 0.831 1.04351669834e-38
0.0817056302469 -0.0986634025623 0.833 9.88202123015e-39
0.0834471192515 -0.0989002894832 0.835 1.1262762646e-38
0.0849924362746 -0.0989002894832 0.835 1.16301060319e-38
0.0865377532978 -0.0989002894832 0.835 1.3103791371e-38
0.0882940477349 -0.0991371764041 0.837 1.15364754724e-38
0.0898430661163 -0.0991371764041 0.837 1.44820538899e-38
0.0913920844976 -0.0991371764041 0.837 2.35098113463e-38
0.025287678808 -0.0995702353064 0.854 7.07707292268e-39
0.0268681587335 -0.0995702353064 0.854 8.48796747888e-39
0.028448638659 -0.0995702353064 0.854 8.12134295907e-39
0.0299236298775 -0.0992204569623 0.851 7.66073054865e-39
0.0312024491147 -0.0982877147112 0.843 7.38701772221e-39
0.0326848430495 -0.0980545291484 0.841 7.38773518702e-39
0.034159834268 -0.0978213435856 0.839 6.65269809055e-39
0.0356274227702 -0.0975881580228 0.837 7.2976933529e-39
0.0371764411516 -0.0975881580228 0.837 7.20549912433e-39
0.0386329255794 -0.09735497246 0.835 7.57535223581e-39
0.0401782426026 -0.09735497246 0.835 7.48351673966e-39
0.0417235596257 -0.09735497246 0.835 7.6686226616e-39
0.043165238621 -0.0971217868973 0.833 7.48423420447e-39
0.0445995149 -0.0968886013345 0.831 7.8515761891e-39
0.0461374292069 -0.0968886013345 0.831 7.66790519679e-39
0.0475606014115 -0.0966554157717 0.829 7.76117562257e-39
0.0490948143602 -0.0966554157717 0.829 7.76117562257e-39
0.050629027309 -0.0966554157717 0.829 7.48638659891e-39
0.0521632402577 -0.0966554157717 0.829 8.22394042743e-39
0.0536974532065 -0.0966554157717 0.829 7.94592281211e-39
0.0550984172622 -0.0964222302089 0.827 7.57822209507e-39
0.0566289288529 -0.0964222302089 0.827 8.59271734169e-39
0.0581594404435 -0.0964222302089 0.827 7.76332801701e-39
0.0596899520341 -0.0964222302089 0.827 8.68527030266e-39
0.0612204636247 -0.0964222302089 0.827 7.94771647414e-39
0.0627509752153 -0.0964222302089 0.827 8.87145242182e-39
0.064281486806 -0.0964222302089 0.827 8.03991070271e-39
0.0656528399966 -0.0961890446462 0.825 8.77710579882e-39
0.0671796502291 -0.0961890446462 0.825 8.5934348065e-39
0.0688730215778 -0.0964222302089 0.827 8.5934348065e-39
0.0704035331684 -0.0964222302089 0.827 8.77710579882e-39
0.071934044759 -0.0964222302089 0.827 8.77782326363e-39
0.0736422215403 -0.0966554157717 0.829 9.33098863502e-39
0.0753578010379 -0.0968886013345 0.831 1.0251495991e-38
0.0768957153448 -0.0968886013345 0.831 9.7898073834e-39
0.0788111681819 -0.09735497246 0.835 9.23843567405e-39
0.0803564852051 -0.09735497246 0.835 1.07103147394e-38
0.0822941461911 -0.0978213435856 0.839 1.13556743394e-38
0.0838468659305 -0.0978213435856 0.839 1.11705684174e-38
0.0858067350653 -0.0982877147112 0.843 1.12606102516e-38
0.087366857521 -0.0982877147112 0.843 1.23669522047e-38
0.0889269799768 -0.0982877147112 0.843 1.14460749059e-38
0.0907017812046 -0.0985209002739 0.845 1.69674360826e-38
0.0922656050184 -0.0985209002739 0.845 2.35097973333e-38
0.0238737599988 -0.0986782079949 0.86 1.65782002107e-38
0.0254653439987 -0.0986782079949 0.86 8.55935522785e-39
0.0269310818219 -0.0982192395856 0.856 8.21138479319e-39
0.028448638659 -0.0979897553809 0.854 8.30357902175e-39
0.0300291185845 -0.0979897553809 0.854 7.93695450194e-39
0.0312764762774 -0.0969570764601 0.845 7.38522406017e-39
0.0327625715704 -0.0967275922554 0.843 7.29482349364e-39
0.0342412641471 -0.0964981080508 0.841 7.20406419471e-39
0.0357976852446 -0.0964981080508 0.841 7.20621658915e-39
0.0372652737469 -0.0962686238461 0.839 7.02218686442e-39
0.0387254595329 -0.0960391396415 0.837 7.1150985578e-39
0.0401782426026 -0.0958096554369 0.835 6.74739784076e-39
0.0417235596257 -0.0958096554369 0.835 7.30092194456e-39
0.0432688766489 -0.0958096554369 0.835 7.30056321215e-39
0.044706854286 -0.0955801712322 0.833 7.48531040169e-39
0.0462484699511 -0.0955801712322 0.833 7.208727716e-39
0.0477900856161 -0.0955801712322 0.833 7.30128067697e-39
0.0492132578207 -0.0953506870276 0.831 7.30092194456e-39
0.0507511721276 -0.0953506870276 0.831 7.02577418849e-39
0.0522890864345 -0.0953506870276 0.831 7.85552224558e-39
0.0536974532065 -0.095121202823 0.829 7.57822209507e-39
0.0552316661553 -0.095121202823 0.829 7.85623971039e-39
0.056765879104 -0.095121202823 0.829 8.40761141975e-39
0.0583000920528 -0.095121202823 0.829 8.03919323789e-39
0.0598343050015 -0.095121202823 0.829 8.13210493127e-39
0.0612204636247 -0.0948917186183 0.827 8.13138746646e-39
0.0627509752153 -0.0948917186183 0.827 8.0395519703e-39
0.064281486806 -0.0948917186183 0.827 8.68455283785e-39
0.0658119983966 -0.0948917186183 0.827 8.68491157025e-39
0.0673425099872 -0.0948917186183 0.827 8.22537535706e-39
0.0688730215778 -0.0948917186183 0.827 8.40904634937e-39
0.0705737956428 -0.095121202823 0.829 9.42138920155e-39
0.0722819724241 -0.0953506870276 0.831 8.96149425595e-39
0.073819886731 -0.0953506870276 0.831 8.96328791798e-39
0.0753578010379 -0.0953506870276 0.831 9.33062990261e-39
0.0772658511588 -0.0958096554369 0.835 9.51537709215e-39
0.078999937447 -0.0960391396415 0.837 9.79160104544e-39
0.0809338970749 -0.0964981080508 0.841 1.08954206614e-38
0.0824903181724 -0.0964981080508 0.841 1.02500610614e-38
0.0842466126096 -0.0967275922554 0.843 1.14475098355e-38
0.086010309763 -0.0969570764601 0.845 1.1630463363e-38
0.0875741335768 -0.0969570764601 0.845 1.29204945254e-38
0.0889269799768 -0.0967275922554 0.843 9.69510202799e-39
0.0904871024325 -0.0967275922554 0.843 2.24937816779e-38
0.0920472248882 -0.0967275922554 0.843 2.35098225567e-38
0.0238737599988 -0.0970866239949 0.86 1.67633369613e-38
0.0254653439987 -0.0970866239949 0.86 8.92813214211e-39
0.0269940049102 -0.0968608411484 0.858 8.12063109945e-39
0.0285152631055 -0.0966350583019 0.856 8.30429648657e-39
0.0300994443891 -0.0966350583019 0.856 7.75400097443e-39
0.0313505034402 -0.0956190354927 0.847 7.11115250133e-39
0.0328403000913 -0.0953932526462 0.845 7.6632416755e-39
0.0344041239052 -0.0953932526462 0.845 7.48028814799e-39
0.0358828164819 -0.0951674697997 0.843 6.83779840729e-39
0.0373541063422 -0.0949416869532 0.841 7.39096377868e-39
0.0388179934863 -0.0947159041067 0.839 7.11545729021e-39
0.0402744779142 -0.0944901212602 0.837 7.11617475502e-39
0.0417235596257 -0.0942643384137 0.835 7.30092194456e-39
0.0432688766489 -0.0942643384137 0.835 7.02577418849e-39
0.0448141936721 -0.0942643384137 0.835 7.4856691341e-39
0.0463595106953 -0.0942643384137 0.835 7.39383363794e-39
0.0479048277184 -0.0942643384137 0.835 7.39383363794e-39
0.0493317012812 -0.0940385555672 0.833 8.03919323789e-39
0.0508733169462 -0.0940385555672 0.833 7.30271560659e-39
0.0524149326112 -0.0940385555672 0.833 7.85623971039e-39
0.0538270007414 -0.0938127727207 0.831 7.94735774173e-39
0.0553649150483 -0.0938127727207 0.831 7.48818026094e-39
0.056765879104 -0.0935869898742 0.829 7.85623971039e-39
0.0583000920528 -0.0935869898742 0.829 7.94735774173e-39
0.0598343050015 -0.0935869898742 0.829 7.8569571752e-39
0.0613685179503 -0.0935869898742 0.829 8.40761141975e-39
0.062902730899 -0.0935869898742 0.829 8.31541719118e-39
0.0644369438478 -0.0935869898742 0.829 8.59271734169e-39
0.0658119983966 -0.0933612070277 0.827 8.40904634937e-39
0.0673425099872 -0.0933612070277 0.827 8.5934348065e-39
0.0690395826941 -0.0935869898742 0.829 9.51465962734e-39
0.0705737956428 -0.0935869898742 0.829 8.8700174922e-39
0.0722819724241 -0.0938127727207 0.831 8.50195804275e-39
0.073819886731 -0.0938127727207 0.831 8.96113552354e-39
0.0757205341356 -0.0942643384137 0.835 9.42246539877e-39
0.0776359869727 -0.0947159041067 0.839 9.69940681687e-39
0.0791887067122 -0.0947159041067 0.839 1.02522134559e-38
0.0809338970749 -0.0949416869532 0.841 1.03444076844e-38
0.0826864901538 -0.0951674697997 0.843 1.12641975756e-38
0.0842466126096 -0.0951674697997 0.843 1.0802508968e-38
0.086010309763 -0.0953932526462 0.845 1.2092876442e-38
0.0875741335768 -0.0953932526462 0.845 1.17226575916e-38
0.0889269799768 -0.0951674697997 0.843 9.23197849073e-39
0.0904871024325 -0.0951674697997 0.843 2.3509744084e-38
0.0920472248882 -0.0951674697997 0.843 2.3508739353e-38
0.093607347344 -0.0951674697997 0.843 2.35055401886e-38
0.0238737599988 -0.095495039995 0.86 1.69477058002e-38
0.0254653439987 -0.095495039995 0.86 8.37102071425e-39
0.0269940049102 -0.0952729585067 0.858 7.75005491796e-39
0.0285152631055 -0.0950508770183 0.856 8.21353718763e-39
0.0300994443891 -0.0950508770183 0.856 7.75328350962e-39
0.0314985577658 -0.0944956732974 0.851 7.93803069916e-39
0.0329180286122 -0.0940515103207 0.847 7.38809391943e-39
0.0344041239052 -0.0938294288323 0.845 6.65305121776e-39
0.0359679477191 -0.0938294288323 0.845 7.02218686442e-39
0.0374429389376 -0.093607347344 0.843 7.29876955012e-39
0.0389105274398 -0.0933852658556 0.841 7.11545729021e-39
0.0403707132258 -0.0931631843672 0.839 6.93071010067e-39
0.0418234962955 -0.0929411028789 0.837 7.20836898359e-39
0.0433725146768 -0.0929411028789 0.837 7.39311617313e-39
0.0449215330581 -0.0929411028789 0.837 7.48387547206e-39
0.0463595106953 -0.0927190213905 0.835 7.48495587318e-39
0.0479048277184 -0.0927190213905 0.835 7.67077505604e-39
0.0494501447416 -0.0927190213905 0.835 7.67149252085e-39
0.0509954617648 -0.0927190213905 0.835 7.57786896786e-39
0.052540778788 -0.0927190213905 0.835 8.12995253683e-39
0.0539565482763 -0.0924969399022 0.833 7.94592281211e-39
0.0554981639413 -0.0924969399022 0.833 8.31434099396e-39
0.0569028293552 -0.0922748584138 0.831 8.59199987688e-39
0.0584407436621 -0.0922748584138 0.831 7.94735774173e-39
0.059978657969 -0.0922748584138 0.831 7.48710406372e-39
0.0613685179503 -0.0920527769254 0.829 8.68455283785e-39
0.062902730899 -0.0920527769254 0.829 8.3164933884e-39
0.0647478579315 -0.0924969399022 0.833 8.40763243922e-39
0.0661303151966 -0.0922748584138 0.831 8.5930760741e-39
0.0676682295035 -0.0922748584138 0.831 8.77710579882e-39
0.0692061438103 -0.0922748584138 0.831 9.14373031864e-39
0.0709143205917 -0.0924969399022 0.833 9.69833061965e-39
0.0724559362567 -0.0924969399022 0.833 9.51465962734e-39
0.0743528823031 -0.0929411028789 0.837 9.42138920155e-39
0.0760832672332 -0.0931631843672 0.839 9.60577765868e-39
0.0778210548797 -0.0933852658556 0.841 1.02518547234e-38
0.0793774759773 -0.0933852658556 0.841 1.00674662663e-38
0.0811263676981 -0.093607347344 0.843 1.0158585699e-38
0.0826864901538 -0.093607347344 0.843 1.07113909366e-38
0.0844464859491 -0.0938294288323 0.845 1.19084851823e-38
0.086010309763 -0.0938294288323 0.845 1.25541993107e-38
0.0875741335768 -0.0938294288323 0.845 1.14453574411e-38
0.0889269799768 -0.093607347344 0.843 1.03357981067e-38
0.0904871024325 -0.093607347344 0.843 2.35083848245e-38
0.0920472248882 -0.093607347344 0.843 2.35080134804e-38
0.093607347344 -0.093607347344 0.843 2.35033513604e-38
0.0238737599988 -0.0939034559951 0.86 1.74072420134e-38
0.0254653439987 -0.0939034559951 0.86 9.01458665216e-39
0.0269940049102 -0.0936850758649 0.858 8.67199720361e-39
0.028581887552 -0.0936850758649 0.858 7.66108928105e-39
0.0301697701938 -0.0936850758649 0.858 7.20334672989e-39
0.0314985577658 -0.0929207454091 0.851 7.66180674587e-39
0.0329957571332 -0.0927023652789 0.849 7.11115250133e-39
0.0344855537843 -0.0924839851487 0.847 7.48028814799e-39
0.0359679477191 -0.0922656050184 0.845 7.38881138424e-39
0.0375317715329 -0.0922656050184 0.845 6.65484487979e-39
0.0390030613933 -0.0920472248882 0.843 6.56157445401e-39
0.040563183849 -0.0920472248882 0.843 7.39275744072e-39
0.042023369635 -0.091828844758 0.841 7.11760968465e-39
0.0433725146768 -0.0913920844976 0.837 7.02505672368e-39
0.0449215330581 -0.0913920844976 0.837 7.4860278665e-39
0.0464705514394 -0.0913920844976 0.837 7.4860278665e-39
0.0480195698208 -0.0913920844976 0.837 7.94735774173e-39
0.0495685882021 -0.0913920844976 0.837 7.48638659891e-39
0.0511176065834 -0.0913920844976 0.837 7.48638659891e-39
0.0526666249647 -0.0913920844976 0.837 7.67113378845e-39
0.0540860958111 -0.0911737043673 0.835 7.76296928461e-39
0.0556314128343 -0.0911737043673 0.835 8.40689395493e-39
0.0570397796063 -0.0909553242371 0.833 7.85444604836e-39
0.0585813952714 -0.0909553242371 0.833 7.94843393896e-39
0.0601230109364 -0.0909553242371 0.833 7.76296928461e-39
0.061812680927 -0.0911737043673 0.835 8.0395519703e-39
0.0633579979502 -0.0911737043673 0.835 8.68706396469e-39
0.0649033149734 -0.0911737043673 0.835 8.8700174922e-39
0.0664486319965 -0.0911737043673 0.835 8.5934348065e-39
0.0679939490197 -0.0911737043673 0.835 8.5934348065e-39
0.0695392660429 -0.0911737043673 0.835 8.96041805873e-39
0.0712548455405 -0.0913920844976 0.837 9.0529710197e-39
0.0728038639218 -0.0913920844976 0.837 9.23843567405e-39
0.0747082126845 -0.091828844758 0.841 9.33062990261e-39
0.0762646337821 -0.091828844758 0.841 9.51537709215e-39
0.0780061227866 -0.0920472248882 0.843 1.02518547234e-38
0.0795662452424 -0.0920472248882 0.843 9.88307780919e-39
0.0811263676981 -0.0920472248882 0.843 1.05277199443e-38
0.0828826621352 -0.0922656050184 0.845 1.10798091185e-38
0.0844464859491 -0.0922656050184 0.845 1.08017915032e-38
0.086010309763 -0.0922656050184 0.845 1.18159280174e-38
0.0875741335768 -0.0922656050184 0.845 1.19070810812e-38
0.0891379573907 -0.0922656050184 0.845 9.78406766489e-39
0.0907017812046 -0.0922656050184 0.845 2.35098015372e-38
0.0239292803708 -0.0925265507673 0.862 1.85121644512e-38
0.0254653439987 -0.0923118719952 0.86 1.03078169789e-38
0.0270569279986 -0.0923118719952 0.86 7.66001308383e-39
0.0286485119985 -0.0923118719952 0.86 8.02878999809e-39
0.0302400959984 -0.0923118719952 0.86 8.21568958207e-39
0.0314985577658 -0.0913458175208 0.851 7.75508838204e-39
0.0329957571332 -0.0911311387487 0.849 7.29589969086e-39
0.0344855537843 -0.0909164599767 0.847 7.75687083369e-39
0.0360530789563 -0.0909164599767 0.847 7.20621658915e-39
0.0375317715329 -0.0907017812046 0.845 7.29984574734e-39
0.0390955953468 -0.0907017812046 0.845 7.29876955012e-39
0.040563183849 -0.0904871024325 0.843 7.48531040169e-39
0.0421233063048 -0.0904871024325 0.843 7.11904461428e-39
0.0435797907326 -0.0902724236604 0.841 6.84138573136e-39
0.0449215330581 -0.0898430661163 0.837 6.93465615715e-39
0.0464705514394 -0.0898430661163 0.837 7.21123884284e-39
0.0481343119231 -0.0900577448883 0.839 7.30163940937e-39
0.0495685882021 -0.0898430661163 0.837 8.22394042743e-39
0.0511176065834 -0.0898430661163 0.837 7.48638659891e-39
0.0526666249647 -0.0898430661163 0.837 8.22465789224e-39
0.054215643346 -0.0898430661163 0.837 7.67185125326e-39
0.0557646617273 -0.0898430661163 0.837 7.85623971039e-39
0.0573136801086 -0.0898430661163 0.837 8.13138746646e-39
0.05886269849 -0.0898430661163 0.837 8.40940508178e-39
0.0604117168713 -0.0898430661163 0.837 8.5934348065e-39
0.0619607352526 -0.0898430661163 0.837 8.03991070271e-39
0.0635097536339 -0.0898430661163 0.837 7.85731590761e-39
0.0650587720152 -0.0898430661163 0.837 8.68706396469e-39
0.0666077903965 -0.0898430661163 0.837 7.67185125326e-39
0.0681568087778 -0.0898430661163 0.837 9.33066773767e-39
0.0697058271592 -0.0898430661163 0.837 9.05368848451e-39
0.0714251080149 -0.0900577448883 0.839 9.23807694164e-39
0.0729778277543 -0.0900577448883 0.839 8.68706396469e-39
0.0747082126845 -0.0902724236604 0.841 9.05655834377e-39
0.0762646337821 -0.0902724236604 0.841 8.87288735145e-39
0.0780061227866 -0.0904871024325 0.843 9.79375343988e-39
0.0795662452424 -0.0904871024325 0.843 9.97634823498e-39
0.0811263676981 -0.0904871024325 0.843 1.01596604949e-38
0.0828826621352 -0.0907017812046 0.845 1.05277199443e-38
0.0844464859491 -0.0907017812046 0.845 1.12656325053e-38
0.086010309763 -0.0907017812046 0.845 1.16315395603e-38
0.0875741335768 -0.0907017812046 0.845 1.21850636641e-38
0.0891379573907 -0.0907017812046 0.845 1.30998313016e-38
0.0239292803708 -0.0909312654092 0.862 1.86936774439e-38
0.0255245657289 -0.0909312654092 0.862 1.20588571192e-38
0.027119851087 -0.0909312654092 0.862 8.0237677444e-39
0.028715136445 -0.0909312654092 0.862 8.12098422666e-39
0.0303104218031 -0.0909312654092 0.862 7.47777702115e-39
0.0314985577658 -0.0897708896325 0.851 7.20334672989e-39
0.0329957571332 -0.0895599122186 0.849 7.11294616336e-39
0.0344855537843 -0.0893489348046 0.847 7.57355857378e-39
0.0360530789563 -0.0893489348046 0.847 7.48387547206e-39
0.0375317715329 -0.0891379573907 0.845 7.48531040169e-39
0.0390955953468 -0.0891379573907 0.845 7.11581602262e-39
0.040563183849 -0.0889269799768 0.843 6.83997882771e-39
0.0421233063048 -0.0889269799768 0.843 7.4856691341e-39
0.0435797907326 -0.0887160025628 0.841 6.93465615715e-39
0.0450288724442 -0.0885050251489 0.839 6.93357995993e-39
0.0465815921836 -0.0885050251489 0.839 7.48674533132e-39
0.0481343119231 -0.0885050251489 0.839 7.48638659891e-39
0.0496870316625 -0.0885050251489 0.839 7.48674533132e-39
0.0511176065834 -0.0882940477349 0.837 7.303074339e-39
0.0526666249647 -0.0882940477349 0.837 7.58037448951e-39
0.054215643346 -0.0882940477349 0.837 7.76404548183e-39
0.0557646617273 -0.0882940477349 0.837 8.3164933884e-39
0.0574506303598 -0.0885050251489 0.839 8.03991070271e-39
0.0590033500993 -0.0885050251489 0.839 7.8569571752e-39
0.0605560698387 -0.0885050251489 0.839 8.13210493127e-39
0.0619607352526 -0.0882940477349 0.837 8.3164933884e-39
0.0635097536339 -0.0882940477349 0.837 8.13425732571e-39
0.0650587720152 -0.0882940477349 0.837 8.31685212081e-39
0.0666077903965 -0.0882940477349 0.837 9.23735947683e-39
0.0681568087778 -0.0882940477349 0.837 8.87073495701e-39
0.0698723882754 -0.0885050251489 0.839 8.68706396469e-39
0.0715953704893 -0.0887160025628 0.841 9.05368848451e-39
0.0731517915869 -0.0887160025628 0.841 9.42282413118e-39
0.0748858778752 -0.0889269799768 0.843 9.69833061965e-39
0.0764460003309 -0.0889269799768 0.843 9.24136018394e-39
0.0780061227866 -0.0889269799768 0.843 9.14982876955e-39
0.0797550145075 -0.0891379573907 0.845 1.01607366921e-38
0.0813188383213 -0.0891379573907 0.845 1.06199141729e-38
0.0828826621352 -0.0891379573907 0.845 1.12641975756e-38
0.0844464859491 -0.0891379573907 0.845 1.08961381262e-38
0.086010309763 -0.0891379573907 0.845 1.1355315607e-38
0.0875741335768 -0.0891379573907 0.845 9.97096724887e-39
0.0891379573907 -0.0891379573907 0.845 2.19409624272e-38
0.0239848007429 -0.089543256107 0.864 1.71230993225e-38
0.0255245657289 -0.0893359800512 0.862 1.70334344377e-38
0.027119851087 -0.0893359800512 0.862 9.48954835886e-39
0.028715136445 -0.0893359800512 0.862 8.21353718763e-39
0.0303104218031 -0.0893359800512 0.862 8.02843126569e-39
0.0318316799983 -0.0891287039954 0.86 7.94019010009e-39
0.0329957571332 -0.0879886856884 0.849 7.38809391943e-39
0.0344855537843 -0.0877814096326 0.847 7.02218686442e-39
0.0359679477191 -0.0875741335768 0.845 7.30056321215e-39
0.0375317715329 -0.0875741335768 0.845 7.02398052646e-39
0.0390955953468 -0.0875741335768 0.845 7.20836898359e-39
0.0406594191607 -0.0875741335768 0.845 6.93286249511e-39
0.0421233063048 -0.087366857521 0.843 7.11796841706e-39
0.0435797907326 -0.0871595814652 0.841 7.39311617313e-39
0.0451362118302 -0.0871595814652 0.841 7.6686226616e-39
0.0466926329278 -0.0871595814652 0.841 7.4860278665e-39
0.0482490540254 -0.0871595814652 0.841 7.67077505604e-39
0.049805475123 -0.0871595814652 0.841 7.67185125326e-39
0.0513618962206 -0.0871595814652 0.841 7.48710406372e-39
0.0529183173182 -0.0871595814652 0.841 7.76368674942e-39
0.0544747384158 -0.0871595814652 0.841 8.13138746646e-39
0.0560311595134 -0.0871595814652 0.841 7.85444604836e-39
0.057587580611 -0.0871595814652 0.841 8.22465789224e-39
0.0591440017085 -0.0871595814652 0.841 8.04170436474e-39
0.0605560698387 -0.0869523054094 0.839 8.40797015215e-39
0.0621087895782 -0.0869523054094 0.839 8.04098689993e-39
0.0636615093176 -0.0869523054094 0.839 8.77746453123e-39
0.0652142290571 -0.0869523054094 0.839 8.68491157025e-39
0.0667669487965 -0.0869523054094 0.839 9.51322469771e-39
0.068319668536 -0.0869523054094 0.839 9.23771820924e-39
0.0698723882754 -0.0869523054094 0.839 8.87109368942e-39
0.0715953704893 -0.0871595814652 0.841 8.96328791798e-39
0.0733257554194 -0.087366857521 0.843 9.33098863502e-39
0.0748858778752 -0.087366857521 0.843 9.42282413118e-39
0.0764460003309 -0.087366857521 0.843 8.96508158002e-39
0.0780061227866 -0.087366857521 0.843 9.14875257233e-39
0.0797550145075 -0.0875741335768 0.845 1.00689011959e-38
0.0813188383213 -0.0875741335768 0.845 1.08046613624e-38
0.0830788341166 -0.0877814096326 0.847 1.10798091185e-38
0.0846463592886 -0.0877814096326 0.847 1.19091984432e-38
0.0862138844606 -0.0877814096326 0.847 1.17240995277e-38
0.0877814096326 -0.0877814096326 0.847 9.60219033461e-39
0.0239848007429 -0.0879442693908 0.864 1.80439640096e-38
0.0255245657289 -0.0877406946931 0.862 1.94294474195e-38
0.027119851087 -0.0877406946931 0.862 1.23419081986e-38
0.0287817608915 -0.0879442693908 0.864 7.19724827898e-39
0.0303104218031 -0.0877406946931 0.862 7.6632416755e-39
0.0318316799983 -0.0875371199954 0.86 7.20298799749e-39
0.0329957571332 -0.0864174591583 0.849 7.48100561281e-39
0.0344855537843 -0.0862138844606 0.847 7.66754646438e-39
0.0359679477191 -0.086010309763 0.845 7.29984574734e-39
0.0375317715329 -0.086010309763 0.845 7.39275744072e-39
0.0390955953468 -0.086010309763 0.845 7.20836898359e-39
0.0406594191607 -0.086010309763 0.845 7.57606970063e-39
0.0421233063048 -0.0858067350653 0.843 7.39311617313e-39
0.0435797907326 -0.0856031603676 0.841 7.66969885882e-39
0.0451362118302 -0.0856031603676 0.841 7.57606970063e-39
0.046803673672 -0.0858067350653 0.843 7.39383363794e-39
0.0483637961277 -0.0858067350653 0.843 7.94628154451e-39
0.0499239185834 -0.0858067350653 0.843 7.76332801701e-39
0.0513618962206 -0.0856031603676 0.841 8.13102873405e-39
0.0529183173182 -0.0856031603676 0.841 7.67113378845e-39
0.0546042859506 -0.0858067350653 0.843 7.94664027692e-39
0.0560311595134 -0.0856031603676 0.841 9.42174793396e-39
0.057587580611 -0.0856031603676 0.841 7.67149252085e-39
0.0591440017085 -0.0856031603676 0.841 8.04062816752e-39
0.0607004228061 -0.0856031603676 0.841 8.13210493127e-39
0.0622568439037 -0.0856031603676 0.841 8.13425732571e-39
0.0638132650013 -0.0856031603676 0.841 8.40905195457e-39
0.0652142290571 -0.08539958567 0.839 8.31685212081e-39
0.0667669487965 -0.08539958567 0.839 9.05332975211e-39
0.068319668536 -0.08539958567 0.839 9.14516524826e-39
0.070205510508 -0.0858067350653 0.843 9.05332975211e-39
0.0717656329637 -0.0858067350653 0.843 9.69904808447e-39
0.0733257554194 -0.0858067350653 0.843 9.05512341414e-39
0.0748858778752 -0.0858067350653 0.843 9.69833061965e-39
0.0766273668797 -0.086010309763 0.845 9.51537709215e-39
0.0781911906936 -0.086010309763 0.845 9.60828878553e-39
0.0797550145075 -0.086010309763 0.845 1.06199141729e-38
0.0815113089446 -0.0862138844606 0.847 1.09876148899e-38
0.0830788341166 -0.0862138844606 0.847 1.09876148899e-38
0.0848462326281 -0.0864174591583 0.849 1.16319179108e-38
0.0864174591583 -0.0864174591583 0.849 1.08028859173e-38
0.0879886856884 -0.0864174591583 0.849 2.00069603517e-38
0.0255245657289 -0.086145409335 0.862 2.04432083857e-38
0.027119851087 -0.086145409335 0.862 1.78664727435e-38
0.028715136445 -0.086145409335 0.862 1.10557768498e-38
0.0303104218031 -0.086145409335 0.862 7.0157296811e-39
0.0318316799983 -0.0859455359955 0.86 6.83708094248e-39
0.0329957571332 -0.0848462326281 0.849 6.8381571397e-39
0.0344855537843 -0.0846463592886 0.847 7.02218686442e-39
0.0359679477191 -0.0844464859491 0.845 7.30056321215e-39
0.0375317715329 -0.0844464859491 0.845 7.30056321215e-39
0.0390955953468 -0.0844464859491 0.845 7.11617475502e-39
0.0406594191607 -0.0844464859491 0.845 7.20836898359e-39
0.0421233063048 -0.0842466126096 0.843 7.30092194456e-39
0.0435797907326 -0.08404673927 0.841 7.66934012641e-39
0.0451362118302 -0.08404673927 0.841 7.57642843303e-39
0.046803673672 -0.0842466126096 0.843 7.57858082748e-39
0.0483637961277 -0.0842466126096 0.843 8.2221467654e-39
0.0499239185834 -0.0842466126096 0.843 7.57858082748e-39
0.0514840410392 -0.0842466126096 0.843 7.303074339e-39
0.0530441634949 -0.0842466126096 0.843 7.57929829229e-39
0.0546042859506 -0.0842466126096 0.843 8.96077679113e-39
0.0561644084064 -0.0842466126096 0.843 7.94735774173e-39
0.0577245308621 -0.0842466126096 0.843 8.13210493127e-39
0.0592846533178 -0.0842466126096 0.843 8.22501662465e-39
0.0607004228061 -0.08404673927 0.841 8.77746453123e-39
0.0622568439037 -0.08404673927 0.841 8.22537535706e-39
0.0638132650013 -0.08404673927 0.841 8.68634649988e-39
0.0653696860989 -0.08404673927 0.841 8.13425732571e-39
0.0669261071965 -0.08404673927 0.841 8.32043944488e-39
0.0684825282941 -0.08404673927 0.841 8.96257045317e-39
0.070205510508 -0.0842466126096 0.843 9.23807694164e-39
0.0717656329637 -0.0842466126096 0.843 9.14588271308e-39
0.0733257554194 -0.0842466126096 0.843 8.87288735145e-39
0.0750635430659 -0.0844464859491 0.845 1.00671075339e-38
0.0766273668797 -0.0844464859491 0.845 9.8834365416e-39
0.0781911906936 -0.0844464859491 0.845 1.00674662663e-38
0.0801325530377 -0.0848462326281 0.849 1.02500610614e-38
0.0817037795678 -0.0848462326281 0.849 1.08964968586e-38
0.083275006098 -0.0848462326281 0.849 1.21850636641e-38
0.0850461059677 -0.0850461059677 0.851 9.60434272905e-39
0.0869263959024 -0.0853459159769 0.854 1.09865485018e-38
0.0885068758279 -0.0853459159769 0.854 2.35058218496e-38
0.0239292803708 -0.084550123977 0.862 1.74904651292e-38
0.0255245657289 -0.084550123977 0.862 2.02581108715e-38
0.027119851087 -0.084550123977 0.862 1.89699364297e-38
0.028715136445 -0.084550123977 0.862 1.74058351097e-38
0.0303104218031 -0.084550123977 0.862 9.95051950168e-39
0.0318316799983 -0.0843539519956 0.86 7.38809391943e-39
0.0334232639983 -0.0843539519956 0.86 7.20406419471e-39
0.0346484135424 -0.0834711780794 0.851 8.21891817373e-39
0.0360530789563 -0.0830788341166 0.847 6.83851587211e-39
0.0376206041283 -0.0830788341166 0.847 7.48495166928e-39
0.0391881293003 -0.0830788341166 0.847 7.30092194456e-39
0.0406594191607 -0.0828826621352 0.845 6.93286249511e-39
0.0422232429745 -0.0828826621352 0.845 7.76225181979e-39
0.0436834287605 -0.0826864901538 0.843 7.66969885882e-39
0.0452435512162 -0.0826864901538 0.843 7.39383363794e-39
0.0469147144162 -0.0828826621352 0.845 7.57858082748e-39
0.04847853823 -0.0828826621352 0.845 7.85301111873e-39
0.0500423620439 -0.0828826621352 0.845 7.67149252085e-39
0.0516061858578 -0.0828826621352 0.845 8.22429915984e-39
0.0530441634949 -0.0826864901538 0.843 7.85623971039e-39
0.0546042859506 -0.0826864901538 0.843 8.5930760741e-39
0.0561644084064 -0.0826864901538 0.843 8.03991070271e-39
0.0577245308621 -0.0826864901538 0.843 8.3164933884e-39
0.0592846533178 -0.0826864901538 0.843 8.68455283785e-39
0.0608447757736 -0.0826864901538 0.843 8.22429915984e-39
0.0622568439037 -0.0824903181724 0.841 7.94807520655e-39
0.0638132650013 -0.0824903181724 0.841 8.04349802678e-39
0.0655251431408 -0.0826864901538 0.843 8.22788648391e-39
0.0670852655965 -0.0826864901538 0.843 8.04421549159e-39
0.0686453880522 -0.0826864901538 0.843 9.23987060368e-39
0.070205510508 -0.0826864901538 0.843 9.14588271308e-39
0.0717656329637 -0.0826864901538 0.843 9.51537709215e-39
0.073499719252 -0.0828826621352 0.845 9.69868935206e-39
0.0750635430659 -0.0828826621352 0.845 9.79160104544e-39
0.0769900999774 -0.083275006098 0.849 1.0251495991e-38
0.0785613265075 -0.083275006098 0.849 1.02518547234e-38
0.0803213223028 -0.0834711780794 0.851 1.034225529e-38
0.0818962501911 -0.0834711780794 0.851 1.12638598627e-38
0.0834711780794 -0.0834711780794 0.851 1.04330145889e-38
0.0853459159769 -0.0837654360515 0.854 1.04330145889e-38
0.0869263959024 -0.0837654360515 0.854 2.3506152556e-38
0.0885068758279 -0.0837654360515 0.854 2.35044499784e-38
0.0227485471244 -0.0844946036049 0.878 2.34997430169e-38
0.0241791220453 -0.0838209564235 0.871 1.80418256282e-38
0.0257910635149 -0.0838209564235 0.871 1.93365161079e-38
0.0272771588079 -0.083436015177 0.867 1.89702685374e-38
0.0288816975613 -0.083436015177 0.867 2.00758734076e-38
0.0303807476077 -0.0831473092422 0.864 1.6484929785e-38
0.0319057071611 -0.0829548386189 0.862 9.67752414006e-39
0.0335009925192 -0.0829548386189 0.862 7.48028814799e-39
0.0350962778772 -0.0829548386189 0.862 7.29984574734e-39
0.0362233414307 -0.0818962501911 0.851 7.57606970063e-39
0.037798269319 -0.0818962501911 0.851 7.11617475502e-39
0.0393731972073 -0.0818962501911 0.851 7.30056321215e-39
0.0408518897839 -0.0817037795678 0.849 7.76117562257e-39
0.0423231796443 -0.0815113089446 0.847 7.30092194456e-39
0.0438907048163 -0.0815113089446 0.847 7.76189308738e-39
0.0454582299883 -0.0815113089446 0.847 7.21052137803e-39
0.0469147144162 -0.0813188383213 0.845 7.30163940937e-39
0.04847853823 -0.0813188383213 0.845 8.22358169502e-39
0.0500423620439 -0.0813188383213 0.845 7.94699900933e-39
0.0516061858578 -0.0813188383213 0.845 7.76404548183e-39
0.0531700096716 -0.0813188383213 0.845 7.94735774173e-39
0.0547338334855 -0.0813188383213 0.845 8.40761141975e-39
0.0561644084064 -0.0811263676981 0.843 8.59164114447e-39
0.0577245308621 -0.0811263676981 0.843 8.22465789224e-39
0.0592846533178 -0.0811263676981 0.843 8.59235860928e-39
0.0608447757736 -0.0811263676981 0.843 8.40797015215e-39
0.0624048982293 -0.0811263676981 0.843 9.51537709215e-39
