# .PCD v0.7 - Point Cloud Data file format
VERSION 0.7
FIELDS x y z rgb
SIZE 4 4 4 4
TYPE F F F F
COUNT 1 1 1 1
WIDTH 855
HEIGHT 1
VIEWPOINT 0 0 0 1 0 0 0
POINTS 855
DATA ascii
0.0705423340987 -0.12007205804 0.811 2.26537735288e-38
0.0720432348242 -0.12007205804 0.811 2.34831880768e-38
0.0735441355497 -0.12007205804 0.811 2.28395913103e-38
0.0750450362752 -0.12007205804 0.811 2.23761146458e-38
0.0767347062658 -0.120368166691 0.813 2.31151090092e-38
0.0782393083494 -0.120368166691 0.813 2.33913413703e-38
0.0797439104331 -0.120368166691 0.813 2.34842544649e-38
0.0814483858562 -0.120664275343 0.815 2.33001841026e-38
0.0831602639957 -0.120960383994 0.817 2.34856949998e-38
0.0848795448514 -0.121256492645 0.819 2.33916944975e-38
0.0863952510095 -0.121256492645 0.819 2.3491071782e-38
0.0881256359396 -0.121552601296 0.821 2.3488550846e-38
0.0896450434558 -0.121552601296 0.821 2.34881991201e-38
0.091164450972 -0.121552601296 0.821 2.34932508011e-38
0.0926838584882 -0.121552601296 0.821 2.01723850367e-38
0.0233463164639 -0.12295726671 0.841 2.34918410948e-38
0.0249027375615 -0.12295726671 0.841 2.34968451316e-38
0.0263962355707 -0.122664859417 0.839 2.35073016208e-38
0.0278823308637 -0.122372452124 0.837 2.8469003809e-39
0.029431349245 -0.122372452124 0.837 8.85352701187e-39
0.0309063404635 -0.122080044831 0.835 7.37984307407e-39
0.0323739289658 -0.121787637538 0.833 1.76931587482e-38
0.0338341147517 -0.121495230245 0.831 1.758948228e-38
0.0352868978214 -0.121202822952 0.829 1.91535709882e-38
0.0367322781748 -0.120910415659 0.827 1.87855073349e-38
0.0382627897654 -0.120910415659 0.827 1.91535835999e-38
0.0396970660444 -0.120618008366 0.825 1.94297977441e-38
0.0411239396072 -0.120325601073 0.823 1.97982313402e-38
0.0425434104536 -0.12003319378 0.821 2.00748140259e-38
0.0439554785838 -0.119740786487 0.819 1.97978838182e-38
0.0454711847418 -0.119740786487 0.819 2.05354460545e-38
0.0468721487976 -0.119448379194 0.817 2.04446755452e-38
0.0483841535975 -0.119448379194 0.817 2.05368711751e-38
0.0497740135788 -0.119155971901 0.815 2.06287318946e-38
0.0512823170206 -0.119155971901 0.815 2.11815371323e-38
0.0526610729275 -0.118863564608 0.813 2.12744390166e-38
0.0541656750111 -0.118863564608 0.813 2.20113034062e-38
0.0556702770948 -0.118863564608 0.813 2.17325459053e-38
0.0571748791784 -0.118863564608 0.813 2.26552098597e-38
0.0586794812621 -0.118863564608 0.813 2.19172902923e-38
0.0600360290201 -0.118571157315 0.811 2.20080509925e-38
0.0615369297456 -0.118571157315 0.811 2.18247387326e-38
0.0630378304711 -0.118571157315 0.811 2.20094873234e-38
0.0645387311966 -0.118571157315 0.811 2.2192812195e-38
0.0660396319221 -0.118571157315 0.811 2.22846448886e-38
0.0675405326476 -0.118571157315 0.811 2.21935058378e-38
0.0690414333731 -0.118571157315 0.811 2.28381661898e-38
0.0707162979312 -0.118863564608 0.813 2.30218315769e-38
0.0722209000148 -0.118863564608 0.813 2.29299694561e-38
0.0737255020985 -0.118863564608 0.813 2.28388850559e-38
0.0752301041821 -0.118863564608 0.813 2.24704584662e-38
0.0769234755309 -0.119155971901 0.815 2.34867543814e-38
0.0784317789727 -0.119155971901 0.815 2.27488278075e-38
0.0801362543958 -0.119448379194 0.817 2.34860523309e-38
0.0818481325353 -0.119740786487 0.819 2.34849677259e-38
0.0833638386933 -0.119740786487 0.819 2.320552499e-38
0.0848795448514 -0.119740786487 0.819 2.34849803375e-38
0.0866062284234 -0.12003319378 0.821 2.34885774707e-38
0.0883403147117 -0.120325601073 0.823 2.34910759859e-38
0.089863423586 -0.120325601073 0.823 2.3488564859e-38
0.0913865324604 -0.120325601073 0.823 2.34918467e-38
0.0233463164639 -0.121400845612 0.841 2.34997332078e-38
0.0249027375615 -0.121400845612 0.841 2.34950458644e-38
0.0263962355707 -0.121112139677 0.839 2.35051576341e-38
0.0279489553102 -0.121112139677 0.839 3.30607786169e-39
0.0295016750496 -0.121112139677 0.839 7.65895650479e-39
0.0309803676263 -0.120823433743 0.837 6.27674092295e-39
0.0324516574867 -0.120534727808 0.835 1.23555035963e-38
0.0339155446308 -0.120246021873 0.833 1.82417222554e-38
0.0353720290586 -0.119957315938 0.831 1.86936648322e-38
0.0368211107702 -0.119668610003 0.829 1.87851598128e-38
0.0382627897654 -0.119379904068 0.827 1.89702867543e-38
0.0396970660444 -0.119091198133 0.825 1.9155734593e-38
0.0411239396072 -0.118802492198 0.823 1.93390468529e-38
0.0425434104536 -0.118513786264 0.821 2.00766118919e-38
0.0439554785838 -0.118225080329 0.819 1.90606719065e-38
0.0454711847418 -0.118225080329 0.819 2.05350719078e-38
0.0469868908999 -0.118225080329 0.819 2.11797364637e-38
0.0483841535975 -0.117936374394 0.817 2.09964045857e-38
0.0498961583974 -0.117936374394 0.817 2.16417908103e-38
0.0512823170206 -0.117647668459 0.815 2.01670124584e-38
0.0527906204624 -0.117647668459 0.815 2.1642512479e-38
0.0542989239041 -0.117647668459 0.815 2.12719320936e-38
0.0558072273459 -0.117647668459 0.815 2.16414236701e-38
0.0571748791784 -0.117358962524 0.813 2.19165462028e-38
0.0586794812621 -0.117358962524 0.813 2.22857140793e-38
0.0601840833457 -0.117358962524 0.813 2.20091468079e-38
0.0615369297456 -0.117070256589 0.811 2.2470105339e-38
0.0630378304711 -0.117070256589 0.811 2.3484587974e-38
0.0646978895966 -0.117358962524 0.813 2.2009865674e-38
0.0660396319221 -0.117070256589 0.811 2.29321652908e-38
0.0675405326476 -0.117070256589 0.811 2.20098712792e-38
0.0692116958476 -0.117358962524 0.813 2.2931086291e-38
0.0707162979312 -0.117358962524 0.813 2.25623065741e-38
0.0723985652055 -0.117647668459 0.815 2.34871285281e-38
0.0739068686473 -0.117647668459 0.815 2.28396137311e-38
0.0754151720891 -0.117647668459 0.815 2.25630100259e-38
0.077112244796 -0.117936374394 0.817 2.34842516623e-38
0.0788167202191 -0.118225080329 0.819 2.28403199855e-38
0.0803324263772 -0.118225080329 0.819 2.33009450076e-38
0.0818481325353 -0.118225080329 0.819 2.34878515981e-38
0.083567413391 -0.118513786264 0.821 2.34878403877e-38
0.0850868209072 -0.118513786264 0.821 2.34853334648e-38
0.0868172058373 -0.118802492198 0.823 2.34846468285e-38
0.0885549934838 -0.119091198133 0.825 2.34882285474e-38
0.0903001838465 -0.119379904068 0.827 2.34957535201e-38
0.0924969399022 -0.120246021873 0.833 2.02642499601e-38
0.0940385555672 -0.120246021873 0.833 1.22596800047e-38
0.0249027375615 -0.119844424515 0.841 2.34961304694e-38
0.0264591586591 -0.119844424515 0.841 2.35037311123e-38
0.0280155797567 -0.119844424515 0.841 3.12240686937e-39
0.0295720008543 -0.119844424515 0.841 8.21031279986e-39
0.0310543947891 -0.119559419938 0.839 8.57872677782e-39
0.0325293860076 -0.119274415361 0.837 5.90652907907e-39
0.0339969745099 -0.118989410784 0.835 1.45616896816e-38
0.0354571602958 -0.118704406208 0.833 1.89753454417e-38
0.0368211107702 -0.118134397054 0.829 1.9523439514e-38
0.0382627897654 -0.117849392478 0.827 1.86965515071e-38
0.0397933013561 -0.117849392478 0.827 1.90635389632e-38
0.0411239396072 -0.117279383324 0.823 2.00758958283e-38
0.0426470484815 -0.117279383324 0.823 1.93383279868e-38
0.0440628179698 -0.116994378747 0.821 2.05347173793e-38
0.045582225486 -0.116994378747 0.821 2.10889729609e-38
0.0469868908999 -0.116709374171 0.819 2.08127195804e-38
0.0485025970579 -0.116709374171 0.819 2.06272661364e-38
0.0498961583974 -0.116424369594 0.817 2.20102061895e-38
0.0514081631973 -0.116424369594 0.817 2.07205183453e-38
0.0529201679972 -0.116424369594 0.817 2.03510547948e-38
0.0542989239041 -0.116139365017 0.815 2.20087964833e-38
0.0558072273459 -0.116139365017 0.815 2.19176546299e-38
0.0573155307877 -0.116139365017 0.815 2.2193521252e-38
0.0588238342295 -0.116139365017 0.815 2.18250890572e-38
0.0601840833457 -0.11585436044 0.813 2.22853609521e-38
0.0616886854293 -0.11585436044 0.813 2.20098348454e-38
0.063193287513 -0.11585436044 0.813 2.24700899248e-38
0.0646978895966 -0.11585436044 0.813 2.22867958817e-38
0.0662024916803 -0.11585436044 0.813 2.31154593338e-38
0.0677070937639 -0.11585436044 0.813 2.29307149469e-38
0.0692116958476 -0.11585436044 0.813 2.26544797832e-38
0.0708902617637 -0.116139365017 0.815 2.29303674248e-38
0.0723985652055 -0.116139365017 0.815 2.30229105767e-38
0.0740882351961 -0.116424369594 0.817 2.24701081416e-38
0.0756002399961 -0.116424369594 0.817 2.32083766324e-38
0.077112244796 -0.116424369594 0.817 2.31151118118e-38
0.0788167202191 -0.116709374171 0.819 2.3484264274e-38
0.0803324263772 -0.116709374171 0.819 2.34853306622e-38
0.0820480058748 -0.116994378747 0.821 2.34835215858e-38
0.083567413391 -0.116994378747 0.821 2.34835370001e-38
0.0850868209072 -0.116994378747 0.821 2.34878572033e-38
0.0870281832513 -0.117564387901 0.825 2.34874970696e-38
0.0887696722558 -0.117849392478 0.827 2.34882131331e-38
0.0905185639767 -0.118134397054 0.829 2.34893145537e-38
0.0924969399022 -0.118704406208 0.833 1.48357374184e-38
0.0940385555672 -0.118704406208 0.833 1.12548705331e-38
0.0955801712322 -0.118704406208 0.833 2.35098071424e-38
0.0265220817475 -0.118569306636 0.843 2.35062296275e-38
0.0280822042032 -0.118569306636 0.843 3.58158435016e-39
0.0296423266589 -0.118569306636 0.843 7.93300844546e-39
0.0311284219519 -0.118288003417 0.841 8.117755635e-39
0.0326071145285 -0.118006700199 0.839 9.13296834643e-39
0.0340784043889 -0.11772539698 0.837 6.82560150546e-39
0.035542291533 -0.117444093761 0.835 1.51127853352e-38
0.0369099433655 -0.116881487324 0.831 1.93441237573e-38
0.0383553237189 -0.116600184106 0.829 1.9158255529e-38
0.0397933013561 -0.116318880887 0.827 1.94308795465e-38
0.0412238762769 -0.116037577668 0.825 2.01666467195e-38
0.0427506865094 -0.116037577668 0.825 2.09971234518e-38
0.0441701573558 -0.11575627445 0.823 2.0537208888e-38
0.045582225486 -0.115474971231 0.821 2.05354642714e-38
0.0471016330022 -0.115474971231 0.821 2.07198176961e-38
0.0485025970579 -0.115193668013 0.819 2.17318242366e-38
0.050018303216 -0.115193668013 0.819 2.20105565142e-38
0.0515340093741 -0.115193668013 0.819 2.10896764127e-38
0.0529201679972 -0.114912364794 0.817 2.21942443221e-38
0.0544321727972 -0.114912364794 0.817 2.18254575987e-38
0.0559441775971 -0.114912364794 0.817 2.16399915431e-38
0.057456182397 -0.114912364794 0.817 2.21924464561e-38
0.0589681871969 -0.114912364794 0.817 2.18247387326e-38
0.0601840833457 -0.114349758357 0.813 2.24701221546e-38
0.0616886854293 -0.114349758357 0.813 2.23786159636e-38
0.063193287513 -0.114349758357 0.813 2.26559259232e-38
0.0648570479966 -0.114631061575 0.815 2.22864175311e-38
0.0663653514384 -0.114631061575 0.815 2.27445090056e-38
0.0678736548802 -0.114631061575 0.815 2.265305186e-38
0.069381958322 -0.114631061575 0.815 2.23778970975e-38
0.0708902617637 -0.114631061575 0.815 2.3485311044e-38
0.0725762303962 -0.114912364794 0.817 2.28388752468e-38
0.0740882351961 -0.114912364794 0.817 2.28399668583e-38
0.0756002399961 -0.114912364794 0.817 2.3116549544e-38
0.0773010140611 -0.115193668013 0.819 2.3486423675e-38
0.0788167202191 -0.115193668013 0.819 2.33934937647e-38
0.0805285983586 -0.115474971231 0.821 2.31158474935e-38
0.0820480058748 -0.115474971231 0.821 2.3488912381e-38
0.0837709880887 -0.11575627445 0.823 2.34871285281e-38
0.085294096963 -0.11575627445 0.823 2.34838943312e-38
0.0870281832513 -0.116037577668 0.825 2.3489996986e-38
0.0887696722558 -0.116318880887 0.827 2.34900236107e-38
0.0905185639767 -0.116600184106 0.829 1.51999138698e-38
0.0924969399022 -0.117162790543 0.833 1.29129317176e-38
0.0940385555672 -0.117162790543 0.833 1.42947773566e-38
0.0955801712322 -0.117162790543 0.833 2.35097651035e-38
0.0296423266589 -0.11700918418 0.843 7.84296661134e-39
0.0311284219519 -0.11673158232 0.841 7.74969618555e-39
0.0326071145285 -0.116453980459 0.839 8.02807253328e-39
0.0340784043889 -0.116176378599 0.837 8.11883183222e-39
0.035542291533 -0.115898776738 0.835 7.19545461694e-39
0.0369987759609 -0.115621174878 0.833 1.45631414268e-38
0.0384478576724 -0.115343573017 0.831 1.79647458048e-38
0.0398895366677 -0.115065971157 0.829 2.01709753304e-38
0.0413238129467 -0.114788369296 0.827 1.95209241832e-38
0.0427506865094 -0.114510767436 0.825 2.00737476378e-38
0.0442774967419 -0.114510767436 0.825 2.08134650711e-38
0.0456932662302 -0.114233165575 0.823 2.0445378997e-38
0.0471016330022 -0.113955563715 0.821 2.05354068182e-38
0.0486210405184 -0.113955563715 0.821 2.15470770471e-38
0.0501404480346 -0.113955563715 0.821 2.11793721261e-38
0.0515340093741 -0.113677961855 0.819 2.10889701583e-38
0.0530497155321 -0.113677961855 0.819 2.06287164803e-38
0.0545654216902 -0.113677961855 0.819 2.20091313936e-38
0.0560811278482 -0.113677961855 0.819 2.16410705429e-38
0.057456182397 -0.113400359994 0.817 2.2102752144e-38
0.0589681871969 -0.113400359994 0.817 2.21034738127e-38
0.0604801919968 -0.113400359994 0.817 2.21031178829e-38
0.0619921967968 -0.113400359994 0.817 2.19190643361e-38
0.0635042015967 -0.113400359994 0.817 2.21949505765e-38
0.0650162063966 -0.113400359994 0.817 2.2748487292e-38
0.0665282111965 -0.113400359994 0.817 2.22857168819e-38
0.0680402159965 -0.113400359994 0.817 2.34842796883e-38
0.0695522207964 -0.113400359994 0.817 2.2287158818e-38
0.0710642255963 -0.113400359994 0.817 2.30247280608e-38
0.0727538955869 -0.113677961855 0.819 2.33909728288e-38
0.074269601745 -0.113677961855 0.819 2.27441712927e-38
0.075785307903 -0.113677961855 0.819 2.34853348661e-38
0.0774897833262 -0.113955563715 0.821 2.33916944975e-38
0.0792016614656 -0.114233165575 0.823 2.26559133115e-38
0.08072477034 -0.114233165575 0.823 2.34900124003e-38
0.0824477525538 -0.114510767436 0.825 2.34842446558e-38
0.0839745627863 -0.114510767436 0.825 2.34878361838e-38
0.0857086490746 -0.114788369296 0.827 2.34910633742e-38
0.0872391606652 -0.114788369296 0.827 2.34896550692e-38
0.0889843510279 -0.115065971157 0.829 1.55704914526e-38
0.0909553242371 -0.115621174878 0.833 1.36512030109e-38
0.0927190213905 -0.115898776738 0.835 1.06134569896e-38
0.0942643384137 -0.115898776738 0.835 2.05572642716e-38
0.0958096554369 -0.115898776738 0.835 2.35073198377e-38
0.0281488286497 -0.115722962227 0.845 4.86728129637e-39
0.0297126524636 -0.115722962227 0.845 7.74969618555e-39
0.0312024491147 -0.115449061724 0.843 7.29087743717e-39
0.0326848430495 -0.115175161222 0.841 7.2926710992e-39
0.034159834268 -0.11490126072 0.839 7.84547773818e-39
0.0356274227702 -0.114627360217 0.837 8.21461338485e-39
0.0371764411516 -0.114627360217 0.837 7.1097175717e-39
0.0386329255794 -0.114353459715 0.835 1.2539223634e-38
0.0400820072909 -0.114079559213 0.833 1.75058990305e-38
0.0415236862862 -0.11380565871 0.831 2.01717236238e-38
0.0428543245373 -0.113257857706 0.827 2.02620639345e-38
0.0442774967419 -0.112983957203 0.825 2.07212652374e-38
0.0458043069744 -0.112983957203 0.825 2.02613576801e-38
0.0472163751045 -0.112710056701 0.823 2.15499286895e-38
0.0487394839789 -0.112710056701 0.823 2.07187457027e-38
0.0502625928532 -0.112710056701 0.823 2.21009402651e-38
0.0516598555508 -0.112436156199 0.821 2.17328962299e-38
0.053179263067 -0.112436156199 0.821 2.14581016011e-38
0.0546986705832 -0.112436156199 0.821 2.18258079233e-38
0.0562180780994 -0.112436156199 0.821 2.21935184494e-38
0.0575968340063 -0.112162255696 0.819 2.16406795806e-38
0.0591125401644 -0.112162255696 0.819 2.21942443221e-38
0.0606282463224 -0.112162255696 0.819 2.16425152816e-38
0.0621439524805 -0.112162255696 0.819 2.24726290776e-38
0.0636596586385 -0.112162255696 0.819 2.20098502597e-38
0.0651753647966 -0.112162255696 0.819 2.24693640521e-38
0.0666910709547 -0.112162255696 0.819 2.24704612688e-38
0.0682067771127 -0.112162255696 0.819 2.24701109442e-38
0.0697224832708 -0.112162255696 0.819 2.27488432218e-38
0.0712381894288 -0.112162255696 0.819 2.25633603505e-38
0.0727538955869 -0.112162255696 0.819 2.32984212691e-38
0.074269601745 -0.112162255696 0.819 2.34860733503e-38
0.075785307903 -0.112162255696 0.819 2.3483888726e-38
0.0774897833262 -0.112436156199 0.821 2.34835355988e-38
0.0792016614656 -0.112710056701 0.823 2.34885676616e-38
0.08072477034 -0.112710056701 0.823 2.34846047896e-38
0.0824477525538 -0.112983957203 0.825 2.34900278146e-38
0.0839745627863 -0.112983957203 0.825 2.34867810061e-38
0.0857086490746 -0.113257857706 0.827 2.13720422572e-38
0.0876611154931 -0.11380565871 0.831 1.49290330676e-38
0.0891990298 -0.11380565871 0.831 1.2639936356e-38
0.0909553242371 -0.114079559213 0.833 1.15379300202e-38
0.0927190213905 -0.114353459715 0.835 9.13834933253e-39
0.0942643384137 -0.114353459715 0.835 2.35057461795e-38
0.0958096554369 -0.114353459715 0.835 2.35065617352e-38
0.0297126524636 -0.114159138413 0.845 7.93300844546e-39
0.0312024491147 -0.113888939268 0.843 7.47347223226e-39
0.0327625715704 -0.113888939268 0.843 7.47598335911e-39
0.034159834268 -0.11334854098 0.839 6.92532911457e-39
0.0357125540074 -0.11334854098 0.839 7.75794703091e-39
0.0371764411516 -0.113078341836 0.837 7.48136434521e-39
0.0387254595329 -0.113078341836 0.837 7.11294616336e-39
0.0401782426026 -0.112808142692 0.835 9.68254639375e-39
0.041623622956 -0.112537943548 0.833 1.6308744529e-38
0.0429579625652 -0.111997545259 0.829 1.88856315114e-38
0.0443848361279 -0.111727346115 0.827 1.99858778163e-38
0.0459153477185 -0.111727346115 0.827 2.16432159308e-38
0.0473311172068 -0.111457146971 0.825 2.09056312737e-38
0.0488579274393 -0.111457146971 0.825 2.08123818674e-38
0.0503847376718 -0.111457146971 0.825 2.12715663547e-38
0.0517857017275 -0.111186947827 0.823 2.10864548276e-38
0.0533088106019 -0.111186947827 0.823 2.21945974493e-38
0.0546986705832 -0.110916748683 0.821 2.13644654364e-38
0.0562180780994 -0.110916748683 0.821 2.24701221546e-38
0.0577374856156 -0.110916748683 0.821 2.20098530623e-38
0.0592568931318 -0.110916748683 0.821 2.12712132275e-38
0.060776300648 -0.110916748683 0.821 2.17343605868e-38
0.0622957081642 -0.110916748683 0.821 2.27474181012e-38
0.0638151156804 -0.110916748683 0.821 2.24715542816e-38
0.0653345231966 -0.110916748683 0.821 2.32991401352e-38
0.0668539307128 -0.110916748683 0.821 2.32991401352e-38
0.0682067771127 -0.110646549538 0.819 2.26559259232e-38
0.0697224832708 -0.110646549538 0.819 2.22875287608e-38
0.0712381894288 -0.110646549538 0.819 2.27477684258e-38
0.0729315607776 -0.110916748683 0.821 2.32062256392e-38
0.0746323348426 -0.111186947827 0.823 2.26537707262e-38
0.076155443717 -0.111186947827 0.823 2.34853138466e-38
0.0778673218564 -0.111457146971 0.825 2.34853180505e-38
0.0793941320889 -0.111457146971 0.825 2.34838859234e-38
0.0811171143028 -0.111727346115 0.827 2.33931406375e-38
0.0826476258934 -0.111727346115 0.827 2.28450017237e-38
0.0843817121817 -0.111997545259 0.829 1.69523146709e-38
0.0859159251304 -0.111997545259 0.829 1.34610748353e-38
0.0878720929071 -0.112537943548 0.833 1.28243248131e-38
0.0894137085721 -0.112537943548 0.833 1.10769392592e-38
0.0911737043673 -0.112808142692 0.835 1.19052663997e-38
0.0927190213905 -0.112808142692 0.835 8.58554269355e-39
0.0942643384137 -0.112808142692 0.835 2.35072441675e-38
0.0312024491147 -0.112328816813 0.843 7.10756517726e-39
0.0327625715704 -0.112328816813 0.843 7.84476027337e-39
0.034159834268 -0.111795821241 0.839 6.83316010938e-39
0.0357125540074 -0.111795821241 0.839 6.74309305188e-39
0.0371764411516 -0.111529323455 0.837 7.2976933529e-39
0.0387254595329 -0.111529323455 0.837 6.92999263586e-39
0.0401782426026 -0.111262825669 0.835 7.48279927484e-39
0.041623622956 -0.110996327883 0.833 8.12349535351e-39
0.0429579625652 -0.110463332311 0.829 1.14353129337e-38
0.0443848361279 -0.110196834524 0.827 1.60353806259e-38
0.0459153477185 -0.110196834524 0.827 1.93487228188e-38
0.0474458593092 -0.110196834524 0.827 1.99890881911e-38
0.0489763708998 -0.110196834524 0.827 2.10943483418e-38
0.0503847376718 -0.109930336738 0.825 2.10907456035e-38
0.0519115479043 -0.109930336738 0.825 2.16432019178e-38
0.0534383581368 -0.109930336738 0.825 2.16417908103e-38
0.0548319194762 -0.109663838952 0.823 2.18254421844e-38
0.0563550283506 -0.109663838952 0.823 2.20105719284e-38
0.0578781372249 -0.109663838952 0.823 2.29325450427e-38
0.0594012460992 -0.109663838952 0.823 2.20098404506e-38
0.0609243549736 -0.109663838952 0.823 2.23804180334e-38
0.0622957081642 -0.109397341166 0.821 2.22882181997e-38
0.0638151156804 -0.109397341166 0.821 2.21953037037e-38
0.0653345231966 -0.109397341166 0.821 2.25626568987e-38
0.0668539307128 -0.109397341166 0.821 2.28403353998e-38
0.068373338229 -0.109397341166 0.821 2.29325156154e-38
0.0698927457452 -0.109397341166 0.821 2.32073200533e-38
0.0715861170939 -0.109663838952 0.823 2.3114380334e-38
0.0731092259683 -0.109663838952 0.823 2.34838901273e-38
0.0746323348426 -0.109663838952 0.823 2.34839069429e-38
0.076155443717 -0.109663838952 0.823 2.3487841789e-38
0.0778673218564 -0.109930336738 0.825 2.32998702117e-38
0.0795866027121 -0.110196834524 0.827 2.20152284432e-38
0.0811171143028 -0.110196834524 0.827 1.82437989797e-38
0.0828474992329 -0.110463332311 0.829 1.32749221434e-38
0.0843817121817 -0.110463332311 0.829 1.27314131197e-38
0.0861232011862 -0.110729830097 0.831 1.12620451812e-38
0.088083070321 -0.111262825669 0.835 1.08932682669e-38
0.0896283873442 -0.111262825669 0.835 1.16297458982e-38
0.0913920844976 -0.111529323455 0.837 1.16279536375e-38
0.0929411028789 -0.111529323455 0.837 1.09807989742e-38
0.0944901212602 -0.111529323455 0.837 2.35098155502e-38
0.0297126524636 -0.111031490785 0.845 7.75005491796e-39
0.0312764762774 -0.111031490785 0.845 7.29302983161e-39
0.0327625715704 -0.110768694357 0.843 7.11043503651e-39
0.0342412641471 -0.110505897929 0.841 6.9267640442e-39
0.0357125540074 -0.110243101501 0.839 7.11222869855e-39
0.0372652737469 -0.110243101501 0.839 6.92999263586e-39
0.0387254595329 -0.109980305073 0.837 6.92999263586e-39
0.0401782426026 -0.109717508645 0.835 7.1150985578e-39
0.0417235596257 -0.109717508645 0.835 7.75902322813e-39
0.0429579625652 -0.108929119362 0.829 8.49514212702e-39
0.044492175514 -0.108929119362 0.829 7.84870632985e-39
0.0459153477185 -0.108666322934 0.827 9.59429822166e-39
0.0474458593092 -0.108666322934 0.827 1.36419810657e-38
0.0489763708998 -0.108666322934 0.827 1.70467355627e-38
0.0505068824904 -0.108666322934 0.827 1.9807953549e-38
0.052037394081 -0.108666322934 0.827 2.02670987999e-38
0.0534383581368 -0.108403526506 0.825 2.10947112781e-38
0.0549651683692 -0.108403526506 0.825 2.21063450733e-38
0.0564919786017 -0.108403526506 0.825 2.23797145816e-38
0.0580187888342 -0.108403526506 0.825 2.21949477739e-38
0.0595455990667 -0.108403526506 0.825 2.2287158818e-38
0.0610724092991 -0.108403526506 0.825 2.28421528839e-38
0.0624474638479 -0.108140730078 0.823 2.21031234881e-38
0.0639705727222 -0.108140730078 0.823 2.21949477739e-38
0.0654936815966 -0.108140730078 0.823 2.28399640557e-38
0.0670167904709 -0.108140730078 0.823 2.29332372841e-38
0.0685398993453 -0.108140730078 0.823 2.31176299451e-38
0.0700630082196 -0.108140730078 0.823 2.34860467257e-38
0.0715861170939 -0.108140730078 0.823 2.33942126308e-38
0.073286891159 -0.108403526506 0.825 2.30275979201e-38
0.0748137013915 -0.108403526506 0.825 2.15553363002e-38
0.0763405116239 -0.108403526506 0.825 1.92543761958e-38
0.0780560911215 -0.108666322934 0.827 1.65857251835e-38
0.0797790733354 -0.108929119362 0.829 1.43808647265e-38
0.0813132862841 -0.108929119362 0.829 1.20860535198e-38
0.0830473725724 -0.10919191579 0.831 1.09847450307e-38
0.0845852868793 -0.10919191579 0.831 1.03415378252e-38
0.086330477242 -0.109454712218 0.833 1.06177617785e-38
0.088083070321 -0.109717508645 0.835 1.07095972746e-38
0.0896283873442 -0.109717508645 0.835 1.23669522047e-38
0.0913920844976 -0.109980305073 0.837 1.13517366907e-38
0.0929411028789 -0.109980305073 0.837 1.09804402418e-38
0.0297829782682 -0.109726762041 0.847 7.10720644485e-39
0.0313505034402 -0.109726762041 0.847 7.84440154096e-39
0.0328403000913 -0.109467666971 0.845 7.11115250133e-39
0.0343226940261 -0.109208571901 0.843 6.74309305188e-39
0.0357976852446 -0.108949476832 0.841 7.38701772221e-39
0.0372652737469 -0.108690381762 0.839 6.74452798151e-39
0.0388179934863 -0.108690381762 0.839 6.74524544632e-39
0.0402744779142 -0.108431286692 0.837 7.02182813202e-39
0.0417235596257 -0.108172191622 0.835 7.66754646438e-39
0.043165238621 -0.107913096553 0.833 7.20549912433e-39
0.0445995149 -0.107654001483 0.831 7.851941928e-39
0.0460263884627 -0.107394906413 0.829 8.03596464623e-39
0.0475606014115 -0.107394906413 0.829 7.94377041767e-39
0.0490948143602 -0.107394906413 0.829 8.40187170124e-39
0.0505068824904 -0.107135811343 0.827 1.10668947519e-38
0.052037394081 -0.107135811343 0.827 1.50251691487e-38
0.0535679056716 -0.107135811343 0.827 1.46546336049e-38
0.0550984172622 -0.107135811343 0.827 1.74151509419e-38
0.0566289288529 -0.107135811343 0.827 1.88859622179e-38
0.0581594404435 -0.107135811343 0.827 1.98072500971e-38
0.0596899520341 -0.107135811343 0.827 2.00845082087e-38
0.0612204636247 -0.107135811343 0.827 2.10064687112e-38
0.0625992195316 -0.106876716274 0.825 2.05440766518e-38
0.0641260297641 -0.106876716274 0.825 2.08210194712e-38
0.0656528399966 -0.106876716274 0.825 2.192734601e-38
0.0671796502291 -0.106876716274 0.825 2.03600189011e-38
0.0687064604615 -0.106876716274 0.825 1.99915881075e-38
0.070233270694 -0.106876716274 0.825 1.83363659537e-38
0.0717600809265 -0.106876716274 0.825 1.68633812638e-38
0.073286891159 -0.106876716274 0.825 1.52981855298e-38
0.0748137013915 -0.106876716274 0.825 1.2995458388e-38
0.0765255795309 -0.107135811343 0.827 1.2911496788e-38
0.0782448603866 -0.107394906413 0.829 1.13524457477e-38
0.0797790733354 -0.107394906413 0.829 1.06163268488e-38
0.0815094582655 -0.107654001483 0.831 1.02486261318e-38
0.0832472459119 -0.107913096553 0.833 1.00667488015e-38
0.084788861577 -0.107913096553 0.833 9.789448651e-39
0.0865377532978 -0.108172191622 0.835 1.04333733213e-38
0.0882940477349 -0.108431286692 0.837 1.04337320537e-38
0.0898430661163 -0.108431286692 0.837 1.23673305553e-38
0.0913920844976 -0.108431286692 0.837 1.24580590257e-38
0.0270569279986 -0.109819295994 0.86 1.72242926898e-38
0.0286485119985 -0.109819295994 0.86 7.54485998123e-39
0.0302400959984 -0.109819295994 0.86 8.02663760365e-39
0.0313505034402 -0.108159236869 0.847 7.84404280856e-39
0.0329180286122 -0.108159236869 0.847 7.47741828874e-39
0.0343226940261 -0.107648449446 0.843 7.29589969086e-39
0.0358828164819 -0.107648449446 0.843 7.29589969086e-39
0.0373541063422 -0.107393055734 0.841 6.83743967489e-39
0.0388179934863 -0.107137662022 0.839 7.29876955012e-39
0.0402744779142 -0.106882268311 0.837 7.29876955012e-39
0.0418234962955 -0.106882268311 0.837 7.29876955012e-39
0.0432688766489 -0.106626874599 0.835 7.02326306165e-39
0.044706854286 -0.106371480887 0.833 7.02362179405e-39
0.0461374292069 -0.106116087176 0.831 6.28463303591e-39
0.0475606014115 -0.105860693464 0.829 7.94592281211e-39
0.0490948143602 -0.105860693464 0.829 8.4990881835e-39
0.050629027309 -0.105860693464 0.829 8.31290606433e-39
0.0521632402577 -0.105860693464 0.829 8.86463650609e-39
0.0535679056716 -0.105605299753 0.827 8.95754819947e-39
0.0550984172622 -0.105605299753 0.827 8.95575453744e-39
0.0566289288529 -0.105605299753 0.827 1.01506921847e-38
0.0581594404435 -0.105605299753 0.827 1.01492572551e-38
0.0596899520341 -0.105605299753 0.827 1.06095109331e-38
0.0612204636247 -0.105605299753 0.827 1.06066410738e-38
0.0627509752153 -0.105605299753 0.827 1.30015792597e-38
0.064281486806 -0.105605299753 0.827 1.09736243261e-38
0.0658119983966 -0.105605299753 0.827 1.13434774375e-38
0.0673425099872 -0.105605299753 0.827 1.11601651776e-38
0.0688730215778 -0.105605299753 0.827 1.17147654787e-38
0.0704035331684 -0.105605299753 0.827 1.18083946368e-38
0.071934044759 -0.105605299753 0.827 9.96953231925e-39
0.0734645563497 -0.105605299753 0.827 1.01560731708e-38
0.0749950679403 -0.105605299753 0.827 8.95970059391e-39
0.0767106474379 -0.105860693464 0.829 9.42138920155e-39
0.0782448603866 -0.105860693464 0.829 9.23556581479e-39
0.0799715439586 -0.106116087176 0.831 9.60398399665e-39
0.0817056302469 -0.106371480887 0.833 8.86786509776e-39
0.0834471192515 -0.106626874599 0.835 1.0251495991e-38
0.0849924362746 -0.106626874599 0.835 9.51430089493e-39
0.0867450293536 -0.106882268311 0.837 1.02518547234e-38
0.0882940477349 -0.106882268311 0.837 9.97383710813e-39
0.0900577448883 -0.107137662022 0.839 1.25513336554e-38
0.091828844758 -0.107393055734 0.841 1.14435637791e-38
0.0933852658556 -0.107393055734 0.841 1.58607129762e-38
0.0270569279986 -0.108227711994 0.86 1.37194112137e-38
0.0286485119985 -0.108227711994 0.86 8.09910154984e-39
0.0302400959984 -0.108227711994 0.86 7.56746012286e-39
0.0317576528356 -0.107976019641 0.858 7.29195363439e-39
0.0329180286122 -0.106591711697 0.847 6.74237558707e-39
0.0343226940261 -0.10608832699 0.843 6.83456981563e-39
0.0358828164819 -0.10608832699 0.843 7.11115250133e-39
0.0374429389376 -0.10608832699 0.843 6.74309305188e-39
0.0389105274398 -0.105836634636 0.841 7.20442292711e-39
0.0403707132258 -0.105584942283 0.839 7.11258743096e-39
0.0418234962955 -0.105333249929 0.837 7.02218686442e-39
0.0432688766489 -0.105081557576 0.835 6.83851587211e-39
0.044706854286 -0.104829865222 0.833 7.85336985114e-39
0.0462484699511 -0.104829865222 0.833 7.85229365392e-39
0.0475606014115 -0.104326480515 0.829 6.83995080174e-39
0.0490948143602 -0.104326480515 0.829 7.85372858354e-39
0.050629027309 -0.104326480515 0.829 7.39311617313e-39
0.0521632402577 -0.104326480515 0.829 7.39311617313e-39
0.0536974532065 -0.104326480515 0.829 7.9455640797e-39
0.0550984172622 -0.104074788162 0.827 7.76117562257e-39
0.0566289288529 -0.104074788162 0.827 8.68419410544e-39
0.0583000920528 -0.104326480515 0.829 8.77710579882e-39
0.0598343050015 -0.104326480515 0.829 8.776388334e-39
0.0613685179503 -0.104326480515 0.829 8.4994469159e-39
0.0627509752153 -0.104074788162 0.827 9.97204344609e-39
0.064281486806 -0.104074788162 0.827 8.86750636535e-39
0.0658119983966 -0.104074788162 0.827 9.23807694164e-39
0.0673425099872 -0.104074788162 0.827 9.33027117021e-39
0.0688730215778 -0.104074788162 0.827 9.88128414716e-39
0.0704035331684 -0.104074788162 0.827 8.77567086919e-39
0.071934044759 -0.104074788162 0.827 9.14373031864e-39
0.0734645563497 -0.104074788162 0.827 8.96041805873e-39
0.0751764344891 -0.104326480515 0.829 9.33027117021e-39
0.0767106474379 -0.104326480515 0.829 8.77746453123e-39
0.0784336296517 -0.104578172869 0.831 9.23735947683e-39
0.0801640145819 -0.104829865222 0.833 9.0529710197e-39
0.0817056302469 -0.104829865222 0.833 9.79160104544e-39
0.0834471192515 -0.105081557576 0.835 9.42282413118e-39
0.0851960109723 -0.105333249929 0.837 9.42282413118e-39
0.0867450293536 -0.105333249929 0.837 1.03436902196e-38
0.0882940477349 -0.105333249929 0.837 1.07110322042e-38
0.0900577448883 -0.105584942283 0.839 1.27339242466e-38
0.091828844758 -0.105836634636 0.841 1.11651874313e-38
0.0933852658556 -0.105836634636 0.841 2.1756564161e-38
0.0270569279986 -0.106636127994 0.86 1.14148763969e-38
0.0286485119985 -0.106636127994 0.86 8.7516652252e-39
0.0302400959984 -0.106636127994 0.86 7.66073054865e-39
0.0317576528356 -0.106388136999 0.858 7.19975940582e-39
0.0329957571332 -0.10527217752 0.849 7.01788207554e-39
0.0344041239052 -0.104776195529 0.845 7.75543590406e-39
0.0358828164819 -0.104528204534 0.843 7.29447036643e-39
0.0374429389376 -0.104528204534 0.843 7.20406419471e-39
0.0389105274398 -0.104280213539 0.841 7.75794703091e-39
0.0404669485374 -0.104280213539 0.841 7.29876955012e-39
0.0419234329653 -0.104032222543 0.839 7.75830576332e-39
0.0433725146768 -0.103784231548 0.837 7.29984574734e-39
0.0448141936721 -0.103536240553 0.835 7.02362179405e-39
0.0462484699511 -0.103288249557 0.833 7.30092194456e-39
0.0477900856161 -0.103288249557 0.833 7.48531040169e-39
0.0492132578207 -0.103040258562 0.831 7.48674533132e-39
0.0507511721276 -0.103040258562 0.831 7.66898139401e-39
0.0522890864345 -0.103040258562 0.831 7.67041632363e-39
0.0538270007414 -0.103040258562 0.831 7.39383363794e-39
0.0552316661553 -0.102792267567 0.829 7.76296928461e-39
0.056765879104 -0.102792267567 0.829 7.94735774173e-39
0.0583000920528 -0.102792267567 0.829 7.85444604836e-39
0.0598343050015 -0.102792267567 0.829 7.85444604836e-39
0.0613685179503 -0.102792267567 0.829 8.31434099396e-39
0.062902730899 -0.102792267567 0.829 8.31398226155e-39
0.0644369438478 -0.102792267567 0.829 8.13102873405e-39
0.0659711567966 -0.102792267567 0.829 9.14337158623e-39
0.0675053697453 -0.102792267567 0.829 7.94664027692e-39
0.0690395826941 -0.102792267567 0.829 7.94735774173e-39
0.0705737956428 -0.102792267567 0.829 8.31505845877e-39
0.0721080085916 -0.102792267567 0.829 8.49980564831e-39
0.0736422215403 -0.102792267567 0.829 8.86750636535e-39
0.0751764344891 -0.102792267567 0.829 8.77674706641e-39
0.0768957153448 -0.103040258562 0.831 8.77782326363e-39
0.0786223989168 -0.103288249557 0.833 8.96113552354e-39
0.0803564852051 -0.103536240553 0.835 9.23807694164e-39
0.0819018022283 -0.103536240553 0.835 9.14588271308e-39
0.083646992591 -0.103784231548 0.837 9.23843567405e-39
0.0851960109723 -0.103784231548 0.837 1.05287961416e-38
0.0867450293536 -0.103784231548 0.837 1.08943444641e-38
0.0882940477349 -0.103784231548 0.837 1.07092385422e-38
0.0900577448883 -0.104032222543 0.839 1.15364852815e-38
0.0916104646278 -0.104032222543 0.839 1.05209040286e-38
0.0931631843672 -0.104032222543 0.839 2.35090308231e-38
0.027119851087 -0.105288833632 0.862 6.7126007973e-39
0.028715136445 -0.105288833632 0.862 7.46596547639e-39
0.0303104218031 -0.105288833632 0.862 7.65929561902e-39
0.0318316799983 -0.105044543995 0.86 8.02986759661e-39
0.0333455354773 -0.104800254357 0.858 7.57140617934e-39
0.0344041239052 -0.103212371716 0.845 7.11115250133e-39
0.0358828164819 -0.102968082078 0.843 7.11222869855e-39
0.0374429389376 -0.102968082078 0.843 7.02146939961e-39
0.0389105274398 -0.102723792441 0.841 6.56085698919e-39
0.0404669485374 -0.102723792441 0.841 7.39096377868e-39
0.042023369635 -0.102723792441 0.841 7.66647026716e-39
0.0433725146768 -0.102235213167 0.837 7.11545729021e-39
0.0449215330581 -0.102235213167 0.837 7.20836898359e-39
0.0463595106953 -0.10199092353 0.835 7.30056321215e-39
0.0479048277184 -0.10199092353 0.835 7.4856691341e-39
0.0493317012812 -0.101746633892 0.833 7.39311617313e-39
0.0508733169462 -0.101746633892 0.833 7.02505672368e-39
0.0524149326112 -0.101746633892 0.833 8.22429915984e-39
0.0539565482763 -0.101746633892 0.833 8.31469972637e-39
0.0553649150483 -0.101502344255 0.831 6.84246192858e-39
0.0569028293552 -0.101502344255 0.831 7.48674533132e-39
0.0584407436621 -0.101502344255 0.831 7.76404548183e-39
0.059978657969 -0.101502344255 0.831 8.03919323789e-39
0.0615165722759 -0.101502344255 0.831 7.76332801701e-39
0.062902730899 -0.101258054618 0.829 8.13102873405e-39
0.0644369438478 -0.101258054618 0.829 8.0395519703e-39
0.0659711567966 -0.101258054618 0.829 8.31541719118e-39
0.0675053697453 -0.101258054618 0.829 8.03991070271e-39
0.0690395826941 -0.101258054618 0.829 8.40904634937e-39
0.0705737956428 -0.101258054618 0.829 8.68527030266e-39
0.0721080085916 -0.101258054618 0.829 8.31508368215e-39
0.0736422215403 -0.101258054618 0.829 8.40904634937e-39
0.0753578010379 -0.101502344255 0.831 8.5930760741e-39
0.0768957153448 -0.101502344255 0.831 9.14588271308e-39
0.0788111681819 -0.10199092353 0.835 9.05368848451e-39
0.0805489558284 -0.102235213167 0.837 9.05368848451e-39
0.0820979742097 -0.102235213167 0.837 9.05368848451e-39
0.083646992591 -0.102235213167 0.837 1.0896855591e-38
0.08539958567 -0.102479502804 0.839 9.88200161197e-39
0.0869523054094 -0.102479502804 0.839 1.17237337888e-38
0.0885050251489 -0.102479502804 0.839 1.16301046306e-38
0.0900577448883 -0.102479502804 0.839 1.21833050345e-38
0.0916104646278 -0.102479502804 0.839 1.04294272648e-38
0.0271827741753 -0.103934136553 0.864 5.79029977924e-39
0.0287817608915 -0.103934136553 0.864 8.29463593495e-39
0.0303807476077 -0.103934136553 0.864 7.56746012286e-39
0.0319057071611 -0.103693548274 0.862 6.74022319263e-39
0.0334232639983 -0.103452959995 0.86 8.1231366211e-39
0.0345669836633 -0.10212972446 0.849 7.11115250133e-39
0.0359679477191 -0.101648547902 0.845 6.74452798151e-39
0.0375317715329 -0.101648547902 0.845 6.92927517105e-39
0.0390030613933 -0.101407959623 0.843 6.8381571397e-39
0.040563183849 -0.101407959623 0.843 6.65484487979e-39
0.0421233063048 -0.101407959623 0.843 7.66754646438e-39
0.0434761527047 -0.100926783065 0.839 7.11545729021e-39
0.0449215330581 -0.100686194785 0.837 7.02398052646e-39
0.0464705514394 -0.100686194785 0.837 7.11581602262e-39
0.0480195698208 -0.100686194785 0.837 7.57642843303e-39
0.0494501447416 -0.100445606506 0.835 7.48423420447e-39
0.0509954617648 -0.100445606506 0.835 7.4860278665e-39
0.052540778788 -0.100445606506 0.835 7.30163940937e-39
0.0540860958111 -0.100445606506 0.835 7.85336985114e-39
0.0554981639413 -0.100205018227 0.833 7.76296928461e-39
0.0570397796063 -0.100205018227 0.833 8.13210493127e-39
0.0585813952714 -0.100205018227 0.833 8.59020621484e-39
0.0601230109364 -0.100205018227 0.833 8.12995253683e-39
0.0616646266014 -0.100205018227 0.833 7.94664027692e-39
0.0630544865828 -0.0999644299483 0.831 8.776388334e-39
0.0645924008897 -0.0999644299483 0.831 8.31541719118e-39
0.0661303151966 -0.0999644299483 0.831 7.94735774173e-39
0.0676682295035 -0.0999644299483 0.831 8.22429915984e-39
0.0692061438103 -0.0999644299483 0.831 9.14373031864e-39
0.0707440581172 -0.0999644299483 0.831 8.86750636535e-39
0.0722819724241 -0.0999644299483 0.831 8.68419410544e-39
0.073819886731 -0.0999644299483 0.831 9.23771820924e-39
0.0755391675868 -0.100205018227 0.833 8.96149425595e-39
0.0770807832518 -0.100205018227 0.833 9.60398399665e-39
0.078999937447 -0.100686194785 0.837 9.42103046915e-39
0.0805489558284 -0.100686194785 0.837 9.51573582456e-39
0.0822941461911 -0.100926783065 0.839 9.33027117021e-39
0.0838468659305 -0.100926783065 0.839 9.97455457294e-39
0.08539958567 -0.100926783065 0.839 9.69904808447e-39
0.0869523054094 -0.100926783065 0.839 1.06191967081e-38
0.0885050251489 -0.100926783065 0.839 1.1723016324e-38
0.0900577448883 -0.100926783065 0.839 1.1721945732e-38
0.0916104646278 -0.100926783065 0.839 9.69187343633e-39
0.0274030049846 -0.10316425406 0.871 9.29368046471e-39
0.0289483220078 -0.102927367139 0.869 7.47026886397e-39
0.0304862363147 -0.102690480218 0.867 7.66073054865e-39
0.0319797343239 -0.102335149837 0.864 6.83421108323e-39
0.0335009925192 -0.102098262916 0.862 6.9271227766e-39
0.0349334181191 -0.101624489074 0.858 7.20262926508e-39
0.0361382101935 -0.10055849793 0.849 6.92784024142e-39
0.0376206041283 -0.100321611009 0.847 6.83708094248e-39
0.0390955953468 -0.100084724088 0.845 7.1150985578e-39
0.0406594191607 -0.100084724088 0.845 6.74668177725e-39
0.0422232429745 -0.100084724088 0.845 6.9321450303e-39
0.0436834287605 -0.0998478371669 0.843 7.48423420447e-39
0.0451362118302 -0.099610950246 0.841 6.83995080174e-39
0.0465815921836 -0.0993740633251 0.839 7.30056321215e-39
0.0481343119231 -0.0993740633251 0.839 7.29984574734e-39
0.0495685882021 -0.0991371764041 0.837 8.03632337864e-39
0.0511176065834 -0.0991371764041 0.837 7.39311617313e-39
0.0526666249647 -0.0991371764041 0.837 7.85336985114e-39
0.054215643346 -0.0991371764041 0.837 8.12995253683e-39
0.0557646617273 -0.0991371764041 0.837 7.76189308738e-39
0.0571767298575 -0.0989002894832 0.835 7.67113378845e-39
0.0587220468807 -0.0989002894832 0.835 7.94592281211e-39
0.0602673639038 -0.0989002894832 0.835 8.68240044341e-39
0.0616646266014 -0.0986634025623 0.833 8.13102873405e-39
0.0632062422665 -0.0986634025623 0.833 8.0395519703e-39
0.0647478579315 -0.0986634025623 0.833 8.0395519703e-39
0.0662894735965 -0.0986634025623 0.833 7.8565984428e-39
0.0678310892616 -0.0986634025623 0.833 7.94843393896e-39
0.0693727049266 -0.0986634025623 0.833 8.40761141975e-39
0.0709143205917 -0.0986634025623 0.833 8.86750636535e-39
0.0724559362567 -0.0986634025623 0.833 8.40797015215e-39
0.0739975519217 -0.0986634025623 0.833 8.59235860928e-39
0.0757205341356 -0.0989002894832 0.835 8.40904634937e-39
0.0774509190657 -0.0991371764041 0.837 9.5128659653e-39
0.078999937447 -0.0991371764041 0.837 9.23556581479e-39
0.0805489558284 -0.0991371764041 0.837 9.69833202095e-39
0.0824903181724 -0.099610950246 0.841 9.42103046915e-39
0.08404673927 -0.099610950246 0.841 1.10801678509e-38
0.08539958567 -0.0993740633251 0.839 9.97419584053e-39
0.0869523054094 -0.0993740633251 0.839 1.12634801108e-38
0.0885050251489 -0.0993740633251 0.839 1.17237478018e-38
0.0902724236604 -0.099610950246 0.841 1.22744160593e-38
0.091828844758 -0.099610950246 0.841 1.07992803763e-38
0.0274030049846 -0.10155231259 0.871 9.47842765424e-39
0.0289483220078 -0.101319127027 0.869 8.38788814386e-39
0.0304862363147 -0.101085941465 0.867 7.38379473574e-39
0.0320907750681 -0.101085941465 0.867 7.47705955633e-39
0.0335787210401 -0.10073616312 0.864 6.83492854804e-39
0.0350148479982 -0.100269791995 0.86 8.4019067337e-39
0.0362233414307 -0.0992204569623 0.851 7.20585785674e-39
0.0376206041283 -0.0987540858367 0.847 6.56300938363e-39
0.0390955953468 -0.0985209002739 0.845 7.29841081771e-39
0.0406594191607 -0.0985209002739 0.845 7.20621658915e-39
0.0422232429745 -0.0985209002739 0.845 7.48387547206e-39
0.0437870667884 -0.0985209002739 0.845 7.48315800725e-39
0.0452435512162 -0.0982877147112 0.843 7.11545729021e-39
0.046803673672 -0.0982877147112 0.843 7.66934012641e-39
0.0482490540254 -0.0980545291484 0.841 8.03847577308e-39
0.0496870316625 -0.0978213435856 0.839 7.48351673966e-39
0.051239751402 -0.0978213435856 0.839 7.85229365392e-39
0.0527924711414 -0.0978213435856 0.839 7.76081689016e-39
0.054215643346 -0.0975881580228 0.837 8.12959380442e-39
0.0557646617273 -0.0975881580228 0.837 7.48638659891e-39
0.0573136801086 -0.0975881580228 0.837 8.03991070271e-39
0.05886269849 -0.0975881580228 0.837 7.67149252085e-39
0.0604117168713 -0.0975881580228 0.837 7.94735774173e-39
0.061812680927 -0.09735497246 0.835 7.94735774173e-39
0.0633579979502 -0.09735497246 0.835 8.03991070271e-39
0.0649033149734 -0.09735497246 0.835 8.3164933884e-39
0.0664486319965 -0.09735497246 0.835 7.58073322192e-39
0.0679939490197 -0.09735497246 0.835 8.40940508178e-39
0.0695392660429 -0.09735497246 0.835 8.68455283785e-39
0.0712548455405 -0.0975881580228 0.837 8.2228712367e-39
0.0728038639218 -0.0975881580228 0.837 8.68455283785e-39
0.0743528823031 -0.0975881580228 0.837 9.05332975211e-39
0.0762646337821 -0.0980545291484 0.841 8.96149425595e-39
0.0780061227866 -0.0982877147112 0.843 8.68670523229e-39
0.0795662452424 -0.0982877147112 0.843 9.05368848451e-39
0.0811263676981 -0.0982877147112 0.843 9.51501835974e-39
0.0828826621352 -0.0985209002739 0.845 9.79124231303e-39
0.0846463592886 -0.0987540858367 0.847 9.60541892627e-39
0.0864174591583 -0.0989872713995 0.849 1.22779753574e-38
0.0885068758279 -0.0995702353064 0.854 1.04337320537e-38
0.0900873557534 -0.0995702353064 0.854 1.30130558942e-38
0.0916678356789 -0.0995702353064 0.854 1.07992887841e-38
0.0932483156044 -0.0995702353064 0.854 1.31023662505e-38
0.0259983395707 -0.100743565837 0.878 2.35040590161e-38
0.0274030049846 -0.0999403711204 0.871 1.35321164635e-38
0.0290149464543 -0.0999403711204 0.871 7.18576884196e-39
0.0305565621193 -0.0997108869157 0.869 7.93551957231e-39
0.0320907750681 -0.0994814027111 0.867 7.56746012286e-39
0.0336953138215 -0.0994814027111 0.867 7.29195363439e-39
0.0350962778772 -0.0989076921995 0.862 6.92532911457e-39
0.0365213007609 -0.0984487237902 0.858 7.48244054244e-39
0.037931518212 -0.0979897553809 0.854 6.93071010067e-39
0.0393731972073 -0.097645529074 0.851 7.39096377868e-39
0.0408518897839 -0.0974160448693 0.849 7.02362179405e-39
0.0423231796443 -0.0971865606647 0.847 7.11545729021e-39
0.0438907048163 -0.0971865606647 0.847 7.66826392919e-39
0.0454582299883 -0.0971865606647 0.847 7.11581602262e-39
0.0469147144162 -0.0969570764601 0.845 7.30235687419e-39
0.0483637961277 -0.0967275922554 0.843 6.74990896761e-39
0.0496870316625 -0.0962686238461 0.839 7.76117562257e-39
0.051239751402 -0.0962686238461 0.839 7.4860278665e-39
0.0527924711414 -0.0962686238461 0.839 7.67113378845e-39
0.054215643346 -0.0960391396415 0.837 7.76332801701e-39
0.0557646617273 -0.0960391396415 0.837 7.48710406372e-39
0.0573136801086 -0.0960391396415 0.837 7.67149252085e-39
0.05886269849 -0.0960391396415 0.837 8.13174619886e-39
0.0604117168713 -0.0960391396415 0.837 8.13138746646e-39
0.0619607352526 -0.0960391396415 0.837 8.13102873405e-39
0.0635097536339 -0.0960391396415 0.837 8.31505845877e-39
0.0650587720152 -0.0960391396415 0.837 8.40761422234e-39
0.0666077903965 -0.0960391396415 0.837 8.3164933884e-39
0.0681568087778 -0.0960391396415 0.837 8.13138746646e-39
0.0697058271592 -0.0960391396415 0.837 8.50016438072e-39
0.0714251080149 -0.0962686238461 0.839 1.00681851324e-38
0.0729778277543 -0.0962686238461 0.839 8.59271734169e-39
0.0747082126845 -0.0964981080508 0.841 9.3299124378e-39
0.0766273668797 -0.0969570764601 0.845 9.32883624058e-39
0.0783762586006 -0.0971865606647 0.847 9.88451273882e-39
0.0799437837726 -0.0971865606647 0.847 9.05476468173e-39
0.0815113089446 -0.0971865606647 0.847 1.01596604949e-38
0.083275006098 -0.0974160448693 0.849 1.04355257158e-38
0.0848462326281 -0.0974160448693 0.849 9.88200161197e-39
0.0869263959024 -0.0979897553809 0.854 1.10783741889e-38
0.0885068758279 -0.0979897553809 0.854 1.13549568746e-38
0.0900873557534 -0.0979897553809 0.854 1.20914597292e-38
0.0916678356789 -0.0979897553809 0.854 1.17219401268e-38
0.0259983395707 -0.0991186696134 0.878 2.35015703101e-38
0.027465928073 -0.0985542124972 0.873 1.5832710829e-38
0.0290149464543 -0.0983284296507 0.871 1.04028810667e-38
0.030626887924 -0.0983284296507 0.871 7.66073054865e-39
0.0321648022309 -0.0981026468042 0.869 7.66144801346e-39
0.0336953138215 -0.0978768639577 0.867 6.74237558707e-39
0.0351777077563 -0.0975381896879 0.864 7.47921195077e-39
0.0366064319981 -0.0970866239949 0.86 7.11187136744e-39
0.037931518212 -0.0964092754554 0.854 6.92963390345e-39
0.0393731972073 -0.0960706011857 0.851 6.83959206933e-39
0.0408518897839 -0.0958448183392 0.849 6.84030953414e-39
0.0424231163141 -0.0958448183392 0.849 7.02398052646e-39
0.0439943428442 -0.0958448183392 0.849 7.30128067697e-39
0.0454582299883 -0.0956190354927 0.847 7.11617475502e-39
0.0469147144162 -0.0953932526462 0.845 7.21016264562e-39
0.0483637961277 -0.0951674697997 0.843 7.48638659891e-39
0.049805475123 -0.0949416869532 0.841 7.02541545609e-39
0.0513618962206 -0.0949416869532 0.841 7.76332801701e-39
0.0527924711414 -0.0947159041067 0.839 7.85336985114e-39
0.0543451908809 -0.0947159041067 0.839 7.57929829229e-39
0.0558979106203 -0.0947159041067 0.839 8.03883450549e-39
0.0573136801086 -0.0944901212602 0.837 7.94664027692e-39
0.05886269849 -0.0944901212602 0.837 7.94664027692e-39
0.0605560698387 -0.0947159041067 0.839 8.4994469159e-39
0.0621087895782 -0.0947159041067 0.839 7.85444604836e-39
0.0636615093176 -0.0947159041067 0.839 8.13174619886e-39
0.0650587720152 -0.0944901212602 0.837 8.13210493127e-39
0.0666077903965 -0.0944901212602 0.837 8.50195804275e-39
0.0681568087778 -0.0944901212602 0.837 8.59235860928e-39
0.0698723882754 -0.0947159041067 0.839 8.22429915984e-39
0.0717656329637 -0.0951674697997 0.843 8.5930760741e-39
0.0733257554194 -0.0951674697997 0.843 8.68562903507e-39
0.0750635430659 -0.0953932526462 0.845 9.23735947683e-39
0.0769900999774 -0.0958448183392 0.849 9.3299124378e-39
0.0785613265075 -0.0958448183392 0.849 8.96149425595e-39
0.0801325530377 -0.0958448183392 0.849 9.33027117021e-39
0.0817037795678 -0.0958448183392 0.849 9.97563077016e-39
0.083275006098 -0.0958448183392 0.849 9.88095203942e-39
0.0848462326281 -0.0958448183392 0.849 1.00681837311e-38
0.0869263959024 -0.0964092754554 0.854 1.19088397108e-38
0.0885068758279 -0.0964092754554 0.854 1.17226575916e-38
0.0900873557534 -0.0964092754554 0.854 1.2090007984e-38
0.0916678356789 -0.0964092754554 0.854 9.87805555549e-39
0.0932483156044 -0.0964092754554 0.854 2.35043827161e-38
0.0276232357939 -0.0974937733903 0.878 1.77681128017e-38
0.0290815709008 -0.0969385696694 0.873 1.24290815747e-38
0.030626887924 -0.096716488181 0.871 7.19473715213e-39
0.0321648022309 -0.0964944066926 0.869 7.29482349364e-39
0.0337730423424 -0.0964944066926 0.869 7.38701772221e-39
0.0351777077563 -0.0959392029717 0.864 7.29518222605e-39
