# .PCD v0.7 - Point Cloud Data file format
VERSION 0.7
FIELDS x y z rgb
SIZE 4 4 4 4
TYPE F F F F
COUNT 1 1 1 1
WIDTH 842
HEIGHT 1
VIEWPOINT 0 0 0 1 0 0 0
POINTS 842
DATA ascii
-0.0192988813385 -0.0596510877736 0.948 2.35015675075e-38
-0.0175074239991 -0.0595252415969 0.946 1.70312918523e-38
-0.0157067132643 -0.0593364723318 0.943 1.55551023928e-38
-0.0139171066039 -0.0591477030667 0.94 1.05033261407e-38
-0.0121515587715 -0.0590218568899 0.938 6.55870459475e-39
-0.0104156218041 -0.0590218568899 0.938 7.02182813202e-39
-0.00863341786002 -0.0587072414481 0.933 7.02218686442e-39
-0.00690673428801 -0.0587072414481 0.933 7.48495166928e-39
-0.00516339460438 -0.058518472183 0.93 7.20801025118e-39
-0.00344226306959 -0.058518472183 0.93 7.11617475502e-39
-0.00171743017665 -0.0583926260063 0.928 7.48531040169e-39
0.0 -0.0582038567412 0.925 7.76153435498e-39
0.00171187813945 -0.0582038567412 0.925 7.21052137803e-39
0.00342375627889 -0.0582038567412 0.925 7.21123884284e-39
0.00512453034392 -0.0580780105644 0.923 7.30235687419e-39
0.00683270712523 -0.0580780105644 0.923 7.67149252085e-39
0.00854088390653 -0.0580780105644 0.923 7.48818026094e-39
0.0102490606878 -0.0580780105644 0.923 7.03007897738e-39
0.0119572374691 -0.0580780105644 0.923 7.39813842682e-39
0.0136654142505 -0.0580780105644 0.923 7.39885589164e-39
0.0153735910318 -0.0580780105644 0.923 7.85982703446e-39
0.0170817678131 -0.0580780105644 0.923 8.04421549159e-39
0.0187899445944 -0.0580780105644 0.923 7.58252688395e-39
0.0204981213757 -0.0580780105644 0.923 7.85982703446e-39
0.022206298157 -0.0580780105644 0.923 8.40976381419e-39
0.0239144749383 -0.0580780105644 0.923 8.22788648391e-39
0.0256226517196 -0.0580780105644 0.923 8.044574224e-39
0.0273900502311 -0.0582038567412 0.925 8.50662156404e-39
0.0291019283706 -0.0582038567412 0.925 8.3218743745e-39
0.03081380651 -0.0582038567412 0.925 8.50411043719e-39
0.0325256846495 -0.0582038567412 0.925 9.0583520058e-39
0.0342375627889 -0.0582038567412 0.925 9.0579932734e-39
0.0360660337097 -0.0583926260063 0.928 9.61151737719e-39
0.0377834638864 -0.0583926260063 0.928 9.33349976187e-39
0.0397137221561 -0.0587072414481 0.933 1.00681837311e-38
0.0414404057281 -0.0587072414481 0.933 1.03465600789e-38
0.0431670893001 -0.0587072414481 0.933 9.88451273882e-39
0.0449900081837 -0.0588330876248 0.935 1.48511671158e-38
0.0467203931138 -0.0588330876248 0.935 2.35022303216e-38
0.0486062350858 -0.0590218568899 0.938 2.3499377278e-38
-0.0227596511988 -0.057774499197 0.946 2.34925403428e-38
-0.0209422843524 -0.0575912819691 0.943 2.34979451509e-38
-0.0191970939897 -0.0575912819691 0.943 2.35015492906e-38
-0.017451903627 -0.0575912819691 0.943 1.7033084113e-38
-0.0156567449294 -0.0574080647412 0.94 2.02548738721e-38
-0.0139171066039 -0.0574080647412 0.94 1.6208383533e-38
-0.0121515587715 -0.0572859199226 0.938 1.11522730647e-38
-0.0104156218041 -0.0572859199226 0.938 7.6636004079e-39
-0.00867968483676 -0.0572859199226 0.938 6.83851587211e-39
-0.00692153972057 -0.0571027026947 0.935 7.02469799127e-39
-0.00519115479043 -0.0571027026947 0.935 7.48531040169e-39
-0.00345336714401 -0.0569805578761 0.933 7.39311617313e-39
-0.00172113153479 -0.0567973406482 0.93 7.39311617313e-39
0.0 -0.0566751958296 0.928 7.11760968465e-39
0.00171743017665 -0.0566751958296 0.928 7.11868588187e-39
0.00342375627889 -0.0564919786017 0.925 7.85408731595e-39
0.00513563441834 -0.0564919786017 0.925 7.48638659891e-39
0.00684751255778 -0.0564919786017 0.925 7.85588097798e-39
0.00855939069723 -0.0564919786017 0.925 7.39526856757e-39
0.0102712688367 -0.0564919786017 0.925 7.58324434876e-39
0.0119831469761 -0.0564919786017 0.925 7.21554363173e-39
0.0136950251156 -0.0564919786017 0.925 7.39885589164e-39
0.015406903255 -0.0564919786017 0.925 8.41191620863e-39
0.0171187813945 -0.0564919786017 0.925 9.14767637511e-39
0.0188306595339 -0.0564919786017 0.925 7.39921462404e-39
0.0205425376733 -0.0564919786017 0.925 7.95130379821e-39
0.0222544158128 -0.0564919786017 0.925 7.95166253062e-39
0.0239662939522 -0.0564919786017 0.925 8.41227494103e-39
0.0256781720917 -0.0564919786017 0.925 8.32043944488e-39
0.0273900502311 -0.0564919786017 0.925 8.68957509154e-39
0.0291963130031 -0.0566751958296 0.928 8.87216988664e-39
0.0309137431798 -0.0566751958296 0.928 8.87360481627e-39
0.0326311733564 -0.0566751958296 0.928 9.0583520058e-39
0.0343486035331 -0.0566751958296 0.928 8.96544031242e-39
0.0360660337097 -0.0566751958296 0.928 8.96579904483e-39
0.0377834638864 -0.0566751958296 0.928 9.97921809423e-39
0.0397137221561 -0.0569805578761 0.933 9.05584087895e-39
0.0414404057281 -0.0569805578761 0.933 1.00689011959e-38
0.0432596232536 -0.0571027026947 0.935 1.6414532754e-38
0.0451343611511 -0.0572859199226 0.938 2.3501504449e-38
0.0468702981185 -0.0572859199226 0.938 2.34943522217e-38
0.0490207871974 -0.057774499197 0.946 2.34950612787e-38
-0.0227596511988 -0.0560237567971 0.946 2.34939836802e-38
-0.0209422843524 -0.0558460916064 0.943 2.34921760052e-38
-0.0191360215804 -0.0556684264157 0.94 2.35000905389e-38
-0.0173963832549 -0.0556684264157 0.94 1.65716827716e-38
-0.0156567449294 -0.0556684264157 0.94 1.94290760754e-38
-0.0139171066039 -0.0556684264157 0.94 1.91535681856e-38
-0.0121515587715 -0.0555499829552 0.938 1.7409737726e-38
-0.0104156218041 -0.0555499829552 0.938 1.26216410032e-38
-0.00867968483676 -0.0555499829552 0.938 9.31699807115e-39
-0.00692153972057 -0.0553723177646 0.935 7.20657532155e-39
-0.00519115479043 -0.0553723177646 0.935 7.11617475502e-39
-0.00345336714401 -0.0552538743041 0.933 7.02505672368e-39
-0.00172113153479 -0.0550762091134 0.93 7.30271560659e-39
0.0 -0.054957765653 0.928 7.30163940937e-39
0.00171743017665 -0.054957765653 0.928 7.11868588187e-39
0.00342375627889 -0.0547801004623 0.925 7.48710406372e-39
0.00513563441834 -0.0547801004623 0.925 8.40904634937e-39
0.00684751255778 -0.0547801004623 0.925 7.85731590761e-39
0.00855939069723 -0.0547801004623 0.925 7.39849715923e-39
0.0102712688367 -0.0547801004623 0.925 7.58073322192e-39
0.0119831469761 -0.0547801004623 0.925 7.49069138779e-39
0.0136950251156 -0.0547801004623 0.925 7.67579730974e-39
0.015406903255 -0.0547801004623 0.925 7.94951013618e-39
0.0171187813945 -0.0547801004623 0.925 7.94951013618e-39
0.0188306595339 -0.0547801004623 0.925 7.76691534108e-39
0.0205425376733 -0.0547801004623 0.925 7.76691534108e-39
0.0222544158128 -0.0547801004623 0.925 8.87324608386e-39
0.0239662939522 -0.0547801004623 0.925 8.59702213057e-39
0.0257614526498 -0.054957765653 0.928 8.59486973613e-39
0.0274788828265 -0.054957765653 0.928 9.05548214655e-39
0.0291963130031 -0.054957765653 0.928 7.58360308117e-39
0.0309803676263 -0.0550762091134 0.93 9.79447090469e-39
0.0327014991611 -0.0550762091134 0.93 8.96544031242e-39
0.0344226306959 -0.0550762091134 0.93 1.04387543074e-38
0.0361437622307 -0.0550762091134 0.93 8.78033439048e-39
0.0379870385841 -0.0552538743041 0.933 9.23807694164e-39
0.0397988533933 -0.0553723177646 0.935 1.28261282842e-38
0.0415292383234 -0.0553723177646 0.935 2.009444902e-38
0.0433984241838 -0.0555499829552 0.938 2.35018519711e-38
0.0452305964628 -0.0556684264157 0.94 2.3495771737e-38
0.0471201397929 -0.0558460916064 0.943 2.34950654826e-38
0.0490207871974 -0.0560237567971 0.946 2.34964835966e-38
0.0507715295974 -0.0560237567971 0.946 2.35029982332e-38
-0.0209422843524 -0.0541009012437 0.943 2.34925515531e-38
-0.0191360215804 -0.0539287880902 0.94 2.35015619023e-38
-0.0173963832549 -0.0539287880902 0.94 1.72153257809e-38
-0.0157067132643 -0.0541009012437 0.943 1.97985270142e-38
-0.0139171066039 -0.0539287880902 0.94 1.92468358088e-38
-0.0121774682784 -0.0539287880902 0.94 1.88809399642e-38
-0.0104156218041 -0.0538140459879 0.938 2.01706095915e-38
-0.00867968483676 -0.0538140459879 0.938 1.55655126391e-38
-0.00694374786941 -0.0538140459879 0.938 1.29940052415e-38
-0.00519115479043 -0.0536419328344 0.935 8.94965608652e-39
-0.00345336714401 -0.0535271907321 0.933 6.8381571397e-39
-0.00172113153479 -0.0533550775786 0.93 7.20836898359e-39
0.0 -0.0533550775786 0.93 8.13138746646e-39
0.00171743017665 -0.0532403354763 0.928 7.30271560659e-39
0.00343486035331 -0.0532403354763 0.928 7.57929829229e-39
0.00515229052996 -0.0532403354763 0.928 7.67149252085e-39
0.00686972070662 -0.0532403354763 0.928 8.04170436474e-39
0.00858715088327 -0.0532403354763 0.928 7.94915140377e-39
0.0102712688367 -0.0530682223228 0.925 8.13210493127e-39
0.0119831469761 -0.0530682223228 0.925 8.31721085321e-39
0.0136950251156 -0.0530682223228 0.925 7.94951013618e-39
0.015406903255 -0.0530682223228 0.925 8.13389859331e-39
0.0171187813945 -0.0530682223228 0.925 7.76512167905e-39
0.0188306595339 -0.0530682223228 0.925 8.59486973613e-39
0.0205425376733 -0.0530682223228 0.925 8.77782326363e-39
0.0222544158128 -0.0530682223228 0.925 8.68562903507e-39
0.0239662939522 -0.0530682223228 0.925 8.40976381419e-39
0.0257614526498 -0.0532403354763 0.928 9.05763454099e-39
0.0274788828265 -0.0532403354763 0.928 9.2413055333e-39
0.0292592360915 -0.0533550775786 0.93 8.68849889432e-39
0.0309803676263 -0.0533550775786 0.93 8.59522846854e-39
0.0328069878681 -0.0535271907321 0.933 9.42318286359e-39
0.0345336714401 -0.0535271907321 0.933 1.01585842977e-38
0.0362603550121 -0.0535271907321 0.933 1.36533554054e-38
0.0380684684631 -0.0536419328344 0.935 1.94479683813e-38
0.0397988533933 -0.0536419328344 0.935 2.34996953727e-38
0.0416624872164 -0.0538140459879 0.938 2.3497565399e-38
0.0434909581373 -0.0539287880902 0.94 2.34943241957e-38
0.0452305964628 -0.0539287880902 0.94 2.34928864635e-38
0.0471201397929 -0.0541009012437 0.943 2.3491095604e-38
0.0490207871974 -0.0542730143972 0.946 2.34972220809e-38
0.0507715295974 -0.0542730143972 0.946 2.34993730741e-38
-0.0191970939897 -0.052355710881 0.943 2.35011961634e-38
-0.017451903627 -0.052355710881 0.943 1.6569938155e-38
-0.0157067132643 -0.052355710881 0.943 1.98882423458e-38
-0.0139171066039 -0.0521891497647 0.94 1.95216248325e-38
-0.0121774682784 -0.0521891497647 0.94 1.94315928074e-38
-0.0104378299529 -0.0521891497647 0.94 1.95230723738e-38
-0.00867968483676 -0.0520781090205 0.938 2.0904562083e-38
-0.00694374786941 -0.0520781090205 0.938 1.98936667721e-38
-0.00520781090205 -0.0520781090205 0.938 1.80575327827e-38
-0.00345336714401 -0.0518005071601 0.933 1.40971564381e-38
-0.00172113153479 -0.0516339460438 0.93 1.33652932826e-38
0.0 -0.0516339460438 0.93 1.00538344349e-38
0.00171743017665 -0.0515229052996 0.928 9.41493201823e-39
0.00343486035331 -0.0515229052996 0.928 8.682041711e-39
0.00515229052996 -0.0515229052996 0.928 7.76225181979e-39
0.00686972070662 -0.0515229052996 0.928 7.57929829229e-39
0.00858715088327 -0.0515229052996 0.928 7.67113378845e-39
0.0102712688367 -0.0513563441834 0.925 8.50231677516e-39
0.0119831469761 -0.0513563441834 0.925 8.68562903507e-39
0.0136950251156 -0.0513563441834 0.925 8.77782326363e-39
0.015406903255 -0.0513563441834 0.925 8.5934348065e-39
0.0171187813945 -0.0513563441834 0.925 8.40976381419e-39
0.0188306595339 -0.0513563441834 0.925 8.04098689993e-39
0.0205425376733 -0.0513563441834 0.925 8.59415227132e-39
0.0223265922965 -0.0515229052996 0.928 8.96257045317e-39
0.0240440224732 -0.0515229052996 0.928 8.31685212081e-39
0.0257614526498 -0.0515229052996 0.928 9.14731764271e-39
0.0275381045567 -0.0516339460438 0.93 8.86858256257e-39
0.0293536207241 -0.0518005071601 0.933 9.32776004336e-39
0.0310803042961 -0.0518005071601 0.933 1.41114917214e-38
0.0328069878681 -0.0518005071601 0.933 1.65906563528e-38
0.0345336714401 -0.0518005071601 0.933 2.13794200936e-38
0.0362603550121 -0.0518005071601 0.933 2.34978414548e-38
0.0380684684631 -0.0519115479043 0.935 2.34964765901e-38
0.0399265502491 -0.0520781090205 0.938 2.34928836609e-38
0.0416624872164 -0.0520781090205 0.938 2.34928738518e-38
0.0434909581373 -0.0521891497647 0.94 2.34935997244e-38
0.0453749494302 -0.052355710881 0.943 2.34943171892e-38
0.0472700447975 -0.0525222719973 0.946 2.3493602527e-38
0.0491244252253 -0.0526333127414 0.948 2.34986486028e-38
0.0508788689834 -0.0526333127414 0.948 2.35033107228e-38
-0.017451903627 -0.0506105205183 0.943 1.65706416068e-38
-0.0157067132643 -0.0506105205183 0.943 1.93358112548e-38
-0.0139171066039 -0.0504495114392 0.94 1.96145239142e-38
-0.0121774682784 -0.0504495114392 0.94 1.95223465012e-38
-0.0104378299529 -0.0504495114392 0.94 2.00762433504e-38
-0.00867968483676 -0.0503421720532 0.938 2.02602646673e-38
-0.00694374786941 -0.0503421720532 0.938 2.09049152102e-38
-0.00520781090205 -0.0503421720532 0.938 2.09964101909e-38
-0.00346076986028 -0.0501811629741 0.935 2.1181521718e-38
-0.001726683572 -0.0500738235881 0.933 2.06315849383e-38
0.0 -0.049912814509 0.93 1.90703576815e-38
0.00172113153479 -0.049912814509 0.93 1.74132746033e-38
0.00343486035331 -0.049805475123 0.928 1.52945883966e-38
0.00515229052996 -0.049805475123 0.928 1.42858006387e-38
0.00686972070662 -0.049805475123 0.928 1.26309680458e-38
0.00858715088327 -0.049805475123 0.928 1.17129718166e-38
0.0103045810599 -0.049805475123 0.928 1.03318520502e-38
0.0120220112366 -0.049805475123 0.928 1.11644699665e-38
0.0136950251156 -0.0496444660439 0.925 1.01514096495e-38
0.015406903255 -0.0496444660439 0.925 1.02443213429e-38
0.0171187813945 -0.0496444660439 0.925 1.17197877323e-38
0.0188306595339 -0.0496444660439 0.925 1.12548705331e-38
0.0205425376733 -0.0496444660439 0.925 1.18083946368e-38
0.0223265922965 -0.049805475123 0.928 1.245124311e-38
0.0240440224732 -0.049805475123 0.928 1.44730673628e-38
0.0258169730219 -0.049912814509 0.93 1.65881788571e-38
0.0275381045567 -0.049912814509 0.93 1.99946975888e-38
0.0293536207241 -0.0500738235881 0.933 2.21145244524e-38
0.0310803042961 -0.0500738235881 0.933 2.34946408892e-38
0.0328773136727 -0.0501811629741 0.935 2.3496480794e-38
0.0346076986028 -0.0501811629741 0.935 2.34968283161e-38
0.036338083533 -0.0501811629741 0.935 2.34932395907e-38
0.0380684684631 -0.0501811629741 0.935 2.34907368716e-38
0.0399265502491 -0.0503421720532 0.938 2.34939752724e-38
0.0416624872164 -0.0503421720532 0.938 2.34918018585e-38
0.0434909581373 -0.0504495114392 0.94 2.34910984066e-38
0.0453749494302 -0.0506105205183 0.943 2.34925235272e-38
0.0472700447975 -0.0507715295974 0.946 2.34943298009e-38
0.0491244252253 -0.0508788689834 0.948 2.34979241315e-38
0.0508788689834 -0.0508788689834 0.948 2.35018856022e-38
-0.0157067132643 -0.0488653301556 0.943 1.98900528234e-38
-0.0139615229016 -0.0488653301556 0.943 1.96141918064e-38
-0.0122163325389 -0.0488653301556 0.943 1.94297977441e-38
-0.0104378299529 -0.0487098731137 0.94 2.00744510896e-38
-0.00869819162745 -0.0487098731137 0.94 1.99818967274e-38
-0.00694374786941 -0.0486062350858 0.938 2.09042117584e-38
-0.00520781090205 -0.0486062350858 0.938 2.10875240183e-38
-0.00346076986028 -0.048450778044 0.935 2.21009402651e-38
-0.001726683572 -0.0483471400161 0.933 2.11793314885e-38
0.0 -0.0483471400161 0.933 2.24729219489e-38
0.00172113153479 -0.0481916829742 0.93 2.21038213347e-38
0.00344226306959 -0.0481916829742 0.93 2.28424877942e-38
0.00516339460438 -0.0481916829742 0.93 2.17386317446e-38
0.00688452613918 -0.0481916829742 0.93 2.15560425547e-38
0.00858715088327 -0.0480880449463 0.928 2.15588913944e-38
0.0103045810599 -0.0480880449463 0.928 2.09156757811e-38
0.0120220112366 -0.0480880449463 0.928 2.06398147641e-38
0.0137394414132 -0.0480880449463 0.928 1.97178710772e-38
0.0154568715899 -0.0480880449463 0.928 2.11922542629e-38
0.0171743017665 -0.0480880449463 0.928 2.14695375979e-38
0.0188917319432 -0.0480880449463 0.928 2.11915339955e-38
0.0206091621199 -0.0480880449463 0.928 2.22964592359e-38
0.0223265922965 -0.0480880449463 0.928 2.32166330829e-38
0.0240440224732 -0.0480880449463 0.928 2.34932381894e-38
0.0258169730219 -0.0481916829742 0.93 2.34921689987e-38
0.0275381045567 -0.0481916829742 0.93 2.34903683301e-38
0.0293536207241 -0.0483471400161 0.933 2.34917976546e-38
0.0310803042961 -0.0483471400161 0.933 2.34892767186e-38
0.0328773136727 -0.048450778044 0.935 2.34903683301e-38
0.0346076986028 -0.048450778044 0.935 2.34932353868e-38
0.036338083533 -0.048450778044 0.935 2.34885578525e-38
0.0381906132817 -0.0486062350858 0.938 2.34943199918e-38
0.0399265502491 -0.0486062350858 0.938 2.34925487505e-38
0.0417513198118 -0.0487098731137 0.94 2.34925753752e-38
0.0436297590675 -0.0488653301556 0.943 2.3492907483e-38
0.0455193023976 -0.0490207871974 0.946 2.34957605266e-38
0.0473699814673 -0.0491244252253 0.948 2.349755559e-38
0.0491244252253 -0.0491244252253 0.948 2.34997233987e-38
0.0508788689834 -0.0491244252253 0.948 2.35029884241e-38
-0.0175074239991 -0.0472700447975 0.946 1.74911713836e-38
-0.0157566815992 -0.0472700447975 0.946 2.0164832038e-38
-0.0140059391993 -0.0472700447975 0.946 1.99822498546e-38
-0.0122163325389 -0.0471201397929 0.943 1.94312326737e-38
-0.0104711421762 -0.0471201397929 0.943 2.07212624348e-38
-0.0087259518135 -0.0471201397929 0.943 2.03521099725e-38
-0.00695855330196 -0.0469702347883 0.94 2.0442876278e-38
-0.00521891497647 -0.0469702347883 0.94 2.05343670547e-38
-0.0034718739347 -0.0468702981185 0.938 2.24697424027e-38
-0.00173038493014 -0.0467203931138 0.935 2.14559337924e-38
0.0 -0.0466204564441 0.933 2.15502818167e-38
0.001726683572 -0.0466204564441 0.933 2.19187112089e-38
0.00344226306959 -0.0464705514394 0.93 2.21041996853e-38
0.00516339460438 -0.0464705514394 0.93 2.22878622699e-38
0.00688452613918 -0.0464705514394 0.93 2.31161964168e-38
0.00860565767397 -0.0464705514394 0.93 2.33934937647e-38
0.0103267892088 -0.0464705514394 0.93 2.33009295933e-38
0.0120479207436 -0.0464705514394 0.93 2.34849677259e-38
0.0137690522784 -0.0464705514394 0.93 2.34881963175e-38
0.0154568715899 -0.0463706147697 0.928 2.34874928657e-38
0.0171743017665 -0.0463706147697 0.928 2.34856907959e-38
0.0188917319432 -0.0463706147697 0.928 2.34874788527e-38
0.0206091621199 -0.0463706147697 0.928 2.34878333812e-38
0.0223747099523 -0.0464705514394 0.93 2.34864068594e-38
0.0240958414871 -0.0464705514394 0.93 2.34882243435e-38
0.0258169730219 -0.0464705514394 0.93 2.34856781842e-38
0.027626937152 -0.0466204564441 0.933 2.34838943312e-38
0.0294165438124 -0.0467203931138 0.935 2.34921479792e-38
0.0311469287426 -0.0467203931138 0.935 2.34874844579e-38
0.0328773136727 -0.0467203931138 0.935 2.34896522666e-38
0.0346076986028 -0.0467203931138 0.935 2.3489996986e-38
0.0364546763144 -0.0468702981185 0.938 2.34907032405e-38
0.0381906132817 -0.0468702981185 0.938 2.34917878455e-38
0.0400116814863 -0.0469702347883 0.94 2.34932606102e-38
0.0418845687048 -0.0471201397929 0.943 2.34928864635e-38
0.0436297590675 -0.0471201397929 0.943 2.34910871962e-38
0.0455193023976 -0.0472700447975 0.946 2.34932704193e-38
0.0473699814673 -0.0473699814673 0.948 2.34961500876e-38
0.0491244252253 -0.0473699814673 0.948 2.35008262206e-38
0.0508788689834 -0.0473699814673 0.948 2.3500461883e-38
-0.0194617410967 -0.0460004789557 0.956 2.34968633485e-38
-0.0175444375805 -0.0456155377093 0.948 1.82280147538e-38
-0.0157899938224 -0.0456155377093 0.948 1.95194598263e-38
-0.0140059391993 -0.0455193023976 0.946 1.99829392934e-38
-0.0122551967994 -0.0455193023976 0.946 1.91521346573e-38
-0.0104711421762 -0.0453749494302 0.943 2.01663118092e-38
-0.0087259518135 -0.0453749494302 0.943 2.01662963949e-38
-0.00695855330196 -0.0452305964628 0.94 2.11800853871e-38
-0.00521891497647 -0.0452305964628 0.94 2.07205239505e-38
-0.0034718739347 -0.0451343611511 0.938 2.1826891127e-38
-0.00173038493014 -0.0449900081837 0.935 2.17335996818e-38
0.0 -0.0449900081837 0.935 2.14562897222e-38
0.00173038493014 -0.0449900081837 0.935 2.24718681725e-38
0.00345336714401 -0.0448937728721 0.933 2.21953037037e-38
0.00518005071601 -0.0448937728721 0.933 2.25640834205e-38
0.00690673428801 -0.0448937728721 0.933 2.24708115935e-38
0.00863341786002 -0.0448937728721 0.933 2.31154593338e-38
0.010360101432 -0.0448937728721 0.933 2.34845935792e-38
0.012086785004 -0.0448937728721 0.933 2.34842446558e-38
0.013813468576 -0.0448937728721 0.933 2.34849677259e-38
0.0154901838131 -0.0447494199046 0.93 2.34896508653e-38
0.0172113153479 -0.0447494199046 0.93 2.34846145986e-38
0.0189324468827 -0.0447494199046 0.93 2.34863984516e-38
0.0206535784175 -0.0447494199046 0.93 2.34867697957e-38
0.0223747099523 -0.0447494199046 0.93 2.34878389864e-38
0.0240958414871 -0.0447494199046 0.93 2.34889305979e-38
0.02590025358 -0.0448937728721 0.933 2.34910759859e-38
0.027626937152 -0.0448937728721 0.933 2.34899815718e-38
0.0294165438124 -0.0449900081837 0.935 2.34910731833e-38
0.0311469287426 -0.0449900081837 0.935 2.34889390057e-38
0.0328773136727 -0.0449900081837 0.935 2.34932381894e-38
0.0346076986028 -0.0449900081837 0.935 2.3490358521e-38
0.0364546763144 -0.0451343611511 0.938 2.34925067116e-38
0.0382720431608 -0.0452305964628 0.94 2.34910843937e-38
0.0401393783421 -0.0453749494302 0.943 2.34939710685e-38
0.0418845687048 -0.0453749494302 0.943 2.34939514503e-38
0.0437685599977 -0.0455193023976 0.946 2.34928878648e-38
0.0455193023976 -0.0455193023976 0.946 2.34921802091e-38
0.0473699814673 -0.0456155377093 0.948 2.34947123554e-38
0.0491244252253 -0.0456155377093 0.948 2.35018926087e-38
0.0508788689834 -0.0456155377093 0.948 2.34986584119e-38
-0.0194617410967 -0.0442312297651 0.956 2.34989975261e-38
-0.0176924919061 -0.0442312297651 0.956 1.85993013936e-38
-0.0157899938224 -0.0438610939512 0.948 1.97956907861e-38
-0.0140355500644 -0.0438610939512 0.948 1.98896870845e-38
-0.0122551967994 -0.0437685599977 0.946 1.93365301209e-38
-0.0105044543995 -0.0437685599977 0.946 2.00737420326e-38
-0.00875371199954 -0.0437685599977 0.946 2.02595640181e-38
-0.0069807614508 -0.0436297590675 0.943 2.09049278219e-38
-0.0052355710881 -0.0436297590675 0.943 2.13654953908e-38
-0.0034718739347 -0.0433984241838 0.938 2.15488356767e-38
-0.00173593696735 -0.0433984241838 0.938 2.2561559682e-38
0.0 -0.0432596232536 0.935 2.21009402651e-38
0.00173038493014 -0.0432596232536 0.935 2.21009500742e-38
0.00346076986028 -0.0432596232536 0.935 2.28388752468e-38
0.00519115479043 -0.0432596232536 0.935 2.17321745612e-38
0.00692153972057 -0.0432596232536 0.935 2.32987771989e-38
0.00865192465071 -0.0432596232536 0.935 2.31147166456e-38
0.0103823095809 -0.0432596232536 0.935 2.34878445916e-38
0.012086785004 -0.0431670893001 0.933 2.25637302933e-38
0.013813468576 -0.0431670893001 0.933 2.34842544649e-38
0.0154901838131 -0.0430282883699 0.93 2.31169026712e-38
0.0172113153479 -0.0430282883699 0.93 2.34889277953e-38
0.0189324468827 -0.0430282883699 0.93 2.3483850891e-38
0.0206535784175 -0.0430282883699 0.93 2.34896564705e-38
0.022446886436 -0.0431670893001 0.933 2.34853320635e-38
0.024173570008 -0.0431670893001 0.933 2.34882187383e-38
0.02590025358 -0.0431670893001 0.933 2.34860425218e-38
0.027626937152 -0.0431670893001 0.933 2.34917738325e-38
0.0294165438124 -0.0432596232536 0.935 2.34921774065e-38
0.0311469287426 -0.0432596232536 0.935 2.34878572033e-38
0.0328773136727 -0.0432596232536 0.935 2.3488564859e-38
0.034718739347 -0.0433984241838 0.938 2.34925263298e-38
0.0364546763144 -0.0433984241838 0.938 2.3489635451e-38
0.0382720431608 -0.0434909581373 0.94 2.34939766737e-38
0.0401393783421 -0.0436297590675 0.943 2.34910871962e-38
0.0418845687048 -0.0436297590675 0.943 2.34943368074e-38
0.0437685599977 -0.0437685599977 0.946 2.34957633292e-38
0.0456155377093 -0.0438610939512 0.948 2.34954003929e-38
0.0473699814673 -0.0438610939512 0.948 2.34957675331e-38
0.0491244252253 -0.0438610939512 0.948 2.34993870871e-38
0.0508788689834 -0.0438610939512 0.948 2.35022513411e-38
-0.0194617410967 -0.0424619805745 0.956 2.35008108063e-38
-0.0176924919061 -0.0424619805745 0.956 1.80457716846e-38
-0.0158399621573 -0.0422398990862 0.951 2.01626810448e-38
-0.0140355500644 -0.0421066501932 0.948 1.99818967274e-38
-0.0122551967994 -0.0420178175978 0.946 1.98904059506e-38
-0.0105044543995 -0.0420178175978 0.946 1.98918520906e-38
-0.00875371199954 -0.0420178175978 0.946 2.04450104555e-38
-0.0069807614508 -0.0418845687048 0.943 2.11818720426e-38
-0.0052355710881 -0.0418845687048 0.943 2.09971108401e-38
-0.00347927665098 -0.0417513198118 0.94 2.13630319081e-38
-0.00173593696735 -0.0416624872164 0.938 2.15470770471e-38
0.0 -0.0416624872164 0.938 2.21938561624e-38
0.00173593696735 -0.0416624872164 0.938 2.302398257e-38
0.0034718739347 -0.0416624872164 0.938 2.21945750285e-38
0.00519115479043 -0.0415292383234 0.935 2.27456006171e-38
0.00692153972057 -0.0415292383234 0.935 2.32987771989e-38
0.00865192465071 -0.0415292383234 0.935 2.28388752468e-38
0.0103823095809 -0.0415292383234 0.935 2.29303674248e-38
0.012112694511 -0.0415292383234 0.935 2.34899955847e-38
0.0138430794411 -0.0415292383234 0.935 2.34896200368e-38
0.015540152148 -0.0414404057281 0.933 2.33016582685e-38
0.01726683572 -0.0414404057281 0.933 2.33913385677e-38
0.018993519292 -0.0414404057281 0.933 2.34864068594e-38
0.020720202864 -0.0414404057281 0.933 2.34864194711e-38
0.022446886436 -0.0414404057281 0.933 2.34896620757e-38
0.024173570008 -0.0414404057281 0.933 2.34875152865e-38
0.02590025358 -0.0414404057281 0.933 2.34867908152e-38
0.0276861588823 -0.0415292383234 0.935 2.34878544007e-38
0.0294165438124 -0.0415292383234 0.935 2.349144733e-38
0.0311469287426 -0.0415292383234 0.935 2.34914319157e-38
0.0329828023797 -0.0416624872164 0.938 2.34932143673e-38
0.034718739347 -0.0416624872164 0.938 2.34917934507e-38
0.0365324048353 -0.0417513198118 0.94 2.34928878648e-38
0.0383941879794 -0.0418845687048 0.943 2.34907424768e-38
0.0401393783421 -0.0418845687048 0.943 2.34936193426e-38
0.0420178175978 -0.0420178175978 0.946 2.34958011643e-38
0.0437685599977 -0.0420178175978 0.946 2.34943424126e-38
0.0456155377093 -0.0421066501932 0.948 2.34972010614e-38
0.0473699814673 -0.0421066501932 0.948 2.34939724698e-38
0.0492798822672 -0.0422398990862 0.951 2.35033485578e-38
0.0510398780625 -0.0422398990862 0.951 2.35026366982e-38
-0.019522813506 -0.0408204282397 0.959 2.35033653734e-38
-0.0176924919061 -0.0406927313839 0.956 1.78613958392e-38
-0.0158899304922 -0.0406076001467 0.954 2.01641033628e-38
-0.0140799663621 -0.0404799032909 0.951 1.98890004483e-38
-0.0122811063063 -0.0403522064351 0.948 2.00744510896e-38
-0.0105044543995 -0.0402670751979 0.946 2.01673655856e-38
-0.00875371199954 -0.0402670751979 0.946 2.07205337596e-38
-0.0069807614508 -0.0401393783421 0.943 2.13655374297e-38
-0.0052355710881 -0.0401393783421 0.943 2.18257953116e-38
-0.00347927665098 -0.0400116814863 0.94 2.10871708911e-38
-0.00173593696735 -0.0399265502491 0.938 2.20105565142e-38
0.0 -0.0399265502491 0.938 2.20109096414e-38
0.00173593696735 -0.0399265502491 0.938 2.27481187505e-38
0.0034718739347 -0.0399265502491 0.938 2.24711647207e-38
0.00519115479043 -0.0397988533933 0.935 2.34853222544e-38
0.00692153972057 -0.0397988533933 0.935 2.31161781999e-38
0.00865192465071 -0.0397988533933 0.935 2.23771936457e-38
0.0103823095809 -0.0397988533933 0.935 2.34849761336e-38
0.012112694511 -0.0397988533933 0.935 2.34863942477e-38
0.0138430794411 -0.0397988533933 0.935 2.34881977188e-38
0.015540152148 -0.0397137221561 0.933 2.34867894139e-38
0.01726683572 -0.0397137221561 0.933 2.34860509296e-38
0.018993519292 -0.0397137221561 0.933 2.34853474777e-38
0.0207646191617 -0.0397988533933 0.935 2.34856978024e-38
0.0224950040919 -0.0397988533933 0.935 2.34874970696e-38
0.024225389022 -0.0397988533933 0.935 2.34878515981e-38
0.0259557739521 -0.0397988533933 0.935 2.34857132166e-38
0.0276861588823 -0.0397988533933 0.935 2.34885858785e-38
0.0294165438124 -0.0397988533933 0.935 2.34921689987e-38
0.0311469287426 -0.0397988533933 0.935 2.34925123168e-38
0.0329828023797 -0.0399265502491 0.938 2.34918060624e-38
0.034718739347 -0.0399265502491 0.938 2.34925375402e-38
0.0365324048353 -0.0400116814863 0.94 2.34910829924e-38
0.0383941879794 -0.0401393783421 0.943 2.34921675974e-38
0.0402670751979 -0.0402670751979 0.946 2.34925151194e-38
0.0420178175978 -0.0402670751979 0.946 2.34957689344e-38
0.0438610939512 -0.0403522064351 0.948 2.34946997437e-38
0.0456155377093 -0.0403522064351 0.948 2.34943298009e-38
0.0475198864719 -0.0404799032909 0.951 2.34975808133e-38
0.0492798822672 -0.0404799032909 0.951 2.34993968961e-38
0.0510398780625 -0.0404799032909 0.951 2.35026647242e-38
-0.0194617410967 -0.0389234821933 0.956 2.34968479342e-38
-0.0176924919061 -0.0389234821933 0.956 1.82301601418e-38
-0.0158899304922 -0.0388420523143 0.954 2.00722776757e-38
-0.0140799663621 -0.0387199074957 0.951 1.98893507729e-38
-0.0123199705668 -0.0387199074957 0.951 1.96138232649e-38
-0.0105266625483 -0.0385977626771 0.948 2.06269158118e-38
-0.00875371199954 -0.038516332798 0.946 2.07212624348e-38
-0.00700296959964 -0.038516332798 0.946 2.13651871051e-38
-0.0052355710881 -0.0383941879794 0.943 2.04410980302e-38
-0.00347927665098 -0.0382720431608 0.94 2.2378265639e-38
-0.00173963832549 -0.0382720431608 0.94 2.09964101909e-38
0.0 -0.0381906132817 0.938 2.2009837648e-38
0.00173593696735 -0.0381906132817 0.938 2.21938715767e-38
0.0034718739347 -0.0381906132817 0.938 2.23789690908e-38
0.00520781090205 -0.0381906132817 0.938 2.30232819208e-38
0.00692153972057 -0.0380684684631 0.935 2.28417815398e-38
0.00865192465071 -0.0380684684631 0.935 2.33012953322e-38
0.0103823095809 -0.0380684684631 0.935 2.34838929299e-38
0.012112694511 -0.0380684684631 0.935 2.34835215858e-38
0.0138430794411 -0.0380684684631 0.935 2.34846131973e-38
0.0155734643713 -0.0380684684631 0.935 2.34860313114e-38
0.0173038493014 -0.0380684684631 0.935 2.34889277953e-38
0.0190342342316 -0.0380684684631 0.935 2.34867641905e-38
0.0207646191617 -0.0380684684631 0.935 2.34878501968e-38
0.0224950040919 -0.0380684684631 0.935 2.34864138659e-38
0.024225389022 -0.0380684684631 0.935 2.34896270432e-38
0.0259557739521 -0.0380684684631 0.935 2.34889502161e-38
0.0276861588823 -0.0380684684631 0.935 2.34882103305e-38
0.0294165438124 -0.0380684684631 0.935 2.34928836609e-38
0.0311469287426 -0.0380684684631 0.935 2.34899843744e-38
0.0329828023797 -0.0381906132817 0.938 2.34928780557e-38
0.034718739347 -0.0381906132817 0.938 2.34922068337e-38
0.0365324048353 -0.0382720431608 0.94 2.34932493998e-38
0.0383941879794 -0.0383941879794 0.943 2.34943283996e-38
0.0402670751979 -0.038516332798 0.946 2.34896676809e-38
0.0420178175978 -0.038516332798 0.946 2.34954031955e-38
0.0438610939512 -0.0385977626771 0.948 2.34918228779e-38
0.0457598906767 -0.0387199074957 0.951 2.34925487505e-38
0.0475198864719 -0.0387199074957 0.951 2.34968605459e-38
0.0491244252253 -0.0385977626771 0.948 2.35015296724e-38
0.0508788689834 -0.0385977626771 0.948 2.35008290232e-38
-0.0194617410967 -0.0371542330027 0.956 2.3499039565e-38
-0.0176924919061 -0.0371542330027 0.956 1.81368729004e-38
-0.0158899304922 -0.0370765044818 0.954 2.06232990604e-38
-0.0140799663621 -0.0369599117004 0.951 1.97035357939e-38
-0.0123199705668 -0.0369599117004 0.951 2.05339592768e-38
-0.0105266625483 -0.036843318919 0.948 2.0997129057e-38
-0.00877221879024 -0.036843318919 0.948 2.02610255724e-38
-0.00700296959964 -0.0367655903981 0.946 2.17339892427e-38
-0.00525222719973 -0.0367655903981 0.946 2.17328934273e-38
-0.0034903807254 -0.0366489976167 0.943 2.15488496896e-38
-0.00173963832549 -0.0365324048353 0.94 2.23768405184e-38
0.0 -0.0365324048353 0.94 2.31161810025e-38
0.00173593696735 -0.0364546763144 0.938 2.22864147285e-38
0.0034718739347 -0.0364546763144 0.938 2.34856557634e-38
0.00520781090205 -0.0364546763144 0.938 2.23779125118e-38
0.00694374786941 -0.0364546763144 0.938 2.31161936142e-38
0.00867968483676 -0.0364546763144 0.938 2.3023635048e-38
0.0103823095809 -0.036338083533 0.935 2.34849789362e-38
0.012112694511 -0.036338083533 0.935 2.3484973331e-38
0.0138874957388 -0.0364546763144 0.938 2.34867978216e-38
0.0155734643713 -0.036338083533 0.935 2.34871299294e-38
0.0173038493014 -0.036338083533 0.935 2.33913385677e-38
0.0190342342316 -0.036338083533 0.935 2.34889109797e-38
0.0207646191617 -0.036338083533 0.935 2.34867641905e-38
0.0224950040919 -0.036338083533 0.935 2.34864208724e-38
0.024225389022 -0.036338083533 0.935 2.34896550692e-38
0.0259557739521 -0.036338083533 0.935 2.3487494267e-38
0.0276861588823 -0.036338083533 0.935 2.34882061266e-38
0.029510928445 -0.0364546763144 0.938 2.34875068787e-38
0.0312468654123 -0.0364546763144 0.938 2.34900194068e-38
0.0329828023797 -0.0364546763144 0.938 2.34907396742e-38
0.0347927665098 -0.0365324048353 0.94 2.349144733e-38
0.0366489976167 -0.0366489976167 0.943 2.34921507818e-38
0.038516332798 -0.0367655903981 0.946 2.34903809418e-38
0.0402670751979 -0.0367655903981 0.946 2.34965074187e-38
0.0421066501932 -0.036843318919 0.948 2.34950430618e-38
0.0438610939512 -0.036843318919 0.948 2.34946899346e-38
0.0457598906767 -0.0369599117004 0.951 2.3494701145e-38
0.0475198864719 -0.0369599117004 0.951 2.3500114361e-38
0.0491244252253 -0.036843318919 0.948 2.35051296082e-38
0.0508788689834 -0.036843318919 0.948 2.35026254878e-38
-0.0194617410967 -0.0353849838121 0.956 2.34936095335e-38
-0.0176924919061 -0.0353849838121 0.956 1.83198348357e-38
-0.0158899304922 -0.0353109566493 0.954 2.05328606589e-38
-0.0141243826597 -0.0353109566493 0.954 1.98893339573e-38
-0.0123199705668 -0.0351999159051 0.951 2.02577605469e-38
-0.0105599747715 -0.0351999159051 0.951 1.98911332245e-38
-0.00877221879024 -0.035088875161 0.948 1.98915045686e-38
-0.00701777503219 -0.035088875161 0.948 2.0997129057e-38
-0.00525222719973 -0.0350148479982 0.946 2.09956759105e-38
-0.00350148479982 -0.0350148479982 0.946 2.14548674042e-38
-0.0017451903627 -0.034903807254 0.943 2.19162084898e-38
0.0 -0.0347927665098 0.94 2.2009837648e-38
0.00173963832549 -0.0347927665098 0.94 2.24697550144e-38
0.0034718739347 -0.034718739347 0.938 2.23786159636e-38
0.00520781090205 -0.034718739347 0.938 2.2931433813e-38
0.00694374786941 -0.034718739347 0.938 2.33916944975e-38
0.00867968483676 -0.034718739347 0.938 2.32987771989e-38
0.0103823095809 -0.0346076986028 0.935 2.34828027197e-38
0.012112694511 -0.0346076986028 0.935 2.3483165656e-38
0.0138874957388 -0.034718739347 0.938 2.34838592988e-38
0.0155734643713 -0.0346076986028 0.935 2.34838943312e-38
0.0173038493014 -0.0346076986028 0.935 2.34838985351e-38
0.0190342342316 -0.0346076986028 0.935 2.34871341333e-38
0.0207646191617 -0.0346076986028 0.935 2.34856921972e-38
0.0225671805756 -0.034718739347 0.938 2.34860677451e-38
0.0243031175429 -0.034718739347 0.938 2.34914501326e-38
0.0260390545103 -0.034718739347 0.938 2.34896298458e-38
0.0277749914776 -0.034718739347 0.938 2.34921227558e-38
0.029510928445 -0.034718739347 0.938 2.34907116483e-38
0.0312468654123 -0.034718739347 0.938 2.3491808865e-38
0.0330531281843 -0.0347927665098 0.94 2.3491095604e-38
0.0347927665098 -0.0347927665098 0.94 2.34943298009e-38
0.0367655903981 -0.0350148479982 0.946 2.34935927179e-38
0.038516332798 -0.0350148479982 0.946 2.34964835966e-38
0.0403522064351 -0.035088875161 0.948 2.34910984066e-38
0.0421066501932 -0.035088875161 0.948 2.34961430811e-38
0.0438610939512 -0.035088875161 0.948 2.34946717177e-38
0.0456155377093 -0.035088875161 0.948 2.34979437496e-38
0.0475198864719 -0.0351999159051 0.951 2.35008318258e-38
0.0491244252253 -0.035088875161 0.948 2.3505138016e-38
0.0508788689834 -0.035088875161 0.948 2.35051450224e-38
-0.0213642391803 -0.0338267120354 0.962 2.34964597746e-38
-0.019522813506 -0.0337212233285 0.959 2.34997191948e-38
-0.0176924919061 -0.0336157346215 0.956 1.90584984926e-38
-0.0158899304922 -0.0335454088169 0.954 2.00704798098e-38
-0.0141243826597 -0.0335454088169 0.954 1.97971509391e-38
-0.0123588348273 -0.0335454088169 0.954 2.04425259533e-38
-0.0105599747715 -0.0334399201099 0.951 2.00766160957e-38
-0.00877221879024 -0.0333344314029 0.948 2.03528526607e-38
-0.00701777503219 -0.0333344314029 0.948 2.0629438149e-38
-0.00526333127414 -0.0333344314029 0.948 2.1272624335e-38
-0.00350148479982 -0.0332641055983 0.946 2.15474133587e-38
-0.0017451903627 -0.0331586168913 0.943 2.20083859028e-38
0.0 -0.0331586168913 0.943 2.2193149908e-38
0.00173963832549 -0.0330531281843 0.94 2.28403199855e-38
0.00347927665098 -0.0330531281843 0.94 2.31161810025e-38
0.00520781090205 -0.0329828023797 0.938 2.26555573817e-38
0.00694374786941 -0.0329828023797 0.938 2.28381549794e-38
0.00867968483676 -0.0329828023797 0.938 2.34846131973e-38
0.0104156218041 -0.0329828023797 0.938 2.34846131973e-38
0.0121515587715 -0.0329828023797 0.938 2.34853320635e-38
0.0138874957388 -0.0329828023797 0.938 2.34838845221e-38
0.0156234327062 -0.0329828023797 0.938 2.34867683944e-38
0.0173593696735 -0.0329828023797 0.938 2.34849649233e-38
0.0190953066409 -0.0329828023797 0.938 2.34892977381e-38
0.0208312436082 -0.0329828023797 0.938 2.34860551335e-38
0.0225671805756 -0.0329828023797 0.938 2.34874830566e-38
0.0243031175429 -0.0329828023797 0.938 2.34914417248e-38
0.0260390545103 -0.0329828023797 0.938 2.34896382536e-38
0.0277749914776 -0.0329828023797 0.938 2.34878473942e-38
0.029510928445 -0.0329828023797 0.938 2.34932564063e-38
0.0312468654123 -0.0329828023797 0.938 2.34889362031e-38
0.0330531281843 -0.0330531281843 0.94 2.34918144702e-38
0.034903807254 -0.0331586168913 0.943 2.34921928207e-38
0.0367655903981 -0.0332641055983 0.946 2.349361654e-38
0.0385977626771 -0.0333344314029 0.948 2.34954088007e-38
0.0403522064351 -0.0333344314029 0.948 2.34936151387e-38
0.0421066501932 -0.0333344314029 0.948 2.34932620115e-38
0.0438610939512 -0.0333344314029 0.948 2.34986584119e-38
0.0456155377093 -0.0333344314029 0.948 2.34932634128e-38
0.0475198864719 -0.0334399201099 0.951 2.35012059725e-38
0.0491244252253 -0.0333344314029 0.948 2.35008192141e-38
0.0508788689834 -0.0333344314029 0.948 2.35055037548e-38
-0.0213642391803 -0.0320463587704 0.962 2.34907270625e-38
-0.019522813506 -0.0319464221007 0.959 2.34986472015e-38
-0.0177480122781 -0.0319464221007 0.959 1.89663028627e-38
-0.0159232427154 -0.0318464854309 0.956 2.03463660501e-38
-0.0141539935248 -0.0318464854309 0.956 2.00737420326e-38
-0.0123847443342 -0.0318464854309 0.956 2.06265682898e-38
-0.0105932869948 -0.0317798609844 0.954 2.03524799153e-38
-0.00879997897629 -0.0316799243146 0.951 2.06294353464e-38
-0.00701777503219 -0.0315799876449 0.948 2.05375900412e-38
-0.00526333127414 -0.0315799876449 0.948 2.11804259026e-38
-0.00350148479982 -0.0315133631984 0.946 2.20091075715e-38
-0.00175074239991 -0.0315133631984 0.946 2.23771656197e-38
0.0 -0.0314134265286 0.943 2.26548301078e-38
0.00173963832549 -0.0313134898588 0.94 2.33928057272e-38
0.00347927665098 -0.0313134898588 0.94 2.19154924263e-38
0.00521891497647 -0.0313134898588 0.94 2.34863984516e-38
0.00694374786941 -0.0312468654123 0.938 2.29310680741e-38
0.00867968483676 -0.0312468654123 0.938 2.34849565155e-38
0.0104156218041 -0.0312468654123 0.938 2.34839097455e-38
0.0121515587715 -0.0312468654123 0.938 2.34867908152e-38
0.0138874957388 -0.0312468654123 0.938 2.34842250377e-38
0.0156234327062 -0.0312468654123 0.938 2.34903683301e-38
0.0173593696735 -0.0312468654123 0.938 2.3487132732e-38
0.0190953066409 -0.0312468654123 0.938 2.34885662603e-38
0.0208312436082 -0.0312468654123 0.938 2.34878375851e-38
0.0225671805756 -0.0312468654123 0.938 2.34874900631e-38
0.0243031175429 -0.0312468654123 0.938 2.34889348018e-38
0.0260390545103 -0.0312468654123 0.938 2.34871635605e-38
0.0278342132079 -0.0313134898588 0.94 2.34918004572e-38
0.0295738515333 -0.0313134898588 0.94 2.34907172535e-38
0.0313134898588 -0.0313134898588 0.94 2.34910759859e-38
0.0331586168913 -0.0314134265286 0.943 2.34917920494e-38
0.034903807254 -0.0314134265286 0.943 2.34922124389e-38
0.0367655903981 -0.0315133631984 0.946 2.34921619922e-38
0.0385977626771 -0.0315799876449 0.948 2.34964835966e-38
0.0403522064351 -0.0315799876449 0.948 2.34932381894e-38
0.0421066501932 -0.0315799876449 0.948 2.3495396189e-38
0.0439998948814 -0.0316799243146 0.951 2.34982730548e-38
0.0459042436441 -0.0317798609844 0.954 2.34972080679e-38
0.0476697914766 -0.0317798609844 0.954 2.3501184953e-38
0.0494353393091 -0.0317798609844 0.954 2.35062198184e-38
-0.0213642391803 -0.0302660055054 0.962 2.34935997244e-38
-0.019522813506 -0.0301716208728 0.959 2.34986612144e-38
-0.0177480122781 -0.0301716208728 0.959 1.76752109174e-38
-0.0159732110503 -0.0301716208728 0.959 2.05314565578e-38
-0.0141984098225 -0.0301716208728 0.959 1.98893339573e-38
-0.0123847443342 -0.0300772362403 0.956 2.03510547948e-38
-0.0105932869948 -0.0300143131519 0.954 2.0076246153e-38
-0.00882773916233 -0.0300143131519 0.954 2.01680928595e-38
-0.00703998318103 -0.0299199285194 0.951 2.1274436214e-38
-0.00526333127414 -0.0298255438868 0.948 2.12736781115e-38
-0.0035088875161 -0.0298255438868 0.948 2.14552331431e-38
-0.00175074239991 -0.0297626207984 0.946 2.23771684223e-38
0.0 -0.0297626207984 0.946 2.21927827678e-38
0.00175074239991 -0.0297626207984 0.946 2.27448971653e-38
0.0034903807254 -0.0296682361659 0.943 2.2838852826e-38
0.0052355710881 -0.0296682361659 0.943 2.31154593338e-38
0.00695855330196 -0.0295738515333 0.94 2.32080263078e-38
0.00869819162745 -0.0295738515333 0.94 2.3299496065e-38
0.0104378299529 -0.0295738515333 0.94 2.34853390699e-38
0.0121515587715 -0.029510928445 0.938 2.34831768664e-38
0.0138874957388 -0.029510928445 0.938 2.34892921329e-38
0.0156234327062 -0.029510928445 0.938 2.34878347825e-38
0.0173593696735 -0.029510928445 0.938 2.34903515146e-38
0.0190953066409 -0.029510928445 0.938 2.34846089934e-38
0.0208312436082 -0.029510928445 0.938 2.34892851264e-38
0.0225671805756 -0.029510928445 0.938 2.34878473942e-38
0.0243031175429 -0.029510928445 0.938 2.34889235914e-38
0.0260390545103 -0.029510928445 0.938 2.34903655275e-38
0.0278342132079 -0.0295738515333 0.94 2.34903543172e-38
0.0295738515333 -0.0295738515333 0.94 2.34874816553e-38
0.0313134898588 -0.0295738515333 0.94 2.34900138016e-38
0.0331586168913 -0.0296682361659 0.943 2.34939248256e-38
0.0350148479982 -0.0297626207984 0.946 2.34918018585e-38
0.036843318919 -0.0298255438868 0.948 2.34954073994e-38
0.0385977626771 -0.0298255438868 0.948 2.34968353225e-38
0.0403522064351 -0.0298255438868 0.948 2.3491095604e-38
0.0422398990862 -0.0299199285194 0.951 2.34972192783e-38
0.0439998948814 -0.0299199285194 0.951 2.34986415963e-38
0.0459042436441 -0.0300143131519 0.954 2.35000821311e-38
0.0476697914766 -0.0300143131519 0.954 2.34993674689e-38
0.0494353393091 -0.0300143131519 0.954 2.35058722963e-38
-0.021541904371 -0.0287225391613 0.97 2.34921619922e-38
-0.0195838859153 -0.0284856522404 0.962 2.34968493355e-38
-0.0178035326502 -0.0284856522404 0.962 1.94294446169e-38
-0.0159732110503 -0.028396819645 0.959 2.01633971083e-38
-0.0141984098225 -0.028396819645 0.959 1.96120380107e-38
-0.0123847443342 -0.0283079870497 0.956 2.09960598662e-38
-0.0106154951436 -0.0283079870497 0.956 2.06286590271e-38
-0.00882773916233 -0.0282487653195 0.954 2.05361523089e-38
-0.00703998318103 -0.0281599327241 0.951 2.16432439568e-38
-0.00527998738577 -0.0281599327241 0.951 2.11818720426e-38
-0.0035088875161 -0.0280711001288 0.948 2.24697424027e-38
-0.00175074239991 -0.0280118783985 0.946 2.21942219013e-38
0.0 -0.0280118783985 0.946 2.24690165301e-38
0.00175074239991 -0.0280118783985 0.946 2.29289156796e-38
0.00350148479982 -0.0280118783985 0.946 2.30236168311e-38
0.00525222719973 -0.0280118783985 0.946 2.31165313271e-38
0.0069807614508 -0.0279230458032 0.943 2.34846047896e-38
0.0087259518135 -0.0279230458032 0.943 2.34838747131e-38
0.0104711421762 -0.0279230458032 0.943 2.34835047703e-38
0.0121774682784 -0.0278342132079 0.94 2.34835370001e-38
0.0139171066039 -0.0278342132079 0.94 2.34875194904e-38
0.0156567449294 -0.0278342132079 0.94 2.34853208531e-38
0.0173963832549 -0.0278342132079 0.94 2.34928752531e-38
0.0191360215804 -0.0278342132079 0.94 2.3490348712e-38
0.0208756599059 -0.0278342132079 0.94 2.34860579361e-38
0.0226152982314 -0.0278342132079 0.94 2.34875068787e-38
0.0243549365569 -0.0278342132079 0.94 2.34882131331e-38
0.0260945748824 -0.0278342132079 0.94 2.34885690629e-38
0.0279230458032 -0.0279230458032 0.943 2.34892963368e-38
0.0297626207984 -0.0280118783985 0.946 2.34914599416e-38
0.0315133631984 -0.0280118783985 0.946 2.34918228779e-38
0.0332641055983 -0.0280118783985 0.946 2.34903879483e-38
0.035088875161 -0.0280711001288 0.948 2.34950598774e-38
0.036843318919 -0.0280711001288 0.948 2.34928920687e-38
0.0387199074957 -0.0281599327241 0.951 2.34961528902e-38
0.0404799032909 -0.0281599327241 0.951 2.34968451316e-38
0.0423731479792 -0.0282487653195 0.954 2.34953947877e-38
0.0442312297651 -0.0283079870497 0.956 2.34957843487e-38
0.0461448319232 -0.028396819645 0.959 2.34968619472e-38
0.0477697281463 -0.0283079870497 0.956 2.35018715892e-38
0.049538977337 -0.0283079870497 0.956 2.35055177678e-38
-0.0195838859153 -0.0267052989754 0.962 2.34968815654e-38
-0.0178035326502 -0.0267052989754 0.962 1.81379869327e-38
-0.0160231793852 -0.0267052989754 0.962 2.06240319395e-38
-0.0141984098225 -0.0266220184172 0.959 1.96134757429e-38
-0.0124236085947 -0.0266220184172 0.959 1.97960817484e-38
-0.0106154951436 -0.0265387378591 0.956 1.98893479703e-38
-0.00882773916233 -0.026483217487 0.954 2.05361495063e-38
-0.00703998318103 -0.0263999369289 0.951 2.10889757635e-38
-0.00527998738577 -0.0263999369289 0.951 2.12736921245e-38
-0.0035088875161 -0.0263166563707 0.948 2.21942247039e-38
-0.00175444375805 -0.0263166563707 0.948 2.19165588145e-38
0.0 -0.0263166563707 0.948 2.30211281251e-38
0.00175074239991 -0.0262611359986 0.946 2.33905972808e-38
0.00350148479982 -0.0262611359986 0.946 2.3022925991e-38
0.00525222719973 -0.0262611359986 0.946 2.2193149908e-38
0.00700296959964 -0.0262611359986 0.946 2.33916944975e-38
0.0087259518135 -0.0261778554405 0.943 2.34842348468e-38
0.0104711421762 -0.0261778554405 0.943 2.3391325956e-38
0.0122163325389 -0.0261778554405 0.943 2.34846047896e-38
0.0139615229016 -0.0261778554405 0.943 2.34846159999e-38
0.0156567449294 -0.0260945748824 0.94 2.34885550499e-38
0.0173963832549 -0.0260945748824 0.94 2.34878263747e-38
0.0191970939897 -0.0261778554405 0.943 2.34871117125e-38
0.0209422843524 -0.0261778554405 0.943 2.34900081964e-38
0.0226874747151 -0.0261778554405 0.943 2.34907186548e-38
0.0244326650778 -0.0261778554405 0.943 2.34899955847e-38
0.0261778554405 -0.0261778554405 0.943 2.34907214573e-38
0.0280118783985 -0.0262611359986 0.946 2.3490010999e-38
0.0297626207984 -0.0262611359986 0.946 2.34900278146e-38
0.0315799876449 -0.0263166563707 0.948 2.34903781392e-38
0.0333344314029 -0.0263166563707 0.948 2.3491818674e-38
0.035088875161 -0.0263166563707 0.948 2.34914613429e-38
0.0369599117004 -0.0263999369289 0.951 2.3489663477e-38
0.0388420523143 -0.026483217487 0.954 2.34953905838e-38
0.0406076001467 -0.026483217487 0.954 2.34968269148e-38
0.0423731479792 -0.026483217487 0.954 2.34964976096e-38
0.0442312297651 -0.0265387378591 0.956 2.34979311379e-38
0.0461448319232 -0.0266220184172 0.959 2.34950752917e-38
0.047919633151 -0.0266220184172 0.959 2.3503326137e-38
-0.021541904371 -0.0251322217661 0.97 2.34903529159e-38
-0.0196856732641 -0.0250544932452 0.967 2.34957661318e-38
-0.0178035326502 -0.0249249457103 0.962 1.89677532066e-38
-0.0160231793852 -0.0249249457103 0.962 1.97031434303e-38
-0.0142428261202 -0.0249249457103 0.962 1.98911094024e-38
-0.0124236085947 -0.0248472171894 0.959 2.04425105391e-38
-0.0106154951436 -0.0247694886685 0.956 2.09964073883e-38
-0.00884624595303 -0.0247694886685 0.956 2.06283087025e-38
-0.00706219132986 -0.0247176696545 0.954 2.07198022818e-38
-0.00527998738577 -0.0246399411336 0.951 2.24711465038e-38
-0.00351999159051 -0.0246399411336 0.951 2.20094606988e-38
-0.00175444375805 -0.0245622126127 0.948 2.20098348454e-38
0.0 -0.0245622126127 0.948 2.25619520456e-38
0.00175444375805 -0.0245622126127 0.948 2.2837420699e-38
0.0035088875161 -0.0245622126127 0.948 2.34860074893e-38
0.00525222719973 -0.0245103935987 0.946 2.30243384999e-38
0.00700296959964 -0.0245103935987 0.946 2.34842712805e-38
0.00875371199954 -0.0245103935987 0.946 2.34870962982e-38
0.0105044543995 -0.0245103935987 0.946 2.34842376494e-38
0.0122551967994 -0.0245103935987 0.946 2.34878501968e-38
0.0139615229016 -0.0244326650778 0.943 2.34860509296e-38
0.0157067132643 -0.0244326650778 0.943 2.34903781392e-38
0.017451903627 -0.0244326650778 0.943 2.34914361196e-38
0.0191970939897 -0.0244326650778 0.943 2.3486771197e-38
