# .PCD v0.7 - Point Cloud Data file format
VERSION 0.7
FIELDS x y z rgb
SIZE 4 4 4 4
TYPE F F F F
COUNT 1 1 1 1
WIDTH 841
HEIGHT 1
VIEWPOINT 0 0 0 1 0 0 0
POINTS 841
DATA ascii
-0.0017026247441 -0.0425656186024 0.92 2.26566265724e-38
0.0 -0.0425656186024 0.92 2.24751303953e-38
0.00170817678131 -0.0427044195327 0.923 2.23847312301e-38
0.00341635356261 -0.0427044195327 0.923 2.25712510622e-38
0.00510787423229 -0.0425656186024 0.92 2.17418561323e-38
0.00681049897639 -0.0425656186024 0.92 2.24808701138e-38
0.00851312372049 -0.0425656186024 0.92 2.19280494619e-38
0.0101935403157 -0.042473084649 0.918 2.34017474127e-38
0.0118924637017 -0.042473084649 0.918 2.20180954999e-38
0.0136209979528 -0.0425656186024 0.92 2.34932115647e-38
0.0153236226969 -0.0425656186024 0.92 2.26612956989e-38
0.017026247441 -0.0425656186024 0.92 2.34935829088e-38
0.0187288721851 -0.0425656186024 0.92 2.34917934507e-38
0.0204981213757 -0.0427044195327 0.923 2.34928990752e-38
0.022206298157 -0.0427044195327 0.923 2.3494325597e-38
0.0239662939522 -0.0427969534861 0.925 2.34921591896e-38
0.0256781720917 -0.0427969534861 0.925 2.34907088457e-38
0.0273900502311 -0.0427969534861 0.925 2.34914361196e-38
0.0291019283706 -0.0427969534861 0.925 2.34914375209e-38
0.0309137431798 -0.0429357544164 0.928 2.34892921329e-38
0.0327014991611 -0.0430282883699 0.93 2.34936333556e-38
0.0345336714401 -0.0431670893001 0.933 2.34953975903e-38
0.0362603550121 -0.0431670893001 0.933 2.34939556542e-38
0.0380684684631 -0.0432596232536 0.935 2.34950556735e-38
0.0399265502491 -0.0433984241838 0.938 2.34975836159e-38
0.0416624872164 -0.0433984241838 0.938 2.34990297559e-38
-0.0297626207984 -0.0420178175978 0.946 2.34921619922e-38
-0.0280118783985 -0.0420178175978 0.946 2.35008037998e-38
-0.0261778554405 -0.0418845687048 0.943 1.73078759393e-38
-0.0243549365569 -0.0417513198118 0.94 1.91517535041e-38
-0.0226152982314 -0.0417513198118 0.94 1.97989403973e-38
-0.0208312436082 -0.0416624872164 0.938 2.03524743101e-38
-0.0190342342316 -0.0415292383234 0.935 1.98929268866e-38
-0.01726683572 -0.0414404057281 0.933 2.04450286724e-38
-0.0154901838131 -0.0413071568351 0.93 2.04435769272e-38
-0.0137394414132 -0.0412183242397 0.928 2.08120161285e-38
-0.0120220112366 -0.0412183242397 0.928 2.20094845208e-38
-0.0102712688367 -0.0410850753467 0.925 2.13655374297e-38
-0.00855939069723 -0.0410850753467 0.925 2.13648185636e-38
-0.00683270712523 -0.0409962427514 0.923 2.31183361995e-38
-0.00512453034392 -0.0409962427514 0.923 2.2287496531e-38
-0.00341635356261 -0.0409962427514 0.923 2.21024200363e-38
-0.00170817678131 -0.0409962427514 0.923 2.28392634065e-38
0.0 -0.0409962427514 0.923 2.32094528296e-38
0.00170817678131 -0.0409962427514 0.923 2.339491328e-38
0.00340524948819 -0.0408629938583 0.92 2.23797089764e-38
0.00510787423229 -0.0408629938583 0.92 2.34860411205e-38
0.00681049897639 -0.0408629938583 0.92 2.3484611796e-38
0.00851312372049 -0.0408629938583 0.92 2.34871257255e-38
0.0102157484646 -0.0408629938583 0.92 2.34842222351e-38
0.0119183732087 -0.0408629938583 0.92 2.34885718655e-38
0.0136209979528 -0.0408629938583 0.92 2.34867655918e-38
0.0153236226969 -0.0408629938583 0.92 2.34882117318e-38
0.017026247441 -0.0408629938583 0.92 2.34885564512e-38
0.0187899445944 -0.0409962427514 0.923 2.34885522473e-38
0.0205425376733 -0.0410850753467 0.925 2.34878600059e-38
0.0222544158128 -0.0410850753467 0.925 2.34900166042e-38
0.0239662939522 -0.0410850753467 0.925 2.34882187383e-38
0.0256781720917 -0.0410850753467 0.925 2.34903837444e-38
0.0273900502311 -0.0410850753467 0.925 2.34903683301e-38
0.0291963130031 -0.0412183242397 0.928 2.34928906674e-38
0.0309803676263 -0.0413071568351 0.93 2.34925221259e-38
0.0328069878681 -0.0414404057281 0.933 2.34921619922e-38
0.0346076986028 -0.0415292383234 0.935 2.34932479985e-38
0.036338083533 -0.0415292383234 0.935 2.34943241957e-38
0.0380684684631 -0.0415292383234 0.935 2.34936053296e-38
0.0397988533933 -0.0415292383234 0.935 2.34990199469e-38
0.0415292383234 -0.0415292383234 0.935 2.35004744947e-38
-0.0297626207984 -0.0402670751979 0.946 2.34911012092e-38
-0.0279230458032 -0.0401393783421 0.943 2.34979339405e-38
-0.0261778554405 -0.0401393783421 0.943 1.83219872301e-38
-0.0244326650778 -0.0401393783421 0.943 1.86904390432e-38
-0.0226874747151 -0.0401393783421 0.943 1.95216276351e-38
-0.0208312436082 -0.0399265502491 0.938 1.97067405635e-38
-0.0190342342316 -0.0397988533933 0.935 2.03524799153e-38
-0.0173038493014 -0.0397988533933 0.935 2.05379697931e-38
-0.015540152148 -0.0397137221561 0.933 2.0445378997e-38
-0.0137690522784 -0.0395860253003 0.93 2.11815245206e-38
-0.0120220112366 -0.0395008940631 0.928 2.10871736937e-38
-0.0102712688367 -0.0393731972073 0.925 2.14573981493e-38
-0.00855939069723 -0.0393731972073 0.925 2.15499314921e-38
-0.00683270712523 -0.03928806597 0.923 2.27484746803e-38
-0.00512453034392 -0.03928806597 0.923 2.21945722259e-38
-0.00341635356261 -0.03928806597 0.923 2.22857168819e-38
-0.00170817678131 -0.03928806597 0.923 2.26552196688e-38
0.0 -0.03928806597 0.923 2.22871434037e-38
0.00170817678131 -0.03928806597 0.923 2.34892837251e-38
0.00340524948819 -0.0391603691142 0.92 2.23807655554e-38
0.00510787423229 -0.0391603691142 0.92 2.34863998529e-38
0.00681049897639 -0.0391603691142 0.92 2.34835398027e-38
0.00851312372049 -0.0391603691142 0.92 2.34828153314e-38
0.0102157484646 -0.0391603691142 0.92 2.34878389864e-38
0.0119183732087 -0.0391603691142 0.92 2.34896214381e-38
0.0136209979528 -0.0391603691142 0.92 2.34899815718e-38
0.0153236226969 -0.0391603691142 0.92 2.34864068594e-38
0.0170817678131 -0.03928806597 0.923 2.34856921972e-38
0.0188306595339 -0.0393731972073 0.925 2.3490358521e-38
0.0205425376733 -0.0393731972073 0.925 2.34867978216e-38
0.0222544158128 -0.0393731972073 0.925 2.34899983873e-38
0.0240440224732 -0.0395008940631 0.928 2.34878572033e-38
0.0257614526498 -0.0395008940631 0.928 2.34896858978e-38
0.0274788828265 -0.0395008940631 0.928 2.34910843937e-38
0.0292592360915 -0.0395860253003 0.93 2.34914263105e-38
0.0310803042961 -0.0397137221561 0.933 2.34921619922e-38
0.0328773136727 -0.0397988533933 0.935 2.34947053489e-38
0.0346076986028 -0.0397988533933 0.935 2.34936277504e-38
0.036338083533 -0.0397988533933 0.935 2.34950808969e-38
0.0380684684631 -0.0397988533933 0.935 2.34957605266e-38
0.0397137221561 -0.0397137221561 0.933 2.34957983617e-38
0.0414404057281 -0.0397137221561 0.933 2.35019164308e-38
0.0431670893001 -0.0397137221561 0.933 2.3499738813e-38
-0.0315133631984 -0.038516332798 0.946 2.34914417248e-38
-0.0296682361659 -0.0383941879794 0.943 2.34929004765e-38
-0.0279230458032 -0.0383941879794 0.943 2.34993814819e-38
-0.0261778554405 -0.0383941879794 0.943 1.80457744872e-38
-0.0244326650778 -0.0383941879794 0.943 1.94290760754e-38
-0.0226874747151 -0.0383941879794 0.943 1.94319487372e-38
-0.0208312436082 -0.0381906132817 0.938 2.01666439169e-38
-0.0190953066409 -0.0381906132817 0.938 1.97067405635e-38
-0.0173038493014 -0.0380684684631 0.935 2.08134580646e-38
-0.015540152148 -0.0379870385841 0.933 2.01691452346e-38
-0.0137690522784 -0.0378648937655 0.93 2.2287496531e-38
-0.0120220112366 -0.0377834638864 0.928 1.99819023325e-38
-0.0102712688367 -0.0376613190678 0.925 2.21034948322e-38
-0.00855939069723 -0.0376613190678 0.925 2.1275492793e-38
-0.00684751255778 -0.0376613190678 0.925 2.17335996818e-38
-0.00513563441834 -0.0376613190678 0.925 2.32087493778e-38
-0.00341635356261 -0.0375798891887 0.923 2.34871397385e-38
-0.00170817678131 -0.0375798891887 0.923 2.24715304596e-38
0.0 -0.0375798891887 0.923 2.28395913103e-38
0.00170817678131 -0.0375798891887 0.923 2.34860495283e-38
0.00341635356261 -0.0375798891887 0.923 2.33938412867e-38
0.00512453034392 -0.0375798891887 0.923 2.3485686592e-38
0.00683270712523 -0.0375798891887 0.923 2.34885718655e-38
0.00854088390653 -0.0375798891887 0.923 2.34842390507e-38
0.0102490606878 -0.0375798891887 0.923 2.34863732282e-38
0.0119572374691 -0.0375798891887 0.923 2.34867445723e-38
0.0136654142505 -0.0375798891887 0.923 2.34885662603e-38
0.0153735910318 -0.0375798891887 0.923 2.34885522473e-38
0.0171187813945 -0.0376613190678 0.925 2.34885690629e-38
0.0188306595339 -0.0376613190678 0.925 2.34864138659e-38
0.0206091621199 -0.0377834638864 0.928 2.34900124003e-38
0.0223265922965 -0.0377834638864 0.928 2.34899745653e-38
0.0240440224732 -0.0377834638864 0.928 2.34928920687e-38
0.0257614526498 -0.0377834638864 0.928 2.34875040761e-38
0.0274788828265 -0.0377834638864 0.928 2.34928878648e-38
0.0293536207241 -0.0379870385841 0.933 2.3493964062e-38
0.0310803042961 -0.0379870385841 0.933 2.34946801255e-38
0.0328773136727 -0.0380684684631 0.935 2.3493602527e-38
0.0346076986028 -0.0380684684631 0.935 2.34964681824e-38
0.036338083533 -0.0380684684631 0.935 2.34939570555e-38
0.0380684684631 -0.0380684684631 0.935 2.3496494807e-38
0.0397137221561 -0.0379870385841 0.933 2.34986752274e-38
0.0414404057281 -0.0379870385841 0.933 2.3501546488e-38
0.0431670893001 -0.0379870385841 0.933 2.35004674882e-38
-0.0315133631984 -0.0367655903981 0.946 2.34917892468e-38
-0.0296682361659 -0.0366489976167 0.943 2.34929004765e-38
-0.0279230458032 -0.0366489976167 0.943 2.34968661511e-38
-0.0261778554405 -0.0366489976167 0.943 1.79517781888e-38
-0.0244326650778 -0.0366489976167 0.943 1.93365105027e-38
-0.0226874747151 -0.0366489976167 0.943 1.915427444e-38
-0.0208756599059 -0.0365324048353 0.94 2.02598989284e-38
-0.0190953066409 -0.0364546763144 0.938 2.0535425035e-38
-0.0173038493014 -0.036338083533 0.935 2.07205393648e-38
-0.015540152148 -0.0362603550121 0.933 2.07212428166e-38
-0.0137690522784 -0.0361437622307 0.93 2.13644710416e-38
-0.0120220112366 -0.0360660337097 0.928 2.21034682075e-38
-0.0102712688367 -0.0359494409284 0.925 2.18290295085e-38
-0.00855939069723 -0.0359494409284 0.925 2.12751424684e-38
-0.00684751255778 -0.0359494409284 0.925 2.28403171829e-38
-0.00513563441834 -0.0359494409284 0.925 2.24711647207e-38
-0.00342375627889 -0.0359494409284 0.925 2.21016409143e-38
-0.00171187813945 -0.0359494409284 0.925 2.34853194518e-38
0.0 -0.0359494409284 0.925 2.33919985792e-38
0.00171187813945 -0.0359494409284 0.925 2.33931378349e-38
0.00342375627889 -0.0359494409284 0.925 2.34856837894e-38
0.00512453034392 -0.0358717124074 0.923 2.34853278596e-38
0.00683270712523 -0.0358717124074 0.923 2.34853474777e-38
0.00854088390653 -0.0358717124074 0.923 2.34867655918e-38
0.0102490606878 -0.0358717124074 0.923 2.34875124839e-38
0.0119572374691 -0.0358717124074 0.923 2.34867725983e-38
0.0136950251156 -0.0359494409284 0.925 2.34860747516e-38
0.015406903255 -0.0359494409284 0.925 2.34860565348e-38
0.0171187813945 -0.0359494409284 0.925 2.34863984516e-38
0.0188917319432 -0.0360660337097 0.928 2.34903627249e-38
0.0206091621199 -0.0360660337097 0.928 2.34896466614e-38
0.0223265922965 -0.0360660337097 0.928 2.34907270625e-38
0.0240440224732 -0.0360660337097 0.928 2.34921718013e-38
0.0257614526498 -0.0360660337097 0.928 2.34885718655e-38
0.0275381045567 -0.0361437622307 0.93 2.3489273916e-38
0.0293536207241 -0.0362603550121 0.933 2.349144733e-38
0.0311469287426 -0.036338083533 0.935 2.34936053296e-38
0.0328773136727 -0.036338083533 0.935 2.34939654633e-38
0.0346076986028 -0.036338083533 0.935 2.34943087814e-38
0.036338083533 -0.036338083533 0.935 2.34953863799e-38
0.0380684684631 -0.036338083533 0.935 2.34943592282e-38
0.0397988533933 -0.036338083533 0.935 2.35012087751e-38
0.0415292383234 -0.036338083533 0.935 2.3500461883e-38
-0.0315133631984 -0.0350148479982 0.946 2.34921886168e-38
-0.0297626207984 -0.0350148479982 0.946 2.34928878648e-38
-0.0279230458032 -0.034903807254 0.943 2.34997318065e-38
-0.0261778554405 -0.034903807254 0.943 1.8504951968e-38
-0.0244326650778 -0.034903807254 0.943 1.97017056981e-38
-0.0226874747151 -0.034903807254 0.943 1.99822498546e-38
-0.0209422843524 -0.034903807254 0.943 1.97975068689e-38
-0.0191360215804 -0.0347927665098 0.94 2.06243976784e-38
-0.0173593696735 -0.034718739347 0.938 2.0256338229e-38
-0.0155734643713 -0.0346076986028 0.935 2.10893260881e-38
-0.013813468576 -0.0345336714401 0.933 2.06276220662e-38
-0.0120479207436 -0.0344226306959 0.93 2.15506349439e-38
-0.0103045810599 -0.0343486035331 0.928 2.12751424684e-38
-0.00858715088327 -0.0343486035331 0.928 2.15492280402e-38
-0.00686972070662 -0.0343486035331 0.928 2.25630268415e-38
-0.00513563441834 -0.0342375627889 0.925 2.33927875103e-38
-0.00342375627889 -0.0342375627889 0.925 2.21009500742e-38
-0.00171187813945 -0.0342375627889 0.925 2.30221875067e-38
0.0 -0.0342375627889 0.925 2.34842390507e-38
0.00171187813945 -0.0342375627889 0.925 2.302398257e-38
0.00342375627889 -0.0342375627889 0.925 2.3299496065e-38
0.00513563441834 -0.0342375627889 0.925 2.34842460571e-38
0.00684751255778 -0.0342375627889 0.925 2.3487132732e-38
0.00855939069723 -0.0342375627889 0.925 2.33934937647e-38
0.0102712688367 -0.0342375627889 0.925 2.3485700605e-38
0.0119831469761 -0.0342375627889 0.925 2.34860509296e-38
0.0136950251156 -0.0342375627889 0.925 2.34900124003e-38
0.015406903255 -0.0342375627889 0.925 2.34871397385e-38
0.0171187813945 -0.0342375627889 0.925 2.34878600059e-38
0.0188917319432 -0.0343486035331 0.928 2.34896564705e-38
0.0206091621199 -0.0343486035331 0.928 2.3487855802e-38
0.0223265922965 -0.0343486035331 0.928 2.34889418083e-38
0.0240440224732 -0.0343486035331 0.928 2.34903781392e-38
0.0257614526498 -0.0343486035331 0.928 2.34921535844e-38
0.0275381045567 -0.0344226306959 0.93 2.3496119259e-38
0.0293536207241 -0.0345336714401 0.933 2.34932592089e-38
0.0311469287426 -0.0346076986028 0.935 2.349361654e-38
0.0328773136727 -0.0346076986028 0.935 2.34950402592e-38
0.0346076986028 -0.0346076986028 0.935 2.34972108705e-38
0.036338083533 -0.0346076986028 0.935 2.34961122525e-38
0.0380684684631 -0.0346076986028 0.935 2.35004534752e-38
0.0399265502491 -0.034718739347 0.938 2.34968633485e-38
0.0416624872164 -0.034718739347 0.938 2.35011961634e-38
-0.0315133631984 -0.0332641055983 0.946 2.34932718206e-38
-0.0297626207984 -0.0332641055983 0.946 2.34946955398e-38
-0.0279230458032 -0.0331586168913 0.943 2.34990087365e-38
-0.0261778554405 -0.0331586168913 0.943 1.85063812925e-38
-0.0244326650778 -0.0331586168913 0.943 1.98868172252e-38
-0.0226874747151 -0.0331586168913 0.943 1.97975012637e-38
-0.0209422843524 -0.0331586168913 0.943 2.07198022818e-38
-0.0191360215804 -0.0330531281843 0.94 2.02577633495e-38
-0.0173593696735 -0.0329828023797 0.938 2.18254618026e-38
-0.0155734643713 -0.0328773136727 0.935 2.05368585634e-38
-0.013813468576 -0.0328069878681 0.933 2.0997129057e-38
-0.0120479207436 -0.0327014991611 0.93 2.17350612361e-38
-0.0103267892088 -0.0327014991611 0.93 2.15510034854e-38
-0.00858715088327 -0.0326311733564 0.928 2.16403474729e-38
-0.00686972070662 -0.0326311733564 0.928 2.191585256e-38
-0.00515229052996 -0.0326311733564 0.928 2.3391325956e-38
-0.00343486035331 -0.0326311733564 0.928 2.30221819015e-38
-0.00171187813945 -0.0325256846495 0.925 2.24700927274e-38
0.0 -0.0325256846495 0.925 2.32987743963e-38
0.00171187813945 -0.0325256846495 0.925 2.34882145344e-38
0.00342375627889 -0.0325256846495 0.925 2.34853152479e-38
0.00513563441834 -0.0325256846495 0.925 2.34892711134e-38
0.00684751255778 -0.0325256846495 0.925 2.34849621207e-38
0.00855939069723 -0.0325256846495 0.925 2.34864068594e-38
0.0102712688367 -0.0325256846495 0.925 2.34853544842e-38
0.0119831469761 -0.0325256846495 0.925 2.3487855802e-38
0.0136950251156 -0.0325256846495 0.925 2.34864152672e-38
0.015406903255 -0.0325256846495 0.925 2.34874970696e-38
0.0171743017665 -0.0326311733564 0.928 2.34874970696e-38
0.0188917319432 -0.0326311733564 0.928 2.34878768215e-38
0.0206535784175 -0.0327014991611 0.93 2.34896606744e-38
0.0223747099523 -0.0327014991611 0.93 2.34914445274e-38
0.0240958414871 -0.0327014991611 0.93 2.3490734069e-38
0.0258169730219 -0.0327014991611 0.93 2.34900180055e-38
0.027626937152 -0.0328069878681 0.933 2.34914417248e-38
0.0293536207241 -0.0328069878681 0.933 2.34925151194e-38
0.0311469287426 -0.0328773136727 0.935 2.34921647948e-38
0.0329828023797 -0.0329828023797 0.938 2.34961150551e-38
0.034718739347 -0.0329828023797 0.938 2.34957815461e-38
0.0364546763144 -0.0329828023797 0.938 2.34968577433e-38
0.0381906132817 -0.0329828023797 0.938 2.34982870678e-38
0.0399265502491 -0.0329828023797 0.938 2.34997416156e-38
0.0416624872164 -0.0329828023797 0.938 2.35011863543e-38
-0.0315133631984 -0.0315133631984 0.946 2.34921816103e-38
-0.0296682361659 -0.0314134265286 0.943 2.34925389415e-38
-0.0279230458032 -0.0314134265286 0.943 2.35004324557e-38
-0.0261778554405 -0.0314134265286 0.943 1.79546326338e-38
-0.0244326650778 -0.0314134265286 0.943 2.03499407625e-38
-0.0226874747151 -0.0314134265286 0.943 1.93354315029e-38
-0.0210089087989 -0.0315133631984 0.946 2.05347005637e-38
-0.0191970939897 -0.0314134265286 0.943 2.00748014142e-38
-0.0173963832549 -0.0313134898588 0.94 2.02581360949e-38
-0.0156234327062 -0.0312468654123 0.938 2.08116601987e-38
-0.0138430794411 -0.0311469287426 0.935 2.18268518907e-38
-0.012112694511 -0.0311469287426 0.935 2.17343395674e-38
-0.0103267892088 -0.0309803676263 0.93 2.15499314921e-38
-0.00860565767397 -0.0309803676263 0.93 2.18247387326e-38
-0.00686972070662 -0.0309137431798 0.928 2.24693920781e-38
-0.00515229052996 -0.0309137431798 0.928 2.256121216e-38
-0.00343486035331 -0.0309137431798 0.928 2.34846047896e-38
-0.00171743017665 -0.0309137431798 0.928 2.32072794157e-38
0.0 -0.0309137431798 0.928 2.3485644553e-38
0.00171187813945 -0.03081380651 0.925 2.34860873633e-38
0.00342375627889 -0.03081380651 0.925 2.34827620821e-38
0.00513563441834 -0.03081380651 0.925 2.34881949162e-38
0.00684751255778 -0.03081380651 0.925 2.3209450027e-38
0.00855939069723 -0.03081380651 0.925 2.34860229036e-38
0.0102712688367 -0.03081380651 0.925 2.34878810254e-38
0.0119831469761 -0.03081380651 0.925 2.34874914644e-38
0.0136950251156 -0.03081380651 0.925 2.34896410562e-38
0.015406903255 -0.03081380651 0.925 2.34910871962e-38
0.0171743017665 -0.0309137431798 0.928 2.34903529159e-38
0.0188917319432 -0.0309137431798 0.928 2.34889362031e-38
0.0206535784175 -0.0309803676263 0.93 2.349144733e-38
0.0223747099523 -0.0309803676263 0.93 2.3489287929e-38
0.0240958414871 -0.0309803676263 0.93 2.34889362031e-38
0.0258169730219 -0.0309803676263 0.93 2.34896662796e-38
0.027626937152 -0.0310803042961 0.933 2.34946478956e-38
0.0294165438124 -0.0311469287426 0.935 2.34921591896e-38
0.0312468654123 -0.0312468654123 0.938 2.34925305337e-38
0.0329828023797 -0.0312468654123 0.938 2.34932662154e-38
0.034718739347 -0.0312468654123 0.938 2.34947067502e-38
0.0364546763144 -0.0312468654123 0.938 2.34957745396e-38
0.0381906132817 -0.0312468654123 0.938 2.34993660676e-38
0.0399265502491 -0.0312468654123 0.938 2.34993646663e-38
-0.0296682361659 -0.0296682361659 0.943 2.34893117511e-38
-0.0279230458032 -0.0296682361659 0.943 2.34982842652e-38
-0.0261778554405 -0.0296682361659 0.943 1.89688041805e-38
-0.0244326650778 -0.0296682361659 0.943 1.99804379756e-38
-0.0226874747151 -0.0296682361659 0.943 2.00744328727e-38
-0.0210089087989 -0.0297626207984 0.946 2.01644761082e-38
-0.0191970939897 -0.0296682361659 0.943 2.12729886727e-38
-0.0173963832549 -0.0295738515333 0.94 1.98914989634e-38
-0.0156234327062 -0.029510928445 0.938 2.0903505504e-38
-0.0138874957388 -0.029510928445 0.938 2.20101879727e-38
-0.012112694511 -0.0294165438124 0.935 2.17350430192e-38
-0.010360101432 -0.0293536207241 0.933 2.20109096414e-38
-0.00863341786002 -0.0293536207241 0.933 2.29311087117e-38
-0.00688452613918 -0.0292592360915 0.93 2.23779125118e-38
-0.00516339460438 -0.0292592360915 0.93 2.28413765646e-38
-0.00344226306959 -0.0292592360915 0.93 2.30229105767e-38
-0.00171743017665 -0.0291963130031 0.928 2.32991247209e-38
0.0 -0.0291963130031 0.928 2.3114380334e-38
0.00171743017665 -0.0291963130031 0.928 2.34828279431e-38
0.00343486035331 -0.0291963130031 0.928 2.34838817195e-38
0.00515229052996 -0.0291963130031 0.928 2.34853264583e-38
0.00686972070662 -0.0291963130031 0.928 2.34874858592e-38
0.00858715088327 -0.0291963130031 0.928 2.34863942477e-38
0.0103045810599 -0.0291963130031 0.928 2.34878544007e-38
0.0120220112366 -0.0291963130031 0.928 2.34903627249e-38
0.0137394414132 -0.0291963130031 0.928 2.34892865277e-38
0.0154568715899 -0.0291963130031 0.928 2.34903767379e-38
0.0171743017665 -0.0291963130031 0.928 2.3491433317e-38
0.0188917319432 -0.0291963130031 0.928 2.34864152672e-38
0.0206535784175 -0.0292592360915 0.93 2.3491818674e-38
0.0223747099523 -0.0292592360915 0.93 2.34899941834e-38
0.0240958414871 -0.0292592360915 0.93 2.3492156387e-38
0.0258169730219 -0.0292592360915 0.93 2.3491457139e-38
0.027626937152 -0.0293536207241 0.933 2.34943157879e-38
0.0294165438124 -0.0294165438124 0.935 2.3494325597e-38
0.0312468654123 -0.029510928445 0.938 2.34950444631e-38
0.0329828023797 -0.029510928445 0.938 2.34968409277e-38
0.0347927665098 -0.0295738515333 0.94 2.34960912331e-38
0.0365324048353 -0.0295738515333 0.94 2.3498987717e-38
0.0382720431608 -0.0295738515333 0.94 2.35000947428e-38
0.0400116814863 -0.0295738515333 0.94 2.35008220167e-38
-0.0279230458032 -0.0279230458032 0.943 2.34989989274e-38
-0.0261778554405 -0.0279230458032 0.943 1.88780757101e-38
-0.0244326650778 -0.0279230458032 0.943 1.98871703525e-38
-0.0226874747151 -0.0279230458032 0.943 1.99822498546e-38
-0.0210089087989 -0.0280118783985 0.946 1.98893311547e-38
-0.0191970939897 -0.0279230458032 0.943 2.04421574119e-38
-0.0173963832549 -0.0278342132079 0.94 2.1272638348e-38
-0.0156567449294 -0.0278342132079 0.94 2.109002954e-38
-0.0138874957388 -0.0277749914776 0.938 2.05347173793e-38
-0.012112694511 -0.0276861588823 0.935 2.20105719284e-38
-0.0103823095809 -0.0276861588823 0.935 2.16417767973e-38
-0.00863341786002 -0.027626937152 0.933 2.12712132275e-38
-0.00690673428801 -0.027626937152 0.933 2.32998730143e-38
-0.00518005071601 -0.027626937152 0.933 2.26573160113e-38
-0.00344226306959 -0.0275381045567 0.93 2.31147586846e-38
-0.00172113153479 -0.0275381045567 0.93 2.32069290911e-38
0.0 -0.0275381045567 0.93 2.34853278596e-38
0.00172113153479 -0.0275381045567 0.93 2.34842390507e-38
0.00344226306959 -0.0275381045567 0.93 2.34856795855e-38
0.00516339460438 -0.0275381045567 0.93 2.34867347632e-38
0.00688452613918 -0.0275381045567 0.93 2.34871033047e-38
0.00858715088327 -0.0274788828265 0.928 2.34864026555e-38
0.0103045810599 -0.0274788828265 0.928 2.34860411205e-38
0.0120479207436 -0.0275381045567 0.93 2.34860663439e-38
0.0137690522784 -0.0275381045567 0.93 2.34874816553e-38
0.0154901838131 -0.0275381045567 0.93 2.34907312664e-38
0.0172113153479 -0.0275381045567 0.93 2.34921507818e-38
0.0189324468827 -0.0275381045567 0.93 2.34925095142e-38
0.0206535784175 -0.0275381045567 0.93 2.34885592538e-38
0.022446886436 -0.027626937152 0.933 2.34903837444e-38
0.024173570008 -0.027626937152 0.933 2.34910843937e-38
0.0259557739521 -0.0276861588823 0.935 2.34928920687e-38
0.0276861588823 -0.0276861588823 0.935 2.3491095604e-38
0.029510928445 -0.0277749914776 0.938 2.34921802091e-38
0.0313134898588 -0.0278342132079 0.94 2.34950640813e-38
0.0331586168913 -0.0279230458032 0.943 2.34932508011e-38
0.0350148479982 -0.0280118783985 0.946 2.3500100348e-38
0.0367655903981 -0.0280118783985 0.946 2.3497203864e-38
0.0385977626771 -0.0280711001288 0.948 2.34997416156e-38
0.0406076001467 -0.0282487653195 0.954 2.35040604174e-38
-0.0280118783985 -0.0262611359986 0.946 2.34997248e-38
-0.0262611359986 -0.0262611359986 0.946 1.98922024152e-38
-0.0244326650778 -0.0261778554405 0.943 1.95180305019e-38
-0.0226874747151 -0.0261778554405 0.943 1.96145239142e-38
-0.0210089087989 -0.0262611359986 0.946 2.04435797298e-38
-0.0191970939897 -0.0261778554405 0.943 2.00751517389e-38
-0.017451903627 -0.0261778554405 0.943 2.02588423493e-38
-0.0156567449294 -0.0260945748824 0.94 2.09967731272e-38
-0.0138874957388 -0.0260390545103 0.938 2.10893232855e-38
-0.0121515587715 -0.0260390545103 0.938 2.17332465546e-38
-0.0103823095809 -0.0259557739521 0.935 2.17325459053e-38
-0.00865192465071 -0.0259557739521 0.935 2.25637274907e-38
-0.00690673428801 -0.02590025358 0.933 2.24697550144e-38
-0.00518005071601 -0.02590025358 0.933 2.3299496065e-38
-0.00345336714401 -0.02590025358 0.933 2.31154621364e-38
-0.00172113153479 -0.0258169730219 0.93 2.32994932624e-38
0.0 -0.0258169730219 0.93 2.34871299294e-38
0.00172113153479 -0.0258169730219 0.93 2.33930985985e-38
0.00344226306959 -0.0258169730219 0.93 2.34860411205e-38
0.00516339460438 -0.0258169730219 0.93 2.34860495283e-38
0.00688452613918 -0.0258169730219 0.93 2.34874830566e-38
0.00860565767397 -0.0258169730219 0.93 2.34842544649e-38
0.0103267892088 -0.0258169730219 0.93 2.34889179862e-38
0.0120479207436 -0.0258169730219 0.93 2.34871285281e-38
0.0137690522784 -0.0258169730219 0.93 2.34871257255e-38
0.0154901838131 -0.0258169730219 0.93 2.3488217337e-38
0.0172113153479 -0.0258169730219 0.93 2.34903809418e-38
0.0189324468827 -0.0258169730219 0.93 2.34935857114e-38
0.020720202864 -0.02590025358 0.933 2.34885396356e-38
0.022446886436 -0.02590025358 0.933 2.34914417248e-38
0.024225389022 -0.0259557739521 0.935 2.34917976546e-38
0.0259557739521 -0.0259557739521 0.935 2.34932367881e-38
0.0277749914776 -0.0260390545103 0.938 2.34943171892e-38
0.0295738515333 -0.0260945748824 0.94 2.34947137567e-38
0.0314134265286 -0.0261778554405 0.943 2.349433961e-38
0.0332641055983 -0.0262611359986 0.946 2.34954031955e-38
0.0350148479982 -0.0262611359986 0.946 2.34972220809e-38
0.036843318919 -0.0263166563707 0.948 2.34972388965e-38
0.0387199074957 -0.0263999369289 0.951 2.35008220167e-38
0.0406076001467 -0.026483217487 0.954 2.34986570106e-38
-0.0280118783985 -0.0245103935987 0.946 2.34986149716e-38
-0.0262611359986 -0.0245103935987 0.946 1.95223493038e-38
-0.0244326650778 -0.0244326650778 0.943 1.99775807281e-38
-0.0226874747151 -0.0244326650778 0.943 2.05372397166e-38
-0.0210089087989 -0.0245103935987 0.946 2.00765992802e-38
-0.019258166399 -0.0245103935987 0.946 2.02599115401e-38
-0.017451903627 -0.0244326650778 0.943 2.06272717416e-38
-0.0156567449294 -0.0243549365569 0.94 2.11804385143e-38
-0.0138874957388 -0.0243031175429 0.938 2.1272638348e-38
-0.0121515587715 -0.0243031175429 0.938 2.200873903e-38
-0.0104156218041 -0.0243031175429 0.938 2.22860644039e-38
-0.00865192465071 -0.024225389022 0.935 2.19183608843e-38
-0.00692153972057 -0.024225389022 0.935 2.22878524608e-38
-0.00519115479043 -0.024225389022 0.935 2.34849607194e-38
-0.00346076986028 -0.024225389022 0.935 2.28395913103e-38
-0.001726683572 -0.024173570008 0.933 2.3114755882e-38
0.0 -0.024173570008 0.933 2.34867739996e-38
0.001726683572 -0.024173570008 0.933 2.34860369166e-38
0.00345336714401 -0.024173570008 0.933 2.34860411205e-38
0.00518005071601 -0.024173570008 0.933 2.34860411205e-38
0.00690673428801 -0.024173570008 0.933 2.34860453244e-38
0.00860565767397 -0.0240958414871 0.93 2.34878600059e-38
0.0103267892088 -0.0240958414871 0.93 2.34860509296e-38
0.012086785004 -0.024173570008 0.933 2.34871425411e-38
0.013813468576 -0.024173570008 0.933 2.34874984709e-38
0.015540152148 -0.024173570008 0.933 2.34907396742e-38
0.01726683572 -0.024173570008 0.933 2.34896438588e-38
0.018993519292 -0.024173570008 0.933 2.34889319992e-38
0.020720202864 -0.024173570008 0.933 2.34914417248e-38
0.0224950040919 -0.024225389022 0.935 2.34925277311e-38
0.024225389022 -0.024225389022 0.935 2.349433961e-38
0.0259557739521 -0.024225389022 0.935 2.3491433317e-38
0.0277749914776 -0.0243031175429 0.938 2.34931975517e-38
0.0295738515333 -0.0243549365569 0.94 2.34950612787e-38
0.0315133631984 -0.0245103935987 0.946 2.34953975903e-38
0.0332641055983 -0.0245103935987 0.946 2.34950430618e-38
0.035088875161 -0.0245622126127 0.948 2.35018771944e-38
0.0369599117004 -0.0246399411336 0.951 2.34972192783e-38
0.0388420523143 -0.0247176696545 0.954 2.35011751439e-38
0.0406927313839 -0.0247694886685 0.956 2.35022681567e-38
0.0425952294675 -0.0248472171894 0.959 2.35051422198e-38
-0.0262611359986 -0.0227596511988 0.946 1.98011040021e-38
-0.0245103935987 -0.0227596511988 0.946 1.98846522191e-38
-0.0227596511988 -0.0227596511988 0.946 1.92457792298e-38
-0.0210533250966 -0.0228077688546 0.948 2.01680928595e-38
-0.019258166399 -0.0227596511988 0.946 1.98914891543e-38
-0.0175074239991 -0.0227596511988 0.946 2.0535425035e-38
-0.0157067132643 -0.0226874747151 0.943 2.10871288521e-38
-0.0139171066039 -0.0226152982314 0.94 2.15477959132e-38
-0.0121515587715 -0.0225671805756 0.938 2.21935058378e-38
-0.0104156218041 -0.0225671805756 0.938 2.2193135895e-38
-0.00867968483676 -0.0225671805756 0.938 2.26552098597e-38
-0.00692153972057 -0.0224950040919 0.935 2.27488278075e-38
-0.00519115479043 -0.0224950040919 0.935 2.2746675413e-38
-0.00346076986028 -0.0224950040919 0.935 2.31158152636e-38
-0.001726683572 -0.022446886436 0.933 2.34856851907e-38
0.0 -0.022446886436 0.933 2.34860215023e-38
0.001726683572 -0.022446886436 0.933 2.3486757184e-38
0.00345336714401 -0.022446886436 0.933 2.34874816553e-38
0.00518005071601 -0.022446886436 0.933 2.34885774707e-38
0.00690673428801 -0.022446886436 0.933 2.34889137823e-38
0.00863341786002 -0.022446886436 0.933 2.34860425218e-38
0.010360101432 -0.022446886436 0.933 2.3490734069e-38
0.012086785004 -0.022446886436 0.933 2.34889151836e-38
0.013813468576 -0.022446886436 0.933 2.3489273916e-38
0.015540152148 -0.022446886436 0.933 2.34886082993e-38
0.01726683572 -0.022446886436 0.933 2.34910984066e-38
0.0190342342316 -0.0224950040919 0.935 2.34925361389e-38
0.0207646191617 -0.0224950040919 0.935 2.34914375209e-38
0.0224950040919 -0.0224950040919 0.935 2.34917976546e-38
0.024225389022 -0.0224950040919 0.935 2.34918060624e-38
0.0260390545103 -0.0225671805756 0.938 2.34921647948e-38
0.0278342132079 -0.0226152982314 0.94 2.34918060624e-38
0.0296682361659 -0.0226874747151 0.943 2.34939696672e-38
0.0315133631984 -0.0227596511988 0.946 2.34932241764e-38
0.0332641055983 -0.0227596511988 0.946 2.34954256163e-38
0.035088875161 -0.0228077688546 0.948 2.35008009972e-38
0.0369599117004 -0.0228799453383 0.951 2.34972150744e-38
0.0388420523143 -0.0229521218221 0.954 2.35008248193e-38
0.0406927313839 -0.0230002394779 0.956 2.35026268891e-38
0.0425952294675 -0.0230724159616 0.959 2.35058779015e-38
-0.0263166563707 -0.0210533250966 0.948 2.01669970441e-38
-0.0245103935987 -0.0210089087989 0.946 1.97002581568e-38
-0.0227596511988 -0.0210089087989 0.946 1.92450603636e-38
-0.0210533250966 -0.0210533250966 0.948 2.06269158118e-38
-0.019258166399 -0.0210089087989 0.946 2.11818748452e-38
-0.0175074239991 -0.0210089087989 0.946 1.98907828999e-38
-0.0157067132643 -0.0209422843524 0.943 2.20098404506e-38
-0.0139615229016 -0.0209422843524 0.943 2.11797420689e-38
-0.0121774682784 -0.0208756599059 0.94 2.16407006001e-38
-0.0104378299529 -0.0208756599059 0.94 2.30236140285e-38
-0.00867968483676 -0.0208312436082 0.938 2.13644808507e-38
-0.00692153972057 -0.0207646191617 0.935 2.26562790504e-38
-0.00519115479043 -0.0207646191617 0.935 2.29317841376e-38
-0.00346076986028 -0.0207646191617 0.935 2.3299496065e-38
-0.001726683572 -0.020720202864 0.933 2.31133111433e-38
0.0 -0.020720202864 0.933 2.34845963818e-38
0.001726683572 -0.020720202864 0.933 2.34849747323e-38
0.00345336714401 -0.020720202864 0.933 2.34863970503e-38
0.00518005071601 -0.020720202864 0.933 2.34845753623e-38
0.00690673428801 -0.020720202864 0.933 2.34881879097e-38
0.00863341786002 -0.020720202864 0.933 2.34896396549e-38
0.010360101432 -0.020720202864 0.933 2.34874900631e-38
0.012086785004 -0.020720202864 0.933 2.34892977381e-38
0.013813468576 -0.020720202864 0.933 2.34874830566e-38
0.015540152148 -0.020720202864 0.933 2.34907424768e-38
0.0173038493014 -0.0207646191617 0.935 2.34903571197e-38
0.0190342342316 -0.0207646191617 0.935 2.34921297623e-38
0.0207646191617 -0.0207646191617 0.935 2.3493226979e-38
0.0224950040919 -0.0207646191617 0.935 2.34935773036e-38
0.0243031175429 -0.0208312436082 0.938 2.34914431261e-38
0.0260390545103 -0.0208312436082 0.938 2.34932634128e-38
0.0278342132079 -0.0208756599059 0.94 2.34975639978e-38
0.0296682361659 -0.0209422843524 0.943 2.34910984066e-38
0.0315133631984 -0.0210089087989 0.946 2.34968507368e-38
0.0332641055983 -0.0210089087989 0.946 2.34950542722e-38
0.035088875161 -0.0210533250966 0.948 2.34968773615e-38
0.0369599117004 -0.0211199495431 0.951 2.34990241508e-38
0.0388420523143 -0.0211865739896 0.954 2.35001115584e-38
0.0408204282397 -0.0212976147338 0.959 2.35033331435e-38
0.0427284783606 -0.0213642391803 0.962 2.35069400858e-38
-0.0263166563707 -0.0192988813385 0.948 1.99797345238e-38
-0.0245622126127 -0.0192988813385 0.948 1.98860899513e-38
-0.0228077688546 -0.0192988813385 0.948 2.0074448287e-38
-0.0210533250966 -0.0192988813385 0.948 2.05361551115e-38
-0.0192988813385 -0.0192988813385 0.948 2.0167015261e-38
-0.0175074239991 -0.019258166399 0.946 2.05358019843e-38
-0.0157566815992 -0.019258166399 0.946 2.13651899077e-38
-0.0139615229016 -0.0191970939897 0.943 2.13662562958e-38
-0.0121774682784 -0.0191360215804 0.94 2.10893260881e-38
-0.0104378299529 -0.0191360215804 0.94 2.22864203337e-38
-0.00867968483676 -0.0190953066409 0.938 2.26559259232e-38
-0.00694374786941 -0.0190953066409 0.938 2.31186865242e-38
-0.00519115479043 -0.0190342342316 0.935 2.2839927622e-38
-0.00346076986028 -0.0190342342316 0.935 2.30225336274e-38
-0.00173038493014 -0.0190342342316 0.935 2.34885662603e-38
0.0 -0.0190342342316 0.935 2.34864068594e-38
0.001726683572 -0.018993519292 0.933 2.34846075921e-38
0.00345336714401 -0.018993519292 0.933 2.34885592538e-38
0.00518005071601 -0.018993519292 0.933 2.34882019227e-38
0.00690673428801 -0.018993519292 0.933 2.34874970696e-38
0.00863341786002 -0.018993519292 0.933 2.34860495283e-38
0.010360101432 -0.018993519292 0.933 2.3490734069e-38
0.012112694511 -0.0190342342316 0.935 2.34896410562e-38
0.0138430794411 -0.0190342342316 0.935 2.34885844772e-38
0.0155734643713 -0.0190342342316 0.935 2.34889390057e-38
0.0173038493014 -0.0190342342316 0.935 2.34921605909e-38
0.0190342342316 -0.0190342342316 0.935 2.34907186548e-38
0.0207646191617 -0.0190342342316 0.935 2.34903767379e-38
0.0225671805756 -0.0190953066409 0.938 2.34932143673e-38
0.0243031175429 -0.0190953066409 0.938 2.34936235465e-38
0.0260390545103 -0.0190953066409 0.938 2.34932886361e-38
0.0279230458032 -0.0191970939897 0.943 2.34946969411e-38
0.0297626207984 -0.019258166399 0.946 2.34968507368e-38
0.0315133631984 -0.019258166399 0.946 2.34965256356e-38
0.0333344314029 -0.0192988813385 0.948 2.34983052846e-38
0.0351999159051 -0.0193599537478 0.951 2.34986976482e-38
0.0369599117004 -0.0193599537478 0.951 2.35015366789e-38
0.0389234821933 -0.0194617410967 0.956 2.35008332271e-38
0.0408204282397 -0.019522813506 0.959 2.35029912267e-38
0.0427284783606 -0.0195838859153 0.962 2.35069498949e-38
-0.0263999369289 -0.0175999579526 0.951 2.06258438185e-38
-0.0246399411336 -0.0175999579526 0.951 1.94269138719e-38
-0.0228799453383 -0.0175999579526 0.951 1.96134477169e-38
-0.0211199495431 -0.0175999579526 0.951 1.97971509391e-38
-0.0193599537478 -0.0175999579526 0.951 2.0813417427e-38
-0.0175444375805 -0.0175444375805 0.948 2.03506624312e-38
-0.0157899938224 -0.0175444375805 0.948 2.20105565142e-38
-0.0140059391993 -0.0175074239991 0.946 2.11825754944e-38
-0.0122163325389 -0.017451903627 0.943 2.13648213662e-38
-0.0104711421762 -0.017451903627 0.943 2.23779097092e-38
-0.00869819162745 -0.0173963832549 0.94 2.26559259232e-38
-0.00694374786941 -0.0173593696735 0.938 2.22878468556e-38
-0.00520781090205 -0.0173593696735 0.938 2.30221847041e-38
-0.00346076986028 -0.0173038493014 0.935 2.34838873247e-38
-0.00173038493014 -0.0173038493014 0.935 2.33916888923e-38
0.0 -0.0173038493014 0.935 2.34860509296e-38
0.00173038493014 -0.0173038493014 0.935 2.34853180505e-38
0.00346076986028 -0.0173038493014 0.935 2.34853054388e-38
0.00519115479043 -0.0173038493014 0.935 2.34863970503e-38
0.00692153972057 -0.0173038493014 0.935 2.34863844386e-38
0.00865192465071 -0.0173038493014 0.935 2.3485686592e-38
0.0103823095809 -0.0173038493014 0.935 2.34889319992e-38
0.012112694511 -0.0173038493014 0.935 2.34903683301e-38
0.0138430794411 -0.0173038493014 0.935 2.34900432289e-38
0.0155734643713 -0.0173038493014 0.935 2.34885620564e-38
0.0173038493014 -0.0173038493014 0.935 2.34899885783e-38
0.0190342342316 -0.0173038493014 0.935 2.34910857949e-38
0.0207646191617 -0.0173038493014 0.935 2.34918004572e-38
0.0225671805756 -0.0173593696735 0.938 2.34910815911e-38
0.0243549365569 -0.0173963832549 0.94 2.34946843294e-38
0.0261778554405 -0.017451903627 0.943 2.34925459479e-38
0.0280118783985 -0.0175074239991 0.946 2.3495034654e-38
0.0297626207984 -0.0175074239991 0.946 2.34943269983e-38
0.0315799876449 -0.0175444375805 0.948 2.34968157044e-38
0.0333344314029 -0.0175444375805 0.948 2.34990129404e-38
0.0351999159051 -0.0175999579526 0.951 2.349795496e-38
0.0369599117004 -0.0175999579526 0.951 2.34982912717e-38
0.0389234821933 -0.0176924919061 0.956 2.35029954306e-38
0.0406927313839 -0.0176924919061 0.956 2.35062240223e-38
0.0427284783606 -0.0178035326502 0.962 2.35069470923e-38
-0.026483217487 -0.0158899304922 0.954 2.08116630013e-38
-0.0247176696545 -0.0158899304922 0.954 1.89666559899e-38
-0.0229521218221 -0.0158899304922 0.954 1.95212899221e-38
-0.0211865739896 -0.0158899304922 0.954 2.05336664055e-38
-0.0193599537478 -0.0158399621573 0.951 1.98889808301e-38
-0.0175444375805 -0.0157899938224 0.948 2.12715663547e-38
-0.0157899938224 -0.0157899938224 0.948 2.13655374297e-38
-0.0140059391993 -0.0157566815992 0.946 2.09981828334e-38
-0.0122163325389 -0.0157067132643 0.943 2.28406450868e-38
-0.0104711421762 -0.0157067132643 0.943 2.23804334477e-38
-0.00869819162745 -0.0156567449294 0.94 2.21960197672e-38
-0.00695855330196 -0.0156567449294 0.94 2.26559133115e-38
-0.00520781090205 -0.0156234327062 0.938 2.30214644367e-38
-0.0034718739347 -0.0156234327062 0.938 2.34817461407e-38
-0.00173593696735 -0.0156234327062 0.938 2.34853376686e-38
0.0 -0.0156234327062 0.938 2.34874858592e-38
0.00173038493014 -0.0155734643713 0.935 2.34831824716e-38
0.00346076986028 -0.0155734643713 0.935 2.3489287929e-38
0.00519115479043 -0.0155734643713 0.935 2.34882145344e-38
0.00692153972057 -0.0155734643713 0.935 2.34896298458e-38
0.00865192465071 -0.0155734643713 0.935 2.34910731833e-38
0.0103823095809 -0.0155734643713 0.935 2.34914221066e-38
0.012112694511 -0.0155734643713 0.935 2.34878487955e-38
0.0138430794411 -0.0155734643713 0.935 2.34899885783e-38
0.0155734643713 -0.0155734643713 0.935 2.34925137181e-38
0.0173038493014 -0.0155734643713 0.935 2.34914375209e-38
0.0190342342316 -0.0155734643713 0.935 2.34914403235e-38
0.0207646191617 -0.0155734643713 0.935 2.34946913359e-38
0.0225671805756 -0.0156234327062 0.938 2.34946759216e-38
0.0243549365569 -0.0156567449294 0.94 2.34943269983e-38
0.0261778554405 -0.0157067132643 0.943 2.3494325597e-38
0.0280118783985 -0.0157566815992 0.946 2.34950598774e-38
0.0297626207984 -0.0157566815992 0.946 2.3495771737e-38
0.0315799876449 -0.0157899938224 0.948 2.34957675331e-38
0.0333344314029 -0.0157899938224 0.948 2.35000765259e-38
0.0351999159051 -0.0158399621573 0.951 2.34975920237e-38
0.0370765044818 -0.0158899304922 0.954 2.35022541437e-38
0.0389234821933 -0.0159232427154 0.956 2.350334015e-38
0.0406927313839 -0.0159232427154 0.956 2.35058554808e-38
-0.026483217487 -0.0141243826597 0.954 2.09971108401e-38
-0.0247176696545 -0.0141243826597 0.954 1.89673776587e-38
-0.0229521218221 -0.0141243826597 0.954 1.94290914897e-38
-0.0211865739896 -0.0141243826597 0.954 1.91507151419e-38
-0.0194210261571 -0.0141243826597 0.954 2.10871708911e-38
-0.0175999579526 -0.0140799663621 0.951 2.08123636505e-38
-0.0158399621573 -0.0140799663621 0.951 2.14577358622e-38
-0.0140355500644 -0.0140355500644 0.948 2.11814950933e-38
-0.0122551967994 -0.0140059391993 0.946 2.13662590984e-38
-0.0105044543995 -0.0140059391993 0.946 2.16406977975e-38
-0.0087259518135 -0.0139615229016 0.943 2.26545008027e-38
-0.00695855330196 -0.0139171066039 0.94 2.2932490392e-38
-0.00521891497647 -0.0139171066039 0.94 2.34860130945e-38
-0.0034718739347 -0.0138874957388 0.938 2.34835243884e-38
-0.00173593696735 -0.0138874957388 0.938 2.34832020898e-38
0.0 -0.0138874957388 0.938 2.34860523309e-38
0.00173593696735 -0.0138874957388 0.938 2.34899857757e-38
0.0034718739347 -0.0138874957388 0.938 2.34852984323e-38
0.00519115479043 -0.0138430794411 0.935 2.34867501775e-38
0.00692153972057 -0.0138430794411 0.935 2.34899829731e-38
0.00865192465071 -0.0138430794411 0.935 2.34878319799e-38
0.0103823095809 -0.0138430794411 0.935 2.34896508653e-38
0.012112694511 -0.0138430794411 0.935 2.34892767186e-38
0.0138430794411 -0.0138430794411 0.935 2.34900067951e-38
0.0155734643713 -0.0138430794411 0.935 2.34907242599e-38
0.0173038493014 -0.0138430794411 0.935 2.34936193426e-38
0.0190342342316 -0.0138430794411 0.935 2.34925277311e-38
0.0208312436082 -0.0138874957388 0.938 2.34896578718e-38
0.0225671805756 -0.0138874957388 0.938 2.3492879457e-38
0.0243549365569 -0.0139171066039 0.94 2.3493602527e-38
0.0261778554405 -0.0139615229016 0.943 2.34921675974e-38
0.0280118783985 -0.0140059391993 0.946 2.34968689537e-38
0.0297626207984 -0.0140059391993 0.946 2.34943227944e-38
0.0315799876449 -0.0140355500644 0.948 2.34975752081e-38
0.0333344314029 -0.0140355500644 0.948 2.35000765259e-38
0.0351999159051 -0.0140799663621 0.951 2.34989891183e-38
0.0369599117004 -0.0140799663621 0.951 2.35022247164e-38
0.0388420523143 -0.0141243826597 0.954 2.35054981497e-38
0.0406076001467 -0.0141243826597 0.954 2.35087491621e-38
-0.026483217487 -0.0123588348273 0.954 1.98915045686e-38
-0.0247176696545 -0.0123588348273 0.954 1.89673748561e-38
-0.0229521218221 -0.0123588348273 0.954 2.00740951598e-38
-0.0212309902873 -0.0123847443342 0.956 2.01691648528e-38
-0.0194210261571 -0.0123588348273 0.954 1.99840533257e-38
-0.0176554783247 -0.0123588348273 0.954 2.08138139945e-38
-0.0158399621573 -0.0123199705668 0.951 2.10889337246e-38
-0.0140355500644 -0.0122811063063 0.948 2.16421047011e-38
-0.0122811063063 -0.0122811063063 0.948 2.18254575987e-38
-0.0105044543995 -0.0122551967994 0.946 2.29303674248e-38
-0.00875371199954 -0.0122551967994 0.946 2.26537707262e-38
-0.0069807614508 -0.0122163325389 0.943 2.25633575479e-38
-0.0052355710881 -0.0122163325389 0.943 2.33927454713e-38
-0.00347927665098 -0.0121774682784 0.94 2.27463194832e-38
-0.00173963832549 -0.0121774682784 0.94 2.34838985351e-38
0.0 -0.0121774682784 0.94 2.3482804121e-38
0.00173593696735 -0.0121515587715 0.938 2.34842460571e-38
0.0034718739347 -0.0121515587715 0.938 2.34900067951e-38
0.00520781090205 -0.0121515587715 0.938 2.34867641905e-38
0.00694374786941 -0.0121515587715 0.938 2.34867557827e-38
0.00865192465071 -0.012112694511 0.935 2.34867655918e-38
0.0103823095809 -0.012112694511 0.935 2.34889207888e-38
0.012112694511 -0.012112694511 0.935 2.34910857949e-38
0.0138430794411 -0.012112694511 0.935 2.34900025912e-38
0.0156234327062 -0.0121515587715 0.938 2.34896424575e-38
0.0173593696735 -0.0121515587715 0.938 2.34885774707e-38
0.0190953066409 -0.0121515587715 0.938 2.34896606744e-38
0.0208312436082 -0.0121515587715 0.938 2.34921760052e-38
0.0226152982314 -0.0121774682784 0.94 2.34935969218e-38
0.0243549365569 -0.0121774682784 0.94 2.34946857307e-38
0.0261778554405 -0.0122163325389 0.943 2.34975668003e-38
0.0280711001288 -0.0122811063063 0.948 2.34957731383e-38
0.0298255438868 -0.0122811063063 0.948 2.34961206603e-38
0.0315799876449 -0.0122811063063 0.948 2.34950542722e-38
0.0333344314029 -0.0122811063063 0.948 2.34965004122e-38
0.0351999159051 -0.0123199705668 0.951 2.35000835324e-38
0.0369599117004 -0.0123199705668 0.951 2.3499738813e-38
0.0388420523143 -0.0123588348273 0.954 2.35022653541e-38
0.0404799032909 -0.0123199705668 0.951 2.3508405844e-38
0.0422398990862 -0.0123199705668 0.951 2.3508030296e-38
-0.0265387378591 -0.0106154951436 0.956 1.97070908881e-38
-0.0247694886685 -0.0106154951436 0.956 1.91521374599e-38
-0.0230002394779 -0.0106154951436 0.956 1.97971537417e-38
-0.0212309902873 -0.0106154951436 0.956 2.01684445854e-38
-0.0194617410967 -0.0106154951436 0.956 2.00769650191e-38
-0.0176554783247 -0.0105932869948 0.954 1.97078391815e-38
-0.0158399621573 -0.0105599747715 0.951 2.16424802491e-38
-0.0140799663621 -0.0105599747715 0.951 2.15492000143e-38
-0.0122811063063 -0.0105266625483 0.948 2.20102061895e-38
-0.0105044543995 -0.0105044543995 0.946 2.15474161613e-38
-0.00875371199954 -0.0105044543995 0.946 2.32994778481e-38
-0.0069807614508 -0.0104711421762 0.943 2.30236140285e-38
-0.0052355710881 -0.0104711421762 0.943 2.29292688068e-38
-0.0034903807254 -0.0104711421762 0.943 2.34846089934e-38
-0.0017451903627 -0.0104711421762 0.943 2.34842418533e-38
0.0 -0.0104711421762 0.943 2.34853222544e-38
0.00173963832549 -0.0104378299529 0.94 2.34867655918e-38
0.00347927665098 -0.0104378299529 0.94 2.34896522666e-38
0.00521891497647 -0.0104378299529 0.94 2.34878656111e-38
0.00694374786941 -0.0104156218041 0.938 2.34892795212e-38
0.00867968483676 -0.0104156218041 0.938 2.34889151836e-38
0.0104156218041 -0.0104156218041 0.938 2.34899955847e-38
0.0121515587715 -0.0104156218041 0.938 2.34907424768e-38
0.0138874957388 -0.0104156218041 0.938 2.34889235914e-38
0.0156234327062 -0.0104156218041 0.938 2.3494311584e-38
0.0173593696735 -0.0104156218041 0.938 2.34935997244e-38
0.0190953066409 -0.0104156218041 0.938 2.34928780557e-38
0.0208756599059 -0.0104378299529 0.94 2.34925207246e-38
0.0226874747151 -0.0104711421762 0.943 2.3494673119e-38
0.0244326650778 -0.0104711421762 0.943 2.34932423933e-38
0.0262611359986 -0.0105044543995 0.946 2.34961318707e-38
0.0280711001288 -0.0105266625483 0.948 2.34939766737e-38
0.0298255438868 -0.0105266625483 0.948 2.34975625965e-38
0.0315799876449 -0.0105266625483 0.948 2.34989975261e-38
0.0334399201099 -0.0105599747715 0.951 2.34982870678e-38
0.0351999159051 -0.0105599747715 0.951 2.34997304052e-38
0.0369599117004 -0.0105599747715 0.951 2.34990199469e-38
0.0388420523143 -0.0105932869948 0.954 2.35058498756e-38
0.0404799032909 -0.0105599747715 0.951 2.35098071424e-38
0.0422398990862 -0.0105599747715 0.951 2.35098435762e-38
-0.0265387378591 -0.00884624595303 0.956 2.00765964776e-38
-0.0247694886685 -0.00884624595303 0.956 1.906138797e-38
-0.0230002394779 -0.00884624595303 0.956 1.92457666181e-38
-0.0212309902873 -0.00884624595303 0.956 1.98904297727e-38
-0.0194617410967 -0.00884624595303 0.956 1.99840533257e-38
-0.0176924919061 -0.00884624595303 0.956 2.08130881219e-38
-0.0158899304922 -0.00882773916233 0.954 2.20097956091e-38
-0.0140799663621 -0.00879997897629 0.951 2.10903798646e-38
-0.0123199705668 -0.00879997897629 0.951 2.14588078555e-38
-0.0105266625483 -0.00877221879024 0.948 2.23789690908e-38
-0.00877221879024 -0.00877221879024 0.948 2.26551776298e-38
-0.00700296959964 -0.00875371199954 0.946 2.30236322454e-38
-0.00525222719973 -0.00875371199954 0.946 2.3484601987e-38
-0.00350148479982 -0.00875371199954 0.946 2.33895252874e-38
-0.0017451903627 -0.0087259518135 0.943 2.3483165656e-38
0.0 -0.0087259518135 0.943 2.34860453244e-38
0.0017451903627 -0.0087259518135 0.943 2.34888927629e-38
0.0034903807254 -0.0087259518135 0.943 2.33909700262e-38
0.0052355710881 -0.0087259518135 0.943 2.34892655082e-38
0.00695855330196 -0.00869819162745 0.94 2.3483527191e-38
0.00869819162745 -0.00869819162745 0.94 2.34882047253e-38
0.0104378299529 -0.00869819162745 0.94 2.34874830566e-38
0.0121774682784 -0.00869819162745 0.94 2.34921395714e-38
0.0139171066039 -0.00869819162745 0.94 2.34889151836e-38
0.0156567449294 -0.00869819162745 0.94 2.34878515981e-38
0.0173963832549 -0.00869819162745 0.94 2.34932536037e-38
0.0191360215804 -0.00869819162745 0.94 2.34921619922e-38
0.0209422843524 -0.0087259518135 0.943 2.34903669288e-38
0.0226874747151 -0.0087259518135 0.943 2.34957591253e-38
0.0245103935987 -0.00875371199954 0.946 2.34954116033e-38
0.0262611359986 -0.00875371199954 0.946 2.34957955591e-38
0.0280711001288 -0.00877221879024 0.948 2.34989975261e-38
0.0298255438868 -0.00877221879024 0.948 2.34939738711e-38
0.0316799243146 -0.00879997897629 0.951 2.34968661511e-38
0.0335454088169 -0.00882773916233 0.954 2.34997318065e-38
