# .PCD v0.7 - Point Cloud Data file format
VERSION 0.7
FIELDS x y z rgb
SIZE 4 4 4 4
TYPE F F F F
COUNT 1 1 1 1
WIDTH 846
HEIGHT 1
VIEWPOINT 0 0 0 1 0 0 0
POINTS 846
DATA ascii
0.0916104646278 -0.0962686238461 0.839 2.35098435762e-38
0.0931631843672 -0.0962686238461 0.839 2.35037325136e-38
0.0268681587335 -0.0964092754554 0.854 8.57516747972e-39
0.028448638659 -0.0964092754554 0.854 8.67199720361e-39
0.0299236298775 -0.0960706011857 0.851 8.67235593601e-39
0.0313505034402 -0.0956190354927 0.847 8.21246099041e-39
0.0328403000913 -0.0953932526462 0.845 7.84547773818e-39
0.0343226940261 -0.0951674697997 0.843 7.38809391943e-39
0.0357125540074 -0.0947159041067 0.839 7.20621658915e-39
0.0371764411516 -0.0944901212602 0.837 7.29876955012e-39
0.0387254595329 -0.0944901212602 0.837 6.84030953414e-39
0.0401782426026 -0.0942643384137 0.835 7.02398052646e-39
0.0415236862862 -0.0938127727207 0.831 7.02362179405e-39
0.0429579625652 -0.0935869898742 0.829 8.03811704067e-39
0.044492175514 -0.0935869898742 0.829 7.11653348743e-39
0.0460263884627 -0.0935869898742 0.829 7.66934012641e-39
0.0475606014115 -0.0935869898742 0.829 7.66969885882e-39
0.0489763708998 -0.0933612070277 0.827 7.57858082748e-39
0.0505068824904 -0.0933612070277 0.827 7.57858082748e-39
0.052037394081 -0.0933612070277 0.827 7.48710406372e-39
0.0535679056716 -0.0933612070277 0.827 7.48674533132e-39
0.0550984172622 -0.0933612070277 0.827 7.76332801701e-39
0.0566289288529 -0.0933612070277 0.827 7.94735774173e-39
0.0581594404435 -0.0933612070277 0.827 7.85444604836e-39
0.0596899520341 -0.0933612070277 0.827 8.59199987688e-39
0.0610724092991 -0.0931354241812 0.825 8.0395519703e-39
0.0625992195316 -0.0931354241812 0.825 8.03991070271e-39
0.0639705727222 -0.0929096413347 0.823 8.13210493127e-39
0.0654936815966 -0.0929096413347 0.823 8.86822383016e-39
0.0670167904709 -0.0929096413347 0.823 8.77495340438e-39
0.0685398993453 -0.0929096413347 0.823 8.77495340438e-39
0.0704035331684 -0.0933612070277 0.827 9.79267724266e-39
0.071934044759 -0.0933612070277 0.827 8.31756958562e-39
0.0736422215403 -0.0935869898742 0.829 8.8700174922e-39
0.0753578010379 -0.0938127727207 0.831 9.14588271308e-39
0.0768957153448 -0.0938127727207 0.831 9.69904808447e-39
0.0786223989168 -0.0940385555672 0.833 9.23735947683e-39
0.0803564852051 -0.0942643384137 0.835 1.08039438976e-38
0.0820979742097 -0.0944901212602 0.837 1.05284374091e-38
0.083646992591 -0.0944901212602 0.837 1.05277199443e-38
0.0851960109723 -0.0944901212602 0.837 1.09869044316e-38
0.0869523054094 -0.0947159041067 0.839 1.1262762646e-38
0.0885050251489 -0.0947159041067 0.839 1.14467923707e-38
0.0900577448883 -0.0947159041067 0.839 1.00642376747e-38
0.0916104646278 -0.0947159041067 0.839 2.3509809945e-38
0.0931631843672 -0.0947159041067 0.839 2.35033709786e-38
0.0267737741009 -0.0944956732974 0.851 8.11634312614e-39
0.0283487019892 -0.0944956732974 0.851 8.30537268379e-39
0.0299236298775 -0.0944956732974 0.851 8.21353718763e-39
0.0313505034402 -0.0940515103207 0.847 7.84583647059e-39
0.0328403000913 -0.0938294288323 0.845 7.75364224203e-39
0.0343226940261 -0.093607347344 0.843 7.02003446998e-39
0.0358828164819 -0.093607347344 0.843 7.02218686442e-39
0.0373541063422 -0.0933852658556 0.841 7.66826392919e-39
0.0388179934863 -0.0931631843672 0.839 7.02398052646e-39
0.0403707132258 -0.0931631843672 0.839 7.39311617313e-39
0.0417235596257 -0.0927190213905 0.835 7.48387547206e-39
0.043165238621 -0.0924969399022 0.833 7.85229365392e-39
0.044492175514 -0.0920527769254 0.829 7.6686226616e-39
0.0460263884627 -0.0920527769254 0.829 7.39311617313e-39
0.0475606014115 -0.0920527769254 0.829 7.30163940937e-39
0.0490948143602 -0.0920527769254 0.829 7.4860278665e-39
0.0505068824904 -0.0918306954371 0.827 7.48638659891e-39
0.052037394081 -0.0918306954371 0.827 7.48638659891e-39
0.0536974532065 -0.0920527769254 0.829 8.04026943511e-39
0.0552316661553 -0.0920527769254 0.829 8.03991070271e-39
0.056765879104 -0.0920527769254 0.829 8.31541719118e-39
0.0581594404435 -0.0918306954371 0.827 7.94664027692e-39
0.0596899520341 -0.0918306954371 0.827 7.94843393896e-39
0.0612204636247 -0.0918306954371 0.827 8.13102873405e-39
0.0627509752153 -0.0918306954371 0.827 7.58073322192e-39
0.0641260297641 -0.0916086139487 0.825 8.41012254659e-39
0.0656528399966 -0.0916086139487 0.825 8.31685212081e-39
0.0671796502291 -0.0916086139487 0.825 8.68455283785e-39
0.0688730215778 -0.0918306954371 0.827 8.86750636535e-39
0.0705737956428 -0.0920527769254 0.829 8.68491157025e-39
0.0721080085916 -0.0920527769254 0.829 8.86822383016e-39
0.073819886731 -0.0922748584138 0.831 9.42138920155e-39
0.0753578010379 -0.0922748584138 0.831 9.14552398067e-39
0.0772658511588 -0.0927190213905 0.835 9.33027117021e-39
0.0788111681819 -0.0927190213905 0.835 1.01585842977e-38
0.0805489558284 -0.0929411028789 0.837 1.0157149368e-38
0.0820979742097 -0.0929411028789 0.837 9.79088358063e-39
0.0838468659305 -0.0931631843672 0.839 1.05277199443e-38
0.08539958567 -0.0931631843672 0.839 1.15404215289e-38
0.087366857521 -0.093607347344 0.843 1.24634400118e-38
0.0889269799768 -0.093607347344 0.843 1.09868974251e-38
0.0902724236604 -0.0933852658556 0.841 1.08925508021e-38
0.091828844758 -0.0933852658556 0.841 2.35097524918e-38
0.0933852658556 -0.0933852658556 0.841 2.35065883599e-38
0.0267737741009 -0.0929207454091 0.851 8.20673808748e-39
0.0283487019892 -0.0929207454091 0.851 8.48940240851e-39
0.0299236298775 -0.0929207454091 0.851 8.21353718763e-39
0.0313505034402 -0.0924839851487 0.847 7.93659576953e-39
0.0328403000913 -0.0922656050184 0.845 7.84906506225e-39
0.0343226940261 -0.0920472248882 0.843 7.38881138424e-39
0.0358828164819 -0.0920472248882 0.843 7.20621658915e-39
0.0373541063422 -0.091828844758 0.841 6.83743967489e-39
0.0389105274398 -0.091828844758 0.841 7.02362179405e-39
0.0403707132258 -0.0916104646278 0.839 7.02398052646e-39
0.0418234962955 -0.0913920844976 0.837 7.20765151877e-39
0.0432688766489 -0.0911737043673 0.835 7.48423420447e-39
0.044706854286 -0.0909553242371 0.833 7.6686226616e-39
0.0462484699511 -0.0909553242371 0.833 7.11725095224e-39
0.0477900856161 -0.0909553242371 0.833 7.66969885882e-39
0.0492132578207 -0.0907369441069 0.831 8.31434099396e-39
0.0507511721276 -0.0907369441069 0.831 7.76189308738e-39
0.0522890864345 -0.0907369441069 0.831 7.21052137803e-39
0.0538270007414 -0.0907369441069 0.831 8.13318112849e-39
0.0552316661553 -0.0905185639767 0.829 7.76332801701e-39
0.056765879104 -0.0905185639767 0.829 8.03919323789e-39
0.0583000920528 -0.0905185639767 0.829 7.76296928461e-39
0.0598343050015 -0.0905185639767 0.829 8.22501662465e-39
0.0612204636247 -0.0903001838465 0.827 7.76332801701e-39
0.0627509752153 -0.0903001838465 0.827 7.8569571752e-39
0.064281486806 -0.0903001838465 0.827 7.58216815154e-39
0.0658119983966 -0.0903001838465 0.827 7.85982703446e-39
0.0673425099872 -0.0903001838465 0.827 8.40976381419e-39
0.0688730215778 -0.0903001838465 0.827 8.50195804275e-39
0.0705737956428 -0.0905185639767 0.829 8.50016438072e-39
0.0722819724241 -0.0907369441069 0.831 9.42103046915e-39
0.073819886731 -0.0907369441069 0.831 9.69833061965e-39
0.0755391675868 -0.0909553242371 0.833 9.51537709215e-39
0.0772658511588 -0.0911737043673 0.835 9.42282413118e-39
0.078999937447 -0.0913920844976 0.837 9.79160104544e-39
0.0805489558284 -0.0913920844976 0.837 1.05277199443e-38
0.0822941461911 -0.0916104646278 0.839 1.0617403046e-38
0.0838468659305 -0.0916104646278 0.839 1.11720033471e-38
0.0856031603676 -0.091828844758 0.841 1.13556743394e-38
0.0875741335768 -0.0922656050184 0.845 1.12649150404e-38
0.0891379573907 -0.0922656050184 0.845 1.10794503861e-38
0.0907017812046 -0.0922656050184 0.845 1.54043633157e-38
0.0922656050184 -0.0922656050184 0.845 2.35098029385e-38
0.0938294288323 -0.0922656050184 0.845 2.35062268249e-38
0.0283487019892 -0.0913458175208 0.851 7.93624964881e-39
0.0299236298775 -0.0913458175208 0.851 8.58159663708e-39
0.0313505034402 -0.0909164599767 0.847 7.75257165e-39
0.0328403000913 -0.0907017812046 0.845 7.47992941559e-39
0.0344041239052 -0.0907017812046 0.845 7.20549912433e-39
0.0358828164819 -0.0904871024325 0.843 7.66575280234e-39
0.0374429389376 -0.0904871024325 0.843 7.20657532155e-39
0.0390030613933 -0.0904871024325 0.843 7.11689221984e-39
0.0404669485374 -0.0902724236604 0.841 7.6686226616e-39
0.0419234329653 -0.0900577448883 0.839 7.39132251109e-39
0.0433725146768 -0.0898430661163 0.837 7.30056321215e-39
0.0448141936721 -0.0896283873442 0.835 7.11832714946e-39
0.0462484699511 -0.0894137085721 0.833 7.57858082748e-39
0.0477900856161 -0.0894137085721 0.833 7.76117562257e-39
0.0492132578207 -0.0891990298 0.831 7.76189308738e-39
0.0507511721276 -0.0891990298 0.831 7.85408731595e-39
0.0522890864345 -0.0891990298 0.831 7.57929829229e-39
0.0539565482763 -0.0894137085721 0.833 7.303074339e-39
0.0554981639413 -0.0894137085721 0.833 7.57893955988e-39
0.0569028293552 -0.0891990298 0.831 8.59235860928e-39
0.0584407436621 -0.0891990298 0.831 7.94843393896e-39
0.059978657969 -0.0891990298 0.831 8.13210493127e-39
0.0613685179503 -0.0889843510279 0.829 8.31613465599e-39
0.062902730899 -0.0889843510279 0.829 8.13174619886e-39
0.0644369438478 -0.0889843510279 0.829 8.3164933884e-39
0.0659711567966 -0.0889843510279 0.829 8.96185298836e-39
0.0675053697453 -0.0889843510279 0.829 8.5934348065e-39
0.0690395826941 -0.0889843510279 0.829 9.05368848451e-39
0.0707440581172 -0.0891990298 0.831 9.23807694164e-39
0.0722819724241 -0.0891990298 0.831 9.05368848451e-39
0.0739975519217 -0.0894137085721 0.833 8.41227494103e-39
0.0757205341356 -0.0896283873442 0.835 9.33385849428e-39
0.0772658511588 -0.0896283873442 0.835 9.60613639109e-39
0.078999937447 -0.0898430661163 0.837 9.42282413118e-39
0.0805489558284 -0.0898430661163 0.837 9.69940681687e-39
0.0822941461911 -0.0900577448883 0.839 1.04351669834e-38
0.08404673927 -0.0902724236604 0.841 1.06191967081e-38
0.0856031603676 -0.0902724236604 0.841 1.0896855591e-38
0.0877814096326 -0.0909164599767 0.847 1.20021255508e-38
0.0895599122186 -0.0911311387487 0.849 9.6954607604e-39
0.0911311387487 -0.0911311387487 0.849 2.03757372659e-38
0.0927023652789 -0.0911311387487 0.849 2.35098393723e-38
0.028581887552 -0.0905093105813 0.858 8.48869335149e-39
0.0301697701938 -0.0905093105813 0.858 7.84655393541e-39
0.031424530603 -0.0895599122186 0.849 7.4806468804e-39
0.0329180286122 -0.0893489348046 0.847 7.0207519348e-39
0.0344041239052 -0.0891379573907 0.845 8.0345297166e-39
0.0359679477191 -0.0891379573907 0.845 7.57355857378e-39
0.0374429389376 -0.0889269799768 0.843 7.20549912433e-39
0.0390030613933 -0.0889269799768 0.843 7.02290432924e-39
0.040563183849 -0.0889269799768 0.843 7.29912828253e-39
0.042023369635 -0.0887160025628 0.841 7.48387547206e-39
0.0433725146768 -0.0882940477349 0.837 7.11617475502e-39
0.0449215330581 -0.0882940477349 0.837 7.11796841706e-39
0.0463595106953 -0.088083070321 0.835 7.39311617313e-39
0.0479048277184 -0.088083070321 0.835 8.03847717438e-39
0.0493317012812 -0.0878720929071 0.833 8.12995253683e-39
0.0508733169462 -0.0878720929071 0.833 7.66898139401e-39
0.0524149326112 -0.0878720929071 0.833 7.76332801701e-39
0.0540860958111 -0.088083070321 0.835 7.67185125326e-39
0.0554981639413 -0.0878720929071 0.833 7.76404548183e-39
0.0570397796063 -0.0878720929071 0.833 7.67185125326e-39
0.0585813952714 -0.0878720929071 0.833 7.67185125326e-39
0.0601230109364 -0.0878720929071 0.833 8.03991070271e-39
0.0615165722759 -0.0876611154931 0.831 8.22429915984e-39
0.0630544865828 -0.0876611154931 0.831 8.13210493127e-39
0.0644369438478 -0.0874501380792 0.829 8.40904634937e-39
0.0659711567966 -0.0874501380792 0.829 8.3164933884e-39
0.0675053697453 -0.0874501380792 0.829 8.68527030266e-39
0.0692061438103 -0.0876611154931 0.831 8.59164815096e-39
0.0709143205917 -0.0878720929071 0.833 9.60793005312e-39
0.0724559362567 -0.0878720929071 0.833 8.04349802678e-39
0.0741752171124 -0.088083070321 0.835 9.05548214655e-39
0.0757205341356 -0.088083070321 0.835 9.05512341414e-39
0.0774509190657 -0.0882940477349 0.837 9.33098863502e-39
0.0791887067122 -0.0885050251489 0.839 9.88200161197e-39
0.0809338970749 -0.0887160025628 0.841 1.06195554405e-38
0.0826864901538 -0.0889269799768 0.843 1.08943444641e-38
0.0842466126096 -0.0889269799768 0.843 1.08039579106e-38
0.086010309763 -0.0891379573907 0.845 1.10801678509e-38
0.0879886856884 -0.0895599122186 0.849 1.08943444641e-38
0.0895599122186 -0.0895599122186 0.849 9.32883624058e-39
0.0911311387487 -0.0895599122186 0.849 2.3507265187e-38
0.0927023652789 -0.0895599122186 0.849 2.35087561686e-38
0.028581887552 -0.0889214279396 0.858 8.11883183222e-39
0.0301697701938 -0.0889214279396 0.858 7.84655393541e-39
0.0314985577658 -0.0881959617442 0.851 7.48136434521e-39
0.0329180286122 -0.0877814096326 0.847 7.38917011665e-39
0.0344855537843 -0.0877814096326 0.847 7.38809391943e-39
0.0359679477191 -0.0875741335768 0.845 7.2976933529e-39
0.0375317715329 -0.0875741335768 0.845 7.39060504628e-39
0.0390955953468 -0.0875741335768 0.845 7.20765151877e-39
0.040563183849 -0.087366857521 0.843 7.29984574734e-39
0.042023369635 -0.0871595814652 0.841 7.29984574734e-39
0.0434761527047 -0.0869523054094 0.839 7.57642843303e-39
0.0449215330581 -0.0867450293536 0.837 7.48531040169e-39
0.0464705514394 -0.0867450293536 0.837 7.66898139401e-39
0.0480195698208 -0.0867450293536 0.837 7.57786336266e-39
0.0494501447416 -0.0865377532978 0.835 7.57858082748e-39
0.0509954617648 -0.0865377532978 0.835 8.86786509776e-39
0.052540778788 -0.0865377532978 0.835 7.48746279613e-39
0.0540860958111 -0.0865377532978 0.835 6.65807347145e-39
0.0556314128343 -0.0865377532978 0.835 7.39670349719e-39
0.0570397796063 -0.086330477242 0.833 8.04134563233e-39
0.0585813952714 -0.086330477242 0.833 7.94951013618e-39
0.0601230109364 -0.086330477242 0.833 8.77961692567e-39
0.0616646266014 -0.086330477242 0.833 7.48889772576e-39
0.0632062422665 -0.086330477242 0.833 8.04062816752e-39
0.0647478579315 -0.086330477242 0.833 8.22429915984e-39
0.0662894735965 -0.086330477242 0.833 8.5930760741e-39
0.0678310892616 -0.086330477242 0.833 8.50231677516e-39
0.0693727049266 -0.086330477242 0.833 8.59415227132e-39
0.0710845830661 -0.0865377532978 0.835 8.68491157025e-39
0.0726299000892 -0.0865377532978 0.835 8.50195804275e-39
0.0741752171124 -0.0865377532978 0.835 9.33206483224e-39
0.0759019006844 -0.0867450293536 0.837 9.88200161197e-39
0.0776359869727 -0.0869523054094 0.839 1.03418965576e-38
0.0793774759773 -0.0871595814652 0.841 9.88128414716e-39
0.0809338970749 -0.0871595814652 0.841 1.0434808251e-38
0.0826864901538 -0.087366857521 0.843 1.13574680014e-38
0.0842466126096 -0.087366857521 0.843 1.01621716217e-38
0.086010309763 -0.0875741335768 0.845 1.11723620795e-38
0.0879886856884 -0.0879886856884 0.849 1.23691200135e-38
0.0895599122186 -0.0879886856884 0.849 9.14337158623e-39
0.0911311387487 -0.0879886856884 0.849 2.35098029385e-38
0.027119851087 -0.0877406946931 0.862 1.20631170665e-38
0.028581887552 -0.0873335452978 0.858 8.02305027958e-39
0.0301697701938 -0.0873335452978 0.858 8.21353718763e-39
0.0314985577658 -0.086621033856 0.851 7.57284110897e-39
0.0329957571332 -0.0864174591583 0.849 7.57284110897e-39
0.0344855537843 -0.0862138844606 0.847 7.75687083369e-39
0.0359679477191 -0.086010309763 0.845 7.48136434521e-39
0.0375317715329 -0.086010309763 0.845 7.20765151877e-39
0.0390955953468 -0.086010309763 0.845 7.48495166928e-39
0.040563183849 -0.0858067350653 0.843 7.30056321215e-39
0.042023369635 -0.0856031603676 0.841 7.57642843303e-39
0.0434761527047 -0.08539958567 0.839 7.57606970063e-39
0.0450288724442 -0.08539958567 0.839 8.86894129498e-39
0.0464705514394 -0.0851960109723 0.837 6.93322122752e-39
0.0480195698208 -0.0851960109723 0.837 7.39311617313e-39
0.0494501447416 -0.0849924362746 0.835 7.85408731595e-39
0.0509954617648 -0.0849924362746 0.835 7.30379180382e-39
0.052540778788 -0.0849924362746 0.835 8.77925819326e-39
0.0540860958111 -0.0849924362746 0.835 7.39598603238e-39
0.0556314128343 -0.0849924362746 0.835 8.68634649988e-39
0.0571767298575 -0.0849924362746 0.835 7.39526856757e-39
0.0585813952714 -0.084788861577 0.833 8.04134563233e-39
0.0601230109364 -0.084788861577 0.833 8.13425732571e-39
0.0616646266014 -0.084788861577 0.833 7.57929829229e-39
0.0632062422665 -0.084788861577 0.833 8.22573408946e-39
0.0649033149734 -0.0849924362746 0.835 8.04098689993e-39
0.0664486319965 -0.0849924362746 0.835 8.8700174922e-39
0.0679939490197 -0.0849924362746 0.835 8.68562903507e-39
0.0695392660429 -0.0849924362746 0.835 8.68491157025e-39
0.0710845830661 -0.0849924362746 0.835 1.01593017625e-38
0.0726299000892 -0.0849924362746 0.835 8.77710579882e-39
0.0741752171124 -0.0849924362746 0.835 9.23807694164e-39
0.0759019006844 -0.0851960109723 0.837 9.789448651e-39
0.0776359869727 -0.08539958567 0.839 9.60434272905e-39
0.0793774759773 -0.0856031603676 0.841 1.0436601913e-38
0.0811263676981 -0.0858067350653 0.843 1.04355257158e-38
0.0826864901538 -0.0858067350653 0.843 1.04369606454e-38
0.0844464859491 -0.086010309763 0.845 1.11727208119e-38
0.086621033856 -0.086621033856 0.851 1.21850720718e-38
0.0879886856884 -0.0864174591583 0.849 1.09851037631e-38
0.0895599122186 -0.0864174591583 0.849 1.59568364457e-38
0.0911311387487 -0.0864174591583 0.849 2.35098337671e-38
0.0257318417847 -0.0868449660234 0.869 1.92378885181e-38
0.027119851087 -0.086145409335 0.862 1.64821159776e-38
0.028715136445 -0.086145409335 0.862 1.00430724627e-38
0.0301697701938 -0.085745662656 0.858 8.30680761342e-39
0.0316836256728 -0.0855457893165 0.856 7.75435970684e-39
0.0329957571332 -0.0848462326281 0.849 8.03094239253e-39
0.0345669836633 -0.0848462326281 0.849 7.48136434521e-39
0.0360530789563 -0.0846463592886 0.847 7.20478165952e-39
0.0375317715329 -0.0844464859491 0.845 7.48315800725e-39
0.0390955953468 -0.0844464859491 0.845 6.6552036122e-39
0.040563183849 -0.0842466126096 0.843 7.66682899956e-39
0.0421233063048 -0.0842466126096 0.843 7.48315800725e-39
0.0435797907326 -0.08404673927 0.841 7.6686226616e-39
0.0451362118302 -0.08404673927 0.841 7.48423420447e-39
0.0465815921836 -0.0838468659305 0.839 7.30271560659e-39
0.0480195698208 -0.083646992591 0.837 7.48674533132e-39
0.0495685882021 -0.083646992591 0.837 7.57929829229e-39
0.0509954617648 -0.0834471192515 0.835 7.30379180382e-39
0.052540778788 -0.0834471192515 0.835 7.48889772576e-39
0.0540860958111 -0.0834471192515 0.835 7.85623971039e-39
0.0556314128343 -0.0834471192515 0.835 7.39598603238e-39
0.0571767298575 -0.0834471192515 0.835 7.67185125326e-39
0.0587220468807 -0.0834471192515 0.835 8.04062816752e-39
0.0602673639038 -0.0834471192515 0.835 8.59235860928e-39
0.0616646266014 -0.0832472459119 0.833 8.59235860928e-39
0.0632062422665 -0.0832472459119 0.833 8.40904634937e-39
0.0649033149734 -0.0834471192515 0.835 8.13210493127e-39
0.0664486319965 -0.0834471192515 0.835 8.31685212081e-39
0.0679939490197 -0.0834471192515 0.835 8.40868761697e-39
0.0695392660429 -0.0834471192515 0.835 9.69904808447e-39
0.0712548455405 -0.083646992591 0.837 8.96113552354e-39
0.0728038639218 -0.083646992591 0.837 9.51537709215e-39
0.0745305474938 -0.0838468659305 0.839 9.69904808447e-39
0.0760832672332 -0.0838468659305 0.839 9.51609455696e-39
0.0780061227866 -0.0842466126096 0.843 9.42282413118e-39
0.0795662452424 -0.0842466126096 0.843 9.23987060368e-39
0.0813188383213 -0.0844464859491 0.845 1.08964968586e-38
0.0830788341166 -0.0846463592886 0.847 1.0986901629e-38
0.0850461059677 -0.0850461059677 0.851 1.08964968586e-38
0.086621033856 -0.0850461059677 0.851 1.11698509526e-38
0.0881959617442 -0.0850461059677 0.851 9.1419366566e-39
0.0897708896325 -0.0850461059677 0.851 2.35097230645e-38
0.0913458175208 -0.0850461059677 0.851 2.35091050919e-38
0.0257318417847 -0.0852367259118 0.869 1.8868370317e-38
0.0272771588079 -0.0850405539305 0.867 2.01666621338e-38
0.028715136445 -0.084550123977 0.862 1.33535209743e-38
0.0302400959984 -0.0843539519956 0.86 8.20708000431e-39
0.0317576528356 -0.0841577800142 0.858 7.6636004079e-39
0.0333455354773 -0.0841577800142 0.858 7.38809391943e-39
0.0346484135424 -0.0834711780794 0.851 7.75687083369e-39
0.0362233414307 -0.0834711780794 0.851 7.66575280234e-39
0.0377094367236 -0.083275006098 0.849 7.57535223581e-39
0.0391881293003 -0.0830788341166 0.847 7.29948701493e-39
0.0406594191607 -0.0828826621352 0.845 8.12887633961e-39
0.0421233063048 -0.0826864901538 0.843 7.20765151877e-39
0.0436834287605 -0.0826864901538 0.843 8.03668211104e-39
0.0452435512162 -0.0826864901538 0.843 7.4856691341e-39
0.0466926329278 -0.0824903181724 0.841 7.39383363794e-39
0.0481343119231 -0.0822941461911 0.839 7.85588097798e-39
0.0495685882021 -0.0820979742097 0.837 7.76404548183e-39
0.0511176065834 -0.0820979742097 0.837 7.94735774173e-39
0.0526666249647 -0.0820979742097 0.837 8.31505845877e-39
0.054215643346 -0.0820979742097 0.837 7.85444604836e-39
0.0556314128343 -0.0819018022283 0.835 7.85623971039e-39
0.0571767298575 -0.0819018022283 0.835 8.03883450549e-39
0.0587220468807 -0.0819018022283 0.835 8.04062816752e-39
0.0602673639038 -0.0819018022283 0.835 8.31541719118e-39
0.061812680927 -0.0819018022283 0.835 8.59235860928e-39
0.0633579979502 -0.0819018022283 0.835 8.77782326363e-39
0.0649033149734 -0.0819018022283 0.835 8.40904634937e-39
0.0664486319965 -0.0819018022283 0.835 8.68527030266e-39
0.0679939490197 -0.0819018022283 0.835 8.5930760741e-39
0.0697058271592 -0.0820979742097 0.837 8.50231677516e-39
0.0712548455405 -0.0820979742097 0.837 9.14767637511e-39
0.0729778277543 -0.0822941461911 0.839 9.23915313886e-39
0.0747082126845 -0.0824903181724 0.841 9.42282413118e-39
0.0764460003309 -0.0826864901538 0.843 9.05727580858e-39
0.0781911906936 -0.0828826621352 0.845 9.517888219e-39
0.0801325530377 -0.083275006098 0.849 9.69940681687e-39
0.0818962501911 -0.0834711780794 0.851 1.00671075339e-38
0.0834711780794 -0.0834711780794 0.851 1.0895061929e-38
0.0853459159769 -0.0837654360515 0.854 1.05287961416e-38
0.0869263959024 -0.0837654360515 0.854 1.07110322042e-38
0.0881959617442 -0.0834711780794 0.851 1.5219624534e-38
0.0897708896325 -0.0834711780794 0.851 2.35062058054e-38
0.0913458175208 -0.0834711780794 0.851 2.35076211168e-38
0.0257318417847 -0.0836284858003 0.869 1.91474529191e-38
0.0272771588079 -0.083436015177 0.867 1.94312326737e-38
0.0288816975613 -0.083436015177 0.867 1.90628355113e-38
0.0303104218031 -0.0829548386189 0.862 1.21563818871e-38
0.0318316799983 -0.0827623679957 0.86 8.67522579527e-39
0.0333455354773 -0.0825698973724 0.858 7.48136434521e-39
0.0349334181191 -0.0825698973724 0.858 7.66611153475e-39
0.0363510382865 -0.082184956126 0.854 8.0345297166e-39
0.037931518212 -0.082184956126 0.854 6.74739784076e-39
0.0393731972073 -0.0818962501911 0.851 6.84030953414e-39
0.0408518897839 -0.0817037795678 0.849 7.85372858354e-39
0.0422232429745 -0.0813188383213 0.845 7.21088011044e-39
0.0436834287605 -0.0811263676981 0.843 7.02541545609e-39
0.0452435512162 -0.0811263676981 0.843 8.13102873405e-39
0.046803673672 -0.0811263676981 0.843 7.48638659891e-39
0.0482490540254 -0.0809338970749 0.841 7.48638659891e-39
0.0496870316625 -0.0807414264516 0.839 7.67077505604e-39
0.0511176065834 -0.0805489558284 0.837 7.57858082748e-39
0.0526666249647 -0.0805489558284 0.837 8.0395519703e-39
0.054215643346 -0.0805489558284 0.837 7.94664027692e-39
0.0557646617273 -0.0805489558284 0.837 8.68598776747e-39
0.0571767298575 -0.0803564852051 0.835 8.50016438072e-39
0.0587220468807 -0.0803564852051 0.835 7.58073322192e-39
0.0602673639038 -0.0803564852051 0.835 8.31613465599e-39
0.061812680927 -0.0803564852051 0.835 8.40868761697e-39
0.0636615093176 -0.0807414264516 0.839 8.22465789224e-39
0.0650587720152 -0.0805489558284 0.837 8.50195804275e-39
0.0666077903965 -0.0805489558284 0.837 9.14588271308e-39
0.0681568087778 -0.0805489558284 0.837 8.86822383016e-39
0.0698723882754 -0.0807414264516 0.839 1.00685424635e-38
0.0714251080149 -0.0807414264516 0.839 8.87109368942e-39
0.0731517915869 -0.0809338970749 0.841 8.96150686763e-39
0.0748858778752 -0.0811263676981 0.843 9.14588271308e-39
0.0766273668797 -0.0813188383213 0.845 9.70012428169e-39
0.0785613265075 -0.0817037795678 0.849 9.97634823498e-39
0.0803213223028 -0.0818962501911 0.851 9.79160104544e-39
0.082184956126 -0.082184956126 0.854 1.10819699207e-38
0.0837654360515 -0.082184956126 0.854 1.08957793938e-38
0.0853459159769 -0.082184956126 0.854 1.09865386927e-38
0.0869263959024 -0.082184956126 0.854 1.08932682669e-38
0.0885068758279 -0.082184956126 0.854 2.35079798492e-38
0.0900873557534 -0.082184956126 0.854 2.35055135639e-38
0.0256726200545 -0.0818314764236 0.867 1.84113172046e-38
0.0272771588079 -0.0818314764236 0.867 1.97996564608e-38
0.0288816975613 -0.0818314764236 0.867 1.97989403973e-38
0.0303104218031 -0.0813595532609 0.862 1.75887942424e-38
0.0318316799983 -0.0811707839958 0.86 1.12383744475e-38
0.0334232639983 -0.0811707839958 0.86 7.47598335911e-39
0.0350148479982 -0.0811707839958 0.86 7.66575280234e-39
0.0365213007609 -0.0809820147307 0.858 7.39096377868e-39
0.0380203508073 -0.0807932454656 0.856 7.6686226616e-39
0.0395119981375 -0.0806044762005 0.854 7.30020447975e-39
0.0409481250955 -0.0803213223028 0.851 7.48531040169e-39
0.0424231163141 -0.0801325530377 0.849 7.7626105522e-39
0.0437870667884 -0.0797550145075 0.845 7.85372858354e-39
0.0453508906023 -0.0797550145075 0.845 7.85444604836e-39
0.0469147144162 -0.0797550145075 0.845 7.67077505604e-39
0.0483637961277 -0.0795662452424 0.843 7.57858082748e-39
0.049805475123 -0.0793774759773 0.841 8.86859097036e-39
0.0513618962206 -0.0793774759773 0.841 7.57893955988e-39
0.0529183173182 -0.0793774759773 0.841 8.03847577308e-39
0.0546042859506 -0.0795662452424 0.843 7.94843393896e-39
0.0557646617273 -0.078999937447 0.837 7.94879267136e-39
0.0573136801086 -0.078999937447 0.837 8.3164933884e-39
0.05886269849 -0.078999937447 0.837 9.05440594933e-39
0.0604117168713 -0.078999937447 0.837 7.94771647414e-39
0.0619607352526 -0.078999937447 0.837 9.14516524826e-39
0.0638132650013 -0.0793774759773 0.841 8.5930760741e-39
0.0653696860989 -0.0793774759773 0.841 8.22537535706e-39
0.0669261071965 -0.0793774759773 0.841 8.410481279e-39
0.0684825282941 -0.0793774759773 0.841 8.8700174922e-39
0.070205510508 -0.0795662452424 0.843 8.8703762246e-39
0.0717656329637 -0.0795662452424 0.843 8.87073495701e-39
0.0733257554194 -0.0795662452424 0.843 9.42354159599e-39
0.0750635430659 -0.0797550145075 0.845 9.60828878553e-39
0.0768087334286 -0.0799437837726 0.847 9.51609455696e-39
0.0787463944145 -0.0803213223028 0.851 9.79088358063e-39
0.0806044762005 -0.0806044762005 0.854 1.0989408552e-38
0.082184956126 -0.0806044762005 0.854 1.10801678509e-38
0.0837654360515 -0.0806044762005 0.854 9.789448651e-39
0.0853459159769 -0.0806044762005 0.854 1.0157149368e-38
0.0869263959024 -0.0806044762005 0.854 2.28596116615e-38
0.0887141518838 -0.0807932454656 0.856 2.34997584311e-38
0.0902983331674 -0.0807932454656 0.856 2.35029898254e-38
0.0273400818963 -0.0804120055772 0.869 1.97063874363e-38
0.0289483220078 -0.0804120055772 0.869 1.94297949415e-38
0.0303104218031 -0.0797642679028 0.862 1.95212745078e-38
0.0319057071611 -0.0797642679028 0.862 1.85121672538e-38
0.0334232639983 -0.0795791999959 0.86 1.25301670421e-38
0.0350148479982 -0.0795791999959 0.86 7.75113111518e-39
0.0365213007609 -0.0793941320889 0.858 8.40402409568e-39
0.0380203508073 -0.0792090641819 0.856 7.39096377868e-39
0.0395119981375 -0.079023996275 0.854 7.39096377868e-39
0.0409481250955 -0.0787463944145 0.851 7.57642843303e-39
0.0425230529838 -0.0787463944145 0.851 7.30092194456e-39
0.0439943428442 -0.0785613265075 0.849 7.30128067697e-39
0.0455655693744 -0.0785613265075 0.849 7.48531040169e-39
0.0470257551603 -0.0783762586006 0.847 7.76117562257e-39
0.04847853823 -0.0781911906936 0.845 7.94628154451e-39
0.0500423620439 -0.0781911906936 0.845 8.22429915984e-39
0.0516061858578 -0.0781911906936 0.845 7.303074339e-39
0.0531700096716 -0.0781911906936 0.845 8.03883450549e-39
0.0547338334855 -0.0781911906936 0.845 7.76368674942e-39
0.0562976572994 -0.0781911906936 0.845 8.59235860928e-39
0.0577245308621 -0.0780061227866 0.843 8.22465789224e-39
0.0592846533178 -0.0780061227866 0.843 7.67113378845e-39
0.0608447757736 -0.0780061227866 0.843 8.77710579882e-39
0.0624048982293 -0.0780061227866 0.843 8.22465789224e-39
0.063965020685 -0.0780061227866 0.843 8.31721085321e-39
0.0655251431408 -0.0780061227866 0.843 9.05548214655e-39
0.0670852655965 -0.0780061227866 0.843 8.68706396469e-39
0.0686453880522 -0.0780061227866 0.843 8.50231677516e-39
0.070205510508 -0.0780061227866 0.843 9.05476468173e-39
0.0719358954381 -0.0781911906936 0.845 9.14588271308e-39
0.073499719252 -0.0781911906936 0.845 8.87183077241e-39
0.0752412082565 -0.0783762586006 0.847 8.59738086298e-39
0.0769900999774 -0.0785613265075 0.849 9.517888219e-39
0.0787463944145 -0.0787463944145 0.851 1.01589430301e-38
0.0806044762005 -0.079023996275 0.854 1.03444076844e-38
0.082184956126 -0.079023996275 0.854 1.08046613624e-38
0.0837654360515 -0.079023996275 0.854 9.9724021785e-39
0.0853459159769 -0.079023996275 0.854 2.15717497091e-38
0.0869263959024 -0.079023996275 0.854 2.35008486414e-38
0.0887141518838 -0.0792090641819 0.856 2.34976102406e-38
0.0907202879953 -0.0795791999959 0.86 2.35073184364e-38
0.0259095069754 -0.0793478651121 0.875 1.96080401062e-38
0.0273400818963 -0.0788037654657 0.869 1.92454134909e-38
0.0289483220078 -0.0788037654657 0.869 1.97989375947e-38
0.0303807476077 -0.0783503490936 0.864 1.97992907219e-38
0.0319057071611 -0.0781689825448 0.862 1.99818995299e-38
0.0334232639983 -0.0779876159959 0.86 1.91568304084e-38
0.0350148479982 -0.0779876159959 0.86 1.41843326169e-38
0.0365213007609 -0.0778062494471 0.858 1.01420826069e-38
0.0380203508073 -0.0776248828983 0.856 8.0341709842e-39
0.0395119981375 -0.0774435163495 0.854 7.30020447975e-39
0.0409481250955 -0.0771714665262 0.851 7.94448788248e-39
0.0425230529838 -0.0771714665262 0.851 8.49765325387e-39
0.0439943428442 -0.0769900999774 0.849 8.31434099396e-39
0.0455655693744 -0.0769900999774 0.849 7.66898139401e-39
0.0471367959045 -0.0769900999774 0.849 7.94592281211e-39
0.0485932803324 -0.0768087334286 0.847 7.76332801701e-39
0.0501608055044 -0.0768087334286 0.847 7.67113378845e-39
0.0517283306764 -0.0768087334286 0.847 8.22394042743e-39
0.0532958558484 -0.0768087334286 0.847 8.13031126924e-39
0.0548633810204 -0.0768087334286 0.847 8.4990881835e-39
0.0564309061924 -0.0768087334286 0.847 8.13138746646e-39
0.0578614811133 -0.0766273668797 0.845 9.23771820924e-39
0.0594253049271 -0.0766273668797 0.845 8.86750636535e-39
0.060989128741 -0.0766273668797 0.845 8.86750636535e-39
0.0625529525549 -0.0766273668797 0.845 8.59271734169e-39
0.063965020685 -0.0764460003309 0.843 8.41012254659e-39
0.0655251431408 -0.0764460003309 0.843 7.95130379821e-39
0.0670852655965 -0.0764460003309 0.843 9.51573582456e-39
0.0688082478104 -0.0766273668797 0.845 8.40976381419e-39
0.0703720716242 -0.0766273668797 0.845 9.42354159599e-39
0.0719358954381 -0.0766273668797 0.845 1.02536483855e-38
0.0736736830845 -0.0768087334286 0.847 9.42174793396e-39
0.0754188734472 -0.0769900999774 0.849 1.01596604949e-38
0.0769900999774 -0.0769900999774 0.849 9.883795274e-39
0.079023996275 -0.0774435163495 0.854 1.03444076844e-38
0.0806044762005 -0.0774435163495 0.854 9.51573582456e-39
0.082184956126 -0.0774435163495 0.854 1.08943444641e-38
0.0837654360515 -0.0774435163495 0.854 2.18450897902e-38
0.0853459159769 -0.0774435163495 0.854 2.35004829025e-38
0.0869263959024 -0.0774435163495 0.854 2.34972515082e-38
0.0891287039954 -0.0779876159959 0.86 2.34972416991e-38
0.0907202879953 -0.0779876159959 0.86 2.35044485771e-38
0.0259095069754 -0.0777285209262 0.875 1.95172962215e-38
0.0275288511614 -0.0777285209262 0.875 1.91535681856e-38
0.0290149464543 -0.0773731905448 0.871 1.90617186765e-38
0.0305565621193 -0.0771955253541 0.869 1.98922080204e-38
0.0320907750681 -0.0770178601634 0.867 1.99826029818e-38
0.0335787210401 -0.0767513623774 0.864 2.06276192636e-38
0.0350962778772 -0.0765736971867 0.862 2.05372214997e-38
0.0366064319981 -0.076396031996 0.86 1.68558632976e-38
0.0381091834027 -0.0762183668053 0.858 1.30869169349e-38
0.0396970660444 -0.0762183668053 0.858 8.39684944754e-39
0.0411887133746 -0.0760407016146 0.856 6.93106883308e-39
0.0426729579885 -0.075863036424 0.854 7.7626105522e-39
0.0440979808721 -0.0755965386379 0.851 7.85408731595e-39
0.0456729087604 -0.0755965386379 0.851 8.86750636535e-39
0.0471367959045 -0.0754188734472 0.849 7.57858082748e-39
0.0487080224347 -0.0754188734472 0.849 7.85408731595e-39
0.0502792489648 -0.0754188734472 0.849 8.03883450549e-39
0.051850475495 -0.0754188734472 0.849 8.40689395493e-39
0.0534217020251 -0.0754188734472 0.849 8.49729452146e-39
0.0549929285553 -0.0754188734472 0.849 9.14444778345e-39
0.0565641550854 -0.0754188734472 0.849 8.59271734169e-39
0.0581353816156 -0.0754188734472 0.849 8.22465789224e-39
0.0595659565364 -0.0752412082565 0.847 8.95934186151e-39
0.0611334817084 -0.0752412082565 0.847 8.68275917581e-39
0.0625529525549 -0.0750635430659 0.845 8.68455283785e-39
0.0641167763688 -0.0750635430659 0.845 8.8700174922e-39
0.0656806001826 -0.0750635430659 0.845 8.87109368942e-39
0.0672444239965 -0.0750635430659 0.845 8.77746453123e-39
0.0688082478104 -0.0750635430659 0.845 9.23807694164e-39
0.0703720716242 -0.0750635430659 0.845 8.96149425595e-39
0.0721061579125 -0.0752412082565 0.847 8.87073495701e-39
0.0738476469171 -0.0754188734472 0.849 9.8834365416e-39
0.0754188734472 -0.0754188734472 0.849 9.14624144548e-39
0.0771714665262 -0.0755965386379 0.851 9.42282413118e-39
0.079023996275 -0.075863036424 0.854 9.42138920155e-39
0.0806044762005 -0.075863036424 0.854 1.54011066981e-38
0.082184956126 -0.075863036424 0.854 2.34999742311e-38
0.0837654360515 -0.075863036424 0.854 2.34975625965e-38
0.0853459159769 -0.075863036424 0.854 2.34928836609e-38
0.0869263959024 -0.075863036424 0.854 2.34932942413e-38
0.0885068758279 -0.075863036424 0.854 2.35008276219e-38
0.0275288511614 -0.0761091767402 0.875 1.91535835999e-38
0.0290149464543 -0.0757612490751 0.871 1.98922500594e-38
0.030626887924 -0.0757612490751 0.871 1.91539339245e-38
0.0321648022309 -0.0755872852426 0.869 1.98914989634e-38
0.0336953138215 -0.07541332141 0.867 1.98915045686e-38
0.0351777077563 -0.0751523756612 0.864 2.05368837867e-38
0.0366064319981 -0.0748044479961 0.86 2.08138111919e-38
0.038198015998 -0.0748044479961 0.86 1.99869063694e-38
0.0396970660444 -0.0746304841636 0.858 1.5476170053e-38
0.0411887133746 -0.074456520331 0.856 1.17065146333e-38
0.0427728946582 -0.074456520331 0.856 8.76670255902e-39
0.044253437914 -0.0742825564985 0.854 8.40474156049e-39
0.0458339178395 -0.0742825564985 0.854 7.76153435498e-39
0.0472478366487 -0.0740216107496 0.851 7.57858082748e-39
0.048822764537 -0.0740216107496 0.851 7.76296928461e-39
0.0503976924253 -0.0740216107496 0.851 8.2221467654e-39
0.0519726203136 -0.0740216107496 0.851 8.13102873405e-39
0.0534217020251 -0.0738476469171 0.849 8.68275917581e-39
0.0549929285553 -0.0738476469171 0.849 8.2221467654e-39
0.0565641550854 -0.0738476469171 0.849 7.57929829229e-39
0.0581353816156 -0.0738476469171 0.849 8.40904634937e-39
0.0597066081457 -0.0738476469171 0.849 8.40904634937e-39
0.0612778346759 -0.0738476469171 0.849 8.3164933884e-39
0.0627010068805 -0.0736736830845 0.847 8.77782326363e-39
0.0642685320525 -0.0736736830845 0.847 8.8700174922e-39
0.0658360572245 -0.0736736830845 0.847 8.77782326363e-39
0.0674035823965 -0.0736736830845 0.847 9.69833061965e-39
0.0691339673266 -0.0738476469171 0.849 8.77710579882e-39
0.0707051938568 -0.0738476469171 0.849 9.42282413118e-39
0.0722764203869 -0.0738476469171 0.849 9.23879440646e-39
0.0740216107496 -0.0740216107496 0.851 9.05368848451e-39
0.0755965386379 -0.0740216107496 0.851 1.08936269993e-38
0.0774435163495 -0.0742825564985 0.854 1.32824260967e-38
0.079023996275 -0.0742825564985 0.854 2.09206573972e-38
0.0807932454656 -0.074456520331 0.856 2.34978975068e-38
0.0823774267492 -0.074456520331 0.856 2.34979423483e-38
0.0839616080328 -0.074456520331 0.856 2.34961122525e-38
0.0855457893165 -0.074456520331 0.856 2.34953975903e-38
0.0871299706001 -0.074456520331 0.856 2.34979479535e-38
0.026057561301 -0.0749154887403 0.88 2.00729839301e-38
0.0275288511614 -0.0744898325543 0.875 1.92446834144e-38
0.0290815709008 -0.0743195700798 0.873 1.94283880378e-38
0.030626887924 -0.0741493076054 0.871 1.97060413156e-38
0.0321648022309 -0.073979045131 0.869 1.95223913427e-38
0.0336953138215 -0.0738087826566 0.867 1.97067545765e-38
0.0352998525749 -0.0738087826566 0.867 1.99840533257e-38
0.0366915632353 -0.0733831264706 0.862 2.04443042011e-38
0.038198015998 -0.0732128639962 0.86 2.09978269036e-38
0.0396970660444 -0.0730426015218 0.858 2.09067326943e-38
0.0412849486862 -0.0730426015218 0.858 1.97125209197e-38
0.0427728946582 -0.0728723390474 0.856 1.79660392033e-38
0.0443570759419 -0.0728723390474 0.856 1.39156014065e-38
0.0459412572255 -0.0728723390474 0.856 1.08799951679e-38
0.047414397765 -0.072702076573 0.854 8.4000780392e-39
0.0489948776905 -0.072702076573 0.854 9.60326653183e-39
0.050575357616 -0.072702076573 0.854 8.12923507202e-39
0.0521558375415 -0.072702076573 0.854 8.4994469159e-39
0.0535475482019 -0.0724466828613 0.851 8.86750636535e-39
0.0551224760902 -0.0724466828613 0.851 8.59020621484e-39
0.0566974039784 -0.0724466828613 0.851 8.77782326363e-39
0.0581353816156 -0.0722764203869 0.849 8.96113552354e-39
0.0597066081457 -0.0722764203869 0.849 8.41012254659e-39
0.0612778346759 -0.0722764203869 0.849 8.77782326363e-39
0.062849061206 -0.0722764203869 0.849 8.96328791798e-39
0.0644202877362 -0.0722764203869 0.849 9.42354159599e-39
0.0658360572245 -0.0721061579125 0.847 8.7760296016e-39
0.0674035823965 -0.0721061579125 0.847 9.42210666637e-39
0.0691339673266 -0.0722764203869 0.849 8.59056494725e-39
0.0707051938568 -0.0722764203869 0.849 1.01564319032e-38
0.0722764203869 -0.0722764203869 0.849 1.18098295665e-38
0.0740216107496 -0.0724466828613 0.851 1.52131239104e-38
0.075863036424 -0.072702076573 0.854 2.15635058703e-38
0.0774435163495 -0.072702076573 0.854 2.34953751695e-38
0.079023996275 -0.072702076573 0.854 2.34968479342e-38
0.0809820147307 -0.0730426015218 0.858 2.34936039283e-38
0.0825698973724 -0.0730426015218 0.858 2.34918060624e-38
0.0841577800142 -0.0730426015218 0.858 2.34939836802e-38
0.085745662656 -0.0730426015218 0.858 2.34932732219e-38
0.0873335452978 -0.0730426015218 0.858 2.34965158265e-38
0.026057561301 -0.073286891159 0.88 2.02577479352e-38
0.0275288511614 -0.0728704883683 0.875 1.94290816806e-38
0.0290815709008 -0.072703927252 0.873 1.9796432073e-38
0.0306972137286 -0.072703927252 0.873 2.01662935923e-38
0.0322388293937 -0.0725373661358 0.871 1.9706038513e-38
0.0337730423424 -0.0723708050195 0.869 1.97063916402e-38
0.0352998525749 -0.0722042439032 0.867 2.03539120424e-38
0.0366915632353 -0.0717878411125 0.862 2.07198331104e-38
0.038198015998 -0.0716212799963 0.86 2.19198238399e-38
0.0397895999979 -0.0716212799963 0.86 2.07219686892e-38
0.0412849486862 -0.07145471888 0.858 2.15485021676e-38
0.042872831328 -0.07145471888 0.858 2.18283162476e-38
0.0444607139698 -0.07145471888 0.858 2.09092438212e-38
0.0460485966116 -0.07145471888 0.858 2.00827047376e-38
0.0476364792533 -0.07145471888 0.858 1.7413686585e-38
0.0491096197928 -0.0712881577637 0.856 1.57573209716e-38
0.050575357616 -0.0711215966475 0.854 1.36397235739e-38
0.0521558375415 -0.0711215966475 0.854 1.20788788716e-38
0.053736317467 -0.0711215966475 0.854 1.00563455617e-38
0.0553167973925 -0.0711215966475 0.854 9.69366709836e-39
0.0566974039784 -0.0708717549731 0.851 9.04902496322e-39
0.0582723318667 -0.0708717549731 0.851 8.68060678137e-39
0.059847259755 -0.0708717549731 0.851 9.14229538901e-39
0.0614221876433 -0.0708717549731 0.851 9.32560764892e-39
0.0629971155316 -0.0708717549731 0.851 9.78550259452e-39
0.0645720434199 -0.0708717549731 0.851 1.07056512181e-38
0.0659915142663 -0.0707051938568 0.849 1.20839011253e-38
0.0675627407965 -0.0707051938568 0.849 1.42901054276e-38
0.0692968270848 -0.0708717549731 0.851 1.70505512984e-38
0.0708717549731 -0.0708717549731 0.851 1.97188519861e-38
0.0724466828613 -0.0708717549731 0.851 2.24819070747e-38
0.0742825564985 -0.0711215966475 0.854 2.34968199083e-38
0.075863036424 -0.0711215966475 0.854 2.34939514503e-38
0.0776248828983 -0.0712881577637 0.856 2.34921689987e-38
0.0792090641819 -0.0712881577637 0.856 2.34917990559e-38
0.0811707839958 -0.0716212799963 0.86 2.34928850622e-38
0.0831473092422 -0.0719544022288 0.864 2.34939696672e-38
0.0850405539305 -0.0722042439032 0.867 2.34954186098e-38
0.0868449660234 -0.0723708050195 0.869 2.34968857693e-38
0.0886567808326 -0.0725373661358 0.871 2.34939836802e-38
0.0902687223023 -0.0725373661358 0.871 2.35062352326e-38
0.024623285022 -0.0722283027311 0.887 1.71216643929e-38
0.026057561301 -0.0716582935777 0.88 1.97038468822e-38
0.0276232357939 -0.0714954338195 0.878 1.96127260482e-38
0.0290815709008 -0.0710882844242 0.873 1.99808037145e-38
0.0306972137286 -0.0710882844242 0.873 2.00726336055e-38
0.0322388293937 -0.0709254246661 0.871 1.98907983142e-38
0.0338507708634 -0.0709254246661 0.871 2.06283227154e-38
0.035381282454 -0.0707625649079 0.869 1.9523439514e-38
0.0367766944725 -0.0703554155126 0.864 2.081383081e-38
0.0382868485934 -0.0701925557545 0.862 2.09063767645e-38
0.0397895999979 -0.0700296959964 0.86 2.05368557608e-38
0.0413811839978 -0.0700296959964 0.86 2.15481490404e-38
0.0429727679978 -0.0700296959964 0.86 2.16421453388e-38
0.0445643519977 -0.0700296959964 0.86 2.14595337281e-38
0.0461559359976 -0.0700296959964 0.86 2.16425096764e-38
0.0476364792533 -0.0698668362382 0.858 2.24711773324e-38
0.0492243618951 -0.0698668362382 0.858 2.34856893946e-38
0.0508122445369 -0.0698668362382 0.858 2.15539167849e-38
0.0524001271787 -0.0698668362382 0.858 2.11886795505e-38
0.0538621636437 -0.0697039764801 0.856 1.99008175982e-38
0.0553167973925 -0.069541116722 0.854 1.97182185992e-38
0.056897277318 -0.069541116722 0.854 1.90731869031e-38
0.0584777572435 -0.069541116722 0.854 1.90717645852e-38
0.060058237169 -0.069541116722 0.854 1.90717617826e-38
0.0616387170945 -0.069541116722 0.854 1.97174604967e-38
0.06321919702 -0.069541116722 0.854 2.01784582642e-38
0.0647996769455 -0.069541116722 0.854 2.03635753966e-38
0.0661469713082 -0.0692968270848 0.851 2.24819042721e-38
0.0677218991965 -0.0692968270848 0.851 2.32159142168e-38
0.069541116722 -0.069541116722 0.854 2.34921591896e-38
0.0711215966475 -0.069541116722 0.854 2.34932522024e-38
0.072702076573 -0.069541116722 0.854 2.34918018585e-38
0.074456520331 -0.0697039764801 0.856 2.34910829924e-38
0.0760407016146 -0.0697039764801 0.856 2.34914319157e-38
0.0778062494471 -0.0698668362382 0.858 2.34882019227e-38
0.0793941320889 -0.0698668362382 0.858 2.34939654633e-38
0.0813595532609 -0.0701925557545 0.862 2.34921521831e-38
0.083436015177 -0.0705997051498 0.867 2.34950444631e-38
0.0850405539305 -0.0705997051498 0.867 2.34975527874e-38
0.0868449660234 -0.0707625649079 0.869 2.34972066666e-38
0.0886567808326 -0.0709254246661 0.871 2.34993478507e-38
0.0902687223023 -0.0709254246661 0.871 2.35048185199e-38
0.024623285022 -0.0705867503963 0.887 1.83201907655e-38
0.0261167830312 -0.0701888543963 0.882 1.97956935887e-38
0.0276232357939 -0.0698705375964 0.878 1.9704939895e-38
0.0291481953473 -0.0696317999964 0.875 2.01648446497e-38
0.0307675395333 -0.0696317999964 0.875 1.97967880028e-38
0.0323128565565 -0.0694726415964 0.873 1.97967880028e-38
0.0338507708634 -0.0693134831964 0.871 2.11797420689e-38
0.035462712333 -0.0693134831964 0.871 2.03532029853e-38
0.0369895225655 -0.0691543247964 0.869 2.05361705258e-38
0.0383756811887 -0.0687564287964 0.864 2.08131119439e-38
0.0398821339514 -0.0685972703964 0.862 2.09971234518e-38
0.0413811839978 -0.0684381119964 0.86 2.18261610505e-38
0.0429727679978 -0.0684381119964 0.86 2.19194524958e-38
0.0445643519977 -0.0684381119964 0.86 2.16432159308e-38
0.0461559359976 -0.0684381119964 0.86 2.2746717452e-38
0.0477475199975 -0.0684381119964 0.86 2.17318242366e-38
0.0493391039974 -0.0684381119964 0.86 2.34831852742e-38
0.0508122445369 -0.0682789535964 0.858 2.26562762478e-38
0.0524001271787 -0.0682789535964 0.858 2.24733269242e-38
0.0539880098204 -0.0682789535964 0.858 2.33016638737e-38
0.0555758924622 -0.0682789535964 0.858 2.30225756664e-38
0.057030526211 -0.0681197951965 0.856 2.34871313307e-38
0.0584777572435 -0.0679606367965 0.854 2.34856907959e-38
0.060058237169 -0.0679606367965 0.854 2.34882145344e-38
0.0616387170945 -0.0679606367965 0.854 2.3486409662e-38
0.06321919702 -0.0679606367965 0.854 2.34896396549e-38
0.0647996769455 -0.0679606367965 0.854 2.34896270432e-38
0.066380156871 -0.0679606367965 0.854 2.34874816553e-38
0.0679606367965 -0.0679606367965 0.854 2.34896592731e-38
0.0697039764801 -0.0681197951965 0.856 2.34903767379e-38
0.07145471888 -0.0682789535964 0.858 2.34871341333e-38
0.0730426015218 -0.0682789535964 0.858 2.34885634577e-38
0.0746304841636 -0.0682789535964 0.858 2.34903543172e-38
0.076396031996 -0.0684381119964 0.86 2.3492583783e-38
0.0779876159959 -0.0684381119964 0.86 2.34892921329e-38
0.0797642679028 -0.0685972703964 0.862 2.34911012092e-38
0.081548322526 -0.0687564287964 0.864 2.34928808583e-38
0.0836284858003 -0.0691543247964 0.869 2.34911012092e-38
0.0852367259118 -0.0691543247964 0.869 2.34947053489e-38
0.0868449660234 -0.0691543247964 0.869 2.34954144059e-38
0.0886567808326 -0.0693134831964 0.871 2.34986359911e-38
0.0246788053941 -0.0691006551034 0.889 1.82280175564e-38
0.0262056156265 -0.0687897410197 0.885 1.99804505873e-38
0.0276861588823 -0.068401098415 0.88 1.9429078878e-38
0.0292481320171 -0.0682456413732 0.878 2.01670124584e-38
0.0307675395333 -0.0680124558104 0.875 1.9429116713e-38
0.0323128565565 -0.0678569987686 0.873 1.9980800912e-38
0.0339284993843 -0.0678569987686 0.873 2.05343670547e-38
0.035462712333 -0.0677015417267 0.871 2.05350691052e-38
0.0369895225655 -0.0675460846849 0.869 2.06251193471e-38
0.0383756811887 -0.0671574420802 0.864 2.11807888389e-38
0.0398821339514 -0.0670019850384 0.862 2.15506503582e-38
0.0414774193095 -0.0670019850384 0.862 2.10878771455e-38
0.0430727046675 -0.0670019850384 0.862 2.27473578454e-38
0.0446679900256 -0.0670019850384 0.862 2.18257953116e-38
0.0462632753836 -0.0670019850384 0.862 2.20091313936e-38
0.0477475199975 -0.0668465279965 0.86 2.31154621364e-38
0.0493391039974 -0.0668465279965 0.86 2.26552098597e-38
0.0509306879973 -0.0668465279965 0.86 2.23797243907e-38
0.0525222719973 -0.0668465279965 0.86 2.27481187505e-38
0.0541138559972 -0.0668465279965 0.86 2.27463250884e-38
0.0557054399971 -0.0668465279965 0.86 2.34860663439e-38
0.057297023997 -0.0668465279965 0.86 2.34853306622e-38
0.0587516577458 -0.0666910709547 0.858 2.34842670766e-38
0.0603395403876 -0.0666910709547 0.858 2.32984212691e-38
0.0617830700619 -0.0665356139128 0.856 2.34918074637e-38
0.0633672513455 -0.0665356139128 0.856 2.34878529994e-38
0.0649514326292 -0.0665356139128 0.856 2.34871229229e-38
0.0665356139128 -0.0665356139128 0.856 2.34864068594e-38
0.0681197951965 -0.0665356139128 0.856 2.34864250763e-38
0.0698668362382 -0.0666910709547 0.858 2.34882215409e-38
0.0716212799963 -0.0668465279965 0.86 2.34889109797e-38
0.0732128639962 -0.0668465279965 0.86 2.34914697507e-38
0.0748044479961 -0.0668465279965 0.86 2.34900166042e-38
0.0765736971867 -0.0670019850384 0.862 2.34903837444e-38
0.0781689825448 -0.0670019850384 0.862 2.34921507818e-38
0.0802269376702 -0.067390627643 0.867 2.34947039476e-38
0.0818314764236 -0.067390627643 0.867 2.34932493998e-38
0.0836284858003 -0.0675460846849 0.869 2.3495424215e-38
0.0854328978932 -0.0677015417267 0.871 2.3495424215e-38
0.0870448393629 -0.0677015417267 0.871 2.34983052846e-38
0.0888603555303 -0.0678569987686 0.873 2.34979507561e-38
0.0246788053941 -0.0674554014104 0.889 1.83170084167e-38
0.0262648373568 -0.0673036457267 0.887 1.88766113532e-38
0.0277490819706 -0.0669242565174 0.882 1.98911486388e-38
0.0292481320171 -0.06662074515 0.878 1.94308795465e-38
0.0308730282403 -0.06662074515 0.878 1.97064014493e-38
0.0323128565565 -0.0662413559407 0.873 2.03524799153e-38
0.0339284993843 -0.0662413559407 0.873 2.05368683725e-38
