# .PCD v0.7 - Point Cloud Data file format
VERSION 0.7
FIELDS x y z rgb
SIZE 4 4 4 4
TYPE F F F F
COUNT 1 1 1 1
WIDTH 859
HEIGHT 1
VIEWPOINT 0 0 0 1 0 0 0
POINTS 859
DATA ascii
0.0747526289822 -0.15683394708 0.792 2.24686479886e-38
0.0762183668053 -0.15683394708 0.792 2.34939402399e-38
0.0411239396072 -0.16144954068 0.823 1.96145267167e-38
0.0426470484815 -0.16144954068 0.823 1.66636037469e-38
0.0441701573558 -0.16144954068 0.823 1.64817110024e-38
0.0454711847418 -0.160664852754 0.819 1.39938905504e-38
0.0457820988255 -0.156545241145 0.798 1.39031466657e-38
0.0472589407231 -0.156545241145 0.798 1.72207249839e-38
0.0486136378021 -0.156152897183 0.796 1.70366840488e-38
0.0500867783416 -0.156152897183 0.796 1.77724624322e-38
0.0514303713462 -0.15576055322 0.794 1.97989502063e-38
0.0528998105275 -0.15576055322 0.794 1.97060413156e-38
0.0543692497088 -0.15576055322 0.794 1.96123939405e-38
0.0556980372808 -0.155368209257 0.792 1.95209213806e-38
0.057163775104 -0.155368209257 0.792 1.94305292219e-38
0.0586295129272 -0.155368209257 0.792 1.87851598128e-38
0.0602470064341 -0.15576055322 0.794 1.98907800973e-38
0.0615609885735 -0.155368209257 0.792 2.04442775764e-38
0.0630267263967 -0.155368209257 0.792 2.0629024766e-38
0.0644924642199 -0.155368209257 0.792 2.00755020635e-38
0.0659582020431 -0.155368209257 0.792 2.09963667506e-38
0.0674239398663 -0.155368209257 0.792 2.23775201482e-38
0.0688896776894 -0.155368209257 0.792 2.34867347632e-38
0.0703554155126 -0.155368209257 0.792 2.34896410562e-38
0.0718211533358 -0.155368209257 0.792 2.34867599866e-38
0.073286891159 -0.155368209257 0.792 2.29289156796e-38
0.0747526289822 -0.155368209257 0.792 2.28360137953e-38
0.0762183668053 -0.155368209257 0.792 2.35037199019e-38
0.0382627897654 -0.160703717015 0.827 1.87858604621e-38
0.0396970660444 -0.16031507441 0.825 1.88762610286e-38
0.0411239396072 -0.159926431806 0.823 1.92446806118e-38
0.0426470484815 -0.159926431806 0.823 1.68483495352e-38
0.0440628179698 -0.159537789201 0.821 1.64813550726e-38
0.0454711847418 -0.159149146596 0.819 1.39906157159e-38
0.0460115830302 -0.155845684457 0.802 1.50083956061e-38
0.0473773841836 -0.155457041852 0.8 1.61136641646e-38
0.0487357826207 -0.155068399248 0.798 1.70356246672e-38
0.0500867783416 -0.154679756643 0.796 1.82341538424e-38
0.051559918881 -0.154679756643 0.796 1.92468512231e-38
0.0528998105275 -0.154291114038 0.794 1.96138386792e-38
0.0543692497088 -0.154291114038 0.794 1.97979020351e-38
0.0558386888901 -0.154291114038 0.794 2.04436063545e-38
0.0573081280714 -0.154291114038 0.794 2.06294171295e-38
0.0587775672528 -0.154291114038 0.794 2.08145342619e-38
0.0602470064341 -0.154291114038 0.794 2.06301205814e-38
0.0615609885735 -0.153902471434 0.792 2.09978465218e-38
0.0630267263967 -0.153902471434 0.792 2.25630268415e-38
0.0644924642199 -0.153902471434 0.792 2.2102404622e-38
0.0659582020431 -0.153902471434 0.792 2.28406731127e-38
0.0674239398663 -0.153902471434 0.792 2.27463096741e-38
0.0688896776894 -0.153902471434 0.792 2.24700899248e-38
0.0705330807033 -0.154291114038 0.794 2.19155022354e-38
0.0718211533358 -0.153902471434 0.792 2.32973702952e-38
0.073286891159 -0.153902471434 0.792 2.30211141121e-38
0.0747526289822 -0.153902471434 0.792 2.33909756314e-38
0.0764108374286 -0.154291114038 0.794 2.35004730934e-38
0.0366434455795 -0.158788264178 0.825 2.02595612155e-38
0.038170255812 -0.158788264178 0.825 1.84171003634e-38
0.0396008307328 -0.158403322931 0.823 1.90620886193e-38
0.0411239396072 -0.158403322931 0.823 1.84156500195e-38
0.0425434104536 -0.158018381685 0.821 1.71252825455e-38
0.0438481391977 -0.157248499192 0.817 1.58345633456e-38
0.0451380625093 -0.156478616699 0.813 1.49126042444e-38
0.0461836961836 -0.154938851713 0.805 1.4729294787e-38
0.047495827644 -0.154361439843 0.802 1.66661036634e-38
0.0488579274393 -0.153976498597 0.8 1.6297706501e-38
0.0502126245183 -0.15359155735 0.798 1.72185739908e-38
0.051559918881 -0.153206616104 0.796 1.85989875028e-38
0.0530330594205 -0.153206616104 0.796 1.8967750404e-38
0.0543692497088 -0.152821674857 0.794 2.00744889247e-38
0.0558386888901 -0.152821674857 0.794 2.02610101581e-38
0.0573081280714 -0.152821674857 0.794 2.016879491e-38
0.0587775672528 -0.152821674857 0.794 2.0812732192e-38
0.0602470064341 -0.152821674857 0.794 2.13651716908e-38
0.0615609885735 -0.152436733611 0.792 2.19172874897e-38
0.0630267263967 -0.152436733611 0.792 2.11790161963e-38
0.0644924642199 -0.152436733611 0.792 2.31151272261e-38
0.0659582020431 -0.152436733611 0.792 2.12715691573e-38
0.0674239398663 -0.152436733611 0.792 2.22853637547e-38
0.069063641522 -0.152821674857 0.794 2.23782600338e-38
0.0705330807033 -0.152821674857 0.794 2.24679599511e-38
0.071639786787 -0.152051792364 0.79 2.34835355988e-38
0.073101823252 -0.152051792364 0.79 2.34824495925e-38
0.0747526289822 -0.152436733611 0.792 2.34838831208e-38
0.0764108374286 -0.152821674857 0.794 2.34994025013e-38
0.0778802766099 -0.152821674857 0.794 2.35091261114e-38
0.0824477525538 -0.158788264178 0.825 2.35098351684e-38
0.083567413391 -0.158018381685 0.821 2.35098547866e-38
0.0850868209072 -0.158018381685 0.821 2.3509786123e-38
0.035116635347 -0.157261453945 0.825 1.85089204453e-38
0.0366434455795 -0.157261453945 0.825 1.8598965082e-38
0.0380777218585 -0.156880214057 0.823 1.82301881677e-38
0.0396008307328 -0.156880214057 0.823 1.88769798947e-38
0.0411239396072 -0.156880214057 0.823 1.75858879494e-38
0.0422324963699 -0.155355254504 0.815 1.81379869327e-38
0.0437407998117 -0.155355254504 0.815 1.62962421441e-38
0.0450270217651 -0.154592774727 0.811 1.58359884661e-38
0.0461836961836 -0.153449055062 0.805 1.60182315353e-38
0.0475550493743 -0.153067815173 0.803 1.59289043634e-38
0.0489800722579 -0.152877195229 0.802 1.75877026309e-38
0.0504643168718 -0.152877195229 0.802 1.7494788135e-38
0.0516894664159 -0.152114715453 0.798 1.79543271508e-38
0.0530330594205 -0.151733475564 0.796 1.94290816806e-38
0.05450619996 -0.151733475564 0.796 1.91514312055e-38
0.0559793404994 -0.151733475564 0.796 2.00759154465e-38
0.0573081280714 -0.151352235676 0.794 2.05365208504e-38
0.0587775672528 -0.151352235676 0.794 2.00762489556e-38
0.0602470064341 -0.151352235676 0.794 2.12733446025e-38
0.0617164456154 -0.151352235676 0.794 2.1179366521e-38
0.0631858847967 -0.151352235676 0.794 2.19165854391e-38
0.064655323978 -0.151352235676 0.794 2.16403698936e-38
0.0661247631593 -0.151352235676 0.794 2.18243856054e-38
0.0675942023407 -0.151352235676 0.794 2.21002508263e-38
0.0692376053545 -0.151733475564 0.796 2.24686606003e-38
0.070710745894 -0.151733475564 0.796 2.2652704338e-38
0.071639786787 -0.150589755899 0.79 2.21931527105e-38
0.073101823252 -0.150589755899 0.79 2.34885662603e-38
0.074563859717 -0.150589755899 0.79 2.30229105767e-38
0.0792016614656 -0.156880214057 0.823 2.3503701685e-38
0.08072477034 -0.156880214057 0.823 2.35080541181e-38
0.0822478792143 -0.156880214057 0.823 2.3509837971e-38
0.083567413391 -0.156498974169 0.821 2.35087603725e-38
0.0850868209072 -0.156498974169 0.821 2.35098253593e-38
0.0866062284234 -0.156498974169 0.821 2.35090938815e-38
0.032140743403 -0.156112182243 0.827 1.76777500703e-38
0.0335898251145 -0.155734643713 0.825 1.7956112405e-38
0.0350315041098 -0.155357105183 0.823 1.78628475844e-38
0.0365546129841 -0.155357105183 0.823 1.95223338895e-38
0.037985187905 -0.154979566652 0.821 1.83234501857e-38
0.0395045954212 -0.154979566652 0.821 1.83241732557e-38
0.0410240029374 -0.154979566652 0.821 1.8140505066e-38
0.0422324963699 -0.153846951062 0.815 1.73075256147e-38
0.0436334604256 -0.153469412532 0.813 1.70334316351e-38
0.0450270217651 -0.153091874001 0.811 1.72174781754e-38
0.046298438286 -0.152336796941 0.807 1.64809669129e-38
0.0476734928347 -0.151959258411 0.805 1.61118494831e-38
0.0489800722579 -0.151392950615 0.802 1.70323806612e-38
0.0504643168718 -0.151392950615 0.802 1.78624916546e-38
0.0518190139508 -0.151015412085 0.8 1.86007811648e-38
0.0531663083135 -0.150637873555 0.798 1.90617410972e-38
0.05450619996 -0.150260335025 0.796 1.92450603636e-38
0.0559793404994 -0.150260335025 0.796 1.98900794481e-38
0.0574524810389 -0.150260335025 0.796 2.03532057879e-38
0.0589256215783 -0.150260335025 0.796 2.03535561126e-38
0.0603987621178 -0.150260335025 0.796 2.10900267374e-38
0.0618719026572 -0.150260335025 0.796 2.11829468385e-38
0.0633450431967 -0.150260335025 0.796 2.08131091413e-38
0.0648181837362 -0.150260335025 0.796 2.13641151118e-38
0.0662913242756 -0.150260335025 0.796 2.13637619846e-38
0.0679347272895 -0.150637873555 0.798 2.18222220005e-38
0.0694115691871 -0.150637873555 0.798 2.34824678094e-38
0.0708884110847 -0.150637873555 0.798 2.27456034197e-38
0.0721838864334 -0.150260335025 0.796 2.31158278753e-38
0.0736570269729 -0.150260335025 0.796 2.21946002519e-38
0.0773010140611 -0.154602028122 0.819 2.34899857757e-38
0.0788167202191 -0.154602028122 0.819 2.35065925638e-38
0.0805285983586 -0.154979566652 0.821 2.35098533853e-38
0.0820480058748 -0.154979566652 0.821 2.35098407736e-38
0.083567413391 -0.154979566652 0.821 2.35098575892e-38
0.0850868209072 -0.154979566652 0.821 2.35091205062e-38
0.0866062284234 -0.154979566652 0.821 2.35098309645e-38
0.0306102318124 -0.154581670652 0.827 1.68414831727e-38
0.032140743403 -0.154581670652 0.827 1.75873523063e-38
0.0335898251145 -0.15420783348 0.825 1.74032945556e-38
0.0350315041098 -0.153833996308 0.823 1.82323531739e-38
0.0364657803888 -0.153460159136 0.821 1.83238453519e-38
0.037985187905 -0.153460159136 0.821 1.84152996949e-38
0.0394083601096 -0.153086321964 0.819 1.81401407284e-38
0.0407241929281 -0.15233864762 0.815 1.80497443658e-38
0.0422324963699 -0.15233864762 0.815 1.77720784764e-38
0.0436334604256 -0.151964810448 0.813 1.71263559401e-38
0.0450270217651 -0.151590973276 0.811 1.7403291753e-38
0.0464131803883 -0.151217136104 0.809 1.72174753728e-38
0.0479103797556 -0.151217136104 0.809 1.71267118699e-38
0.0491632894858 -0.15046946176 0.805 1.76788038467e-38
0.0505272399602 -0.150095624588 0.803 1.79568424815e-38
0.0519485614857 -0.149908706001 0.802 1.86014790114e-38
0.0532995572065 -0.149534868829 0.8 1.92468484205e-38
0.0547801004623 -0.149534868829 0.8 1.95230793803e-38
0.0561199921087 -0.149161031657 0.798 2.07209121102e-38
0.0575968340063 -0.149161031657 0.798 2.01698809163e-38
0.0590736759039 -0.149161031657 0.798 2.08163321278e-38
0.0605505178015 -0.149161031657 0.798 2.07219813009e-38
0.0620273596991 -0.149161031657 0.798 2.08134580646e-38
0.0635042015967 -0.149161031657 0.798 2.09971402674e-38
0.0651439032524 -0.149534868829 0.8 2.14574009519e-38
0.0666244465082 -0.149534868829 0.8 2.30229315962e-38
0.0681049897639 -0.149534868829 0.8 2.26552042545e-38
0.0697594968522 -0.149908706001 0.802 2.23779125118e-38
0.0712437414661 -0.149908706001 0.802 2.32998281727e-38
0.0727279860799 -0.149908706001 0.802 2.34860677451e-38
0.0744898325543 -0.15046946176 0.805 2.3486006088e-38
0.0765459370007 -0.151590973276 0.811 2.34997654376e-38
0.0782393083494 -0.151964810448 0.813 2.35098477801e-38
0.0803324263772 -0.153086321964 0.819 2.35098435762e-38
0.0818481325353 -0.153086321964 0.819 2.35098393723e-38
0.083567413391 -0.153460159136 0.821 2.35098407736e-38
0.0850868209072 -0.153460159136 0.821 2.3509823958e-38
0.0866062284234 -0.153460159136 0.821 2.35098351684e-38
0.0887696722558 -0.154581670652 0.827 2.35080134804e-38
0.0903001838465 -0.154581670652 0.827 2.3509114901e-38
0.0290797202217 -0.153051159062 0.827 9.09746084464e-39
0.0306102318124 -0.153051159062 0.827 1.70309163043e-38
0.0320630148821 -0.152681023248 0.825 1.69419828973e-38
0.0335083952355 -0.152310887434 0.823 1.70338099856e-38
0.0350315041098 -0.152310887434 0.823 1.93386993309e-38
0.0364657803888 -0.15194075162 0.821 1.86943808957e-38
0.0378926539515 -0.151570615806 0.819 1.87844255325e-38
0.0394083601096 -0.151570615806 0.819 1.84159989428e-38
0.0407241929281 -0.150830344178 0.815 1.86007657505e-38
0.042128858342 -0.150460208364 0.813 1.7494788135e-38
0.0436334604256 -0.150460208364 0.813 1.77717253492e-38
0.0450270217651 -0.15009007255 0.811 1.78635510362e-38
0.0464131803883 -0.149719936736 0.809 1.768059891e-38
0.0479103797556 -0.149719936736 0.809 1.74972894527e-38
0.0491632894858 -0.148979665109 0.805 1.76795297193e-38
0.0505272399602 -0.148609529295 0.803 1.85996937572e-38
0.0520133352531 -0.148609529295 0.803 1.76784535221e-38
0.0534328060995 -0.148424461388 0.802 1.91528619312e-38
0.0547801004623 -0.148054325574 0.8 1.97993061362e-38
0.056260643718 -0.148054325574 0.8 1.97996592634e-38
0.0577411869737 -0.148054325574 0.8 2.05383201177e-38
0.059369784555 -0.148424461388 0.802 1.98936527592e-38
0.0607022734852 -0.148054325574 0.8 2.12740858893e-38
0.0621828167409 -0.148054325574 0.8 2.08134650711e-38
0.0638225183967 -0.148424461388 0.802 2.20098558649e-38
0.0653067630106 -0.148424461388 0.802 2.17321927781e-38
0.0667910076244 -0.148424461388 0.802 2.1824388408e-38
0.0682752522383 -0.148424461388 0.802 2.23797145816e-38
0.0698464787685 -0.148609529295 0.803 2.22871434037e-38
0.0713325740614 -0.148609529295 0.803 2.33916888923e-38
0.0730000359032 -0.148979665109 0.805 2.3487090693e-38
0.0746749004612 -0.149349800922 0.807 2.35011639335e-38
0.0765459370007 -0.15009007255 0.811 2.35076743662e-38
0.0782393083494 -0.150460208364 0.813 2.35098491814e-38
0.0801362543958 -0.151200479992 0.817 2.35098393723e-38
0.0818481325353 -0.151570615806 0.819 2.35098575892e-38
0.083567413391 -0.15194075162 0.821 2.35098183528e-38
0.0850868209072 -0.15194075162 0.821 2.3509100888e-38
0.0866062284234 -0.15194075162 0.821 2.35083750154e-38
0.0885549934838 -0.152681023248 0.825 2.35098197541e-38
0.0903001838465 -0.153051159062 0.827 2.35044359654e-38
0.0276158330776 -0.151887081927 0.829 2.34979059146e-38
0.0290797202217 -0.151520647471 0.827 1.16756636463e-38
0.0306102318124 -0.151520647471 0.827 1.67579251466e-38
0.0320630148821 -0.151154213015 0.825 1.74043875684e-38
0.0335083952355 -0.15078777856 0.823 1.75876998283e-38
0.0349463728726 -0.150421344104 0.821 1.83234670013e-38
0.0364657803888 -0.150421344104 0.821 1.84178136243e-38
0.0378926539515 -0.150054909648 0.819 1.86933089024e-38
0.0392158894863 -0.149322040736 0.815 1.86003944064e-38
0.0406242562583 -0.148955606281 0.813 1.83227523391e-38
0.042128858342 -0.148955606281 0.813 1.88769742895e-38
0.0435261210396 -0.148589171825 0.811 1.79557466661e-38
0.0450270217651 -0.148589171825 0.811 1.79561096024e-38
0.0464131803883 -0.148222737369 0.809 1.7772081279e-38
0.0479103797556 -0.148222737369 0.809 1.84181695541e-38
0.0491632894858 -0.147489868457 0.805 1.89688223974e-38
0.0506530861369 -0.147489868457 0.805 1.8598965082e-38
0.0520133352531 -0.147123434002 0.803 1.93386937257e-38
0.0534994305461 -0.147123434002 0.803 1.94305264193e-38
0.0549170507134 -0.146940216774 0.802 1.94294446169e-38
0.0564012953273 -0.146940216774 0.802 2.00765992802e-38
0.0578855399412 -0.146940216774 0.802 2.04443252206e-38
0.059369784555 -0.146940216774 0.802 2.08123790648e-38
0.0608540291689 -0.146940216774 0.802 2.15495937791e-38
0.0623382737828 -0.146940216774 0.802 2.14577512765e-38
0.0638225183967 -0.146940216774 0.802 2.19180077571e-38
0.0653881928896 -0.147123434002 0.803 2.18247387326e-38
0.0668742881826 -0.147123434002 0.803 2.25633169103e-38
0.0683603834755 -0.147123434002 0.803 2.21931330924e-38
0.070020442601 -0.147489868457 0.805 2.34863774321e-38
0.0715102392521 -0.147489868457 0.805 2.34889362031e-38
0.073181402452 -0.147856302913 0.807 2.35004744947e-38
0.0748599683682 -0.148222737369 0.809 2.35044345641e-38
0.0765459370007 -0.148589171825 0.811 2.35098281619e-38
0.0782393083494 -0.148955606281 0.813 2.35098141489e-38
0.0801362543958 -0.149688475192 0.817 2.35098337671e-38
0.0816482591957 -0.149688475192 0.817 2.35058568821e-38
0.0833638386933 -0.150054909648 0.819 2.35098043398e-38
0.0848795448514 -0.150054909648 0.819 2.3509462423e-38
0.0863952510095 -0.150054909648 0.819 2.35098267606e-38
0.0881256359396 -0.150421344104 0.821 2.35080246908e-38
0.0900818037162 -0.151154213015 0.825 2.35015661062e-38
0.0916086139487 -0.151154213015 0.825 2.35022583476e-38
0.0276158330776 -0.150352868978 0.829 1.88823917094e-38
0.0290797202217 -0.149990135881 0.827 1.54570717562e-38
0.0305362046496 -0.149627402783 0.825 1.52838880816e-38
0.0319852863611 -0.149264669685 0.823 1.74965860009e-38
0.0335083952355 -0.149264669685 0.823 1.80497443658e-38
0.0349463728726 -0.148901936588 0.821 1.80490142893e-38
0.0363769477935 -0.14853920349 0.819 1.82334251672e-38
0.0378926539515 -0.14853920349 0.819 1.8233419562e-38
0.0392158894863 -0.147813737295 0.815 1.86929585778e-38
0.0406242562583 -0.147451004197 0.813 1.85068072872e-38
0.042128858342 -0.147451004197 0.813 1.86003705844e-38
0.0435261210396 -0.147088271099 0.811 1.86011160751e-38
0.0450270217651 -0.147088271099 0.811 1.74940678675e-38
0.0464131803883 -0.146725538002 0.809 1.82301853651e-38
0.0479103797556 -0.146725538002 0.809 1.91521346573e-38
0.0492854343044 -0.146362804904 0.807 1.86911579093e-38
0.0506530861369 -0.146000071806 0.805 1.97063916402e-38
0.052142882788 -0.146000071806 0.805 1.86004126233e-38
0.0534994305461 -0.145637338709 0.803 1.97071077037e-38
0.054985525839 -0.145637338709 0.803 2.05361523089e-38
0.0564716211319 -0.145637338709 0.803 2.03524743101e-38
0.0579577164249 -0.145637338709 0.803 2.0996054261e-38
0.0594438117178 -0.145637338709 0.803 2.14552303405e-38
0.0609299070108 -0.145637338709 0.803 2.16403474729e-38
0.0624160023037 -0.145637338709 0.803 2.19172846871e-38
0.0639020975967 -0.145637338709 0.803 2.33912811144e-38
0.0653881928896 -0.145637338709 0.803 2.20094873234e-38
0.0668742881826 -0.145637338709 0.803 2.34906976353e-38
0.0685306459499 -0.146000071806 0.805 2.34911138209e-38
0.070020442601 -0.146000071806 0.805 2.34921591896e-38
0.0718655696335 -0.146725538002 0.809 2.3500837431e-38
0.0733627690008 -0.146725538002 0.809 2.35044359654e-38
0.0750450362752 -0.147088271099 0.811 2.35069526975e-38
0.0765459370007 -0.147088271099 0.811 2.35073030221e-38
0.0782393083494 -0.147451004197 0.813 2.35098435762e-38
0.0799400824144 -0.147813737295 0.815 2.35076659584e-38
0.0814483858562 -0.147813737295 0.815 2.35087421556e-38
0.0831602639957 -0.148176470392 0.817 2.35094666269e-38
0.0848795448514 -0.14853920349 0.819 2.35091261114e-38
0.0863952510095 -0.14853920349 0.819 2.3509837971e-38
0.0881256359396 -0.148901936588 0.821 2.35065897612e-38
0.089863423586 -0.149264669685 0.823 2.3504438768e-38
0.0913865324604 -0.149264669685 0.823 2.35004744947e-38
0.0275492086311 -0.14845962429 0.827 1.37165427557e-38
0.0290093944171 -0.14810059255 0.825 1.70222464707e-38
0.0304621774868 -0.147741560811 0.823 1.6205824762e-38
0.0319852863611 -0.147741560811 0.823 1.75873495037e-38
0.0334269653564 -0.147382529071 0.821 1.79564627296e-38
0.0349463728726 -0.147382529071 0.821 1.79561096024e-38
0.0363769477935 -0.147023497332 0.819 1.906138797e-38
0.037800119998 -0.146664465592 0.817 1.79571928061e-38
0.0391196541747 -0.145946402113 0.813 1.97067573791e-38
0.0406242562583 -0.145946402113 0.813 1.92461169427e-38
0.042128858342 -0.145946402113 0.813 1.94301326544e-38
0.0435261210396 -0.145587370374 0.811 1.95216248325e-38
0.0450270217651 -0.145587370374 0.811 1.97049426976e-38
0.0465279224906 -0.145587370374 0.811 1.97960663341e-38
0.0479103797556 -0.145228338634 0.809 1.94294165909e-38
0.049407579123 -0.145228338634 0.809 1.93361629807e-38
0.0507789323136 -0.144869306895 0.807 2.03524630997e-38
0.0522724303229 -0.144869306895 0.807 1.97989347921e-38
0.0536326794391 -0.144510275155 0.805 2.04443252206e-38
0.0551224760902 -0.144510275155 0.805 2.05361495063e-38
0.0566122727412 -0.144510275155 0.805 2.05358019843e-38
0.0579577164249 -0.144151243416 0.803 2.23771712249e-38
0.0594438117178 -0.144151243416 0.803 2.20984179279e-38
0.0609299070108 -0.144151243416 0.803 2.33898938289e-38
0.0624160023037 -0.144151243416 0.803 2.34835398027e-38
0.0639020975967 -0.144151243416 0.803 2.34885620564e-38
0.0653881928896 -0.144151243416 0.803 2.34899661575e-38
0.0670408492988 -0.144510275155 0.805 2.34903515146e-38
0.0685306459499 -0.144510275155 0.805 2.34954130046e-38
0.070020442601 -0.144510275155 0.805 2.34968591446e-38
0.0718655696335 -0.145228338634 0.809 2.35029603981e-38
0.0733627690008 -0.145228338634 0.809 2.35051534302e-38
0.0750450362752 -0.145587370374 0.811 2.35062324301e-38
0.0765459370007 -0.145587370374 0.811 2.35098281619e-38
0.0782393083494 -0.145946402113 0.813 2.35062212197e-38
0.0797439104331 -0.145946402113 0.813 2.35091191049e-38
0.0814483858562 -0.146305433853 0.815 2.35098085437e-38
0.082956689298 -0.146305433853 0.815 2.35069232702e-38
0.0846722687956 -0.146664465592 0.817 2.35098267606e-38
0.0863952510095 -0.147023497332 0.819 2.35076505441e-38
0.0879109571675 -0.147023497332 0.819 2.35051282069e-38
0.0896450434558 -0.147382529071 0.821 2.35022709593e-38
0.091164450972 -0.147382529071 0.821 2.35026114748e-38
0.0931354241812 -0.14810059255 0.825 2.34968591446e-38
0.0260186970405 -0.146929112699 0.827 2.35037058889e-38
0.0274825841846 -0.146573782318 0.825 1.19615789798e-38
0.0290093944171 -0.146573782318 0.825 1.67471043198e-38
0.0304621774868 -0.146218451937 0.823 1.6202932482e-38
0.0319075578402 -0.145863121555 0.821 1.65717528365e-38
0.0334269653564 -0.145863121555 0.821 1.74947713194e-38
0.0348612416354 -0.145507791174 0.819 1.86908103872e-38
0.0363769477935 -0.145507791174 0.819 1.8693311705e-38
0.0377075860445 -0.144797130411 0.815 1.91542842491e-38
0.0391196541747 -0.14444180003 0.813 1.90610152246e-38
0.0406242562583 -0.14444180003 0.813 2.00751643505e-38
0.042128858342 -0.14444180003 0.813 1.90613683519e-38
0.0435261210396 -0.144086469648 0.811 1.96134757429e-38
0.0450270217651 -0.144086469648 0.811 1.94265733563e-38
0.0465279224906 -0.144086469648 0.811 2.10882302727e-38
0.0480288232161 -0.144086469648 0.811 1.91535681856e-38
0.049407579123 -0.143731139267 0.809 2.05347173793e-38
0.0507789323136 -0.143375808886 0.807 1.98907800973e-38
0.0522724303229 -0.143375808886 0.807 2.05368683725e-38
0.0537659283321 -0.143375808886 0.807 2.04439538765e-38
0.0552594263413 -0.143375808886 0.807 2.12726187299e-38
0.0566122727412 -0.143020478504 0.805 2.17328780131e-38
0.0581020693923 -0.143020478504 0.805 2.33909728288e-38
0.0595918660434 -0.143020478504 0.805 2.25619128092e-38
0.0609299070108 -0.142665148123 0.803 2.34827985158e-38
0.0624160023037 -0.142665148123 0.803 2.34871145151e-38
0.0640612559967 -0.143020478504 0.805 2.34888941642e-38
0.0655510526477 -0.143020478504 0.805 2.349318494e-38
0.0670408492988 -0.143020478504 0.805 2.34961374759e-38
0.0685306459499 -0.143020478504 0.805 2.34975597939e-38
0.0701944064336 -0.143375808886 0.807 2.35004450674e-38
0.0718655696335 -0.143731139267 0.809 2.35051212004e-38
0.0735441355497 -0.144086469648 0.811 2.35087491621e-38
0.0750450362752 -0.144086469648 0.811 2.35076575506e-38
0.0765459370007 -0.144086469648 0.811 2.35083792193e-38
0.0782393083494 -0.14444180003 0.813 2.3509823958e-38
0.0797439104331 -0.14444180003 0.813 2.35098421749e-38
0.0812485125167 -0.14444180003 0.813 2.3509823958e-38
0.082956689298 -0.144797130411 0.815 2.35098281619e-38
0.0844649927398 -0.144797130411 0.815 2.3509114901e-38
0.0861842735955 -0.145152460792 0.817 2.35054981497e-38
0.0876962783954 -0.145152460792 0.817 2.35054953471e-38
0.0894266633256 -0.145507791174 0.819 2.35019262399e-38
0.091164450972 -0.145863121555 0.821 2.34986443989e-38
0.0929096413347 -0.146218451937 0.823 2.34975780107e-38
0.0260186970405 -0.145398601109 0.827 2.35083708115e-38
0.0274159597381 -0.144695343062 0.823 1.05779424813e-38
0.0289390686124 -0.144695343062 0.823 1.64698335966e-38
0.0304621774868 -0.144695343062 0.823 1.69412640312e-38
0.0319075578402 -0.144343714039 0.821 1.74032945556e-38
0.0334269653564 -0.144343714039 0.821 1.79571928061e-38
0.0348612416354 -0.143992085016 0.819 1.75866306376e-38
0.0362881151981 -0.143640455993 0.817 1.86011581141e-38
0.0377075860445 -0.143288826969 0.815 1.87855101375e-38
0.0391196541747 -0.142937197946 0.813 1.96134757429e-38
0.0406242562583 -0.142937197946 0.813 1.94294446169e-38
0.042128858342 -0.142937197946 0.813 1.94290942923e-38
0.0435261210396 -0.142585568923 0.811 1.97982369454e-38
0.0450270217651 -0.142585568923 0.811 2.02581164767e-38
0.0465279224906 -0.142585568923 0.811 2.02595584129e-38
0.0479103797556 -0.1422339399 0.809 2.08134356439e-38
0.049407579123 -0.1422339399 0.809 2.09971136427e-38
0.0509047784904 -0.1422339399 0.809 2.1271915278e-38
0.0522724303229 -0.141882310876 0.807 2.14580833842e-38
0.0537659283321 -0.141882310876 0.807 2.2654474178e-38
0.0552594263413 -0.141882310876 0.807 2.200873903e-38
0.0566122727412 -0.141530681853 0.805 2.34838859234e-38
0.0581020693923 -0.141530681853 0.805 2.33916762806e-38
0.0595918660434 -0.141530681853 0.805 2.34841998143e-38
0.0610816626945 -0.141530681853 0.805 2.34903655275e-38
0.0625714593456 -0.141530681853 0.805 2.34875138852e-38
0.0640612559967 -0.141530681853 0.805 2.34893131524e-38
0.0655510526477 -0.141530681853 0.805 2.34921872155e-38
0.0672074104151 -0.141882310876 0.807 2.34936067309e-38
0.0687009084243 -0.141882310876 0.807 2.34964737875e-38
0.0703683702661 -0.1422339399 0.809 2.34975920237e-38
0.0718655696335 -0.1422339399 0.809 2.35022639528e-38
0.0735441355497 -0.142585568923 0.811 2.35055163665e-38
0.0750450362752 -0.142585568923 0.811 2.35062268249e-38
0.0765459370007 -0.142585568923 0.811 2.35080232895e-38
0.0780468377262 -0.142585568923 0.811 2.35073044234e-38
0.0797439104331 -0.142937197946 0.813 2.35098365697e-38
0.0812485125167 -0.142937197946 0.813 2.35072974169e-38
0.0827531146003 -0.142937197946 0.813 2.35040688252e-38
0.0844649927398 -0.143288826969 0.815 2.3507668761e-38
0.0859732961816 -0.143288826969 0.815 2.35015366789e-38
0.0874815996233 -0.143288826969 0.815 2.35040716278e-38
0.0892082831954 -0.143640455993 0.817 2.34993968961e-38
0.091164450972 -0.144343714039 0.821 2.34990003287e-38
0.0929096413347 -0.144695343062 0.823 2.34921521831e-38
0.0258928508638 -0.143172234188 0.823 2.35058596847e-38
0.0274159597381 -0.143172234188 0.823 1.11300316555e-38
0.0289390686124 -0.143172234188 0.823 1.70272981517e-38
0.030388150324 -0.142824306523 0.821 1.60207342544e-38
0.0319075578402 -0.142824306523 0.821 1.74951566765e-38
0.0333455354773 -0.142476378858 0.819 1.79564893543e-38
0.0348612416354 -0.142476378858 0.819 1.75873340894e-38
0.0362881151981 -0.142128451193 0.817 1.94298229675e-38
0.0377075860445 -0.141780523527 0.815 1.87858632647e-38
0.0391196541747 -0.141432595862 0.813 1.9890055626e-38
0.0406242562583 -0.141432595862 0.813 1.979714113e-38
0.042128858342 -0.141432595862 0.813 2.05350719078e-38
0.0435261210396 -0.141084668197 0.811 2.04425231508e-38
0.0450270217651 -0.141084668197 0.811 2.15492308428e-38
0.0465279224906 -0.141084668197 0.811 2.05343530417e-38
0.0479103797556 -0.140736740532 0.809 2.0903505504e-38
0.049407579123 -0.140736740532 0.809 2.18254393818e-38
0.0509047784904 -0.140736740532 0.809 2.18254393818e-38
0.0522724303229 -0.140388812867 0.807 2.24697396001e-38
0.0537659283321 -0.140388812867 0.807 2.30218147613e-38
0.0553963765925 -0.140736740532 0.809 2.34838677066e-38
0.0567529243505 -0.140388812867 0.807 2.34835173819e-38
0.0581020693923 -0.140040885202 0.805 2.34831684586e-38
0.0595918660434 -0.140040885202 0.805 2.34878459929e-38
0.0610816626945 -0.140040885202 0.805 2.34874858592e-38
0.0625714593456 -0.140040885202 0.805 2.34910885975e-38
0.0642204143967 -0.140388812867 0.807 2.34965116226e-38
0.0657139124059 -0.140388812867 0.807 2.34939878841e-38
0.0672074104151 -0.140388812867 0.807 2.34939556542e-38
0.0687009084243 -0.140388812867 0.807 2.34990059339e-38
0.0703683702661 -0.140736740532 0.809 2.34986429976e-38
0.0718655696335 -0.140736740532 0.809 2.35011793478e-38
0.0735441355497 -0.141084668197 0.811 2.35033471565e-38
0.0750450362752 -0.141084668197 0.811 2.35048017043e-38
0.0765459370007 -0.141084668197 0.811 2.35084100479e-38
0.0780468377262 -0.141084668197 0.811 2.35051310095e-38
0.0797439104331 -0.141432595862 0.813 2.35062324301e-38
0.0812485125167 -0.141432595862 0.813 2.35084156531e-38
0.0827531146003 -0.141432595862 0.813 2.35065323079e-38
0.084257716684 -0.141432595862 0.813 2.35072735948e-38
0.0859732961816 -0.141780523527 0.815 2.35011653348e-38
0.0874815996233 -0.141780523527 0.815 2.35015338763e-38
0.0892082831954 -0.142128451193 0.817 2.34972010614e-38
0.0909423694836 -0.142476378858 0.819 2.34989919209e-38
0.0926838584882 -0.142824306523 0.821 2.34950430618e-38
0.0244881854499 -0.142337577927 0.827 2.34922012285e-38
0.0258928508638 -0.141649125314 0.823 2.35022821697e-38
0.0274159597381 -0.141649125314 0.823 1.3525334179e-38
0.0289390686124 -0.141649125314 0.823 1.53699530307e-38
0.030388150324 -0.141304899007 0.821 1.62980049776e-38
0.0319075578402 -0.141304899007 0.821 1.71267244816e-38
0.0333455354773 -0.1409606727 0.819 1.74029386258e-38
0.0348612416354 -0.1409606727 0.819 1.86000468844e-38
0.0362881151981 -0.140616446393 0.817 1.76777304521e-38
0.0377075860445 -0.140272220086 0.815 1.91542898543e-38
0.0391196541747 -0.139927993779 0.813 1.97071105063e-38
0.0406242562583 -0.139927993779 0.813 1.97975012637e-38
0.0420252203141 -0.139583767472 0.811 2.09042243701e-38
0.0435261210396 -0.139583767472 0.811 2.04446727426e-38
0.0450270217651 -0.139583767472 0.811 2.02595640181e-38
0.0465279224906 -0.139583767472 0.811 2.21942190987e-38
0.0480288232161 -0.139583767472 0.811 2.21016563286e-38
0.049407579123 -0.139239541165 0.809 2.21935002326e-38
0.0509047784904 -0.139239541165 0.809 2.24690137275e-38
0.0524019778577 -0.139239541165 0.809 2.32977178173e-38
0.0538991772251 -0.139239541165 0.809 2.28388752468e-38
0.0553963765925 -0.139239541165 0.809 2.34846145986e-38
0.0567529243505 -0.138895314858 0.807 2.34835313949e-38
0.0582464223598 -0.138895314858 0.807 2.34889348018e-38
0.059739920369 -0.138895314858 0.807 2.34892711134e-38
0.0612334183782 -0.138895314858 0.807 2.34878515981e-38
0.0627269163874 -0.138895314858 0.807 2.34907438781e-38
0.0642204143967 -0.138895314858 0.807 2.34914585403e-38
0.0657139124059 -0.138895314858 0.807 2.34928962726e-38
0.0672074104151 -0.138895314858 0.807 2.34942919658e-38
0.0688711708987 -0.139239541165 0.809 2.34975639978e-38
0.0703683702661 -0.139239541165 0.809 2.34993562585e-38
0.0720432348242 -0.139583767472 0.811 2.34982898704e-38
0.0735441355497 -0.139583767472 0.811 2.35044037356e-38
0.0750450362752 -0.139583767472 0.811 2.35015394815e-38
0.0765459370007 -0.139583767472 0.811 2.35036960798e-38
0.0780468377262 -0.139583767472 0.811 2.35029730098e-38
0.0795477384517 -0.139583767472 0.811 2.35033331435e-38
0.0812485125167 -0.139927993779 0.813 2.35036890733e-38
0.0827531146003 -0.139927993779 0.813 2.35033233344e-38
0.084257716684 -0.139927993779 0.813 2.35040464044e-38
0.0857623187676 -0.139927993779 0.813 2.34997444182e-38
0.0876962783954 -0.140616446393 0.817 2.3500100348e-38
0.0892082831954 -0.140616446393 0.817 2.34975822146e-38
0.0909423694836 -0.1409606727 0.819 2.34946899346e-38
0.0926838584882 -0.141304899007 0.821 2.34878431903e-38
0.0244881854499 -0.140807066337 0.827 2.34940089035e-38
0.0260186970405 -0.140807066337 0.827 2.35062254236e-38
0.0274159597381 -0.140126016439 0.823 1.25108095051e-38
0.0289390686124 -0.140126016439 0.823 1.67550370704e-38
0.030388150324 -0.13978549149 0.821 1.57430739702e-38
0.0319075578402 -0.13978549149 0.821 1.74947853324e-38
0.0333455354773 -0.139444966542 0.819 1.76777472677e-38
0.0348612416354 -0.139444966542 0.819 1.85989622794e-38
0.0362881151981 -0.139104441593 0.817 1.96138386792e-38
0.0376150520911 -0.138423391695 0.813 1.99840533257e-38
0.0391196541747 -0.138423391695 0.813 1.98893479703e-38
0.0406242562583 -0.138423391695 0.813 2.03499589794e-38
0.0420252203141 -0.138082866746 0.811 2.09038614338e-38
0.0435261210396 -0.138082866746 0.811 2.05372243023e-38
0.0450270217651 -0.138082866746 0.811 2.02595612155e-38
0.0465279224906 -0.138082866746 0.811 2.29321372648e-38
0.0479103797556 -0.137742341797 0.809 2.19161930756e-38
0.049407579123 -0.137742341797 0.809 2.23782502247e-38
0.0509047784904 -0.137742341797 0.809 2.265305186e-38
0.0524019778577 -0.137742341797 0.809 2.34842656753e-38
0.0538991772251 -0.137742341797 0.809 2.34856655725e-38
0.0553963765925 -0.137742341797 0.809 2.34853180505e-38
0.0567529243505 -0.137401816849 0.807 2.3487827776e-38
0.0582464223598 -0.137401816849 0.807 2.34878473942e-38
0.059739920369 -0.137401816849 0.807 2.34921746039e-38
0.0612334183782 -0.137401816849 0.807 2.34903851457e-38
0.0627269163874 -0.137401816849 0.807 2.34907368716e-38
0.0642204143967 -0.137401816849 0.807 2.34954045968e-38
0.0657139124059 -0.137401816849 0.807 2.34928780557e-38
0.0672074104151 -0.137401816849 0.807 2.34932858335e-38
0.0688711708987 -0.137742341797 0.809 2.34975766094e-38
0.0703683702661 -0.137742341797 0.809 2.34957549214e-38
0.0718655696335 -0.137742341797 0.809 2.3500809405e-38
0.0735441355497 -0.138082866746 0.811 2.34975668003e-38
0.0750450362752 -0.138082866746 0.811 2.34990227495e-38
0.0765459370007 -0.138082866746 0.811 2.34993156208e-38
0.0780468377262 -0.138082866746 0.811 2.35018996152e-38
0.0795477384517 -0.138082866746 0.811 2.34990101378e-38
0.0812485125167 -0.138423391695 0.813 2.34979395457e-38
0.0827531146003 -0.138423391695 0.813 2.34993590611e-38
0.084257716684 -0.138423391695 0.813 2.34979339405e-38
0.0857623187676 -0.138423391695 0.813 2.34990087365e-38
0.0876962783954 -0.139104441593 0.817 2.34943606295e-38
0.0892082831954 -0.139104441593 0.817 2.34932311829e-38
0.0909423694836 -0.139444966542 0.819 2.34935955205e-38
0.0926838584882 -0.13978549149 0.821 2.34914361196e-38
0.0258928508638 -0.138602907565 0.823 2.35029912267e-38
0.0274159597381 -0.138602907565 0.823 1.51823598039e-38
0.0289390686124 -0.138602907565 0.823 1.63873643794e-38
0.030388150324 -0.138266083974 0.821 1.64799075313e-38
0.0319075578402 -0.138266083974 0.821 1.71270776088e-38
0.0333455354773 -0.137929260384 0.819 1.72192732387e-38
0.0348612416354 -0.137929260384 0.819 1.83237878987e-38
0.0362881151981 -0.137592436793 0.817 1.81397904038e-38
0.0376150520911 -0.136918789611 0.813 1.97989558115e-38
0.0391196541747 -0.136918789611 0.813 1.85071421975e-38
0.0406242562583 -0.136918789611 0.813 2.00744454844e-38
0.0420252203141 -0.136581966021 0.811 2.05350719078e-38
0.0435261210396 -0.136581966021 0.811 2.09974933946e-38
0.0450270217651 -0.136581966021 0.811 2.14577540791e-38
0.0465279224906 -0.136581966021 0.811 2.15485021676e-38
0.0479103797556 -0.13624514243 0.809 2.23768152951e-38
0.049407579123 -0.13624514243 0.809 2.2746304069e-38
0.0509047784904 -0.13624514243 0.809 2.3115464939e-38
0.0524019778577 -0.13624514243 0.809 2.32087437726e-38
0.0538991772251 -0.13624514243 0.809 2.33016260387e-38
0.0552594263413 -0.135908318839 0.807 2.34849523116e-38
0.0567529243505 -0.135908318839 0.807 2.34864012542e-38
0.0582464223598 -0.135908318839 0.807 2.34900166042e-38
0.059739920369 -0.135908318839 0.807 2.34900180055e-38
0.0612334183782 -0.135908318839 0.807 2.34907396742e-38
0.0628823734293 -0.13624514243 0.809 2.34896480627e-38
0.0643795727966 -0.13624514243 0.809 2.34939626607e-38
0.0657139124059 -0.135908318839 0.807 2.34950290488e-38
0.0672074104151 -0.135908318839 0.807 2.34953807747e-38
0.0688711708987 -0.13624514243 0.809 2.34943283996e-38
0.0703683702661 -0.13624514243 0.809 2.34946955398e-38
0.0718655696335 -0.13624514243 0.809 2.34943424126e-38
0.0733627690008 -0.13624514243 0.809 2.34947053489e-38
0.0748599683682 -0.13624514243 0.809 2.34957773422e-38
0.0763571677356 -0.13624514243 0.809 2.34989947235e-38
0.0780468377262 -0.136581966021 0.811 2.34982954755e-38
0.0795477384517 -0.136581966021 0.811 2.34990171443e-38
0.0812485125167 -0.136918789611 0.813 2.34964906031e-38
0.0827531146003 -0.136918789611 0.813 2.3496133272e-38
0.084257716684 -0.136918789611 0.813 2.34979255328e-38
0.0857623187676 -0.136918789611 0.813 2.34971982589e-38
0.0876962783954 -0.137592436793 0.817 2.34961066473e-38
0.0892082831954 -0.137592436793 0.817 2.34935927179e-38
0.0909423694836 -0.137929260384 0.819 2.34889418083e-38
0.0926838584882 -0.138266083974 0.821 2.34914403235e-38
0.0258928508638 -0.137079798691 0.823 2.35019094243e-38
0.0274159597381 -0.137079798691 0.823 1.41682050728e-38
0.0289390686124 -0.137079798691 0.823 1.7496178223e-38
0.030388150324 -0.136746676458 0.821 1.53739341196e-38
0.0319075578402 -0.136746676458 0.821 1.70341659155e-38
0.0333455354773 -0.136413554225 0.819 1.76798954582e-38
0.0348612416354 -0.136413554225 0.819 1.75876844141e-38
0.0362881151981 -0.136080431993 0.817 1.85989875028e-38
0.0376150520911 -0.135414187528 0.813 1.87837248832e-38
0.0391196541747 -0.135414187528 0.813 1.99840477205e-38
0.0406242562583 -0.135414187528 0.813 1.98003599126e-38
0.0420252203141 -0.135081065295 0.811 2.02591954766e-38
0.0435261210396 -0.135081065295 0.811 2.08116630013e-38
0.0450270217651 -0.135081065295 0.811 2.12719320936e-38
0.0464131803883 -0.134747943063 0.809 2.11800853871e-38
0.0479103797556 -0.134747943063 0.809 2.19165560119e-38
0.049407579123 -0.134747943063 0.809 2.27456006171e-38
0.0509047784904 -0.134747943063 0.809 2.31165341297e-38
0.0522724303229 -0.13441482083 0.807 2.21027493414e-38
0.0537659283321 -0.13441482083 0.807 2.34860411205e-38
0.0552594263413 -0.13441482083 0.807 2.34860383179e-38
0.0567529243505 -0.13441482083 0.807 2.34860411205e-38
0.0582464223598 -0.13441482083 0.807 2.3490734069e-38
0.059739920369 -0.13441482083 0.807 2.34885172149e-38
0.0612334183782 -0.13441482083 0.807 2.34903683301e-38
0.0628823734293 -0.134747943063 0.809 2.34903543172e-38
0.0643795727966 -0.134747943063 0.809 2.34907046418e-38
0.0657139124059 -0.13441482083 0.807 2.34918102663e-38
0.0672074104151 -0.13441482083 0.807 2.34961164564e-38
0.0688711708987 -0.134747943063 0.809 2.34932297816e-38
0.0703683702661 -0.134747943063 0.809 2.3493978075e-38
0.0718655696335 -0.134747943063 0.809 2.34950402592e-38
0.0733627690008 -0.134747943063 0.809 2.34964878005e-38
0.0748599683682 -0.134747943063 0.809 2.34986331885e-38
0.0763571677356 -0.134747943063 0.809 2.34961150551e-38
0.0780468377262 -0.135081065295 0.811 2.34982982781e-38
0.0795477384517 -0.135081065295 0.811 2.34950542722e-38
0.0810486391772 -0.135081065295 0.811 2.3496480794e-38
0.0827531146003 -0.135414187528 0.813 2.34957619279e-38
0.084257716684 -0.135414187528 0.813 2.34975597939e-38
0.0857623187676 -0.135414187528 0.813 2.34968367238e-38
0.0874815996233 -0.13574730976 0.815 2.34943241957e-38
0.0892082831954 -0.136080431993 0.817 2.34953947877e-38
0.0909423694836 -0.136413554225 0.819 2.34907424768e-38
0.0924580756417 -0.136413554225 0.819 2.34853278596e-38
0.0939737817998 -0.136413554225 0.819 2.34939794763e-38
0.0243697419894 -0.135556689816 0.823 2.34968927758e-38
0.0258928508638 -0.135556689816 0.823 2.34961556928e-38
0.0274159597381 -0.135556689816 0.823 1.51776682567e-38
0.0289390686124 -0.135556689816 0.823 1.77709994766e-38
0.030388150324 -0.135227268942 0.821 1.68490627961e-38
0.0319075578402 -0.135227268942 0.821 1.66639540716e-38
0.0333455354773 -0.134897848067 0.819 1.71267300868e-38
0.0347761103982 -0.134568427193 0.817 1.79575487359e-38
0.0362881151981 -0.134568427193 0.817 1.78649929724e-38
0.0376150520911 -0.133909585444 0.813 1.8784456361e-38
0.0391196541747 -0.133909585444 0.813 1.95223703232e-38
0.0405243195886 -0.13358016457 0.811 1.94297977441e-38
0.0420252203141 -0.13358016457 0.811 2.1272638348e-38
0.0435261210396 -0.13358016457 0.811 2.0628325518e-38
0.0450270217651 -0.13358016457 0.811 2.11818748452e-38
0.0464131803883 -0.133250743695 0.809 2.16414012493e-38
0.0479103797556 -0.133250743695 0.809 2.17335996818e-38
0.049407579123 -0.133250743695 0.809 2.20091075715e-38
0.0509047784904 -0.133250743695 0.809 2.28399444375e-38
0.0522724303229 -0.132921322821 0.807 2.27470257377e-38
0.0537659283321 -0.132921322821 0.807 2.3391325956e-38
0.0553963765925 -0.133250743695 0.809 2.3391325956e-38
0.0568935759598 -0.133250743695 0.809 2.34860355153e-38
0.0582464223598 -0.132921322821 0.807 2.34882075279e-38
0.059739920369 -0.132921322821 0.807 2.34863998529e-38
0.0613851740619 -0.133250743695 0.809 2.34900152029e-38
0.0628823734293 -0.133250743695 0.809 2.34907312664e-38
0.0643795727966 -0.133250743695 0.809 2.34903683301e-38
0.0657139124059 -0.132921322821 0.807 2.349144733e-38
0.0672074104151 -0.132921322821 0.807 2.34889291966e-38
0.0688711708987 -0.133250743695 0.809 2.34889277953e-38
0.0703683702661 -0.133250743695 0.809 2.34928822596e-38
0.0718655696335 -0.133250743695 0.809 2.34928836609e-38
0.0733627690008 -0.133250743695 0.809 2.34936039283e-38
0.0748599683682 -0.133250743695 0.809 2.34950374566e-38
0.0763571677356 -0.133250743695 0.809 2.34961164564e-38
0.0780468377262 -0.13358016457 0.811 2.34936011257e-38
0.0795477384517 -0.13358016457 0.811 2.34968409277e-38
0.0810486391772 -0.13358016457 0.811 2.34936207439e-38
0.0825495399027 -0.13358016457 0.811 2.34918074637e-38
0.084257716684 -0.133909585444 0.813 2.3493978075e-38
0.0857623187676 -0.133909585444 0.813 2.34903949548e-38
0.0874815996233 -0.134239006319 0.815 2.34943045775e-38
0.0892082831954 -0.134568427193 0.817 2.34910647755e-38
0.0909423694836 -0.134897848067 0.819 2.34907088457e-38
0.0924580756417 -0.134897848067 0.819 2.34863774321e-38
0.0939737817998 -0.134897848067 0.819 2.34957955591e-38
0.0243697419894 -0.134033580942 0.823 2.34979353418e-38
0.0258928508638 -0.134033580942 0.823 2.34965116226e-38
0.0274159597381 -0.134033580942 0.823 1.52691450204e-38
0.0289390686124 -0.134033580942 0.823 1.74929832625e-38
0.030388150324 -0.133707861426 0.821 1.68494019103e-38
0.0319075578402 -0.133707861426 0.821 1.74025883012e-38
0.0333455354773 -0.133382141909 0.819 1.75876844141e-38
0.0347761103982 -0.133056422393 0.817 1.75884088854e-38
0.0362881151981 -0.133056422393 0.817 1.8694757845e-38
0.0376150520911 -0.132404983361 0.813 1.86007601453e-38
0.0391196541747 -0.132404983361 0.813 1.97064014493e-38
0.0405243195886 -0.132079263844 0.811 1.96141918064e-38
0.0420252203141 -0.132079263844 0.811 2.00734071223e-38
0.0435261210396 -0.132079263844 0.811 2.07201862376e-38
0.0450270217651 -0.132079263844 0.811 2.05361284869e-38
0.0464131803883 -0.131753544328 0.809 2.09964045857e-38
0.0479103797556 -0.131753544328 0.809 2.1272624335e-38
0.049407579123 -0.131753544328 0.809 2.19179531064e-38
0.0509047784904 -0.131753544328 0.809 2.30239853726e-38
0.0522724303229 -0.131427824812 0.807 2.29307177495e-38
0.0537659283321 -0.131427824812 0.807 2.34842348468e-38
0.0553963765925 -0.131753544328 0.809 2.34846061909e-38
0.0567529243505 -0.131427824812 0.807 2.34867487762e-38
0.0582464223598 -0.131427824812 0.807 2.34874970696e-38
0.059739920369 -0.131427824812 0.807 2.34845977831e-38
0.0613851740619 -0.131753544328 0.809 2.3487132732e-38
0.0628823734293 -0.131753544328 0.809 2.34892935342e-38
0.0643795727966 -0.131753544328 0.809 2.34896396549e-38
0.0657139124059 -0.131427824812 0.807 2.34914319157e-38
0.0672074104151 -0.131427824812 0.807 2.34899997886e-38
0.0688711708987 -0.131753544328 0.809 2.34918004572e-38
0.0703683702661 -0.131753544328 0.809 2.34889207888e-38
0.0718655696335 -0.131753544328 0.809 2.34932493998e-38
0.0733627690008 -0.131753544328 0.809 2.34896382536e-38
0.0748599683682 -0.131753544328 0.809 2.34921718013e-38
0.0763571677356 -0.131753544328 0.809 2.3493950049e-38
0.0780468377262 -0.132079263844 0.811 2.34928766544e-38
0.0795477384517 -0.132079263844 0.811 2.34918172727e-38
0.0810486391772 -0.132079263844 0.811 2.34932634128e-38
0.0825495399027 -0.132079263844 0.811 2.34946759216e-38
0.0840504406282 -0.132079263844 0.811 2.34918116676e-38
0.0857623187676 -0.132404983361 0.813 2.34896648783e-38
0.0874815996233 -0.132730702877 0.815 2.34886082993e-38
0.0892082831954 -0.133056422393 0.817 2.34889011706e-38
0.0909423694836 -0.133382141909 0.819 2.34867824074e-38
0.0924580756417 -0.133382141909 0.819 2.34889207888e-38
0.0939737817998 -0.133382141909 0.819 2.34961697058e-38
0.0954894879578 -0.133382141909 0.819 2.35019010165e-38
0.0244881854499 -0.133154508384 0.827 2.35000877363e-38
0.0260186970405 -0.133154508384 0.827 2.27557025778e-38
0.0274825841846 -0.132832490226 0.825 1.69279587022e-38
0.0290093944171 -0.132832490226 0.825 1.74025854986e-38
0.0304621774868 -0.132510472068 0.823 1.78642923231e-38
0.0319075578402 -0.132188453909 0.821 1.76809520372e-38
0.0333455354773 -0.131866435751 0.819 1.71267118699e-38
0.0347761103982 -0.131544417593 0.817 1.76791793947e-38
0.0361992826028 -0.131222399435 0.815 1.79571956087e-38
0.0376150520911 -0.130900381277 0.813 1.85082015792e-38
0.0391196541747 -0.130900381277 0.813 1.91535864025e-38
0.0405243195886 -0.130578363119 0.811 1.92464826816e-38
0.0420252203141 -0.130578363119 0.811 1.94305264193e-38
0.0435261210396 -0.130578363119 0.811 2.06272661364e-38
0.0450270217651 -0.130578363119 0.811 2.14576756064e-38
0.0464131803883 -0.130256344961 0.809 2.10896890244e-38
0.0479103797556 -0.130256344961 0.809 2.13637619846e-38
0.049407579123 -0.130256344961 0.809 2.19176406169e-38
0.0507789323136 -0.129934326803 0.807 2.21931653222e-38
0.0522724303229 -0.129934326803 0.807 2.29310806858e-38
0.0537659283321 -0.129934326803 0.807 2.30214672393e-38
0.0552594263413 -0.129934326803 0.807 2.34835510131e-38
0.0567529243505 -0.129934326803 0.807 2.32062284418e-38
0.0582464223598 -0.129934326803 0.807 2.34853502803e-38
0.059739920369 -0.129934326803 0.807 2.34842460571e-38
0.0613851740619 -0.130256344961 0.809 2.34849719298e-38
0.0628823734293 -0.130256344961 0.809 2.34853306622e-38
0.0643795727966 -0.130256344961 0.809 2.34903473107e-38
0.0657139124059 -0.129934326803 0.807 2.34907228586e-38
0.0672074104151 -0.129934326803 0.807 2.34878361838e-38
0.0688711708987 -0.130256344961 0.809 2.34896410562e-38
0.0703683702661 -0.130256344961 0.809 2.34928808583e-38
0.0718655696335 -0.130256344961 0.809 2.34911040118e-38
0.0733627690008 -0.130256344961 0.809 2.34907284638e-38
0.0748599683682 -0.130256344961 0.809 2.34910815911e-38
0.0763571677356 -0.130256344961 0.809 2.34899843744e-38
0.0780468377262 -0.130578363119 0.811 2.34914417248e-38
0.0795477384517 -0.130578363119 0.811 2.34907242599e-38
0.0810486391772 -0.130578363119 0.811 2.3488217337e-38
0.0825495399027 -0.130578363119 0.811 2.34889362031e-38
0.0840504406282 -0.130578363119 0.811 2.34914487313e-38
0.0857623187676 -0.130900381277 0.813 2.34896466614e-38
0.0874815996233 -0.131222399435 0.815 2.34881949162e-38
0.0892082831954 -0.131544417593 0.817 2.34889207888e-38
0.0909423694836 -0.131866435751 0.819 2.34871537515e-38
0.0924580756417 -0.131866435751 0.819 2.3487494267e-38
0.0939737817998 -0.131866435751 0.819 2.35004604817e-38
0.0244881854499 -0.131623996793 0.827 2.35001227687e-38
0.0260186970405 -0.131623996793 0.827 2.01724270756e-38
0.0275492086311 -0.131623996793 0.827 1.73038906465e-38
0.0290093944171 -0.131305679993 0.825 1.71259803921e-38
0.0304621774868 -0.130987363193 0.823 1.80479577102e-38
0.0319075578402 -0.130669046393 0.821 1.83256053828e-38
0.0333455354773 -0.130350729593 0.819 1.74955070011e-38
0.0347761103982 -0.130032412793 0.817 1.80465353923e-38
0.0361992826028 -0.129714095993 0.815 1.8417450688e-38
0.0376150520911 -0.129395779193 0.813 1.82323083323e-38
0.0390234188631 -0.129077462393 0.811 1.92468386114e-38
0.0405243195886 -0.129077462393 0.811 1.94312466867e-38
0.0420252203141 -0.129077462393 0.811 1.91539759635e-38
0.0434187816536 -0.128759145593 0.809 1.97971509391e-38
0.0449159810209 -0.128759145593 0.809 2.05347033663e-38
0.0464131803883 -0.128759145593 0.809 2.09978325088e-38
0.0477919362952 -0.128440828793 0.807 2.07187457027e-38
0.0492854343044 -0.128440828793 0.807 2.2008781069e-38
0.0507789323136 -0.128440828793 0.807 2.20105565142e-38
0.0522724303229 -0.128440828793 0.807 2.16406977975e-38
0.0537659283321 -0.128440828793 0.807 2.34849607194e-38
0.0552594263413 -0.128440828793 0.807 2.2285351143e-38
0.0567529243505 -0.128440828793 0.807 2.34828153314e-38
0.0582464223598 -0.128440828793 0.807 2.34853306622e-38
0.059739920369 -0.128440828793 0.807 2.3485311044e-38
0.0612334183782 -0.128440828793 0.807 2.34878473942e-38
0.0627269163874 -0.128440828793 0.807 2.34874774514e-38
