# .PCD v0.7 - Point Cloud Data file format
VERSION 0.7
FIELDS x y z rgb
SIZE 4 4 4 4
TYPE F F F F
COUNT 1 1 1 1
WIDTH 843
HEIGHT 1
VIEWPOINT 0 0 0 1 0 0 0
POINTS 843
DATA ascii
-0.0134729436272 -0.0825217797166 0.91 6.37933839132e-39
-0.0117629161668 -0.0823404131678 0.908 6.28786162757e-39
-0.0100824995716 -0.0823404131678 0.908 6.75170262965e-39
-0.00840208297631 -0.0823404131678 0.908 7.30163940937e-39
-0.00670686094849 -0.082159046619 0.906 7.57929829229e-39
-0.00503014571137 -0.082159046619 0.906 7.76189308738e-39
-0.00335343047424 -0.082159046619 0.906 7.76117562257e-39
-0.00167671523712 -0.082159046619 0.906 8.58984748243e-39
0.0 -0.0818869967957 0.903 9.50891990883e-39
0.00167116319991 -0.0818869967957 0.903 1.10715582731e-38
0.00334232639983 -0.0818869967957 0.903 1.22668546528e-38
0.00501348959974 -0.0818869967957 0.903 1.2264343526e-38
0.00668465279965 -0.0818869967957 0.903 1.28157152353e-38
0.00835581599956 -0.0818869967957 0.903 1.36454632924e-38
0.0100269791995 -0.0818869967957 0.903 1.24516018424e-38
0.0116981423994 -0.0818869967957 0.903 1.30051315513e-38
0.0133693055993 -0.0818869967957 0.903 1.30969614423e-38
0.0150404687992 -0.0818869967957 0.903 1.26385014263e-38
0.0167116319991 -0.0818869967957 0.903 1.13513695505e-38
0.018382795199 -0.0818869967957 0.903 1.1260968984e-38
0.020053958399 -0.0818869967957 0.903 1.0617403046e-38
0.0217251215989 -0.0818869967957 0.903 9.7898073834e-39
0.0234740133197 -0.082159046619 0.906 8.87216988664e-39
0.0252062489289 -0.0823404131678 0.908 7.86126196409e-39
0.0268866655242 -0.0823404131678 0.908 9.15054623437e-39
0.0286300052078 -0.0825217797166 0.91 8.50554536682e-39
0.0303141231612 -0.0825217797166 0.91 9.33349976187e-39
0.0321037298216 -0.0827938295399 0.913 9.79195977785e-39
0.0337933998122 -0.0827938295399 0.913 9.88415400641e-39
0.0354830698028 -0.0827938295399 0.913 1.00674662663e-38
0.0371727397934 -0.0827938295399 0.913 1.13545981422e-38
0.038862409784 -0.0827938295399 0.913 8.40438282808e-39
0.0405520797746 -0.0827938295399 0.913 2.35043630979e-38
-0.0291963130031 -0.0824366484794 0.928 1.90642396124e-38
-0.0273900502311 -0.0821701506934 0.925 1.55647685497e-38
-0.0256226517196 -0.0819924855027 0.923 8.10520000076e-39
-0.0239144749383 -0.0819924855027 0.923 7.38271293333e-39
-0.0221341216733 -0.0817259877167 0.92 7.29195363439e-39
-0.0203870806315 -0.081548322526 0.918 6.37503360244e-39
-0.0186270848362 -0.08128182474 0.915 6.37718599688e-39
-0.0169337134875 -0.08128182474 0.915 6.92963390345e-39
-0.0152070299155 -0.0811041595493 0.913 6.74703910836e-39
-0.0134729436272 -0.0808376617632 0.91 6.65699727423e-39
-0.0117629161668 -0.0806599965725 0.908 6.56480304567e-39
-0.0100824995716 -0.0806599965725 0.908 6.84102699896e-39
-0.00840208297631 -0.0806599965725 0.908 7.30271560659e-39
-0.00670686094849 -0.0804823313819 0.906 7.48638659891e-39
-0.00503014571137 -0.0804823313819 0.906 7.4856691341e-39
-0.00335343047424 -0.0804823313819 0.906 7.02505672368e-39
-0.00167671523712 -0.0804823313819 0.906 7.94735774173e-39
0.0 -0.0804823313819 0.906 8.0395519703e-39
0.00167671523712 -0.0804823313819 0.906 8.40940508178e-39
0.00335343047424 -0.0804823313819 0.906 7.11868588187e-39
0.00503014571137 -0.0804823313819 0.906 8.13425732571e-39
0.00670686094849 -0.0804823313819 0.906 8.96113552354e-39
0.00835581599956 -0.0802158335958 0.903 8.50267550757e-39
0.0100269791995 -0.0802158335958 0.903 7.58252688395e-39
0.0116981423994 -0.0802158335958 0.903 7.76476294664e-39
0.0133693055993 -0.0802158335958 0.903 8.04098689993e-39
0.0150404687992 -0.0802158335958 0.903 8.59486973613e-39
0.0167116319991 -0.0802158335958 0.903 7.86018576687e-39
0.018382795199 -0.0802158335958 0.903 8.22788648391e-39
0.0201205828455 -0.0804823313819 0.906 9.61115864478e-39
0.0217972980826 -0.0804823313819 0.906 7.86018576687e-39
0.0234740133197 -0.0804823313819 0.906 8.59773959539e-39
0.0252062489289 -0.0806599965725 0.908 8.96615777724e-39
0.0269458872544 -0.0808376617632 0.91 9.33421722668e-39
0.0286300052078 -0.0808376617632 0.91 8.3215156421e-39
0.030414059831 -0.0811041595493 0.913 9.2409468009e-39
0.0321740556262 -0.08128182474 0.915 9.517888219e-39
0.033867426975 -0.08128182474 0.915 9.97634823498e-39
0.0355607983237 -0.08128182474 0.915 1.01589430301e-38
0.0372541696725 -0.08128182474 0.915 9.79016611581e-39
0.0389475410212 -0.08128182474 0.915 8.77567086919e-39
0.04064091237 -0.08128182474 0.915 2.35097637022e-38
0.0423342837187 -0.08128182474 0.915 2.34986556093e-38
-0.0291963130031 -0.0807192183028 0.928 1.82348096501e-38
-0.0273900502311 -0.0804582725539 0.925 1.62994847488e-38
-0.0256781720917 -0.0804582725539 0.925 8.47469437983e-39
-0.0239662939522 -0.0804582725539 0.925 8.1181143674e-39
-0.022206298157 -0.0802843087214 0.923 7.47741828874e-39
-0.0204314969292 -0.0800233629726 0.92 6.74129938985e-39
-0.0186881572455 -0.07984939914 0.918 6.55870459475e-39
-0.0169337134875 -0.0795884533912 0.915 7.0211106672e-39
-0.0152070299155 -0.0794144895587 0.913 7.20621658915e-39
-0.0135173599249 -0.0794144895587 0.913 7.1150985578e-39
-0.0117888256738 -0.0791535438098 0.91 6.65592107701e-39
-0.0100824995716 -0.0789795799773 0.908 6.93357995993e-39
-0.00840208297631 -0.0789795799773 0.908 7.02577418849e-39
-0.00672166638105 -0.0789795799773 0.908 7.7626105522e-39
-0.00504124978578 -0.0789795799773 0.908 7.39419237035e-39
-0.00336083319052 -0.0789795799773 0.908 7.67077505604e-39
-0.00167671523712 -0.0788056161447 0.906 7.48638659891e-39
0.0 -0.0788056161447 0.906 8.59092367965e-39
0.00167671523712 -0.0788056161447 0.906 8.31541719118e-39
0.00335343047424 -0.0788056161447 0.906 8.03991070271e-39
0.00503014571137 -0.0788056161447 0.906 7.94735774173e-39
0.00670686094849 -0.0788056161447 0.906 8.3164933884e-39
0.00838357618561 -0.0788056161447 0.906 7.94915140377e-39
0.0100602914227 -0.0788056161447 0.906 8.22537535706e-39
0.0117370066599 -0.0788056161447 0.906 8.77961692567e-39
0.013413721897 -0.0788056161447 0.906 7.95166253062e-39
0.0150904371341 -0.0788056161447 0.906 8.41263367344e-39
0.0167671523712 -0.0788056161447 0.906 8.04385675918e-39
0.0184438676083 -0.0788056161447 0.906 7.85946830205e-39
0.0201205828455 -0.0788056161447 0.906 7.58216815154e-39
0.0217972980826 -0.0788056161447 0.906 7.76691534108e-39
0.0235258323337 -0.0789795799773 0.908 8.50482790201e-39
0.025261769301 -0.0791535438098 0.91 8.41263367344e-39
0.0269458872544 -0.0791535438098 0.91 9.52004061344e-39
0.0287243898404 -0.0794144895587 0.913 8.68849889432e-39
0.030414059831 -0.0794144895587 0.913 9.60828878553e-39
0.0321740556262 -0.0795884533912 0.915 1.09901260168e-38
0.0339784677192 -0.07984939914 0.918 9.51717075419e-39
0.0355607983237 -0.0795884533912 0.915 1.08053788272e-38
0.0372541696725 -0.0795884533912 0.915 1.07124671339e-38
0.0389475410212 -0.0795884533912 0.915 7.57714589785e-39
0.04064091237 -0.0795884533912 0.915 2.35093909568e-38
0.0423342837187 -0.0795884533912 0.915 2.34986429976e-38
-0.0291963130031 -0.0790017881261 0.928 2.3294458397e-38
-0.0273900502311 -0.0787463944145 0.925 2.15499441037e-38
-0.0256781720917 -0.0787463944145 0.925 7.35903659447e-39
-0.0239662939522 -0.0787463944145 0.925 8.02663760365e-39
-0.022206298157 -0.0785761319401 0.923 7.66001308383e-39
-0.0204981213757 -0.0785761319401 0.923 6.92568784698e-39
-0.0186881572455 -0.0781504757541 0.918 6.92855770623e-39
-0.0169892338596 -0.0781504757541 0.918 6.74488671392e-39
-0.0152403421387 -0.0778950820425 0.915 6.93071010067e-39
-0.0135173599249 -0.077724819568 0.913 6.92999263586e-39
-0.0117888256738 -0.0774694258564 0.91 7.02362179405e-39
-0.0101047077204 -0.0774694258564 0.91 7.30092194456e-39
-0.00840208297631 -0.077299163382 0.908 6.84138573136e-39
-0.00672166638105 -0.077299163382 0.908 7.11832714946e-39
-0.00504124978578 -0.077299163382 0.908 7.39383363794e-39
-0.00336083319052 -0.077299163382 0.908 7.48674533132e-39
-0.00168041659526 -0.077299163382 0.908 7.67077505604e-39
0.0 -0.077299163382 0.908 7.48638659891e-39
0.00168041659526 -0.077299163382 0.908 7.30343307141e-39
0.00336083319052 -0.077299163382 0.908 7.67185125326e-39
0.00504124978578 -0.077299163382 0.908 8.13210493127e-39
0.00672166638105 -0.077299163382 0.908 8.03991070271e-39
0.00838357618561 -0.0771289009076 0.906 8.31685212081e-39
0.0100602914227 -0.0771289009076 0.906 8.40976381419e-39
0.0117370066599 -0.0771289009076 0.906 7.94951013618e-39
0.013413721897 -0.0771289009076 0.906 7.95166253062e-39
0.0150904371341 -0.0771289009076 0.906 8.13425732571e-39
0.0167671523712 -0.0771289009076 0.906 8.22896268113e-39
0.0184438676083 -0.0771289009076 0.906 8.87109368942e-39
0.0201649991431 -0.077299163382 0.908 7.76548461535e-39
0.0218454157384 -0.077299163382 0.908 9.05512341414e-39
0.0235258323337 -0.077299163382 0.908 8.68706396469e-39
0.025261769301 -0.0774694258564 0.91 8.41227494103e-39
0.0270347198498 -0.077724819568 0.913 9.42605272284e-39
0.0287243898404 -0.077724819568 0.913 9.42605272284e-39
0.0304806842775 -0.0778950820425 0.915 8.87252861905e-39
0.0321740556262 -0.0778950820425 0.915 9.23879440646e-39
0.0339784677192 -0.0781504757541 0.918 1.08060962921e-38
0.0356773911051 -0.0781504757541 0.918 1.01600192273e-38
0.0373763144911 -0.0781504757541 0.918 9.70120047891e-39
0.039075237877 -0.0781504757541 0.918 7.85444604836e-39
0.040774161263 -0.0781504757541 0.918 2.35072525753e-38
0.042473084649 -0.0781504757541 0.918 2.34965004122e-38
-0.0293536207241 -0.0777007607401 0.933 2.34986303859e-38
-0.0273900502311 -0.0770345162751 0.925 2.34997332078e-38
-0.0256781720917 -0.0770345162751 0.925 5.96930725027e-39
-0.0239662939522 -0.0770345162751 0.925 8.117755635e-39
-0.0222544158128 -0.0770345162751 0.925 7.4756246267e-39
-0.0204981213757 -0.0768679551588 0.923 8.6773865975e-39
-0.0187288721851 -0.0766181134844 0.92 6.65340995017e-39
-0.0169892338596 -0.0764515523681 0.918 6.74524544632e-39
-0.0152403421387 -0.0762017106937 0.915 6.65412741498e-39
-0.0135173599249 -0.0760351495774 0.913 6.83923333692e-39
-0.0117888256738 -0.075785307903 0.91 7.29984574734e-39
-0.0101047077204 -0.075785307903 0.91 7.48423420447e-39
-0.008420589767 -0.075785307903 0.91 7.11796841706e-39
-0.0067364718136 -0.075785307903 0.91 7.39383363794e-39
-0.0050523538602 -0.075785307903 0.91 7.30163940937e-39
-0.0033682359068 -0.075785307903 0.91 9.32955370539e-39
-0.00168041659526 -0.0756187467868 0.908 7.48638659891e-39
0.0 -0.0756187467868 0.908 7.57929829229e-39
0.00168041659526 -0.0756187467868 0.908 7.48889772576e-39
0.00336083319052 -0.0756187467868 0.908 7.85731590761e-39
0.00504124978578 -0.0756187467868 0.908 7.94843393896e-39
0.00672166638105 -0.0756187467868 0.908 8.22429915984e-39
0.00840208297631 -0.0756187467868 0.908 8.31685212081e-39
0.0100602914227 -0.0754521856705 0.906 8.22465789224e-39
0.0117370066599 -0.0754521856705 0.906 7.94951013618e-39
0.013413721897 -0.0754521856705 0.906 8.22645155428e-39
0.0151237493574 -0.0756187467868 0.908 8.04170436474e-39
0.0168041659526 -0.0756187467868 0.908 8.32008071247e-39
0.0184845825479 -0.0756187467868 0.908 7.95166253062e-39
0.0201649991431 -0.0756187467868 0.908 8.77961692567e-39
0.0218454157384 -0.0756187467868 0.908 9.14767637511e-39
0.0235776513476 -0.075785307903 0.91 8.96579904483e-39
0.025261769301 -0.075785307903 0.91 9.05512341414e-39
0.0270347198498 -0.0760351495774 0.913 9.51824695141e-39
0.0287243898404 -0.0760351495774 0.913 9.517888219e-39
0.0304806842775 -0.0762017106937 0.915 1.05320247332e-38
0.0321740556262 -0.0762017106937 0.915 9.33062990261e-39
0.0339784677192 -0.0764515523681 0.918 9.883795274e-39
0.0356773911051 -0.0764515523681 0.918 1.04369606454e-38
0.0373763144911 -0.0764515523681 0.918 1.07128258663e-38
0.039075237877 -0.0764515523681 0.918 8.31469972637e-39
0.040774161263 -0.0764515523681 0.918 2.35097903269e-38
-0.0293536207241 -0.0759740771681 0.933 2.34946717177e-38
-0.0273900502311 -0.0753226381356 0.925 2.34968367238e-38
-0.0256781720917 -0.0753226381356 0.925 4.95911679253e-39
-0.0239662939522 -0.0753226381356 0.925 8.39433832069e-39
-0.0222544158128 -0.0753226381356 0.925 7.84404280856e-39
-0.0205425376733 -0.0753226381356 0.925 7.20262926508e-39
-0.0187899445944 -0.0751597783775 0.923 6.65305121776e-39
-0.0169892338596 -0.0747526289822 0.918 6.56229191882e-39
-0.0152403421387 -0.074508339345 0.915 7.02326306165e-39
-0.0135173599249 -0.0743454795868 0.913 6.74811530558e-39
-0.0118276899343 -0.0743454795868 0.913 7.11545729021e-39
-0.0101380199437 -0.0743454795868 0.913 7.39096377868e-39
-0.008420589767 -0.0741011899496 0.91 7.29984574734e-39
-0.0067364718136 -0.0741011899496 0.91 7.39383363794e-39
-0.0050523538602 -0.0741011899496 0.91 7.21088011044e-39
-0.0033682359068 -0.0741011899496 0.91 7.67077505604e-39
-0.00168041659526 -0.0739383301915 0.908 7.57929829229e-39
0.0 -0.0739383301915 0.908 7.21303250488e-39
0.0016841179534 -0.0741011899496 0.91 7.2141087021e-39
0.0033682359068 -0.0741011899496 0.91 7.76476294664e-39
0.00504124978578 -0.0739383301915 0.908 7.8569571752e-39
0.00672166638105 -0.0739383301915 0.908 8.50016438072e-39
0.00840208297631 -0.0739383301915 0.908 8.13210493127e-39
0.0100824995716 -0.0739383301915 0.908 8.68455283785e-39
0.0117629161668 -0.0739383301915 0.908 7.49140885261e-39
0.0134433327621 -0.0739383301915 0.908 8.41227494103e-39
0.0151237493574 -0.0739383301915 0.908 8.04385675918e-39
0.0168041659526 -0.0739383301915 0.908 8.50554536682e-39
0.0184845825479 -0.0739383301915 0.908 8.41299240585e-39
0.0201649991431 -0.0739383301915 0.908 8.50303423997e-39
0.0218935333942 -0.0741011899496 0.91 8.59522846854e-39
0.0235776513476 -0.0741011899496 0.91 9.33242356465e-39
0.0253450498591 -0.0743454795868 0.913 9.23879440646e-39
0.0270347198498 -0.0743454795868 0.913 8.68849889432e-39
0.0287243898404 -0.0743454795868 0.913 8.68849889432e-39
0.0304806842775 -0.074508339345 0.915 9.97850062942e-39
0.0321740556262 -0.074508339345 0.915 9.97634823498e-39
0.0339784677192 -0.0747526289822 0.918 1.01600192273e-38
0.0356773911051 -0.0747526289822 0.918 1.0529154874e-38
0.0374577443701 -0.0749154887403 0.92 1.06195554405e-38
0.0391603691142 -0.0749154887403 0.92 8.68240044341e-39
0.0408629938583 -0.0749154887403 0.92 2.35094371996e-38
-0.0273900502311 -0.0736107599962 0.925 2.34979227302e-38
-0.0256781720917 -0.0736107599962 0.925 5.41865300573e-39
-0.0239662939522 -0.0736107599962 0.925 8.20994986356e-39
-0.0222544158128 -0.0736107599962 0.925 7.47741828874e-39
-0.0205425376733 -0.0736107599962 0.925 7.20478165952e-39
-0.0187899445944 -0.0734516015962 0.923 6.74560417873e-39
-0.017026247441 -0.0732128639962 0.92 6.92927517105e-39
-0.0152403421387 -0.0728149679962 0.915 6.37933839132e-39
-0.01354697079 -0.0728149679962 0.915 6.74775657317e-39
-0.0118276899343 -0.0726558095962 0.913 7.20765151877e-39
-0.0101380199437 -0.0726558095962 0.913 7.48351673966e-39
-0.00844834995305 -0.0726558095962 0.913 7.94520534729e-39
-0.00675867996244 -0.0726558095962 0.913 7.48638659891e-39
-0.00506900997183 -0.0726558095962 0.913 7.30271560659e-39
-0.0033682359068 -0.0724170719962 0.91 7.67077505604e-39
-0.00168041659526 -0.0722579135962 0.908 7.76404548183e-39
0.0 -0.0722579135962 0.908 8.68706396469e-39
0.0016841179534 -0.0724170719962 0.91 7.03007897738e-39
0.0033682359068 -0.0724170719962 0.91 7.8569571752e-39
0.00504124978578 -0.0722579135962 0.908 8.13210493127e-39
0.00672166638105 -0.0722579135962 0.908 8.3164933884e-39
0.00840208297631 -0.0722579135962 0.908 8.13210493127e-39
0.0100824995716 -0.0722579135962 0.908 8.50195804275e-39
0.0117629161668 -0.0722579135962 0.908 7.21446743451e-39
0.0134433327621 -0.0722579135962 0.908 7.58432054599e-39
0.0151237493574 -0.0722579135962 0.908 7.85910956965e-39
0.0168041659526 -0.0722579135962 0.908 8.22788648391e-39
0.0184845825479 -0.0722579135962 0.908 7.58432054599e-39
0.0202094154408 -0.0724170719962 0.91 9.24309919534e-39
0.0218935333942 -0.0724170719962 0.91 8.22824521631e-39
0.0236553798685 -0.0726558095962 0.913 9.14767637511e-39
0.0253450498591 -0.0726558095962 0.913 9.33134736743e-39
0.02709394158 -0.0728149679962 0.915 8.68849889432e-39
0.0287873129287 -0.0728149679962 0.915 9.15018750196e-39
0.0305806209472 -0.0730537055962 0.918 9.14875257233e-39
0.0322795443332 -0.0730537055962 0.918 9.60900625034e-39
0.0339784677192 -0.0730537055962 0.918 9.51609455696e-39
0.035755119626 -0.0732128639962 0.92 1.0896855591e-38
0.0374577443701 -0.0732128639962 0.92 1.03426140224e-38
0.0391603691142 -0.0732128639962 0.92 8.4994469159e-39
0.0408629938583 -0.0732128639962 0.92 2.350438692e-38
-0.0274788828265 -0.0721320674195 0.928 2.34950402592e-38
-0.0256781720917 -0.0718988818567 0.925 6.70686107879e-39
-0.0239662939522 -0.0718988818567 0.925 8.39649071513e-39
-0.0223265922965 -0.0721320674195 0.928 8.03130112494e-39
-0.0205425376733 -0.0718988818567 0.925 7.20478165952e-39
-0.0187899445944 -0.0717434248149 0.923 7.38917011665e-39
-0.017026247441 -0.0715102392521 0.92 7.02182813202e-39
-0.0152903104736 -0.0713547822102 0.918 7.20765151877e-39
-0.01354697079 -0.0711215966475 0.915 7.20765151877e-39
-0.0118535994412 -0.0711215966475 0.915 7.11545729021e-39
-0.0101602280925 -0.0711215966475 0.915 7.48315800725e-39
-0.00846685674374 -0.0711215966475 0.915 7.48531040169e-39
-0.00675867996244 -0.0709661396056 0.913 6.93393869234e-39
-0.00506900997183 -0.0709661396056 0.913 7.39490983516e-39
-0.00337933998122 -0.0709661396056 0.913 7.57858082748e-39
-0.0016841179534 -0.0707329540428 0.91 7.76368674942e-39
0.0 -0.0707329540428 0.91 7.39670349719e-39
0.00168966999061 -0.0709661396056 0.913 7.39777969441e-39
0.0033682359068 -0.0707329540428 0.91 7.2141087021e-39
0.0050523538602 -0.0707329540428 0.91 8.04098689993e-39
0.0067364718136 -0.0707329540428 0.91 7.8569571752e-39
0.00840208297631 -0.070577497001 0.908 7.6736449153e-39
0.0100824995716 -0.070577497001 0.908 8.5930760741e-39
0.0117629161668 -0.070577497001 0.908 8.22645155428e-39
0.0134729436272 -0.0707329540428 0.91 7.86018576687e-39
0.0151570615806 -0.0707329540428 0.91 7.95202126302e-39
0.016841179534 -0.0707329540428 0.91 8.044574224e-39
0.0185252974874 -0.0707329540428 0.91 8.32043944488e-39
0.0202760398873 -0.0709661396056 0.913 8.32043944488e-39
0.0219657098779 -0.0709661396056 0.913 8.3215156421e-39
0.0236553798685 -0.0709661396056 0.913 8.87288735145e-39
0.0254005702312 -0.0711215966475 0.915 9.15018750196e-39
0.02709394158 -0.0711215966475 0.915 9.2413055333e-39
0.0288816975613 -0.0713547822102 0.918 8.87252861905e-39
0.0305806209472 -0.0713547822102 0.918 1.1359264466e-38
0.0322795443332 -0.0713547822102 0.918 9.33278229706e-39
0.0340524948819 -0.0715102392521 0.92 1.05295136064e-38
0.035755119626 -0.0715102392521 0.92 1.08957793938e-38
0.0374577443701 -0.0715102392521 0.92 1.07142607959e-38
0.0391603691142 -0.0715102392521 0.92 8.96077679113e-39
0.0408629938583 -0.0715102392521 0.92 2.35058092379e-38
-0.0257614526498 -0.0704146372428 0.928 5.9711009123e-39
-0.0240440224732 -0.0704146372428 0.928 8.02771380087e-39
-0.0223265922965 -0.0704146372428 0.928 7.75328350962e-39
-0.0206091621199 -0.0704146372428 0.928 7.20334672989e-39
-0.0188306595339 -0.0701870037173 0.925 7.57284110897e-39
-0.017026247441 -0.069807614508 0.92 6.83743967489e-39
-0.0152903104736 -0.0696558588243 0.918 6.83851587211e-39
-0.0135913870877 -0.0696558588243 0.918 7.11581602262e-39
-0.0118535994412 -0.0694282252987 0.915 7.29984574734e-39
-0.0101602280925 -0.0694282252987 0.915 7.20836898359e-39
-0.00846685674374 -0.0694282252987 0.915 7.30128067697e-39
-0.006773485395 -0.0694282252987 0.915 7.21052137803e-39
-0.00508011404625 -0.0694282252987 0.915 7.57822209507e-39
-0.0033867426975 -0.0694282252987 0.915 7.48674533132e-39
-0.00168966999061 -0.069276469615 0.913 7.67149252085e-39
0.0 -0.069276469615 0.913 7.67185125326e-39
0.00169337134875 -0.0694282252987 0.915 7.48889772576e-39
0.00337933998122 -0.069276469615 0.913 7.8569571752e-39
0.00506900997183 -0.069276469615 0.913 7.8569571752e-39
0.0067364718136 -0.0690488360894 0.91 7.03043770978e-39
0.008420589767 -0.0690488360894 0.91 7.21518489932e-39
0.0101047077204 -0.0690488360894 0.91 8.59522846854e-39
0.0117888256738 -0.0690488360894 0.91 8.59702213057e-39
0.0134729436272 -0.0690488360894 0.91 8.50482790201e-39
0.0151570615806 -0.0690488360894 0.91 8.04385675918e-39
0.016841179534 -0.0690488360894 0.91 8.22932141353e-39
0.0185863698967 -0.069276469615 0.913 8.8703762246e-39
0.0202760398873 -0.069276469615 0.913 8.04385675918e-39
0.0220138275337 -0.0694282252987 0.915 8.13712718497e-39
0.0237071988825 -0.0694282252987 0.915 8.41263367344e-39
0.0254005702312 -0.0694282252987 0.915 8.69029255636e-39
0.02709394158 -0.0694282252987 0.915 9.2413055333e-39
0.0288816975613 -0.0696558588243 0.918 9.24058806849e-39
0.0305806209472 -0.0696558588243 0.918 9.79088358063e-39
0.0322795443332 -0.0696558588243 0.918 1.02518547234e-38
0.0340524948819 -0.069807614508 0.92 1.08075312217e-38
0.035755119626 -0.069807614508 0.92 1.04358844482e-38
0.0375798891887 -0.0700352480336 0.923 9.42497652562e-39
0.03928806597 -0.0700352480336 0.923 9.23735947683e-39
-0.0257614526498 -0.0686972070662 0.928 5.7881473848e-39
-0.0240440224732 -0.0686972070662 0.928 8.11990802944e-39
-0.0223747099523 -0.0688452613918 0.93 7.93803069916e-39
-0.0206091621199 -0.0686972070662 0.928 7.57284110897e-39
-0.0188306595339 -0.0684751255778 0.925 7.38917011665e-39
-0.0170817678131 -0.0683270712523 0.923 7.20621658915e-39
-0.0153236226969 -0.0681049897639 0.92 6.65592107701e-39
-0.0135913870877 -0.0679569354383 0.918 6.93286249511e-39
-0.0118924637017 -0.0679569354383 0.918 7.11725095224e-39
-0.0101935403157 -0.0679569354383 0.918 6.93357995993e-39
-0.00849461692979 -0.0679569354383 0.918 6.74990896761e-39
-0.006773485395 -0.06773485395 0.915 7.21016264562e-39
-0.00508011404625 -0.06773485395 0.915 8.40799817812e-39
-0.0033867426975 -0.06773485395 0.915 7.94735774173e-39
-0.00169337134875 -0.06773485395 0.915 8.22429915984e-39
0.0 -0.06773485395 0.915 8.13210493127e-39
0.00169337134875 -0.06773485395 0.915 7.85623971039e-39
0.0033867426975 -0.06773485395 0.915 7.76440421423e-39
0.00508011404625 -0.06773485395 0.915 7.58216815154e-39
0.00675867996244 -0.0675867996244 0.913 7.76691534108e-39
0.008420589767 -0.067364718136 0.91 8.04170436474e-39
0.0101047077204 -0.067364718136 0.91 7.85946830205e-39
0.0117888256738 -0.067364718136 0.91 8.22645155428e-39
0.0135173599249 -0.0675867996244 0.913 8.31756958562e-39
0.0152070299155 -0.0675867996244 0.913 8.22788648391e-39
0.0168966999061 -0.0675867996244 0.913 8.13676845256e-39
0.0185863698967 -0.0675867996244 0.913 8.50375170479e-39
0.020320456185 -0.06773485395 0.915 8.32259183932e-39
0.0220138275337 -0.06773485395 0.915 8.13748591737e-39
0.0237071988825 -0.06773485395 0.915 8.68921635914e-39
0.0254005702312 -0.06773485395 0.915 1.01596604949e-38
0.0271827741753 -0.0679569354383 0.918 9.69868935206e-39
0.0288816975613 -0.0679569354383 0.918 9.3349346915e-39
0.0306472453938 -0.0681049897639 0.92 9.70155921132e-39
0.0323498701378 -0.0681049897639 0.92 9.33349976187e-39
0.0340524948819 -0.0681049897639 0.92 9.97957682664e-39
0.0358717124074 -0.0683270712523 0.923 1.07128258663e-38
0.0376613190678 -0.0684751255778 0.925 1.07142607959e-38
0.0393731972073 -0.0684751255778 0.925 1.04344495185e-38
-0.027626937152 -0.0673406593081 0.933 2.35015619023e-38
-0.02590025358 -0.0673406593081 0.933 3.39791335785e-39
-0.024173570008 -0.0673406593081 0.933 8.30357902175e-39
-0.0223747099523 -0.067124129857 0.93 7.84655393541e-39
-0.0206091621199 -0.0669797768895 0.928 7.4806468804e-39
-0.0188917319432 -0.0669797768895 0.928 7.20478165952e-39
-0.0171187813945 -0.0667632474384 0.925 6.92999263586e-39
-0.0153735910318 -0.0666188944709 0.923 6.65484487979e-39
-0.0136209979528 -0.0664023650198 0.92 7.11617475502e-39
-0.0118924637017 -0.0662580120524 0.918 6.93286249511e-39
-0.0101935403157 -0.0662580120524 0.918 6.84138573136e-39
-0.00849461692979 -0.0662580120524 0.918 6.93465615715e-39
-0.00679569354383 -0.0662580120524 0.918 7.11832714946e-39
-0.00509677015787 -0.0662580120524 0.918 7.21052137803e-39
-0.0033867426975 -0.0660414826012 0.915 6.75098516483e-39
-0.00169337134875 -0.0660414826012 0.915 7.57929829229e-39
0.0 -0.0660414826012 0.915 7.67149252085e-39
0.00169337134875 -0.0660414826012 0.915 7.48853899335e-39
0.0033867426975 -0.0660414826012 0.915 7.8569571752e-39
0.00508011404625 -0.0660414826012 0.915 7.30666166307e-39
0.00675867996244 -0.0658971296338 0.913 7.76691534108e-39
0.00844834995305 -0.0658971296338 0.913 7.85731590761e-39
0.0101380199437 -0.0658971296338 0.913 7.58147170621e-39
0.0118276899343 -0.0658971296338 0.913 8.40940508178e-39
0.0135173599249 -0.0658971296338 0.913 8.5934348065e-39
0.0152070299155 -0.0658971296338 0.913 8.04385675918e-39
0.0168966999061 -0.0658971296338 0.913 7.95202126302e-39
0.0186270848362 -0.0660414826012 0.915 8.32043944488e-39
0.020320456185 -0.0660414826012 0.915 8.50554536682e-39
0.0220138275337 -0.0660414826012 0.915 8.50590409923e-39
0.0237071988825 -0.0660414826012 0.915 8.68849889432e-39
0.0254838507894 -0.0662580120524 0.918 9.79160104544e-39
0.0271827741753 -0.0662580120524 0.918 9.42282413118e-39
0.0288816975613 -0.0662580120524 0.918 9.33421722668e-39
0.0306472453938 -0.0664023650198 0.92 9.24309919534e-39
0.0323498701378 -0.0664023650198 0.92 9.33421722668e-39
0.0340524948819 -0.0664023650198 0.92 1.03479950085e-38
0.0358717124074 -0.0666188944709 0.923 1.07131845987e-38
0.0375798891887 -0.0666188944709 0.923 1.08053788272e-38
-0.027626937152 -0.0656139757361 0.933 2.35011947621e-38
-0.02590025358 -0.0656139757361 0.933 5.14422271447e-39
-0.024173570008 -0.0656139757361 0.933 8.48760874648e-39
-0.0223747099523 -0.0654029983222 0.93 8.12241915629e-39
-0.0206091621199 -0.0652623467129 0.928 6.83528728045e-39
-0.0188917319432 -0.0652623467129 0.928 7.11258743096e-39
-0.0171187813945 -0.0650513692989 0.925 7.57535223581e-39
-0.0153735910318 -0.0649107176896 0.923 7.02254559683e-39
-0.0136654142505 -0.0649107176896 0.923 6.84030953414e-39
-0.0119572374691 -0.0649107176896 0.923 7.29984574734e-39
-0.0102157484646 -0.0646997402757 0.92 7.02327847593e-39
-0.00851312372049 -0.0646997402757 0.92 7.30128067697e-39
-0.00679569354383 -0.0645590886664 0.918 7.48710406372e-39
-0.00509677015787 -0.0645590886664 0.918 7.57929829229e-39
-0.00339784677192 -0.0645590886664 0.918 7.11904461428e-39
-0.00169892338596 -0.0645590886664 0.918 8.22537675836e-39
0.0 -0.0645590886664 0.918 8.13210493127e-39
0.00169892338596 -0.0645590886664 0.918 8.31685212081e-39
0.0033867426975 -0.0643481112525 0.915 7.76583914386e-39
0.00508011404625 -0.0643481112525 0.915 8.41227494103e-39
0.006773485395 -0.0643481112525 0.915 8.41156027882e-39
0.00846685674374 -0.0643481112525 0.915 7.95166253062e-39
0.0101602280925 -0.0643481112525 0.915 8.04134563233e-39
0.0118535994412 -0.0643481112525 0.915 1.01614583608e-38
0.01354697079 -0.0643481112525 0.915 7.30594419826e-39
0.0152403421387 -0.0643481112525 0.915 9.3349346915e-39
0.0169337134875 -0.0643481112525 0.915 8.68849889432e-39
0.0186881572455 -0.0645590886664 0.918 8.68957509154e-39
0.0203870806315 -0.0645590886664 0.918 8.32043944488e-39
0.0220860040175 -0.0645590886664 0.918 8.13676845256e-39
0.0237849274034 -0.0645590886664 0.918 9.883795274e-39
0.0254838507894 -0.0645590886664 0.918 9.33098863502e-39
0.0271827741753 -0.0645590886664 0.918 1.0163247819e-38
0.0289446206497 -0.0646997402757 0.92 9.05619961136e-39
0.0306472453938 -0.0646997402757 0.92 9.70299414094e-39
0.0323498701378 -0.0646997402757 0.92 9.42605272284e-39
0.0340524948819 -0.0646997402757 0.92 1.05305898036e-38
0.0358717124074 -0.0649107176896 0.923 1.07149782607e-38
0.0375798891887 -0.0649107176896 0.923 1.03429769587e-38
-0.02590025358 -0.0638872921641 0.933 6.52536350039e-39
-0.024173570008 -0.0638872921641 0.933 7.74970038945e-39
-0.0223747099523 -0.0636818667874 0.93 8.39613198273e-39
-0.0206091621199 -0.0635449165362 0.928 7.6636004079e-39
-0.0188917319432 -0.0635449165362 0.928 7.20478165952e-39
-0.0171187813945 -0.0633394911595 0.925 6.92999263586e-39
-0.015406903255 -0.0633394911595 0.925 7.02290432924e-39
-0.0136654142505 -0.0632025409083 0.923 7.02290432924e-39
-0.0119572374691 -0.0632025409083 0.923 6.74739784076e-39
-0.0102490606878 -0.0632025409083 0.923 7.66934012641e-39
-0.00851312372049 -0.0629971155316 0.92 6.93465615715e-39
-0.00681049897639 -0.0629971155316 0.92 7.30343307141e-39
-0.00510787423229 -0.0629971155316 0.92 7.303074339e-39
-0.00339784677192 -0.0628601652804 0.918 7.67149252085e-39
-0.00169892338596 -0.0628601652804 0.918 7.67077505604e-39
0.0 -0.0628601652804 0.918 8.49980564831e-39
0.00169892338596 -0.0628601652804 0.918 8.31685212081e-39
0.00339784677192 -0.0628601652804 0.918 8.04098689993e-39
0.00508011404625 -0.0626547399037 0.915 7.94986886858e-39
0.006773485395 -0.0626547399037 0.915 7.67579730974e-39
0.00846685674374 -0.0626547399037 0.915 8.13425732571e-39
0.0101602280925 -0.0626547399037 0.915 8.68527030266e-39
0.0118535994412 -0.0626547399037 0.915 8.22465789224e-39
0.01354697079 -0.0626547399037 0.915 8.87073495701e-39
0.0152403421387 -0.0626547399037 0.915 8.87109368942e-39
0.0169892338596 -0.0628601652804 0.918 8.59773959539e-39
0.0186881572455 -0.0628601652804 0.918 8.22932141353e-39
0.0203870806315 -0.0628601652804 0.918 8.32223310691e-39
0.0220860040175 -0.0628601652804 0.918 7.39957335645e-39
0.0237849274034 -0.0628601652804 0.918 1.06245790955e-38
0.0255393711615 -0.0629971155316 0.92 9.05512341414e-39
0.0272419959056 -0.0629971155316 0.92 8.87360481627e-39
0.0290390052822 -0.0632025409083 0.923 9.42748765247e-39
0.0307471820635 -0.0632025409083 0.923 9.88630640085e-39
0.0324553588448 -0.0632025409083 0.923 9.97850062942e-39
0.0341635356261 -0.0632025409083 0.923 9.97850062942e-39
0.0358717124074 -0.0632025409083 0.923 1.07131845987e-38
0.0375798891887 -0.0632025409083 0.923 1.05280786767e-38
-0.0278342132079 -0.0626269797177 0.94 2.35011905582e-38
-0.0259557739521 -0.0622938574851 0.935 8.64867959716e-39
-0.024173570008 -0.0621606085921 0.933 8.20815760283e-39
-0.0223747099523 -0.0619607352526 0.93 8.21281972282e-39
-0.0206091621199 -0.0618274863596 0.928 7.84834759744e-39
-0.0188917319432 -0.0618274863596 0.928 6.74560417873e-39
-0.0171743017665 -0.0618274863596 0.928 7.48387547206e-39
-0.015406903255 -0.06162761302 0.925 7.20765151877e-39
-0.0136950251156 -0.06162761302 0.925 7.02326306165e-39
-0.0119831469761 -0.06162761302 0.925 7.39311617313e-39
-0.0102490606878 -0.061494364127 0.923 7.6686226616e-39
-0.00854088390653 -0.061494364127 0.923 7.30343307141e-39
-0.00681049897639 -0.0612944907875 0.92 7.303074339e-39
-0.00510787423229 -0.0612944907875 0.92 7.67077505604e-39
-0.00340524948819 -0.0612944907875 0.92 7.67041632363e-39
-0.00169892338596 -0.0611612418945 0.918 8.96077679113e-39
0.0 -0.0611612418945 0.918 7.94592281211e-39
0.00169892338596 -0.0611612418945 0.918 8.13174619886e-39
0.00339784677192 -0.0611612418945 0.918 7.85623971039e-39
0.00508011404625 -0.060961368555 0.915 8.40904634937e-39
0.006773485395 -0.060961368555 0.915 8.13425732571e-39
0.00846685674374 -0.060961368555 0.915 8.68778142951e-39
0.0101602280925 -0.060961368555 0.915 9.69904808447e-39
0.0118535994412 -0.060961368555 0.915 8.31721085321e-39
0.0135913870877 -0.0611612418945 0.918 8.22645155428e-39
0.0152903104736 -0.0611612418945 0.918 7.95166253062e-39
0.0169892338596 -0.0611612418945 0.918 8.78069312289e-39
0.0187288721851 -0.0612944907875 0.92 8.68849889432e-39
0.0204314969292 -0.0612944907875 0.92 8.68957509154e-39
0.0220860040175 -0.0611612418945 0.918 8.96615777724e-39
0.0237849274034 -0.0611612418945 0.918 9.05655834377e-39
0.0255393711615 -0.0612944907875 0.92 9.0583520058e-39
0.0273308285009 -0.061494364127 0.923 9.60864751794e-39
0.0291019283706 -0.06162761302 0.925 9.33349976187e-39
0.03081380651 -0.06162761302 0.925 9.70227667613e-39
0.0324553588448 -0.061494364127 0.923 1.04373193778e-38
0.0341635356261 -0.061494364127 0.923 1.15425739234e-38
0.0359494409284 -0.06162761302 0.925 1.07121084015e-38
0.0376613190678 -0.06162761302 0.925 9.60577765868e-39
-0.0278342132079 -0.0608873413922 0.94 2.34997472208e-38
-0.0259557739521 -0.060563472555 0.935 1.22392813029e-38
-0.024225389022 -0.060563472555 0.935 9.5856886439e-39
-0.022446886436 -0.0604339250201 0.933 8.30538109158e-39
-0.0206535784175 -0.0602396037178 0.93 8.21568958207e-39
-0.0189324468827 -0.0602396037178 0.93 7.20621658915e-39
-0.0171743017665 -0.0601100561829 0.928 6.93071010067e-39
-0.0154568715899 -0.0601100561829 0.928 6.84030953414e-39
-0.0136950251156 -0.0599157348806 0.925 7.29984574734e-39
-0.0119831469761 -0.0599157348806 0.925 7.11617475502e-39
-0.0102712688367 -0.0599157348806 0.925 7.11832714946e-39
-0.00854088390653 -0.0597861873457 0.923 7.48638659891e-39
-0.00683270712523 -0.0597861873457 0.923 7.57929829229e-39
-0.00512453034392 -0.0597861873457 0.923 7.48710406372e-39
-0.00340524948819 -0.0595918660434 0.92 7.57929829229e-39
-0.0017026247441 -0.0595918660434 0.92 7.76404548183e-39
0.0 -0.0594623185085 0.918 7.67185125326e-39
0.00169892338596 -0.0594623185085 0.918 7.8569571752e-39
0.00339784677192 -0.0594623185085 0.918 8.22429915984e-39
0.00509677015787 -0.0594623185085 0.918 8.22429915984e-39
0.00679569354383 -0.0594623185085 0.918 8.59486973613e-39
0.00849461692979 -0.0594623185085 0.918 7.58252688395e-39
0.0101935403157 -0.0594623185085 0.918 7.39813842682e-39
0.0118924637017 -0.0594623185085 0.918 9.23879440646e-39
0.0135913870877 -0.0594623185085 0.918 8.31792831803e-39
0.0152903104736 -0.0594623185085 0.918 8.96544031242e-39
0.017026247441 -0.0595918660434 0.92 8.96257045317e-39
0.0187288721851 -0.0595918660434 0.92 8.59522846854e-39
0.0204314969292 -0.0595918660434 0.92 8.22824521631e-39
0.0221341216733 -0.0595918660434 0.92 8.87109368942e-39
0.0238367464174 -0.0595918660434 0.92 9.05548214655e-39
0.0256226517196 -0.0597861873457 0.923 8.50518663441e-39
0.0273900502311 -0.0599157348806 0.925 9.05763454099e-39
0.0291019283706 -0.0599157348806 0.925 9.69976554928e-39
0.03081380651 -0.0599157348806 0.925 9.97634823498e-39
0.0325256846495 -0.0599157348806 0.925 1.08050200948e-38
0.0342375627889 -0.0599157348806 0.925 1.06202729053e-38
0.0360660337097 -0.0601100561829 0.928 1.07149782607e-38
0.0377834638864 -0.0601100561829 0.928 8.50088184553e-39
-0.0259557739521 -0.0588330876248 0.935 1.51837695102e-38
-0.024225389022 -0.0588330876248 0.935 1.32559331479e-38
-0.0224950040919 -0.0588330876248 0.935 9.68218766134e-39
-0.020720202864 -0.0587072414481 0.933 8.12241915629e-39
-0.018993519292 -0.0587072414481 0.933 7.57284110897e-39
-0.0172113153479 -0.058518472183 0.93 6.92999263586e-39
-0.0154568715899 -0.0583926260063 0.928 7.29984574734e-39
-0.0137394414132 -0.0583926260063 0.928 7.30056321215e-39
-0.0120220112366 -0.0583926260063 0.928 7.11617475502e-39
-0.0102712688367 -0.0582038567412 0.925 7.11868588187e-39
-0.00855939069723 -0.0582038567412 0.925 7.48638659891e-39
-0.00683270712523 -0.0580780105644 0.923 7.57858082748e-39
-0.00512453034392 -0.0580780105644 0.923 7.48710406372e-39
-0.00341635356261 -0.0580780105644 0.923 7.76368674942e-39
-0.0017026247441 -0.0578892412993 0.92 7.94843393896e-39
0.0 -0.0577633951226 0.918 8.13174619886e-39
0.00169892338596 -0.0577633951226 0.918 7.94879267136e-39
0.00339784677192 -0.0577633951226 0.918 8.5930760741e-39
0.00509677015787 -0.0577633951226 0.918 7.76619787627e-39
0.00679569354383 -0.0577633951226 0.918 9.05548214655e-39
0.00849461692979 -0.0577633951226 0.918 7.49212631742e-39
0.0101935403157 -0.0577633951226 0.918 8.68670523229e-39
0.0118924637017 -0.0577633951226 0.918 8.68562903507e-39
0.0135913870877 -0.0577633951226 0.918 9.33098863502e-39
0.0153236226969 -0.0578892412993 0.92 8.59738086298e-39
0.017026247441 -0.0578892412993 0.92 8.0449329564e-39
0.0187288721851 -0.0578892412993 0.92 8.41263367344e-39
0.0204314969292 -0.0578892412993 0.92 9.14875257233e-39
0.0221341216733 -0.0578892412993 0.92 9.51609455696e-39
0.0238367464174 -0.0578892412993 0.92 9.4239003284e-39
0.0256226517196 -0.0580780105644 0.923 8.96544031242e-39
0.0273900502311 -0.0582038567412 0.925 9.61079991238e-39
0.0291963130031 -0.0583926260063 0.928 9.88630640085e-39
0.0309137431798 -0.0583926260063 0.928 9.79195977785e-39
0.0326311733564 -0.0583926260063 0.928 1.10844726398e-38
0.0343486035331 -0.0583926260063 0.928 1.05273612119e-38
0.0361437622307 -0.058518472183 0.93 1.04387543074e-38
0.0380684684631 -0.0588330876248 0.935 1.01593017625e-38
0.0397988533933 -0.0588330876248 0.935 2.35072343585e-38
-0.0276861588823 -0.0571027026947 0.935 2.34982968768e-38
-0.0259557739521 -0.0571027026947 0.935 1.77638150193e-38
-0.024225389022 -0.0571027026947 0.935 1.74919294861e-38
-0.0224950040919 -0.0571027026947 0.935 1.18815774491e-38
-0.0207646191617 -0.0571027026947 0.935 8.76419143217e-39
-0.018993519292 -0.0569805578761 0.933 7.4806468804e-39
-0.0172113153479 -0.0567973406482 0.93 8.21927690614e-39
-0.0154901838131 -0.0567973406482 0.93 6.10275570562e-39
-0.0137394414132 -0.0566751958296 0.928 7.02505672368e-39
-0.0120220112366 -0.0566751958296 0.928 6.93465615715e-39
-0.0103045810599 -0.0566751958296 0.928 7.30163940937e-39
-0.00855939069723 -0.0564919786017 0.925 7.76296928461e-39
-0.00684751255778 -0.0564919786017 0.925 7.57858082748e-39
-0.00513563441834 -0.0564919786017 0.925 7.57929829229e-39
-0.00342375627889 -0.0564919786017 0.925 7.57929829229e-39
-0.00170817678131 -0.0563698337831 0.923 8.3164933884e-39
0.0 -0.0561866165552 0.92 7.76332801701e-39
0.0017026247441 -0.0561866165552 0.92 7.58073322192e-39
0.00340524948819 -0.0561866165552 0.92 8.13389859331e-39
0.00510787423229 -0.0561866165552 0.92 7.94951013618e-39
0.00681049897639 -0.0561866165552 0.92 8.04385675918e-39
0.00851312372049 -0.0561866165552 0.92 7.95166253062e-39
0.0102157484646 -0.0561866165552 0.92 8.77782326363e-39
0.0119183732087 -0.0561866165552 0.92 8.68491157025e-39
0.0136209979528 -0.0561866165552 0.92 9.23735947683e-39
0.0153735910318 -0.0563698337831 0.923 9.88451273882e-39
0.0170817678131 -0.0563698337831 0.923 8.87252861905e-39
0.0187899445944 -0.0563698337831 0.923 8.5044691696e-39
0.0204981213757 -0.0563698337831 0.923 9.6122362433e-39
0.022206298157 -0.0563698337831 0.923 9.51896441622e-39
0.0239144749383 -0.0563698337831 0.923 9.0583520058e-39
0.0256781720917 -0.0564919786017 0.925 9.70191794372e-39
0.0274788828265 -0.0566751958296 0.928 9.51717075419e-39
0.0291963130031 -0.0566751958296 0.928 9.51860568381e-39
0.0309803676263 -0.0567973406482 0.93 1.02522134559e-38
0.0327014991611 -0.0567973406482 0.93 1.03462013465e-38
0.0344226306959 -0.0567973406482 0.93 1.01600192273e-38
0.0362603550121 -0.0569805578761 0.933 9.97670696738e-39
0.0380684684631 -0.0571027026947 0.935 2.17561129429e-38
0.0397988533933 -0.0571027026947 0.935 2.35008514439e-38
-0.0279230458032 -0.0558460916064 0.943 2.35004464687e-38
-0.0260945748824 -0.0556684264157 0.94 1.77656100827e-38
-0.0243031175429 -0.0555499829552 0.938 1.8874103029e-38
-0.0225671805756 -0.0555499829552 0.938 1.77742462851e-38
-0.0207646191617 -0.0553723177646 0.935 1.3448199705e-38
-0.018993519292 -0.0552538743041 0.933 9.31628060634e-39
-0.0172113153479 -0.0550762091134 0.93 7.66611153475e-39
-0.0154901838131 -0.0550762091134 0.93 6.84138573136e-39
-0.0137394414132 -0.054957765653 0.928 6.93465615715e-39
-0.0120220112366 -0.054957765653 0.928 7.11832714946e-39
-0.0102712688367 -0.0547801004623 0.925 7.30163940937e-39
-0.00855939069723 -0.0547801004623 0.925 7.57858082748e-39
-0.00684751255778 -0.0547801004623 0.925 7.85623971039e-39
-0.00513563441834 -0.0547801004623 0.925 7.58073322192e-39
-0.00342375627889 -0.0547801004623 0.925 7.303074339e-39
-0.00170817678131 -0.0546616570018 0.923 8.13174619886e-39
0.0 -0.0544839918111 0.92 8.22394042743e-39
0.0017026247441 -0.0544839918111 0.92 8.50267550757e-39
0.00340524948819 -0.0544839918111 0.92 7.94951013618e-39
0.00510787423229 -0.0544839918111 0.92 8.13389859331e-39
0.00681049897639 -0.0544839918111 0.92 8.04242182955e-39
0.00851312372049 -0.0544839918111 0.92 7.67651477455e-39
0.0102157484646 -0.0544839918111 0.92 8.22788648391e-39
0.0119183732087 -0.0544839918111 0.92 8.410481279e-39
0.0136209979528 -0.0544839918111 0.92 9.05368848451e-39
0.0153735910318 -0.0546616570018 0.923 8.04170436474e-39
0.0170817678131 -0.0546616570018 0.923 8.59522846854e-39
0.0187899445944 -0.0546616570018 0.923 9.23987060368e-39
0.0205425376733 -0.0547801004623 0.925 8.59738086298e-39
0.0222544158128 -0.0547801004623 0.925 8.96544031242e-39
0.0239662939522 -0.0547801004623 0.925 8.96723397446e-39
0.0257614526498 -0.054957765653 0.928 8.87396354867e-39
0.0275381045567 -0.0550762091134 0.93 9.79447090469e-39
0.0292592360915 -0.0550762091134 0.93 9.88415400641e-39
0.0310803042961 -0.0552538743041 0.933 9.88630640085e-39
0.0328773136727 -0.0553723177646 0.935 9.70155921132e-39
0.0346076986028 -0.0553723177646 0.935 1.14485860328e-38
0.0364546763144 -0.0555499829552 0.938 1.96370638e-38
0.0381906132817 -0.0555499829552 0.938 2.34993744754e-38
0.0399265502491 -0.0555499829552 0.938 2.3498292673e-38
-0.0279230458032 -0.0541009012437 0.943 2.34968451316e-38
-0.0260945748824 -0.0539287880902 0.94 1.76752165226e-38
-0.0243549365569 -0.0539287880902 0.94 1.90599264157e-38
-0.0226152982314 -0.0539287880902 0.94 1.92446806118e-38
-0.0208312436082 -0.0538140459879 0.938 1.87855073349e-38
-0.0190342342316 -0.0536419328344 0.935 1.51034428783e-38
-0.01726683572 -0.0535271907321 0.933 1.18876744988e-38
-0.0154901838131 -0.0533550775786 0.93 8.30644888101e-39
-0.0137394414132 -0.0532403354763 0.928 7.57642843303e-39
-0.0120220112366 -0.0532403354763 0.928 6.84066826655e-39
-0.0102712688367 -0.0530682223228 0.925 7.94699900933e-39
-0.00855939069723 -0.0530682223228 0.925 7.94592281211e-39
-0.00684751255778 -0.0530682223228 0.925 7.67149252085e-39
-0.00513563441834 -0.0530682223228 0.925 7.48818026094e-39
-0.00342375627889 -0.0530682223228 0.925 7.58073322192e-39
-0.00170817678131 -0.0529534802205 0.923 7.94843393896e-39
0.0 -0.0529534802205 0.923 7.85731590761e-39
0.00170817678131 -0.0529534802205 0.923 7.39885589164e-39
0.00341635356261 -0.0529534802205 0.923 8.31756958562e-39
0.00512453034392 -0.0529534802205 0.923 8.68706396469e-39
0.00683270712523 -0.0529534802205 0.923 7.95166253062e-39
0.00854088390653 -0.0529534802205 0.923 7.85982703446e-39
0.0102490606878 -0.0529534802205 0.923 8.50195804275e-39
0.0119572374691 -0.0529534802205 0.923 8.22788648391e-39
0.0136654142505 -0.0529534802205 0.923 8.31972198006e-39
0.0153735910318 -0.0529534802205 0.923 8.50482790201e-39
0.0170817678131 -0.0529534802205 0.923 8.69029255636e-39
0.0188306595339 -0.0530682223228 0.925 8.59738086298e-39
0.0205425376733 -0.0530682223228 0.925 9.33385849428e-39
0.0222544158128 -0.0530682223228 0.925 8.96544031242e-39
0.0240440224732 -0.0532403354763 0.928 8.68957509154e-39
0.0258169730219 -0.0533550775786 0.93 9.0583520058e-39
0.0275381045567 -0.0533550775786 0.93 9.3352934239e-39
0.0293536207241 -0.0535271907321 0.933 9.24309919534e-39
0.0311469287426 -0.0536419328344 0.935 1.08972143234e-38
0.0328773136727 -0.0536419328344 0.935 1.31941779246e-38
0.034718739347 -0.0538140459879 0.938 2.2397167754e-38
0.0364546763144 -0.0538140459879 0.938 2.35008052011e-38
0.0382720431608 -0.0539287880902 0.94 2.34957689344e-38
0.0400116814863 -0.0539287880902 0.94 2.34986443989e-38
-0.0297626207984 -0.0525222719973 0.946 2.34931933478e-38
-0.0280118783985 -0.0525222719973 0.946 2.34993506533e-38
-0.0261778554405 -0.052355710881 0.943 1.7214250985e-38
-0.0244326650778 -0.052355710881 0.943 1.95219807623e-38
-0.0226874747151 -0.052355710881 0.943 1.85074953247e-38
-0.0208756599059 -0.0521891497647 0.94 1.91517815301e-38
-0.0190953066409 -0.0520781090205 0.938 2.09946277392e-38
-0.0173038493014 -0.0519115479043 0.935 1.80519107732e-38
-0.015540152148 -0.0518005071601 0.933 1.5477522306e-38
-0.0137690522784 -0.0516339460438 0.93 1.21671270437e-38
-0.0120220112366 -0.0515229052996 0.928 9.41242089138e-39
-0.0103045810599 -0.0515229052996 0.928 7.57571096822e-39
-0.00855939069723 -0.0513563441834 0.925 7.94628154451e-39
-0.00684751255778 -0.0513563441834 0.925 7.67077505604e-39
-0.00513563441834 -0.0513563441834 0.925 7.76332801701e-39
-0.00342375627889 -0.0513563441834 0.925 8.13174619886e-39
-0.00170817678131 -0.0512453034392 0.923 8.40761141975e-39
0.0 -0.0512453034392 0.923 7.76332801701e-39
0.00170817678131 -0.0512453034392 0.923 8.68670523229e-39
0.00341635356261 -0.0512453034392 0.923 7.67472111252e-39
0.00512453034392 -0.0512453034392 0.923 7.4910501202e-39
0.00683270712523 -0.0512453034392 0.923 7.95309746024e-39
0.00855939069723 -0.0513563441834 0.925 8.50231677516e-39
0.0102712688367 -0.0513563441834 0.925 8.59451100372e-39
0.0119831469761 -0.0513563441834 0.925 8.50482790201e-39
0.0136950251156 -0.0513563441834 0.925 8.32043944488e-39
0.015406903255 -0.0513563441834 0.925 8.59702213057e-39
0.0171187813945 -0.0513563441834 0.925 9.24058806849e-39
0.0188306595339 -0.0513563441834 0.925 8.78069312289e-39
0.0205425376733 -0.0513563441834 0.925 8.96615777724e-39
0.0223265922965 -0.0515229052996 0.928 8.96544031242e-39
0.0240440224732 -0.0515229052996 0.928 8.59953325742e-39
0.0258169730219 -0.0516339460438 0.93 9.24309919534e-39
0.0275381045567 -0.0516339460438 0.93 1.02522134559e-38
0.0293536207241 -0.0518005071601 0.933 1.21804001428e-38
0.0311469287426 -0.0519115479043 0.935 1.99103912693e-38
0.0329828023797 -0.0520781090205 0.938 2.34953751695e-38
0.034718739347 -0.0520781090205 0.938 2.34975780107e-38
0.0365324048353 -0.0521891497647 0.94 2.34953807747e-38
0.0382720431608 -0.0521891497647 0.94 2.34957941578e-38
0.0400116814863 -0.0521891497647 0.94 2.34961346733e-38
-0.0297626207984 -0.0507715295974 0.946 2.34914585403e-38
-0.0280118783985 -0.0507715295974 0.946 2.34982968768e-38
-0.0261778554405 -0.0506105205183 0.943 1.71216868136e-38
-0.0244326650778 -0.0506105205183 0.943 1.94287285534e-38
-0.0226874747151 -0.0506105205183 0.943 1.86929585778e-38
-0.0208756599059 -0.0504495114392 0.94 2.04450258698e-38
-0.0190953066409 -0.0503421720532 0.938 1.94290760754e-38
-0.0173038493014 -0.0501811629741 0.935 2.00769468022e-38
-0.015540152148 -0.0500738235881 0.933 2.02620793488e-38
-0.0137690522784 -0.049912814509 0.93 1.91593247197e-38
-0.0120220112366 -0.049805475123 0.928 1.72271064971e-38
-0.0103045810599 -0.049805475123 0.928 1.45570051409e-38
-0.00858715088327 -0.049805475123 0.928 1.24462208563e-38
-0.00684751255778 -0.0496444660439 0.925 9.22874989906e-39
-0.00513563441834 -0.0496444660439 0.925 8.49729452146e-39
-0.00342375627889 -0.0496444660439 0.925 8.49729452146e-39
-0.00171187813945 -0.0496444660439 0.925 8.31469972637e-39
0.0 -0.0495371266579 0.923 8.22429915984e-39
0.00170817678131 -0.0495371266579 0.923 8.68706396469e-39
0.00342375627889 -0.0496444660439 0.925 7.67436238011e-39
0.00513563441834 -0.0496444660439 0.925 8.50411043719e-39
0.00684751255778 -0.0496444660439 0.925 8.22932141353e-39
0.00855939069723 -0.0496444660439 0.925 8.87109368942e-39
0.0102712688367 -0.0496444660439 0.925 8.8703762246e-39
0.0119831469761 -0.0496444660439 0.925 8.5934348065e-39
0.0137394414132 -0.049805475123 0.928 8.50195804275e-39
0.015406903255 -0.0496444660439 0.925 8.32043944488e-39
0.0171187813945 -0.0496444660439 0.925 9.24022933608e-39
0.0188917319432 -0.049805475123 0.928 9.33134736743e-39
0.0206091621199 -0.049805475123 0.928 8.41012254659e-39
0.0223265922965 -0.049805475123 0.928 9.33098863502e-39
0.0240440224732 -0.049805475123 0.928 1.14460749059e-38
0.0258169730219 -0.049912814509 0.93 1.52145602413e-38
0.0275381045567 -0.049912814509 0.93 2.1197902897e-38
0.0293536207241 -0.0500738235881 0.933 2.35000134675e-38
0.0311469287426 -0.0501811629741 0.935 2.34993534559e-38
0.0329828023797 -0.0503421720532 0.938 2.34953877812e-38
0.034718739347 -0.0503421720532 0.938 2.34946759216e-38
0.0365324048353 -0.0504495114392 0.94 2.34939528516e-38
0.0382720431608 -0.0504495114392 0.94 2.34928948713e-38
0.0400116814863 -0.0504495114392 0.94 2.34993870871e-38
-0.0297626207984 -0.0490207871974 0.946 2.34914585403e-38
-0.0280118783985 -0.0490207871974 0.946 2.34979661704e-38
