# .PCD v0.7 - Point Cloud Data file format
VERSION 0.7
FIELDS x y z rgb
SIZE 4 4 4 4
TYPE F F F F
COUNT 1 1 1 1
WIDTH 849
HEIGHT 1
VIEWPOINT 0 0 0 1 0 0 0
POINTS 849
DATA ascii
0.00485803255789 -0.0356255720912 0.875 2.16431991152e-38
0.00646257131129 -0.0355441422121 0.873 2.14602539955e-38
0.00805970734842 -0.035462712333 0.871 2.09985303554e-38
0.0096716488181 -0.035462712333 0.871 2.10885805973e-38
0.0112576807808 -0.035381282454 0.869 2.17328780131e-38
0.0128659208924 -0.035381282454 0.869 2.14584365114e-38
0.0144408487806 -0.0352998525749 0.867 2.18290168968e-38
0.016045387534 -0.0352998525749 0.867 2.28402779466e-38
0.0175888538782 -0.0351777077563 0.864 2.20091047689e-38
0.0191878405943 -0.0351777077563 0.864 2.34856571647e-38
0.0207387096547 -0.0350962778772 0.862 2.34860285088e-38
0.0223339950128 -0.0350962778772 0.862 2.34878179669e-38
0.0239292803708 -0.0350962778772 0.862 2.34870976995e-38
0.0255245657289 -0.0350962778772 0.862 2.34914221066e-38
0.027119851087 -0.0350962778772 0.862 2.34910493612e-38
0.028715136445 -0.0350962778772 0.862 2.34928458258e-38
0.0303104218031 -0.0350962778772 0.862 2.34928486284e-38
0.0319057071611 -0.0350962778772 0.862 2.34910647755e-38
0.0335009925192 -0.0350962778772 0.862 2.3493950049e-38
0.0350962778772 -0.0350962778772 0.862 2.34939374373e-38
0.0366915632353 -0.0350962778772 0.862 2.34939150165e-38
0.0382868485934 -0.0350962778772 0.862 2.34946745203e-38
0.0398821339514 -0.0350962778772 0.862 2.34968115005e-38
0.0414774193095 -0.0350962778772 0.862 2.34942877619e-38
0.0430727046675 -0.0350962778772 0.862 2.34935787049e-38
0.0446679900256 -0.0350962778772 0.862 2.34928710492e-38
0.0462632753836 -0.0350962778772 0.862 2.3490358521e-38
0.0478585607417 -0.0350962778772 0.862 2.34914347183e-38
0.0495685882021 -0.0351777077563 0.864 2.34907186548e-38
0.0511675749183 -0.0351777077563 0.864 2.34921689987e-38
0.0529497788624 -0.0352998525749 0.867 2.34935941192e-38
0.0546801637925 -0.035381282454 0.869 2.34921521831e-38
0.0564179514389 -0.035462712333 0.871 2.34921297623e-38
0.0581631418016 -0.0355441422121 0.873 2.34935955205e-38
0.0599157348806 -0.0356255720912 0.875 2.35000513025e-38
0.0615350790666 -0.0356255720912 0.875 2.10929148135e-38
0.0631544232525 -0.0356255720912 0.875 1.17072320981e-38
-0.00496352126486 -0.034744648854 0.894 2.34993898896e-38
-0.00329791010215 -0.0346280560726 0.891 2.35043841174e-38
-0.00163229893945 -0.0342782777284 0.882 2.35062058054e-38
0.0 -0.0342005492075 0.88 4.77544580022e-39
0.00162489622317 -0.0341228206866 0.878 1.9905821635e-38
0.00324979244634 -0.0341228206866 0.878 2.08166432161e-38
0.00485803255789 -0.0340062279052 0.875 2.08130671024e-38
0.00646257131129 -0.0339284993843 0.873 2.15513510074e-38
0.00805970734842 -0.0338507708634 0.871 2.12747473022e-38
0.0096716488181 -0.0338507708634 0.871 2.20119788321e-38
0.0112576807808 -0.0337730423424 0.869 2.19186971959e-38
0.0128659208924 -0.0337730423424 0.869 2.16420892869e-38
0.0144408487806 -0.0336953138215 0.867 2.20123291567e-38
0.016045387534 -0.0336953138215 0.867 2.23789662882e-38
0.0175888538782 -0.0335787210401 0.864 2.20094606988e-38
0.0191878405943 -0.0335787210401 0.864 2.29303197807e-38
0.0207387096547 -0.0335009925192 0.862 2.31147306586e-38
0.0223339950128 -0.0335009925192 0.862 2.34863802347e-38
0.0239292803708 -0.0335009925192 0.862 2.34866997308e-38
0.0255245657289 -0.0335009925192 0.862 2.34903234886e-38
0.027119851087 -0.0335009925192 0.862 2.34881879097e-38
0.028715136445 -0.0335009925192 0.862 2.34903501133e-38
0.0303104218031 -0.0335009925192 0.862 2.34928598388e-38
0.0319057071611 -0.0335009925192 0.862 2.34950052268e-38
0.0335009925192 -0.0335009925192 0.862 2.34899885783e-38
0.0350962778772 -0.0335009925192 0.862 2.34929018778e-38
0.0366915632353 -0.0335009925192 0.862 2.34935857114e-38
0.0382868485934 -0.0335009925192 0.862 2.3495372367e-38
0.0398821339514 -0.0335009925192 0.862 2.34939458451e-38
0.0414774193095 -0.0335009925192 0.862 2.34917696286e-38
0.0430727046675 -0.0335009925192 0.862 2.34928500297e-38
0.0446679900256 -0.0335009925192 0.862 2.34939346347e-38
0.0463706147697 -0.0335787210401 0.864 2.34943087814e-38
0.0479696014859 -0.0335787210401 0.864 2.34921507818e-38
0.0495685882021 -0.0335787210401 0.864 2.34928710492e-38
0.051345240109 -0.0336953138215 0.867 2.3490358521e-38
0.053071923681 -0.0337730423424 0.869 2.3492851431e-38
0.0548060099692 -0.0338507708634 0.871 2.3492865444e-38
0.0565474989738 -0.0339284993843 0.873 2.34964835966e-38
0.0582963906946 -0.0340062279052 0.875 2.34986177742e-38
0.0599157348806 -0.0340062279052 0.875 2.34997276026e-38
0.0617460564805 -0.0341228206866 0.878 1.33599263095e-38
0.0633709527037 -0.0341228206866 0.878 1.39299549066e-38
-0.00496352126486 -0.0330901417657 0.894 2.35004548765e-38
-0.00330901417657 -0.0330901417657 0.894 2.34997304052e-38
-0.00164525369294 -0.0329050738588 0.889 2.35080078752e-38
0.0 -0.032645978789 0.882 4.5917748079e-39
0.00162859758131 -0.0325719516262 0.88 9.95698789539e-39
0.00324979244634 -0.0324979244634 0.878 2.12833989189e-38
0.00487468866951 -0.0324979244634 0.878 2.0996054261e-38
0.00647737674385 -0.0323868837192 0.875 2.1456284117e-38
0.00807821413911 -0.0323128565565 0.873 2.12733277869e-38
0.0096716488181 -0.0322388293937 0.871 2.16414012493e-38
0.0112835902878 -0.0322388293937 0.871 2.21016591312e-38
0.0128659208924 -0.0321648022309 0.869 2.19186971959e-38
0.0144408487806 -0.0320907750681 0.867 2.2010536896e-38
0.016045387534 -0.0320907750681 0.867 2.2470443052e-38
0.0175888538782 -0.0319797343239 0.864 2.30243384999e-38
0.0191878405943 -0.0319797343239 0.864 2.26555125401e-38
0.0207868273105 -0.0319797343239 0.864 2.34860467257e-38
0.0223339950128 -0.0319057071611 0.862 2.34856599673e-38
0.0239292803708 -0.0319057071611 0.862 2.34849270882e-38
0.0255245657289 -0.0319057071611 0.862 2.34899829731e-38
0.027119851087 -0.0319057071611 0.862 2.34910325456e-38
0.028715136445 -0.0319057071611 0.862 2.34863900438e-38
0.0303104218031 -0.0319057071611 0.862 2.34878501968e-38
0.0319057071611 -0.0319057071611 0.862 2.34917892468e-38
0.0335009925192 -0.0319057071611 0.862 2.34896144316e-38
0.0350962778772 -0.0319057071611 0.862 2.3491766826e-38
0.0366915632353 -0.0319057071611 0.862 2.34878235721e-38
0.0382868485934 -0.0319057071611 0.862 2.3492489896e-38
0.0398821339514 -0.0319057071611 0.862 2.34917626221e-38
0.0414774193095 -0.0319057071611 0.862 2.3495358354e-38
0.0431726413373 -0.0319797343239 0.864 2.34932185712e-38
0.0447716280535 -0.0319797343239 0.864 2.34899927821e-38
0.0463706147697 -0.0319797343239 0.864 2.34903613236e-38
0.0479696014859 -0.0319797343239 0.864 2.34910801898e-38
0.0497407013555 -0.0320907750681 0.867 2.34921479792e-38
0.0514636835694 -0.0321648022309 0.869 2.34928710492e-38
0.053071923681 -0.0321648022309 0.869 2.34950276475e-38
0.054931856146 -0.0323128565565 0.873 2.34932171699e-38
0.0566770465087 -0.0323868837192 0.875 2.34958011643e-38
0.0584962640342 -0.0324979244634 0.878 2.34990045326e-38
0.0601211602573 -0.0324979244634 0.878 1.86060962899e-38
0.0617460564805 -0.0324979244634 0.878 1.37419623099e-38
0.0633709527037 -0.0324979244634 0.878 1.49426494847e-38
-0.00163229893945 -0.0310136798495 0.882 2.35098169515e-38
0.0 -0.0310136798495 0.882 4.40810381558e-39
0.00162859758131 -0.0309433540449 0.88 8.4890436761e-39
0.00324979244634 -0.0308730282403 0.878 1.60425650831e-38
0.00487468866951 -0.0308730282403 0.878 2.13741876451e-38
0.00647737674385 -0.0307675395333 0.875 2.10874819793e-38
0.00807821413911 -0.0306972137286 0.873 2.12729718571e-38
0.0096716488181 -0.030626887924 0.871 2.21016563286e-38
0.0112835902878 -0.030626887924 0.871 2.26541112417e-38
0.0128955317575 -0.030626887924 0.871 2.24707961792e-38
0.0144741610039 -0.0305565621193 0.869 2.2564066605e-38
0.0160824011154 -0.0305565621193 0.869 2.27463096741e-38
0.0176499262875 -0.0304862363147 0.867 2.30229133793e-38
0.0192544650409 -0.0304862363147 0.867 2.31154341104e-38
0.0208590037943 -0.0304862363147 0.867 2.28392255714e-38
0.0223858140267 -0.0303807476077 0.864 2.34860229036e-38
0.0239848007429 -0.0303807476077 0.864 2.34863241828e-38
0.0255837874591 -0.0303807476077 0.864 2.34870822852e-38
0.0271827741753 -0.0303807476077 0.864 2.34870892917e-38
0.028715136445 -0.0303104218031 0.862 2.34878179669e-38
0.0303104218031 -0.0303104218031 0.862 2.34874396163e-38
0.0319057071611 -0.0303104218031 0.862 2.34910661768e-38
0.0335009925192 -0.0303104218031 0.862 2.34899759666e-38
0.0350962778772 -0.0303104218031 0.862 2.3492156387e-38
0.0366915632353 -0.0303104218031 0.862 2.34889025719e-38
0.0383756811887 -0.0303807476077 0.864 2.34881879097e-38
0.0399746679049 -0.0303807476077 0.864 2.34889095784e-38
0.0415736546211 -0.0303807476077 0.864 2.34885312278e-38
0.0431726413373 -0.0303807476077 0.864 2.34921451766e-38
0.0447716280535 -0.0303807476077 0.864 2.34892683108e-38
0.0465316238487 -0.0304862363147 0.867 2.34907172535e-38
0.0481361626021 -0.0304862363147 0.867 2.34889151836e-38
0.0498554434579 -0.0305565621193 0.869 2.34903459094e-38
0.0514636835694 -0.0305565621193 0.869 2.34921409727e-38
0.0531940684996 -0.030626887924 0.871 2.34942541308e-38
0.054931856146 -0.0306972137286 0.873 2.34921311636e-38
0.0566770465087 -0.0307675395333 0.875 2.3498959691e-38
0.0584962640342 -0.0308730282403 0.878 2.20199073788e-38
0.0601211602573 -0.0308730282403 0.878 1.41989873962e-38
0.0617460564805 -0.0308730282403 0.878 1.16293871658e-38
0.0633709527037 -0.0308730282403 0.878 1.76148738082e-38
0.0 -0.0293147564636 0.88 4.13259732711e-39
0.00162859758131 -0.0293147564636 0.88 9.77691263494e-39
0.00325719516262 -0.0293147564636 0.88 6.46579290137e-39
0.00488579274393 -0.0293147564636 0.88 1.84378297716e-38
0.00649958489268 -0.0292481320171 0.878 2.07277266246e-38
0.00809672092981 -0.0291481953473 0.875 2.09978142919e-38
0.00969385696694 -0.0290815709008 0.873 2.20091047689e-38
0.0112835902878 -0.0290149464543 0.871 2.27448719419e-38
0.0128955317575 -0.0290149464543 0.871 2.1731445886e-38
0.0144741610039 -0.0289483220078 0.869 2.27466571962e-38
0.0160824011154 -0.0289483220078 0.869 2.28392059532e-38
0.0176499262875 -0.0288816975613 0.867 2.33923979493e-38
0.0192544650409 -0.0288816975613 0.867 2.28399094051e-38
0.0208590037943 -0.0288816975613 0.867 2.34853348661e-38
0.0223858140267 -0.0287817608915 0.864 2.34853124453e-38
0.0239848007429 -0.0287817608915 0.864 2.3485297031e-38
0.0255837874591 -0.0287817608915 0.864 2.34867305593e-38
0.0271827741753 -0.0287817608915 0.864 2.34867361645e-38
0.0287817608915 -0.0287817608915 0.864 2.34853054388e-38
0.0303104218031 -0.028715136445 0.862 2.34864194711e-38
0.0319057071611 -0.028715136445 0.862 2.34885424382e-38
0.0335009925192 -0.028715136445 0.862 2.34877913423e-38
0.0351777077563 -0.0287817608915 0.864 2.34874620371e-38
0.0367766944725 -0.0287817608915 0.864 2.34910199339e-38
0.0383756811887 -0.0287817608915 0.864 2.34889039732e-38
0.0399746679049 -0.0287817608915 0.864 2.34888997693e-38
0.0415736546211 -0.0287817608915 0.864 2.34888689408e-38
0.0433225463419 -0.0288816975613 0.867 2.34889025719e-38
0.0449270850953 -0.0288816975613 0.867 2.34899885783e-38
0.0465316238487 -0.0288816975613 0.867 2.34917850429e-38
0.0482472033463 -0.0289483220078 0.869 2.34939458451e-38
0.0499701855602 -0.0290149464543 0.871 2.34939374373e-38
0.0515821270299 -0.0290149464543 0.871 2.34932241764e-38
0.0533162133182 -0.0290815709008 0.873 2.34928710492e-38
0.0550577023227 -0.0291481953473 0.875 2.34975710042e-38
0.056871367811 -0.0292481320171 0.878 2.34946675138e-38
0.0584962640342 -0.0292481320171 0.878 1.55772373034e-38
0.0601211602573 -0.0292481320171 0.878 1.38388200597e-38
0.0618867080898 -0.0293147564636 0.88 1.44820272652e-38
0.0635153056711 -0.0293147564636 0.88 1.69659016608e-38
0.0032645978789 -0.0277490819706 0.882 8.67450833045e-39
0.00489689681835 -0.0277490819706 0.882 7.93982436119e-39
0.0065291957578 -0.0277490819706 0.882 1.88970198641e-38
0.00814298790655 -0.0276861588823 0.88 2.06359037401e-38
0.00974937733903 -0.0276232357939 0.878 2.25644169296e-38
0.0113742735622 -0.0276232357939 0.878 2.22864021169e-38
0.0129547534877 -0.0275288511614 0.875 2.32080263078e-38
0.0145074732272 -0.0274030049846 0.871 2.2655530757e-38
0.0160824011154 -0.0273400818963 0.869 2.32086863193e-38
0.017690641227 -0.0273400818963 0.869 2.28417268892e-38
0.0192544650409 -0.0272771588079 0.867 2.29332162646e-38
0.0208590037943 -0.0272771588079 0.867 2.30236168311e-38
0.0224635425477 -0.0272771588079 0.867 2.34853222544e-38
0.0240680813011 -0.0272771588079 0.867 2.34846047896e-38
0.0256726200545 -0.0272771588079 0.867 2.34885312278e-38
0.0272771588079 -0.0272771588079 0.867 2.34867347632e-38
0.0287817608915 -0.0271827741753 0.864 2.34910689794e-38
0.0303807476077 -0.0271827741753 0.864 2.34878123617e-38
0.0319797343239 -0.0271827741753 0.864 2.34896200368e-38
0.0335787210401 -0.0271827741753 0.864 2.34892416862e-38
0.0352998525749 -0.0272771588079 0.867 2.34892585018e-38
0.0369043913283 -0.0272771588079 0.867 2.34871033047e-38
0.0385089300817 -0.0272771588079 0.867 2.34896382536e-38
0.0401134688351 -0.0272771588079 0.867 2.34903473107e-38
0.0417180075885 -0.0272771588079 0.867 2.34910633742e-38
0.0433225463419 -0.0272771588079 0.867 2.34910984066e-38
0.0450307231232 -0.0273400818963 0.869 2.3492114348e-38
0.0467463026208 -0.0274030049846 0.871 2.34860102919e-38
0.0483582440905 -0.0274030049846 0.871 2.34928612401e-38
0.0500849276625 -0.027465928073 0.873 2.34935773036e-38
0.0517005704903 -0.027465928073 0.873 2.34914263105e-38
0.0534383581368 -0.0275288511614 0.875 2.34993380416e-38
0.0552464715878 -0.0276232357939 0.878 2.34950360553e-38
0.056871367811 -0.0276232357939 0.878 1.54821732156e-38
0.0584962640342 -0.0276232357939 0.878 1.40235672493e-38
0.0602581105085 -0.0276861588823 0.88 1.38381025949e-38
0.0618867080898 -0.0276861588823 0.88 1.36526379406e-38
0.0635153056711 -0.0276861588823 0.88 1.75208803124e-38
0.00491355292998 -0.0262056156265 0.885 9.68972104189e-39
0.00655140390664 -0.0262056156265 0.885 8.21676577929e-39
0.00816149469725 -0.0261167830312 0.882 1.92661485042e-38
0.00977158548786 -0.026057561301 0.88 2.10954301442e-38
0.0114001830692 -0.026057561301 0.88 2.21016437169e-38
0.0129991697854 -0.0259983395707 0.878 2.19176406169e-38
0.0145740976737 -0.0259095069754 0.875 2.29317897428e-38
0.0161564282782 -0.0258502852452 0.873 2.2564414127e-38
0.0177313561665 -0.0257910635149 0.871 2.34874592345e-38
0.0192988813385 -0.0257318417847 0.869 2.22856958624e-38
0.0209071214501 -0.0257318417847 0.869 2.34827746938e-38
0.0225153615616 -0.0257318417847 0.869 2.33916762806e-38
0.0241236016732 -0.0257318417847 0.869 2.34885592538e-38
0.0257318417847 -0.0257318417847 0.869 2.34852914258e-38
0.0273400818963 -0.0257318417847 0.869 2.34853152479e-38
0.0289483220078 -0.0257318417847 0.869 2.3487118719e-38
0.0305565621193 -0.0257318417847 0.869 2.34885410369e-38
0.0321648022309 -0.0257318417847 0.869 2.34939178191e-38
0.0337730423424 -0.0257318417847 0.869 2.34878165656e-38
0.035381282454 -0.0257318417847 0.869 2.34924983038e-38
0.0369895225655 -0.0257318417847 0.869 2.3488888559e-38
0.0385977626771 -0.0257318417847 0.869 2.34889053745e-38
0.0402985367421 -0.0257910635149 0.871 2.34863886425e-38
0.0419104782118 -0.0257910635149 0.871 2.34917598195e-38
0.0436223563512 -0.0258502852452 0.873 2.34867557827e-38
0.045237999179 -0.0258502852452 0.873 2.34914108962e-38
0.0468536420069 -0.0258502852452 0.873 2.34914221066e-38
0.0484692848347 -0.0258502852452 0.873 2.34946619086e-38
0.0501996697648 -0.0259095069754 0.875 2.34960800227e-38
0.0518190139508 -0.0259095069754 0.875 2.34961010422e-38
0.0536215753646 -0.0259983395707 0.878 2.3490748082e-38
0.0552464715878 -0.0259983395707 0.878 1.50226370024e-38
0.056871367811 -0.0259983395707 0.878 1.26420887504e-38
0.0587627618202 -0.0261167830312 0.882 1.39339023644e-38
0.0603950607596 -0.0261167830312 0.882 1.43923749921e-38
0.0620273596991 -0.0261167830312 0.882 1.38373851301e-38
0.0636596586385 -0.0261167830312 0.882 1.86283012653e-38
0.00332381960913 -0.0249286470685 0.898 9.68756864745e-39
0.00493576107881 -0.0246788053941 0.889 9.41170342657e-39
0.00658101477175 -0.0246788053941 0.889 9.68900357707e-39
0.00820776167399 -0.024623285022 0.887 8.21497211726e-39
0.0097937936367 -0.0244844840917 0.882 1.69641318208e-38
0.0114260925761 -0.0244844840917 0.882 2.21124407216e-38
0.0130287806505 -0.0244289637197 0.88 2.25655281593e-38
0.0146240660085 -0.0243734433476 0.878 2.24719074089e-38
0.0161934418596 -0.0242901627894 0.875 2.33016428543e-38
0.0177720711061 -0.0242346424173 0.873 2.24729401658e-38
0.0193432976362 -0.0241791220453 0.871 2.33923951467e-38
0.0209552391059 -0.0241791220453 0.871 2.34863858399e-38
0.0225671805756 -0.0241791220453 0.871 2.34849439038e-38
0.0241791220453 -0.0241791220453 0.871 2.34860355153e-38
0.0257910635149 -0.0241791220453 0.871 2.34874578332e-38
0.0274030049846 -0.0241791220453 0.871 2.34856978024e-38
0.0290149464543 -0.0241791220453 0.871 2.34889235914e-38
0.0305565621193 -0.0241236016732 0.869 2.3485658566e-38
0.0321648022309 -0.0241236016732 0.869 2.34889011706e-38
0.0337730423424 -0.0241236016732 0.869 2.34874970696e-38
0.035381282454 -0.0241236016732 0.869 2.34903417055e-38
0.0370746538027 -0.0241791220453 0.871 2.34903234886e-38
0.0386865952724 -0.0241791220453 0.871 2.34896522666e-38
0.0402985367421 -0.0241791220453 0.871 2.34889348018e-38
0.0419104782118 -0.0241791220453 0.871 2.34907172535e-38
0.0436223563512 -0.0242346424173 0.873 2.34910773872e-38
0.0453416372069 -0.0242901627894 0.875 2.34914136988e-38
0.047121990472 -0.0243734433476 0.878 2.34885760694e-38
0.0488579274393 -0.0244289637197 0.88 2.34946675138e-38
0.0504865250206 -0.0244289637197 0.88 2.3496804494e-38
0.0522335660624 -0.0244844840917 0.882 2.1740784139e-38
0.0540490822297 -0.0245677646499 0.885 1.48407596721e-38
0.0556869332064 -0.0245677646499 0.885 1.39310142883e-38
0.0573247841831 -0.0245677646499 0.885 1.28279121372e-38
0.0590958840527 -0.024623285022 0.887 1.46707247151e-38
0.0607374363875 -0.024623285022 0.887 1.31959870009e-38
0.0623789887223 -0.024623285022 0.887 1.51285233182e-38
0.00332381960913 -0.0232667372639 0.898 9.41206215897e-39
0.00498572941369 -0.0232667372639 0.898 9.31986793041e-39
0.00659582020431 -0.0230853707151 0.891 9.87554442865e-39
0.00822626846469 -0.0230335517011 0.889 9.23126102591e-39
0.00984931400879 -0.0229817326872 0.887 8.68024804896e-39
0.0114649568366 -0.0229299136732 0.885 1.25412849441e-38
0.0130583915156 -0.0228521851523 0.882 2.03642942627e-38
0.014690690455 -0.0228521851523 0.882 2.28460555001e-38
0.0162489622317 -0.0227485471244 0.878 2.34870934956e-38
0.0178738584549 -0.0227485471244 0.878 2.34863578139e-38
0.0193877139339 -0.0226189995895 0.873 2.31154341104e-38
0.0210033567617 -0.0226189995895 0.873 2.31140173977e-38
0.0226189995895 -0.0226189995895 0.873 2.34842208338e-38
0.0242346424173 -0.0226189995895 0.873 2.34889067758e-38
0.0258502852452 -0.0226189995895 0.873 2.34874550306e-38
0.027465928073 -0.0226189995895 0.873 2.34867487762e-38
0.0290815709008 -0.0226189995895 0.873 2.34899899796e-38
0.030626887924 -0.0225671805756 0.871 2.3487066871e-38
0.0322388293937 -0.0225671805756 0.871 2.34903445081e-38
0.0338507708634 -0.0225671805756 0.871 2.34899829731e-38
0.035462712333 -0.0225671805756 0.871 2.34885088071e-38
0.0370746538027 -0.0225671805756 0.871 2.34917598195e-38
0.0386865952724 -0.0225671805756 0.871 2.34896158329e-38
0.0403910706956 -0.0226189995895 0.873 2.34878249734e-38
0.0420067135234 -0.0226189995895 0.873 2.34910829924e-38
0.043722293021 -0.0226708186035 0.875 2.34921353675e-38
0.0454970942488 -0.0227485471244 0.878 2.34917864442e-38
0.047121990472 -0.0227485471244 0.878 2.34943241957e-38
0.0488579274393 -0.0228003661383 0.88 2.34939192204e-38
0.0504865250206 -0.0228003661383 0.88 1.71370968929e-38
0.0522335660624 -0.0228521851523 0.882 1.26367077643e-38
0.0540490822297 -0.0229299136732 0.885 1.31984827135e-38
0.0556869332064 -0.0229299136732 0.885 1.28279121372e-38
0.0573247841831 -0.0229299136732 0.885 1.39328079503e-38
0.0590958840527 -0.0229817326872 0.887 1.40239259817e-38
0.0607374363875 -0.0229817326872 0.887 1.43945273865e-38
0.00332381960913 -0.0216048274593 0.898 9.32058539522e-39
0.00498572941369 -0.0216048274593 0.898 9.96522753036e-39
0.0066328337857 -0.0215567098035 0.896 1.00613678154e-38
0.00824477525538 -0.021436415664 0.891 8.95467834022e-39
0.00987152215763 -0.0213882980082 0.889 9.50963737364e-39
0.0114908663436 -0.0213401803524 0.887 9.23377215276e-39
0.0131028078133 -0.0212920626966 0.885 8.76921368587e-39
0.0147406587899 -0.0212920626966 0.885 1.55786750356e-38
0.0163229893945 -0.0212198862128 0.882 2.14705885717e-38
0.0179145733944 -0.021171768557 0.88 2.28464086273e-38
0.0194987546781 -0.0211236509012 0.878 2.34860215023e-38
0.0211236509012 -0.0211236509012 0.878 2.34881879097e-38
0.0226708186035 -0.0210514744175 0.875 2.34870752787e-38
0.0242901627894 -0.0210514744175 0.875 2.34834977638e-38
0.0259095069754 -0.0210514744175 0.875 2.34853166492e-38
0.027465928073 -0.0210033567617 0.873 2.34896298458e-38
0.0290815709008 -0.0210033567617 0.873 2.34878193682e-38
0.0306972137286 -0.0210033567617 0.873 2.34885382343e-38
0.0323128565565 -0.0210033567617 0.873 2.3492142374e-38
0.0339284993843 -0.0210033567617 0.873 2.34899801705e-38
0.0355441422121 -0.0210033567617 0.873 2.34852984323e-38
0.0371597850399 -0.0210033567617 0.873 2.34925067116e-38
0.0387754278677 -0.0210033567617 0.873 2.3490358521e-38
0.0403910706956 -0.0210033567617 0.873 2.34910759859e-38
0.042102948835 -0.0210514744175 0.875 2.34896718848e-38
0.0438721980256 -0.0211236509012 0.878 2.34932592089e-38
0.0456007322767 -0.021171768557 0.88 2.34899493419e-38
0.047229329858 -0.021171768557 0.88 1.93497541745e-38
0.0488579274393 -0.021171768557 0.88 1.44730589551e-38
0.0504865250206 -0.021171768557 0.88 1.34729130047e-38
0.0522335660624 -0.0212198862128 0.882 1.20946630975e-38
0.0541712270483 -0.0213401803524 0.887 1.22772578926e-38
0.0558127793831 -0.0213401803524 0.887 1.22768991602e-38
0.0574543317179 -0.0213401803524 0.887 1.3749136958e-38
0.0590958840527 -0.0213401803524 0.887 1.41164789426e-38
0.0616960881456 -0.0216770039431 0.901 1.37502131552e-38
0.00498572941369 -0.0199429176548 0.898 9.31986793041e-39
0.00664763921826 -0.0199429176548 0.898 8.95467834022e-39
0.00827253544143 -0.0198540850594 0.894 9.047948766e-39
0.00989373030646 -0.0197874606129 0.891 9.41816060989e-39
0.0115167758506 -0.0197430443153 0.889 9.97060851647e-39
0.0131324186784 -0.0196986280176 0.887 1.03375917687e-38
0.0147739710132 -0.0196986280176 0.887 9.60183160221e-39
0.0163785097666 -0.0196542117199 0.885 9.60111413739e-39
0.0179552883339 -0.0195875872734 0.882 1.41975566705e-38
0.0195875872734 -0.0195875872734 0.882 1.9260452226e-38
0.021171768557 -0.0195431709757 0.88 2.23904120941e-38
0.0228003661383 -0.0195431709757 0.88 2.34914235079e-38
0.0243734433476 -0.0194987546781 0.878 2.34914249092e-38
0.0259983395707 -0.0194987546781 0.878 2.34899773679e-38
0.0276232357939 -0.0194987546781 0.878 2.34896172342e-38
0.0292481320171 -0.0194987546781 0.878 2.34935632906e-38
0.0308730282403 -0.0194987546781 0.878 2.34906850236e-38
0.0324979244634 -0.0194987546781 0.878 2.3493226979e-38
0.0339284993843 -0.0193877139339 0.873 2.34921381701e-38
0.0355441422121 -0.0193877139339 0.873 2.34932045582e-38
0.0372449162771 -0.0194321302315 0.875 2.34946506982e-38
0.0388642604631 -0.0194321302315 0.875 2.34961094499e-38
0.0406224055793 -0.0194987546781 0.878 2.34938743789e-38
0.0422473018025 -0.0194987546781 0.878 2.09131716608e-38
0.0439721346954 -0.0195431709757 0.88 1.80590097512e-38
0.0456007322767 -0.0195431709757 0.88 1.53924901139e-38
0.047229329858 -0.0195431709757 0.88 1.31927429949e-38
0.0488579274393 -0.0195431709757 0.88 1.23698108536e-38
0.0506012671229 -0.0195875872734 0.882 1.23694521212e-38
0.0522335660624 -0.0195875872734 0.882 1.19084809784e-38
0.0542933718669 -0.0197430443153 0.889 1.28300645316e-38
0.0559386255599 -0.0197430443153 0.889 1.33821537058e-38
0.05790774809 -0.0198540850594 0.894 1.35643897685e-38
0.0600286263038 -0.0200095421013 0.901 1.33810775086e-38
0.0616960881456 -0.0200095421013 0.901 1.43948777111e-38
0.00334232639983 -0.018382795199 0.903 9.5021039931e-39
0.00500238552532 -0.0183420802595 0.901 9.96558626277e-39
0.00664763921826 -0.0182810078502 0.898 9.59788554573e-39
0.00829104223213 -0.0182402929107 0.896 9.32309652207e-39
0.00992704252972 -0.0181995779711 0.894 9.69223216874e-39
0.0115426853575 -0.0181385055618 0.891 9.69294963355e-39
0.0131620295435 -0.0180977906223 0.889 9.96594499518e-39
0.0148072832364 -0.0180977906223 0.889 9.60219033461e-39
0.016415523348 -0.0180570756828 0.887 9.60290779943e-39
0.0180570756828 -0.0180570756828 0.887 1.01546382412e-38
0.0196986280176 -0.0180570756828 0.887 8.77423593956e-39
0.0212198862128 -0.0179552883339 0.882 1.10715582731e-38
0.0228521851523 -0.0179552883339 0.882 1.54847053619e-38
0.0244289637197 -0.0179145733944 0.88 1.8062262165e-38
0.026057561301 -0.0179145733944 0.88 1.99068305699e-38
0.0276861588823 -0.0179145733944 0.88 2.08259562457e-38
0.0293147564636 -0.0179145733944 0.88 2.12858624016e-38
0.0309433540449 -0.0179145733944 0.88 2.13777077069e-38
0.0325719516262 -0.0179145733944 0.88 2.14691998849e-38
0.0342005492075 -0.0179145733944 0.88 2.10092783146e-38
0.0358291467888 -0.0179145733944 0.88 1.9995120781e-38
0.0373726131329 -0.0178738584549 0.878 1.86128729693e-38
0.0389975093561 -0.0178738584549 0.878 1.58520361361e-38
0.0407149395328 -0.0179145733944 0.88 1.34625097649e-38
0.0424397724257 -0.0179552883339 0.882 1.23644298675e-38
0.0440720713651 -0.0179552883339 0.882 1.12649150404e-38
0.0457043703046 -0.0179552883339 0.882 1.19992402773e-38
0.047336669244 -0.0179552883339 0.882 1.14485860328e-38
0.0489689681835 -0.0179552883339 0.882 1.13563918042e-38
0.0507733802764 -0.0180163607432 0.885 1.17240925212e-38
0.052648118174 -0.0180977906223 0.889 1.33843061002e-38
0.0545987339134 -0.0181995779711 0.894 1.23680396123e-38
0.0562532410017 -0.0181995779711 0.894 1.25524056487e-38
0.05790774809 -0.0181995779711 0.894 1.37487782256e-38
0.0600286263038 -0.0183420802595 0.901 1.34732717371e-38
0.0616960881456 -0.0183420802595 0.901 1.29193889009e-38
0.00334232639983 -0.0167116319991 0.903 1.01377778181e-38
0.00500238552532 -0.0166746184177 0.901 9.4134970886e-39
0.00666984736709 -0.0166746184177 0.901 9.87410949902e-39
0.00830954902282 -0.0166190980456 0.898 9.59788554573e-39
0.00994925067855 -0.0165820844643 0.896 9.50820244401e-39
0.011581549618 -0.0165450708829 0.894 9.96845612202e-39
0.0131916404086 -0.0164895505108 0.891 1.05216214934e-38
0.0148072832364 -0.0164525369294 0.889 9.69294963355e-39
0.0164525369294 -0.0164525369294 0.889 9.51107230327e-39
0.0180977906223 -0.0164525369294 0.889 9.97132598128e-39
0.0197430443153 -0.0164525369294 0.889 9.97204344609e-39
0.0212920626966 -0.0163785097666 0.885 9.97096724887e-39
0.0229299136732 -0.0163785097666 0.885 1.08936269993e-38
0.0245677646499 -0.0163785097666 0.885 1.03415378252e-38
0.0261167830312 -0.0163229893945 0.882 1.00649551395e-38
0.0277490819706 -0.0163229893945 0.882 1.07999978411e-38
0.0293813809101 -0.0163229893945 0.882 1.23629949379e-38
0.0310136798495 -0.0163229893945 0.882 1.13488584236e-38
0.032645978789 -0.0163229893945 0.882 1.27310543873e-38
0.0342782777284 -0.0163229893945 0.882 1.19034587247e-38
0.0359105766679 -0.0163229893945 0.882 1.18116232285e-38
0.0375428756073 -0.0163229893945 0.882 1.20917932383e-38
0.0391751745468 -0.0163229893945 0.882 1.11709271498e-38
0.0408074734862 -0.0163229893945 0.882 1.31073646821e-38
0.0425841253931 -0.0163785097666 0.885 1.07113909366e-38
0.0442219763698 -0.0163785097666 0.885 1.11730795443e-38
0.0458598273464 -0.0163785097666 0.885 1.12631213784e-38
0.0474976783231 -0.0163785097666 0.885 1.15411389937e-38
0.0491355292998 -0.0163785097666 0.885 1.35672596277e-38
0.0510028644811 -0.0164525369294 0.889 1.21843461992e-38
0.0529442268251 -0.0165450708829 0.894 1.20943043651e-38
0.0545987339134 -0.0165450708829 0.894 1.25531231135e-38
0.056819548797 -0.0167116319991 0.903 1.42115430304e-38
0.0583611644621 -0.0166746184177 0.901 1.40257196437e-38
0.0600286263038 -0.0166746184177 0.901 1.33767727197e-38
0.0616960881456 -0.0166746184177 0.901 1.26406538208e-38
0.00501348959974 -0.0150404687992 0.903 8.67630199249e-39
0.00666984736709 -0.015007156576 0.901 1.02418102161e-38
0.00830954902282 -0.0149571882411 0.898 1.02421689485e-38
0.00994925067855 -0.0149238760178 0.896 9.41600821545e-39
0.011607459125 -0.0149238760178 0.896 9.50820244401e-39
0.0132360567063 -0.0148905637946 0.894 1.04312209269e-38
0.0148905637946 -0.0148905637946 0.894 1.03397441631e-38
0.0164525369294 -0.0148072832364 0.889 1.01557144384e-38
0.0180977906223 -0.0148072832364 0.889 1.01546382412e-38
0.0197430443153 -0.0148072832364 0.889 9.78873118618e-39
0.0213401803524 -0.0147739710132 0.887 9.78765498896e-39
0.0229817326872 -0.0147739710132 0.887 9.69617822521e-39
0.0245677646499 -0.0147406587899 0.885 1.00656726043e-38
0.0262056156265 -0.0147406587899 0.885 9.69868935206e-39
0.0278434666032 -0.0147406587899 0.885 9.88307780919e-39
0.0295479420264 -0.0147739710132 0.887 1.02504197938e-38
0.0311894943612 -0.0147739710132 0.887 1.12634801108e-38
0.032831046696 -0.0147739710132 0.887 1.10780154565e-38
0.0344725990308 -0.0147739710132 0.887 1.10783741889e-38
0.0361141513656 -0.0147739710132 0.887 1.10783741889e-38
0.0377557037004 -0.0147739710132 0.887 1.06195554405e-38
0.0393972560352 -0.0147739710132 0.887 1.14485860328e-38
0.04103880837 -0.0147739710132 0.887 1.05277199443e-38
0.0426803607048 -0.0147739710132 0.887 1.09883323547e-38
0.0443219130396 -0.0147739710132 0.887 1.07124671339e-38
0.0459634653743 -0.0147739710132 0.887 1.16311808279e-38
0.0477123570952 -0.0148072832364 0.889 1.24620050822e-38
0.0493576107881 -0.0148072832364 0.889 1.29219000278e-38
0.0512897197369 -0.0148905637946 0.894 1.22761816954e-38
0.0529442268251 -0.0148905637946 0.894 1.23690933888e-38
0.054720878732 -0.0149238760178 0.896 1.23690933888e-38
0.056819548797 -0.0150404687992 0.903 1.27371528382e-38
0.058490711997 -0.0150404687992 0.903 1.31966890514e-38
0.0601618751969 -0.0150404687992 0.903 1.16268942559e-38
0.00670686094849 -0.013413721897 0.906 9.68972104189e-39
0.00835581599956 -0.0133693055993 0.903 9.59788554573e-39
0.0100047710506 -0.0133396947342 0.901 9.60003794017e-39
0.011633368632 -0.0132952784365 0.898 9.96845612202e-39
0.0132656675714 -0.0132656675714 0.896 1.07992803763e-38
0.0149238760178 -0.0132656675714 0.896 1.01546382412e-38
0.0165820844643 -0.0132656675714 0.896 1.07996391087e-38
0.0181995779711 -0.0132360567063 0.894 1.07992803763e-38
0.0198540850594 -0.0132360567063 0.894 9.69689569003e-39
0.0213882980082 -0.0131620295435 0.889 1.07088798098e-38
0.0229817326872 -0.0131324186784 0.887 1.04319383917e-38
0.024623285022 -0.0131324186784 0.887 1.04337320537e-38
0.0262648373568 -0.0131324186784 0.887 9.88307780919e-39
0.0279063896916 -0.0131324186784 0.887 9.97564198055e-39
0.0295479420264 -0.0131324186784 0.887 1.01593017625e-38
0.0311894943612 -0.0131324186784 0.887 1.03444076844e-38
0.0329050738588 -0.0131620295435 0.889 1.08957793938e-38
0.0345503275517 -0.0131620295435 0.889 1.07117496691e-38
0.0361955812446 -0.0131620295435 0.889 1.08046613624e-38
0.0378408349376 -0.0131620295435 0.889 1.06202729053e-38
0.0394860886305 -0.0131620295435 0.889 1.09883323547e-38
0.0411313423234 -0.0131620295435 0.889 1.24630812794e-38
0.0427765960164 -0.0131620295435 0.889 1.14482273004e-38
0.0444218497093 -0.0131620295435 0.889 1.23705283184e-38
0.0460671034023 -0.0131620295435 0.889 1.2737870303e-38
0.0480880449463 -0.0132656675714 0.896 1.1631200446e-38
0.0497462533928 -0.0132656675714 0.896 1.28289883344e-38
0.0514044618392 -0.0132656675714 0.896 1.24598526877e-38
0.0531811137461 -0.0132952784365 0.898 1.25534818459e-38
0.0551483855971 -0.0133693055993 0.903 1.24605701525e-38
0.056819548797 -0.0133693055993 0.903 1.35658246981e-38
0.058490711997 -0.0133693055993 0.903 1.40268042487e-38
0.0601618751969 -0.0133693055993 0.903 1.19974466153e-38
0.00509677015787 -0.0118924637017 0.918 1.16028605859e-38
0.0067364718136 -0.0117888256738 0.91 9.96307513592e-39
0.00840208297631 -0.0117629161668 0.908 9.3245314517e-39
0.0100269791995 -0.0116981423994 0.903 9.96845612202e-39
0.0116722328924 -0.0116722328924 0.901 9.96845612202e-39
0.0132952784365 -0.011633368632 0.898 9.87805555549e-39
0.0149571882411 -0.011633368632 0.898 9.97060851647e-39
0.0166190980456 -0.011633368632 0.898 9.97060851647e-39
0.0182810078502 -0.011633368632 0.898 1.03386679659e-38
0.0198985013571 -0.011607459125 0.896 9.51322469771e-39
0.021436415664 -0.0115426853575 0.891 1.05241326203e-38
0.0230335517011 -0.0115167758506 0.889 1.05241326203e-38
0.0246788053941 -0.0115167758506 0.889 1.07103147394e-38
0.026324059087 -0.0115167758506 0.889 1.05270024795e-38
0.0279693127799 -0.0115167758506 0.889 1.04355257158e-38
0.0296145664729 -0.0115167758506 0.889 1.0896855591e-38
0.0312598201658 -0.0115167758506 0.889 1.0895061929e-38
0.0329791010215 -0.0115426853575 0.891 1.10798091185e-38
0.0346280560726 -0.0115426853575 0.891 1.08954206614e-38
0.0362770111237 -0.0115426853575 0.891 1.07124671339e-38
0.0380536630306 -0.011581549618 0.894 1.12649150404e-38
0.0398858353096 -0.011633368632 0.898 1.18166454822e-38
0.0412238762769 -0.0115426853575 0.891 1.18166454822e-38
0.042872831328 -0.0115426853575 0.891 1.17237337888e-38
0.0447716280535 -0.011607459125 0.896 1.15407802613e-38
0.0465334745278 -0.011633368632 0.898 1.20939456327e-38
0.0481953843324 -0.011633368632 0.898 1.22768991602e-38
0.0500238552532 -0.0116722328924 0.901 1.22761816954e-38
0.051691317095 -0.0116722328924 0.901 1.25516881839e-38
0.0534772223972 -0.0116981423994 0.903 1.20914345059e-38
0.055331602825 -0.0117370066599 0.906 1.25527657824e-38
0.0571341642389 -0.0117629161668 0.908 1.37505718876e-38
0.0588145808341 -0.0117629161668 0.908 1.13545981422e-38
0.0604949974294 -0.0117629161668 0.908 1.87158277687e-38
0.00509677015787 -0.0101935403157 0.918 1.9155748606e-38
0.00675867996244 -0.0101380199437 0.913 1.20720629559e-38
0.00840208297631 -0.0100824995716 0.908 8.95467834022e-39
0.0100824995716 -0.0100824995716 0.908 9.23269595554e-39
0.0116981423994 -0.0100269791995 0.903 9.97024978406e-39
0.0133396947342 -0.0100047710506 0.901 9.78622005934e-39
0.015007156576 -0.0100047710506 0.901 9.69581949281e-39
0.0166746184177 -0.0100047710506 0.901 9.78873118618e-39
0.0182810078502 -0.00997145882739 0.898 1.09868988264e-38
0.0199429176548 -0.00997145882739 0.898 9.78873118618e-39
0.0215567098035 -0.00994925067855 0.896 1.04326558565e-38
0.0230853707151 -0.00989373030646 0.891 1.02471912022e-38
0.0247343257662 -0.00989373030646 0.891 1.06170443136e-38
0.0263832808172 -0.00989373030646 0.891 1.05270024795e-38
0.0281895435892 -0.00994925067855 0.896 1.04355257158e-38
0.0298477520357 -0.00994925067855 0.896 1.02500610614e-38
0.0315059604821 -0.00994925067855 0.896 1.07121084015e-38
0.0331641689285 -0.00994925067855 0.896 1.0895061929e-38
0.0348223773749 -0.00994925067855 0.896 1.08957793938e-38
0.0364805858214 -0.00994925067855 0.896 1.09872561575e-38
0.0381387942678 -0.00994925067855 0.896 1.09883323547e-38
0.0398858353096 -0.00997145882739 0.898 1.12642129899e-38
0.0415477451141 -0.00997145882739 0.898 1.14482273004e-38
0.0432096549187 -0.00997145882739 0.898 1.17233750564e-38
0.0448715647232 -0.00997145882739 0.898 1.15400627965e-38
0.0465334745278 -0.00997145882739 0.898 1.24612876173e-38
0.0483563934114 -0.0100047710506 0.901 1.19091984432e-38
0.0501348959974 -0.0100269791995 0.903 1.31070059497e-38
0.0519781723508 -0.0100602914227 0.906 1.19988815449e-38
0.0536548875879 -0.0100602914227 0.906 1.328888328e-38
0.0554537476436 -0.0100824995716 0.908 1.36590979265e-38
0.0571341642389 -0.0100824995716 0.908 1.15389865993e-38
0.0588145808341 -0.0100824995716 0.908 1.54972399767e-38
0.006773485395 -0.00846685674374 0.915 1.74998230003e-38
0.00846685674374 -0.00846685674374 0.915 1.0970037002e-38
0.0101047077204 -0.008420589767 0.91 9.59788554573e-39
0.0117629161668 -0.00840208297631 0.908 9.60111413739e-39
0.013413721897 -0.00838357618561 0.906 1.05244913527e-38
0.0150404687992 -0.00835581599956 0.903 9.78693752415e-39
0.0167116319991 -0.00835581599956 0.903 1.04340907861e-38
0.018382795199 -0.00835581599956 0.903 9.51358343012e-39
0.020053958399 -0.00835581599956 0.903 9.97347837572e-39
0.0217251215989 -0.00835581599956 0.903 1.0617403046e-38
0.0233962847988 -0.00835581599956 0.903 1.07095972746e-38
0.0250119276266 -0.00833730920887 0.901 1.05241326203e-38
0.0266793894684 -0.00833730920887 0.901 1.03415378252e-38
0.0282524666776 -0.00830954902282 0.898 1.02518547234e-38
0.0299143764822 -0.00830954902282 0.898 1.09865386927e-38
0.0315762862867 -0.00830954902282 0.898 1.12631213784e-38
0.0332381960913 -0.00830954902282 0.898 1.08947031966e-38
0.0349001058959 -0.00830954902282 0.898 1.09872561575e-38
0.036684160519 -0.00833730920887 0.901 1.09876148899e-38
0.0383516223608 -0.00833730920887 0.901 1.12649150404e-38
0.0400190842026 -0.00833730920887 0.901 1.08957793938e-38
0.0416865460443 -0.00833730920887 0.901 1.12638388432e-38
0.0433540078861 -0.00833730920887 0.901 1.12624095188e-38
0.0451214063976 -0.00835581599956 0.903 1.22765404278e-38
0.0467925695976 -0.00835581599956 0.903 1.14485860328e-38
0.0484637327975 -0.00835581599956 0.903 1.25541993107e-38
0.0503014571137 -0.00838357618561 0.906 1.23694521212e-38
0.0519781723508 -0.00838357618561 0.906 1.35676183601e-38
0.0537733310484 -0.00840208297631 0.908 1.23687346564e-38
0.0554537476436 -0.00840208297631 0.908 1.13560330718e-38
0.0571341642389 -0.00840208297631 0.908 1.39299380911e-38
0.0588145808341 -0.00840208297631 0.908 2.35097132554e-38
0.00700296959964 -0.00700296959964 0.946 2.24711493064e-38
0.00867968483676 -0.00694374786941 0.938 1.89767159116e-38
0.0101380199437 -0.00675867996244 0.913 1.09678846076e-38
0.0117888256738 -0.0067364718136 0.91 9.78370893249e-39
0.0134433327621 -0.00672166638105 0.908 9.05010116044e-39
0.0151237493574 -0.00672166638105 0.908 1.04333733213e-38
0.0168041659526 -0.00672166638105 0.908 9.42031300433e-39
0.0184845825479 -0.00672166638105 0.908 9.60541892627e-39
0.0201205828455 -0.00670686094849 0.906 1.01567906356e-38
0.0217972980826 -0.00670686094849 0.906 1.05241326203e-38
0.0234740133197 -0.00670686094849 0.906 1.05244913527e-38
0.0251507285568 -0.00670686094849 0.906 1.07095972746e-38
0.026827443794 -0.00670686094849 0.906 1.0802508968e-38
0.0284097743985 -0.00668465279965 0.903 1.0895061929e-38
0.0300809375984 -0.00668465279965 0.903 1.06195554405e-38
0.0317521007983 -0.00668465279965 0.903 1.12631213784e-38
0.0334232639983 -0.00668465279965 0.903 1.07095972746e-38
0.0350944271982 -0.00668465279965 0.903 1.09872561575e-38
0.0367655903981 -0.00668465279965 0.903 1.1262762646e-38
0.038436753598 -0.00668465279965 0.903 1.14464336383e-38
0.0401079167979 -0.00668465279965 0.903 1.13560330718e-38
0.0417790799978 -0.00668465279965 0.903 1.23694521212e-38
0.0435945961652 -0.00670686094849 0.906 1.22761816954e-38
0.0452713114023 -0.00670686094849 0.906 1.20914345059e-38
0.0469480266394 -0.00670686094849 0.906 1.19084809784e-38
0.0486247418765 -0.00670686094849 0.906 1.20013926717e-38
0.0504124978578 -0.00672166638105 0.908 1.22765404278e-38
0.0520929144531 -0.00672166638105 0.908 1.17237337888e-38
0.0538917745088 -0.0067364718136 0.91 1.12649150404e-38
0.0555758924622 -0.0067364718136 0.91 1.49433571405e-38
0.0572600104156 -0.0067364718136 0.91 2.35050413264e-38
0.0608873413922 -0.00695855330196 0.94 2.35022569463e-38
0.0628268530572 -0.0069807614508 0.943 2.35062016015e-38
0.0017451903627 -0.0052355710881 0.943 2.14595477411e-38
0.0034903807254 -0.0052355710881 0.943 2.06286786452e-38
0.0052355710881 -0.0052355710881 0.943 2.16424424141e-38
0.00700296959964 -0.00525222719973 0.946 2.16432159308e-38
0.00867968483676 -0.00520781090205 0.938 2.29324721751e-38
0.0104156218041 -0.00520781090205 0.938 2.00819886741e-38
0.0118535994412 -0.00508011404625 0.915 1.27188574855e-38
0.0135173599249 -0.00506900997183 0.913 9.4134970886e-39
0.0151570615806 -0.0050523538602 0.91 9.51107230327e-39
0.016841179534 -0.0050523538602 0.91 1.00642376747e-38
0.0185252974874 -0.0050523538602 0.91 1.0249702329e-38
0.0201649991431 -0.00504124978578 0.908 9.88128414716e-39
0.0218454157384 -0.00504124978578 0.908 9.97419584053e-39
0.0235258323337 -0.00504124978578 0.908 1.00638789423e-38
0.0251507285568 -0.00503014571137 0.906 1.11705684174e-38
0.026827443794 -0.00503014571137 0.906 1.08028677004e-38
0.0285041590311 -0.00503014571137 0.906 1.05273612119e-38
0.0301808742682 -0.00503014571137 0.906 1.08957793938e-38
0.0318575895053 -0.00503014571137 0.906 1.08943444641e-38
0.0335343047424 -0.00503014571137 0.906 1.06195554405e-38
0.0350944271982 -0.00501348959974 0.903 1.09872561575e-38
0.0367655903981 -0.00501348959974 0.903 1.12631213784e-38
0.0385644504538 -0.00503014571137 0.906 1.13549568746e-38
0.0402411656909 -0.00503014571137 0.906 1.12627654486e-38
0.041917880928 -0.00503014571137 0.906 1.08957793938e-38
0.0436908314768 -0.00504124978578 0.908 1.21843461992e-38
0.0453712480721 -0.00504124978578 0.908 1.1815569285e-38
0.0470516646673 -0.00504124978578 0.908 1.16333332223e-38
0.0487320812626 -0.00504124978578 0.908 1.15414977261e-38
0.050523538602 -0.0050523538602 0.91 1.20935869003e-38
0.0523797697089 -0.00506900997183 0.913 1.12634801108e-38
0.0540694396995 -0.00506900997183 0.913 1.79796850478e-38
0.0560644717366 -0.00509677015787 0.918 2.35047008108e-38
0.0591477030667 -0.00521891497647 0.94 2.35029491877e-38
0.0608873413922 -0.00521891497647 0.94 2.34990045326e-38
0.0628268530572 -0.0052355710881 0.943 2.35015366789e-38
0.0645720434199 -0.0052355710881 0.943 2.35036946785e-38
0.0017451903627 -0.0034903807254 0.943 2.0904562083e-38
0.0034903807254 -0.0034903807254 0.943 2.07198148935e-38
0.0052355710881 -0.0034903807254 0.943 2.10882274701e-38
0.00700296959964 -0.00350148479982 0.946 2.14588078555e-38
0.00869819162745 -0.00347927665098 0.94 2.13658709388e-38
0.0104156218041 -0.0034718739347 0.938 2.34867137437e-38
0.0118924637017 -0.00339784677192 0.918 2.12773074745e-38
0.01354697079 -0.0033867426975 0.915 1.65827712463e-38
0.0152070299155 -0.00337933998122 0.913 1.24469383211e-38
0.016841179534 -0.0033682359068 0.91 9.78622005934e-39
0.0185252974874 -0.0033682359068 0.91 1.02489848642e-38
0.0202094154408 -0.0033682359068 0.91 1.00649551395e-38
0.0218935333942 -0.0033682359068 0.91 1.04344495185e-38
0.0235776513476 -0.0033682359068 0.91 1.07095972746e-38
0.0252062489289 -0.00336083319052 0.908 1.06191967081e-38
0.0268866655242 -0.00336083319052 0.908 1.01593017625e-38
0.0285670821194 -0.00336083319052 0.908 1.00667488015e-38
0.0302474987147 -0.00336083319052 0.908 1.06199141729e-38
0.03192791531 -0.00336083319052 0.908 1.05270024795e-38
0.0336083319052 -0.00336083319052 0.908 1.07124671339e-38
0.0352887485005 -0.00336083319052 0.908 1.0436601913e-38
0.0369691650957 -0.00336083319052 0.908 1.05277199443e-38
0.0385644504538 -0.00335343047424 0.906 1.2186499995e-38
0.0402411656909 -0.00335343047424 0.906 1.11730795443e-38
0.0420104148815 -0.00336083319052 0.908 1.11730795443e-38
0.0436908314768 -0.00336083319052 0.908 1.17237337888e-38
0.0453712480721 -0.00336083319052 0.908 1.21854223965e-38
0.0471553026952 -0.0033682359068 0.91 1.10833964426e-38
0.0488394206486 -0.0033682359068 0.91 1.06206316377e-38
0.050523538602 -0.0033682359068 0.91 1.34704018779e-38
0.0524945118112 -0.0033867426975 0.915 2.1660677511e-38
0.05418788316 -0.0033867426975 0.915 2.35022331242e-38
0.0560644717366 -0.00339784677192 0.918 2.34993688702e-38
0.0587072414481 -0.00345336714401 0.933 2.34989751053e-38
0.0607577938573 -0.0034718739347 0.938 2.35011667361e-38
0.0626269797177 -0.00347927665098 0.94 2.35040323915e-38
0.0645720434199 -0.0034903807254 0.943 2.35098253593e-38
0.00175074239991 -0.00175074239991 0.946 2.05365026336e-38
0.00350148479982 -0.00175074239991 0.946 2.12722431819e-38
0.00526333127414 -0.00175444375805 0.948 2.1458439314e-38
0.00700296959964 -0.00175074239991 0.946 2.09049124076e-38
0.0087259518135 -0.0017451903627 0.943 2.14580469504e-38
0.0104378299529 -0.00173963832549 0.94 2.17342849167e-38
0.012112694511 -0.00173038493014 0.935 2.31161431674e-38
0.013813468576 -0.001726683572 0.933 2.33019987841e-38
0.015406903255 -0.00171187813945 0.925 1.93461794621e-38
0.0169337134875 -0.00169337134875 0.915 1.48364843105e-38
0.0186270848362 -0.00169337134875 0.915 1.15285833595e-38
0.0202760398873 -0.00168966999061 0.913 8.86463650609e-39
0.0218935333942 -0.0016841179534 0.91 9.23520708239e-39
0.0235776513476 -0.0016841179534 0.91 1.03411790928e-38
0.025261769301 -0.0016841179534 0.91 9.88128414716e-39
0.0268866655242 -0.00168041659526 0.908 1.06181205109e-38
0.0285670821194 -0.00168041659526 0.908 1.02511372586e-38
0.0302474987147 -0.00168041659526 0.908 1.07124671339e-38
0.03192791531 -0.00168041659526 0.908 1.03444076844e-38
0.0336083319052 -0.00168041659526 0.908 1.05277199443e-38
0.0352887485005 -0.00168041659526 0.908 1.06202729053e-38
0.0369691650957 -0.00168041659526 0.908 1.0529154874e-38
0.038649581691 -0.00168041659526 0.908 1.08028677004e-38
0.0403299982863 -0.00168041659526 0.908 1.11727208119e-38
0.042102948835 -0.0016841179534 0.91 1.06202729053e-38
0.0437870667884 -0.0016841179534 0.91 1.1262762646e-38
0.0456210897465 -0.00168966999061 0.913 1.11698509526e-38
0.047414397765 -0.00169337134875 0.915 1.27339242466e-38
0.0491077691137 -0.00169337134875 0.915 1.97277922703e-38
0.0509677015787 -0.00169892338596 0.918 2.350323225e-38
0.0530682223228 -0.00171187813945 0.925 2.35008248193e-38
0.054957765653 -0.00171743017665 0.928 2.35011359075e-38
0.0567973406482 -0.00172113153479 0.93 2.34986163729e-38
0.0587072414481 -0.001726683572 0.933 2.35011807491e-38
0.0607577938573 -0.00173593696735 0.938 2.35022625515e-38
0.0624937308247 -0.00173593696735 0.938 2.3501532475e-38
0.0643666180432 -0.00173963832549 0.94 2.35062212197e-38
0.0663172337826 -0.0017451903627 0.943 2.3509086875e-38
0.0035088875161 0.0 0.948 2.03517540427e-38
0.00526333127414 0.0 0.948 2.05372243023e-38
0.00700296959964 0.0 0.946 2.1826867305e-38
0.0087259518135 0.0 0.943 2.17339472038e-38
0.0104711421762 0.0 0.943 2.19183412661e-38
0.0121515587715 0.0 0.938 2.21942190987e-38
0.0138430794411 0.0 0.935 2.23796571284e-38
0.015540152148 0.0 0.933 2.2381120084e-38
0.0172113153479 0.0 0.93 2.34903164821e-38
0.0188306595339 0.0 0.925 2.08209157751e-38
0.0204981213757 0.0 0.923 1.73239053924e-38
0.0221341216733 0.0 0.92 1.41957588045e-38
0.0237071988825 0.0 0.915 1.21760953539e-38
0.025261769301 0.0 0.91 1.16275935038e-38
0.0269458872544 0.0 0.91 1.04326558565e-38
0.0286300052078 0.0 0.91 1.00656726043e-38
0.0303141231612 0.0 0.91 1.05287961416e-38
0.0319982411146 0.0 0.91 1.06195554405e-38
0.033682359068 0.0 0.91 1.07113909366e-38
0.0353664770214 0.0 0.91 1.08943444641e-38
0.0372541696725 0.0 0.915 1.04340907861e-38
0.039075237877 0.0 0.918 1.10772979917e-38
0.0408629938583 0.0 0.92 1.10769392592e-38
0.0425656186024 0.0 0.92 1.37430385071e-38
0.0442682433465 0.0 0.92 1.68697529679e-38
0.0461207730953 0.0 0.923 2.10124424466e-38
0.0476734928347 0.0 0.92 2.35028791228e-38
0.0493761175788 0.0 0.92 2.35004380609e-38
0.0510787423229 0.0 0.92 2.34964583733e-38
0.0532403354763 0.0 0.928 2.34961066473e-38
0.054957765653 0.0 0.928 2.34968157044e-38
0.0569805578761 0.0 0.933 2.35025974618e-38
0.0587072414481 0.0 0.933 2.34989961248e-38
0.0607577938573 0.0 0.938 2.35015282711e-38
0.0624937308247 0.0 0.938 2.35040562135e-38
0.0643666180432 0.0 0.94 2.35062198184e-38
0.0663172337826 0.0 0.943 2.35098169515e-38
0.00351999159051 0.00175999579526 0.951 2.16432131282e-38
0.00527998738577 0.00175999579526 0.951 2.08130671024e-38
0.00701777503219 0.00175444375805 0.948 2.15488356767e-38
0.00875371199954 0.00175074239991 0.946 2.12711767937e-38
0.0105044543995 0.00175074239991 0.946 2.22864175311e-38
0.0121774682784 0.00173963832549 0.94 2.21045668255e-38
