# .PCD v0.7 - Point Cloud Data file format
VERSION 0.7
FIELDS x y z rgb
SIZE 4 4 4 4
TYPE F F F F
COUNT 1 1 1 1
WIDTH 845
HEIGHT 1
VIEWPOINT 0 0 0 1 0 0 0
POINTS 845
DATA ascii
0.0350944271982 -0.0785446703959 0.903 8.22788648391e-39
0.0368877352167 -0.0788056161447 0.906 8.044574224e-39
0.0385644504538 -0.0788056161447 0.906 8.87468101349e-39
0.0402411656909 -0.0788056161447 0.906 8.50769776126e-39
0.0420104148815 -0.0789795799773 0.908 8.78284551733e-39
0.0439314197559 -0.0794144895587 0.913 8.87575721071e-39
0.0456210897465 -0.0794144895587 0.913 9.97957682664e-39
0.047414397765 -0.0795884533912 0.915 9.7948296371e-39
0.0491077691137 -0.0795884533912 0.915 1.05305898036e-38
0.0508011404625 -0.0795884533912 0.915 1.0989408552e-38
0.0524945118112 -0.0795884533912 0.915 5.82724921715e-39
-0.0173038493014 -0.0795977067866 0.935 2.34961318707e-38
-0.015406903255 -0.0787463944145 0.925 2.3505124003e-38
-0.0136950251156 -0.0787463944145 0.925 1.74129845345e-38
-0.0119183732087 -0.0783207382285 0.92 4.88055439543e-39
-0.0102157484646 -0.0783207382285 0.92 7.11186996614e-39
-0.00849461692979 -0.0781504757541 0.918 6.92855770623e-39
-0.006773485395 -0.0778950820425 0.915 7.29841081771e-39
-0.00508011404625 -0.0778950820425 0.915 6.74811530558e-39
-0.00337933998122 -0.077724819568 0.913 7.11617475502e-39
-0.00168966999061 -0.077724819568 0.913 7.76117562257e-39
0.0 -0.0774694258564 0.91 7.39311617313e-39
0.0016841179534 -0.0774694258564 0.91 6.93465615715e-39
0.00336083319052 -0.077299163382 0.908 7.1201208115e-39
0.00504124978578 -0.077299163382 0.908 7.21052137803e-39
0.00672166638105 -0.077299163382 0.908 7.39562729997e-39
0.00838357618561 -0.0771289009076 0.906 8.04170436474e-39
0.0100269791995 -0.076873507196 0.903 7.58073322192e-39
0.0116981423994 -0.076873507196 0.903 7.58216815154e-39
0.0133693055993 -0.076873507196 0.903 7.21554363173e-39
0.015007156576 -0.0767032447216 0.901 7.85731590761e-39
0.0166190980456 -0.07644785101 0.898 7.39885589164e-39
0.0182810078502 -0.07644785101 0.898 7.39885589164e-39
0.0199429176548 -0.07644785101 0.898 7.58324434876e-39
0.0216770039431 -0.0767032447216 0.901 7.95166253062e-39
0.0233444657848 -0.0767032447216 0.901 7.85982703446e-39
0.0250674479987 -0.076873507196 0.903 7.85946830205e-39
0.0267386111986 -0.076873507196 0.903 9.24238173053e-39
0.0284097743985 -0.076873507196 0.903 9.05763454099e-39
0.0300809375984 -0.076873507196 0.903 8.22860394872e-39
0.0318575895053 -0.0771289009076 0.906 8.4158622651e-39
0.0335343047424 -0.0771289009076 0.906 9.15019731105e-39
0.0352110199796 -0.0771289009076 0.906 8.96579904483e-39
0.0368877352167 -0.0771289009076 0.906 8.59738086298e-39
0.0385644504538 -0.0771289009076 0.906 8.32259183932e-39
0.0403299982863 -0.077299163382 0.908 8.87575721071e-39
0.0420104148815 -0.077299163382 0.908 8.96651650964e-39
0.0439314197559 -0.077724819568 0.913 8.87503974589e-39
0.0456210897465 -0.077724819568 0.913 9.51896441622e-39
0.047414397765 -0.0778950820425 0.915 9.97921809423e-39
0.0491077691137 -0.0778950820425 0.915 1.00696186608e-38
0.0508011404625 -0.0778950820425 0.915 1.03454838816e-38
0.0524945118112 -0.0778950820425 0.915 8.3164933884e-39
-0.0173038493014 -0.0778673218564 0.935 2.34968619472e-38
-0.0155734643713 -0.0778673218564 0.935 2.35026338956e-38
-0.0137394414132 -0.0772843579495 0.928 1.75033935088e-38
-0.0119831469761 -0.0770345162751 0.925 6.90452263497e-39
-0.0102490606878 -0.0768679551588 0.923 7.75651210128e-39
-0.00849461692979 -0.0764515523681 0.918 7.02218686442e-39
-0.00679569354383 -0.0764515523681 0.918 7.11545729021e-39
-0.00508011404625 -0.0762017106937 0.915 7.29984574734e-39
-0.0033867426975 -0.0762017106937 0.915 7.39311617313e-39
-0.00168966999061 -0.0760351495774 0.913 7.208727716e-39
0.0 -0.0760351495774 0.913 7.11725095224e-39
0.0016841179534 -0.075785307903 0.91 7.11976207909e-39
0.0033682359068 -0.075785307903 0.91 7.11832714946e-39
0.00504124978578 -0.0756187467868 0.908 6.93537362196e-39
0.00672166638105 -0.0756187467868 0.908 7.1201208115e-39
0.00840208297631 -0.0756187467868 0.908 7.48818026094e-39
0.0100602914227 -0.0754521856705 0.906 7.21267377247e-39
0.0116981423994 -0.0752023439961 0.903 7.58324434876e-39
0.0133693055993 -0.0752023439961 0.903 7.85982703446e-39
0.0150404687992 -0.0752023439961 0.903 7.49140885261e-39
0.0166746184177 -0.0750357828798 0.901 7.85982703446e-39
0.0183420802595 -0.0750357828798 0.901 7.21554363173e-39
0.0200095421013 -0.0750357828798 0.901 7.76870900312e-39
0.0217251215989 -0.0752023439961 0.903 8.13497479053e-39
0.0233962847988 -0.0752023439961 0.903 7.67651477455e-39
0.0251507285568 -0.0754521856705 0.906 8.87109368942e-39
0.026827443794 -0.0754521856705 0.906 8.22645155428e-39
0.0285041590311 -0.0754521856705 0.906 8.59702213057e-39
0.0301808742682 -0.0754521856705 0.906 7.67579730974e-39
0.0318575895053 -0.0754521856705 0.906 8.32259183932e-39
0.0335343047424 -0.0754521856705 0.906 8.23003887835e-39
0.0352110199796 -0.0754521856705 0.906 8.32295057172e-39
0.0368877352167 -0.0754521856705 0.906 9.15054623437e-39
0.038649581691 -0.0756187467868 0.908 7.30917278992e-39
0.0403299982863 -0.0756187467868 0.908 9.42856384969e-39
0.042102948835 -0.075785307903 0.91 8.69029255636e-39
0.0439314197559 -0.0760351495774 0.913 9.79662329914e-39
0.0456210897465 -0.0760351495774 0.913 9.97993555904e-39
0.047414397765 -0.0762017106937 0.915 1.02550833151e-38
0.0491077691137 -0.0762017106937 0.915 1.01618128893e-38
0.0508011404625 -0.0762017106937 0.915 1.21872272689e-38
0.0524945118112 -0.0762017106937 0.915 5.82760794956e-39
-0.0173038493014 -0.0761369369263 0.935 2.34968521381e-38
-0.0155734643713 -0.0761369369263 0.935 2.35051197991e-38
-0.0137690522784 -0.0757297875309 0.93 1.77821383981e-38
-0.0120220112366 -0.0755669277728 0.928 6.80945854715e-39
-0.0102712688367 -0.0753226381356 0.925 7.75651210128e-39
-0.00851312372049 -0.0749154887403 0.92 6.92999263586e-39
-0.00679569354383 -0.0747526289822 0.918 6.74811530558e-39
-0.00509677015787 -0.0747526289822 0.918 6.93071010067e-39
-0.0033867426975 -0.074508339345 0.915 7.20801025118e-39
-0.00169337134875 -0.074508339345 0.915 7.20765151877e-39
0.0 -0.074508339345 0.915 6.84102699896e-39
0.00168966999061 -0.0743454795868 0.913 7.21123884284e-39
0.0033682359068 -0.0741011899496 0.91 7.303074339e-39
0.0050523538602 -0.0741011899496 0.91 7.39562729997e-39
0.00672166638105 -0.0739383301915 0.908 7.12047954391e-39
0.00840208297631 -0.0739383301915 0.908 7.48889772576e-39
0.0100824995716 -0.0739383301915 0.908 7.58073322192e-39
0.0117370066599 -0.0737754704334 0.906 7.2141087021e-39
0.013413721897 -0.0737754704334 0.906 7.95130379821e-39
0.0150904371341 -0.0737754704334 0.906 7.95166253062e-39
0.0167116319991 -0.0735311807962 0.903 7.58324434876e-39
0.018382795199 -0.0735311807962 0.903 7.49212631742e-39
0.020053958399 -0.0735311807962 0.903 7.39957335645e-39
0.0217972980826 -0.0737754704334 0.906 7.58432054599e-39
0.0234740133197 -0.0737754704334 0.906 7.86090323168e-39
0.0251507285568 -0.0737754704334 0.906 8.22681028668e-39
0.026827443794 -0.0737754704334 0.906 7.95130379821e-39
0.0285041590311 -0.0737754704334 0.906 7.95309746024e-39
0.0301808742682 -0.0737754704334 0.906 8.22932141353e-39
0.0318575895053 -0.0737754704334 0.906 7.58432054599e-39
0.0336083319052 -0.0739383301915 0.908 8.50554536682e-39
0.0352887485005 -0.0739383301915 0.908 8.13676845256e-39
0.0369691650957 -0.0739383301915 0.908 8.41227494103e-39
0.038649581691 -0.0739383301915 0.908 9.42748765247e-39
0.0404188308816 -0.0741011899496 0.91 9.24381666015e-39
0.0422417497652 -0.0743454795868 0.913 9.4292813145e-39
0.0439314197559 -0.0743454795868 0.913 8.59773959539e-39
0.0456210897465 -0.0743454795868 0.913 9.70481582895e-39
0.047414397765 -0.074508339345 0.915 8.69065128876e-39
0.0491077691137 -0.074508339345 0.915 1.13603378607e-38
0.0509677015787 -0.0747526289822 0.918 1.04391158424e-38
0.0526666249647 -0.0747526289822 0.918 8.40904634937e-39
-0.0173593696735 -0.0746452895961 0.938 2.34986415963e-38
-0.0155734643713 -0.0744065519961 0.935 2.35033275383e-38
-0.0137690522784 -0.0740086559961 0.93 1.90714296748e-38
-0.0120479207436 -0.0740086559961 0.93 6.25880430261e-39
-0.0102712688367 -0.0736107599962 0.925 7.57248237656e-39
-0.00851312372049 -0.0732128639962 0.92 6.65305121776e-39
-0.00679569354383 -0.0730537055962 0.918 7.1150985578e-39
-0.00509677015787 -0.0730537055962 0.918 7.48423420447e-39
-0.0033867426975 -0.0728149679962 0.915 7.48351673966e-39
-0.00169337134875 -0.0728149679962 0.915 7.48387547206e-39
0.0 -0.0728149679962 0.915 7.21052137803e-39
0.00169337134875 -0.0728149679962 0.915 7.21123884284e-39
0.00337933998122 -0.0726558095962 0.913 7.57929829229e-39
0.0050523538602 -0.0724170719962 0.91 7.12047954391e-39
0.0067364718136 -0.0724170719962 0.91 7.39670349719e-39
0.00840208297631 -0.0722579135962 0.908 7.58073322192e-39
0.0100824995716 -0.0722579135962 0.908 7.2141087021e-39
0.0117370066599 -0.0720987551962 0.906 7.03007897738e-39
0.013413721897 -0.0720987551962 0.906 6.93788474881e-39
0.0150904371341 -0.0720987551962 0.906 7.58324434876e-39
0.0167671523712 -0.0720987551962 0.906 7.49140885261e-39
0.0184438676083 -0.0720987551962 0.906 7.95130379821e-39
0.0201205828455 -0.0720987551962 0.906 8.13676845256e-39
0.0217972980826 -0.0720987551962 0.906 8.22824521631e-39
0.0234740133197 -0.0720987551962 0.906 7.76906773552e-39
0.0252062489289 -0.0722579135962 0.908 8.50231677516e-39
0.0268866655242 -0.0722579135962 0.908 8.87109368942e-39
0.0285670821194 -0.0722579135962 0.908 8.13676845256e-39
0.0302474987147 -0.0722579135962 0.908 7.95345619265e-39
0.03192791531 -0.0722579135962 0.908 8.22932141353e-39
0.0336083319052 -0.0722579135962 0.908 8.22932141353e-39
0.0352887485005 -0.0722579135962 0.908 8.3215156421e-39
0.0369691650957 -0.0722579135962 0.908 8.04421549159e-39
0.0387347129282 -0.0724170719962 0.91 8.50662156404e-39
0.0404188308816 -0.0724170719962 0.91 9.15162243159e-39
0.0422417497652 -0.0726558095962 0.913 9.24525158978e-39
0.0439314197559 -0.0726558095962 0.913 9.15054623437e-39
0.0456210897465 -0.0726558095962 0.913 9.88702386567e-39
0.047414397765 -0.0728149679962 0.915 9.42748765247e-39
0.0491077691137 -0.0728149679962 0.915 1.07146195283e-38
0.0509677015787 -0.0730537055962 0.918 1.06224252997e-38
0.0526666249647 -0.0730537055962 0.918 8.13210493127e-39
-0.0173593696735 -0.0729093526288 0.938 2.34964892018e-38
-0.0156234327062 -0.0729093526288 0.938 2.35026198826e-38
-0.013813468576 -0.0725207100241 0.933 1.98994106945e-38
-0.012086785004 -0.0725207100241 0.933 5.52627272779e-39
-0.0103045810599 -0.0721320674195 0.928 7.4806468804e-39
-0.00851312372049 -0.0715102392521 0.92 7.29841081771e-39
-0.00681049897639 -0.0715102392521 0.92 7.02326306165e-39
-0.00509677015787 -0.0713547822102 0.918 7.02362179405e-39
-0.00339784677192 -0.0713547822102 0.918 6.93250376271e-39
-0.00169337134875 -0.0711215966475 0.915 7.30056321215e-39
0.0 -0.0711215966475 0.915 7.11832714946e-39
0.00169337134875 -0.0711215966475 0.915 6.93465615715e-39
0.0033867426975 -0.0711215966475 0.915 7.21123884284e-39
0.00506900997183 -0.0709661396056 0.913 7.30343307141e-39
0.0067364718136 -0.0707329540428 0.91 7.11904461428e-39
0.008420589767 -0.0707329540428 0.91 7.76476294664e-39
0.0100824995716 -0.070577497001 0.908 7.39885589164e-39
0.0117629161668 -0.070577497001 0.908 7.4910501202e-39
0.0134433327621 -0.070577497001 0.908 7.4910501202e-39
0.0150904371341 -0.0704220399591 0.906 7.4910501202e-39
0.0167671523712 -0.0704220399591 0.906 8.044574224e-39
0.0184845825479 -0.070577497001 0.908 7.95345619265e-39
0.0201649991431 -0.070577497001 0.908 7.49212631742e-39
0.0218454157384 -0.070577497001 0.908 7.85982703446e-39
0.0235258323337 -0.070577497001 0.908 7.58432054599e-39
0.0252062489289 -0.070577497001 0.908 8.77961692567e-39
0.0268866655242 -0.070577497001 0.908 8.22788648391e-39
0.0285670821194 -0.070577497001 0.908 8.50554536682e-39
0.0302474987147 -0.070577497001 0.908 8.22932141353e-39
0.03192791531 -0.070577497001 0.908 8.50518663441e-39
0.0336083319052 -0.070577497001 0.908 8.13748591737e-39
0.0353664770214 -0.0707329540428 0.91 8.87575721071e-39
0.0370505949748 -0.0707329540428 0.91 1.02569148122e-38
0.0387347129282 -0.0707329540428 0.91 8.87396354867e-39
0.0405520797746 -0.0709661396056 0.913 9.24309919534e-39
0.0422417497652 -0.0709661396056 0.913 8.50590409923e-39
0.0440276550675 -0.0711215966475 0.915 1.04401892371e-38
0.0457210264162 -0.0711215966475 0.915 1.02543658503e-38
0.047414397765 -0.0711215966475 0.915 1.04401892371e-38
0.0492687781928 -0.0713547822102 0.918 1.11755906711e-38
0.0509677015787 -0.0713547822102 0.918 1.11755906711e-38
0.0526666249647 -0.0713547822102 0.918 8.59164114447e-39
-0.0173593696735 -0.0711734156614 0.938 2.34943354061e-38
-0.0156234327062 -0.0711734156614 0.938 2.35026128761e-38
-0.0138430794411 -0.0709457821358 0.935 1.92536573297e-38
-0.012112694511 -0.0709457821358 0.935 5.52447906575e-39
-0.0103267892088 -0.0705663929266 0.93 7.11258743096e-39
-0.00855939069723 -0.0701870037173 0.925 6.83743967489e-39
-0.00681049897639 -0.069807614508 0.92 6.74739784076e-39
-0.00510787423229 -0.069807614508 0.92 6.93286249511e-39
-0.00339784677192 -0.0696558588243 0.918 6.93357995993e-39
-0.00169337134875 -0.0694282252987 0.915 7.30092194456e-39
0.0 -0.0694282252987 0.915 7.67113378845e-39
0.00169337134875 -0.0694282252987 0.915 7.39598603238e-39
0.0033867426975 -0.0694282252987 0.915 7.57929829229e-39
0.00506900997183 -0.069276469615 0.913 7.57929829229e-39
0.00675867996244 -0.069276469615 0.913 7.67185125326e-39
0.008420589767 -0.0690488360894 0.91 7.03007897738e-39
0.0101047077204 -0.0690488360894 0.91 7.03079644219e-39
0.0117629161668 -0.0688970804057 0.908 7.39813842682e-39
0.0134433327621 -0.0688970804057 0.908 7.95309746024e-39
0.0151237493574 -0.0688970804057 0.908 7.49140885261e-39
0.0168041659526 -0.0688970804057 0.908 7.58396181358e-39
0.0184845825479 -0.0688970804057 0.908 7.85839210483e-39
0.0201649991431 -0.0688970804057 0.908 7.58216815154e-39
0.0218454157384 -0.0688970804057 0.908 7.85910956965e-39
0.0235258323337 -0.0688970804057 0.908 8.13676845256e-39
0.0252062489289 -0.0688970804057 0.908 8.32043944488e-39
0.0268866655242 -0.0688970804057 0.908 8.13712718497e-39
0.0285670821194 -0.0688970804057 0.908 7.76906773552e-39
0.0302474987147 -0.0688970804057 0.908 8.41442733548e-39
0.03192791531 -0.0688970804057 0.908 7.67615604214e-39
0.0336083319052 -0.0688970804057 0.908 8.32259183932e-39
0.0353664770214 -0.0690488360894 0.91 7.86162069649e-39
0.0370505949748 -0.0690488360894 0.91 8.32223310691e-39
0.0387347129282 -0.0690488360894 0.91 9.24345792775e-39
0.0405520797746 -0.069276469615 0.913 8.50698029645e-39
0.0422417497652 -0.069276469615 0.913 9.51896441622e-39
0.0440276550675 -0.0694282252987 0.915 9.88630640085e-39
0.0457210264162 -0.0694282252987 0.915 9.88666513326e-39
0.047414397765 -0.0694282252987 0.915 1.05323834656e-38
0.0492687781928 -0.0696558588243 0.918 1.07146195283e-38
0.0510787423229 -0.069807614508 0.92 1.17276868518e-38
0.052781367067 -0.069807614508 0.92 9.42103046915e-39
-0.0173963832549 -0.0695855330196 0.94 2.3495076693e-38
-0.0156234327062 -0.0694374786941 0.938 2.35022597489e-38
-0.0138430794411 -0.0692153972057 0.935 1.91636281073e-38
-0.012112694511 -0.0692153972057 0.935 6.72228657228e-39
-0.0103267892088 -0.0688452613918 0.93 7.29733462049e-39
-0.00855939069723 -0.0684751255778 0.925 7.20621658915e-39
-0.00683270712523 -0.0683270712523 0.923 6.47010469675e-39
-0.00510787423229 -0.0681049897639 0.92 7.30056321215e-39
-0.00339784677192 -0.0679569354383 0.918 7.11545729021e-39
-0.00169892338596 -0.0679569354383 0.918 6.84102699896e-39
0.0 -0.0679569354383 0.918 7.76153435498e-39
0.00169892338596 -0.0679569354383 0.918 7.39383363794e-39
0.0033867426975 -0.06773485395 0.915 7.30343307141e-39
0.00508011404625 -0.06773485395 0.915 7.21231504006e-39
0.00675867996244 -0.0675867996244 0.913 7.39670349719e-39
0.00844834995305 -0.0675867996244 0.913 6.93788474881e-39
0.0101047077204 -0.067364718136 0.91 7.76583914386e-39
0.0117888256738 -0.067364718136 0.91 7.03079644219e-39
0.0134433327621 -0.0672166638105 0.908 7.4910501202e-39
0.0151237493574 -0.0672166638105 0.908 7.39957335645e-39
0.0168041659526 -0.0672166638105 0.908 7.67579730974e-39
0.0184845825479 -0.0672166638105 0.908 7.67472111252e-39
0.0201649991431 -0.0672166638105 0.908 8.04421549159e-39
0.0218454157384 -0.0672166638105 0.908 8.96328791798e-39
0.0235258323337 -0.0672166638105 0.908 8.04385675918e-39
0.0252062489289 -0.0672166638105 0.908 8.96328791798e-39
0.0269458872544 -0.067364718136 0.91 8.41227494103e-39
0.0286300052078 -0.067364718136 0.91 8.59738086298e-39
0.0303141231612 -0.067364718136 0.91 9.24238173053e-39
0.03192791531 -0.0672166638105 0.908 8.50482790201e-39
0.0336083319052 -0.0672166638105 0.908 8.32223310691e-39
0.0353664770214 -0.067364718136 0.91 8.23003887835e-39
0.0370505949748 -0.067364718136 0.91 8.50590409923e-39
0.038862409784 -0.0675867996244 0.913 8.59809832779e-39
0.0405520797746 -0.0675867996244 0.913 9.70371160576e-39
0.0423342837187 -0.06773485395 0.915 9.42677018766e-39
0.0440276550675 -0.06773485395 0.915 9.42605272284e-39
0.0458709314209 -0.0679569354383 0.918 9.97885936182e-39
0.0475698548068 -0.0679569354383 0.918 1.08068137569e-38
0.0493761175788 -0.0681049897639 0.92 1.08068137569e-38
0.0510787423229 -0.0681049897639 0.92 1.14511069687e-38
-0.0173963832549 -0.0678458946941 0.94 2.34950164371e-38
-0.0156234327062 -0.0677015417267 0.938 2.35011681374e-38
-0.0138874957388 -0.0677015417267 0.938 2.05462066254e-38
-0.012112694511 -0.0674850122756 0.935 6.07728570474e-39
-0.010360101432 -0.0673406593081 0.933 7.11222869855e-39
-0.00855939069723 -0.0667632474384 0.925 7.20549912433e-39
-0.00683270712523 -0.0666188944709 0.923 7.20657532155e-39
-0.00510787423229 -0.0664023650198 0.92 7.66575280234e-39
-0.00339784677192 -0.0662580120524 0.918 8.12780014239e-39
-0.00169892338596 -0.0662580120524 0.918 7.30163940937e-39
0.0 -0.0662580120524 0.918 7.48531040169e-39
0.00169892338596 -0.0662580120524 0.918 7.30379180382e-39
0.0033867426975 -0.0660414826012 0.915 6.93644981918e-39
0.00508011404625 -0.0660414826012 0.915 7.39598603238e-39
0.00675867996244 -0.0658971296338 0.913 7.57929829229e-39
0.00844834995305 -0.0658971296338 0.913 7.49033265539e-39
0.0101380199437 -0.0658971296338 0.913 7.85731590761e-39
0.0117888256738 -0.0656806001826 0.91 7.8569571752e-39
0.0134433327621 -0.0655362472152 0.908 8.04170436474e-39
0.0151237493574 -0.0655362472152 0.908 7.67436238011e-39
0.0168041659526 -0.0655362472152 0.908 7.58324434876e-39
0.0184845825479 -0.0655362472152 0.908 8.22788648391e-39
0.0202094154408 -0.0656806001826 0.91 7.76691534108e-39
0.0218935333942 -0.0656806001826 0.91 9.23987060368e-39
0.0235776513476 -0.0656806001826 0.91 8.68527030266e-39
0.025261769301 -0.0656806001826 0.91 8.87073495701e-39
0.0269458872544 -0.0656806001826 0.91 8.41263367344e-39
0.0286300052078 -0.0656806001826 0.91 7.86018576687e-39
0.0303141231612 -0.0656806001826 0.91 8.87324608386e-39
0.0319982411146 -0.0656806001826 0.91 8.96544031242e-39
0.033682359068 -0.0656806001826 0.91 8.50590409923e-39
0.0354830698028 -0.0658971296338 0.913 9.15126369918e-39
0.0371727397934 -0.0658971296338 0.913 9.0583520058e-39
0.038862409784 -0.0658971296338 0.913 8.59809832779e-39
0.04064091237 -0.0660414826012 0.915 8.69065128876e-39
0.0423342837187 -0.0660414826012 0.915 9.70407033816e-39
0.0440276550675 -0.0660414826012 0.915 9.70229209041e-39
0.0458709314209 -0.0662580120524 0.918 9.97885936182e-39
0.0475698548068 -0.0662580120524 0.918 9.97921809423e-39
0.0493761175788 -0.0664023650198 0.92 1.11770256008e-38
0.0510787423229 -0.0664023650198 0.92 1.11755906711e-38
-0.0173963832549 -0.0661062563686 0.94 2.34957885526e-38
-0.0156567449294 -0.0661062563686 0.94 2.35036946785e-38
-0.0138874957388 -0.0659656047594 0.938 1.9809010128e-38
-0.012112694511 -0.0657546273454 0.935 7.09142221895e-39
-0.010360101432 -0.0656139757361 0.933 7.11294616336e-39
-0.00858715088327 -0.0652623467129 0.928 7.39024631387e-39
-0.00684751255778 -0.0650513692989 0.925 6.74560417873e-39
-0.00512453034392 -0.0649107176896 0.923 7.85301111873e-39
-0.00340524948819 -0.0646997402757 0.92 7.39311617313e-39
-0.00169892338596 -0.0645590886664 0.918 7.11760968465e-39
0.0 -0.0645590886664 0.918 7.94807520655e-39
0.00169892338596 -0.0645590886664 0.918 7.11868588187e-39
0.0033867426975 -0.0643481112525 0.915 7.48889772576e-39
0.00508011404625 -0.0643481112525 0.915 7.85623971039e-39
0.00675867996244 -0.0642074596432 0.913 7.76404548183e-39
0.00844834995305 -0.0642074596432 0.913 8.04421549159e-39
0.0101380199437 -0.0642074596432 0.913 7.49140885261e-39
0.0117888256738 -0.0639964822292 0.91 7.67579730974e-39
0.0134433327621 -0.0638558306199 0.908 7.76691534108e-39
0.0151237493574 -0.0638558306199 0.908 7.21626109654e-39
0.0168041659526 -0.0638558306199 0.908 7.86090323168e-39
0.0185252974874 -0.0639964822292 0.91 7.58360308117e-39
0.0202094154408 -0.0639964822292 0.91 8.3218743745e-39
0.0218935333942 -0.0639964822292 0.91 7.67615604214e-39
0.0235776513476 -0.0639964822292 0.91 7.95166253062e-39
0.025261769301 -0.0639964822292 0.91 8.59702213057e-39
0.0270347198498 -0.0642074596432 0.913 8.87468101349e-39
0.0287243898404 -0.0642074596432 0.913 7.86018576687e-39
0.030414059831 -0.0642074596432 0.913 8.13676845256e-39
0.0321037298216 -0.0642074596432 0.913 9.14767637511e-39
0.0337933998122 -0.0642074596432 0.913 8.31972198006e-39
0.0354830698028 -0.0642074596432 0.913 9.05763454099e-39
0.0371727397934 -0.0642074596432 0.913 9.05763454099e-39
0.0389475410212 -0.0643481112525 0.915 9.33601088872e-39
0.04064091237 -0.0643481112525 0.915 9.15162243159e-39
0.0423342837187 -0.0643481112525 0.915 9.52147554307e-39
0.0441720080349 -0.0645590886664 0.918 1.01618128893e-38
0.0458709314209 -0.0645590886664 0.918 9.88702386567e-39
0.0475698548068 -0.0645590886664 0.918 1.05323834656e-38
0.0493761175788 -0.0646997402757 0.92 1.09922784112e-38
0.0510787423229 -0.0646997402757 0.92 1.16354856167e-38
0.052781367067 -0.0646997402757 0.92 1.1260968984e-38
-0.0173963832549 -0.0643666180432 0.94 2.34982884691e-38
-0.0156234327062 -0.064229667792 0.938 2.35033219331e-38
-0.0138874957388 -0.064229667792 0.938 1.8517905571e-38
-0.012112694511 -0.0640242424153 0.935 6.72049291025e-39
-0.010360101432 -0.0638872921641 0.933 7.29733462049e-39
-0.00858715088327 -0.0635449165362 0.928 7.39096377868e-39
-0.00684751255778 -0.0633394911595 0.925 7.5750005099e-39
-0.00513563441834 -0.0633394911595 0.925 7.20765151877e-39
-0.00341635356261 -0.0632025409083 0.923 7.11617475502e-39
-0.0017026247441 -0.0629971155316 0.92 7.76368674942e-39
0.0 -0.0628601652804 0.918 7.30379180382e-39
0.00169892338596 -0.0628601652804 0.918 7.21159757525e-39
0.00339784677192 -0.0628601652804 0.918 7.39562729997e-39
0.00508011404625 -0.0626547399037 0.915 7.94843393896e-39
0.006773485395 -0.0626547399037 0.915 7.39634476479e-39
0.00846685674374 -0.0626547399037 0.915 7.39598603238e-39
0.0101602280925 -0.0626547399037 0.915 7.39885589164e-39
0.0118276899343 -0.0625177896526 0.913 7.76691534108e-39
0.0134729436272 -0.0623123642758 0.91 7.58360308117e-39
0.0151570615806 -0.0623123642758 0.91 7.49212631742e-39
0.016841179534 -0.0623123642758 0.91 8.41227494103e-39
0.0185252974874 -0.0623123642758 0.91 7.67615604214e-39
0.0202094154408 -0.0623123642758 0.91 7.76978520034e-39
0.0218935333942 -0.0623123642758 0.91 7.95237999543e-39
0.0235776513476 -0.0623123642758 0.91 8.96579904483e-39
0.0253450498591 -0.0625177896526 0.913 8.68778142951e-39
0.0270347198498 -0.0625177896526 0.913 8.22824521631e-39
0.0287243898404 -0.0625177896526 0.913 9.79626456673e-39
0.030414059831 -0.0625177896526 0.913 8.32079817728e-39
0.0321037298216 -0.0625177896526 0.913 9.61151737719e-39
0.0337933998122 -0.0625177896526 0.913 7.95273872784e-39
0.0354830698028 -0.0625177896526 0.913 8.87288735145e-39
0.0371727397934 -0.0625177896526 0.913 8.96579904483e-39
0.0389475410212 -0.0626547399037 0.915 8.68993382395e-39
0.04064091237 -0.0626547399037 0.915 9.24489285737e-39
0.042473084649 -0.0628601652804 0.918 8.41478606788e-39
0.0442682433465 -0.0629971155316 0.92 1.04412654343e-38
0.0459708680906 -0.0629971155316 0.92 9.7948296371e-39
0.0476734928347 -0.0629971155316 0.92 1.0716425802e-38
0.0493761175788 -0.0629971155316 0.92 1.02550833151e-38
0.0510787423229 -0.0629971155316 0.92 1.10808853157e-38
0.0530682223228 -0.0633394911595 0.925 1.19077649148e-38
0.0547801004623 -0.0633394911595 0.925 2.35097538931e-38
-0.0173963832549 -0.0626269797177 0.94 2.34957563227e-38
-0.0156234327062 -0.0624937308247 0.938 2.35025974618e-38
-0.0138874957388 -0.0624937308247 0.938 2.20216674097e-38
-0.012112694511 -0.0622938574851 0.935 5.05848566923e-39
-0.010360101432 -0.0621606085921 0.933 7.7575882985e-39
-0.00858715088327 -0.0618274863596 0.928 7.66647026716e-39
-0.00684751255778 -0.06162761302 0.925 7.11545729021e-39
-0.00513563441834 -0.06162761302 0.925 7.20765151877e-39
-0.00341635356261 -0.061494364127 0.923 7.20836898359e-39
-0.0017026247441 -0.0612944907875 0.92 7.39347490553e-39
0.0 -0.0612944907875 0.92 7.57822489767e-39
0.00169892338596 -0.0611612418945 0.918 7.30271560659e-39
0.00339784677192 -0.0611612418945 0.918 7.57929829229e-39
0.00509677015787 -0.0611612418945 0.918 7.02864404775e-39
0.006773485395 -0.060961368555 0.915 8.59486973613e-39
0.00846685674374 -0.060961368555 0.915 7.94807660785e-39
0.0101602280925 -0.060961368555 0.915 7.48889772576e-39
0.0118276899343 -0.0608281196619 0.913 8.04385675918e-39
0.0134729436272 -0.0606282463224 0.91 7.12299067075e-39
0.0151570615806 -0.0606282463224 0.91 7.30522673344e-39
0.016841179534 -0.0606282463224 0.91 8.13712718497e-39
0.0185252974874 -0.0606282463224 0.91 7.76978520034e-39
0.0202760398873 -0.0608281196619 0.913 7.49320251464e-39
0.0219657098779 -0.0608281196619 0.913 7.76906773552e-39
0.0236553798685 -0.0608281196619 0.913 8.41227494103e-39
0.0253450498591 -0.0608281196619 0.913 8.41227494103e-39
0.02709394158 -0.060961368555 0.915 7.76978520034e-39
0.0287873129287 -0.060961368555 0.915 7.58432054599e-39
0.0304806842775 -0.060961368555 0.915 8.68993382395e-39
0.0321037298216 -0.0608281196619 0.913 7.67723223936e-39
0.0337933998122 -0.0608281196619 0.913 8.87503974589e-39
0.0354830698028 -0.0608281196619 0.913 9.24453412497e-39
0.0372541696725 -0.060961368555 0.915 8.3218743745e-39
0.0389475410212 -0.060961368555 0.915 8.96723397446e-39
0.04064091237 -0.060961368555 0.915 9.05871073821e-39
0.0425656186024 -0.0612944907875 0.92 1.03487124733e-38
0.0442682433465 -0.0612944907875 0.92 9.51896441622e-39
0.0459708680906 -0.0612944907875 0.92 9.88666513326e-39
0.0476734928347 -0.0612944907875 0.92 1.26514256021e-38
0.0493761175788 -0.0612944907875 0.92 1.16362030815e-38
0.0509677015787 -0.0611612418945 0.918 1.05305898036e-38
0.0526666249647 -0.0611612418945 0.918 1.30144599952e-38
0.0543655483507 -0.0611612418945 0.918 2.350977211e-38
-0.0175074239991 -0.0612759839968 0.946 2.34982716535e-38
-0.0156567449294 -0.0608873413922 0.94 2.35008220167e-38
-0.0138874957388 -0.0607577938573 0.938 2.35047820861e-38
-0.012112694511 -0.060563472555 0.935 6.06724119734e-39
-0.010360101432 -0.0604339250201 0.933 7.20514039193e-39
-0.00860565767397 -0.0602396037178 0.93 7.29876955012e-39
-0.00686972070662 -0.0601100561829 0.928 7.574634771e-39
-0.00513563441834 -0.0599157348806 0.925 6.65592107701e-39
-0.00342375627889 -0.0599157348806 0.925 7.11760968465e-39
-0.00170817678131 -0.0597861873457 0.923 7.76189308738e-39
0.0 -0.0595918660434 0.92 6.93357995993e-39
0.0017026247441 -0.0595918660434 0.92 7.12047954391e-39
0.00339784677192 -0.0594623185085 0.918 7.76332801701e-39
0.00509677015787 -0.0594623185085 0.918 7.85623971039e-39
0.00679569354383 -0.0594623185085 0.918 7.48853899335e-39
0.00849461692979 -0.0594623185085 0.918 7.30666166307e-39
0.0101935403157 -0.0594623185085 0.918 7.2141087021e-39
0.0118535994412 -0.0592679972062 0.915 7.49212631742e-39
0.0135173599249 -0.0591384496713 0.913 8.32008071247e-39
0.0152070299155 -0.0591384496713 0.913 8.32008071247e-39
0.0168966999061 -0.0591384496713 0.913 7.95237999543e-39
0.0185863698967 -0.0591384496713 0.913 7.03259010422e-39
0.020320456185 -0.0592679972062 0.915 7.76978520034e-39
0.0220138275337 -0.0592679972062 0.915 8.044574224e-39
0.0237071988825 -0.0592679972062 0.915 9.61044117997e-39
0.0254005702312 -0.0592679972062 0.915 8.22824521631e-39
0.02709394158 -0.0592679972062 0.915 8.59884101598e-39
0.0287873129287 -0.0592679972062 0.915 9.33601088872e-39
0.0304806842775 -0.0592679972062 0.915 8.3215156421e-39
0.0321740556262 -0.0592679972062 0.915 9.24309919534e-39
0.033867426975 -0.0592679972062 0.915 7.86090323168e-39
0.0355607983237 -0.0592679972062 0.915 8.41622099751e-39
0.0372541696725 -0.0592679972062 0.915 8.68993382395e-39
0.039075237877 -0.0594623185085 0.918 9.88917626011e-39
0.040774161263 -0.0594623185085 0.918 9.24345792775e-39
0.0425656186024 -0.0595918660434 0.92 1.00732059848e-38
0.0442682433465 -0.0595918660434 0.92 1.05323834656e-38
0.0459708680906 -0.0595918660434 0.92 1.07153369931e-38
0.0476734928347 -0.0595918660434 0.92 1.06231427646e-38
0.0493761175788 -0.0595918660434 0.92 1.14521733568e-38
0.0509677015787 -0.0594623185085 0.918 9.97706569979e-39
0.0526666249647 -0.0594623185085 0.918 2.01950019939e-38
0.0543655483507 -0.0594623185085 0.918 2.35097819191e-38
-0.0157566815992 -0.0595252415969 0.946 2.35000793285e-38
-0.0139171066039 -0.0591477030667 0.94 2.35015226659e-38
-0.012112694511 -0.0588330876248 0.935 9.75394535311e-39
-0.0103823095809 -0.0588330876248 0.935 7.38271293333e-39
-0.00860565767397 -0.058518472183 0.93 7.85014125947e-39
-0.00686972070662 -0.0583926260063 0.928 7.39096377868e-39
-0.00515229052996 -0.0583926260063 0.928 7.57571096822e-39
-0.00342375627889 -0.0582038567412 0.925 7.20836898359e-39
-0.00171187813945 -0.0582038567412 0.925 7.76045815776e-39
0.0 -0.0580780105644 0.923 7.39383363794e-39
0.0017026247441 -0.0578892412993 0.92 7.21123884284e-39
0.00340524948819 -0.0578892412993 0.92 7.57929829229e-39
0.00509677015787 -0.0577633951226 0.918 7.48818026094e-39
0.00679569354383 -0.0577633951226 0.918 7.8569571752e-39
0.00849461692979 -0.0577633951226 0.918 7.03007897738e-39
0.0101935403157 -0.0577633951226 0.918 7.76835027071e-39
0.0118535994412 -0.0575746258575 0.915 8.04242182955e-39
0.01354697079 -0.0575746258575 0.915 8.22645155428e-39
0.0152403421387 -0.0575746258575 0.915 7.85982703446e-39
0.0169337134875 -0.0575746258575 0.915 7.86126196409e-39
0.0186270848362 -0.0575746258575 0.915 7.8619794289e-39
0.020320456185 -0.0575746258575 0.915 8.13784464978e-39
0.0220138275337 -0.0575746258575 0.915 8.23003887835e-39
0.0237071988825 -0.0575746258575 0.915 8.41299240585e-39
0.0254005702312 -0.0575746258575 0.915 8.50482790201e-39
0.0271827741753 -0.0577633951226 0.918 7.95381492506e-39
0.0288816975613 -0.0577633951226 0.918 8.69029255636e-39
0.0305806209472 -0.0577633951226 0.918 9.42605272284e-39
0.0322795443332 -0.0577633951226 0.918 9.0583520058e-39
0.0339784677192 -0.0577633951226 0.918 9.42820511728e-39
0.0356773911051 -0.0577633951226 0.918 9.0579932734e-39
0.0373763144911 -0.0577633951226 0.918 8.87396354867e-39
0.039075237877 -0.0577633951226 0.918 8.59953325742e-39
0.040774161263 -0.0577633951226 0.918 9.15269862881e-39
0.0425656186024 -0.0578892412993 0.92 9.42784638488e-39
0.044412596314 -0.0580780105644 0.923 9.88702386567e-39
0.0461207730953 -0.0580780105644 0.923 9.97921809423e-39
0.0476734928347 -0.0578892412993 0.92 1.11759494035e-38
0.0493761175788 -0.0578892412993 0.92 1.01625303541e-38
0.0509677015787 -0.0577633951226 0.918 1.02536483855e-38
0.0526666249647 -0.0577633951226 0.918 2.35061329379e-38
-0.0157566815992 -0.057774499197 0.946 2.35007743725e-38
-0.0139171066039 -0.0574080647412 0.94 2.35007771751e-38
-0.0121515587715 -0.0572859199226 0.938 1.39902653912e-38
-0.0103823095809 -0.0571027026947 0.935 1.0781343756e-38
-0.00863341786002 -0.0569805578761 0.933 7.84691266781e-39
-0.00688452613918 -0.0567973406482 0.93 7.57535223581e-39
-0.00515229052996 -0.0566751958296 0.928 7.57571096822e-39
-0.00343486035331 -0.0566751958296 0.928 7.57642843303e-39
-0.00171743017665 -0.0566751958296 0.928 7.30092194456e-39
0.0 -0.0564919786017 0.925 7.30271560659e-39
0.00171187813945 -0.0564919786017 0.925 7.48638659891e-39
0.00341635356261 -0.0563698337831 0.923 8.1335398609e-39
0.00512453034392 -0.0563698337831 0.923 7.76476294664e-39
0.00683270712523 -0.0563698337831 0.923 7.85731590761e-39
0.00854088390653 -0.0563698337831 0.923 7.2141087021e-39
0.0102157484646 -0.0561866165552 0.92 7.4910501202e-39
0.0119183732087 -0.0561866165552 0.92 7.4910501202e-39
0.0135913870877 -0.0560644717366 0.918 8.22788648391e-39
0.0152903104736 -0.0560644717366 0.918 8.68993382395e-39
0.0169892338596 -0.0560644717366 0.918 7.49212631742e-39
0.0186881572455 -0.0560644717366 0.918 8.22968014594e-39
0.0203870806315 -0.0560644717366 0.918 7.49356124705e-39
0.0220860040175 -0.0560644717366 0.918 7.67651477455e-39
0.0237849274034 -0.0560644717366 0.918 8.59738086298e-39
0.0254838507894 -0.0560644717366 0.918 9.42605272284e-39
0.0271827741753 -0.0560644717366 0.918 8.5044691696e-39
0.0288816975613 -0.0560644717366 0.918 8.3215156421e-39
0.0305806209472 -0.0560644717366 0.918 8.96615777724e-39
0.0322795443332 -0.0560644717366 0.918 8.59809832779e-39
0.0339784677192 -0.0560644717366 0.918 8.96615777724e-39
0.0356773911051 -0.0560644717366 0.918 8.96544031242e-39
0.0373763144911 -0.0560644717366 0.918 9.0583520058e-39
0.0391603691142 -0.0561866165552 0.92 8.96759270687e-39
0.0409962427514 -0.0563698337831 0.923 9.15126369918e-39
0.0427044195327 -0.0563698337831 0.923 9.6118761096e-39
0.0445088316256 -0.0564919786017 0.925 9.70371160576e-39
0.046220709765 -0.0564919786017 0.925 1.03465600789e-38
0.0476734928347 -0.0561866165552 0.92 1.11766668684e-38
0.0493761175788 -0.0561866165552 0.92 1.07153369931e-38
0.0510787423229 -0.0561866165552 0.92 1.96385057361e-38
0.052781367067 -0.0561866165552 0.92 2.35043897226e-38
-0.0175444375805 -0.0561422002575 0.948 2.34961150551e-38
-0.0157566815992 -0.0560237567971 0.946 2.35011401114e-38
-0.0139171066039 -0.0556684264157 0.94 2.34986500041e-38
-0.0121515587715 -0.0555499829552 0.938 1.82290713329e-38
-0.0103823095809 -0.0553723177646 0.935 1.50098249305e-38
-0.00863341786002 -0.0552538743041 0.933 1.05072721971e-38
-0.00688452613918 -0.0550762091134 0.93 7.57355857378e-39
-0.00516339460438 -0.0550762091134 0.93 7.85229365392e-39
-0.00343486035331 -0.054957765653 0.928 7.57571096822e-39
-0.00171743017665 -0.054957765653 0.928 7.48531040169e-39
0.0 -0.0547801004623 0.925 7.48674533132e-39
0.00171187813945 -0.0547801004623 0.925 7.67077505604e-39
0.00342375627889 -0.0547801004623 0.925 7.30343307141e-39
0.00513563441834 -0.0547801004623 0.925 7.76476294664e-39
0.00683270712523 -0.0546616570018 0.923 7.58216815154e-39
0.00854088390653 -0.0546616570018 0.923 7.4910501202e-39
0.0102490606878 -0.0546616570018 0.923 7.76691534108e-39
0.0119183732087 -0.0544839918111 0.92 7.95130379821e-39
0.0136209979528 -0.0544839918111 0.92 7.49212631742e-39
0.0152903104736 -0.0543655483507 0.918 7.67723223936e-39
0.0169892338596 -0.0543655483507 0.918 7.86126196409e-39
0.0186881572455 -0.0543655483507 0.918 7.76978520034e-39
0.0203870806315 -0.0543655483507 0.918 7.76978520034e-39
0.0220860040175 -0.0543655483507 0.918 8.22932141353e-39
0.0238367464174 -0.0544839918111 0.92 9.61044117997e-39
0.0255393711615 -0.0544839918111 0.92 7.95166253062e-39
0.0272419959056 -0.0544839918111 0.92 8.87360481627e-39
0.0289446206497 -0.0544839918111 0.92 8.22932141353e-39
0.0306472453938 -0.0544839918111 0.92 8.50698029645e-39
0.0323498701378 -0.0544839918111 0.92 8.3218743745e-39
0.0340524948819 -0.0544839918111 0.92 8.87396354867e-39
0.035755119626 -0.0544839918111 0.92 8.59738086298e-39
0.0374577443701 -0.0544839918111 0.92 9.1523398964e-39
0.0391603691142 -0.0544839918111 0.92 9.8888175277e-39
0.0409962427514 -0.0546616570018 0.923 8.87324608386e-39
0.0427969534861 -0.0547801004623 0.925 9.79447090469e-39
0.0445088316256 -0.0547801004623 0.925 1.12685023645e-38
0.046220709765 -0.0547801004623 0.925 1.07146195283e-38
0.0480880449463 -0.054957765653 0.928 1.19113508376e-38
0.049805475123 -0.054957765653 0.928 1.87179535385e-38
0.0515229052996 -0.054957765653 0.928 2.34986303859e-38
-0.0175444375805 -0.0543877564995 0.948 2.34986626157e-38
-0.0157566815992 -0.0542730143972 0.946 2.35033331435e-38
-0.0139615229016 -0.0541009012437 0.943 2.35001115584e-38
-0.0121774682784 -0.0539287880902 0.94 1.76755668472e-38
-0.0104156218041 -0.0538140459879 0.938 2.03507072728e-38
-0.00867968483676 -0.0538140459879 0.938 1.72236116587e-38
-0.00690673428801 -0.0535271907321 0.933 1.32702291948e-38
-0.00516339460438 -0.0533550775786 0.93 7.84511900578e-39
-0.00343486035331 -0.0532403354763 0.928 7.94592281211e-39
-0.00171743017665 -0.0532403354763 0.928 7.66969885882e-39
0.0 -0.0532403354763 0.928 8.13174619886e-39
0.00171187813945 -0.0530682223228 0.925 7.67113378845e-39
0.00342375627889 -0.0530682223228 0.925 7.8569571752e-39
0.00513563441834 -0.0530682223228 0.925 7.76476294664e-39
0.00684751255778 -0.0530682223228 0.925 7.76655660867e-39
0.00855939069723 -0.0530682223228 0.925 7.67543857733e-39
0.0102490606878 -0.0529534802205 0.923 7.85731590761e-39
0.0119572374691 -0.0529534802205 0.923 8.50267550757e-39
0.0136209979528 -0.052781367067 0.92 7.85946830205e-39
0.0153236226969 -0.052781367067 0.92 7.86090323168e-39
0.0169892338596 -0.0526666249647 0.918 7.86126196409e-39
0.0186881572455 -0.0526666249647 0.918 7.76906773552e-39
0.0204314969292 -0.052781367067 0.92 8.13676845256e-39
0.0221341216733 -0.052781367067 0.92 7.86126196409e-39
0.0238367464174 -0.052781367067 0.92 8.13784464978e-39
0.0256226517196 -0.0529534802205 0.923 8.50590409923e-39
0.0272419959056 -0.052781367067 0.92 8.69029255636e-39
0.0289446206497 -0.052781367067 0.92 8.50590409923e-39
0.0306472453938 -0.052781367067 0.92 8.78320424974e-39
0.0324553588448 -0.0529534802205 0.923 8.8753984783e-39
0.0341635356261 -0.0529534802205 0.923 8.78284551733e-39
0.035755119626 -0.052781367067 0.92 8.87396354867e-39
0.0374577443701 -0.052781367067 0.92 9.24345792775e-39
0.03928806597 -0.0529534802205 0.923 9.33349976187e-39
0.0409962427514 -0.0529534802205 0.923 9.33565215631e-39
0.0427969534861 -0.0530682223228 0.925 1.02543658503e-38
0.0445088316256 -0.0530682223228 0.925 1.0529154874e-38
0.046220709765 -0.0530682223228 0.925 1.42083172414e-38
0.0480880449463 -0.0532403354763 0.928 2.06479310848e-38
0.049805475123 -0.0532403354763 0.928 2.35032756903e-38
0.0520781090205 -0.0538140459879 0.938 2.34975611952e-38
-0.0157899938224 -0.0526333127414 0.948 2.3502964602e-38
-0.0140059391993 -0.0525222719973 0.946 2.35004716921e-38
-0.0122163325389 -0.052355710881 0.943 1.84106291671e-38
-0.0104156218041 -0.0520781090205 0.938 1.98914989634e-38
-0.00867968483676 -0.0520781090205 0.938 1.97996592634e-38
-0.00690673428801 -0.0518005071601 0.933 1.88819937406e-38
-0.00518005071601 -0.0518005071601 0.933 1.66732488843e-38
-0.00344226306959 -0.0516339460438 0.93 1.31801873607e-38
-0.00171743017665 -0.0515229052996 0.928 8.67450833045e-39
0.0 -0.0515229052996 0.928 7.94592281211e-39
0.00171743017665 -0.0515229052996 0.928 7.67077505604e-39
0.00342375627889 -0.0513563441834 0.925 8.40868761697e-39
0.00513563441834 -0.0513563441834 0.925 7.94951013618e-39
0.00684751255778 -0.0513563441834 0.925 7.76512167905e-39
0.00855939069723 -0.0513563441834 0.925 7.76583914386e-39
0.0102490606878 -0.0512453034392 0.923 7.39885589164e-39
0.0119572374691 -0.0512453034392 0.923 8.59486973613e-39
0.0136654142505 -0.0512453034392 0.923 7.9505863334e-39
0.0153735910318 -0.0512453034392 0.923 8.3215156421e-39
0.0170817678131 -0.0512453034392 0.923 8.22788648391e-39
0.0187288721851 -0.0510787423229 0.92 8.32043944488e-39
0.0204314969292 -0.0510787423229 0.92 8.5044691696e-39
0.0221341216733 -0.0510787423229 0.92 7.76942646793e-39
0.0239144749383 -0.0512453034392 0.923 8.68957509154e-39
0.0256226517196 -0.0512453034392 0.923 8.87288735145e-39
0.0273308285009 -0.0512453034392 0.923 9.14875257233e-39
0.0290390052822 -0.0512453034392 0.923 8.59738086298e-39
0.0307471820635 -0.0512453034392 0.923 9.24274046293e-39
0.0324553588448 -0.0512453034392 0.923 7.95417365747e-39
0.0341635356261 -0.0512453034392 0.923 9.24453412497e-39
0.0358717124074 -0.0512453034392 0.923 9.97921809423e-39
0.0375798891887 -0.0512453034392 0.923 9.42605272284e-39
0.03928806597 -0.0512453034392 0.923 9.60864751794e-39
0.0410850753467 -0.0513563441834 0.925 1.05273612119e-38
0.0427969534861 -0.0513563441834 0.925 1.40253609113e-38
0.044653184593 -0.0515229052996 0.928 1.89902174223e-38
0.0463706147697 -0.0515229052996 0.928 2.34996056896e-38
0.0480880449463 -0.0515229052996 0.928 2.35029856215e-38
0.0503421720532 -0.0520781090205 0.938 2.34982604431e-38
0.0520781090205 -0.0520781090205 0.938 2.34986177742e-38
-0.0194617410967 -0.0513082265276 0.956 2.34983122911e-38
-0.0175999579526 -0.0510398780625 0.951 2.34968143031e-38
-0.0157899938224 -0.0508788689834 0.948 2.35015576984e-38
-0.0140059391993 -0.0507715295974 0.946 2.34993912909e-38
-0.0122163325389 -0.0506105205183 0.943 1.8041472501e-38
-0.0104156218041 -0.0503421720532 0.938 2.04439272518e-38
-0.00867968483676 -0.0503421720532 0.938 2.08137887711e-38
-0.00694374786941 -0.0503421720532 0.938 1.97064014493e-38
-0.00518005071601 -0.0500738235881 0.933 2.10911015333e-38
-0.00344226306959 -0.049912814509 0.93 2.05411297211e-38
-0.00172113153479 -0.049912814509 0.93 1.62147944735e-38
0.0 -0.049805475123 0.928 1.49286491118e-38
0.00171743017665 -0.049805475123 0.928 1.22636260612e-38
0.00342375627889 -0.0496444660439 0.925 8.67953058415e-39
0.00513563441834 -0.0496444660439 0.925 7.76332801701e-39
0.00684751255778 -0.0496444660439 0.925 8.77746453123e-39
0.00855939069723 -0.0496444660439 0.925 8.50195804275e-39
0.0102712688367 -0.0496444660439 0.925 7.67472111252e-39
0.0119831469761 -0.0496444660439 0.925 8.41227494103e-39
0.0136950251156 -0.0496444660439 0.925 8.22788648391e-39
0.0153735910318 -0.0495371266579 0.923 8.41227494103e-39
0.0170817678131 -0.0495371266579 0.923 8.87324608386e-39
0.0187899445944 -0.0495371266579 0.923 7.95202126302e-39
0.0204981213757 -0.0495371266579 0.923 8.3215156421e-39
0.022206298157 -0.0495371266579 0.923 8.59809832779e-39
0.0239144749383 -0.0495371266579 0.923 9.05655834377e-39
0.0256226517196 -0.0495371266579 0.923 8.5044691696e-39
0.0273308285009 -0.0495371266579 0.923 8.68993382395e-39
0.0290390052822 -0.0495371266579 0.923 9.15126369918e-39
0.0307471820635 -0.0495371266579 0.923 8.50626283163e-39
0.0324553588448 -0.0495371266579 0.923 9.15090496677e-39
0.0342375627889 -0.0496444660439 0.925 9.3352934239e-39
0.0359494409284 -0.0496444660439 0.925 9.97706569979e-39
0.0376613190678 -0.0496444660439 0.925 1.20932281679e-38
0.0393731972073 -0.0496444660439 0.925 1.62301302839e-38
0.0412183242397 -0.049805475123 0.928 1.98170956202e-38
0.0429357544164 -0.049805475123 0.928 2.34967596524e-38
0.044653184593 -0.049805475123 0.928 2.34978848951e-38
0.0464705514394 -0.049912814509 0.93 2.35007967933e-38
0.048450778044 -0.0501811629741 0.935 2.34989624936e-38
0.0503421720532 -0.0503421720532 0.938 2.34960968383e-38
0.052355710881 -0.0506105205183 0.943 2.34989891183e-38
0.0541009012437 -0.0506105205183 0.943 2.35019024178e-38
-0.0212309902873 -0.049538977337 0.956 2.34957507175e-38
-0.0194617410967 -0.049538977337 0.956 2.34993786793e-38
-0.0175999579526 -0.0492798822672 0.951 2.34975710042e-38
-0.0157899938224 -0.0491244252253 0.948 2.35011667361e-38
-0.0140059391993 -0.0490207871974 0.946 2.35026058696e-38
-0.0122163325389 -0.0488653301556 0.943 1.8596096624e-38
-0.0104378299529 -0.0487098731137 0.94 2.01680662348e-38
-0.00869819162745 -0.0487098731137 0.94 2.16424774465e-38
-0.00694374786941 -0.0486062350858 0.938 2.01691480372e-38
-0.00519115479043 -0.048450778044 0.935 2.09992548267e-38
-0.00345336714401 -0.0483471400161 0.933 2.16435662554e-38
-0.00172113153479 -0.0481916829742 0.93 2.13687604162e-38
0.0 -0.0480880449463 0.928 2.15553012678e-38
0.00171743017665 -0.0480880449463 0.928 1.93469375646e-38
0.00343486035331 -0.0480880449463 0.928 1.69548482185e-38
0.00515229052996 -0.0480880449463 0.928 1.60364147842e-38
0.00684751255778 -0.0479325879045 0.925 1.36429521656e-38
0.00855939069723 -0.0479325879045 0.925 1.22664959204e-38
0.0102712688367 -0.0479325879045 0.925 9.23305468795e-39
0.0119831469761 -0.0479325879045 0.925 9.23520708239e-39
0.0136950251156 -0.0479325879045 0.925 9.32632511373e-39
0.015406903255 -0.0479325879045 0.925 9.97311964331e-39
0.0170817678131 -0.0478289498766 0.923 1.01585842977e-38
0.0187899445944 -0.0478289498766 0.923 8.59199987688e-39
0.0204981213757 -0.0478289498766 0.923 9.88271907678e-39
0.022206298157 -0.0478289498766 0.923 9.97419584053e-39
0.0239144749383 -0.0478289498766 0.923 1.02511372586e-38
0.0256226517196 -0.0478289498766 0.923 1.10783741889e-38
0.0273308285009 -0.0478289498766 0.923 1.04330145889e-38
0.0290390052822 -0.0478289498766 0.923 1.21839874668e-38
0.0307471820635 -0.0478289498766 0.923 1.28250422779e-38
0.0325256846495 -0.0479325879045 0.925 1.42025747203e-38
0.0342375627889 -0.0479325879045 0.925 1.74229267471e-38
0.0359494409284 -0.0479325879045 0.925 1.8800893592e-38
0.0376613190678 -0.0479325879045 0.925 2.10122224427e-38
0.0395008940631 -0.0480880449463 0.928 2.34996869649e-38
0.0413071568351 -0.0481916829742 0.93 2.34968479342e-38
0.0430282883699 -0.0481916829742 0.93 2.34997248e-38
0.0447494199046 -0.0481916829742 0.93 2.34993338377e-38
0.0467203931138 -0.048450778044 0.935 2.34961094499e-38
0.048450778044 -0.048450778044 0.935 2.349683252e-38
0.0503421720532 -0.0486062350858 0.938 2.34968451316e-38
0.0521891497647 -0.0487098731137 0.94 2.35004548765e-38
0.0539287880902 -0.0487098731137 0.94 2.35054771302e-38
-0.0212309902873 -0.0477697281463 0.956 2.35000919402e-38
-0.0194210261571 -0.0476697914766 0.954 2.34965046161e-38
-0.0175999579526 -0.0475198864719 0.951 2.350012417e-38
-0.0157899938224 -0.0473699814673 0.948 2.34975808133e-38
-0.0140059391993 -0.0472700447975 0.946 2.35029772137e-38
-0.0122163325389 -0.0471201397929 0.943 1.7582664963e-38
-0.0104711421762 -0.0471201397929 0.943 2.0353163749e-38
-0.00869819162745 -0.0469702347883 0.94 2.07212217971e-38
-0.00694374786941 -0.0468702981185 0.938 2.05368683725e-38
-0.00520781090205 -0.0468702981185 0.938 2.08130825167e-38
-0.00345336714401 -0.0466204564441 0.933 2.21974715124e-38
-0.001726683572 -0.0466204564441 0.933 2.14606071227e-38
0.0 -0.0464705514394 0.93 2.1276938933e-38
0.00172113153479 -0.0464705514394 0.93 2.1829370024e-38
0.00343486035331 -0.0463706147697 0.928 2.33984879924e-38
0.00515229052996 -0.0463706147697 0.928 2.15560257391e-38
0.00686972070662 -0.0463706147697 0.928 2.23854374845e-38
0.00858715088327 -0.0463706147697 0.928 2.18343866725e-38
0.0102712688367 -0.046220709765 0.925 2.12851533446e-38
0.0119831469761 -0.046220709765 0.925 1.92593508054e-38
0.0136950251156 -0.046220709765 0.925 1.88905304509e-38
0.015406903255 -0.046220709765 0.925 1.87097573438e-38
0.0171187813945 -0.046220709765 0.925 1.76037755243e-38
0.0188306595339 -0.046220709765 0.925 1.85235710207e-38
0.0205425376733 -0.046220709765 0.925 1.78785547389e-38
0.0222544158128 -0.046220709765 0.925 1.73250474507e-38
0.0239662939522 -0.046220709765 0.925 1.90753533105e-38
0.0256781720917 -0.046220709765 0.925 1.91689586466e-38
0.0273900502311 -0.046220709765 0.925 1.99061845713e-38
0.0291019283706 -0.046220709765 0.925 2.23946916596e-38
0.03081380651 -0.046220709765 0.925 2.239148689e-38
0.0325256846495 -0.046220709765 0.925 2.34964667811e-38
0.0343486035331 -0.0463706147697 0.928 2.34950332527e-38
0.0360660337097 -0.0463706147697 0.928 2.34979073159e-38
0.0377834638864 -0.0463706147697 0.928 2.34968030927e-38
0.0395860253003 -0.0464705514394 0.93 2.34950094307e-38
0.0413071568351 -0.0464705514394 0.93 2.34975373731e-38
0.0430282883699 -0.0464705514394 0.93 2.34925053103e-38
