# .PCD v0.7 - Point Cloud Data file format
VERSION 0.7
FIELDS x y z rgb
SIZE 4 4 4 4
TYPE F F F F
COUNT 1 1 1 1
WIDTH 846
HEIGHT 1
VIEWPOINT 0 0 0 1 0 0 0
POINTS 846
DATA ascii
0.0409462744165 -0.0818925488329 0.885 1.94308795465e-38
0.0423435371141 -0.0814298790655 0.88 2.05303453281e-38
0.0438721980256 -0.0812448111586 0.878 1.99840505231e-38
0.0451343611511 -0.0805970734842 0.871 1.94308795465e-38
0.0465316238487 -0.0802269376702 0.867 1.87837248832e-38
0.0479696014859 -0.0799493358098 0.864 1.98904325753e-38
0.0494538460997 -0.0797642679028 0.862 1.98911360271e-38
0.0509306879973 -0.0795791999959 0.86 2.0167362783e-38
0.0525222719973 -0.0795791999959 0.86 2.00773181463e-38
0.0541138559972 -0.0795791999959 0.86 1.69455520045e-38
0.0555758924622 -0.0793941320889 0.858 1.28992998861e-38
0.057163775104 -0.0793941320889 0.858 1.03296996557e-38
0.0587516577458 -0.0793941320889 0.858 8.0341709842e-39
0.0601988887783 -0.0792090641819 0.856 7.9455640797e-39
0.0617830700619 -0.0792090641819 0.856 7.94735774173e-39
0.06321919702 -0.079023996275 0.854 7.94664027692e-39
0.0645720434199 -0.0787463944145 0.851 8.13102873405e-39
0.0661469713082 -0.0787463944145 0.851 7.76404548183e-39
0.0677218991965 -0.0787463944145 0.851 7.6736449153e-39
0.0692968270848 -0.0787463944145 0.851 8.40904634937e-39
0.0708717549731 -0.0787463944145 0.851 7.4860278665e-39
0.0724466828613 -0.0787463944145 0.851 8.95970059391e-39
0.0738476469171 -0.0785613265075 0.849 8.86786509776e-39
0.0754188734472 -0.0785613265075 0.849 8.5934348065e-39
0.0769900999774 -0.0785613265075 0.849 8.31685212081e-39
0.0785613265075 -0.0785613265075 0.849 8.8700174922e-39
0.0801325530377 -0.0785613265075 0.849 9.05368848451e-39
0.0817037795678 -0.0785613265075 0.849 9.42138920155e-39
0.083275006098 -0.0785613265075 0.849 9.42031300433e-39
0.0848462326281 -0.0785613265075 0.849 9.69833061965e-39
0.0864174591583 -0.0785613265075 0.849 9.97419584053e-39
0.0879886856884 -0.0785613265075 0.849 1.0529154874e-38
0.0897708896325 -0.0787463944145 0.851 9.88415400641e-39
0.0913458175208 -0.0787463944145 0.851 1.01589430301e-38
0.0929207454091 -0.0787463944145 0.851 1.0617403046e-38
0.0948287955299 -0.079023996275 0.854 1.15389865993e-38
0.0966350583019 -0.0792090641819 0.856 1.0615609384e-38
0.0984487237902 -0.0793941320889 0.858 1.49379761544e-38
0.100269791995 -0.0795791999959 0.86 2.31304952663e-38
0.102098262916 -0.0797642679028 0.862 2.34993870871e-38
0.103693548274 -0.0797642679028 0.862 2.34943592282e-38
0.105533123269 -0.0799493358098 0.864 2.34957801448e-38
0.107752087473 -0.0804120055772 0.869 2.35055317808e-38
0.109360327585 -0.0804120055772 0.869 2.35091177036e-38
0.0378408349376 -0.0806174309539 0.889 2.34950598774e-38
0.0393972560352 -0.0804360644051 0.887 2.3500823418e-38
0.0409462744165 -0.0802546978563 0.885 1.86922172909e-38
0.0423435371141 -0.0798012814842 0.88 1.94261529668e-38
0.0438721980256 -0.0796199149354 0.878 1.94287103365e-38
0.0451343611511 -0.0789851320145 0.871 1.9614194609e-38
0.0466389632348 -0.0788037654657 0.869 1.90617410972e-38
0.0481361626021 -0.0786223989168 0.867 2.05365180478e-38
0.0495685882021 -0.0783503490936 0.864 1.99818995299e-38
0.0510491314578 -0.0781689825448 0.862 2.00744510896e-38
0.0526444168159 -0.0781689825448 0.862 2.03524602972e-38
0.0541138559972 -0.0779876159959 0.86 2.13655374297e-38
0.0557054399971 -0.0779876159959 0.86 1.98940002812e-38
0.057163775104 -0.0778062494471 0.858 1.6395884274e-38
0.0587516577458 -0.0778062494471 0.858 1.42832895118e-38
0.0603395403876 -0.0778062494471 0.858 1.04201002223e-38
0.0617830700619 -0.0776248828983 0.856 9.41493201823e-39
0.06321919702 -0.0774435163495 0.854 8.31218859952e-39
0.0647996769455 -0.0774435163495 0.854 8.77459467197e-39
0.0661469713082 -0.0771714665262 0.851 7.94699900933e-39
0.0677218991965 -0.0771714665262 0.851 8.77674706641e-39
0.0692968270848 -0.0771714665262 0.851 8.59271734169e-39
0.0708717549731 -0.0771714665262 0.851 9.14480651586e-39
0.0724466828613 -0.0771714665262 0.851 8.59271734169e-39
0.0738476469171 -0.0769900999774 0.849 8.77782326363e-39
0.0754188734472 -0.0769900999774 0.849 9.23735947683e-39
0.0769900999774 -0.0769900999774 0.849 8.8700174922e-39
0.0785613265075 -0.0769900999774 0.849 9.33027117021e-39
0.0801325530377 -0.0769900999774 0.849 8.68491157025e-39
0.0817037795678 -0.0769900999774 0.849 1.05295136064e-38
0.083275006098 -0.0769900999774 0.849 8.96149425595e-39
0.0848462326281 -0.0769900999774 0.849 9.51465962734e-39
0.086621033856 -0.0771714665262 0.851 9.32847750817e-39
0.0881959617442 -0.0771714665262 0.851 1.02493435966e-38
0.0897708896325 -0.0771714665262 0.851 1.02507785262e-38
0.0913458175208 -0.0771714665262 0.851 1.03401028955e-38
0.0932483156044 -0.0774435163495 0.854 1.17205051972e-38
0.0948287955299 -0.0774435163495 0.854 1.40174687983e-38
0.0966350583019 -0.0776248828983 0.856 2.08277527103e-38
0.0986782079949 -0.0779876159959 0.86 2.3498250634e-38
0.100502977558 -0.0781689825448 0.862 2.34954312215e-38
0.102098262916 -0.0781689825448 0.862 2.34936137374e-38
0.103693548274 -0.0781689825448 0.862 2.34943368074e-38
0.105899557725 -0.0786223989168 0.867 2.34953975903e-38
0.107752087473 -0.0788037654657 0.869 2.35091387231e-38
0.109360327585 -0.0788037654657 0.869 2.35055121626e-38
0.0378408349376 -0.078972177261 0.889 2.34951019163e-38
0.0393972560352 -0.0787945120703 0.887 2.35015422841e-38
0.0409462744165 -0.0786168468796 0.885 1.75826257266e-38
0.0423435371141 -0.0781726839029 0.88 1.97946201941e-38
0.0439721346954 -0.0781726839029 0.88 1.97063874363e-38
0.0453416372069 -0.0777285209262 0.875 1.98893479703e-38
0.0467463026208 -0.0773731905448 0.871 1.97067545765e-38
0.0483582440905 -0.0773731905448 0.871 1.97064042519e-38
0.0498554434579 -0.0771955253541 0.869 1.98907983142e-38
0.051345240109 -0.0770178601634 0.867 2.07205365622e-38
0.0529497788624 -0.0770178601634 0.867 2.07212372114e-38
0.0542397021739 -0.0765736971867 0.862 2.02588423493e-38
0.0557054399971 -0.076396031996 0.86 2.0812732192e-38
0.057297023997 -0.076396031996 0.86 2.20120012529e-38
0.0588886079969 -0.076396031996 0.86 1.98947205486e-38
0.0604801919968 -0.076396031996 0.86 1.79618801495e-38
0.0619274230293 -0.0762183668053 0.858 1.53860329305e-38
0.06321919702 -0.075863036424 0.854 1.31791111635e-38
0.0647996769455 -0.075863036424 0.854 1.06087934683e-38
0.0661469713082 -0.0755965386379 0.851 8.77208354512e-39
0.0677218991965 -0.0755965386379 0.851 8.2221467654e-39
0.0692968270848 -0.0755965386379 0.851 8.13210493127e-39
0.0708717549731 -0.0755965386379 0.851 8.77674706641e-39
0.0724466828613 -0.0755965386379 0.851 8.22465789224e-39
0.0740216107496 -0.0755965386379 0.851 8.96221172076e-39
0.0754188734472 -0.0754188734472 0.849 9.789448651e-39
0.0769900999774 -0.0754188734472 0.849 9.23664201202e-39
0.0785613265075 -0.0754188734472 0.849 9.42246539877e-39
0.0801325530377 -0.0754188734472 0.849 1.00674662663e-38
0.0817037795678 -0.0754188734472 0.849 9.14875257233e-39
0.083275006098 -0.0754188734472 0.849 9.97455457294e-39
0.0848462326281 -0.0754188734472 0.849 1.04344495185e-38
0.086621033856 -0.0755965386379 0.851 9.87949048512e-39
0.0881959617442 -0.0755965386379 0.851 9.8784142879e-39
0.0900873557534 -0.075863036424 0.854 1.24537542368e-38
0.0916678356789 -0.075863036424 0.854 1.65917409578e-38
0.0932483156044 -0.075863036424 0.854 2.09184475495e-38
0.0950508770183 -0.0760407016146 0.856 2.34971408056e-38
0.0968608411484 -0.0762183668053 0.858 2.34975443796e-38
0.0986782079949 -0.076396031996 0.86 2.34914277118e-38
0.100502977558 -0.0765736971867 0.862 2.34911040118e-38
0.102098262916 -0.0765736971867 0.862 2.34929004765e-38
0.103934136553 -0.0767513623774 0.864 2.34947067502e-38
0.105899557725 -0.0770178601634 0.867 2.34986528067e-38
0.0378408349376 -0.0773269235681 0.889 2.34921675974e-38
0.0393972560352 -0.0771529597355 0.887 2.34993814819e-38
0.0409462744165 -0.076978995903 0.885 1.92432232614e-38
0.0424397724257 -0.0767180501541 0.882 1.93343651148e-38
0.0440720713651 -0.0767180501541 0.882 1.96138260675e-38
0.0454970942488 -0.076370122489 0.878 1.98893507729e-38
0.0469609813929 -0.0761091767402 0.875 1.97982313402e-38
0.0483582440905 -0.0757612490751 0.871 1.94290970949e-38
0.0498554434579 -0.0755872852426 0.869 2.0351407922e-38
0.051345240109 -0.07541332141 0.867 2.06294227347e-38
0.0529497788624 -0.07541332141 0.867 2.05375718243e-38
0.0543655483507 -0.0751523756612 0.864 2.09052781465e-38
0.055834987532 -0.0749784118287 0.862 2.10903952789e-38
0.05743027289 -0.0749784118287 0.862 2.07198331104e-38
0.0590255582481 -0.0749784118287 0.862 2.21041716594e-38
0.0606208436061 -0.0749784118287 0.862 2.15495811674e-38
0.0620717759968 -0.0748044479961 0.86 2.23800775179e-38
0.0635153056711 -0.0746304841636 0.858 2.01734962664e-38
0.0649514326292 -0.074456520331 0.856 1.87047897407e-38
0.066380156871 -0.0742825564985 0.854 1.6311209413e-38
0.0679606367965 -0.0742825564985 0.854 1.63126387375e-38
0.069541116722 -0.0742825564985 0.854 1.37355051265e-38
0.0711215966475 -0.0742825564985 0.854 1.32781213078e-38
0.072702076573 -0.0742825564985 0.854 1.16225712501e-38
0.0740216107496 -0.0740216107496 0.851 1.11626763045e-38
0.0755965386379 -0.0740216107496 0.851 1.07017051617e-38
0.0771714665262 -0.0740216107496 0.851 1.08864523512e-38
0.0787463944145 -0.0740216107496 0.851 1.0887169816e-38
0.0803213223028 -0.0740216107496 0.851 1.12552292655e-38
0.0818962501911 -0.0740216107496 0.851 1.25445135357e-38
0.0834711780794 -0.0740216107496 0.851 1.46606760038e-38
0.0850461059677 -0.0740216107496 0.851 1.47489241759e-38
0.0869263959024 -0.0742825564985 0.854 1.87075418909e-38
0.0885068758279 -0.0742825564985 0.854 2.04564324393e-38
0.0900873557534 -0.0742825564985 0.854 2.20216646071e-38
0.091882514451 -0.074456520331 0.856 2.3492503909e-38
0.0934666957347 -0.074456520331 0.856 2.34932297816e-38
0.0952729585067 -0.0746304841636 0.858 2.34946801255e-38
0.0970866239949 -0.0748044479961 0.86 2.34885452408e-38
0.0989076921995 -0.0749784118287 0.862 2.34900095977e-38
0.10073616312 -0.0751523756612 0.864 2.3491471152e-38
0.102335149837 -0.0751523756612 0.864 2.34939682659e-38
0.104295018971 -0.07541332141 0.867 2.349433961e-38
0.106143847362 -0.0755872852426 0.869 2.35018926087e-38
0.0394860886305 -0.0756816698751 0.889 2.34979437496e-38
0.0409462744165 -0.0753411449263 0.885 1.76755668472e-38
0.0424397724257 -0.0750857512147 0.882 1.98868144227e-38
0.0440720713651 -0.0750857512147 0.882 1.98896996962e-38
0.0454970942488 -0.0747452262659 0.878 1.93369210832e-38
0.0469609813929 -0.0744898325543 0.875 1.94290914897e-38
0.0484692848347 -0.0743195700798 0.873 2.00748392493e-38
0.0499701855602 -0.0741493076054 0.871 2.0629785671e-38
0.0514636835694 -0.073979045131 0.869 1.99840505231e-38
0.0529497788624 -0.0738087826566 0.867 2.14577512765e-38
0.0545543176158 -0.0738087826566 0.867 2.08116601987e-38
0.0559645350669 -0.073553388945 0.864 2.0903505504e-38
0.05743027289 -0.0733831264706 0.862 2.1089691827e-38
0.0590255582481 -0.0733831264706 0.862 2.14577484739e-38
0.0606208436061 -0.0733831264706 0.862 2.1825444987e-38
0.0620717759968 -0.0732128639962 0.86 2.23782600338e-38
0.0635153056711 -0.0730426015218 0.858 2.20098348454e-38
0.0649514326292 -0.0728723390474 0.856 2.20116509283e-38
0.0665356139128 -0.0728723390474 0.856 2.23818627721e-38
0.0679606367965 -0.072702076573 0.854 2.21988882252e-38
0.069541116722 -0.072702076573 0.854 2.13702065562e-38
0.0711215966475 -0.072702076573 0.854 2.11886697415e-38
0.072702076573 -0.072702076573 0.854 2.14681278916e-38
0.0740216107496 -0.0724466828613 0.851 2.10071427358e-38
0.0755965386379 -0.0724466828613 0.851 2.08241836031e-38
0.0771714665262 -0.0724466828613 0.851 2.0823464737e-38
0.0787463944145 -0.0724466828613 0.851 2.00859095072e-38
0.0803213223028 -0.0724466828613 0.851 2.12833807021e-38
0.0818962501911 -0.0724466828613 0.851 2.17429323295e-38
0.0841577800142 -0.0730426015218 0.858 2.16485913117e-38
0.085745662656 -0.0730426015218 0.858 2.32144694781e-38
0.0873335452978 -0.0730426015218 0.858 2.34914613429e-38
0.0889214279396 -0.0730426015218 0.858 2.34936109348e-38
0.0905093105813 -0.0730426015218 0.858 2.34906948327e-38
0.0923118719952 -0.0732128639962 0.86 2.34914599416e-38
0.0939034559951 -0.0732128639962 0.86 2.34918074637e-38
0.0957171214834 -0.0733831264706 0.862 2.3489287929e-38
0.0975381896879 -0.073553388945 0.864 2.34921633935e-38
0.0994814027111 -0.0738087826566 0.867 2.34882187383e-38
0.10155231259 -0.0741493076054 0.871 2.34929200946e-38
0.10316425406 -0.0741493076054 0.871 2.34939710685e-38
0.104776195529 -0.0741493076054 0.871 2.34964849979e-38
0.106388136999 -0.0741493076054 0.871 2.35026296917e-38
0.0379259661748 -0.0742029772985 0.891 2.3493964062e-38
0.0394860886305 -0.0740364161822 0.889 2.35004632843e-38
0.04103880837 -0.0738698550659 0.887 1.78589197448e-38
0.0425841253931 -0.0737032939496 0.885 2.00719301537e-38
0.0440720713651 -0.0734534522752 0.882 1.9797530691e-38
0.0457043703046 -0.0734534522752 0.882 1.97081895061e-38
0.047121990472 -0.0731203300427 0.878 1.95227262531e-38
0.0485803255789 -0.0728704883683 0.875 1.98907955116e-38
0.0499701855602 -0.0725373661358 0.871 1.99837001985e-38
0.0514636835694 -0.0723708050195 0.869 2.04432504247e-38
0.053071923681 -0.0723708050195 0.869 2.07187765313e-38
0.0545543176158 -0.0722042439032 0.867 2.08109567469e-38
0.0561588563692 -0.0722042439032 0.867 2.17346954972e-38
0.057563521783 -0.0719544022288 0.864 2.09985723944e-38
0.0591625084992 -0.0719544022288 0.864 2.11811713934e-38
0.0606208436061 -0.0717878411125 0.862 2.17332283377e-38
0.0622161289642 -0.0717878411125 0.862 2.16406949949e-38
0.0636633599967 -0.0716212799963 0.86 2.24708115935e-38
0.0651031883129 -0.07145471888 0.858 2.19151364965e-38
0.0665356139128 -0.0712881577637 0.856 2.32977178173e-38
0.0681197951965 -0.0712881577637 0.856 2.26545008027e-38
0.069541116722 -0.0711215966475 0.854 2.25626737143e-38
0.0711215966475 -0.0711215966475 0.854 2.32076759831e-38
0.072702076573 -0.0711215966475 0.854 2.32087437726e-38
0.0742825564985 -0.0711215966475 0.854 2.28388724442e-38
0.075863036424 -0.0711215966475 0.854 2.34846033883e-38
0.0774435163495 -0.0711215966475 0.854 2.34860383179e-38
0.0792090641819 -0.0712881577637 0.856 2.34871131138e-38
0.0809820147307 -0.07145471888 0.858 2.34867557827e-38
0.0825698973724 -0.07145471888 0.858 2.34910885975e-38
0.0843539519956 -0.0716212799963 0.86 2.34867655918e-38
0.0859455359955 -0.0716212799963 0.86 2.34875138852e-38
0.0875371199954 -0.0716212799963 0.86 2.34853278596e-38
0.0891287039954 -0.0716212799963 0.86 2.34907298651e-38
0.0909312654092 -0.0717878411125 0.862 2.34882145344e-38
0.0925265507673 -0.0717878411125 0.862 2.34874998722e-38
0.0941218361253 -0.0717878411125 0.862 2.34903767379e-38
0.0959392029717 -0.0719544022288 0.864 2.34914585403e-38
0.0978768639577 -0.0722042439032 0.867 2.34914683494e-38
0.0994814027111 -0.0722042439032 0.867 2.34911194261e-38
0.10155231259 -0.0725373661358 0.871 2.34939850815e-38
0.10316425406 -0.0725373661358 0.871 2.34925249285e-38
0.104776195529 -0.0725373661358 0.871 2.34990689923e-38
0.0379259661748 -0.0725540222474 0.891 2.34903683301e-38
0.0394860886305 -0.0723911624893 0.889 2.34986373924e-38
0.04103880837 -0.0722283027311 0.887 1.7767029598e-38
0.0425841253931 -0.072065442973 0.885 1.97978571935e-38
0.0442219763698 -0.072065442973 0.885 1.91535835999e-38
0.0457043703046 -0.0718211533358 0.882 1.92461169427e-38
0.047121990472 -0.0714954338195 0.878 2.0720183435e-38
0.0487468866951 -0.0714954338195 0.878 2.06272521234e-38
0.0500849276625 -0.0710882844242 0.873 2.0812732192e-38
0.0515821270299 -0.0709254246661 0.871 1.97985844674e-38
0.053071923681 -0.0707625649079 0.869 2.20102216038e-38
0.0546801637925 -0.0707625649079 0.869 2.08127349946e-38
0.0561588563692 -0.0705997051498 0.867 2.19179909415e-38
0.0577633951226 -0.0705997051498 0.867 2.13637619846e-38
0.0591625084992 -0.0703554155126 0.864 2.17318424535e-38
0.0607614952154 -0.0703554155126 0.864 2.24693920781e-38
0.0622161289642 -0.0701925557545 0.862 2.17325403001e-38
0.0636633599967 -0.0700296959964 0.86 2.29317897428e-38
0.0651031883129 -0.0698668362382 0.858 2.28378018522e-38
0.0666910709547 -0.0698668362382 0.858 2.32058627029e-38
0.0682789535964 -0.0698668362382 0.858 2.29307149469e-38
0.0698668362382 -0.0698668362382 0.858 2.29307177495e-38
0.07145471888 -0.0698668362382 0.858 2.29296611704e-38
0.0730426015218 -0.0698668362382 0.858 2.33934909621e-38
0.0746304841636 -0.0698668362382 0.858 2.33009295933e-38
0.0762183668053 -0.0698668362382 0.858 2.34860509296e-38
0.0779876159959 -0.0700296959964 0.86 2.30221819015e-38
0.0795791999959 -0.0700296959964 0.86 2.34892921329e-38
0.0811707839958 -0.0700296959964 0.86 2.34846047896e-38
0.0827623679957 -0.0700296959964 0.86 2.34878544007e-38
0.0843539519956 -0.0700296959964 0.86 2.34885802733e-38
0.086145409335 -0.0701925557545 0.862 2.34874886618e-38
0.0877406946931 -0.0701925557545 0.862 2.34892893303e-38
0.0893359800512 -0.0701925557545 0.862 2.34893271654e-38
0.0909312654092 -0.0701925557545 0.862 2.34889628278e-38
0.0927412295394 -0.0703554155126 0.864 2.3490710247e-38
0.0946677864509 -0.0705997051498 0.867 2.34914431261e-38
0.0962723252043 -0.0705997051498 0.867 2.34914641455e-38
0.0981026468042 -0.0707625649079 0.869 2.34896606744e-38
0.0997108869157 -0.0707625649079 0.869 2.34918270818e-38
0.101785498153 -0.0710882844242 0.873 2.34946829281e-38
0.103401140981 -0.0710882844242 0.873 2.34975710042e-38
0.105016783808 -0.0710882844242 0.873 2.34979619665e-38
0.0380536630306 -0.0711438047963 0.894 2.34896550692e-38
0.0394860886305 -0.0707459087963 0.889 2.34936207439e-38
0.04103880837 -0.0705867503963 0.887 1.87790403425e-38
0.0426803607048 -0.0705867503963 0.887 1.9614542131e-38
0.0442219763698 -0.0704275919963 0.885 1.95223703232e-38
0.0458598273464 -0.0704275919963 0.885 2.02588395468e-38
0.047336669244 -0.0701888543963 0.882 1.97045923729e-38
0.0488579274393 -0.0700296959964 0.88 2.09939060705e-38
0.0501996697648 -0.0696317999964 0.875 2.00740979624e-38
0.0517005704903 -0.0694726415964 0.873 2.08127139752e-38
0.0531940684996 -0.0693134831964 0.871 2.01670124584e-38
0.0546801637925 -0.0691543247964 0.869 2.21020514948e-38
0.056288403904 -0.0691543247964 0.869 2.15477959132e-38
0.0577633951226 -0.0689951663964 0.867 2.17325431027e-38
0.0591625084992 -0.0687564287964 0.864 2.2193521252e-38
0.0607614952154 -0.0687564287964 0.864 2.22864203337e-38
0.0622161289642 -0.0685972703964 0.862 2.21946002519e-38
0.0636633599967 -0.0684381119964 0.86 2.21942471246e-38
0.0652549439966 -0.0684381119964 0.86 2.31136796847e-38
0.0668465279965 -0.0684381119964 0.86 2.27452502925e-38
0.0684381119964 -0.0684381119964 0.86 2.31147586846e-38
0.0700296959964 -0.0684381119964 0.86 2.34860663439e-38
0.0716212799963 -0.0684381119964 0.86 2.30218343795e-38
0.0732128639962 -0.0684381119964 0.86 2.34860144958e-38
0.0748044479961 -0.0684381119964 0.86 2.31161781999e-38
0.076396031996 -0.0684381119964 0.86 2.34842572675e-38
0.0779876159959 -0.0684381119964 0.86 2.34845921779e-38
0.0795791999959 -0.0684381119964 0.86 2.34856767829e-38
0.0813595532609 -0.0685972703964 0.862 2.34867613879e-38
0.0829548386189 -0.0685972703964 0.862 2.34824495925e-38
0.084550123977 -0.0685972703964 0.862 2.34864110633e-38
0.086145409335 -0.0685972703964 0.862 2.34882103305e-38
0.0877406946931 -0.0685972703964 0.862 2.34892935342e-38
0.0893359800512 -0.0685972703964 0.862 2.34857048088e-38
0.0911422428232 -0.0687564287964 0.864 2.34878628085e-38
0.0930632476975 -0.0689951663964 0.867 2.34907424768e-38
0.0946677864509 -0.0689951663964 0.867 2.34907228586e-38
0.0964944066926 -0.0691543247964 0.869 2.34896788913e-38
0.0981026468042 -0.0691543247964 0.869 2.34925207246e-38
0.0999403711204 -0.0693134831964 0.871 2.34950500683e-38
0.101785498153 -0.0694726415964 0.873 2.34925165207e-38
0.103401140981 -0.0694726415964 0.873 2.34979731769e-38
0.105016783808 -0.0694726415964 0.873 2.35015394815e-38
0.0380536630306 -0.069489297708 0.894 2.34918130689e-38
0.0395749212258 -0.0692561121452 0.891 2.34892711134e-38
0.0411313423234 -0.0691006551034 0.889 1.89627281504e-38
0.0426803607048 -0.0689451980615 0.887 1.97982103208e-38
0.0443219130396 -0.0689451980615 0.887 1.99826057844e-38
0.0459634653743 -0.0689451980615 0.887 1.98893339573e-38
0.0474976783231 -0.0687897410197 0.885 2.12715663547e-38
0.0489689681835 -0.0685565554569 0.882 2.05339999145e-38
0.0503717829183 -0.0682456413732 0.878 1.99815492053e-38
0.0518190139508 -0.0680124558104 0.875 2.20102216038e-38
0.0533162133182 -0.0678569987686 0.873 2.06283633531e-38
0.0548060099692 -0.0677015417267 0.871 2.08120161285e-38
0.056288403904 -0.0675460846849 0.869 2.23786734168e-38
0.0578966440156 -0.0675460846849 0.869 2.20102061895e-38
0.059367933876 -0.067390627643 0.867 2.22857168819e-38
0.0609724726294 -0.067390627643 0.867 2.2101306004e-38
0.0622161289642 -0.0670019850384 0.862 2.28410388516e-38
0.0638114143223 -0.0670019850384 0.862 2.23800803205e-38
0.0652549439966 -0.0668465279965 0.86 2.28388906611e-38
0.0668465279965 -0.0668465279965 0.86 2.34853334648e-38
0.0684381119964 -0.0668465279965 0.86 2.25623065741e-38
0.0700296959964 -0.0668465279965 0.86 2.34828503639e-38
0.0716212799963 -0.0668465279965 0.86 2.28392409857e-38
0.0732128639962 -0.0668465279965 0.86 2.33931560518e-38
0.0748044479961 -0.0668465279965 0.86 2.33942098282e-38
0.0765736971867 -0.0670019850384 0.862 2.3486423675e-38
0.0781689825448 -0.0670019850384 0.862 2.34853292609e-38
0.0797642679028 -0.0670019850384 0.862 2.34863984516e-38
0.0813595532609 -0.0670019850384 0.862 2.3486048127e-38
0.0829548386189 -0.0670019850384 0.862 2.34889390057e-38
0.084550123977 -0.0670019850384 0.862 2.34824523951e-38
0.0863452826746 -0.0671574420802 0.864 2.34882159357e-38
0.0879442693908 -0.0671574420802 0.864 2.34889165849e-38
0.089543256107 -0.0671574420802 0.864 2.34892893303e-38
0.0914587089441 -0.067390627643 0.867 2.34903641262e-38
0.0932779264696 -0.0675460846849 0.869 2.34900011899e-38
0.0948861665811 -0.0675460846849 0.869 2.34903417055e-38
0.0964944066926 -0.0675460846849 0.869 2.34911068144e-38
0.0983284296507 -0.0677015417267 0.871 2.34900180055e-38
0.100169855325 -0.0678569987686 0.873 2.34893061459e-38
0.101785498153 -0.0678569987686 0.873 2.34939738711e-38
0.103638027902 -0.0680124558104 0.875 2.34968689537e-38
0.105257372088 -0.0680124558104 0.875 2.34983108898e-38
0.106876716274 -0.0680124558104 0.875 2.35098631944e-38
0.0381387942678 -0.0679865463034 0.896 2.34831824716e-38
0.0397081701189 -0.0678347906197 0.894 2.3482832147e-38
0.0411313423234 -0.0674554014104 0.889 1.89638001437e-38
0.0427765960164 -0.0674554014104 0.889 1.9520571056e-38
0.0444218497093 -0.0674554014104 0.889 1.94272796108e-38
0.0459634653743 -0.0673036457267 0.887 2.01662907897e-38
0.0476050177091 -0.0673036457267 0.887 2.05347201819e-38
0.0491355292998 -0.067151890043 0.885 2.06258438185e-38
0.0504865250206 -0.0667725008337 0.88 2.08087917408e-38
0.0519966791415 -0.06662074515 0.878 2.12722880234e-38
0.0534383581368 -0.0663931116244 0.875 2.14584519257e-38
0.0548060099692 -0.066089600257 0.871 2.17328513884e-38
0.0564179514389 -0.066089600257 0.871 2.12704859536e-38
0.0578966440156 -0.0659378445733 0.869 2.13626815835e-38
0.0595048841271 -0.0659378445733 0.869 2.29281715901e-38
0.0609724726294 -0.0657860888896 0.867 2.23768152951e-38
0.0623604819316 -0.065558455364 0.864 2.26562916621e-38
0.0638114143223 -0.0654066996803 0.862 2.21956694426e-38
0.0654066996803 -0.0654066996803 0.862 2.25623037715e-38
0.0670019850384 -0.0654066996803 0.862 2.28385221196e-38
0.0685972703964 -0.0654066996803 0.862 2.3116549544e-38
0.0701925557545 -0.0654066996803 0.862 2.30236322454e-38
0.0717878411125 -0.0654066996803 0.862 2.28392213675e-38
0.0733831264706 -0.0654066996803 0.862 2.33931406375e-38
0.0749784118287 -0.0654066996803 0.862 2.33016484595e-38
0.0765736971867 -0.0654066996803 0.862 2.34888913616e-38
0.0781689825448 -0.0654066996803 0.862 2.34864040568e-38
0.0797642679028 -0.0654066996803 0.862 2.34871285281e-38
0.0813595532609 -0.0654066996803 0.862 2.34864138659e-38
0.0829548386189 -0.0654066996803 0.862 2.34889376044e-38
0.0847462959584 -0.065558455364 0.864 2.34867739996e-38
0.0866450926839 -0.0657860888896 0.867 2.34889319992e-38
0.0882496314373 -0.0657860888896 0.867 2.34874774514e-38
0.0898541701907 -0.0657860888896 0.867 2.3489273916e-38
0.091669686358 -0.0659378445733 0.869 2.34918424961e-38
0.0932779264696 -0.0659378445733 0.869 2.34928906674e-38
0.0948861665811 -0.0659378445733 0.869 2.34928766544e-38
0.096716488181 -0.066089600257 0.871 2.34896704835e-38
0.0983284296507 -0.066089600257 0.871 2.34939892854e-38
0.100169855325 -0.0662413559407 0.873 2.34946969411e-38
0.101785498153 -0.0662413559407 0.873 2.34936193426e-38
0.103638027902 -0.0663931116244 0.875 2.34986766287e-38
0.105257372088 -0.0663931116244 0.875 2.35058779015e-38
0.0381387942678 -0.066328337857 0.896 2.34853208531e-38
0.0397081701189 -0.0661802835314 0.894 2.19172846871e-38
0.0412238762769 -0.0659582020431 0.891 1.92396667659e-38
0.042872831328 -0.0659582020431 0.891 1.95205738586e-38
0.0444218497093 -0.0658101477175 0.889 1.94287257508e-38
0.0460671034023 -0.0658101477175 0.889 2.0627268939e-38
0.0476050177091 -0.0656620933919 0.887 2.00740979624e-38
0.0491355292998 -0.0655140390664 0.885 2.09013376952e-38
0.0504865250206 -0.0651439032524 0.88 2.10864576302e-38
0.0519966791415 -0.0649958489268 0.878 2.09964242038e-38
0.0534383581368 -0.0647737674385 0.875 2.09949780638e-38
0.054931856146 -0.0646257131129 0.873 2.19158553626e-38
0.0564179514389 -0.0644776587873 0.871 2.19172846871e-38
0.0580298929086 -0.0644776587873 0.871 2.19158553626e-38
0.0595048841271 -0.0643296044618 0.869 2.27463222858e-38
0.0611131242387 -0.0643296044618 0.869 2.17318270392e-38
0.0627213643502 -0.0643296044618 0.869 2.24708143961e-38
0.0641815501362 -0.0641815501362 0.867 2.20108928258e-38
0.0654066996803 -0.0638114143223 0.862 2.28399640557e-38
0.0670019850384 -0.0638114143223 0.862 2.29339407359e-38
0.0687564287964 -0.0639594686478 0.864 2.32112478929e-38
0.0703554155126 -0.0639594686478 0.864 2.34871341333e-38
0.0719544022288 -0.0639594686478 0.864 2.34871075086e-38
0.073553388945 -0.0639594686478 0.864 2.34860677451e-38
0.0751523756612 -0.0639594686478 0.864 2.34864068594e-38
0.0767513623774 -0.0639594686478 0.864 2.34838845221e-38
0.0783503490936 -0.0639594686478 0.864 2.34874956683e-38
0.0799493358098 -0.0639594686478 0.864 2.34885704642e-38
0.081548322526 -0.0639594686478 0.864 2.34864250763e-38
0.0831473092422 -0.0639594686478 0.864 2.34860551335e-38
0.0850405539305 -0.0641815501362 0.867 2.34882187383e-38
0.0866450926839 -0.0641815501362 0.867 2.34863886425e-38
0.0882496314373 -0.0641815501362 0.867 2.34925193233e-38
0.0900614462465 -0.0643296044618 0.869 2.34910703807e-38
0.091669686358 -0.0643296044618 0.869 2.34907424768e-38
0.0932779264696 -0.0643296044618 0.869 2.34907242599e-38
0.0948861665811 -0.0643296044618 0.869 2.34914585403e-38
0.096716488181 -0.0644776587873 0.871 2.34903977574e-38
0.0985542124972 -0.0646257131129 0.873 2.34914543364e-38
0.10039933953 -0.0647737674385 0.875 2.34943283996e-38
0.102018683716 -0.0647737674385 0.875 2.34965032148e-38
0.103993358283 -0.0649958489268 0.878 2.34993996987e-38
0.105618254506 -0.0649958489268 0.878 2.35033499591e-38
0.038223925505 -0.064814482378 0.898 2.31154593338e-38
0.0397970027142 -0.0646701294106 0.896 2.03496086548e-38
0.0414552111606 -0.0646701294106 0.896 1.94265607446e-38
0.0430171842954 -0.0645257764432 0.894 1.98907955116e-38
0.0445217863791 -0.064309246992 0.891 1.92454106883e-38
0.0461707414302 -0.064309246992 0.891 2.00762489556e-38
0.0477123570952 -0.0641648940246 0.889 2.02588423493e-38
0.0492465700439 -0.0640205410571 0.887 2.04436007493e-38
0.0506012671229 -0.0636596586385 0.882 2.09978465218e-38
0.0521151226019 -0.0635153056711 0.88 2.1089691827e-38
0.0536215753646 -0.0633709527037 0.878 2.13655556466e-38
0.0550577023227 -0.0631544232525 0.875 2.17343031336e-38
0.0565474989738 -0.0630100702851 0.873 2.13659508128e-38
0.0581631418016 -0.0630100702851 0.873 2.19173043052e-38
0.0596418343783 -0.0628657173177 0.871 2.19169343625e-38
0.061253775848 -0.0628657173177 0.871 2.25626765169e-38
0.0627213643502 -0.0627213643502 0.869 2.2471180135e-38
0.0643296044618 -0.0627213643502 0.869 2.26562734452e-38
0.0659378445733 -0.0627213643502 0.869 2.28396137311e-38
0.0675460846849 -0.0627213643502 0.869 2.2841036049e-38
0.0691543247964 -0.0627213643502 0.869 2.31176271425e-38
0.0705997051498 -0.0625770113828 0.867 2.34853572868e-38
0.0722042439032 -0.0625770113828 0.867 2.34856837894e-38
0.0738087826566 -0.0625770113828 0.867 2.32080235052e-38
0.07541332141 -0.0625770113828 0.867 2.34853236557e-38
0.0770178601634 -0.0625770113828 0.867 2.34878291773e-38
0.0786223989168 -0.0625770113828 0.867 2.3486771197e-38
0.0802269376702 -0.0625770113828 0.867 2.34864348853e-38
0.0818314764236 -0.0625770113828 0.867 2.34864194711e-38
0.083436015177 -0.0625770113828 0.867 2.34871313307e-38
0.0852367259118 -0.0627213643502 0.869 2.34893047446e-38
0.0868449660234 -0.0627213643502 0.869 2.34914361196e-38
0.0884532061349 -0.0627213643502 0.869 2.34903557184e-38
0.0900614462465 -0.0627213643502 0.869 2.34907214573e-38
0.091880663772 -0.0628657173177 0.871 2.34900053938e-38
0.0934926052416 -0.0628657173177 0.871 2.34936221452e-38
0.0951045467113 -0.0628657173177 0.871 2.34921647948e-38
0.0969385696694 -0.0630100702851 0.873 2.34921858142e-38
0.0985542124972 -0.0630100702851 0.873 2.34903739353e-38
0.10039933953 -0.0631544232525 0.875 2.34968381251e-38
0.102018683716 -0.0631544232525 0.875 2.34968367238e-38
0.104230245204 -0.0635153056711 0.88 2.35004983167e-38
0.105858842785 -0.0635153056711 0.88 2.35069540988e-38
0.038223925505 -0.0631525725735 0.898 2.1824388408e-38
0.0398858353096 -0.0631525725735 0.898 2.02603039036e-38
0.0414552111606 -0.0630119209642 0.896 1.93350811783e-38
0.0430171842954 -0.0628712693549 0.894 1.89684720728e-38
0.0445217863791 -0.0626602919409 0.891 1.9430135457e-38
0.0461707414302 -0.0626602919409 0.891 1.97985844674e-38
0.0477123570952 -0.0625196403316 0.889 2.02595584129e-38
0.0492465700439 -0.0623789887223 0.887 2.04443252206e-38
0.0507733802764 -0.062238337113 0.885 2.01677425349e-38
0.0522335660624 -0.0620273596991 0.882 2.09960710766e-38
0.0537437201832 -0.0618867080898 0.88 2.09038740455e-38
0.0552464715878 -0.0617460564805 0.878 2.19179909415e-38
0.0566770465087 -0.0615350790666 0.875 2.19201713619e-38
0.0582963906946 -0.0615350790666 0.875 2.18254547961e-38
0.0597787846294 -0.0613944274573 0.873 2.28388878585e-38
0.061253775848 -0.061253775848 0.871 2.25633631531e-38
0.0628657173177 -0.061253775848 0.871 2.24726136633e-38
0.0644776587873 -0.061253775848 0.871 2.34856641712e-38
0.0659378445733 -0.0611131242387 0.869 2.34846356181e-38
0.0675460846849 -0.0611131242387 0.869 2.28385221196e-38
0.0691543247964 -0.0611131242387 0.869 2.3484611796e-38
0.0707625649079 -0.0611131242387 0.869 2.34846174012e-38
0.0722042439032 -0.0609724726294 0.867 2.34860425218e-38
0.0738087826566 -0.0609724726294 0.867 2.34889362031e-38
0.0755872852426 -0.0611131242387 0.869 2.33012785167e-38
0.0771955253541 -0.0611131242387 0.869 2.34889095784e-38
0.0788037654657 -0.0611131242387 0.869 2.34878291773e-38
0.0804120055772 -0.0611131242387 0.869 2.34892599031e-38
0.0820202456888 -0.0611131242387 0.869 2.34882019227e-38
0.0836284858003 -0.0611131242387 0.869 2.34896228394e-38
0.0852367259118 -0.0611131242387 0.869 2.34885718655e-38
0.0868449660234 -0.0611131242387 0.869 2.34914529351e-38
0.0884532061349 -0.0611131242387 0.869 2.34906878262e-38
0.0902687223023 -0.061253775848 0.871 2.34907242599e-38
0.091880663772 -0.061253775848 0.871 2.34932311829e-38
0.0934926052416 -0.061253775848 0.871 2.34871411398e-38
0.0951045467113 -0.061253775848 0.871 2.34900039925e-38
0.0969385696694 -0.0613944274573 0.873 2.34972276861e-38
0.0987799953437 -0.0615350790666 0.875 2.34958095721e-38
0.100743565837 -0.0617460564805 0.878 2.34968633485e-38
0.102601647623 -0.0618867080898 0.88 2.34968521381e-38
0.104230245204 -0.0618867080898 0.88 2.3498316495e-38
0.105858842785 -0.0618867080898 0.88 2.35098575892e-38
0.0398858353096 -0.0614906627689 0.898 1.92471440945e-38
0.0415477451141 -0.0614906627689 0.898 1.90602767403e-38
0.0431134196071 -0.0613537125177 0.896 1.97063916402e-38
0.0446716913837 -0.0612167622666 0.894 1.92454106883e-38
0.0461707414302 -0.0610113368898 0.891 1.9800009588e-38
0.0477123570952 -0.0608743866387 0.889 2.01680956621e-38
0.0492465700439 -0.0607374363875 0.887 2.04446727426e-38
0.0507733802764 -0.0606004861364 0.885 2.01680886556e-38
0.0524112312531 -0.0606004861364 0.885 2.11818874569e-38
0.0537437201832 -0.0602581105085 0.88 2.08123818674e-38
0.0553723177646 -0.0602581105085 0.88 2.18261456362e-38
0.056871367811 -0.0601211602573 0.878 2.16421271219e-38
0.0584962640342 -0.0601211602573 0.878 2.20109096414e-38
0.0599157348806 -0.0599157348806 0.875 2.20098348454e-38
0.0613944274573 -0.0597787846294 0.873 2.27470229351e-38
0.0630100702851 -0.0597787846294 0.873 2.24704780844e-38
0.0644776587873 -0.0596418343783 0.871 2.30236294428e-38
0.066089600257 -0.0596418343783 0.871 2.34842446558e-38
0.0677015417267 -0.0596418343783 0.871 2.32062284418e-38
0.0693134831964 -0.0596418343783 0.871 2.32984268743e-38
0.0709254246661 -0.0596418343783 0.871 2.34835454079e-38
0.0723708050195 -0.0595048841271 0.869 2.34842544649e-38
0.073979045131 -0.0595048841271 0.869 2.34853138466e-38
0.0757612490751 -0.0596418343783 0.871 2.34871103112e-38
0.0773731905448 -0.0596418343783 0.871 2.34896326484e-38
0.0789851320145 -0.0596418343783 0.871 2.34889053745e-38
0.0805970734842 -0.0596418343783 0.871 2.34885620564e-38
0.0822090149539 -0.0596418343783 0.871 2.34889249927e-38
0.0838209564235 -0.0596418343783 0.871 2.34896550692e-38
0.0854328978932 -0.0596418343783 0.871 2.34875152865e-38
0.0870448393629 -0.0596418343783 0.871 2.34893075472e-38
0.0886567808326 -0.0596418343783 0.871 2.34907494833e-38
0.0902687223023 -0.0596418343783 0.871 2.349040056e-38
0.091880663772 -0.0596418343783 0.871 2.34918354896e-38
0.0934926052416 -0.0596418343783 0.871 2.34932592089e-38
0.0953229268415 -0.0597787846294 0.873 2.34964779914e-38
0.0969385696694 -0.0597787846294 0.873 2.34918158714e-38
0.0991186696134 -0.0601211602573 0.878 2.34943564256e-38
0.100973050041 -0.0602581105085 0.88 2.3495410202e-38
0.102601647623 -0.0602581105085 0.88 2.34986359911e-38
0.104230245204 -0.0602581105085 0.88 2.35051548315e-38
0.105858842785 -0.0602581105085 0.88 2.35098758061e-38
0.0400190842026 -0.0600286263038 0.901 1.86918641637e-38
0.0415477451141 -0.0598287529643 0.898 1.90617354921e-38
0.0431134196071 -0.0596955040713 0.896 1.95223703232e-38
0.0447716280535 -0.0596955040713 0.896 1.9982993944e-38
0.046326198472 -0.0595622551783 0.894 1.98925583451e-38
0.0478196964812 -0.0593623818388 0.891 2.03524743101e-38
0.0493576107881 -0.0592291329458 0.889 1.97071049011e-38
0.0508881223787 -0.0590958840527 0.887 2.1366238079e-38
0.0524112312531 -0.0589626351597 0.885 2.09056340763e-38
0.0538658650018 -0.0587627618202 0.882 2.12722684052e-38
0.0553723177646 -0.0586295129272 0.88 2.18246980949e-38
0.0570009153459 -0.0586295129272 0.88 2.33005736635e-38
0.0584962640342 -0.0584962640342 0.878 2.18261638531e-38
0.0601211602573 -0.0584962640342 0.878 2.2470105339e-38
0.0615350790666 -0.0582963906946 0.875 2.20091313936e-38
0.0630100702851 -0.0581631418016 0.873 2.28385375339e-38
0.0646257131129 -0.0581631418016 0.873 2.31168998686e-38
0.066089600257 -0.0580298929086 0.871 2.33009001661e-38
0.0677015417267 -0.0580298929086 0.871 2.2931086291e-38
0.0694726415964 -0.0581631418016 0.873 2.34856781842e-38
0.0709254246661 -0.0580298929086 0.871 2.34867725983e-38
0.0725373661358 -0.0580298929086 0.871 2.34839111468e-38
0.0741493076054 -0.0580298929086 0.871 2.34892949355e-38
0.0757612490751 -0.0580298929086 0.871 2.34849957518e-38
0.0773731905448 -0.0580298929086 0.871 2.34871397385e-38
0.0789851320145 -0.0580298929086 0.871 2.34871173177e-38
0.0805970734842 -0.0580298929086 0.871 2.34867782035e-38
0.082397784219 -0.0581631418016 0.873 2.34871439424e-38
0.0840134270468 -0.0581631418016 0.873 2.34903767379e-38
0.0856290698746 -0.0581631418016 0.873 2.34903697314e-38
0.0872447127024 -0.0581631418016 0.873 2.34900081964e-38
0.0888603555303 -0.0581631418016 0.873 2.3492517922e-38
0.0904759983581 -0.0581631418016 0.873 2.34903809418e-38
0.0920916411859 -0.0581631418016 0.873 2.34907396742e-38
0.0937072840137 -0.0581631418016 0.873 2.34921914194e-38
0.0953229268415 -0.0581631418016 0.873 2.34961430811e-38
0.0974937733903 -0.0584962640342 0.878 2.34968367238e-38
0.0993444524599 -0.0586295129272 0.88 2.34936109348e-38
0.100973050041 -0.0586295129272 0.88 2.34986528067e-38
0.102834833185 -0.0587627618202 0.882 2.34993716728e-38
0.104467132125 -0.0587627618202 0.882 2.35015366789e-38
0.0400190842026 -0.0583611644621 0.901 1.89681063339e-38
0.0415477451141 -0.0581668431598 0.898 1.92461351596e-38
0.0432096549187 -0.0581668431598 0.898 1.91539367271e-38
0.0448715647232 -0.0581668431598 0.898 1.93379748596e-38
0.0464298364999 -0.0580372956249 0.896 1.97989403973e-38
0.0479807055603 -0.05790774809 0.894 2.05361523089e-38
0.0493576107881 -0.0575838792528 0.889 2.04446601309e-38
0.0508881223787 -0.0574543317179 0.887 2.08134328413e-38
0.0524112312531 -0.0573247841831 0.885 2.10903756607e-38
0.0538658650018 -0.0571304628807 0.882 2.19176378143e-38
0.0554981639413 -0.0571304628807 0.882 2.16410453195e-38
0.0570009153459 -0.0570009153459 0.88 2.22849952132e-38
0.0586295129272 -0.0570009153459 0.88 2.21924492587e-38
0.0601211602573 -0.056871367811 0.878 2.28410234373e-38
0.0617460564805 -0.056871367811 0.878 2.25630240389e-38
0.0631544232525 -0.0566770465087 0.875 2.28403171829e-38
0.0647737674385 -0.0566770465087 0.875 2.24715332622e-38
0.0663931116244 -0.0566770465087 0.875 2.3485686592e-38
0.0680124558104 -0.0566770465087 0.875 2.33012925296e-38
0.0694726415964 -0.0565474989738 0.873 2.34849607194e-38
0.0710882844242 -0.0565474989738 0.873 2.34864012542e-38
0.072703927252 -0.0565474989738 0.873 2.34846145986e-38
0.0743195700798 -0.0565474989738 0.873 2.34885634577e-38
0.0759352129077 -0.0565474989738 0.873 2.34853306622e-38
0.0775508557355 -0.0565474989738 0.873 2.34896466614e-38
0.0791664985633 -0.0565474989738 0.873 2.3488203324e-38
0.0807821413911 -0.0565474989738 0.873 2.34892823238e-38
0.0825865534841 -0.0566770465087 0.875 2.34882103305e-38
0.08420589767 -0.0566770465087 0.875 2.34885760694e-38
0.085825241856 -0.0566770465087 0.875 2.34907214573e-38
0.087444586042 -0.0566770465087 0.875 2.34896536679e-38
0.0890639302279 -0.0566770465087 0.875 2.34907452794e-38
0.0906832744139 -0.0566770465087 0.875 2.34921675974e-38
0.0923026185998 -0.0566770465087 0.875 2.34928962726e-38
0.0939219627858 -0.0566770465087 0.875 2.34882159357e-38
0.0958688771671 -0.056871367811 0.878 2.34939724698e-38
0.0977158548786 -0.0570009153459 0.88 2.3493255005e-38
0.0995702353064 -0.0571304628807 0.882 2.34965032148e-38
0.101776244757 -0.0574543317179 0.887 2.34982982781e-38
0.103417797092 -0.0574543317179 0.887 2.35015296724e-38
0.105296236348 -0.0575838792528 0.889 2.35076743662e-38
0.106941490041 -0.0575838792528 0.889 2.35098758061e-38
0.0400190842026 -0.0566937026203 0.901 1.7956112405e-38
0.0415477451141 -0.0565049333552 0.898 1.90610376454e-38
0.0432096549187 -0.0565049333552 0.898 1.91539339245e-38
0.0448715647232 -0.0565049333552 0.898 1.95216402467e-38
0.0464298364999 -0.0563790871785 0.896 2.09038586312e-38
0.0479807055603 -0.0562532410017 0.894 2.00762489556e-38
0.0494686515323 -0.0560644717366 0.891 2.00758958283e-38
0.0508881223787 -0.0558127793831 0.887 2.0997129057e-38
0.0525296747135 -0.0558127793831 0.887 2.11829440359e-38
0.0540490822297 -0.0556869332064 0.885 2.109002954e-38
0.0554981639413 -0.0554981639413 0.882 2.18261638531e-38
0.0571304628807 -0.0554981639413 0.882 2.22853483404e-38
0.0586295129272 -0.0553723177646 0.88 2.24683074731e-38
0.0602581105085 -0.0553723177646 0.88 2.31165313271e-38
0.0617460564805 -0.0552464715878 0.878 2.32090997024e-38
0.0633709527037 -0.0552464715878 0.878 2.26562916621e-38
0.0649958489268 -0.0552464715878 0.878 2.26562944647e-38
0.0663931116244 -0.0550577023227 0.875 2.33913413703e-38
0.0680124558104 -0.0550577023227 0.875 2.3481733529e-38
0.0696317999964 -0.0550577023227 0.875 2.3483888726e-38
0.0712511441823 -0.0550577023227 0.875 2.34835370001e-38
0.072703927252 -0.054931856146 0.873 2.34853334648e-38
0.0743195700798 -0.054931856146 0.873 2.34885494447e-38
0.0761091767402 -0.0550577023227 0.875 2.34867585853e-38
0.0777285209262 -0.0550577023227 0.875 2.34896382536e-38
0.0793478651121 -0.0550577023227 0.875 2.348678521e-38
0.0809672092981 -0.0550577023227 0.875 2.34871397385e-38
0.0825865534841 -0.0550577023227 0.875 2.34878572033e-38
0.08420589767 -0.0550577023227 0.875 2.3490025012e-38
0.0861194998281 -0.0552464715878 0.878 2.34914767572e-38
0.0877443960512 -0.0552464715878 0.878 2.34903739353e-38
0.0893692922744 -0.0552464715878 0.878 2.34907396742e-38
0.0909941884976 -0.0552464715878 0.878 2.34935913166e-38
0.0926190847208 -0.0552464715878 0.878 2.34921732026e-38
0.094458659716 -0.0553723177646 0.88 2.34965018135e-38
0.0963056374275 -0.0554981639413 0.882 2.34939794763e-38
0.097937936367 -0.0554981639413 0.882 2.34936235465e-38
0.0999089095762 -0.0556869332064 0.885 2.34975850172e-38
0.101776244757 -0.0558127793831 0.887 2.34954172085e-38
0.103650982655 -0.0559386255599 0.889 2.35040870421e-38
0.105296236348 -0.0559386255599 0.889 2.35098323658e-38
0.106941490041 -0.0559386255599 0.889 2.35098828126e-38
0.0401079167979 -0.0551483855971 0.903 1.89702839517e-38
0.0416865460443 -0.0550262407785 0.901 1.90620914219e-38
0.0432096549187 -0.0548430235506 0.898 1.89684692702e-38
0.0448715647232 -0.0548430235506 0.898 1.94276691717e-38
0.0465334745278 -0.0548430235506 0.898 2.06247634173e-38
0.0480880449463 -0.054720878732 0.896 2.06287136777e-38
0.0494686515323 -0.0544155166855 0.891 2.02603039036e-38
0.0510028644811 -0.0542933718669 0.889 2.072126804e-38
0.0525296747135 -0.0541712270483 0.887 2.07198303078e-38
0.0540490822297 -0.0540490822297 0.885 2.18261848726e-38
0.0556869332064 -0.0540490822297 0.885 2.13648367805e-38
0.0571304628807 -0.0538658650018 0.882 2.32998730143e-38
0.0587627618202 -0.0538658650018 0.882 2.26552070571e-38
0.0602581105085 -0.0537437201832 0.88 2.23778942949e-38
0.0617460564805 -0.0536215753646 0.878 2.31147334612e-38
0.0633709527037 -0.0536215753646 0.878 2.34853278596e-38
0.0649958489268 -0.0536215753646 0.878 2.33945601528e-38
0.06662074515 -0.0536215753646 0.878 2.34828573704e-38
0.0682456413732 -0.0536215753646 0.878 2.34838873247e-38
0.0698705375964 -0.0536215753646 0.878 2.3484973331e-38
0.0712511441823 -0.0534383581368 0.875 2.34874956683e-38
0.0728704883683 -0.0534383581368 0.875 2.34860467257e-38
0.0744898325543 -0.0534383581368 0.875 2.34882089292e-38
0.0761091767402 -0.0534383581368 0.875 2.34867838087e-38
0.0777285209262 -0.0534383581368 0.875 2.34860509296e-38
0.0796199149354 -0.0536215753646 0.878 2.34903389029e-38
0.0812448111586 -0.0536215753646 0.878 2.34907088457e-38
0.0828697073817 -0.0536215753646 0.878 2.34889334005e-38
0.0844946036049 -0.0536215753646 0.878 2.34875040761e-38
0.0861194998281 -0.0536215753646 0.878 2.34907396742e-38
0.0879442693908 -0.0537437201832 0.88 2.34896606744e-38
0.0895728669721 -0.0537437201832 0.88 2.34907396742e-38
0.0912014645534 -0.0537437201832 0.88 2.34921718013e-38
0.0930410395486 -0.0538658650018 0.882 2.34939654633e-38
0.0946733384881 -0.0538658650018 0.882 2.34936249478e-38
0.0966332076229 -0.0540490822297 0.885 2.34950682852e-38
0.0982710585995 -0.0540490822297 0.885 2.34954326228e-38
0.100134692423 -0.0541712270483 0.887 2.34993954948e-38
0.102005728962 -0.0542933718669 0.889 2.34997318065e-38
0.103884168218 -0.0544155166855 0.891 2.35037339149e-38
0.105533123269 -0.0544155166855 0.891 2.35098786087e-38
0.0403299982863 -0.0537733310484 0.908 1.84177785919e-38
0.041917880928 -0.0536548875879 0.906 1.87844129208e-38
0.0434502431977 -0.0534772223972 0.903 1.90613683519e-38
0.0451214063976 -0.0534772223972 0.903 2.06269158118e-38
0.0466889315697 -0.0533587789368 0.901 2.04428734754e-38
0.0481953843324 -0.0531811137461 0.898 2.03531805646e-38
0.0497462533928 -0.0530626702856 0.896 2.03517596479e-38
0.0510028644811 -0.052648118174 0.889 2.15492308428e-38
0.052648118174 -0.052648118174 0.889 2.12726411506e-38
0.0541712270483 -0.0525296747135 0.887 2.20084279418e-38
0.0558127793831 -0.0525296747135 0.887 2.19194552984e-38
0.0573247841831 -0.0524112312531 0.885 2.20105593168e-38
0.0589626351597 -0.0524112312531 0.885 2.18247387326e-38
0.0603950607596 -0.0522335660624 0.882 2.30229161819e-38
0.0620273596991 -0.0522335660624 0.882 2.31161810025e-38
0.0635153056711 -0.0521151226019 0.88 2.2655225274e-38
0.0651439032524 -0.0521151226019 0.88 2.34874438202e-38
0.0667725008337 -0.0521151226019 0.88 2.33009295933e-38
0.068401098415 -0.0521151226019 0.88 2.34860116932e-38
0.0700296959964 -0.0521151226019 0.88 2.3487494267e-38
0.0714954338195 -0.0519966791415 0.878 2.34853222544e-38
0.0731203300427 -0.0519966791415 0.878 2.3484250261e-38
0.0747452262659 -0.0519966791415 0.878 2.34907228586e-38
0.076370122489 -0.0519966791415 0.878 2.34856921972e-38
0.0779950187122 -0.0519966791415 0.878 2.34903697314e-38
0.0796199149354 -0.0519966791415 0.878 2.34885732668e-38
0.0812448111586 -0.0519966791415 0.878 2.34896522666e-38
0.0828697073817 -0.0519966791415 0.878 2.34932395907e-38
0.0844946036049 -0.0519966791415 0.878 2.34903557184e-38
0.0863156718095 -0.0521151226019 0.88 2.34921619922e-38
0.0879442693908 -0.0521151226019 0.88 2.34893103498e-38
0.0895728669721 -0.0521151226019 0.88 2.34925459479e-38
0.0914087406092 -0.0522335660624 0.882 2.34921689987e-38
0.0933575056696 -0.0524112312531 0.885 2.34943143866e-38
0.0949953566462 -0.0524112312531 0.885 2.34936095335e-38
0.0968515877531 -0.0525296747135 0.887 2.34943480178e-38
0.0987152215763 -0.052648118174 0.889 2.34968829667e-38
0.100360475269 -0.052648118174 0.889 2.34972515082e-38
0.102235213167 -0.0527665616345 0.891 2.3502269558e-38
0.104233946562 -0.0529442268251 0.894 2.35033485578e-38
0.10588845365 -0.0529442268251 0.894 2.35098786087e-38
0.0420104148815 -0.0520929144531 0.908 1.91542842491e-38
0.0435945961652 -0.0519781723508 0.906 1.88766239649e-38
0.0452713114023 -0.0519781723508 0.906 1.95219961766e-38
0.0467925695976 -0.0518060591973 0.903 2.0167015261e-38
0.0481953843324 -0.0515192039415 0.898 2.00765992802e-38
0.0497462533928 -0.0514044618392 0.896 2.01673655856e-38
0.0514044618392 -0.0514044618392 0.896 2.18236443185e-38
0.052648118174 -0.0510028644811 0.889 2.10882302727e-38
0.0542933718669 -0.0510028644811 0.889 2.2008781069e-38
0.0558127793831 -0.0508881223787 0.887 2.14591834035e-38
0.0574543317179 -0.0508881223787 0.887 2.20105565142e-38
0.0590958840527 -0.0508881223787 0.887 2.28385221196e-38
0.0607374363875 -0.0508881223787 0.887 2.31151118118e-38
0.062238337113 -0.0507733802764 0.885 2.34871005021e-38
0.0638761880897 -0.0507733802764 0.885 2.24729611853e-38
0.0655140390664 -0.0507733802764 0.885 2.34889151836e-38
0.067151890043 -0.0507733802764 0.885 2.3115464939e-38
0.0687897410197 -0.0507733802764 0.885 2.34871285281e-38
0.0704275919963 -0.0507733802764 0.885 2.34867599866e-38
0.0718211533358 -0.0506012671229 0.882 2.3486771197e-38
0.0734534522752 -0.0506012671229 0.882 2.34896452601e-38
0.0749154887403 -0.0504865250206 0.88 2.34874844579e-38
0.0765440863216 -0.0504865250206 0.88 2.34885886811e-38
0.0781726839029 -0.0504865250206 0.88 2.34881977188e-38
0.0798012814842 -0.0504865250206 0.88 2.34878445916e-38
0.0814298790655 -0.0504865250206 0.88 2.34874984709e-38
0.0830584766468 -0.0504865250206 0.88 2.34900166042e-38
0.0846870742281 -0.0504865250206 0.88 2.34914417248e-38
0.0865118437908 -0.0506012671229 0.882 2.34917976546e-38
0.0881441427303 -0.0506012671229 0.882 2.34907368716e-38
0.0897764416697 -0.0506012671229 0.882 2.34907186548e-38
