# .PCD v0.7 - Point Cloud Data file format
VERSION 0.7
FIELDS x y z rgb
SIZE 4 4 4 4
TYPE F F F F
COUNT 1 1 1 1
WIDTH 845
HEIGHT 1
VIEWPOINT 0 0 0 1 0 0 0
POINTS 845
DATA ascii
0.00496352126486 -0.107542960739 0.894 2.04446573283e-38
0.00659582020431 -0.10718207832 0.891 2.16432019178e-38
0.00824477525538 -0.10718207832 0.891 2.09953508092e-38
0.00989373030646 -0.10718207832 0.891 2.21917303926e-38
0.0115167758506 -0.106941490041 0.889 2.17328934273e-38
0.0131620295435 -0.106941490041 0.889 2.24726136633e-38
0.0148072832364 -0.106941490041 0.889 2.22864203337e-38
0.0164525369294 -0.106941490041 0.889 2.31161838051e-38
0.0180977906223 -0.106941490041 0.889 2.26559091076e-38
0.0197430443153 -0.106941490041 0.889 2.2746675413e-38
0.0213882980082 -0.106941490041 0.889 2.32977234225e-38
0.0230853707151 -0.10718207832 0.891 2.34803238227e-38
0.0247343257662 -0.10718207832 0.891 2.34838943312e-38
0.0263832808172 -0.10718207832 0.891 2.34885536486e-38
0.0280322358683 -0.10718207832 0.891 2.34835384014e-38
0.0296811909194 -0.10718207832 0.891 2.34856978024e-38
0.0314356346774 -0.107542960739 0.894 2.34838915286e-38
0.0330901417657 -0.107542960739 0.894 2.34864068594e-38
0.0348223773749 -0.107783549018 0.896 2.34885522473e-38
0.0364805858214 -0.107783549018 0.896 2.34853320635e-38
0.0381387942678 -0.107783549018 0.896 2.34885690629e-38
0.0398858353096 -0.108024137297 0.898 2.34856781842e-38
0.0415477451141 -0.108024137297 0.898 2.34842418533e-38
0.0432096549187 -0.108024137297 0.898 2.34856669738e-38
0.0450214697279 -0.108385019715 0.901 2.34853600894e-38
0.0466889315697 -0.108385019715 0.901 2.34867655918e-38
0.0484637327975 -0.108625607994 0.903 2.34878347825e-38
0.0503014571137 -0.108986490413 0.906 2.34889081771e-38
-0.0222544158128 -0.109560200925 0.925 1.80493912386e-38
-0.0204981213757 -0.109323314004 0.923 1.86000594961e-38
-0.0186270848362 -0.10837576632 0.915 1.83259711217e-38
-0.0168966999061 -0.108138879399 0.913 1.91560877203e-38
-0.0151570615806 -0.107783549018 0.91 1.4730717105e-38
-0.0134433327621 -0.107546662097 0.908 1.70344587868e-38
-0.0117629161668 -0.107546662097 0.908 1.68519200437e-38
-0.0100602914227 -0.107309775176 0.906 1.6850137592e-38
-0.00838357618561 -0.107309775176 0.906 1.79553963415e-38
-0.00668465279965 -0.106954444794 0.903 1.89705978425e-38
-0.00500238552532 -0.106717557874 0.901 1.86011160751e-38
-0.00332381960913 -0.106362227492 0.898 1.96138414818e-38
-0.00166190980456 -0.106362227492 0.898 1.9429078878e-38
0.0 -0.106362227492 0.898 2.04436007493e-38
0.00165820844643 -0.106125340571 0.896 1.98925555425e-38
0.00331641689285 -0.106125340571 0.896 2.0813069905e-38
0.00496352126486 -0.10588845365 0.894 2.109002954e-38
0.00659582020431 -0.105533123269 0.891 2.07212428166e-38
0.00824477525538 -0.105533123269 0.891 2.16396286068e-38
0.00989373030646 -0.105533123269 0.891 2.1731821434e-38
0.0115426853575 -0.105533123269 0.891 2.22853609521e-38
0.0131620295435 -0.105296236348 0.889 2.21017165845e-38
0.0148072832364 -0.105296236348 0.889 2.18247387326e-38
0.0164525369294 -0.105296236348 0.889 2.22857140793e-38
0.0180977906223 -0.105296236348 0.889 2.25633575479e-38
0.0197874606129 -0.105533123269 0.891 2.25633743635e-38
0.021436415664 -0.105533123269 0.891 2.26534204015e-38
0.0230853707151 -0.105533123269 0.891 2.29285499407e-38
0.0247343257662 -0.105533123269 0.891 2.33906197016e-38
0.0263832808172 -0.105533123269 0.891 2.34860411205e-38
0.0280322358683 -0.105533123269 0.891 2.28392409857e-38
0.0297811275891 -0.10588845365 0.894 2.26559287258e-38
0.0314356346774 -0.10588845365 0.894 2.31176271425e-38
0.0330901417657 -0.10588845365 0.894 2.34860453244e-38
0.0348223773749 -0.106125340571 0.896 2.34860411205e-38
0.0364805858214 -0.106125340571 0.896 2.32984366834e-38
0.038223925505 -0.106362227492 0.898 2.34831852742e-38
0.0398858353096 -0.106362227492 0.898 2.32998491922e-38
0.0415477451141 -0.106362227492 0.898 2.34882215409e-38
0.0432096549187 -0.106362227492 0.898 2.34846131973e-38
0.0450214697279 -0.106717557874 0.901 2.34867922165e-38
0.0466889315697 -0.106717557874 0.901 2.3487494267e-38
0.0484637327975 -0.106954444794 0.903 2.34871411398e-38
0.0503014571137 -0.107309775176 0.906 2.34939682659e-38
-0.0222544158128 -0.107848322785 0.925 1.75905570759e-38
-0.0204981213757 -0.107615137222 0.923 1.90653354278e-38
-0.0186881572455 -0.107032173315 0.918 1.80504576267e-38
-0.0169337134875 -0.106682394971 0.915 1.90631984476e-38
-0.0151570615806 -0.106099431064 0.91 1.53757151699e-38
-0.0134433327621 -0.105866245501 0.908 1.75873495037e-38
-0.0117629161668 -0.105866245501 0.908 1.71281496022e-38
-0.0100602914227 -0.105633059939 0.906 1.74025911038e-38
-0.00838357618561 -0.105633059939 0.906 1.8694410323e-38
-0.00668465279965 -0.105283281595 0.903 1.89713405307e-38
-0.00500238552532 -0.105050096032 0.901 1.88770163285e-38
-0.00332381960913 -0.104700317688 0.898 1.94283726236e-38
-0.00166190980456 -0.104700317688 0.898 2.04425231508e-38
0.0 -0.104700317688 0.898 2.00744454844e-38
0.00165820844643 -0.104467132125 0.896 2.03517540427e-38
0.00331641689285 -0.104467132125 0.896 2.09042117584e-38
0.00496352126486 -0.104233946562 0.894 2.07191114416e-38
0.00661802835314 -0.104233946562 0.894 2.09978465218e-38
0.00824477525538 -0.103884168218 0.891 2.1271915278e-38
0.00989373030646 -0.103884168218 0.891 2.20091341962e-38
0.0115426853575 -0.103884168218 0.891 2.1457035213e-38
0.0131916404086 -0.103884168218 0.891 2.20098502597e-38
0.0148405954597 -0.103884168218 0.891 2.19165588145e-38
0.0164895505108 -0.103884168218 0.891 2.2470105339e-38
0.0181385055618 -0.103884168218 0.891 2.30236196337e-38
0.0197874606129 -0.103884168218 0.891 2.24697550144e-38
0.021436415664 -0.103884168218 0.891 2.26534232041e-38
0.0230853707151 -0.103884168218 0.891 2.30211309277e-38
0.0247343257662 -0.103884168218 0.891 2.29307177495e-38
0.0263832808172 -0.103884168218 0.891 2.31161810025e-38
0.0280322358683 -0.103884168218 0.891 2.33009295933e-38
0.0297811275891 -0.104233946562 0.894 2.29317897428e-38
0.0314356346774 -0.104233946562 0.894 2.33938440893e-38
0.0330901417657 -0.104233946562 0.894 2.33920448221e-38
0.0348223773749 -0.104467132125 0.896 2.34838943312e-38
0.0364805858214 -0.104467132125 0.896 2.34856921972e-38
0.038223925505 -0.104700317688 0.898 2.34867683944e-38
0.0398858353096 -0.104700317688 0.898 2.34864012542e-38
0.0415477451141 -0.104700317688 0.898 2.34867697957e-38
0.0432096549187 -0.104700317688 0.898 2.34846103947e-38
0.0450214697279 -0.105050096032 0.901 2.348606214e-38
0.0466889315697 -0.105050096032 0.901 2.34918256805e-38
0.0484637327975 -0.105283281595 0.903 2.34871369359e-38
0.0503014571137 -0.105633059939 0.906 2.34918368909e-38
-0.0223265922965 -0.106480670953 0.928 1.80504758436e-38
-0.0206091621199 -0.106480670953 0.928 1.81426588618e-38
-0.0187899445944 -0.105906960441 0.923 1.8234128619e-38
-0.0169337134875 -0.104989023622 0.915 1.91564380449e-38
-0.0151570615806 -0.104415313111 0.91 1.53757151699e-38
-0.0134433327621 -0.104185828906 0.908 1.62958946221e-38
-0.0117629161668 -0.104185828906 0.908 1.80476073856e-38
-0.0100602914227 -0.103956344702 0.906 1.77731476671e-38
-0.00838357618561 -0.103956344702 0.906 1.758875921e-38
-0.00668465279965 -0.103612118395 0.903 1.81404938556e-38
-0.00500238552532 -0.10338263419 0.901 1.86911635145e-38
-0.00333492368355 -0.10338263419 0.901 1.92443372936e-38
-0.00166190980456 -0.103038407883 0.898 2.00733790963e-38
0.0 -0.103038407883 0.898 2.04428608637e-38
0.00165820844643 -0.102808923678 0.896 2.01666467195e-38
0.00331641689285 -0.102808923678 0.896 2.08116630013e-38
0.00497462533928 -0.102808923678 0.896 2.01659404651e-38
0.00661802835314 -0.102579439474 0.894 2.21031206855e-38
0.00824477525538 -0.102235213167 0.891 2.17339500064e-38
0.00989373030646 -0.102235213167 0.891 2.13651843025e-38
0.0115426853575 -0.102235213167 0.891 2.17332283377e-38
0.0131916404086 -0.102235213167 0.891 2.2193521252e-38
0.0148405954597 -0.102235213167 0.891 2.21938687741e-38
0.0164895505108 -0.102235213167 0.891 2.19176378143e-38
0.0181385055618 -0.102235213167 0.891 2.30229105767e-38
0.0197874606129 -0.102235213167 0.891 2.26541238534e-38
0.021436415664 -0.102235213167 0.891 2.26534204015e-38
0.0230853707151 -0.102235213167 0.891 2.31147769014e-38
0.0247343257662 -0.102235213167 0.891 2.28392255714e-38
0.0263832808172 -0.102235213167 0.891 2.31161964168e-38
0.0280322358683 -0.102235213167 0.891 2.30221875067e-38
0.0297811275891 -0.102579439474 0.894 2.32058599003e-38
0.0314356346774 -0.102579439474 0.894 2.34845907766e-38
0.0330901417657 -0.102579439474 0.894 2.34870836865e-38
0.0348223773749 -0.102808923678 0.896 2.34853068401e-38
0.0364805858214 -0.102808923678 0.896 2.33909910456e-38
0.038223925505 -0.103038407883 0.898 2.34853502803e-38
0.0398858353096 -0.103038407883 0.898 2.34864068594e-38
0.0416865460443 -0.10338263419 0.901 2.34853502803e-38
0.0433540078861 -0.10338263419 0.901 2.34896326484e-38
0.0450214697279 -0.10338263419 0.901 2.34892641069e-38
0.0467925695976 -0.103612118395 0.903 2.3486048127e-38
0.0487320812626 -0.104185828906 0.908 2.34871299294e-38
0.0504124978578 -0.104185828906 0.908 2.34918144702e-38
-0.0206535784175 -0.104989023622 0.93 1.86933089024e-38
-0.0188306595339 -0.104424566506 0.925 1.89702447153e-38
-0.017026247441 -0.10386010939 0.92 1.89698915881e-38
-0.0152403421387 -0.103295652274 0.915 1.62983931373e-38
-0.0134433327621 -0.102505412311 0.908 1.67586678348e-38
-0.0117629161668 -0.102505412311 0.908 1.73096710026e-38
-0.0100824995716 -0.102505412311 0.908 1.7772081279e-38
-0.00838357618561 -0.102279629464 0.906 1.81412127217e-38
-0.00670686094849 -0.102279629464 0.906 1.8507848452e-38
-0.00501348959974 -0.101940955195 0.903 1.97056853857e-38
-0.00334232639983 -0.101940955195 0.903 1.94283726236e-38
-0.00166746184177 -0.101715172348 0.901 2.05347201819e-38
0.0 -0.101376498078 0.898 1.99840505231e-38
0.00166190980456 -0.101376498078 0.898 2.05347173793e-38
0.00331641689285 -0.101150715232 0.896 2.09024110899e-38
0.00497462533928 -0.101150715232 0.896 2.15488524922e-38
0.00661802835314 -0.100924932385 0.894 2.0903505504e-38
0.00824477525538 -0.100586258116 0.891 2.23778704728e-38
0.00989373030646 -0.100586258116 0.891 2.20112627686e-38
0.0115426853575 -0.100586258116 0.891 2.14577386648e-38
0.0131916404086 -0.100586258116 0.891 2.2469757817e-38
0.0148405954597 -0.100586258116 0.891 2.29317841376e-38
0.0164895505108 -0.100586258116 0.891 2.19179657181e-38
0.0181385055618 -0.100586258116 0.891 2.3299496065e-38
0.0198540850594 -0.100924932385 0.894 2.23778942949e-38
0.021436415664 -0.100586258116 0.891 2.28392381831e-38
0.0230853707151 -0.100586258116 0.891 2.27459691586e-38
0.0247343257662 -0.100586258116 0.891 2.33913385677e-38
0.0264721134126 -0.100924932385 0.894 2.34846075921e-38
0.0281266205009 -0.100924932385 0.894 2.34860299101e-38
0.0297811275891 -0.100924932385 0.894 2.34849509103e-38
0.0315059604821 -0.101150715232 0.896 2.33920420195e-38
0.0331641689285 -0.101150715232 0.896 2.34867782035e-38
0.0348223773749 -0.101150715232 0.896 2.34845851714e-38
0.0364805858214 -0.101150715232 0.896 2.34835860456e-38
0.038223925505 -0.101376498078 0.898 2.34846230064e-38
0.0398858353096 -0.101376498078 0.898 2.3486034114e-38
0.0416865460443 -0.101715172348 0.901 2.34874900631e-38
0.0433540078861 -0.101715172348 0.901 2.34864068594e-38
0.0450214697279 -0.101715172348 0.901 2.34856697764e-38
0.0467925695976 -0.101940955195 0.903 2.3491095604e-38
0.0487320812626 -0.102505412311 0.908 2.34853530829e-38
0.0504124978578 -0.102505412311 0.908 2.34932634128e-38
0.0522076565554 -0.102731195157 0.91 1.76809520372e-38
-0.017026247441 -0.102157484646 0.92 1.89716908553e-38
-0.0152403421387 -0.101602280925 0.915 1.27967290424e-38
-0.0134729436272 -0.101047077204 0.91 1.59339266171e-38
-0.0117629161668 -0.100824995716 0.908 1.78624944572e-38
-0.0100824995716 -0.100824995716 0.908 1.76806045152e-38
-0.00838357618561 -0.100602914227 0.906 1.81426560592e-38
-0.00670686094849 -0.100602914227 0.906 1.87858604621e-38
-0.00501348959974 -0.100269791995 0.903 1.92457666181e-38
-0.00334232639983 -0.100269791995 0.903 1.8967750404e-38
-0.00166746184177 -0.100047710506 0.901 2.06269158118e-38
0.0 -0.0997145882739 0.898 1.97063916402e-38
0.00166190980456 -0.0997145882739 0.898 2.07198303078e-38
0.00332381960913 -0.0997145882739 0.898 2.0904186535e-38
0.00497462533928 -0.0994925067855 0.896 2.15488496896e-38
0.0066328337857 -0.0994925067855 0.896 2.11797224508e-38
0.00827253544143 -0.0992704252972 0.894 2.12708362782e-38
0.00992704252972 -0.0992704252972 0.894 2.23775621872e-38
0.011581549618 -0.0992704252972 0.894 2.20105537116e-38
0.0132360567063 -0.0992704252972 0.894 2.20094873234e-38
0.0148905637946 -0.0992704252972 0.894 2.21009528768e-38
0.0165450708829 -0.0992704252972 0.894 2.28374515276e-38
0.0181995779711 -0.0992704252972 0.894 2.30232819208e-38
0.0198540850594 -0.0992704252972 0.894 2.20098404506e-38
0.0215085921477 -0.0992704252972 0.894 2.29310806858e-38
0.023163099236 -0.0992704252972 0.894 2.34864040568e-38
0.0248176063243 -0.0992704252972 0.894 2.24683130783e-38
0.0264721134126 -0.0992704252972 0.894 2.33902693769e-38
0.0281266205009 -0.0992704252972 0.894 2.30232665065e-38
0.0297811275891 -0.0992704252972 0.894 2.3115464939e-38
0.0315059604821 -0.0994925067855 0.896 2.34860453244e-38
0.0331641689285 -0.0994925067855 0.896 2.34831852742e-38
0.0348223773749 -0.0994925067855 0.896 2.33916944975e-38
0.0365620157004 -0.0997145882739 0.898 2.34842418533e-38
0.038223925505 -0.0997145882739 0.898 2.34853362674e-38
0.0400190842026 -0.100047710506 0.901 2.34871285281e-38
0.0417790799978 -0.100269791995 0.903 2.3487494267e-38
0.0434502431977 -0.100269791995 0.903 2.34874886618e-38
0.0451214063976 -0.100269791995 0.903 2.34860537322e-38
0.0469480266394 -0.100602914227 0.906 2.34846145986e-38
0.0487320812626 -0.100824995716 0.908 2.34864222737e-38
0.0504124978578 -0.100824995716 0.908 2.34882145344e-38
0.0522076565554 -0.101047077204 0.91 1.65763070565e-38
-0.0188917319432 -0.101328380423 0.928 1.87879862319e-38
-0.017026247441 -0.100454859902 0.92 1.91568065864e-38
-0.0152903104736 -0.100236479772 0.918 6.89950038128e-39
-0.0134729436272 -0.0993629592506 0.91 1.65854126939e-38
-0.0117888256738 -0.0993629592506 0.91 1.72192760413e-38
-0.0100824995716 -0.0991445791204 0.908 1.72189257167e-38
-0.00840208297631 -0.0991445791204 0.908 1.82327189128e-38
-0.00670686094849 -0.0989261989902 0.906 1.90613851674e-38
-0.00503014571137 -0.0989261989902 0.906 1.87840752078e-38
-0.00334232639983 -0.0985986287949 0.903 2.10871736937e-38
-0.00166746184177 -0.0983802486646 0.901 2.01673445661e-38
0.0 -0.0983802486646 0.901 1.99840505231e-38
0.00166190980456 -0.0980526784693 0.898 2.05361803349e-38
0.00332381960913 -0.0980526784693 0.898 2.08127349946e-38
0.00498572941369 -0.0980526784693 0.898 2.1271915278e-38
0.0066328337857 -0.0978342983391 0.896 2.13641151118e-38
0.00827253544143 -0.0976159182089 0.894 2.18261638531e-38
0.00992704252972 -0.0976159182089 0.894 2.15485245884e-38
0.011581549618 -0.0976159182089 0.894 2.16403474729e-38
0.0132360567063 -0.0976159182089 0.894 2.29325156154e-38
0.0148905637946 -0.0976159182089 0.894 2.19172846871e-38
0.0165450708829 -0.0976159182089 0.894 2.25623065741e-38
0.0181995779711 -0.0976159182089 0.894 2.26545190195e-38
0.0198540850594 -0.0976159182089 0.894 2.34838915286e-38
0.0215085921477 -0.0976159182089 0.894 2.26530728795e-38
0.023163099236 -0.0976159182089 0.894 2.34856893946e-38
0.0248176063243 -0.0976159182089 0.894 2.30218371821e-38
0.0264721134126 -0.0976159182089 0.894 2.34856851907e-38
0.0281266205009 -0.0976159182089 0.894 2.33916916949e-38
0.0298477520357 -0.0978342983391 0.896 2.34853474777e-38
0.0315059604821 -0.0978342983391 0.896 2.33938440893e-38
0.0331641689285 -0.0978342983391 0.896 2.31151118118e-38
0.0349001058959 -0.0980526784693 0.898 2.34885746681e-38
0.0365620157004 -0.0980526784693 0.898 2.34867277567e-38
0.0383516223608 -0.0983802486646 0.901 2.32995226897e-38
0.0400190842026 -0.0983802486646 0.901 2.34831950833e-38
0.0417790799978 -0.0985986287949 0.903 2.34849859427e-38
0.0434502431977 -0.0985986287949 0.903 2.34864152672e-38
0.0451214063976 -0.0985986287949 0.903 2.34874984709e-38
0.0469480266394 -0.0989261989902 0.906 2.3487855802e-38
0.0487320812626 -0.0991445791204 0.908 2.3493630553e-38
0.0504124978578 -0.0991445791204 0.908 2.18315756678e-38
-0.0188917319432 -0.099610950246 0.928 1.92461197453e-38
-0.0170817678131 -0.0990742533158 0.923 1.97107076394e-38
-0.0153236226969 -0.0987522351576 0.92 3.58445420942e-39
-0.0134729436272 -0.0976788412972 0.91 1.67719913806e-38
-0.0117888256738 -0.0976788412972 0.91 1.70374001123e-38
-0.0100824995716 -0.0974641625252 0.908 1.74951566765e-38
-0.00840208297631 -0.0974641625252 0.908 1.80479605128e-38
-0.00670686094849 -0.0972494837531 0.906 1.8416018561e-38
-0.00503014571137 -0.0972494837531 0.906 1.95205738586e-38
-0.00335343047424 -0.0972494837531 0.906 1.9152161282e-38
-0.00167116319991 -0.096927465595 0.903 1.97053322585e-38
0.0 -0.096927465595 0.903 2.05368711751e-38
0.00166746184177 -0.0967127868229 0.901 2.09985527762e-38
0.00332381960913 -0.0963907686647 0.898 2.0812732192e-38
0.00498572941369 -0.0963907686647 0.898 2.08120133259e-38
0.0066328337857 -0.0961760898927 0.896 2.16417908103e-38
0.00829104223213 -0.0961760898927 0.896 2.10900449542e-38
0.00994925067855 -0.0961760898927 0.896 2.16428656062e-38
0.011607459125 -0.0961760898927 0.896 2.19180049545e-38
0.0132656675714 -0.0961760898927 0.896 2.22871462063e-38
0.0149238760178 -0.0961760898927 0.896 2.21942190987e-38
0.0165820844643 -0.0961760898927 0.896 2.22885713269e-38
0.0182402929107 -0.0961760898927 0.896 2.25637274907e-38
0.0198985013571 -0.0961760898927 0.896 2.27470229351e-38
0.0215567098035 -0.0961760898927 0.896 2.27456006171e-38
0.02321491825 -0.0961760898927 0.896 2.31129636212e-38
0.0248731266964 -0.0961760898927 0.896 2.34839055416e-38
0.0265313351428 -0.0961760898927 0.896 2.29324875894e-38
0.0281895435892 -0.0961760898927 0.896 2.33916916949e-38
0.0298477520357 -0.0961760898927 0.896 2.28388724442e-38
0.0315059604821 -0.0961760898927 0.896 2.34856809868e-38
0.0332381960913 -0.0963907686647 0.898 2.34863998529e-38
0.0349001058959 -0.0963907686647 0.898 2.34842740831e-38
0.036684160519 -0.0967127868229 0.901 2.34853278596e-38
0.0383516223608 -0.0967127868229 0.901 2.3486048127e-38
0.0401079167979 -0.096927465595 0.903 2.34853474777e-38
0.041917880928 -0.0972494837531 0.906 2.34867683944e-38
0.0435945961652 -0.0972494837531 0.906 2.34892865277e-38
0.0452713114023 -0.0972494837531 0.906 2.34871369359e-38
0.0470516646673 -0.0974641625252 0.908 2.34878389864e-38
0.0488394206486 -0.0976788412972 0.91 2.34932592089e-38
0.050523538602 -0.0976788412972 0.91 1.45538410089e-38
-0.0171187813945 -0.0975770539484 0.925 1.98943730266e-38
-0.0153735910318 -0.0973660765345 0.923 6.9945644691e-39
-0.01354697079 -0.0965221668787 0.915 1.30866002415e-38
-0.0118276899343 -0.0963111894648 0.913 1.7683495394e-38
-0.0101047077204 -0.0959947233438 0.91 1.80486905893e-38
-0.00840208297631 -0.0957837459299 0.908 1.79575487359e-38
-0.00670686094849 -0.095572768516 0.906 1.8506064599e-38
-0.00503014571137 -0.095572768516 0.906 1.90581635823e-38
-0.00335343047424 -0.095572768516 0.906 1.9521993374e-38
-0.00167671523712 -0.095572768516 0.906 1.97060357104e-38
0.0 -0.095256302395 0.903 2.04425049339e-38
0.00167116319991 -0.095256302395 0.903 2.04457321242e-38
0.00333492368355 -0.0950453249811 0.901 2.08131273582e-38
0.00500238552532 -0.0950453249811 0.901 2.09034802806e-38
0.00664763921826 -0.0947288588602 0.898 2.12726411506e-38
0.00829104223213 -0.0945178814462 0.896 2.14588330789e-38
0.00994925067855 -0.0945178814462 0.896 2.18254575987e-38
0.011607459125 -0.0945178814462 0.896 2.24701109442e-38
0.0132656675714 -0.0945178814462 0.896 2.2101695565e-38
0.0149238760178 -0.0945178814462 0.896 2.25630100259e-38
0.0165820844643 -0.0945178814462 0.896 2.26566419867e-38
0.0182402929107 -0.0945178814462 0.896 2.24711773324e-38
0.0198985013571 -0.0945178814462 0.896 2.24711619181e-38
0.0215567098035 -0.0945178814462 0.896 2.34842544649e-38
0.02321491825 -0.0945178814462 0.896 2.34835538157e-38
0.0248731266964 -0.0945178814462 0.896 2.2931433813e-38
0.0265313351428 -0.0945178814462 0.896 2.32090968998e-38
0.0281895435892 -0.0945178814462 0.896 2.34839069429e-38
0.0299143764822 -0.0947288588602 0.898 2.3486409662e-38
0.0315762862867 -0.0947288588602 0.898 2.3483888726e-38
0.0332381960913 -0.0947288588602 0.898 2.34810216694e-38
0.0349001058959 -0.0947288588602 0.898 2.34817587524e-38
0.036684160519 -0.0950453249811 0.901 2.3486048127e-38
0.038436753598 -0.095256302395 0.903 2.34860467257e-38
0.0402411656909 -0.095572768516 0.906 2.34896508653e-38
0.041917880928 -0.095572768516 0.906 2.34874704449e-38
0.0435945961652 -0.095572768516 0.906 2.34871271268e-38
0.0453712480721 -0.0957837459299 0.908 2.3488564859e-38
0.0470516646673 -0.0957837459299 0.908 2.3492517922e-38
0.0488394206486 -0.0959947233438 0.91 1.89749124405e-38
0.050523538602 -0.0959947233438 0.91 1.4658164877e-38
-0.0171187813945 -0.095865175809 0.925 2.03560896602e-38
-0.0153735910318 -0.0956578997532 0.923 9.39017948215e-39
-0.01354697079 -0.0948287955299 0.915 7.28442866164e-39
-0.0118276899343 -0.0946215194741 0.913 1.60307493345e-38
-0.0101047077204 -0.0943106053904 0.91 1.81459210846e-38
-0.00840208297631 -0.0941033293346 0.908 1.89716936579e-38
-0.00672166638105 -0.0941033293346 0.908 1.89691895376e-38
-0.00504124978578 -0.0941033293346 0.908 1.8967750404e-38
-0.00335343047424 -0.0938960532788 0.906 1.98907857025e-38
-0.00167671523712 -0.0938960532788 0.906 2.03507170819e-38
0.0 -0.0938960532788 0.906 2.0349961782e-38
0.00167116319991 -0.0935851391951 0.903 2.07223218164e-38
0.00334232639983 -0.0935851391951 0.903 1.98900822507e-38
0.00500238552532 -0.0933778631393 0.901 2.16406977975e-38
0.00664763921826 -0.0930669490556 0.898 2.18257953116e-38
0.00830954902282 -0.0930669490556 0.898 2.11811685908e-38
0.00997145882739 -0.0930669490556 0.898 2.1548151843e-38
0.011633368632 -0.0930669490556 0.898 2.26537581145e-38
0.0132656675714 -0.0928596729998 0.896 2.20098348454e-38
0.0149238760178 -0.0928596729998 0.896 2.22860672065e-38
0.0165820844643 -0.0928596729998 0.896 2.2655225274e-38
0.0182402929107 -0.0928596729998 0.896 2.33012981348e-38
0.0198985013571 -0.0928596729998 0.896 2.23789662882e-38
0.0215567098035 -0.0928596729998 0.896 2.26552224714e-38
0.02321491825 -0.0928596729998 0.896 2.34867768022e-38
0.0248731266964 -0.0928596729998 0.896 2.26562566296e-38
0.0265313351428 -0.0928596729998 0.896 2.34845935792e-38
0.0281895435892 -0.0928596729998 0.896 2.3484639822e-38
0.0299143764822 -0.0930669490556 0.898 2.31161810025e-38
0.0315762862867 -0.0930669490556 0.898 2.34838957325e-38
0.0332381960913 -0.0930669490556 0.898 2.34857216244e-38
0.0349001058959 -0.0930669490556 0.898 2.34842418533e-38
0.0367655903981 -0.0935851391951 0.903 2.34874732475e-38
0.038436753598 -0.0935851391951 0.903 2.34893047446e-38
0.0402411656909 -0.0938960532788 0.906 2.34842432545e-38
0.041917880928 -0.0938960532788 0.906 2.34896270432e-38
0.0436908314768 -0.0941033293346 0.908 2.34875096813e-38
0.0453712480721 -0.0941033293346 0.908 2.34896648783e-38
0.0471553026952 -0.0943106053904 0.91 2.00798390822e-38
0.0488394206486 -0.0943106053904 0.91 1.55797484302e-38
0.050523538602 -0.0943106053904 0.91 1.26406538208e-38
-0.0153735910318 -0.0939497229719 0.923 8.19380690525e-39
-0.0135913870877 -0.0934407862277 0.918 7.65786068939e-39
-0.0118535994412 -0.0931354241812 0.915 9.13189214921e-39
-0.0101380199437 -0.0929318494835 0.913 1.54811502677e-38
-0.008420589767 -0.092626487437 0.91 1.86061957821e-38
-0.00672166638105 -0.0924229127394 0.908 1.91564352423e-38
-0.00504124978578 -0.0924229127394 0.908 1.96163442009e-38
-0.00335343047424 -0.0922193380417 0.906 1.97993033336e-38
-0.00167671523712 -0.0922193380417 0.906 2.00744665039e-38
0.0 -0.0922193380417 0.906 2.05343670547e-38
0.00167116319991 -0.0919139759952 0.903 2.07212624348e-38
0.00334232639983 -0.0919139759952 0.903 2.16417767973e-38
0.00501348959974 -0.0919139759952 0.903 2.10882302727e-38
0.00666984736709 -0.0917104012975 0.901 2.10889757635e-38
0.00830954902282 -0.0914050392511 0.898 2.1548874913e-38
0.00997145882739 -0.0914050392511 0.898 2.16396412184e-38
0.011633368632 -0.0914050392511 0.898 2.2837448725e-38
0.0132952784365 -0.0914050392511 0.898 2.26534204015e-38
0.0149571882411 -0.0914050392511 0.898 2.33016428543e-38
0.0166190980456 -0.0914050392511 0.898 2.23786580026e-38
0.0182810078502 -0.0914050392511 0.898 2.22860672065e-38
0.0198985013571 -0.0912014645534 0.896 2.33938440893e-38
0.0215567098035 -0.0912014645534 0.896 2.22860700091e-38
0.02321491825 -0.0912014645534 0.896 2.33002233389e-38
0.0249286470685 -0.0914050392511 0.898 2.30243384999e-38
0.026590556873 -0.0914050392511 0.898 2.34864040568e-38
0.0282524666776 -0.0914050392511 0.898 2.34853236557e-38
0.0299143764822 -0.0914050392511 0.898 2.34845725597e-38
0.0315762862867 -0.0914050392511 0.898 2.34820866562e-38
0.0333492368355 -0.0917104012975 0.901 2.34871369359e-38
0.0350166986772 -0.0917104012975 0.901 2.3487466241e-38
0.0367655903981 -0.0919139759952 0.903 2.34863928464e-38
0.0385644504538 -0.0922193380417 0.906 2.34874788527e-38
0.0402411656909 -0.0922193380417 0.906 2.34871201203e-38
0.041917880928 -0.0922193380417 0.906 2.34885578525e-38
0.0436908314768 -0.0924229127394 0.908 2.34881851071e-38
0.0453712480721 -0.0924229127394 0.908 1.93472780801e-38
0.0471553026952 -0.092626487437 0.91 1.5673018856e-38
0.0488394206486 -0.092626487437 0.91 1.29175952389e-38
-0.0171187813945 -0.0924414195301 0.925 1.99865812681e-38
-0.0153735910318 -0.0922415461905 0.923 7.54916477011e-39
-0.0135913870877 -0.0917418628417 0.918 8.12026676184e-39
-0.0118924637017 -0.0917418628417 0.918 7.66037181624e-39
-0.0101602280925 -0.0914420528324 0.915 9.13332707884e-39
-0.008420589767 -0.0909423694836 0.91 1.39156014065e-38
-0.00672166638105 -0.0907424961441 0.908 1.71342830855e-38
-0.00504124978578 -0.0907424961441 0.908 1.90682249052e-38
-0.00336083319052 -0.0907424961441 0.908 1.93401272541e-38
-0.00167671523712 -0.0905426228046 0.906 2.04439538765e-38
0.0 -0.0905426228046 0.906 2.05379431684e-38
0.00167671523712 -0.0905426228046 0.906 2.03531833672e-38
0.00334232639983 -0.0902428127953 0.903 2.15492280402e-38
0.00501348959974 -0.0902428127953 0.903 2.16406795806e-38
0.00666984736709 -0.0900429394558 0.901 2.13648213662e-38
0.00830954902282 -0.0897431294465 0.898 2.17325403001e-38
0.00997145882739 -0.0897431294465 0.898 2.2283956851e-38
0.011633368632 -0.0897431294465 0.898 2.28377990496e-38
0.0132952784365 -0.0897431294465 0.898 2.21920933289e-38
0.0149571882411 -0.0897431294465 0.898 2.28395913103e-38
0.0166190980456 -0.0897431294465 0.898 2.26530546626e-38
0.0182810078502 -0.0897431294465 0.898 2.33916790832e-38
0.0199429176548 -0.0897431294465 0.898 2.23782628364e-38
0.0216048274593 -0.0897431294465 0.898 2.32991247209e-38
0.0232667372639 -0.0897431294465 0.898 2.2838519317e-38
0.0249286470685 -0.0897431294465 0.898 2.34846075921e-38
0.026590556873 -0.0897431294465 0.898 2.31161810025e-38
0.0282524666776 -0.0897431294465 0.898 2.28403199855e-38
0.0300143131519 -0.0900429394558 0.901 2.34881851071e-38
0.0316817749937 -0.0900429394558 0.901 2.34860635413e-38
0.0333492368355 -0.0900429394558 0.901 2.34849509103e-38
0.0350944271982 -0.0902428127953 0.903 2.34856655725e-38
0.0368877352167 -0.0905426228046 0.906 2.34863970503e-38
0.0385644504538 -0.0905426228046 0.906 2.34882075279e-38
0.0402411656909 -0.0905426228046 0.906 2.34882089292e-38
0.0420104148815 -0.0907424961441 0.908 2.08188082222e-38
0.0436908314768 -0.0907424961441 0.908 1.70463431991e-38
0.0453712480721 -0.0907424961441 0.908 1.4294051484e-38
0.0471553026952 -0.0909423694836 0.91 1.15393453317e-38
-0.0171187813945 -0.0907295413906 0.925 1.98032718108e-38
-0.015406903255 -0.0907295413906 0.925 7.36692870742e-39
-0.0136654142505 -0.0905333694092 0.923 7.19904194101e-39
-0.0118924637017 -0.0900429394558 0.918 6.64731149925e-39
-0.0101935403157 -0.0900429394558 0.918 7.57284110897e-39
-0.00844834995305 -0.0895525095023 0.913 8.76742002383e-39
-0.0067364718136 -0.0892582515302 0.91 1.13431187051e-38
-0.00504124978578 -0.0890620795488 0.908 1.43762418429e-38
-0.00336083319052 -0.0890620795488 0.908 1.81458930586e-38
-0.00168041659526 -0.0890620795488 0.908 1.95280666015e-38
0.0 -0.0888659075675 0.906 2.04489523081e-38
0.00167671523712 -0.0888659075675 0.906 2.08162928914e-38
0.00335343047424 -0.0888659075675 0.906 2.10886226363e-38
0.00503014571137 -0.0888659075675 0.906 2.20084069223e-38
0.00668465279965 -0.0885716495954 0.903 2.19176546299e-38
0.00833730920887 -0.088375477614 0.901 2.1825792509e-38
0.0100047710506 -0.088375477614 0.901 2.21927995833e-38
0.0116722328924 -0.088375477614 0.901 2.24704584662e-38
0.0132952784365 -0.0880812196419 0.898 2.21945974493e-38
0.0149571882411 -0.0880812196419 0.898 2.29317897428e-38
0.0166190980456 -0.0880812196419 0.898 2.31133293601e-38
0.0182810078502 -0.0880812196419 0.898 2.30218343795e-38
0.0199429176548 -0.0880812196419 0.898 2.34821132809e-38
0.0216048274593 -0.0880812196419 0.898 2.34864012542e-38
0.0232667372639 -0.0880812196419 0.898 2.28388850559e-38
0.0249286470685 -0.0880812196419 0.898 2.33005918804e-38
0.026590556873 -0.0880812196419 0.898 2.34849649233e-38
0.0283468513102 -0.088375477614 0.901 2.33931378349e-38
0.0300143131519 -0.088375477614 0.901 2.34907004379e-38
0.0317521007983 -0.0885716495954 0.903 2.34860285088e-38
0.0334232639983 -0.0885716495954 0.903 2.34885396356e-38
0.0350944271982 -0.0885716495954 0.903 2.33956167319e-38
0.0368877352167 -0.0888659075675 0.906 2.27528060938e-38
0.0385644504538 -0.0888659075675 0.906 2.05436478544e-38
0.0403299982863 -0.0890620795488 0.908 1.76924006457e-38
0.0420104148815 -0.0890620795488 0.908 1.49369209766e-38
0.0437870667884 -0.0892582515302 0.91 1.31959715866e-38
0.0456210897465 -0.0895525095023 0.913 1.00656726043e-38
0.0473107597371 -0.0895525095023 0.913 1.07124671339e-38
-0.0207646191617 -0.0899800163674 0.935 1.78649929724e-38
-0.0190342342316 -0.0899800163674 0.935 1.85110279982e-38
-0.0171743017665 -0.089306369186 0.928 1.89738586641e-38
-0.0154568715899 -0.089306369186 0.928 8.10484126835e-39
-0.0136950251156 -0.0890176632512 0.925 7.38271293333e-39
-0.0119572374691 -0.0888251926279 0.923 7.56817758768e-39
-0.0101935403157 -0.0883440160698 0.918 6.18885148327e-39
-0.00846685674374 -0.0880553101349 0.915 6.74273431948e-39
-0.00675867996244 -0.0878628395117 0.913 6.92999263586e-39
-0.0050523538602 -0.0875741335768 0.91 8.76742002383e-39
-0.00336083319052 -0.0873816629536 0.908 1.23536678953e-38
-0.00168041659526 -0.0873816629536 0.908 1.45620301972e-38
0.0 -0.0873816629536 0.908 1.64013871731e-38
0.00168041659526 -0.0873816629536 0.908 1.8609359914e-38
0.00335343047424 -0.0871891923303 0.906 1.99876252355e-38
0.00503014571137 -0.0871891923303 0.906 2.072448402e-38
0.00668465279965 -0.0869004863955 0.903 2.10010484888e-38
0.00833730920887 -0.0867080157722 0.901 2.12773046719e-38
0.0100047710506 -0.0867080157722 0.901 2.22878790854e-38
0.0116722328924 -0.0867080157722 0.901 2.23818599695e-38
0.0132952784365 -0.0864193098374 0.898 2.20130760488e-38
0.0149571882411 -0.0864193098374 0.898 2.24729765996e-38
0.0166190980456 -0.0864193098374 0.898 2.34875096813e-38
0.0182810078502 -0.0864193098374 0.898 2.3023635048e-38
0.0199429176548 -0.0864193098374 0.898 2.31161838051e-38
0.0216048274593 -0.0864193098374 0.898 2.34860439231e-38
0.0232667372639 -0.0864193098374 0.898 2.28406829218e-38
0.0250119276266 -0.0867080157722 0.901 2.33024093645e-38
0.0266793894684 -0.0867080157722 0.901 2.33956587708e-38
0.0283468513102 -0.0867080157722 0.901 2.32104869879e-38
0.0300809375984 -0.0869004863955 0.903 2.25680322796e-38
0.0317521007983 -0.0869004863955 0.903 2.12794332443e-38
0.0334232639983 -0.0869004863955 0.903 2.08209634192e-38
0.0352110199796 -0.0871891923303 0.906 1.87969335225e-38
0.0368877352167 -0.0871891923303 0.906 1.53928754709e-38
0.038649581691 -0.0873816629536 0.908 1.46631871307e-38
0.0403299982863 -0.0873816629536 0.908 1.218147634e-38
0.042102948835 -0.0875741335768 0.91 8.41227494103e-39
0.0439314197559 -0.0878628395117 0.913 9.42641145525e-39
0.0456210897465 -0.0878628395117 0.913 9.15018750196e-39
0.0473107597371 -0.0878628395117 0.913 9.79195977785e-39
-0.0207646191617 -0.0882496314373 0.935 1.82319608103e-38
-0.0190342342316 -0.0882496314373 0.935 1.82337572749e-38
-0.0172113153479 -0.0877777082745 0.93 1.92511700249e-38
-0.0154568715899 -0.0875889390094 0.928 8.10304760632e-39
-0.0137394414132 -0.0875889390094 0.928 7.56530772842e-39
-0.0119831469761 -0.0873057851117 0.925 7.01429475147e-39
-0.0102490606878 -0.0871170158466 0.923 6.73950572781e-39
-0.00849461692979 -0.0866450926839 0.918 7.01931700517e-39
-0.006773485395 -0.0863619387862 0.915 6.09952711396e-39
-0.00506900997183 -0.0861731695211 0.913 6.83708094248e-39
-0.0033682359068 -0.0858900156234 0.91 7.39024631387e-39
-0.0016841179534 -0.0858900156234 0.91 8.95683073466e-39
0.0 -0.0857012463583 0.908 9.22803243425e-39
0.00168041659526 -0.0857012463583 0.908 1.34603699822e-38
0.00336083319052 -0.0857012463583 0.908 1.38262756359e-38
0.00504124978578 -0.0857012463583 0.908 1.50223553414e-38
0.00670686094849 -0.0855124770932 0.906 1.60379393969e-38
0.00835581599956 -0.0852293231956 0.903 1.72325393313e-38
0.0100047710506 -0.0850405539305 0.901 1.8979567554e-38
0.0116722328924 -0.0850405539305 0.901 1.90696304076e-38
0.0133396947342 -0.0850405539305 0.901 1.98986736116e-38
0.015007156576 -0.0850405539305 0.901 2.02667358636e-38
0.0166746184177 -0.0850405539305 0.901 2.09121052726e-38
0.0183420802595 -0.0850405539305 0.901 1.98983204843e-38
0.0200095421013 -0.0850405539305 0.901 2.03592944298e-38
0.0216770039431 -0.0850405539305 0.901 2.05440388167e-38
0.0233444657848 -0.0850405539305 0.901 1.98068297076e-38
0.0250674479987 -0.0852293231956 0.903 1.92547447373e-38
0.0267386111986 -0.0852293231956 0.903 1.81527131782e-38
0.0284097743985 -0.0852293231956 0.903 1.77860760467e-38
0.0301808742682 -0.0855124770932 0.906 1.67751078684e-38
0.0318575895053 -0.0855124770932 0.906 1.4842599577e-38
0.0335343047424 -0.0855124770932 0.906 1.44780812088e-38
0.0352110199796 -0.0855124770932 0.906 1.20864122522e-38
0.0369691650957 -0.0857012463583 0.908 1.07095972746e-38
0.038649581691 -0.0857012463583 0.908 9.88415400641e-39
0.0403299982863 -0.0857012463583 0.908 8.50554536682e-39
0.042102948835 -0.0858900156234 0.91 8.59917452501e-39
0.0439314197559 -0.0861731695211 0.913 9.2413055333e-39
0.0456210897465 -0.0861731695211 0.913 9.51860568381e-39
0.0473107597371 -0.0861731695211 0.913 9.79447090469e-39
-0.0208312436082 -0.0867968483676 0.938 1.82316104857e-38
-0.0190342342316 -0.0865192465071 0.935 1.77724316036e-38
-0.01726683572 -0.0863341786002 0.933 1.97110607667e-38
-0.0154901838131 -0.0860565767397 0.93 8.28707733104e-39
-0.0137690522784 -0.0860565767397 0.93 7.84224914652e-39
-0.0120220112366 -0.0858715088327 0.928 7.29051870476e-39
-0.0102712688367 -0.0855939069723 0.925 7.75292477721e-39
-0.00849461692979 -0.0849461692979 0.918 6.74274272727e-39
-0.00679569354383 -0.0849461692979 0.918 6.19243880734e-39
-0.00508011404625 -0.0846685674374 0.915 6.83887460452e-39
-0.00337933998122 -0.0844834995305 0.913 6.92999263586e-39
-0.0016841179534 -0.08420589767 0.91 7.02362179405e-39
0.0 -0.0840208297631 0.908 7.02398052646e-39
0.00168041659526 -0.0840208297631 0.908 6.74703910836e-39
0.00336083319052 -0.0840208297631 0.908 8.2221467654e-39
0.00504124978578 -0.0840208297631 0.908 8.49729452146e-39
0.00670686094849 -0.0838357618561 0.906 8.21963563855e-39
0.00835581599956 -0.0835581599956 0.903 9.78370893249e-39
0.0100269791995 -0.0835581599956 0.903 1.02414514837e-38
0.0116981423994 -0.0835581599956 0.903 1.25424129893e-38
0.0133396947342 -0.0833730920887 0.901 1.2633837905e-38
0.015007156576 -0.0833730920887 0.901 1.25391325496e-38
0.0166746184177 -0.0833730920887 0.901 1.36447458276e-38
0.0183420802595 -0.0833730920887 0.901 1.38302104819e-38
0.0200095421013 -0.0833730920887 0.901 1.37380162534e-38
0.0216770039431 -0.0833730920887 0.901 1.35543452611e-38
0.0233444657848 -0.0833730920887 0.901 1.32802737022e-38
0.0250674479987 -0.0835581599956 0.903 1.30969614423e-38
0.0267386111986 -0.0835581599956 0.903 1.03350806418e-38
0.0284097743985 -0.0835581599956 0.903 1.03411790928e-38
0.0301808742682 -0.0838357618561 0.906 1.00656726043e-38
0.0318575895053 -0.0838357618561 0.906 8.96149425595e-39
0.0335343047424 -0.0838357618561 0.906 8.04170436474e-39
0.0352110199796 -0.0838357618561 0.906 9.05584087895e-39
0.0369691650957 -0.0840208297631 0.908 7.58360308117e-39
0.038649581691 -0.0840208297631 0.908 1.01654058186e-38
0.0403299982863 -0.0840208297631 0.908 8.22824521631e-39
0.042102948835 -0.08420589767 0.91 9.33421722668e-39
0.0440276550675 -0.0846685674374 0.915 9.15090496677e-39
0.0457210264162 -0.0846685674374 0.915 9.15018750196e-39
0.047414397765 -0.0846685674374 0.915 1.01610954245e-38
-0.0172113153479 -0.0843354452049 0.93 2.0263531094e-38
-0.0154901838131 -0.0843354452049 0.93 8.93243693099e-39
-0.0137394414132 -0.0841540786561 0.928 7.19760701138e-39
-0.0120220112366 -0.0841540786561 0.928 7.29195363439e-39
-0.0102712688367 -0.0838820288328 0.925 6.92532911457e-39
-0.00854088390653 -0.083700662284 0.923 6.18777528605e-39
-0.00679569354383 -0.0832472459119 0.918 8.03596464623e-39
-0.00508011404625 -0.0829751960887 0.915 7.02218686442e-39
-0.0033867426975 -0.0829751960887 0.915 6.93071010067e-39
-0.00168966999061 -0.0827938295399 0.913 7.20836898359e-39
0.0 -0.0827938295399 0.913 6.38005585613e-39
0.0016841179534 -0.0825217797166 0.91 6.93286249511e-39
0.0033682359068 -0.0825217797166 0.91 6.84102699896e-39
0.0050523538602 -0.0825217797166 0.91 7.02398052646e-39
0.00672166638105 -0.0823404131678 0.908 6.93357995993e-39
0.00838357618561 -0.082159046619 0.906 7.48782152854e-39
0.0100269791995 -0.0818869967957 0.903 6.84282066099e-39
0.0116981423994 -0.0818869967957 0.903 6.93537362196e-39
0.0133693055993 -0.0818869967957 0.903 7.57929829229e-39
0.0150404687992 -0.0818869967957 0.903 8.22394042743e-39
0.0167116319991 -0.0818869967957 0.903 7.67113378845e-39
0.018382795199 -0.0818869967957 0.903 8.86965875979e-39
0.020053958399 -0.0818869967957 0.903 8.40976381419e-39
0.0217251215989 -0.0818869967957 0.903 8.40976381419e-39
0.0234740133197 -0.082159046619 0.906 7.48853899335e-39
0.0251507285568 -0.082159046619 0.906 7.85623971039e-39
0.026827443794 -0.082159046619 0.906 8.68491157025e-39
0.0285041590311 -0.082159046619 0.906 8.40904634937e-39
0.0301808742682 -0.082159046619 0.906 8.410481279e-39
0.0318575895053 -0.082159046619 0.906 8.22788648391e-39
0.0335343047424 -0.082159046619 0.906 8.13676845256e-39
0.0352887485005 -0.0823404131678 0.908 8.50482790201e-39
0.0369691650957 -0.0823404131678 0.908 9.14982876955e-39
0.038649581691 -0.0823404131678 0.908 8.96544031242e-39
0.0403299982863 -0.0823404131678 0.908 9.05763454099e-39
0.042102948835 -0.0825217797166 0.91 8.50518663441e-39
0.0440276550675 -0.0829751960887 0.915 8.96544031242e-39
0.0457210264162 -0.0829751960887 0.915 9.24309919534e-39
0.047414397765 -0.0829751960887 0.915 1.0529154874e-38
-0.0172113153479 -0.0826143136701 0.93 2.0715103728e-38
-0.0154901838131 -0.0826143136701 0.93 9.11359679646e-39
-0.0137394414132 -0.0824366484794 0.928 7.75041365036e-39
-0.0120220112366 -0.0824366484794 0.928 6.74273431948e-39
-0.0102712688367 -0.0821701506934 0.925 6.83456981563e-39
-0.00854088390653 -0.0819924855027 0.923 6.7441692491e-39
-0.00679569354383 -0.081548322526 0.918 6.37718599688e-39
-0.00509677015787 -0.081548322526 0.918 6.28714416275e-39
-0.0033867426975 -0.08128182474 0.915 6.28678543035e-39
-0.00169337134875 -0.08128182474 0.915 6.74775657317e-39
0.0 -0.08128182474 0.915 6.84102699896e-39
0.00168966999061 -0.0811041595493 0.913 6.56336951734e-39
0.00337933998122 -0.0811041595493 0.913 6.65663854183e-39
0.0050523538602 -0.0808376617632 0.91 8.03919323789e-39
0.0067364718136 -0.0808376617632 0.91 7.67077505604e-39
0.00840208297631 -0.0806599965725 0.908 7.30271560659e-39
0.0100602914227 -0.0804823313819 0.906 7.57929829229e-39
0.0117370066599 -0.0804823313819 0.906 7.57929829229e-39
0.013413721897 -0.0804823313819 0.906 7.21088011044e-39
0.0150404687992 -0.0802158335958 0.903 8.04098689993e-39
0.0167116319991 -0.0802158335958 0.903 7.8565984428e-39
0.018382795199 -0.0802158335958 0.903 7.8569571752e-39
0.020053958399 -0.0802158335958 0.903 7.30666166307e-39
0.0217251215989 -0.0802158335958 0.903 7.58396181358e-39
0.0234740133197 -0.0804823313819 0.906 8.41227494103e-39
0.0251507285568 -0.0804823313819 0.906 8.22537535706e-39
0.026827443794 -0.0804823313819 0.906 8.50267550757e-39
0.0285041590311 -0.0804823313819 0.906 7.30666166307e-39
0.0302474987147 -0.0806599965725 0.908 7.58324434876e-39
0.03192791531 -0.0806599965725 0.908 8.22788648391e-39
0.0336083319052 -0.0806599965725 0.908 8.41263367344e-39
0.0353664770214 -0.0808376617632 0.91 8.04385675918e-39
0.0370505949748 -0.0808376617632 0.91 8.22788648391e-39
0.038862409784 -0.0811041595493 0.913 8.50482790201e-39
0.0405520797746 -0.0811041595493 0.913 8.59738086298e-39
0.0423342837187 -0.08128182474 0.915 9.70299414094e-39
0.0441720080349 -0.081548322526 0.918 9.05619961136e-39
0.0458709314209 -0.081548322526 0.918 1.09922784112e-38
0.0475698548068 -0.081548322526 0.918 1.01585842977e-38
0.0493761175788 -0.0817259877167 0.92 1.08943444641e-38
-0.0188917319432 -0.0807192183028 0.928 2.34961010422e-38
-0.0171743017665 -0.0807192183028 0.928 2.35083708115e-38
-0.0154568715899 -0.0807192183028 0.928 6.80838234993e-39
-0.0137394414132 -0.0807192183028 0.928 6.18742215884e-39
-0.0120220112366 -0.0807192183028 0.928 7.20083560304e-39
-0.0103045810599 -0.0807192183028 0.928 7.38773518702e-39
-0.00854088390653 -0.0802843087214 0.923 6.55978079197e-39
-0.00681049897639 -0.0800233629726 0.92 6.74524544632e-39
-0.00509677015787 -0.07984939914 0.918 6.10239697322e-39
-0.00339784677192 -0.07984939914 0.918 6.56516177808e-39
-0.00169337134875 -0.0795884533912 0.915 7.20765151877e-39
0.0 -0.0795884533912 0.915 6.47153261988e-39
0.00169337134875 -0.0795884533912 0.915 6.56480304567e-39
0.0033867426975 -0.0795884533912 0.915 8.22394182873e-39
0.00506900997183 -0.0794144895587 0.913 6.93286249511e-39
0.00675867996244 -0.0794144895587 0.913 6.93465615715e-39
0.008420589767 -0.0791535438098 0.91 6.93465615715e-39
0.0100824995716 -0.0789795799773 0.908 7.21123884284e-39
0.0117629161668 -0.0789795799773 0.908 7.48638659891e-39
0.013413721897 -0.0788056161447 0.906 7.57893955988e-39
0.0150904371341 -0.0788056161447 0.906 7.48710406372e-39
0.0167116319991 -0.0785446703959 0.903 8.04062816752e-39
0.018382795199 -0.0785446703959 0.903 7.85731590761e-39
0.0201205828455 -0.0788056161447 0.906 7.76512167905e-39
0.0217972980826 -0.0788056161447 0.906 7.58145068673e-39
0.0234740133197 -0.0788056161447 0.906 7.94951013618e-39
0.0251507285568 -0.0788056161447 0.906 8.3164933884e-39
0.0268866655242 -0.0789795799773 0.908 7.85839210483e-39
0.0285670821194 -0.0789795799773 0.908 8.22788648391e-39
0.0302474987147 -0.0789795799773 0.908 7.86090323168e-39
0.03192791531 -0.0789795799773 0.908 7.67403027237e-39
0.033682359068 -0.0791535438098 0.91 8.13676845256e-39
0.0353664770214 -0.0791535438098 0.91 8.59522846854e-39
0.0371727397934 -0.0794144895587 0.913 1.00692599284e-38
0.0389475410212 -0.0795884533912 0.915 8.41227494103e-39
0.04064091237 -0.0795884533912 0.915 9.14767637511e-39
0.0423342837187 -0.0795884533912 0.915 9.42605272284e-39
0.0441720080349 -0.07984939914 0.918 9.70227667613e-39
0.0459708680906 -0.0800233629726 0.92 9.51537709215e-39
0.0476734928347 -0.0800233629726 0.92 1.0528441613e-38
0.0493761175788 -0.0800233629726 0.92 1.02500610614e-38
-0.0188917319432 -0.0790017881261 0.928 2.34975948263e-38
-0.0171743017665 -0.0790017881261 0.928 2.35033765838e-38
-0.0154568715899 -0.0790017881261 0.928 3.94892633479e-39
-0.0137394414132 -0.0790017881261 0.928 6.64519273597e-39
-0.0120220112366 -0.0790017881261 0.928 7.0157296811e-39
-0.0103045810599 -0.0790017881261 0.928 6.6498226261e-39
-0.00854088390653 -0.0785761319401 0.923 6.92748150901e-39
-0.00681049897639 -0.0783207382285 0.92 6.74524544632e-39
-0.00509677015787 -0.0781504757541 0.918 6.56265065123e-39
-0.00339784677192 -0.0781504757541 0.918 6.47153261988e-39
-0.00169337134875 -0.0778950820425 0.915 7.85336985114e-39
0.0 -0.0778950820425 0.915 7.11617475502e-39
0.00169337134875 -0.0778950820425 0.915 7.02505672368e-39
0.0033867426975 -0.0778950820425 0.915 6.56552051048e-39
0.00508011404625 -0.0778950820425 0.915 7.11904461428e-39
0.00675867996244 -0.077724819568 0.913 7.11904461428e-39
0.008420589767 -0.0774694258564 0.91 7.11904461428e-39
0.0101047077204 -0.0774694258564 0.91 7.48674533132e-39
0.0117629161668 -0.077299163382 0.908 8.22465789224e-39
0.0134433327621 -0.077299163382 0.908 7.57751584064e-39
0.0150904371341 -0.0771289009076 0.906 8.04062816752e-39
0.0167671523712 -0.0771289009076 0.906 7.21267377247e-39
0.0184438676083 -0.0771289009076 0.906 7.48818026094e-39
0.0201205828455 -0.0771289009076 0.906 7.94735774173e-39
0.0217972980826 -0.0771289009076 0.906 8.59451100372e-39
0.0234740133197 -0.0771289009076 0.906 8.22537535706e-39
0.0252062489289 -0.077299163382 0.908 8.31685212081e-39
0.0268866655242 -0.077299163382 0.908 8.50267550757e-39
0.0285670821194 -0.077299163382 0.908 9.05763454099e-39
0.0303141231612 -0.0774694258564 0.91 7.58396181358e-39
0.0319982411146 -0.0774694258564 0.91 9.15018750196e-39
0.033682359068 -0.0774694258564 0.91 8.59809832779e-39
0.0354830698028 -0.077724819568 0.913 8.32043944488e-39
0.0371727397934 -0.077724819568 0.913 8.22932141353e-39
0.0389475410212 -0.0778950820425 0.915 8.96508158002e-39
0.04064091237 -0.0778950820425 0.915 9.79518836951e-39
0.0423342837187 -0.0778950820425 0.915 8.31936324766e-39
0.0442682433465 -0.0783207382285 0.92 9.517888219e-39
0.0459708680906 -0.0783207382285 0.92 1.07135433311e-38
0.0476734928347 -0.0783207382285 0.92 1.15418564585e-38
0.0496444660439 -0.0787463944145 0.925 9.87984921753e-39
-0.0188917319432 -0.0772843579495 0.928 2.34950612787e-38
-0.0171743017665 -0.0772843579495 0.928 2.35037185006e-38
-0.0154568715899 -0.0772843579495 0.928 6.06831739456e-39
-0.0137394414132 -0.0772843579495 0.928 5.72465875528e-39
-0.0120220112366 -0.0772843579495 0.928 7.66001308383e-39
-0.0103045810599 -0.0772843579495 0.928 7.11115250133e-39
-0.00854088390653 -0.0768679551588 0.923 6.83636347767e-39
-0.00681049897639 -0.0766181134844 0.92 6.83743967489e-39
-0.00509677015787 -0.0764515523681 0.918 6.65448614739e-39
-0.00339784677192 -0.0764515523681 0.918 6.83959206933e-39
-0.00169337134875 -0.0762017106937 0.915 6.74775657317e-39
0.0 -0.0762017106937 0.915 6.84102699896e-39
0.00169337134875 -0.0762017106937 0.915 6.65699727423e-39
0.0033867426975 -0.0762017106937 0.915 6.84246192858e-39
0.00508011404625 -0.0762017106937 0.915 6.93465615715e-39
0.006773485395 -0.0762017106937 0.915 7.02541545609e-39
0.00844834995305 -0.0760351495774 0.913 7.11904461428e-39
0.0101047077204 -0.075785307903 0.91 7.30271560659e-39
0.0117629161668 -0.0756187467868 0.908 7.303074339e-39
0.0134433327621 -0.0756187467868 0.908 7.94879267136e-39
0.0151237493574 -0.0756187467868 0.908 7.48925645817e-39
0.0168041659526 -0.0756187467868 0.908 7.4910501202e-39
0.0184845825479 -0.0756187467868 0.908 7.76512167905e-39
0.0201649991431 -0.0756187467868 0.908 7.30666166307e-39
0.0218454157384 -0.0756187467868 0.908 7.58324434876e-39
0.0235258323337 -0.0756187467868 0.908 8.50267550757e-39
0.0252062489289 -0.0756187467868 0.908 8.87183077241e-39
0.0268866655242 -0.0756187467868 0.908 8.59738086298e-39
0.0286300052078 -0.075785307903 0.91 7.58396181358e-39
0.0303141231612 -0.075785307903 0.91 8.13712718497e-39
0.0319982411146 -0.075785307903 0.91 8.04349802678e-39
0.0337933998122 -0.0760351495774 0.913 7.95237999543e-39
