# .PCD v0.7 - Point Cloud Data file format
VERSION 0.7
FIELDS x y z rgb
SIZE 4 4 4 4
TYPE F F F F
COUNT 1 1 1 1
WIDTH 842
HEIGHT 1
VIEWPOINT 0 0 0 1 0 0 0
POINTS 842
DATA ascii
0.00501348959974 -0.0785446703959 0.903 7.58324434876e-39
0.00668465279965 -0.0785446703959 0.903 8.77782326363e-39
0.00835581599956 -0.0785446703959 0.903 8.03991070271e-39
0.0100269791995 -0.0785446703959 0.903 8.86965875979e-39
0.0116981423994 -0.0785446703959 0.903 8.04098689993e-39
0.0133693055993 -0.0785446703959 0.903 7.94951013618e-39
0.0150404687992 -0.0785446703959 0.903 7.95309746024e-39
0.0166746184177 -0.0783707065634 0.901 7.76727407349e-39
0.0183420802595 -0.0783707065634 0.901 8.96544031242e-39
0.020053958399 -0.0785446703959 0.903 7.85946830205e-39
0.0217251215989 -0.0785446703959 0.903 8.22896268113e-39
0.0234740133197 -0.0788056161447 0.906 8.22824521631e-39
0.0252062489289 -0.0789795799773 0.908 8.78069312289e-39
0.0268866655242 -0.0789795799773 0.908 9.97670696738e-39
0.0286300052078 -0.0791535438098 0.91 9.97850062942e-39
0.030414059831 -0.0794144895587 0.913 9.05655834377e-39
0.0321740556262 -0.0795884533912 0.915 1.01607366921e-38
0.033867426975 -0.0795884533912 0.915 9.79339470747e-39
0.0355607983237 -0.0795884533912 0.915 1.08972143234e-38
0.0372541696725 -0.0795884533912 0.915 1.04344495185e-38
0.039075237877 -0.07984939914 0.918 8.86463650609e-39
0.040774161263 -0.07984939914 0.918 2.35061833846e-38
-0.03081380651 -0.0787463944145 0.925 2.34907186548e-38
-0.0290390052822 -0.0785761319401 0.923 2.3502603067e-38
-0.0273308285009 -0.0785761319401 0.923 5.05525707757e-39
-0.0255393711615 -0.0783207382285 0.92 5.90872211116e-39
-0.0237849274034 -0.0781504757541 0.918 7.47634209152e-39
-0.0220860040175 -0.0781504757541 0.918 6.46543416897e-39
-0.0203870806315 -0.0781504757541 0.918 6.37682726447e-39
-0.0186270848362 -0.0778950820425 0.915 6.92963390345e-39
-0.0168966999061 -0.077724819568 0.913 6.65412741498e-39
-0.0151570615806 -0.0774694258564 0.91 8.40653662382e-39
-0.0134433327621 -0.077299163382 0.908 6.19494993419e-39
-0.0117629161668 -0.077299163382 0.908 6.93250376271e-39
-0.0100824995716 -0.077299163382 0.908 7.67041632363e-39
-0.00840208297631 -0.077299163382 0.908 7.11760968465e-39
-0.00670686094849 -0.0771289009076 0.906 7.21123884284e-39
-0.00503014571137 -0.0771289009076 0.906 7.02792658293e-39
-0.00335343047424 -0.0771289009076 0.906 7.30379180382e-39
-0.00167671523712 -0.0771289009076 0.906 7.76404548183e-39
0.0 -0.0771289009076 0.906 7.85623971039e-39
0.00167671523712 -0.0771289009076 0.906 7.76404548183e-39
0.00335343047424 -0.0771289009076 0.906 7.48818026094e-39
0.00503014571137 -0.0771289009076 0.906 7.85731590761e-39
0.00670686094849 -0.0771289009076 0.906 8.13389859331e-39
0.00835581599956 -0.076873507196 0.903 8.22465789224e-39
0.0100269791995 -0.076873507196 0.903 8.5934348065e-39
0.0116981423994 -0.076873507196 0.903 8.31685212081e-39
0.0133693055993 -0.076873507196 0.903 8.22788648391e-39
0.0150404687992 -0.076873507196 0.903 7.95166253062e-39
0.0167116319991 -0.076873507196 0.903 8.04385675918e-39
0.018382795199 -0.076873507196 0.903 8.32043944488e-39
0.0201205828455 -0.0771289009076 0.906 8.68849889432e-39
0.0217972980826 -0.0771289009076 0.906 9.61044117997e-39
0.0235258323337 -0.077299163382 0.908 8.59738086298e-39
0.0252062489289 -0.077299163382 0.908 9.23915313886e-39
0.0269458872544 -0.0774694258564 0.91 9.60793005312e-39
0.0287243898404 -0.077724819568 0.913 9.24274046293e-39
0.0304806842775 -0.0778950820425 0.915 9.05655834377e-39
0.0321740556262 -0.0778950820425 0.915 9.79411217229e-39
0.0339784677192 -0.0781504757541 0.918 9.70155921132e-39
0.0356773911051 -0.0781504757541 0.918 9.70120047891e-39
0.0373763144911 -0.0781504757541 0.918 1.02511372586e-38
0.0391603691142 -0.0783207382285 0.92 1.06170443136e-38
0.0408629938583 -0.0783207382285 0.92 2.35062072067e-38
-0.03081380651 -0.0770345162751 0.925 2.34936193426e-38
-0.0290390052822 -0.0768679551588 0.923 2.35026044683e-38
-0.0273308285009 -0.0768679551588 0.923 5.51766315002e-39
-0.0255393711615 -0.0766181134844 0.92 6.82743440385e-39
-0.0238367464174 -0.0766181134844 0.92 8.39864731347e-39
-0.0221341216733 -0.0766181134844 0.92 7.38845265184e-39
-0.0204314969292 -0.0766181134844 0.92 6.56085698919e-39
-0.0186270848362 -0.0762017106937 0.915 6.47009769026e-39
-0.0169337134875 -0.0762017106937 0.915 6.74739784076e-39
-0.0151570615806 -0.075785307903 0.91 6.47153261988e-39
-0.0134729436272 -0.075785307903 0.91 7.11581602262e-39
-0.0117629161668 -0.0756187467868 0.908 7.6686226616e-39
-0.0100824995716 -0.0756187467868 0.908 7.48674533132e-39
-0.00840208297631 -0.0756187467868 0.908 7.02541545609e-39
-0.00672166638105 -0.0756187467868 0.908 7.57893955988e-39
-0.00504124978578 -0.0756187467868 0.908 7.57929829229e-39
-0.00335343047424 -0.0754521856705 0.906 7.39562729997e-39
-0.00167671523712 -0.0754521856705 0.906 7.21267377247e-39
0.0 -0.0754521856705 0.906 7.76404548183e-39
0.00167671523712 -0.0754521856705 0.906 7.85623971039e-39
0.00335343047424 -0.0754521856705 0.906 7.85623971039e-39
0.00503014571137 -0.0754521856705 0.906 7.48818026094e-39
0.00670686094849 -0.0754521856705 0.906 8.2275277515e-39
0.00838357618561 -0.0754521856705 0.906 7.39885589164e-39
0.0100602914227 -0.0754521856705 0.906 8.04170436474e-39
0.0117370066599 -0.0754521856705 0.906 7.85946830205e-39
0.013413721897 -0.0754521856705 0.906 8.32008071247e-39
0.0150904371341 -0.0754521856705 0.906 7.95166253062e-39
0.0167671523712 -0.0754521856705 0.906 7.85946830205e-39
0.0184438676083 -0.0754521856705 0.906 7.85910956965e-39
0.0201205828455 -0.0754521856705 0.906 8.04170436474e-39
0.0218454157384 -0.0756187467868 0.908 8.96292918558e-39
0.0235258323337 -0.0756187467868 0.908 9.14803510752e-39
0.025261769301 -0.075785307903 0.91 8.87360481627e-39
0.0269458872544 -0.075785307903 0.91 9.15054623437e-39
0.0287243898404 -0.0760351495774 0.913 8.96544031242e-39
0.0304806842775 -0.0762017106937 0.915 1.00710535904e-38
0.0321740556262 -0.0762017106937 0.915 1.0436601913e-38
0.0339784677192 -0.0764515523681 0.918 1.03451251492e-38
0.0356773911051 -0.0764515523681 0.918 1.03462013465e-38
0.0373763144911 -0.0764515523681 0.918 9.97670696738e-39
0.0391603691142 -0.0766181134844 0.92 1.02486261318e-38
0.0408629938583 -0.0766181134844 0.92 2.35087057218e-38
-0.03081380651 -0.0753226381356 0.925 2.34917892468e-38
-0.0290390052822 -0.0751597783775 0.923 2.3501532475e-38
-0.0273308285009 -0.0751597783775 0.923 6.43852923845e-39
-0.0256226517196 -0.0751597783775 0.923 6.91998456223e-39
-0.0238367464174 -0.0749154887403 0.92 7.29195363439e-39
-0.0221341216733 -0.0749154887403 0.92 6.92748150901e-39
-0.0204314969292 -0.0749154887403 0.92 6.83743967489e-39
-0.0186881572455 -0.0747526289822 0.918 6.65412741498e-39
-0.0169337134875 -0.074508339345 0.915 6.19387373697e-39
-0.0152070299155 -0.0743454795868 0.913 7.11689221984e-39
-0.0135173599249 -0.0743454795868 0.913 6.83959206933e-39
-0.0117888256738 -0.0741011899496 0.91 6.19746106104e-39
-0.0100824995716 -0.0739383301915 0.908 6.74990896761e-39
-0.00840208297631 -0.0739383301915 0.908 7.11725095224e-39
-0.00672166638105 -0.0739383301915 0.908 6.65699727423e-39
-0.00504124978578 -0.0739383301915 0.908 7.21123884284e-39
-0.00336083319052 -0.0739383301915 0.908 7.39562729997e-39
-0.00167671523712 -0.0737754704334 0.906 7.48818026094e-39
0.0 -0.0737754704334 0.906 7.58073322192e-39
0.00167671523712 -0.0737754704334 0.906 7.94879267136e-39
0.00336083319052 -0.0739383301915 0.908 7.76404548183e-39
0.00504124978578 -0.0739383301915 0.908 8.13210493127e-39
0.00670686094849 -0.0737754704334 0.906 8.68527030266e-39
0.00838357618561 -0.0737754704334 0.906 8.13210493127e-39
0.0100602914227 -0.0737754704334 0.906 8.50195804275e-39
0.0117370066599 -0.0737754704334 0.906 8.22645155428e-39
0.013413721897 -0.0737754704334 0.906 8.22537535706e-39
0.0150904371341 -0.0737754704334 0.906 8.50267550757e-39
0.0167671523712 -0.0737754704334 0.906 8.41012254659e-39
0.0184845825479 -0.0739383301915 0.908 8.50375170479e-39
0.0201649991431 -0.0739383301915 0.908 8.22788648391e-39
0.0218454157384 -0.0739383301915 0.908 8.68562903507e-39
0.0235776513476 -0.0741011899496 0.91 8.87216988664e-39
0.025261769301 -0.0741011899496 0.91 8.87396354867e-39
0.0270347198498 -0.0743454795868 0.913 9.61259357441e-39
0.0287243898404 -0.0743454795868 0.913 8.41227494103e-39
0.0304806842775 -0.074508339345 0.915 9.42748765247e-39
0.0321740556262 -0.074508339345 0.915 9.8834365416e-39
0.0339784677192 -0.0747526289822 0.918 9.88200441457e-39
0.0356773911051 -0.0747526289822 0.918 1.0529154874e-38
0.0374577443701 -0.0749154887403 0.92 9.79016611581e-39
0.03928806597 -0.0751597783775 0.923 1.08010740384e-38
0.0409962427514 -0.0751597783775 0.923 2.35097917282e-38
-0.03081380651 -0.0736107599962 0.925 2.34907228586e-38
-0.0291019283706 -0.0736107599962 0.925 2.35022681567e-38
-0.0273308285009 -0.0734516015962 0.923 9.66460977341e-39
-0.0256226517196 -0.0734516015962 0.923 7.28515733684e-39
-0.0238367464174 -0.0732128639962 0.92 7.75364224203e-39
-0.0221341216733 -0.0732128639962 0.92 7.02039320239e-39
-0.0204314969292 -0.0732128639962 0.92 6.93035136827e-39
-0.0186881572455 -0.0730537055962 0.918 7.02218686442e-39
-0.0169892338596 -0.0730537055962 0.918 6.92999263586e-39
-0.0152403421387 -0.0728149679962 0.915 7.1150985578e-39
-0.0135173599249 -0.0726558095962 0.913 7.02505672368e-39
-0.0118276899343 -0.0726558095962 0.913 6.83959206933e-39
-0.0101047077204 -0.0724170719962 0.91 7.02577418849e-39
-0.008420589767 -0.0724170719962 0.91 7.20836898359e-39
-0.00672166638105 -0.0722579135962 0.908 7.48531040169e-39
-0.00504124978578 -0.0722579135962 0.908 7.57929829229e-39
-0.00336083319052 -0.0722579135962 0.908 7.67185125326e-39
-0.00167671523712 -0.0720987551962 0.906 7.67185125326e-39
0.0 -0.0720987551962 0.906 7.76440421423e-39
0.00167671523712 -0.0720987551962 0.906 8.40904634937e-39
0.00336083319052 -0.0722579135962 0.908 8.04170436474e-39
0.00504124978578 -0.0722579135962 0.908 8.04098689993e-39
0.00672166638105 -0.0722579135962 0.908 8.40904634937e-39
0.00840208297631 -0.0722579135962 0.908 7.85731590761e-39
0.0100824995716 -0.0722579135962 0.908 7.76691534108e-39
0.0117629161668 -0.0722579135962 0.908 8.31756958562e-39
0.0134433327621 -0.0722579135962 0.908 8.59451100372e-39
0.0151237493574 -0.0722579135962 0.908 8.04134563233e-39
0.0168041659526 -0.0722579135962 0.908 8.50267550757e-39
0.0184845825479 -0.0722579135962 0.908 8.04385675918e-39
0.0201649991431 -0.0722579135962 0.908 7.95237999543e-39
0.0218454157384 -0.0722579135962 0.908 9.0579932734e-39
0.0235776513476 -0.0724170719962 0.91 8.87360481627e-39
0.0253450498591 -0.0726558095962 0.913 8.13748591737e-39
0.0270347198498 -0.0726558095962 0.913 8.78248678492e-39
0.0287873129287 -0.0728149679962 0.915 9.70048301409e-39
0.0305806209472 -0.0730537055962 0.918 1.01614541569e-38
0.0322795443332 -0.0730537055962 0.918 9.88415400641e-39
0.0340524948819 -0.0732128639962 0.92 1.05273612119e-38
0.035755119626 -0.0732128639962 0.92 1.11730795443e-38
0.0375798891887 -0.0734516015962 0.923 1.01593017625e-38
0.0393731972073 -0.0736107599962 0.925 1.24605855668e-38
0.0410850753467 -0.0736107599962 0.925 2.35037142967e-38
-0.0325256846495 -0.0718988818567 0.925 2.34896648783e-38
-0.03081380651 -0.0718988818567 0.925 2.34914669481e-38
-0.0291019283706 -0.0718988818567 0.925 2.35019024178e-38
-0.0273308285009 -0.0717434248149 0.923 7.35867786207e-39
-0.0256226517196 -0.0717434248149 0.923 8.66449465163e-39
-0.0239144749383 -0.0717434248149 0.923 7.84547773818e-39
-0.022206298157 -0.0717434248149 0.923 7.20334672989e-39
-0.0204981213757 -0.0717434248149 0.923 6.92999263586e-39
-0.0187288721851 -0.0715102392521 0.92 7.11222869855e-39
-0.0169892338596 -0.0713547822102 0.918 6.93035136827e-39
-0.0152403421387 -0.0711215966475 0.915 6.93071010067e-39
-0.01354697079 -0.0711215966475 0.915 6.83959206933e-39
-0.0118276899343 -0.0709661396056 0.913 7.02290432924e-39
-0.0101047077204 -0.0707329540428 0.91 7.20836898359e-39
-0.008420589767 -0.0707329540428 0.91 7.30056321215e-39
-0.0067364718136 -0.0707329540428 0.91 7.39383363794e-39
-0.00504124978578 -0.070577497001 0.908 7.48638659891e-39
-0.00336083319052 -0.070577497001 0.908 7.76332801701e-39
-0.00168041659526 -0.070577497001 0.908 7.57929829229e-39
0.0 -0.070577497001 0.908 7.67185125326e-39
0.00168041659526 -0.070577497001 0.908 8.04098689993e-39
0.00336083319052 -0.070577497001 0.908 8.04098689993e-39
0.00504124978578 -0.070577497001 0.908 7.94879267136e-39
0.00672166638105 -0.070577497001 0.908 8.04170436474e-39
0.00840208297631 -0.070577497001 0.908 7.39849715923e-39
0.0100824995716 -0.070577497001 0.908 8.59666339816e-39
0.0117629161668 -0.070577497001 0.908 8.22645155428e-39
0.0134433327621 -0.070577497001 0.908 8.22645155428e-39
0.0151237493574 -0.070577497001 0.908 8.31936324766e-39
0.0168041659526 -0.070577497001 0.908 8.410481279e-39
0.0184845825479 -0.070577497001 0.908 8.59451100372e-39
0.0202094154408 -0.0707329540428 0.91 9.33206483224e-39
0.0218935333942 -0.0707329540428 0.91 8.68849889432e-39
0.0236553798685 -0.0709661396056 0.913 8.78248678492e-39
0.0253450498591 -0.0709661396056 0.913 8.96615777724e-39
0.02709394158 -0.0711215966475 0.915 8.87396354867e-39
0.0288816975613 -0.0713547822102 0.918 9.4239003284e-39
0.0305806209472 -0.0713547822102 0.918 1.05298723388e-38
0.0323498701378 -0.0715102392521 0.92 9.70155921132e-39
0.0340524948819 -0.0715102392521 0.92 1.05313072684e-38
0.0358717124074 -0.0717434248149 0.923 9.60864751794e-39
0.0376613190678 -0.0718988818567 0.925 1.0989408552e-38
0.0393731972073 -0.0718988818567 0.925 1.3838835474e-38
0.0410850753467 -0.0718988818567 0.925 2.35033373474e-38
-0.0326311733564 -0.0704146372428 0.928 2.34903557184e-38
-0.0309137431798 -0.0704146372428 0.928 2.34943241957e-38
-0.0291019283706 -0.0701870037173 0.925 2.34975597939e-38
-0.0273900502311 -0.0701870037173 0.925 1.02174164124e-38
-0.0256226517196 -0.0700352480336 0.923 7.56316794567e-39
-0.0239144749383 -0.0700352480336 0.923 7.66144801346e-39
-0.022206298157 -0.0700352480336 0.923 7.11079376892e-39
-0.0205425376733 -0.0701870037173 0.925 7.11222869855e-39
-0.0187288721851 -0.069807614508 0.92 7.20478165952e-39
-0.0169892338596 -0.0696558588243 0.918 6.65484487979e-39
-0.0152403421387 -0.0694282252987 0.915 7.20801025118e-39
-0.01354697079 -0.0694282252987 0.915 7.29912828253e-39
-0.0118535994412 -0.0694282252987 0.915 7.57642843303e-39
-0.0101380199437 -0.069276469615 0.913 7.21088011044e-39
-0.00844834995305 -0.069276469615 0.913 6.5662379753e-39
-0.00675867996244 -0.069276469615 0.913 6.5665967077e-39
-0.0050523538602 -0.0690488360894 0.91 8.04026943511e-39
-0.0033682359068 -0.0690488360894 0.91 7.02541545609e-39
-0.00168041659526 -0.0688970804057 0.908 7.76548041145e-39
0.0 -0.0688970804057 0.908 7.94951013618e-39
0.0016841179534 -0.0690488360894 0.91 7.76404548183e-39
0.0033682359068 -0.0690488360894 0.91 7.76476294664e-39
0.0050523538602 -0.0690488360894 0.91 7.94951013618e-39
0.0067364718136 -0.0690488360894 0.91 8.59486973613e-39
0.008420589767 -0.0690488360894 0.91 8.04098689993e-39
0.0100824995716 -0.0688970804057 0.908 9.0529710197e-39
0.0117629161668 -0.0688970804057 0.908 8.5934348065e-39
0.0134729436272 -0.0690488360894 0.91 8.31756958562e-39
0.0151237493574 -0.0688970804057 0.908 8.50267550757e-39
0.0168041659526 -0.0688970804057 0.908 9.24274046293e-39
0.0185252974874 -0.0690488360894 0.91 7.67615604214e-39
0.0202094154408 -0.0690488360894 0.91 7.95345619265e-39
0.0219657098779 -0.069276469615 0.913 7.76906773552e-39
0.0237071988825 -0.0694282252987 0.915 8.22896268113e-39
0.0254005702312 -0.0694282252987 0.915 8.68957509154e-39
0.02709394158 -0.0694282252987 0.915 8.87396354867e-39
0.0288816975613 -0.0696558588243 0.918 9.42569399043e-39
0.0305806209472 -0.0696558588243 0.918 9.88630640085e-39
0.0323498701378 -0.069807614508 0.92 9.97814189701e-39
0.0341635356261 -0.0700352480336 0.923 9.79411217229e-39
0.0358717124074 -0.0700352480336 0.923 1.04394717722e-38
0.0376613190678 -0.0701870037173 0.925 8.96077679113e-39
0.0395008940631 -0.0704146372428 0.928 1.44802518201e-38
0.0412183242397 -0.0704146372428 0.928 2.3507654748e-38
-0.0326311733564 -0.0686972070662 0.928 2.34942877619e-38
-0.0309137431798 -0.0686972070662 0.928 2.34914655468e-38
-0.0291019283706 -0.0684751255778 0.925 2.34993828832e-38
-0.0273900502311 -0.0684751255778 0.925 1.10471672721e-38
-0.0256781720917 -0.0684751255778 0.925 8.01731056107e-39
-0.0239662939522 -0.0684751255778 0.925 7.84404280856e-39
-0.0222544158128 -0.0684751255778 0.925 7.94090055841e-39
-0.0205425376733 -0.0684751255778 0.925 7.38809391943e-39
-0.0187899445944 -0.0683270712523 0.923 6.83743967489e-39
-0.017026247441 -0.0681049897639 0.92 6.74703910836e-39
-0.0152903104736 -0.0679569354383 0.918 6.65592107701e-39
-0.01354697079 -0.06773485395 0.915 7.20765151877e-39
-0.0118535994412 -0.06773485395 0.915 7.11617475502e-39
-0.0101602280925 -0.06773485395 0.915 6.56552051048e-39
-0.00844834995305 -0.0675867996244 0.913 6.75098516483e-39
-0.00675867996244 -0.0675867996244 0.913 7.39562729997e-39
-0.00506900997183 -0.0675867996244 0.913 7.76368674942e-39
-0.0033682359068 -0.067364718136 0.91 7.11904461428e-39
-0.0016841179534 -0.067364718136 0.91 7.67328618289e-39
0.0 -0.067364718136 0.91 7.94843393896e-39
0.0016841179534 -0.067364718136 0.91 8.3164933884e-39
0.0033682359068 -0.067364718136 0.91 7.94951013618e-39
0.00506900997183 -0.0675867996244 0.913 8.31685212081e-39
0.0067364718136 -0.067364718136 0.91 8.04098689993e-39
0.008420589767 -0.067364718136 0.91 7.85731590761e-39
0.0101047077204 -0.067364718136 0.91 8.50267550757e-39
0.0117888256738 -0.067364718136 0.91 8.22465789224e-39
0.0134729436272 -0.067364718136 0.91 8.04170436474e-39
0.0151570615806 -0.067364718136 0.91 8.40976381419e-39
0.016841179534 -0.067364718136 0.91 8.13425732571e-39
0.0185252974874 -0.067364718136 0.91 8.32043944488e-39
0.0202760398873 -0.0675867996244 0.913 8.0449329564e-39
0.0220138275337 -0.06773485395 0.915 9.61295230682e-39
0.0237071988825 -0.06773485395 0.915 8.50518663441e-39
0.0254005702312 -0.06773485395 0.915 9.05655834377e-39
0.0271827741753 -0.0679569354383 0.918 9.15018750196e-39
0.0288816975613 -0.0679569354383 0.918 9.70155921132e-39
0.0306472453938 -0.0681049897639 0.92 9.0583520058e-39
0.0324553588448 -0.0683270712523 0.923 9.79339470747e-39
0.0341635356261 -0.0683270712523 0.923 1.0163257628e-38
0.0358717124074 -0.0683270712523 0.923 1.02543658503e-38
0.0376613190678 -0.0684751255778 0.925 1.09890498196e-38
0.0395008940631 -0.0686972070662 0.928 1.56831586517e-38
0.0412183242397 -0.0686972070662 0.928 2.35044051369e-38
-0.03081380651 -0.0667632474384 0.925 2.34921788078e-38
-0.0291019283706 -0.0667632474384 0.925 2.35011681374e-38
-0.0273900502311 -0.0667632474384 0.925 1.16918066046e-38
-0.0256781720917 -0.0667632474384 0.925 8.93531800063e-39
-0.0239662939522 -0.0667632474384 0.925 8.02878999809e-39
-0.0222544158128 -0.0667632474384 0.925 7.75400097443e-39
-0.0205425376733 -0.0667632474384 0.925 7.57284110897e-39
-0.0188306595339 -0.0667632474384 0.925 7.02218686442e-39
-0.017026247441 -0.0664023650198 0.92 6.74811530558e-39
-0.0152903104736 -0.0662580120524 0.918 6.83923333692e-39
-0.0135913870877 -0.0662580120524 0.918 7.11581602262e-39
-0.0118535994412 -0.0660414826012 0.915 7.30056321215e-39
-0.0101602280925 -0.0660414826012 0.915 6.65807347145e-39
-0.00846685674374 -0.0660414826012 0.915 7.39562729997e-39
-0.006773485395 -0.0660414826012 0.915 6.56767290492e-39
-0.00506900997183 -0.0658971296338 0.913 7.67185125326e-39
-0.0033682359068 -0.0656806001826 0.91 7.30379180382e-39
-0.0016841179534 -0.0656806001826 0.91 7.303074339e-39
0.0 -0.0656806001826 0.91 7.67149252085e-39
0.0016841179534 -0.0656806001826 0.91 8.59235860928e-39
0.00337933998122 -0.0658971296338 0.913 8.22501662465e-39
0.00506900997183 -0.0658971296338 0.913 8.5934348065e-39
0.00675867996244 -0.0658971296338 0.913 8.50195804275e-39
0.00844834995305 -0.0658971296338 0.913 8.50231677516e-39
0.0101047077204 -0.0656806001826 0.91 8.22645155428e-39
0.0117888256738 -0.0656806001826 0.91 8.22645155428e-39
0.0135173599249 -0.0658971296338 0.913 7.95130379821e-39
0.0151570615806 -0.0656806001826 0.91 8.41263367344e-39
0.016841179534 -0.0656806001826 0.91 8.22788648391e-39
0.0185863698967 -0.0658971296338 0.913 8.50482790201e-39
0.020320456185 -0.0660414826012 0.915 8.68706396469e-39
0.0220138275337 -0.0660414826012 0.915 8.68957509154e-39
0.0237071988825 -0.0660414826012 0.915 8.96579904483e-39
0.0254838507894 -0.0662580120524 0.918 8.78105185529e-39
0.0271827741753 -0.0662580120524 0.918 9.15054623437e-39
0.0289446206497 -0.0664023650198 0.92 9.33421722668e-39
0.0306472453938 -0.0664023650198 0.92 9.70335287335e-39
0.0324553588448 -0.0666188944709 0.923 9.97850062942e-39
0.0341635356261 -0.0666188944709 0.923 1.07149782607e-38
0.0359494409284 -0.0667632474384 0.925 1.03465600789e-38
0.0377834638864 -0.0669797768895 0.928 9.79052484822e-39
0.0395860253003 -0.067124129857 0.93 1.71557271559e-38
0.0413071568351 -0.067124129857 0.93 2.35047526589e-38
-0.0292592360915 -0.0654029983222 0.93 2.34986514054e-38
-0.0274788828265 -0.0652623467129 0.928 1.44587741185e-38
-0.0257614526498 -0.0652623467129 0.928 7.37302715834e-39
-0.0239662939522 -0.0650513692989 0.925 7.93659576953e-39
-0.0222544158128 -0.0650513692989 0.925 7.75364224203e-39
-0.0205425376733 -0.0650513692989 0.925 7.38881138424e-39
-0.0188306595339 -0.0650513692989 0.925 7.20621658915e-39
-0.0170817678131 -0.0649107176896 0.923 6.93071010067e-39
-0.0152903104736 -0.0645590886664 0.918 6.65592107701e-39
-0.0135913870877 -0.0645590886664 0.918 7.39311617313e-39
-0.0118924637017 -0.0645590886664 0.918 7.02505672368e-39
-0.0101935403157 -0.0645590886664 0.918 7.39311617313e-39
-0.00846685674374 -0.0643481112525 0.915 7.48674533132e-39
-0.006773485395 -0.0643481112525 0.915 7.21088011044e-39
-0.00508011404625 -0.0643481112525 0.915 7.76296928461e-39
-0.00337933998122 -0.0642074596432 0.913 7.21052137803e-39
-0.00168966999061 -0.0642074596432 0.913 8.31721085321e-39
0.0 -0.0642074596432 0.913 8.40797015215e-39
0.00168966999061 -0.0642074596432 0.913 7.67185125326e-39
0.00337933998122 -0.0642074596432 0.913 8.31900451525e-39
0.00506900997183 -0.0642074596432 0.913 7.94951013618e-39
0.00675867996244 -0.0642074596432 0.913 7.39885589164e-39
0.00844834995305 -0.0642074596432 0.913 7.95130379821e-39
0.0101380199437 -0.0642074596432 0.913 7.76691534108e-39
0.0118276899343 -0.0642074596432 0.913 8.59522846854e-39
0.0135173599249 -0.0642074596432 0.913 8.77782326363e-39
0.0152070299155 -0.0642074596432 0.913 8.59522846854e-39
0.0168966999061 -0.0642074596432 0.913 7.95273872784e-39
0.0185863698967 -0.0642074596432 0.913 7.86126196409e-39
0.020320456185 -0.0643481112525 0.915 9.33385849428e-39
0.0220138275337 -0.0643481112525 0.915 8.41191620863e-39
0.0237071988825 -0.0643481112525 0.915 9.79160104544e-39
0.0254838507894 -0.0645590886664 0.918 9.51537709215e-39
0.0271827741753 -0.0645590886664 0.918 9.24274046293e-39
0.0289446206497 -0.0646997402757 0.92 9.51824695141e-39
0.0306472453938 -0.0646997402757 0.92 9.70227667613e-39
0.0324553588448 -0.0649107176896 0.923 1.00717710552e-38
0.0341635356261 -0.0649107176896 0.923 9.88487147122e-39
0.0359494409284 -0.0650513692989 0.925 1.08071724893e-38
0.0377834638864 -0.0652623467129 0.928 1.00663900691e-38
0.0395860253003 -0.0654029983222 0.93 1.62308827812e-38
0.0413071568351 -0.0654029983222 0.93 2.35062002002e-38
-0.0293536207241 -0.0638872921641 0.933 2.3496494807e-38
-0.0275381045567 -0.0636818667874 0.93 1.67600747384e-38
-0.0257614526498 -0.0635449165362 0.928 7.64351139312e-39
-0.0239662939522 -0.0633394911595 0.925 8.21281972282e-39
-0.0222544158128 -0.0633394911595 0.925 7.38809391943e-39
-0.0205425376733 -0.0633394911595 0.925 7.38881138424e-39
-0.0188306595339 -0.0633394911595 0.925 7.38917011665e-39
-0.0170817678131 -0.0632025409083 0.923 7.39096377868e-39
-0.0153735910318 -0.0632025409083 0.923 7.02326306165e-39
-0.0135913870877 -0.0628601652804 0.918 7.11617475502e-39
-0.0118924637017 -0.0628601652804 0.918 7.20801025118e-39
-0.0101935403157 -0.0628601652804 0.918 7.30056321215e-39
-0.00849461692979 -0.0628601652804 0.918 7.30271560659e-39
-0.006773485395 -0.0626547399037 0.915 7.21016264562e-39
-0.00508011404625 -0.0626547399037 0.915 7.30271560659e-39
-0.0033867426975 -0.0626547399037 0.915 7.58037448951e-39
-0.00169337134875 -0.0626547399037 0.915 7.94735774173e-39
0.0 -0.0626547399037 0.915 8.68419690804e-39
0.00169337134875 -0.0626547399037 0.915 7.58073322192e-39
0.0033867426975 -0.0626547399037 0.915 8.59486973613e-39
0.00508011404625 -0.0626547399037 0.915 8.87181115423e-39
0.006773485395 -0.0626547399037 0.915 8.96328791798e-39
0.00846685674374 -0.0626547399037 0.915 8.22537535706e-39
0.0101602280925 -0.0626547399037 0.915 8.04278056196e-39
0.0118276899343 -0.0625177896526 0.913 8.96328791798e-39
0.0135173599249 -0.0625177896526 0.913 9.05440594933e-39
0.0152070299155 -0.0625177896526 0.913 7.95166253062e-39
0.0168966999061 -0.0625177896526 0.913 9.05763454099e-39
0.0185863698967 -0.0625177896526 0.913 8.5044691696e-39
0.020320456185 -0.0626547399037 0.915 8.32043944488e-39
0.0220138275337 -0.0626547399037 0.915 8.59809832779e-39
0.0237071988825 -0.0626547399037 0.915 9.24022933608e-39
0.0254838507894 -0.0628601652804 0.918 9.42354159599e-39
0.0271827741753 -0.0628601652804 0.918 9.14875257233e-39
0.0289446206497 -0.0629971155316 0.92 9.97885936182e-39
0.0307471820635 -0.0632025409083 0.923 9.70227667613e-39
0.0324553588448 -0.0632025409083 0.923 1.0529154874e-38
0.0341635356261 -0.0632025409083 0.923 1.06202729053e-38
0.0359494409284 -0.0633394911595 0.925 1.08972143234e-38
0.0377834638864 -0.0635449165362 0.928 9.14480651586e-39
0.0395860253003 -0.0636818667874 0.93 1.8443963255e-38
0.0413071568351 -0.0636818667874 0.93 2.35069204676e-38
-0.0310803042961 -0.0621606085921 0.933 2.34896578718e-38
-0.0293536207241 -0.0621606085921 0.933 2.34950710878e-38
-0.0275381045567 -0.0619607352526 0.93 2.3305979873e-38
-0.0257614526498 -0.0618274863596 0.928 8.00475492683e-39
-0.0240440224732 -0.0618274863596 0.928 8.30537268379e-39
-0.0223265922965 -0.0618274863596 0.928 7.29518222605e-39
-0.0205425376733 -0.06162761302 0.925 7.48100561281e-39
-0.0188306595339 -0.06162761302 0.925 7.20549912433e-39
-0.0170817678131 -0.061494364127 0.923 7.20621658915e-39
-0.0153735910318 -0.061494364127 0.923 7.11581602262e-39
-0.0136209979528 -0.0612944907875 0.92 7.20836898359e-39
-0.0119183732087 -0.0612944907875 0.92 7.48531040169e-39
-0.0101935403157 -0.0611612418945 0.918 6.93286249511e-39
-0.00849461692979 -0.0611612418945 0.918 7.30128067697e-39
-0.00679569354383 -0.0611612418945 0.918 7.21052137803e-39
-0.00509677015787 -0.0611612418945 0.918 7.48638659891e-39
-0.0033867426975 -0.060961368555 0.915 7.30271560659e-39
-0.00169337134875 -0.060961368555 0.915 7.39598603238e-39
0.0 -0.060961368555 0.915 8.04062816752e-39
0.00169337134875 -0.060961368555 0.915 7.94879267136e-39
0.0033867426975 -0.060961368555 0.915 7.85731590761e-39
0.00508011404625 -0.060961368555 0.915 7.8569571752e-39
0.006773485395 -0.060961368555 0.915 8.22681028668e-39
0.00846685674374 -0.060961368555 0.915 8.31756958562e-39
0.0101602280925 -0.060961368555 0.915 8.04170436474e-39
0.0118535994412 -0.060961368555 0.915 7.85910956965e-39
0.01354697079 -0.060961368555 0.915 8.68670523229e-39
0.0152403421387 -0.060961368555 0.915 8.22645155428e-39
0.0169337134875 -0.060961368555 0.915 8.87360481627e-39
0.0186270848362 -0.060961368555 0.915 7.86126196409e-39
0.0203870806315 -0.0611612418945 0.918 8.87503974589e-39
0.0220860040175 -0.0611612418945 0.918 9.2413055333e-39
0.0237849274034 -0.0611612418945 0.918 8.50518663441e-39
0.0254838507894 -0.0611612418945 0.918 8.87360481627e-39
0.0272419959056 -0.0612944907875 0.92 9.517888219e-39
0.0290390052822 -0.061494364127 0.923 9.2413055333e-39
0.0307471820635 -0.061494364127 0.923 1.05320247332e-38
0.0325256846495 -0.06162761302 0.925 1.05277199443e-38
0.0342375627889 -0.06162761302 0.925 1.0989408552e-38
0.0359494409284 -0.06162761302 0.925 1.08961381262e-38
0.0377834638864 -0.0618274863596 0.928 9.60613639109e-39
0.0395008940631 -0.0618274863596 0.928 1.98211593857e-38
-0.0310803042961 -0.0604339250201 0.933 2.3493978075e-38
-0.0293536207241 -0.0604339250201 0.933 2.34968829667e-38
-0.027626937152 -0.0604339250201 0.933 2.15499469063e-38
-0.0258169730219 -0.0602396037178 0.93 9.93724640263e-39
-0.0240958414871 -0.0602396037178 0.93 8.12062549425e-39
-0.0223747099523 -0.0602396037178 0.93 7.93767196675e-39
-0.0206091621199 -0.0601100561829 0.928 7.38881138424e-39
-0.0188917319432 -0.0601100561829 0.928 7.02290432924e-39
-0.0171187813945 -0.0599157348806 0.925 7.20765151877e-39
-0.015406903255 -0.0599157348806 0.925 7.20765151877e-39
-0.0136654142505 -0.0597861873457 0.923 7.30020447975e-39
-0.0119572374691 -0.0597861873457 0.923 7.39311617313e-39
-0.0102157484646 -0.0595918660434 0.92 7.11689221984e-39
-0.00849461692979 -0.0594623185085 0.918 7.76296928461e-39
-0.00679569354383 -0.0594623185085 0.918 7.48638659891e-39
-0.00509677015787 -0.0594623185085 0.918 7.30343307141e-39
-0.00339784677192 -0.0594623185085 0.918 7.85623971039e-39
-0.00169892338596 -0.0594623185085 0.918 7.94843393896e-39
0.0 -0.0594623185085 0.918 8.13210493127e-39
0.00169337134875 -0.0592679972062 0.915 8.40904634937e-39
0.0033867426975 -0.0592679972062 0.915 7.76512167905e-39
0.00508011404625 -0.0592679972062 0.915 7.86018716816e-39
0.006773485395 -0.0592679972062 0.915 8.59702213057e-39
0.00846685674374 -0.0592679972062 0.915 7.86018576687e-39
0.0101602280925 -0.0592679972062 0.915 7.67651477455e-39
0.0118535994412 -0.0592679972062 0.915 8.2275277515e-39
0.01354697079 -0.0592679972062 0.915 8.87252861905e-39
0.0152403421387 -0.0592679972062 0.915 1.00689011959e-38
0.0169892338596 -0.0594623185085 0.918 7.85946830205e-39
0.0186881572455 -0.0594623185085 0.918 8.13676845256e-39
0.0203870806315 -0.0594623185085 0.918 8.68921635914e-39
0.0220860040175 -0.0594623185085 0.918 9.33242356465e-39
0.0237849274034 -0.0594623185085 0.918 8.3218743745e-39
0.0255393711615 -0.0595918660434 0.92 8.87324608386e-39
0.0273308285009 -0.0597861873457 0.923 9.70227667613e-39
0.0290390052822 -0.0597861873457 0.923 9.70155921132e-39
0.03081380651 -0.0599157348806 0.925 9.517888219e-39
0.0325256846495 -0.0599157348806 0.925 9.97850062942e-39
0.0342375627889 -0.0599157348806 0.925 1.07153369931e-38
0.0359494409284 -0.0599157348806 0.925 1.18191566091e-38
0.0377834638864 -0.0601100561829 0.928 8.03883450549e-39
0.0395008940631 -0.0601100561829 0.928 2.35018225438e-38
-0.0294165438124 -0.0588330876248 0.935 2.349433961e-38
-0.0276861588823 -0.0588330876248 0.935 2.12762508955e-38
-0.02590025358 -0.0587072414481 0.933 1.35282082421e-38
-0.0240958414871 -0.058518472183 0.93 9.03431693454e-39
-0.0223747099523 -0.058518472183 0.93 7.66395914031e-39
-0.0206535784175 -0.058518472183 0.93 7.75687083369e-39
-0.0189324468827 -0.058518472183 0.93 7.02254559683e-39
-0.0172113153479 -0.058518472183 0.93 6.74703910836e-39
-0.0154568715899 -0.0583926260063 0.928 7.1150985578e-39
-0.0137394414132 -0.0583926260063 0.928 7.02326306165e-39
-0.0119831469761 -0.0582038567412 0.925 8.40689395493e-39
-0.0102712688367 -0.0582038567412 0.925 7.11617475502e-39
-0.00851312372049 -0.0578892412993 0.92 7.11725095224e-39
-0.00681049897639 -0.0578892412993 0.92 7.48818026094e-39
-0.00510787423229 -0.0578892412993 0.92 7.76583914386e-39
-0.00339784677192 -0.0577633951226 0.918 7.85731590761e-39
-0.00169892338596 -0.0577633951226 0.918 7.94951013618e-39
0.0 -0.0577633951226 0.918 8.13174619886e-39
0.00169892338596 -0.0577633951226 0.918 8.50016438072e-39
0.0033867426975 -0.0575746258575 0.915 7.76512167905e-39
0.00508011404625 -0.0575746258575 0.915 7.58324434876e-39
0.006773485395 -0.0575746258575 0.915 7.21554363173e-39
0.00846685674374 -0.0575746258575 0.915 7.95309746024e-39
0.0101602280925 -0.0575746258575 0.915 7.67651477455e-39
0.0118535994412 -0.0575746258575 0.915 7.95166253062e-39
0.01354697079 -0.0575746258575 0.915 8.50267550757e-39
0.0152903104736 -0.0577633951226 0.918 8.68921635914e-39
0.0169892338596 -0.0577633951226 0.918 8.87288735145e-39
0.0186881572455 -0.0577633951226 0.918 8.78069312289e-39
0.0204314969292 -0.0578892412993 0.92 9.88451273882e-39
0.0221341216733 -0.0578892412993 0.92 9.23915313886e-39
0.0238367464174 -0.0578892412993 0.92 8.87288735145e-39
0.0255393711615 -0.0578892412993 0.92 9.33314102946e-39
0.0273308285009 -0.0580780105644 0.923 9.97850062942e-39
0.0291019283706 -0.0582038567412 0.925 9.51681202178e-39
0.03081380651 -0.0582038567412 0.925 9.79411217229e-39
0.0325256846495 -0.0582038567412 0.925 1.0436601913e-38
0.0342375627889 -0.0582038567412 0.925 1.11741557415e-38
0.0360660337097 -0.0583926260063 0.928 1.08060962921e-38
0.0377834638864 -0.0583926260063 0.928 9.69940681687e-39
-0.029510928445 -0.0572859199226 0.938 2.34961402785e-38
-0.0276861588823 -0.0571027026947 0.935 2.155496916e-38
-0.02590025358 -0.0569805578761 0.933 1.65685186397e-38
-0.024173570008 -0.0569805578761 0.933 1.335350556e-38
-0.022446886436 -0.0569805578761 0.933 8.48796747888e-39
-0.020720202864 -0.0569805578761 0.933 8.30967747267e-39
-0.018993519292 -0.0569805578761 0.933 7.48172307762e-39
-0.0172113153479 -0.0567973406482 0.93 7.85193492151e-39
-0.0154568715899 -0.0566751958296 0.928 7.30092194456e-39
-0.0137394414132 -0.0566751958296 0.928 7.30056321215e-39
-0.0119831469761 -0.0564919786017 0.925 7.11617475502e-39
-0.0102712688367 -0.0564919786017 0.925 8.31398226155e-39
-0.00855939069723 -0.0564919786017 0.925 7.85623971039e-39
-0.00683270712523 -0.0563698337831 0.923 7.30379180382e-39
-0.00512453034392 -0.0563698337831 0.923 7.7626105522e-39
-0.00340524948819 -0.0561866165552 0.92 7.85623971039e-39
-0.0017026247441 -0.0561866165552 0.92 7.94843393896e-39
0.0 -0.0561866165552 0.92 7.94879267136e-39
0.00169892338596 -0.0560644717366 0.918 7.8569571752e-39
0.00339784677192 -0.0560644717366 0.918 7.76512167905e-39
0.00509677015787 -0.0560644717366 0.918 8.22609282187e-39
0.00679569354383 -0.0560644717366 0.918 7.94986886858e-39
0.00849461692979 -0.0560644717366 0.918 8.77961692567e-39
0.0101935403157 -0.0560644717366 0.918 8.41263367344e-39
0.0118924637017 -0.0560644717366 0.918 8.41299240585e-39
0.0135913870877 -0.0560644717366 0.918 8.68706396469e-39
0.0152903104736 -0.0560644717366 0.918 9.33098863502e-39
0.017026247441 -0.0561866165552 0.92 8.87109368942e-39
0.0187288721851 -0.0561866165552 0.92 8.41263367344e-39
0.0204314969292 -0.0561866165552 0.92 9.24022933608e-39
0.022206298157 -0.0563698337831 0.923 9.23915313886e-39
0.0239144749383 -0.0563698337831 0.923 9.517888219e-39
0.0256226517196 -0.0563698337831 0.923 9.517888219e-39
0.0273900502311 -0.0564919786017 0.925 9.15018750196e-39
0.0291963130031 -0.0566751958296 0.928 1.01625303541e-38
0.0309137431798 -0.0566751958296 0.928 1.08975730558e-38
0.0327014991611 -0.0567973406482 0.93 1.10805265833e-38
0.0344226306959 -0.0567973406482 0.93 1.08957793938e-38
0.0361437622307 -0.0567973406482 0.93 9.69940681687e-39
0.0378648937655 -0.0567973406482 0.93 2.00047701222e-38
-0.029510928445 -0.0555499829552 0.938 2.34943578269e-38
-0.0276861588823 -0.0553723177646 0.935 2.23811312943e-38
-0.0259557739521 -0.0553723177646 0.935 1.6384846246e-38
-0.024173570008 -0.0552538743041 0.933 1.86025173736e-38
-0.022446886436 -0.0552538743041 0.933 1.35411156023e-38
-0.020720202864 -0.0552538743041 0.933 8.76275650254e-39
-0.018993519292 -0.0552538743041 0.933 7.94161802323e-39
-0.0172113153479 -0.0550762091134 0.93 7.66682899956e-39
-0.0154568715899 -0.054957765653 0.928 7.57571096822e-39
-0.0137394414132 -0.054957765653 0.928 7.20765151877e-39
-0.0119831469761 -0.0547801004623 0.925 7.7626105522e-39
-0.0102712688367 -0.0547801004623 0.925 6.93322122752e-39
-0.00855939069723 -0.0547801004623 0.925 7.48710406372e-39
-0.00683270712523 -0.0546616570018 0.923 7.57929829229e-39
-0.00512453034392 -0.0546616570018 0.923 7.48710406372e-39
-0.00340524948819 -0.0544839918111 0.92 7.58145068673e-39
-0.0017026247441 -0.0544839918111 0.92 7.85623971039e-39
0.0 -0.0544839918111 0.92 8.68527030266e-39
0.00169892338596 -0.0543655483507 0.918 7.67436238011e-39
0.00339784677192 -0.0543655483507 0.918 7.85982703446e-39
0.00509677015787 -0.0543655483507 0.918 8.5934348065e-39
0.00679569354383 -0.0543655483507 0.918 8.68455283785e-39
0.00849461692979 -0.0543655483507 0.918 8.31685212081e-39
0.0101935403157 -0.0543655483507 0.918 8.04385675918e-39
0.0118924637017 -0.0543655483507 0.918 8.22788648391e-39
0.0135913870877 -0.0543655483507 0.918 8.59522846854e-39
0.0153236226969 -0.0544839918111 0.92 9.42605272284e-39
0.017026247441 -0.0544839918111 0.92 8.41227494103e-39
0.0187288721851 -0.0544839918111 0.92 8.3215156421e-39
0.0204981213757 -0.0546616570018 0.923 8.68957509154e-39
0.0222544158128 -0.0547801004623 0.925 9.14982876955e-39
0.0239662939522 -0.0547801004623 0.925 9.05655834377e-39
0.0257614526498 -0.054957765653 0.928 9.42569399043e-39
0.0274788828265 -0.054957765653 0.928 9.517888219e-39
0.0291963130031 -0.054957765653 0.928 9.33349976187e-39
0.0309803676263 -0.0550762091134 0.93 1.08075312217e-38
0.0328069878681 -0.0552538743041 0.933 1.02518547234e-38
0.0345336714401 -0.0552538743041 0.933 1.09897672844e-38
0.0362603550121 -0.0552538743041 0.933 1.52159937697e-38
0.0379870385841 -0.0552538743041 0.933 2.35004450674e-38
-0.0295738515333 -0.0539287880902 0.94 2.34961360746e-38
-0.0277749914776 -0.0538140459879 0.938 2.28435415707e-38
-0.0259557739521 -0.0536419328344 0.935 1.8321324416e-38
-0.024225389022 -0.0536419328344 0.935 1.79546508507e-38
-0.0224950040919 -0.0536419328344 0.935 1.86004098207e-38
-0.0207646191617 -0.0536419328344 0.935 1.52892732716e-38
-0.018993519292 -0.0535271907321 0.933 1.08760491114e-38
-0.01726683572 -0.0535271907321 0.933 8.12134295907e-39
-0.0154901838131 -0.0533550775786 0.93 7.75830576332e-39
-0.0137394414132 -0.0532403354763 0.928 7.94377041767e-39
-0.0120220112366 -0.0532403354763 0.928 7.39311617313e-39
-0.0102712688367 -0.0530682223228 0.925 7.66934012641e-39
-0.00855939069723 -0.0530682223228 0.925 7.39311617313e-39
-0.00684751255778 -0.0530682223228 0.925 7.67077505604e-39
-0.00512453034392 -0.0529534802205 0.923 7.48710406372e-39
-0.00341635356261 -0.0529534802205 0.923 7.76440421423e-39
-0.0017026247441 -0.052781367067 0.92 7.76476294664e-39
0.0 -0.052781367067 0.92 7.85623971039e-39
0.0017026247441 -0.052781367067 0.92 7.85803337242e-39
0.00340524948819 -0.052781367067 0.92 8.31756958562e-39
0.00509677015787 -0.0526666249647 0.918 8.40904634937e-39
0.00679569354383 -0.0526666249647 0.918 8.59271734169e-39
0.00849461692979 -0.0526666249647 0.918 8.40904634937e-39
0.0101935403157 -0.0526666249647 0.918 8.77782326363e-39
0.0119183732087 -0.052781367067 0.92 8.77818199604e-39
0.0136209979528 -0.052781367067 0.92 8.6874226971e-39
0.0153236226969 -0.052781367067 0.92 8.22788648391e-39
0.017026247441 -0.052781367067 0.92 8.3215156421e-39
0.0187899445944 -0.0529534802205 0.923 7.86126196409e-39
0.0204981213757 -0.0529534802205 0.923 9.42712892006e-39
0.0222544158128 -0.0530682223228 0.925 9.14875257233e-39
0.0240440224732 -0.0532403354763 0.928 8.96615777724e-39
0.0257614526498 -0.0532403354763 0.928 9.51896441622e-39
0.0274788828265 -0.0532403354763 0.928 1.07153369931e-38
0.0292592360915 -0.0533550775786 0.93 9.7948296371e-39
0.0309803676263 -0.0533550775786 0.93 1.05305898036e-38
0.0328773136727 -0.0536419328344 0.935 1.08028677004e-38
0.0346076986028 -0.0536419328344 0.935 1.9451943865e-38
0.036338083533 -0.0536419328344 0.935 2.35018645827e-38
0.0380684684631 -0.0536419328344 0.935 2.34986429976e-38
-0.0314134265286 -0.052355710881 0.943 2.3490358521e-38
-0.0296682361659 -0.052355710881 0.943 2.34946717177e-38
-0.0277749914776 -0.0520781090205 0.938 2.30282985693e-38
-0.0260390545103 -0.0520781090205 0.938 1.7951116776e-38
-0.024225389022 -0.0519115479043 0.935 1.97982047156e-38
-0.0224950040919 -0.0519115479043 0.935 1.89691573077e-38
-0.0207646191617 -0.0519115479043 0.935 1.9614194609e-38
-0.0190342342316 -0.0519115479043 0.935 1.80526086198e-38
-0.01726683572 -0.0518005071601 0.933 1.36326259972e-38
-0.015540152148 -0.0518005071601 0.933 1.22582450751e-38
-0.0137690522784 -0.0516339460438 0.93 8.67486706286e-39
-0.0120220112366 -0.0515229052996 0.928 7.57571096822e-39
-0.0102712688367 -0.0513563441834 0.925 7.6686226616e-39
-0.00855939069723 -0.0513563441834 0.925 7.48638659891e-39
-0.00684751255778 -0.0513563441834 0.925 7.48674533132e-39
-0.00513563441834 -0.0513563441834 0.925 8.68634649988e-39
-0.00341635356261 -0.0512453034392 0.923 8.04098689993e-39
-0.0017026247441 -0.0510787423229 0.92 8.13210493127e-39
0.0 -0.0510787423229 0.92 8.13210493127e-39
0.0017026247441 -0.0510787423229 0.92 8.04098689993e-39
0.00340524948819 -0.0510787423229 0.92 8.40904634937e-39
0.00510787423229 -0.0510787423229 0.92 7.85839210483e-39
0.00681049897639 -0.0510787423229 0.92 8.04385675918e-39
0.00851312372049 -0.0510787423229 0.92 8.59379353891e-39
0.0102157484646 -0.0510787423229 0.92 8.59451100372e-39
0.0119183732087 -0.0510787423229 0.92 8.96472284761e-39
0.0136654142505 -0.0512453034392 0.923 8.68849889432e-39
0.0153735910318 -0.0512453034392 0.923 8.50411043719e-39
0.0170817678131 -0.0512453034392 0.923 8.78069312289e-39
0.0187899445944 -0.0512453034392 0.923 8.59451100372e-39
0.0205425376733 -0.0513563441834 0.925 8.96508158002e-39
0.0223265922965 -0.0515229052996 0.928 9.79447090469e-39
0.0240440224732 -0.0515229052996 0.928 8.68993382395e-39
0.0258169730219 -0.0516339460438 0.93 8.78284551733e-39
0.0275381045567 -0.0516339460438 0.93 9.0579932734e-39
0.0293536207241 -0.0518005071601 0.933 1.12649150404e-38
0.0310803042961 -0.0518005071601 0.933 1.44798748708e-38
0.0328773136727 -0.0519115479043 0.935 2.18412208051e-38
0.0346076986028 -0.0519115479043 0.935 2.34993534559e-38
0.0364546763144 -0.0520781090205 0.938 2.34946857307e-38
-0.0314134265286 -0.0506105205183 0.943 2.34907186548e-38
-0.0296682361659 -0.0506105205183 0.943 2.34914417248e-38
-0.0278342132079 -0.0504495114392 0.94 2.29339519463e-38
-0.0260390545103 -0.0503421720532 0.938 1.80411193737e-38
-0.0243031175429 -0.0503421720532 0.938 1.93365329235e-38
-0.0225671805756 -0.0503421720532 0.938 1.95230751764e-38
-0.0208312436082 -0.0503421720532 0.938 1.96141890038e-38
-0.0190342342316 -0.0501811629741 0.935 1.93386839166e-38
-0.0173038493014 -0.0501811629741 0.935 1.98929535112e-38
-0.015540152148 -0.0500738235881 0.933 1.83292361471e-38
-0.0137690522784 -0.049912814509 0.93 1.60303835956e-38
-0.0120220112366 -0.049805475123 0.928 1.32709466596e-38
-0.0103045810599 -0.049805475123 0.928 9.225162575e-39
-0.00855939069723 -0.0496444660439 0.925 9.14050172698e-39
-0.00684751255778 -0.0496444660439 0.925 9.14301285382e-39
-0.00513563441834 -0.0496444660439 0.925 8.96041805873e-39
-0.00342375627889 -0.0496444660439 0.925 8.31685212081e-39
-0.00170817678131 -0.0495371266579 0.923 7.21303250488e-39
0.0 -0.0495371266579 0.923 7.58288561636e-39
0.00170817678131 -0.0495371266579 0.923 8.59486973613e-39
0.00341635356261 -0.0495371266579 0.923 8.40976381419e-39
0.00510787423229 -0.0493761175788 0.92 7.58360308117e-39
0.00681049897639 -0.0493761175788 0.92 7.86090323168e-39
0.00851312372049 -0.0493761175788 0.92 8.78069312289e-39
0.0102157484646 -0.0493761175788 0.92 8.04385675918e-39
0.0119183732087 -0.0493761175788 0.92 8.32115690969e-39
0.0136654142505 -0.0495371266579 0.923 8.22932141353e-39
0.0153735910318 -0.0495371266579 0.923 9.0583520058e-39
0.0171187813945 -0.0496444660439 0.925 8.41191620863e-39
0.0188306595339 -0.0496444660439 0.925 9.79160104544e-39
0.0205425376733 -0.0496444660439 0.925 9.51537709215e-39
0.0223265922965 -0.049805475123 0.928 9.23843567405e-39
0.0240440224732 -0.049805475123 0.928 9.883795274e-39
0.0257614526498 -0.049805475123 0.928 1.08925508021e-38
0.0275381045567 -0.049912814509 0.93 1.61361479985e-38
0.0293536207241 -0.0500738235881 0.933 2.11050038153e-38
0.0310803042961 -0.0500738235881 0.933 2.35007519518e-38
0.0329828023797 -0.0503421720532 0.938 2.34961458837e-38
0.034718739347 -0.0503421720532 0.938 2.34918074637e-38
0.0364546763144 -0.0503421720532 0.938 2.34939654633e-38
-0.0314134265286 -0.0488653301556 0.943 2.34907298651e-38
-0.0296682361659 -0.0488653301556 0.943 2.34946829281e-38
-0.0278342132079 -0.0487098731137 0.94 2.34918018585e-38
-0.0260945748824 -0.0487098731137 0.94 1.79507216098e-38
-0.0243031175429 -0.0486062350858 0.938 1.93365273183e-38
-0.0225671805756 -0.0486062350858 0.938 1.87851570103e-38
-0.0208312436082 -0.0486062350858 0.938 2.04439566791e-38
-0.0190342342316 -0.048450778044 0.935 2.08138280074e-38
-0.0173038493014 -0.048450778044 0.935 1.9615988271e-38
-0.015540152148 -0.0483471400161 0.933 2.05375774295e-38
-0.0137690522784 -0.0481916829742 0.93 2.09996443877e-38
-0.0120479207436 -0.0481916829742 0.93 1.95270184302e-38
-0.0103045810599 -0.0480880449463 0.928 1.84260420489e-38
-0.00858715088327 -0.0480880449463 0.928 1.64927224057e-38
-0.00684751255778 -0.0479325879045 0.925 1.44655255745e-38
-0.00513563441834 -0.0479325879045 0.925 1.26309680458e-38
-0.00342375627889 -0.0479325879045 0.925 1.06077172711e-38
-0.00171187813945 -0.0479325879045 0.925 8.86356030887e-39
0.0 -0.0478289498766 0.923 8.5930760741e-39
0.00170817678131 -0.0478289498766 0.923 9.05261228729e-39
0.00341635356261 -0.0478289498766 0.923 9.51358343012e-39
0.00512453034392 -0.0478289498766 0.923 8.22465789224e-39
0.00683270712523 -0.0478289498766 0.923 8.50195804275e-39
0.00854088390653 -0.0478289498766 0.923 9.33098863502e-39
0.0102490606878 -0.0478289498766 0.923 7.94771647414e-39
0.0119572374691 -0.0478289498766 0.923 9.60721258831e-39
0.0136950251156 -0.0479325879045 0.925 8.68562903507e-39
0.015406903255 -0.0479325879045 0.925 9.69833061965e-39
0.0171187813945 -0.0479325879045 0.925 1.08021502356e-38
0.0188306595339 -0.0479325879045 0.925 1.13535219449e-38
0.0205425376733 -0.0479325879045 0.925 1.3467890751e-38
0.0223265922965 -0.0480880449463 0.928 1.63173022588e-38
0.0240440224732 -0.0480880449463 0.928 1.97217582791e-38
0.0257614526498 -0.0480880449463 0.928 2.25758921627e-38
0.0275381045567 -0.0481916829742 0.93 2.35007127154e-38
0.0293536207241 -0.0483471400161 0.933 2.34982898704e-38
0.0310803042961 -0.0483471400161 0.933 2.3496842329e-38
0.0329828023797 -0.0486062350858 0.938 2.34928962726e-38
0.034718739347 -0.0486062350858 0.938 2.34943283996e-38
0.0364546763144 -0.0486062350858 0.938 2.34932395907e-38
0.0381906132817 -0.0486062350858 0.938 2.34961122525e-38
-0.0315133631984 -0.0472700447975 0.946 2.34943241957e-38
-0.0296682361659 -0.0471201397929 0.943 2.34939682659e-38
-0.0279230458032 -0.0471201397929 0.943 2.34900124003e-38
-0.0260945748824 -0.0469702347883 0.94 1.82251238751e-38
-0.0243549365569 -0.0469702347883 0.94 1.97056405442e-38
-0.0226152982314 -0.0469702347883 0.94 1.90627920711e-38
-0.0208312436082 -0.0468702981185 0.938 2.05347005637e-38
-0.0190342342316 -0.0467203931138 0.935 1.95216248325e-38
-0.0173038493014 -0.0467203931138 0.935 2.00751671531e-38
-0.015540152148 -0.0466204564441 0.933 2.03517540427e-38
-0.013813468576 -0.0466204564441 0.933 2.06297702567e-38
-0.0120479207436 -0.0464705514394 0.93 2.09978465218e-38
-0.0103045810599 -0.0463706147697 0.928 2.19201587502e-38
-0.00858715088327 -0.0463706147697 0.928 2.22892845878e-38
-0.00684751255778 -0.046220709765 0.925 2.10928965966e-38
-0.00513563441834 -0.046220709765 0.925 2.00820012857e-38
-0.00342375627889 -0.046220709765 0.925 2.05447170452e-38
-0.00171187813945 -0.046220709765 0.925 1.90724414123e-38
0.0 -0.046220709765 0.925 1.73246228572e-38
0.00171187813945 -0.046220709765 0.925 1.61264748352e-38
0.00342375627889 -0.046220709765 0.925 1.62200857765e-38
0.00513563441834 -0.046220709765 0.925 1.51141137661e-38
0.00684751255778 -0.046220709765 0.925 1.60374909814e-38
0.00855939069723 -0.046220709765 0.925 1.57598320985e-38
