# .PCD v0.7 - Point Cloud Data file format
VERSION 0.7
FIELDS x y z rgb
SIZE 4 4 4 4
TYPE F F F F
COUNT 1 1 1 1
WIDTH 843
HEIGHT 1
VIEWPOINT 0 0 0 1 0 0 0
POINTS 843
DATA ascii
-0.0117888256738 -0.0943106053904 0.91 7.65321678628e-39
-0.0100824995716 -0.0941033293346 0.908 1.87027074112e-38
-0.00840208297631 -0.0941033293346 0.908 1.91542842491e-38
-0.00670686094849 -0.0938960532788 0.906 1.84163688856e-38
-0.00501348959974 -0.0935851391951 0.903 1.98918703075e-38
-0.00333492368355 -0.0933778631393 0.901 2.07230196631e-38
-0.00166190980456 -0.0930669490556 0.898 2.08130671024e-38
0.0 -0.0930669490556 0.898 2.0998199649e-38
0.00166190980456 -0.0930669490556 0.898 2.09077864708e-38
0.00331641689285 -0.0928596729998 0.896 2.11829468385e-38
0.00497462533928 -0.0928596729998 0.896 2.10903980815e-38
0.00661802835314 -0.092652396944 0.894 2.18290140942e-38
0.00827253544143 -0.092652396944 0.894 2.22889356645e-38
0.00989373030646 -0.0923414828603 0.891 2.26576859541e-38
0.0115426853575 -0.0923414828603 0.891 2.21985224863e-38
0.0131916404086 -0.0923414828603 0.891 2.22892537592e-38
0.0148405954597 -0.0923414828603 0.891 2.293286594e-38
0.0164895505108 -0.0923414828603 0.891 2.3486743171e-38
0.0181385055618 -0.0923414828603 0.891 2.33934937647e-38
0.0197430443153 -0.0921342068045 0.889 2.29332190672e-38
0.0213882980082 -0.0921342068045 0.889 2.3485686592e-38
0.0230335517011 -0.0921342068045 0.889 2.34892865277e-38
0.0246788053941 -0.0921342068045 0.889 2.24708115935e-38
0.026324059087 -0.0921342068045 0.889 2.34885480434e-38
0.0279693127799 -0.0921342068045 0.889 2.34878291773e-38
0.0296811909194 -0.0923414828603 0.891 2.34860467257e-38
0.0313301459705 -0.0923414828603 0.891 2.34885606551e-38
0.0330901417657 -0.092652396944 0.894 2.34885676616e-38
0.034744648854 -0.092652396944 0.894 2.34860565348e-38
0.0364805858214 -0.0928596729998 0.896 2.34910829924e-38
0.0381387942678 -0.0928596729998 0.896 2.34903445081e-38
0.0398858353096 -0.0930669490556 0.898 2.34892865277e-38
0.0415477451141 -0.0930669490556 0.898 2.34903655275e-38
0.0432096549187 -0.0930669490556 0.898 2.34889277953e-38
0.0450214697279 -0.0933778631393 0.901 2.3490386547e-38
0.0466889315697 -0.0933778631393 0.901 2.34924912973e-38
0.0484637327975 -0.0935851391951 0.903 2.3492156387e-38
0.0503014571137 -0.0938960532788 0.906 2.34903837444e-38
0.0519781723508 -0.0938960532788 0.906 2.11861614172e-38
-0.0153236226969 -0.0936443609254 0.92 2.21927421301e-38
-0.01354697079 -0.0931354241812 0.915 1.20609492578e-38
-0.0118276899343 -0.0929318494835 0.913 7.55562195344e-39
-0.0101047077204 -0.092626487437 0.91 1.45595442937e-38
-0.00840208297631 -0.0924229127394 0.908 1.96192687108e-38
-0.00670686094849 -0.0922193380417 0.906 2.00794677381e-38
-0.00503014571137 -0.0922193380417 0.906 1.92482833501e-38
-0.00334232639983 -0.0919139759952 0.903 1.9892947906e-38
-0.00166746184177 -0.0917104012975 0.901 2.04428734754e-38
0.0 -0.0914050392511 0.898 2.09974933946e-38
0.00166190980456 -0.0914050392511 0.898 2.12747921438e-38
0.00332381960913 -0.0914050392511 0.898 2.11818720426e-38
0.00497462533928 -0.0912014645534 0.896 2.19190643361e-38
0.0066328337857 -0.0912014645534 0.896 2.17350458218e-38
0.00827253544143 -0.0909978898557 0.894 2.23800803205e-38
0.00992704252972 -0.0909978898557 0.894 2.18283106424e-38
0.011581549618 -0.0909978898557 0.894 2.27488376166e-38
0.0131916404086 -0.0906925278092 0.891 2.23804334477e-38
0.0148405954597 -0.0906925278092 0.891 2.31183305944e-38
0.0164895505108 -0.0906925278092 0.891 2.29317869402e-38
0.0181385055618 -0.0906925278092 0.891 2.28395913103e-38
0.0197874606129 -0.0906925278092 0.891 2.33023463061e-38
0.021436415664 -0.0906925278092 0.891 2.34867557827e-38
0.0230335517011 -0.0904889531116 0.889 2.3116549544e-38
0.0246788053941 -0.0904889531116 0.889 2.34882005214e-38
0.026324059087 -0.0904889531116 0.889 2.34892725147e-38
0.0279693127799 -0.0904889531116 0.889 2.34871397385e-38
0.0296811909194 -0.0906925278092 0.891 2.34860383179e-38
0.0314356346774 -0.0909978898557 0.894 2.34860467257e-38
0.0330901417657 -0.0909978898557 0.894 2.3486048127e-38
0.034744648854 -0.0909978898557 0.894 2.34914431261e-38
0.0364805858214 -0.0912014645534 0.896 2.34906892275e-38
0.0381387942678 -0.0912014645534 0.896 2.34903375016e-38
0.0398858353096 -0.0914050392511 0.898 2.34921493805e-38
0.0415477451141 -0.0914050392511 0.898 2.34881949162e-38
0.0432096549187 -0.0914050392511 0.898 2.34932339855e-38
0.0450214697279 -0.0917104012975 0.901 2.34928724505e-38
0.0466889315697 -0.0917104012975 0.901 2.34899997886e-38
0.0484637327975 -0.0919139759952 0.903 2.34953975903e-38
0.0503014571137 -0.0922193380417 0.906 2.2200676282e-38
0.0519781723508 -0.0922193380417 0.906 1.6589601175e-38
0.0536548875879 -0.0922193380417 0.906 1.41136090834e-38
-0.0153236226969 -0.0919417361813 0.92 2.35069106585e-38
-0.0135913870877 -0.0917418628417 0.918 1.38148746716e-38
-0.0118535994412 -0.0914420528324 0.915 9.02534862437e-39
-0.0101380199437 -0.0912421794929 0.913 7.19617208176e-39
-0.008420589767 -0.0909423694836 0.91 1.46520930508e-38
-0.00672166638105 -0.0907424961441 0.908 1.96242335112e-38
-0.00503014571137 -0.0905426228046 0.906 2.03578903287e-38
-0.00334232639983 -0.0902428127953 0.903 1.9800770493e-38
-0.00166746184177 -0.0900429394558 0.901 2.14566792831e-38
0.0 -0.0900429394558 0.901 2.11832971631e-38
0.00166190980456 -0.0897431294465 0.898 2.14595337281e-38
0.00332381960913 -0.0897431294465 0.898 2.15510006828e-38
0.00498572941369 -0.0897431294465 0.898 2.15506349439e-38
0.0066328337857 -0.089543256107 0.896 2.16421018985e-38
0.00829104223213 -0.089543256107 0.896 2.26562790504e-38
0.00994925067855 -0.089543256107 0.896 2.256659735e-38
0.011581549618 -0.0893433827674 0.894 2.21981749642e-38
0.0132360567063 -0.0893433827674 0.894 2.22900202695e-38
0.0148905637946 -0.0893433827674 0.894 2.25658756813e-38
0.0165450708829 -0.0893433827674 0.894 2.34864040568e-38
0.0181995779711 -0.0893433827674 0.894 2.34889151836e-38
0.0198540850594 -0.0893433827674 0.894 2.3026879054e-38
0.021436415664 -0.0890435727582 0.891 2.34896340497e-38
0.0230853707151 -0.0890435727582 0.891 2.34878207695e-38
0.0247343257662 -0.0890435727582 0.891 2.3488888559e-38
0.0263832808172 -0.0890435727582 0.891 2.34867557827e-38
0.0280322358683 -0.0890435727582 0.891 2.34871271268e-38
0.0297811275891 -0.0893433827674 0.894 2.34889081771e-38
0.0314356346774 -0.0893433827674 0.894 2.34871355346e-38
0.0330901417657 -0.0893433827674 0.894 2.34871117125e-38
0.034744648854 -0.0893433827674 0.894 2.31165341297e-38
0.0364805858214 -0.089543256107 0.896 2.34881949162e-38
0.038223925505 -0.0897431294465 0.898 2.34878263747e-38
0.0398858353096 -0.0897431294465 0.898 2.34939556542e-38
0.0415477451141 -0.0897431294465 0.898 2.34907186548e-38
0.0433540078861 -0.0900429394558 0.901 2.34871145151e-38
0.0450214697279 -0.0900429394558 0.901 2.34918158714e-38
0.0467925695976 -0.0902428127953 0.903 2.34936081322e-38
0.0484637327975 -0.0902428127953 0.903 2.16492947636e-38
0.0503014571137 -0.0905426228046 0.906 1.76963214788e-38
0.0519781723508 -0.0905426228046 0.906 1.34704018779e-38
0.0536548875879 -0.0905426228046 0.906 1.28271946723e-38
-0.0153236226969 -0.0902391114372 0.92 2.35058652899e-38
-0.0135913870877 -0.0900429394558 0.918 1.42743856614e-38
-0.0118535994412 -0.0897486814837 0.915 6.63152727335e-39
-0.0101602280925 -0.0897486814837 0.915 7.664694822e-39
-0.008420589767 -0.0892582515302 0.91 8.39900184198e-39
-0.00672166638105 -0.0890620795488 0.908 1.28139215733e-38
-0.00503014571137 -0.0888659075675 0.906 1.7228223332e-38
-0.00335343047424 -0.0888659075675 0.906 2.07259119431e-38
-0.00167116319991 -0.0885716495954 0.903 2.18286763813e-38
0.0 -0.0885716495954 0.903 2.11836320735e-38
0.00166746184177 -0.088375477614 0.901 2.11832971631e-38
0.00332381960913 -0.0880812196419 0.898 2.09056340763e-38
0.00498572941369 -0.0880812196419 0.898 2.20116229023e-38
0.00664763921826 -0.0880812196419 0.898 2.24743863058e-38
0.00829104223213 -0.0878850476605 0.896 2.21041590477e-38
0.00994925067855 -0.0878850476605 0.896 2.15528027526e-38
0.011607459125 -0.0878850476605 0.896 2.25676777511e-38
0.0132656675714 -0.0878850476605 0.896 2.24729639879e-38
0.0149238760178 -0.0878850476605 0.896 2.28410234373e-38
0.0165450708829 -0.0876888756792 0.894 2.33005736635e-38
0.0181995779711 -0.0876888756792 0.894 2.34860369166e-38
0.0198540850594 -0.0876888756792 0.894 2.27495284567e-38
0.0215085921477 -0.0876888756792 0.894 2.34882005214e-38
0.023163099236 -0.0876888756792 0.894 2.27488404192e-38
0.0248176063243 -0.0876888756792 0.894 2.3302364523e-38
0.0264721134126 -0.0876888756792 0.894 2.34874760501e-38
0.0281266205009 -0.0876888756792 0.894 2.30261377671e-38
0.0297811275891 -0.0876888756792 0.894 2.34878291773e-38
0.0314356346774 -0.0876888756792 0.894 2.34867599866e-38
0.0330901417657 -0.0876888756792 0.894 2.34878179669e-38
0.0348223773749 -0.0878850476605 0.896 2.34932437946e-38
0.0365620157004 -0.0880812196419 0.898 2.34900067951e-38
0.038223925505 -0.0880812196419 0.898 2.34917780364e-38
0.0400190842026 -0.088375477614 0.901 2.34889011706e-38
0.0416865460443 -0.088375477614 0.901 2.34928584375e-38
0.0433540078861 -0.088375477614 0.901 2.34935997244e-38
0.0451214063976 -0.0885716495954 0.903 2.34921269597e-38
0.0469480266394 -0.0888659075675 0.906 1.92572432525e-38
0.0486247418765 -0.0888659075675 0.906 1.65027753209e-38
0.0503014571137 -0.0888659075675 0.906 1.31974065162e-38
0.0519781723508 -0.0888659075675 0.906 9.42354159599e-39
0.0536548875879 -0.0888659075675 0.906 1.76195597502e-38
-0.0153735910318 -0.0888251926279 0.923 2.35047778822e-38
-0.0136209979528 -0.0885364866931 0.92 1.46442541871e-38
-0.0118924637017 -0.0883440160698 0.918 7.0953878936e-39
-0.0101602280925 -0.0880553101349 0.915 6.7441692491e-39
-0.00844834995305 -0.0878628395117 0.913 6.93035136827e-39
-0.0067364718136 -0.0875741335768 0.91 9.04723130119e-39
-0.00504124978578 -0.0873816629536 0.908 1.05162405073e-38
-0.00335343047424 -0.0871891923303 0.906 1.41943771243e-38
-0.00167116319991 -0.0869004863955 0.903 1.90728491902e-38
0.0 -0.0869004863955 0.903 1.97128740469e-38
0.00167116319991 -0.0869004863955 0.903 2.15542474913e-38
0.00333492368355 -0.0867080157722 0.901 2.30265287294e-38
0.00500238552532 -0.0867080157722 0.901 2.29339197164e-38
0.00664763921826 -0.0864193098374 0.898 2.13662815192e-38
0.00830954902282 -0.0864193098374 0.898 2.21034583984e-38
0.00994925067855 -0.0862268392141 0.896 2.22889384671e-38
0.011607459125 -0.0862268392141 0.896 2.24729639879e-38
0.0132656675714 -0.0862268392141 0.896 2.30257818373e-38
0.0149238760178 -0.0862268392141 0.896 2.28406422842e-38
0.0165820844643 -0.0862268392141 0.896 2.31168998686e-38
0.0182402929107 -0.0862268392141 0.896 2.34860397192e-38
0.0198540850594 -0.0860343685909 0.894 2.33949104774e-38
0.0215085921477 -0.0860343685909 0.894 2.34899997886e-38
0.023163099236 -0.0860343685909 0.894 2.3394232249e-38
0.0248176063243 -0.0860343685909 0.894 2.34874830566e-38
0.0264721134126 -0.0860343685909 0.894 2.34896592731e-38
0.0281266205009 -0.0860343685909 0.894 2.34867599866e-38
0.0298477520357 -0.0862268392141 0.896 2.34896284445e-38
0.0315059604821 -0.0862268392141 0.896 2.34907032405e-38
0.0331641689285 -0.0862268392141 0.896 2.34896564705e-38
0.0348223773749 -0.0862268392141 0.896 2.34914291131e-38
0.036684160519 -0.0867080157722 0.901 2.34896284445e-38
0.0383516223608 -0.0867080157722 0.901 2.34907088457e-38
0.0400190842026 -0.0867080157722 0.901 2.34935843101e-38
0.0417790799978 -0.0869004863955 0.903 2.15574872934e-38
0.0434502431977 -0.0869004863955 0.903 2.08263303923e-38
0.0452713114023 -0.0871891923303 0.906 1.61340180248e-38
0.0469480266394 -0.0871891923303 0.906 1.43923441635e-38
0.0486247418765 -0.0871891923303 0.906 1.09904847492e-38
0.0503014571137 -0.0871891923303 0.906 9.05906947062e-39
0.0519781723508 -0.0871891923303 0.906 8.59594593335e-39
-0.0153735910318 -0.0871170158466 0.923 2.3504400933e-38
-0.0136654142505 -0.0871170158466 0.923 1.54750770401e-38
-0.0119183732087 -0.086833861949 0.92 5.5269901926e-39
-0.0101935403157 -0.0866450926839 0.918 6.92819897383e-39
-0.00844834995305 -0.0861731695211 0.913 7.20549912433e-39
-0.0067364718136 -0.0858900156234 0.91 7.02218686442e-39
-0.00504124978578 -0.0857012463583 0.908 8.40474156049e-39
-0.00335343047424 -0.0855124770932 0.906 8.77208354512e-39
-0.00167671523712 -0.0855124770932 0.906 1.08846586892e-38
0.0 -0.0855124770932 0.906 1.5578324711e-38
0.00167116319991 -0.0852293231956 0.903 1.63102243002e-38
0.00334232639983 -0.0852293231956 0.903 1.96227887725e-38
0.00501348959974 -0.0852293231956 0.903 2.02660057871e-38
0.00666984736709 -0.0850405539305 0.901 2.22021350337e-38
0.00830954902282 -0.0847574000328 0.898 2.29382539326e-38
0.00997145882739 -0.0847574000328 0.898 2.21985379005e-38
0.011633368632 -0.0847574000328 0.898 2.27502753488e-38
0.0132656675714 -0.0845686307677 0.896 2.29336016217e-38
0.0149238760178 -0.0845686307677 0.896 2.33941916113e-38
0.0165820844643 -0.0845686307677 0.896 2.34903697314e-38
0.0182402929107 -0.0845686307677 0.896 2.34885354317e-38
0.0198985013571 -0.0845686307677 0.896 2.30265007034e-38
0.0215567098035 -0.0845686307677 0.896 2.34867599866e-38
0.02321491825 -0.0845686307677 0.896 2.34878544007e-38
0.0248731266964 -0.0845686307677 0.896 2.34881921136e-38
0.0265313351428 -0.0845686307677 0.896 2.34871005021e-38
0.0281895435892 -0.0845686307677 0.896 2.34889291966e-38
0.0298477520357 -0.0845686307677 0.896 2.34881991201e-38
0.0315059604821 -0.0845686307677 0.896 2.34907144509e-38
0.0332381960913 -0.0847574000328 0.898 2.30297531171e-38
0.0349001058959 -0.0847574000328 0.898 2.34921605909e-38
0.036684160519 -0.0850405539305 0.901 2.2940030779e-38
0.038436753598 -0.0852293231956 0.903 2.08234591318e-38
0.0401079167979 -0.0852293231956 0.903 1.70502682361e-38
0.0417790799978 -0.0852293231956 0.903 1.62286953543e-38
0.0434502431977 -0.0852293231956 0.903 1.24573415609e-38
0.0452713114023 -0.0855124770932 0.906 1.22797690195e-38
0.0469480266394 -0.0855124770932 0.906 1.07156957255e-38
0.0486247418765 -0.0855124770932 0.906 1.06242189618e-38
0.0503014571137 -0.0855124770932 0.906 1.04394717722e-38
0.0519781723508 -0.0855124770932 0.906 7.1201208115e-39
-0.0153735910318 -0.0854088390653 0.923 2.35036918759e-38
-0.0136654142505 -0.0854088390653 0.923 1.59371439984e-38
-0.0119183732087 -0.0851312372049 0.92 5.06530158496e-39
-0.0101935403157 -0.0849461692979 0.918 7.57212364415e-39
-0.00846685674374 -0.0846685674374 0.915 6.92855770623e-39
-0.00675867996244 -0.0844834995305 0.913 6.8381571397e-39
-0.0050523538602 -0.08420589767 0.91 7.66647026716e-39
-0.00336083319052 -0.0840208297631 0.908 8.03560591382e-39
-0.00167671523712 -0.0838357618561 0.906 8.21963563855e-39
0.0 -0.0838357618561 0.906 8.77280100994e-39
0.00167671523712 -0.0838357618561 0.906 1.01485397903e-38
0.00334232639983 -0.0835581599956 0.903 1.22650637934e-38
0.00501348959974 -0.0835581599956 0.903 1.52116889808e-38
0.00666984736709 -0.0833730920887 0.901 1.6408090985e-38
0.00833730920887 -0.0833730920887 0.901 1.68630337418e-38
0.00997145882739 -0.0830954902282 0.898 2.00859123098e-38
0.011633368632 -0.0830954902282 0.898 2.08227332592e-38
0.0132952784365 -0.0830954902282 0.898 2.10057176153e-38
0.0149238760178 -0.0829104223213 0.896 2.19280494619e-38
0.0165820844643 -0.0829104223213 0.896 2.14670741152e-38
0.0182402929107 -0.0829104223213 0.896 2.21103079453e-38
0.0198985013571 -0.0829104223213 0.896 2.24772954015e-38
0.0215567098035 -0.0829104223213 0.896 2.28453520483e-38
0.02321491825 -0.0829104223213 0.896 2.34892416862e-38
0.0248731266964 -0.0829104223213 0.896 2.33988369157e-38
0.0265313351428 -0.0829104223213 0.896 2.20173486078e-38
0.0281895435892 -0.0829104223213 0.896 2.08209984517e-38
0.0298477520357 -0.0829104223213 0.896 2.06387609877e-38
0.0315762862867 -0.0830954902282 0.898 1.91665091769e-38
0.0332381960913 -0.0830954902282 0.898 1.85253618802e-38
0.0349001058959 -0.0830954902282 0.898 1.60408106575e-38
0.036684160519 -0.0833730920887 0.901 1.41103804917e-38
0.038436753598 -0.0835581599956 0.903 1.3469684413e-38
0.0401079167979 -0.0835581599956 0.903 1.14485860328e-38
0.0417790799978 -0.0835581599956 0.903 1.02543658503e-38
0.0435945961652 -0.0838357618561 0.906 9.42677018766e-39
0.0452713114023 -0.0838357618561 0.906 9.79590583432e-39
0.0470516646673 -0.0840208297631 0.908 8.69065128876e-39
0.0487320812626 -0.0840208297631 0.908 8.8753984783e-39
0.0504124978578 -0.0840208297631 0.908 9.6118761096e-39
-0.0136654142505 -0.083700662284 0.923 1.63988480203e-38
-0.0119572374691 -0.083700662284 0.923 6.16876246849e-39
-0.0101935403157 -0.0832472459119 0.918 7.20298799749e-39
-0.00846685674374 -0.0829751960887 0.915 7.2040697999e-39
-0.00675867996244 -0.0827938295399 0.913 6.65376868257e-39
-0.0050523538602 -0.0825217797166 0.91 6.84030953414e-39
-0.0033682359068 -0.0825217797166 0.91 7.1150985578e-39
-0.00168041659526 -0.0823404131678 0.908 6.83959206933e-39
0.0 -0.0823404131678 0.908 7.02505672368e-39
0.00168041659526 -0.0823404131678 0.908 7.39311617313e-39
0.00335343047424 -0.082159046619 0.906 8.31362352915e-39
0.00503014571137 -0.082159046619 0.906 7.76189308738e-39
0.00668465279965 -0.0818869967957 0.903 8.77459467197e-39
0.00835581599956 -0.0818869967957 0.903 1.0615609384e-38
0.0100047710506 -0.0817056302469 0.901 1.10708408083e-38
0.0116722328924 -0.0817056302469 0.901 1.1345629832e-38
0.0132952784365 -0.0814335804237 0.898 1.35568984269e-38
0.0149571882411 -0.0814335804237 0.898 1.51220058791e-38
0.0166190980456 -0.0814335804237 0.898 1.47521765897e-38
0.0182810078502 -0.0814335804237 0.898 1.62244129862e-38
0.0198985013571 -0.0812522138748 0.896 1.59478345044e-38
0.0215567098035 -0.0812522138748 0.896 1.65017089328e-38
0.0232667372639 -0.0814335804237 0.898 1.59474533512e-38
0.0249286470685 -0.0814335804237 0.898 1.52116889808e-38
0.026590556873 -0.0814335804237 0.898 1.429046416e-38
0.0282524666776 -0.0814335804237 0.898 1.40174687983e-38
0.0299143764822 -0.0814335804237 0.898 1.36512030109e-38
0.0315762862867 -0.0814335804237 0.898 1.11676985582e-38
0.0332381960913 -0.0814335804237 0.898 1.12638388432e-38
0.0349001058959 -0.0814335804237 0.898 1.03447664168e-38
0.036684160519 -0.0817056302469 0.901 9.79447090469e-39
0.038436753598 -0.0818869967957 0.903 8.3218743745e-39
0.0401079167979 -0.0818869967957 0.903 9.24489285737e-39
0.041917880928 -0.082159046619 0.906 8.50698029645e-39
0.0435945961652 -0.082159046619 0.906 9.3352934239e-39
0.0453712480721 -0.0823404131678 0.908 9.79590583432e-39
0.0470516646673 -0.0823404131678 0.908 1.10848313722e-38
0.0487320812626 -0.0823404131678 0.908 9.517888219e-39
0.0504124978578 -0.0823404131678 0.908 9.88738259807e-39
-0.015406903255 -0.0821701506934 0.925 2.35058428691e-38
-0.0136950251156 -0.0821701506934 0.925 1.56598354401e-38
-0.0119572374691 -0.0819924855027 0.923 6.811969674e-39
-0.0102157484646 -0.0817259877167 0.92 7.11079376892e-39
-0.00849461692979 -0.081548322526 0.918 7.48028814799e-39
-0.006773485395 -0.08128182474 0.915 6.46973895785e-39
-0.00506900997183 -0.0811041595493 0.913 6.84030953414e-39
-0.0033682359068 -0.0808376617632 0.91 6.84030953414e-39
-0.0016841179534 -0.0808376617632 0.91 7.30056321215e-39
0.0 -0.0806599965725 0.908 7.11760968465e-39
0.00168041659526 -0.0806599965725 0.908 7.11725095224e-39
0.00335343047424 -0.0804823313819 0.906 7.30163940937e-39
0.00503014571137 -0.0804823313819 0.906 6.93537362196e-39
0.00668465279965 -0.0802158335958 0.903 7.0261329209e-39
0.00835581599956 -0.0802158335958 0.903 7.58109195432e-39
0.0100047710506 -0.0800381684051 0.901 7.58073322192e-39
0.0116722328924 -0.0800381684051 0.901 7.58109195432e-39
0.0132952784365 -0.0797716706191 0.898 7.3970622296e-39
0.0149571882411 -0.0797716706191 0.898 8.31721085321e-39
0.0166190980456 -0.0797716706191 0.898 8.87073495701e-39
0.0182810078502 -0.0797716706191 0.898 8.50231677516e-39
0.0198985013571 -0.0795940054284 0.896 8.22896268113e-39
0.0215567098035 -0.0795940054284 0.896 7.58396181358e-39
0.0232667372639 -0.0797716706191 0.898 8.13748591737e-39
0.0249286470685 -0.0797716706191 0.898 7.58432054599e-39
0.026590556873 -0.0797716706191 0.898 9.15090496677e-39
0.0282524666776 -0.0797716706191 0.898 8.04421549159e-39
0.0300143131519 -0.0800381684051 0.901 7.67723223936e-39
0.0316817749937 -0.0800381684051 0.901 8.50662156404e-39
0.0333492368355 -0.0800381684051 0.901 8.41299240585e-39
0.0350944271982 -0.0802158335958 0.903 8.59738086298e-39
0.0367655903981 -0.0802158335958 0.903 8.69029255636e-39
0.0385644504538 -0.0804823313819 0.906 9.06014566784e-39
0.0402411656909 -0.0804823313819 0.906 8.78392171455e-39
0.041917880928 -0.0804823313819 0.906 8.60025072223e-39
0.0436908314768 -0.0806599965725 0.908 9.06086313265e-39
0.0453712480721 -0.0806599965725 0.908 9.51968608493e-39
0.0471553026952 -0.0808376617632 0.91 1.0529154874e-38
0.0488394206486 -0.0808376617632 0.91 1.15425739234e-38
0.050523538602 -0.0808376617632 0.91 8.69029255636e-39
0.0526666249647 -0.081548322526 0.918 7.39777969441e-39
-0.015406903255 -0.0804582725539 0.925 2.35037030863e-38
-0.0136950251156 -0.0804582725539 0.925 1.75051955787e-38
-0.0119572374691 -0.0802843087214 0.923 6.62686375206e-39
-0.0102490606878 -0.0802843087214 0.923 8.12349535351e-39
-0.00849461692979 -0.07984939914 0.918 6.92819897383e-39
-0.006773485395 -0.0795884533912 0.915 7.66682899956e-39
-0.00506900997183 -0.0794144895587 0.913 6.83959206933e-39
-0.00337933998122 -0.0794144895587 0.913 7.67041632363e-39
-0.0016841179534 -0.0791535438098 0.91 6.83959206933e-39
0.0 -0.0789795799773 0.908 7.57786336266e-39
0.00168041659526 -0.0789795799773 0.908 7.48638659891e-39
0.00336083319052 -0.0789795799773 0.908 7.57858082748e-39
0.00504124978578 -0.0789795799773 0.908 7.57858082748e-39
0.00670686094849 -0.0788056161447 0.906 7.76404548183e-39
0.00835581599956 -0.0785446703959 0.903 8.22501662465e-39
0.0100269791995 -0.0785446703959 0.903 7.30415053622e-39
0.0116722328924 -0.0783707065634 0.901 8.04313929437e-39
0.0133396947342 -0.0783707065634 0.901 7.94951013618e-39
0.0149571882411 -0.0781097608145 0.898 7.30666166307e-39
0.0166190980456 -0.0781097608145 0.898 7.58324434876e-39
0.0182810078502 -0.0781097608145 0.898 7.95166253062e-39
0.0198985013571 -0.077935796982 0.896 7.86126196409e-39
0.0215567098035 -0.077935796982 0.896 8.50482790201e-39
0.0232667372639 -0.0781097608145 0.898 7.95202126302e-39
0.0249286470685 -0.0781097608145 0.898 8.13676845256e-39
0.026590556873 -0.0781097608145 0.898 8.68993382395e-39
0.0282524666776 -0.0781097608145 0.898 8.3215156421e-39
0.0300143131519 -0.0783707065634 0.901 7.76906773552e-39
0.0317521007983 -0.0785446703959 0.903 7.95381492506e-39
0.0334232639983 -0.0785446703959 0.903 7.86126196409e-39
0.0350944271982 -0.0785446703959 0.903 8.22932141353e-39
0.0368877352167 -0.0788056161447 0.906 8.22932141353e-39
0.0385644504538 -0.0788056161447 0.906 8.22932141353e-39
0.0402411656909 -0.0788056161447 0.906 9.33744581835e-39
0.041917880928 -0.0788056161447 0.906 8.78320424974e-39
0.0436908314768 -0.0789795799773 0.908 9.15126369918e-39
0.0454711847418 -0.0791535438098 0.91 9.33421722668e-39
0.0473107597371 -0.0794144895587 0.913 1.03469188113e-38
0.0491077691137 -0.0795884533912 0.915 1.01618128893e-38
0.0508011404625 -0.0795884533912 0.915 1.06245776942e-38
0.0526666249647 -0.07984939914 0.918 7.0261329209e-39
-0.0171743017665 -0.0790017881261 0.928 2.34965032148e-38
-0.0154568715899 -0.0790017881261 0.928 2.35065715443e-38
-0.0136950251156 -0.0787463944145 0.925 1.82409655542e-38
-0.0119572374691 -0.0785761319401 0.923 5.89217978279e-39
-0.0102490606878 -0.0785761319401 0.923 7.1097175717e-39
-0.00849461692979 -0.0781504757541 0.918 7.38917011665e-39
-0.006773485395 -0.0778950820425 0.915 7.02218686442e-39
-0.00508011404625 -0.0778950820425 0.915 8.31398226155e-39
-0.00337933998122 -0.077724819568 0.913 7.20836898359e-39
-0.00168966999061 -0.077724819568 0.913 7.11725095224e-39
0.0 -0.0774694258564 0.91 7.02577418849e-39
0.0016841179534 -0.0774694258564 0.91 7.02505672368e-39
0.00336083319052 -0.077299163382 0.908 7.21123884284e-39
0.00504124978578 -0.077299163382 0.908 7.48710406372e-39
0.00670686094849 -0.0771289009076 0.906 7.48674533132e-39
0.00838357618561 -0.0771289009076 0.906 7.30379180382e-39
0.0100269791995 -0.076873507196 0.903 7.21267377247e-39
0.0116981423994 -0.076873507196 0.903 7.95130379821e-39
0.0133693055993 -0.076873507196 0.903 7.48853899335e-39
0.015007156576 -0.0767032447216 0.901 7.8569571752e-39
0.0166190980456 -0.07644785101 0.898 7.58324434876e-39
0.0182810078502 -0.07644785101 0.898 7.21626109654e-39
0.0199429176548 -0.07644785101 0.898 7.39957335645e-39
0.0216048274593 -0.07644785101 0.898 7.95309746024e-39
0.0232667372639 -0.07644785101 0.898 7.95202126302e-39
0.0249286470685 -0.07644785101 0.898 8.22932141353e-39
0.0266793894684 -0.0767032447216 0.901 8.044574224e-39
0.0283468513102 -0.0767032447216 0.901 8.50554536682e-39
0.0300143131519 -0.0767032447216 0.901 8.0449329564e-39
0.0317521007983 -0.076873507196 0.903 7.95453238987e-39
0.0334232639983 -0.076873507196 0.903 8.78284551733e-39
0.0350944271982 -0.076873507196 0.903 8.3218743745e-39
0.0368877352167 -0.0771289009076 0.906 8.23003887835e-39
0.0385644504538 -0.0771289009076 0.906 8.32259183932e-39
0.0402411656909 -0.0771289009076 0.906 8.32330930413e-39
0.0420104148815 -0.077299163382 0.908 9.24417539256e-39
0.0437870667884 -0.0774694258564 0.91 9.24274046293e-39
0.0456210897465 -0.077724819568 0.913 1.04394717722e-38
0.047414397765 -0.0778950820425 0.915 9.70371160576e-39
0.0491077691137 -0.0778950820425 0.915 1.00714123228e-38
0.0509677015787 -0.0781504757541 0.918 9.61044117997e-39
0.0526666249647 -0.0781504757541 0.918 8.22716901909e-39
-0.0171743017665 -0.0772843579495 0.928 2.34982842652e-38
-0.0154568715899 -0.0772843579495 0.928 2.35029617994e-38
-0.0136950251156 -0.0770345162751 0.925 1.84232016169e-38
-0.0119572374691 -0.0768679551588 0.923 6.72085164266e-39
-0.0102490606878 -0.0768679551588 0.923 6.55762839753e-39
-0.00851312372049 -0.0766181134844 0.92 7.20478866601e-39
-0.00679569354383 -0.0764515523681 0.918 7.20729278637e-39
-0.00508011404625 -0.0762017106937 0.915 6.92999263586e-39
-0.0033867426975 -0.0762017106937 0.915 7.29984574734e-39
-0.00168966999061 -0.0760351495774 0.913 7.20765151877e-39
0.0 -0.0760351495774 0.913 7.30163940937e-39
0.0016841179534 -0.075785307903 0.91 7.39490983516e-39
0.00336083319052 -0.0756187467868 0.908 6.93465615715e-39
0.00504124978578 -0.0756187467868 0.908 7.21123884284e-39
0.00672166638105 -0.0756187467868 0.908 7.57929829229e-39
0.00838357618561 -0.0754521856705 0.906 7.39598603238e-39
0.0100602914227 -0.0754521856705 0.906 7.49140885261e-39
0.0116981423994 -0.0752023439961 0.903 7.03007897738e-39
0.0133693055993 -0.0752023439961 0.903 8.13389859331e-39
0.015007156576 -0.0750357828798 0.901 8.04421549159e-39
0.0166190980456 -0.0747859412054 0.898 7.86126196409e-39
0.0182810078502 -0.0747859412054 0.898 7.49356124705e-39
0.0199429176548 -0.0747859412054 0.898 7.1251430652e-39
0.0216048274593 -0.0747859412054 0.898 8.04636788603e-39
0.0233444657848 -0.0750357828798 0.901 8.22824521631e-39
0.0250119276266 -0.0750357828798 0.901 7.40100828608e-39
0.0266793894684 -0.0750357828798 0.901 7.77050266515e-39
0.0283468513102 -0.0750357828798 0.901 7.95453238987e-39
0.0300809375984 -0.0752023439961 0.903 7.12370813557e-39
0.0317521007983 -0.0752023439961 0.903 8.13748591737e-39
0.0334232639983 -0.0752023439961 0.903 8.59773959539e-39
0.0352110199796 -0.0754521856705 0.906 7.86162069649e-39
0.0368877352167 -0.0754521856705 0.906 9.24525158978e-39
0.0385644504538 -0.0754521856705 0.906 9.24381666015e-39
0.0403299982863 -0.0756187467868 0.908 9.24345792775e-39
0.0420104148815 -0.0756187467868 0.908 8.78284551733e-39
0.0439314197559 -0.0760351495774 0.913 9.61115864478e-39
0.0457210264162 -0.0762017106937 0.915 9.6118761096e-39
0.047414397765 -0.0762017106937 0.915 1.01639652838e-38
0.0492687781928 -0.0764515523681 0.918 1.08082486865e-38
0.0509677015787 -0.0764515523681 0.918 1.11763081359e-38
0.0526666249647 -0.0764515523681 0.918 6.1067017621e-39
0.0547801004623 -0.0770345162751 0.925 2.35097763139e-38
-0.0171743017665 -0.0755669277728 0.928 2.349506268e-38
-0.015406903255 -0.0753226381356 0.925 2.35043995317e-38
-0.0136950251156 -0.0753226381356 0.925 1.84271686929e-38
-0.0119572374691 -0.0751597783775 0.923 6.25736937298e-39
-0.0102490606878 -0.0751597783775 0.923 7.29518222605e-39
-0.00851312372049 -0.0749154887403 0.92 8.21927690614e-39
-0.00679569354383 -0.0747526289822 0.918 7.02326306165e-39
-0.00509677015787 -0.0747526289822 0.918 7.11581602262e-39
-0.0033867426975 -0.074508339345 0.915 7.66647026716e-39
-0.00169337134875 -0.074508339345 0.915 7.11617475502e-39
0.0 -0.074508339345 0.915 6.56480304567e-39
0.00168966999061 -0.0743454795868 0.913 7.94628154451e-39
0.0033682359068 -0.0741011899496 0.91 7.76153435498e-39
0.00504124978578 -0.0739383301915 0.908 7.48782152854e-39
0.00672166638105 -0.0739383301915 0.908 7.67185125326e-39
0.00840208297631 -0.0739383301915 0.908 7.85623971039e-39
0.0100602914227 -0.0737754704334 0.906 7.30666166307e-39
0.0117370066599 -0.0737754704334 0.906 7.30666166307e-39
0.013413721897 -0.0737754704334 0.906 8.59415227132e-39
0.0150404687992 -0.0735311807962 0.903 8.04098689993e-39
0.0167116319991 -0.0735311807962 0.903 7.58360308117e-39
0.018382795199 -0.0735311807962 0.903 7.95166253062e-39
0.020053958399 -0.0735311807962 0.903 7.49212631742e-39
0.0217251215989 -0.0735311807962 0.903 7.49284378223e-39
0.0233962847988 -0.0735311807962 0.903 7.49212631742e-39
0.0250674479987 -0.0735311807962 0.903 9.05978693543e-39
0.0267386111986 -0.0735311807962 0.903 7.67687350696e-39
0.0284097743985 -0.0735311807962 0.903 8.22932141353e-39
0.0300809375984 -0.0735311807962 0.903 9.98029429145e-39
0.0317521007983 -0.0735311807962 0.903 7.86054449927e-39
0.0334232639983 -0.0735311807962 0.903 8.87468101349e-39
0.0352110199796 -0.0737754704334 0.906 9.33385849428e-39
0.0368877352167 -0.0737754704334 0.906 8.50626283163e-39
0.038649581691 -0.0739383301915 0.908 8.87503974589e-39
0.0403299982863 -0.0739383301915 0.908 9.15269862881e-39
0.042102948835 -0.0741011899496 0.91 8.69029255636e-39
0.0439314197559 -0.0743454795868 0.913 9.24309919534e-39
0.0457210264162 -0.074508339345 0.915 9.6118761096e-39
0.047414397765 -0.074508339345 0.915 9.97921809423e-39
0.0492687781928 -0.0747526289822 0.918 1.11763081359e-38
0.0509677015787 -0.0747526289822 0.918 1.11737970091e-38
0.0530682223228 -0.0753226381356 0.925 8.50052311312e-39
0.0547801004623 -0.0753226381356 0.925 2.35097973333e-38
-0.015406903255 -0.0736107599962 0.925 2.35058582834e-38
-0.0136950251156 -0.0736107599962 0.925 1.90700045543e-38
-0.0119831469761 -0.0736107599962 0.925 6.7233627695e-39
-0.0102712688367 -0.0736107599962 0.925 7.38737645462e-39
-0.00851312372049 -0.0732128639962 0.92 7.20478165952e-39
-0.00679569354383 -0.0730537055962 0.918 7.11438109299e-39
-0.00509677015787 -0.0730537055962 0.918 7.20765151877e-39
-0.0033867426975 -0.0728149679962 0.915 7.30092194456e-39
-0.00169337134875 -0.0728149679962 0.915 7.39311617313e-39
0.0 -0.0728149679962 0.915 7.76189308738e-39
0.00169337134875 -0.0728149679962 0.915 7.48674533132e-39
0.00337933998122 -0.0726558095962 0.913 7.94664027692e-39
0.0050523538602 -0.0724170719962 0.91 7.11904461428e-39
0.00672166638105 -0.0722579135962 0.908 7.39670349719e-39
0.00840208297631 -0.0722579135962 0.908 6.56767290492e-39
0.0100824995716 -0.0722579135962 0.908 7.94915140377e-39
0.0117370066599 -0.0720987551962 0.906 7.85731590761e-39
0.013413721897 -0.0720987551962 0.906 8.13210493127e-39
0.0150904371341 -0.0720987551962 0.906 8.22429915984e-39
0.0167116319991 -0.0718600175963 0.903 7.85910956965e-39
0.018382795199 -0.0718600175963 0.903 7.95166253062e-39
0.020053958399 -0.0718600175963 0.903 8.04385675918e-39
0.0217251215989 -0.0718600175963 0.903 7.86126196409e-39
0.0234740133197 -0.0720987551962 0.906 7.49356124705e-39
0.0251507285568 -0.0720987551962 0.906 7.03294883663e-39
0.026827443794 -0.0720987551962 0.906 8.3215156421e-39
0.0285041590311 -0.0720987551962 0.906 8.50518663441e-39
0.0301808742682 -0.0720987551962 0.906 8.22788648391e-39
0.0318575895053 -0.0720987551962 0.906 8.59917452501e-39
0.0335343047424 -0.0720987551962 0.906 8.50590409923e-39
0.0352110199796 -0.0720987551962 0.906 7.67866716899e-39
0.0368877352167 -0.0720987551962 0.906 8.13963831182e-39
0.038649581691 -0.0722579135962 0.908 8.13820338219e-39
0.0404188308816 -0.0724170719962 0.91 8.78320424974e-39
0.042102948835 -0.0724170719962 0.91 1.06263713562e-38
0.0440276550675 -0.0728149679962 0.915 9.88666513326e-39
0.0457210264162 -0.0728149679962 0.915 1.06249364266e-38
0.0475698548068 -0.0730537055962 0.918 9.88702386567e-39
0.0492687781928 -0.0730537055962 0.918 1.08972143234e-38
0.0510787423229 -0.0732128639962 0.92 1.07128258663e-38
0.0530682223228 -0.0736107599962 0.925 9.23700074442e-39
0.0547801004623 -0.0736107599962 0.925 2.35097735113e-38
-0.015406903255 -0.0718988818567 0.925 2.35054799328e-38
-0.0136950251156 -0.0718988818567 0.925 2.02685505451e-38
-0.0120220112366 -0.0721320674195 0.928 6.35494458765e-39
-0.0102712688367 -0.0718988818567 0.925 7.11079376892e-39
-0.00854088390653 -0.0717434248149 0.923 7.38881138424e-39
-0.00681049897639 -0.0715102392521 0.92 7.02218686442e-39
-0.00509677015787 -0.0713547822102 0.918 7.29984574734e-39
-0.00339784677192 -0.0713547822102 0.918 7.11617475502e-39
-0.00169337134875 -0.0711215966475 0.915 7.39383363794e-39
0.0 -0.0711215966475 0.915 7.4856691341e-39
0.00169337134875 -0.0711215966475 0.915 7.11904461428e-39
0.00337933998122 -0.0709661396056 0.913 6.93501488956e-39
0.0050523538602 -0.0707329540428 0.91 7.48889772576e-39
0.0067364718136 -0.0707329540428 0.91 7.02972024497e-39
0.008420589767 -0.0707329540428 0.91 7.76476294664e-39
0.0100824995716 -0.070577497001 0.908 7.76404548183e-39
0.0117629161668 -0.070577497001 0.908 8.04098689993e-39
0.013413721897 -0.0704220399591 0.906 7.94951013618e-39
0.0150904371341 -0.0704220399591 0.906 7.76691534108e-39
0.0167671523712 -0.0704220399591 0.906 8.13748591737e-39
0.0184438676083 -0.0704220399591 0.906 7.67507984492e-39
0.0201205828455 -0.0704220399591 0.906 8.23003887835e-39
0.0217972980826 -0.0704220399591 0.906 7.49212631742e-39
0.0234740133197 -0.0704220399591 0.906 7.86162069649e-39
0.0251507285568 -0.0704220399591 0.906 8.13676845256e-39
0.026827443794 -0.0704220399591 0.906 8.59809832779e-39
0.0285041590311 -0.0704220399591 0.906 8.13712718497e-39
0.0301808742682 -0.0704220399591 0.906 8.22788648391e-39
0.0318575895053 -0.0704220399591 0.906 8.13569225534e-39
0.0335343047424 -0.0704220399591 0.906 8.68957509154e-39
0.0352887485005 -0.070577497001 0.908 8.5984570602e-39
0.0369691650957 -0.070577497001 0.908 8.78356298214e-39
0.038649581691 -0.070577497001 0.908 8.78284551733e-39
0.0404188308816 -0.0707329540428 0.91 9.15018750196e-39
0.0422417497652 -0.0709661396056 0.913 9.33421722668e-39
0.0440276550675 -0.0711215966475 0.915 1.07171306552e-38
0.0457210264162 -0.0711215966475 0.915 9.7948296371e-39
0.0475698548068 -0.0713547822102 0.918 1.06227840322e-38
0.0493761175788 -0.0715102392521 0.92 1.14525320892e-38
0.0512453034392 -0.0717434248149 0.923 1.13596203959e-38
0.0530682223228 -0.0718988818567 0.925 8.40832888456e-39
0.0547801004623 -0.0718988818567 0.925 2.35097945307e-38
-0.015540152148 -0.0707940264521 0.933 2.350366385e-38
-0.0137690522784 -0.0705663929266 0.93 1.95324050215e-38
-0.0120479207436 -0.0705663929266 0.93 7.08819362729e-39
-0.0103045810599 -0.0704146372428 0.928 7.01967573758e-39
-0.00855939069723 -0.0701870037173 0.925 7.20621658915e-39
-0.00683270712523 -0.0700352480336 0.923 7.20765151877e-39
-0.00510787423229 -0.069807614508 0.92 6.74560417873e-39
-0.00339784677192 -0.0696558588243 0.918 7.11689221984e-39
-0.00169892338596 -0.0696558588243 0.918 7.39311617313e-39
0.0 -0.0696558588243 0.918 7.39383363794e-39
0.00169892338596 -0.0696558588243 0.918 7.21052137803e-39
0.0033867426975 -0.0694282252987 0.915 6.84533178784e-39
0.00506900997183 -0.069276469615 0.913 6.56946656696e-39
0.0067364718136 -0.0690488360894 0.91 7.21231504006e-39
0.008420589767 -0.0690488360894 0.91 7.94879267136e-39
0.0100824995716 -0.0688970804057 0.908 8.22394042743e-39
0.0117629161668 -0.0688970804057 0.908 8.40904634937e-39
0.0134433327621 -0.0688970804057 0.908 7.94879267136e-39
0.0150904371341 -0.068745324722 0.906 7.12299067075e-39
0.0167671523712 -0.068745324722 0.906 8.13748591737e-39
0.0184438676083 -0.068745324722 0.906 7.76691534108e-39
0.0201205828455 -0.068745324722 0.906 7.67579730974e-39
0.0217972980826 -0.068745324722 0.906 8.59451100372e-39
0.0234740133197 -0.068745324722 0.906 8.68814016192e-39
0.0251507285568 -0.068745324722 0.906 8.13676845256e-39
0.026827443794 -0.068745324722 0.906 8.22932141353e-39
0.0285041590311 -0.068745324722 0.906 8.13784464978e-39
0.0302474987147 -0.0688970804057 0.908 8.50698029645e-39
0.03192791531 -0.0688970804057 0.908 8.0449329564e-39
0.0336083319052 -0.0688970804057 0.908 8.59738086298e-39
0.0352887485005 -0.0688970804057 0.908 8.68957509154e-39
0.0369691650957 -0.0688970804057 0.908 8.04744408325e-39
0.0387347129282 -0.0690488360894 0.91 8.87503974589e-39
0.0405520797746 -0.069276469615 0.913 9.52039934585e-39
0.0422417497652 -0.069276469615 0.913 9.15126369918e-39
0.0441720080349 -0.0696558588243 0.918 1.02550833151e-38
0.0458709314209 -0.0696558588243 0.918 1.03476362761e-38
0.0476734928347 -0.069807614508 0.92 1.04398305046e-38
0.0493761175788 -0.069807614508 0.92 1.0991202214e-38
0.0512453034392 -0.0700352480336 0.923 1.08997254503e-38
0.0530682223228 -0.0701870037173 0.925 9.32919497299e-39
0.0547801004623 -0.0701870037173 0.925 2.35097945307e-38
-0.015540152148 -0.0690673428801 0.933 2.35015226659e-38
-0.0137690522784 -0.0688452613918 0.93 1.97193550523e-38
-0.0120479207436 -0.0688452613918 0.93 7.5434250516e-39
-0.0103267892088 -0.0688452613918 0.93 7.20298799749e-39
-0.00855939069723 -0.0684751255778 0.925 7.02218686442e-39
-0.00683270712523 -0.0683270712523 0.923 7.29984574734e-39
-0.00512453034392 -0.0683270712523 0.923 7.48423420447e-39
-0.00340524948819 -0.0681049897639 0.92 7.20765151877e-39
-0.00169892338596 -0.0679569354383 0.918 7.48531040169e-39
0.0 -0.0679569354383 0.918 7.76117562257e-39
0.00169892338596 -0.0679569354383 0.918 7.21052137803e-39
0.0033867426975 -0.06773485395 0.915 7.39598603238e-39
0.00508011404625 -0.06773485395 0.915 7.02972024497e-39
0.00675867996244 -0.0675867996244 0.913 6.93860221362e-39
0.00844834995305 -0.0675867996244 0.913 8.04098689993e-39
0.0101047077204 -0.067364718136 0.91 7.57929829229e-39
0.0117629161668 -0.0672166638105 0.908 7.58145068673e-39
0.0134433327621 -0.0672166638105 0.908 8.04170436474e-39
0.0151237493574 -0.0672166638105 0.908 7.4910501202e-39
0.0168041659526 -0.0672166638105 0.908 7.39885589164e-39
0.0184845825479 -0.0672166638105 0.908 8.22681028668e-39
0.0201649991431 -0.0672166638105 0.908 8.40976381419e-39
0.0218454157384 -0.0672166638105 0.908 8.40976381419e-39
0.0235258323337 -0.0672166638105 0.908 7.95202126302e-39
0.0252062489289 -0.0672166638105 0.908 8.87288735145e-39
0.0268866655242 -0.0672166638105 0.908 8.59738086298e-39
0.0285670821194 -0.0672166638105 0.908 7.86162069649e-39
0.0302474987147 -0.0672166638105 0.908 8.32223310691e-39
0.03192791531 -0.0672166638105 0.908 7.49248504983e-39
0.0336083319052 -0.0672166638105 0.908 8.87468101349e-39
0.0353664770214 -0.067364718136 0.91 8.59738086298e-39
0.0370505949748 -0.067364718136 0.91 8.78356298214e-39
0.038862409784 -0.0675867996244 0.913 9.15162243159e-39
0.0405520797746 -0.0675867996244 0.913 9.15162243159e-39
0.0423342837187 -0.06773485395 0.915 8.69065128876e-39
0.0441720080349 -0.0679569354383 0.918 1.04401892371e-38
0.0459708680906 -0.0681049897639 0.92 9.9774244322e-39
0.0476734928347 -0.0681049897639 0.92 1.05320247332e-38
0.0495371266579 -0.0683270712523 0.923 1.11755906711e-38
0.0513563441834 -0.0684751255778 0.925 1.11759494035e-38
0.0532403354763 -0.0686972070662 0.928 8.31577592359e-39
0.054957765653 -0.0686972070662 0.928 2.35097735113e-38
-0.0155734643713 -0.0674850122756 0.935 2.35047540602e-38
-0.013813468576 -0.0673406593081 0.933 2.0916083559e-38
-0.012086785004 -0.0673406593081 0.933 5.61452089988e-39
-0.010360101432 -0.0673406593081 0.933 7.38845265184e-39
-0.00858715088327 -0.0669797768895 0.928 7.20729278637e-39
-0.00684751255778 -0.0667632474384 0.925 6.93071010067e-39
-0.00512453034392 -0.0666188944709 0.923 6.83959206933e-39
-0.00340524948819 -0.0664023650198 0.92 7.11617475502e-39
-0.00169892338596 -0.0662580120524 0.918 6.56552051048e-39
0.0 -0.0662580120524 0.918 7.4856691341e-39
0.00169892338596 -0.0662580120524 0.918 7.76368674942e-39
0.0033867426975 -0.0660414826012 0.915 7.57929829229e-39
0.00508011404625 -0.0660414826012 0.915 7.21159757525e-39
0.00675867996244 -0.0658971296338 0.913 6.93824348122e-39
0.00844834995305 -0.0658971296338 0.913 7.76476294664e-39
0.0101380199437 -0.0658971296338 0.913 8.41012254659e-39
0.0117888256738 -0.0656806001826 0.91 7.58216815154e-39
0.0134433327621 -0.0655362472152 0.908 7.76691534108e-39
0.0151237493574 -0.0655362472152 0.908 8.22788648391e-39
0.0168041659526 -0.0655362472152 0.908 7.95130379821e-39
0.0184845825479 -0.0655362472152 0.908 8.50482790201e-39
0.0201649991431 -0.0655362472152 0.908 8.22788648391e-39
0.0218454157384 -0.0655362472152 0.908 7.95166253062e-39
0.0235258323337 -0.0655362472152 0.908 8.22788648391e-39
0.0252062489289 -0.0655362472152 0.908 8.32043944488e-39
0.0268866655242 -0.0655362472152 0.908 8.50482790201e-39
0.0285670821194 -0.0655362472152 0.908 8.59738086298e-39
0.0302474987147 -0.0655362472152 0.908 7.76978520034e-39
0.0319982411146 -0.0656806001826 0.91 8.32330930413e-39
0.033682359068 -0.0656806001826 0.91 8.78284551733e-39
0.0353664770214 -0.0656806001826 0.91 9.14911130474e-39
0.0371727397934 -0.0658971296338 0.913 1.01657589458e-38
0.038862409784 -0.0658971296338 0.913 9.05871073821e-39
0.04064091237 -0.0660414826012 0.915 8.87503974589e-39
0.0423342837187 -0.0660414826012 0.915 9.61223484201e-39
0.0441720080349 -0.0662580120524 0.918 1.02568769771e-38
0.0459708680906 -0.0664023650198 0.92 9.7948296371e-39
0.0476734928347 -0.0664023650198 0.92 1.04398305046e-38
0.0495371266579 -0.0666188944709 0.923 1.13578267338e-38
0.0513563441834 -0.0667632474384 0.925 1.16372792788e-38
0.0532403354763 -0.0669797768895 0.928 9.97491330535e-39
0.054957765653 -0.0669797768895 0.928 2.35097973333e-38
-0.017451903627 -0.0663172337826 0.943 2.35001059532e-38
-0.0155734643713 -0.0657546273454 0.935 2.35025974618e-38
-0.0138430794411 -0.0657546273454 0.935 1.95320518943e-38
-0.012112694511 -0.0657546273454 0.935 8.18878465156e-39
-0.010360101432 -0.0656139757361 0.933 7.94125929082e-39
-0.00858715088327 -0.0652623467129 0.928 7.2976933529e-39
-0.00686972070662 -0.0652623467129 0.928 6.83959206933e-39
-0.00513563441834 -0.0650513692989 0.925 6.74739784076e-39
-0.00341635356261 -0.0649107176896 0.923 8.13031126924e-39
-0.0017026247441 -0.0646997402757 0.92 6.93286249511e-39
0.0 -0.0646997402757 0.92 6.84246192858e-39
0.00169892338596 -0.0645590886664 0.918 7.11904461428e-39
0.00339784677192 -0.0645590886664 0.918 6.93537362196e-39
0.00508011404625 -0.0643481112525 0.915 7.39562729997e-39
0.006773485395 -0.0643481112525 0.915 8.04385675918e-39
0.00846685674374 -0.0643481112525 0.915 7.58180941914e-39
0.0101602280925 -0.0643481112525 0.915 7.85731590761e-39
0.0118276899343 -0.0642074596432 0.913 7.58324434876e-39
0.0134729436272 -0.0639964822292 0.91 7.58324434876e-39
0.0151237493574 -0.0638558306199 0.908 7.85982703446e-39
0.0168041659526 -0.0638558306199 0.908 7.95166253062e-39
0.0184845825479 -0.0638558306199 0.908 8.32043944488e-39
0.0201649991431 -0.0638558306199 0.908 8.04385675918e-39
0.0218454157384 -0.0638558306199 0.908 8.04385675918e-39
0.0235258323337 -0.0638558306199 0.908 8.32115690969e-39
0.025261769301 -0.0639964822292 0.91 8.2275277515e-39
0.0269458872544 -0.0639964822292 0.91 8.50698029645e-39
0.0286300052078 -0.0639964822292 0.91 8.59702353187e-39
0.0303141231612 -0.0639964822292 0.91 8.32295057172e-39
0.0319982411146 -0.0639964822292 0.91 7.95453238987e-39
0.033682359068 -0.0639964822292 0.91 8.96615777724e-39
0.0354830698028 -0.0642074596432 0.913 9.42641145525e-39
0.0371727397934 -0.0642074596432 0.913 8.59953325742e-39
0.038862409784 -0.0642074596432 0.913 9.24381666015e-39
0.04064091237 -0.0643481112525 0.915 8.96759270687e-39
0.0423342837187 -0.0643481112525 0.915 9.61295230682e-39
0.0442682433465 -0.0646997402757 0.92 9.61223484201e-39
0.0459708680906 -0.0646997402757 0.92 1.01646827486e-38
0.0476734928347 -0.0646997402757 0.92 1.09015191123e-38
0.0496444660439 -0.0650513692989 0.925 1.1451455892e-38
0.0513563441834 -0.0650513692989 0.925 1.00681837311e-38
0.0532403354763 -0.0652623467129 0.928 1.09890498196e-38
0.054957765653 -0.0652623467129 0.928 2.35097903269e-38
-0.017451903627 -0.0645720434199 0.943 2.34993562585e-38
-0.0156234327062 -0.064229667792 0.938 2.35051169965e-38
-0.0138430794411 -0.0640242424153 0.935 1.86108074553e-38
-0.012112694511 -0.0640242424153 0.935 7.3654937778e-39
-0.0103823095809 -0.0640242424153 0.935 7.47992941559e-39
-0.00860565767397 -0.0636818667874 0.93 7.02218686442e-39
-0.00686972070662 -0.0635449165362 0.928 7.20836898359e-39
-0.00513563441834 -0.0633394911595 0.925 7.02398052646e-39
-0.00341635356261 -0.0632025409083 0.923 7.29984574734e-39
-0.00170817678131 -0.0632025409083 0.923 7.85336985114e-39
0.0 -0.0629971155316 0.92 7.48638659891e-39
0.00169892338596 -0.0628601652804 0.918 7.48638659891e-39
0.00339784677192 -0.0628601652804 0.918 7.57929829229e-39
0.00509677015787 -0.0628601652804 0.918 7.48818026094e-39
0.006773485395 -0.0626547399037 0.915 7.48818026094e-39
0.00846685674374 -0.0626547399037 0.915 7.39670349719e-39
0.0101602280925 -0.0626547399037 0.915 7.6736449153e-39
0.0118276899343 -0.0625177896526 0.913 7.39885589164e-39
0.0134729436272 -0.0623123642758 0.91 7.85982703446e-39
0.0151570615806 -0.0623123642758 0.91 7.58432054599e-39
0.016841179534 -0.0623123642758 0.91 7.58432054599e-39
0.0185252974874 -0.0623123642758 0.91 7.95237999543e-39
0.0202094154408 -0.0623123642758 0.91 8.044574224e-39
0.0218935333942 -0.0623123642758 0.91 7.95309746024e-39
0.0235776513476 -0.0623123642758 0.91 8.22968014594e-39
0.025261769301 -0.0623123642758 0.91 8.41227494103e-39
0.0269458872544 -0.0623123642758 0.91 7.95345619265e-39
0.0287243898404 -0.0625177896526 0.913 8.87288735145e-39
0.030414059831 -0.0625177896526 0.913 8.0449329564e-39
0.0321037298216 -0.0625177896526 0.913 9.15269862881e-39
0.0337933998122 -0.0625177896526 0.913 8.8753984783e-39
0.0354830698028 -0.0625177896526 0.913 8.78356298214e-39
0.0371727397934 -0.0625177896526 0.913 8.78356298214e-39
0.0389475410212 -0.0626547399037 0.915 8.69065128876e-39
0.04064091237 -0.0626547399037 0.915 9.98172922108e-39
0.042473084649 -0.0628601652804 0.918 9.70371160576e-39
0.0442682433465 -0.0629971155316 0.92 1.06242189618e-38
0.0459708680906 -0.0629971155316 0.92 1.02568769771e-38
0.0478289498766 -0.0632025409083 0.923 1.07174893876e-38
0.0496444660439 -0.0633394911595 0.925 1.10833964426e-38
0.0515229052996 -0.0635449165362 0.928 1.14514755102e-38
0.0532403354763 -0.0635449165362 0.928 1.18195167428e-38
0.054957765653 -0.0635449165362 0.928 2.35097763139e-38
-0.017451903627 -0.0628268530572 0.943 2.34968353225e-38
-0.0156234327062 -0.0624937308247 0.938 2.35054378938e-38
-0.0138430794411 -0.0622938574851 0.935 2.08238725148e-38
-0.012112694511 -0.0622938574851 0.935 5.89038612076e-39
-0.0103823095809 -0.0622938574851 0.935 7.75651210128e-39
-0.00860565767397 -0.0619607352526 0.93 7.57535223581e-39
-0.00686972070662 -0.0618274863596 0.928 6.83959206933e-39
-0.00513563441834 -0.06162761302 0.925 7.94592281211e-39
-0.00342375627889 -0.06162761302 0.925 7.30092194456e-39
-0.00170817678131 -0.061494364127 0.923 7.30163940937e-39
0.0 -0.0612944907875 0.92 7.4860278665e-39
