# .PCD v0.7 - Point Cloud Data file format
VERSION 0.7
FIELDS x y z rgb
SIZE 4 4 4 4
TYPE F F F F
COUNT 1 1 1 1
WIDTH 859
HEIGHT 1
VIEWPOINT 0 0 0 1 0 0 0
POINTS 859
DATA ascii
0.0489800722579 -0.160298418299 0.802 1.45481209086e-38
0.0503384706951 -0.15989867162 0.8 1.71299306525e-38
0.0516894664159 -0.159498924941 0.798 1.75887816308e-38
0.0531663083135 -0.159498924941 0.798 1.76809548398e-38
0.0546431502111 -0.159498924941 0.798 1.90617354921e-38
0.0561199921087 -0.159498924941 0.798 1.86933145076e-38
0.0574524810389 -0.159099178261 0.796 1.88769742895e-38
0.0589256215783 -0.159099178261 0.796 1.94287257508e-38
0.0603987621178 -0.159099178261 0.796 1.98914989634e-38
0.0618719026572 -0.159099178261 0.796 2.12769543473e-38
0.0633450431967 -0.159099178261 0.796 1.9435562686e-38
0.064655323978 -0.158699431582 0.794 2.01745528454e-38
0.0661247631593 -0.158699431582 0.794 1.95298868882e-38
0.0674239398663 -0.158299684903 0.792 1.9898670809e-38
0.0688896776894 -0.158299684903 0.792 1.98061234532e-38
0.0703554155126 -0.158299684903 0.792 2.09092340121e-38
0.0720025198846 -0.158699431582 0.794 2.14588078555e-38
0.0736570269729 -0.159099178261 0.796 2.27503047761e-38
0.0751301675124 -0.159099178261 0.796 2.34921928207e-38
0.0766033080518 -0.159099178261 0.796 2.34878319799e-38
0.0782726205727 -0.159498924941 0.798 2.12708054496e-38
0.0797494624703 -0.159498924941 0.798 2.35001255713e-38
0.0812263043679 -0.159498924941 0.798 2.35065799521e-38
0.0398895366677 -0.164160785517 0.829 1.88787917736e-38
0.0414237496164 -0.164160785517 0.829 1.92450911922e-38
0.0429579625652 -0.164160785517 0.829 1.906138797e-38
0.044492175514 -0.164160785517 0.829 1.91542898543e-38
0.0460263884627 -0.164160785517 0.829 1.70348791764e-38
0.0475606014115 -0.164160785517 0.829 1.62040647312e-38
0.0490948143602 -0.164160785517 0.829 1.2058851514e-38
0.0490411446672 -0.159012196345 0.803 1.4270852988e-38
0.0503384706951 -0.158418128364 0.8 1.62033612793e-38
0.0518190139508 -0.158418128364 0.8 1.69423332219e-38
0.0531663083135 -0.158022083043 0.798 1.82341538424e-38
0.0546431502111 -0.158022083043 0.798 1.86947732593e-38
0.0561199921087 -0.158022083043 0.798 1.86961955772e-38
0.0574524810389 -0.157626037722 0.796 1.92475812996e-38
0.0589256215783 -0.157626037722 0.796 1.97996564608e-38
0.0603987621178 -0.157626037722 0.796 2.05386284033e-38
0.0618719026572 -0.157626037722 0.796 1.89688223974e-38
0.0633450431967 -0.157626037722 0.796 1.89674000794e-38
0.064655323978 -0.157229992401 0.794 2.02574130249e-38
0.0661247631593 -0.157229992401 0.794 2.03510001442e-38
0.0674239398663 -0.15683394708 0.792 2.13633850353e-38
0.0688896776894 -0.15683394708 0.792 2.20112627686e-38
0.0703554155126 -0.15683394708 0.792 2.29335876087e-38
0.0720025198846 -0.157229992401 0.794 2.34871299294e-38
0.0736570269729 -0.157626037722 0.796 2.34881766993e-38
0.0751301675124 -0.157626037722 0.796 2.21942247039e-38
0.0766033080518 -0.157626037722 0.796 2.23757643212e-38
0.0780764485913 -0.157626037722 0.796 2.2837448725e-38
0.0797494624703 -0.158022083043 0.798 2.35008472401e-38
0.0368211107702 -0.162626572568 0.829 1.7298122902e-38
0.0383553237189 -0.162626572568 0.829 1.84163913064e-38
0.0398895366677 -0.162626572568 0.829 1.89691755246e-38
0.0414237496164 -0.162626572568 0.829 1.91539367271e-38
0.0429579625652 -0.162626572568 0.829 1.79550404117e-38
0.044492175514 -0.162626572568 0.829 1.83234529883e-38
0.0459153477185 -0.162234228606 0.827 1.76780975923e-38
0.0472163751045 -0.16144954068 0.823 1.58385037969e-38
0.0487394839789 -0.16144954068 0.823 1.24279941671e-38
0.0502625928532 -0.16144954068 0.823 1.57423424924e-38
0.0505272399602 -0.157526101052 0.803 1.55597715193e-38
0.0518190139508 -0.156937585108 0.8 1.7310766818e-38
0.0532995572065 -0.156937585108 0.8 1.77713806297e-38
0.0546431502111 -0.156545241145 0.798 1.86940571958e-38
0.0561199921087 -0.156545241145 0.798 1.88802210981e-38
0.0574524810389 -0.156152897183 0.796 1.96163596151e-38
0.0589256215783 -0.156152897183 0.796 1.93383307894e-38
0.0603987621178 -0.156152897183 0.796 2.00755202803e-38
0.0618719026572 -0.156152897183 0.796 2.09967731272e-38
0.0633450431967 -0.156152897183 0.796 2.21034682075e-38
0.0648181837362 -0.156152897183 0.796 2.13637409651e-38
0.0661247631593 -0.15576055322 0.794 2.17325431027e-38
0.0675942023407 -0.15576055322 0.794 2.2008781069e-38
0.069063641522 -0.15576055322 0.794 2.21045528125e-38
0.0705330807033 -0.15576055322 0.794 2.17357646879e-38
0.0721838864334 -0.156152897183 0.796 2.19183608843e-38
0.0736570269729 -0.156152897183 0.796 2.21953037037e-38
0.0751301675124 -0.156152897183 0.796 2.30232819208e-38
0.0766033080518 -0.156152897183 0.796 2.32076759831e-38
0.0782726205727 -0.156545241145 0.798 2.31147614872e-38
0.0797494624703 -0.156545241145 0.798 2.34947221645e-38
0.0337526848727 -0.16109235962 0.829 2.34947137567e-38
0.0352868978214 -0.16109235962 0.829 1.31590221487e-38
0.0383553237189 -0.16109235962 0.829 1.86025622152e-38
0.0398895366677 -0.16109235962 0.829 1.86004098207e-38
0.0414237496164 -0.16109235962 0.829 1.95238080555e-38
0.0428543245373 -0.160703717015 0.827 1.79546774754e-38
0.0443848361279 -0.160703717015 0.827 1.9244686217e-38
0.0459153477185 -0.160703717015 0.827 1.71245636794e-38
0.0471016330022 -0.159537789201 0.821 1.6021821662e-38
0.0485025970579 -0.159149146596 0.819 1.53750145207e-38
0.050018303216 -0.159149146596 0.819 1.56498189587e-38
0.0515340093741 -0.159149146596 0.819 1.56515972064e-38
0.0519485614857 -0.155845684457 0.802 1.74015331235e-38
0.0532995572065 -0.155457041852 0.8 1.83231166767e-38
0.0546431502111 -0.155068399248 0.798 1.81397847986e-38
0.0561199921087 -0.155068399248 0.798 1.93379748596e-38
0.0574524810389 -0.154679756643 0.796 1.92468484205e-38
0.0589256215783 -0.154679756643 0.796 2.04439720934e-38
0.0603987621178 -0.154679756643 0.796 1.99840659374e-38
0.0618719026572 -0.154679756643 0.796 2.13673380983e-38
0.0633450431967 -0.154679756643 0.796 2.02592080882e-38
0.0648181837362 -0.154679756643 0.796 2.28381844067e-38
0.0662913242756 -0.154679756643 0.796 2.16414404857e-38
0.0677644648151 -0.154679756643 0.796 2.13644864559e-38
0.0692376053545 -0.154679756643 0.796 2.22882322127e-38
0.070710745894 -0.154679756643 0.796 2.18254618026e-38
0.0721838864334 -0.154679756643 0.796 2.23779097092e-38
0.0738420948799 -0.155068399248 0.798 2.25640834205e-38
0.0753189367775 -0.155068399248 0.798 2.28399696609e-38
0.0767957786751 -0.155068399248 0.798 2.34856935985e-38
0.0782726205727 -0.155068399248 0.798 2.34864068594e-38
0.0797494624703 -0.155068399248 0.798 2.35008416349e-38
0.084178137484 -0.160703717015 0.827 2.35098449775e-38
0.0857086490746 -0.160703717015 0.827 2.35098351684e-38
0.0872391606652 -0.160703717015 0.827 2.35098365697e-38
0.0889843510279 -0.16109235962 0.829 2.35065687417e-38
0.0336712549936 -0.159173205424 0.827 1.28810942165e-38
0.0368211107702 -0.159558146671 0.829 1.86929767947e-38
0.0383553237189 -0.159558146671 0.829 1.7863197909e-38
0.0398895366677 -0.159558146671 0.829 1.92454289051e-38
0.0413238129467 -0.159173205424 0.827 1.83230998611e-38
0.0428543245373 -0.159173205424 0.827 1.82309042313e-38
0.0443848361279 -0.159173205424 0.827 1.86922579286e-38
0.0459153477185 -0.159173205424 0.827 1.74926357405e-38
0.0471016330022 -0.158018381685 0.821 1.7035229501e-38
0.048265710137 -0.156863557945 0.815 1.5652323079e-38
0.0496518687602 -0.156478616699 0.813 1.62036793741e-38
0.0509047784904 -0.155708734206 0.809 1.66631903639e-38
0.052142882788 -0.154938851713 0.805 1.77706897896e-38
0.0534994305461 -0.154553910466 0.803 1.72171250481e-38
0.0547801004623 -0.153976498597 0.8 1.86929585778e-38
0.0561199921087 -0.15359155735 0.798 1.92479344268e-38
0.0575968340063 -0.15359155735 0.798 1.85107155086e-38
0.0590736759039 -0.15359155735 0.798 2.00762657711e-38
0.0605505178015 -0.15359155735 0.798 1.99847665866e-38
0.0620273596991 -0.15359155735 0.798 2.09985499736e-38
0.0633450431967 -0.153206616104 0.796 2.02592108908e-38
0.0648181837362 -0.153206616104 0.796 2.22853637547e-38
0.0662913242756 -0.153206616104 0.796 2.09964214012e-38
0.0677644648151 -0.153206616104 0.796 2.21949631882e-38
0.0692376053545 -0.153206616104 0.796 2.09960570636e-38
0.070710745894 -0.153206616104 0.796 2.22853637547e-38
0.0723652529823 -0.15359155735 0.798 2.22857140793e-38
0.0738420948799 -0.15359155735 0.798 2.23764621679e-38
0.0755077060426 -0.153976498597 0.8 2.30222127301e-38
0.0771807199216 -0.154361439843 0.802 2.34889179862e-38
0.0786649645354 -0.154361439843 0.802 2.34860257062e-38
0.0824477525538 -0.158788264178 0.825 2.35048185199e-38
0.0839745627863 -0.158788264178 0.825 2.35098505827e-38
0.0855013730188 -0.158788264178 0.825 2.35098435762e-38
0.0872391606652 -0.159173205424 0.827 2.35098393723e-38
0.0889843510279 -0.159558146671 0.829 2.35098113463e-38
0.0905185639767 -0.159558146671 0.829 2.35098421749e-38
0.032140743403 -0.157642693834 0.827 2.30312118688e-38
0.0336712549936 -0.157642693834 0.827 1.38908923106e-38
0.0352017665842 -0.157642693834 0.827 1.74948007466e-38
0.0367322781748 -0.157642693834 0.827 1.70348847816e-38
0.0382627897654 -0.157642693834 0.827 1.80486877867e-38
0.0397933013561 -0.157642693834 0.827 1.88755673859e-38
0.0412238762769 -0.157261453945 0.825 1.82316048805e-38
0.0427506865094 -0.157261453945 0.825 1.87851570103e-38
0.0443848361279 -0.157642693834 0.827 1.75876872167e-38
0.045582225486 -0.156498974169 0.821 1.85081987766e-38
0.0469868908999 -0.15611773428 0.819 1.60189321845e-38
0.048265710137 -0.155355254504 0.815 1.68486984585e-38
0.0496518687602 -0.154974014615 0.813 1.68494019103e-38
0.0509047784904 -0.154211534838 0.809 1.72174599585e-38
0.0522724303229 -0.15383029495 0.807 1.6939812286e-38
0.0536326794391 -0.153449055062 0.805 1.77699457001e-38
0.0549170507134 -0.152877195229 0.802 1.82323559765e-38
0.056260643718 -0.152495955341 0.8 1.91561017332e-38
0.0575968340063 -0.152114715453 0.798 1.93397475022e-38
0.0590736759039 -0.152114715453 0.798 1.93383462037e-38
0.0605505178015 -0.152114715453 0.798 2.05361649206e-38
0.0620273596991 -0.152114715453 0.798 2.05375746269e-38
0.0635042015967 -0.152114715453 0.798 2.11811419661e-38
0.0649810434943 -0.152114715453 0.798 2.10889729609e-38
0.0664578853919 -0.152114715453 0.798 2.05357991817e-38
0.0679347272895 -0.152114715453 0.798 2.20109096414e-38
0.0694115691871 -0.152114715453 0.798 2.0996054261e-38
0.0708884110847 -0.152114715453 0.798 2.22860672065e-38
0.0725466195311 -0.152495955341 0.8 2.23778970975e-38
0.0742122306938 -0.152877195229 0.802 2.3484601987e-38
0.0756964753077 -0.152877195229 0.802 2.33005792687e-38
0.0772769552332 -0.153067815173 0.803 2.34842446558e-38
0.0795477384517 -0.154592774727 0.811 2.34936711906e-38
0.0818481325353 -0.15611773428 0.819 2.35091247101e-38
0.0837709880887 -0.156880214057 0.823 2.35080359012e-38
0.085294096963 -0.156880214057 0.823 2.35098435762e-38
0.0870281832513 -0.157261453945 0.825 2.35098421749e-38
0.0887696722558 -0.157642693834 0.827 2.35098421749e-38
0.0903001838465 -0.157642693834 0.827 2.35098421749e-38
0.0920527769254 -0.158023933722 0.829 2.35098421749e-38
0.0306102318124 -0.156112182243 0.827 2.35036946785e-38
0.032140743403 -0.156112182243 0.827 1.14087877551e-38
0.0336712549936 -0.156112182243 0.827 1.65695443901e-38
0.0352017665842 -0.156112182243 0.827 1.73111227478e-38
0.0367322781748 -0.156112182243 0.827 1.77728155594e-38
0.0382627897654 -0.156112182243 0.827 1.7864995775e-38
0.0396970660444 -0.155734643713 0.825 1.92461351596e-38
0.0412238762769 -0.155734643713 0.825 1.82312419442e-38
0.0426470484815 -0.155357105183 0.823 1.84153151092e-38
0.0441701573558 -0.155357105183 0.823 1.83234529883e-38
0.0454711847418 -0.154602028122 0.819 1.77706337377e-38
0.0468721487976 -0.154224489592 0.817 1.7953595673e-38
0.048265710137 -0.153846951062 0.815 1.71249266157e-38
0.0496518687602 -0.153469412532 0.813 1.73093234806e-38
0.0510306246671 -0.153091874001 0.811 1.74937147403e-38
0.0524019778577 -0.152714335471 0.809 1.83234557909e-38
0.0537659283321 -0.152336796941 0.807 1.73089577417e-38
0.0551224760902 -0.151959258411 0.805 1.83242012817e-38
0.0564012953273 -0.151392950615 0.802 1.91557514086e-38
0.0577411869737 -0.151015412085 0.8 1.90635361606e-38
0.0590736759039 -0.150637873555 0.798 2.01680956621e-38
0.0605505178015 -0.150637873555 0.798 2.05365180478e-38
0.0620273596991 -0.150637873555 0.798 2.06294199321e-38
0.0636633599967 -0.151015412085 0.8 2.13652025194e-38
0.0651439032524 -0.151015412085 0.8 2.08134748802e-38
0.0666244465082 -0.151015412085 0.8 2.16421593518e-38
0.0681049897639 -0.151015412085 0.8 2.14570324104e-38
0.0697594968522 -0.151392950615 0.802 2.20094873234e-38
0.0712437414661 -0.151392950615 0.802 2.2471527657e-38
0.0728186693543 -0.15158171988 0.803 2.22867678558e-38
0.0744898325543 -0.151959258411 0.805 2.26541238534e-38
0.0761683984705 -0.152336796941 0.807 2.34824650068e-38
0.0778543671029 -0.152714335471 0.809 2.34921577883e-38
0.0795477384517 -0.153091874001 0.811 2.3501908023e-38
0.0816482591957 -0.154224489592 0.817 2.35098758061e-38
0.083567413391 -0.154979566652 0.821 2.35098393723e-38
0.0850868209072 -0.154979566652 0.821 2.35098561879e-38
0.0868172058373 -0.155357105183 0.823 2.35098589905e-38
0.0887696722558 -0.156112182243 0.827 2.35098533853e-38
0.0903001838465 -0.156112182243 0.827 2.35084016401e-38
0.0918306954371 -0.156112182243 0.827 2.35066051754e-38
0.0290797202217 -0.154581670652 0.827 2.349433961e-38
0.0306102318124 -0.154581670652 0.827 2.34990283546e-38
0.032140743403 -0.154581670652 0.827 1.21331217339e-38
0.0336712549936 -0.154581670652 0.827 1.72170802066e-38
0.0352017665842 -0.154581670652 0.827 1.70341631129e-38
0.0367322781748 -0.154581670652 0.827 1.78635902726e-38
0.038170255812 -0.15420783348 0.825 1.75891319554e-38
0.0396970660444 -0.15420783348 0.825 1.95216458519e-38
0.0411239396072 -0.153833996308 0.823 1.94301508713e-38
0.0425434104536 -0.153460159136 0.821 1.79553963415e-38
0.0440628179698 -0.153460159136 0.821 1.94312298711e-38
0.0454711847418 -0.153086321964 0.819 1.8047942296e-38
0.0468721487976 -0.152712484792 0.817 1.86936620296e-38
0.048265710137 -0.15233864762 0.815 1.75884088854e-38
0.0496518687602 -0.151964810448 0.813 1.75887816308e-38
0.0510306246671 -0.151590973276 0.811 1.80497443658e-38
0.0525315253926 -0.151590973276 0.811 1.76798828465e-38
0.0538991772251 -0.151217136104 0.809 1.86000594961e-38
0.0552594263413 -0.150843298932 0.807 1.86929613804e-38
0.0566122727412 -0.15046946176 0.805 1.93397531074e-38
0.0579577164249 -0.150095624588 0.803 1.92482861527e-38
0.059369784555 -0.149908706001 0.802 1.98922234347e-38
0.0608540291689 -0.149908706001 0.802 2.03524799153e-38
0.0623382737828 -0.149908706001 0.802 2.06294227347e-38
0.0638225183967 -0.149908706001 0.802 2.0166306204e-38
0.0653067630106 -0.149908706001 0.802 2.10886226363e-38
0.0667910076244 -0.149908706001 0.802 2.26545162169e-38
0.0683603834755 -0.150095624588 0.803 2.17318424535e-38
0.0698464787685 -0.150095624588 0.803 2.19165405976e-38
0.0713325740614 -0.150095624588 0.803 2.21942443221e-38
0.0730000359032 -0.15046946176 0.805 2.34842544649e-38
0.0746749004612 -0.150843298932 0.807 2.34857034075e-38
0.0763571677356 -0.151217136104 0.809 2.34939402399e-38
0.0780468377262 -0.151590973276 0.811 2.35011891569e-38
0.0795477384517 -0.151590973276 0.811 2.35098337671e-38
0.0814483858562 -0.15233864762 0.815 2.35098323658e-38
0.0833638386933 -0.153086321964 0.819 2.35098295632e-38
0.0850868209072 -0.153460159136 0.821 2.35098043398e-38
0.0866062284234 -0.153460159136 0.821 2.35098309645e-38
0.0885549934838 -0.15420783348 0.825 2.35098281619e-38
0.0900818037162 -0.15420783348 0.825 2.35098477801e-38
0.0918306954371 -0.154581670652 0.827 2.35080373025e-38
0.0933612070277 -0.154581670652 0.827 2.35069414871e-38
0.0290797202217 -0.153051159062 0.827 2.34983150937e-38
0.0306102318124 -0.153051159062 0.827 2.16478654391e-38
0.032140743403 -0.153051159062 0.827 1.241250001e-38
0.0336712549936 -0.153051159062 0.827 1.70312666289e-38
0.0352017665842 -0.153051159062 0.827 1.74018666325e-38
0.0367322781748 -0.153051159062 0.827 1.82323503713e-38
0.038170255812 -0.152681023248 0.825 1.83238033129e-38
0.0396008307328 -0.152310887434 0.823 1.87819102017e-38
0.0410240029374 -0.15194075162 0.821 1.91503620147e-38
0.0425434104536 -0.15194075162 0.821 1.93365301209e-38
0.0439554785838 -0.151570615806 0.819 1.86007601453e-38
0.0453601439976 -0.151200479992 0.817 1.85074925221e-38
0.0467574066952 -0.150830344178 0.815 1.84156500195e-38
0.0481472666766 -0.150460208364 0.813 1.83241732557e-38
0.0496518687602 -0.150460208364 0.813 1.72189229141e-38
0.0510306246671 -0.15009007255 0.811 1.85110714384e-38
0.0525315253926 -0.15009007255 0.811 1.78649929724e-38
0.0538991772251 -0.149719936736 0.809 2.01670362805e-38
0.0553963765925 -0.149719936736 0.809 1.89691895376e-38
0.0566122727412 -0.148979665109 0.805 1.94312298711e-38
0.0581020693923 -0.148979665109 0.805 2.02606542283e-38
0.0594438117178 -0.148609529295 0.803 1.99847665866e-38
0.0609299070108 -0.148609529295 0.803 2.07209121102e-38
0.0624160023037 -0.148609529295 0.803 2.10893260881e-38
0.0639020975967 -0.148609529295 0.803 2.14581282258e-38
0.0653881928896 -0.148609529295 0.803 2.1730389307e-38
0.0668742881826 -0.148609529295 0.803 2.27463096741e-38
0.0683603834755 -0.148609529295 0.803 2.30225336274e-38
0.070020442601 -0.148979665109 0.805 2.32065759638e-38
0.0715102392521 -0.148979665109 0.805 2.34834949612e-38
0.073181402452 -0.149349800922 0.807 2.34871481463e-38
0.0748599683682 -0.149719936736 0.809 2.34971253913e-38
0.0765459370007 -0.15009007255 0.811 2.35026198826e-38
0.0782393083494 -0.150460208364 0.813 2.35069484936e-38
0.0797439104331 -0.150460208364 0.813 2.3507331048e-38
0.0814483858562 -0.150830344178 0.815 2.35098533853e-38
0.0833638386933 -0.151570615806 0.819 2.35098267606e-38
0.0850868209072 -0.15194075162 0.821 2.35084072453e-38
0.0866062284234 -0.15194075162 0.821 2.35098491814e-38
0.0881256359396 -0.15194075162 0.821 2.35091106971e-38
0.0900818037162 -0.152681023248 0.825 2.35084016401e-38
0.0916086139487 -0.152681023248 0.825 2.35098435762e-38
0.0933612070277 -0.153051159062 0.827 2.35047820861e-38
0.0948917186183 -0.153051159062 0.827 2.35051394172e-38
0.0964222302089 -0.153051159062 0.827 2.34935730997e-38
0.0290797202217 -0.151520647471 0.827 2.35011877556e-38
0.0306102318124 -0.151520647471 0.827 1.50069158349e-38
0.032140743403 -0.151520647471 0.827 1.57358432701e-38
0.0336712549936 -0.151520647471 0.827 1.65742709698e-38
0.0352017665842 -0.151520647471 0.827 1.76795353245e-38
0.0366434455795 -0.151154213015 0.825 1.73107401934e-38
0.0380777218585 -0.15078777856 0.823 1.86915110365e-38
0.0395045954212 -0.150421344104 0.821 1.87833409274e-38
0.0409240662676 -0.150054909648 0.819 1.90581509706e-38
0.0423361343978 -0.149688475192 0.817 2.02570444834e-38
0.0437407998117 -0.149322040736 0.815 1.97074440153e-38
0.0452491032535 -0.149322040736 0.815 1.9244686217e-38
0.0466426645929 -0.148955606281 0.813 1.87829878002e-38
0.0481472666766 -0.148955606281 0.813 1.90595732885e-38
0.0495297239416 -0.148589171825 0.811 1.89681035313e-38
0.0510306246671 -0.148589171825 0.811 1.89695426648e-38
0.0525315253926 -0.148589171825 0.811 1.89695384609e-38
0.0540324261181 -0.148589171825 0.811 1.94297977441e-38
0.0553963765925 -0.148222737369 0.809 1.94301508713e-38
0.0568935759598 -0.148222737369 0.809 1.97993033336e-38
0.0582464223598 -0.147856302913 0.807 2.11826091256e-38
0.0595918660434 -0.147489868457 0.805 1.99836973959e-38
0.0610816626945 -0.147489868457 0.805 2.12712132275e-38
0.0625714593456 -0.147489868457 0.805 2.20105719284e-38
0.0640612559967 -0.147489868457 0.805 2.21953009011e-38
0.0655510526477 -0.147489868457 0.805 2.34838564962e-38
0.0670408492988 -0.147489868457 0.805 2.31151090092e-38
0.0685306459499 -0.147489868457 0.805 2.34838901273e-38
0.0701944064336 -0.147856302913 0.807 2.34903543172e-38
0.0716879044428 -0.147856302913 0.807 2.34957310994e-38
0.0733627690008 -0.148222737369 0.809 2.34986696222e-38
0.0750450362752 -0.148589171825 0.811 2.34997808519e-38
0.0767347062658 -0.148955606281 0.813 2.3508016283e-38
0.0782393083494 -0.148955606281 0.813 2.35094512126e-38
0.0799400824144 -0.149322040736 0.815 2.3509851984e-38
0.0814483858562 -0.149322040736 0.815 2.35073338506e-38
0.0831602639957 -0.149688475192 0.817 2.3508363805e-38
0.0848795448514 -0.150054909648 0.819 2.35094708308e-38
0.0863952510095 -0.150054909648 0.819 2.3509837971e-38
0.0881256359396 -0.150421344104 0.821 2.35080359012e-38
0.0896450434558 -0.150421344104 0.821 2.35065869586e-38
0.091164450972 -0.150421344104 0.821 2.35069470923e-38
0.0926838584882 -0.150421344104 0.821 2.35033583669e-38
0.0942032660044 -0.150421344104 0.821 2.35029688059e-38
0.0964222302089 -0.151520647471 0.827 2.34939514503e-38
0.0275492086311 -0.149990135881 0.827 2.34961402785e-38
0.0290797202217 -0.149990135881 0.827 2.35040814369e-38
0.0306102318124 -0.149990135881 0.827 1.03049471197e-38
0.032140743403 -0.149990135881 0.827 1.64744620854e-38
0.0336712549936 -0.149990135881 0.827 1.6388090252e-38
0.035116635347 -0.149627402783 0.825 1.74965831983e-38
0.0365546129841 -0.149264669685 0.823 1.77724498205e-38
0.037985187905 -0.148901936588 0.821 1.83249173452e-38
0.0395045954212 -0.148901936588 0.821 1.88766239649e-38
0.0408241295979 -0.148176470392 0.817 1.88755519716e-38
0.0423361343978 -0.148176470392 0.817 1.87830032145e-38
0.0437407998117 -0.147813737295 0.815 1.961313803e-38
0.0452491032535 -0.147813737295 0.815 1.91517843327e-38
0.0466426645929 -0.147451004197 0.813 1.98907562752e-38
0.0481472666766 -0.147451004197 0.813 1.96130973923e-38
0.0495297239416 -0.147088271099 0.811 1.91521374599e-38
0.0510306246671 -0.147088271099 0.811 1.98900528234e-38
0.0525315253926 -0.147088271099 0.811 2.00758986309e-38
0.0540324261181 -0.147088271099 0.811 1.94312326737e-38
0.0555333268436 -0.147088271099 0.811 2.04442831816e-38
0.0568935759598 -0.146725538002 0.809 2.02599143427e-38
0.0582464223598 -0.146362804904 0.807 2.09035083066e-38
0.059739920369 -0.146362804904 0.807 2.21928023859e-38
0.0612334183782 -0.146362804904 0.807 2.20995081381e-38
0.0625714593456 -0.146000071806 0.805 2.27438209681e-38
0.0640612559967 -0.146000071806 0.805 2.34831432353e-38
0.0657139124059 -0.146362804904 0.807 2.34832006885e-38
0.0672074104151 -0.146362804904 0.807 2.34892753173e-38
0.0687009084243 -0.146362804904 0.807 2.3491457139e-38
0.0701944064336 -0.146362804904 0.807 2.349433961e-38
0.0718655696335 -0.146725538002 0.809 2.34975948263e-38
0.0735441355497 -0.147088271099 0.811 2.34982982781e-38
0.0750450362752 -0.147088271099 0.811 2.35012003673e-38
0.0767347062658 -0.147451004197 0.813 2.35029856215e-38
0.0782393083494 -0.147451004197 0.813 2.35047960991e-38
0.0797439104331 -0.147451004197 0.813 2.35091036906e-38
0.0814483858562 -0.147813737295 0.815 2.35062324301e-38
0.082956689298 -0.147813737295 0.815 2.35098491814e-38
0.0846722687956 -0.148176470392 0.817 2.35091233088e-38
0.0861842735955 -0.148176470392 0.817 2.35098295632e-38
0.0879109571675 -0.14853920349 0.819 2.35098603918e-38
0.0894266633256 -0.14853920349 0.819 2.3507654748e-38
0.0909423694836 -0.14853920349 0.819 2.35026268891e-38
0.0926838584882 -0.148901936588 0.821 2.3503354163e-38
0.0942032660044 -0.148901936588 0.821 2.35047778822e-38
0.0957226735206 -0.148901936588 0.821 2.34939486477e-38
0.0974789679577 -0.149264669685 0.823 2.34903809418e-38
0.0275492086311 -0.14845962429 0.827 2.34929018778e-38
0.0290797202217 -0.14845962429 0.827 2.35037058889e-38
0.0306102318124 -0.14845962429 0.827 1.00258533071e-38
0.032140743403 -0.14845962429 0.827 1.63826574178e-38
0.0336712549936 -0.14845962429 0.827 1.70334624636e-38
0.035116635347 -0.14810059255 0.825 1.66675231788e-38
0.0365546129841 -0.147741560811 0.823 1.8049040914e-38
0.037985187905 -0.147382529071 0.821 1.768059891e-38
0.039312124798 -0.146664465592 0.817 1.94290634637e-38
0.0408241295979 -0.146664465592 0.817 2.02581136741e-38
0.0422324963699 -0.146305433853 0.815 1.9244334491e-38
0.0437407998117 -0.146305433853 0.815 1.98904297727e-38
0.0451380625093 -0.145946402113 0.813 2.0074786e-38
0.0466426645929 -0.145946402113 0.813 2.02599115401e-38
0.0481472666766 -0.145946402113 0.813 1.98922080204e-38
0.0495297239416 -0.145587370374 0.811 1.96120380107e-38
0.0510306246671 -0.145587370374 0.811 2.13641179144e-38
0.0525315253926 -0.145587370374 0.811 2.09964073883e-38
0.0540324261181 -0.145587370374 0.811 2.03524771127e-38
0.0555333268436 -0.145587370374 0.811 2.09964073883e-38
0.0568935759598 -0.145228338634 0.809 2.15488356767e-38
0.0583907753272 -0.145228338634 0.809 2.2284252525e-38
0.0598879746946 -0.145228338634 0.809 2.25601429693e-38
0.0612334183782 -0.144869306895 0.807 2.31147306586e-38
0.0627269163874 -0.144869306895 0.807 2.34856823881e-38
0.0642204143967 -0.144869306895 0.807 2.34864082607e-38
0.0657139124059 -0.144869306895 0.807 2.34900011899e-38
0.0672074104151 -0.144869306895 0.807 2.34885760694e-38
0.0687009084243 -0.144869306895 0.807 2.34918200753e-38
0.0701944064336 -0.144869306895 0.807 2.34943185905e-38
0.0718655696335 -0.145228338634 0.809 2.3497940947e-38
0.0735441355497 -0.145587370374 0.811 2.35029800163e-38
0.0750450362752 -0.145587370374 0.811 2.3502603067e-38
0.0767347062658 -0.145946402113 0.813 2.3508377818e-38
0.0782393083494 -0.145946402113 0.813 2.3504091246e-38
0.0797439104331 -0.145946402113 0.813 2.35094638243e-38
0.0814483858562 -0.146305433853 0.815 2.35098337671e-38
0.082956689298 -0.146305433853 0.815 2.35087407543e-38
0.0844649927398 -0.146305433853 0.815 2.35091261114e-38
0.0861842735955 -0.146664465592 0.817 2.35094470087e-38
0.0876962783954 -0.146664465592 0.817 2.35065743469e-38
0.0894266633256 -0.147023497332 0.819 2.35054911432e-38
0.0909423694836 -0.147023497332 0.819 2.35065827547e-38
0.0926838584882 -0.147382529071 0.821 2.35029603981e-38
0.0942032660044 -0.147382529071 0.821 2.34961430811e-38
0.0957226735206 -0.147382529071 0.821 2.34968521381e-38
0.0972420810368 -0.147382529071 0.821 2.34878894332e-38
0.0275492086311 -0.146929112699 0.827 2.34943466165e-38
0.0290797202217 -0.146929112699 0.827 2.35022583476e-38
0.0306102318124 -0.146929112699 0.827 1.02077306374e-38
0.032140743403 -0.146929112699 0.827 1.64766312955e-38
0.0335898251145 -0.146573782318 0.825 1.62980456153e-38
0.035116635347 -0.146573782318 0.825 1.77717309544e-38
0.0364657803888 -0.145863121555 0.821 1.76781031975e-38
0.0378926539515 -0.145507791174 0.819 1.90617354921e-38
0.039312124798 -0.145152460792 0.817 1.90595732885e-38
0.0407241929281 -0.144797130411 0.815 1.91510528549e-38
0.0422324963699 -0.144797130411 0.815 1.96120408133e-38
0.0436334604256 -0.14444180003 0.813 2.00748168285e-38
0.0451380625093 -0.14444180003 0.813 1.95216402467e-38
0.0466426645929 -0.14444180003 0.813 2.10900421516e-38
0.0481472666766 -0.14444180003 0.813 1.99836973959e-38
0.0495297239416 -0.144086469648 0.811 2.11811447687e-38
0.0510306246671 -0.144086469648 0.811 2.08109175105e-38
0.0525315253926 -0.144086469648 0.811 2.11775714576e-38
0.0540324261181 -0.144086469648 0.811 2.20087544443e-38
0.0555333268436 -0.144086469648 0.811 2.21949253531e-38
0.0568935759598 -0.143731139267 0.809 2.2377514543e-38
0.0583907753272 -0.143731139267 0.809 2.32058570977e-38
0.0598879746946 -0.143731139267 0.809 2.28381521768e-38
0.0612334183782 -0.143375808886 0.807 2.34874830566e-38
0.0627269163874 -0.143375808886 0.807 2.3488550846e-38
0.0642204143967 -0.143375808886 0.807 2.34871285281e-38
0.0657139124059 -0.143375808886 0.807 2.34881626864e-38
0.0673739715314 -0.143731139267 0.809 2.34950472657e-38
0.0688711708987 -0.143731139267 0.809 2.34957591253e-38
0.0703683702661 -0.143731139267 0.809 2.34929004765e-38
0.0720432348242 -0.144086469648 0.811 2.34975724055e-38
0.0735441355497 -0.144086469648 0.811 2.35026268891e-38
0.0752301041821 -0.14444180003 0.813 2.3504025385e-38
0.0767347062658 -0.14444180003 0.813 2.3506584156e-38
0.0782393083494 -0.14444180003 0.813 2.35047848887e-38
0.0797439104331 -0.14444180003 0.813 2.35065813534e-38
0.0812485125167 -0.14444180003 0.813 2.3509462423e-38
0.082956689298 -0.144797130411 0.815 2.35098253593e-38
0.0844649927398 -0.144797130411 0.815 2.35098211554e-38
0.0859732961816 -0.144797130411 0.815 2.35065715443e-38
0.0876962783954 -0.145152460792 0.817 2.35058568821e-38
0.0894266633256 -0.145507791174 0.819 2.35040604174e-38
0.0909423694836 -0.145507791174 0.819 2.35033471565e-38
0.0926838584882 -0.145863121555 0.821 2.35000695194e-38
0.0942032660044 -0.145863121555 0.821 2.34983052846e-38
0.0957226735206 -0.145863121555 0.821 2.34950724891e-38
0.0970051941159 -0.145507791174 0.819 2.34846468285e-38
0.0985209002739 -0.145507791174 0.819 2.3502631093e-38
0.0260186970405 -0.145398601109 0.827 2.34968521381e-38
0.0275492086311 -0.145398601109 0.827 2.34929046804e-38
0.0290797202217 -0.145398601109 0.827 2.35015647049e-38
0.0306102318124 -0.145398601109 0.827 1.05743677689e-38
0.032140743403 -0.145398601109 0.827 1.62004199538e-38
0.0335898251145 -0.145046972085 0.825 1.62058499854e-38
0.035116635347 -0.145046972085 0.825 1.67565028286e-38
0.0364657803888 -0.144343714039 0.821 1.79553935389e-38
0.0378926539515 -0.143992085016 0.819 1.80461878703e-38
0.039312124798 -0.143640455993 0.817 1.89681007287e-38
0.0407241929281 -0.143288826969 0.815 2.0074448287e-38
0.0422324963699 -0.143288826969 0.815 1.92457666181e-38
0.0436334604256 -0.142937197946 0.813 1.96138232649e-38
0.0451380625093 -0.142937197946 0.813 2.06276220662e-38
0.0466426645929 -0.142937197946 0.813 2.00751643505e-38
0.0481472666766 -0.142937197946 0.813 2.14581016011e-38
0.0495297239416 -0.142585568923 0.811 2.05368529582e-38
0.0510306246671 -0.142585568923 0.811 2.18268616998e-38
0.0525315253926 -0.142585568923 0.811 2.21949631882e-38
0.0540324261181 -0.142585568923 0.811 2.22864203337e-38
0.0555333268436 -0.142585568923 0.811 2.22857014676e-38
0.0568935759598 -0.1422339399 0.809 2.34839083442e-38
0.0583907753272 -0.1422339399 0.809 2.34824467899e-38
0.0598879746946 -0.1422339399 0.809 2.34853138466e-38
0.0612334183782 -0.141882310876 0.807 2.34871285281e-38
0.0627269163874 -0.141882310876 0.807 2.34853362674e-38
0.0642204143967 -0.141882310876 0.807 2.34896746874e-38
0.0657139124059 -0.141882310876 0.807 2.34900278146e-38
0.0673739715314 -0.1422339399 0.809 2.34921619922e-38
0.0688711708987 -0.1422339399 0.809 2.34943241957e-38
0.0703683702661 -0.1422339399 0.809 2.34968689537e-38
0.0720432348242 -0.142585568923 0.811 2.35000947428e-38
0.0735441355497 -0.142585568923 0.811 2.35015506919e-38
0.0750450362752 -0.142585568923 0.811 2.35025946592e-38
0.0765459370007 -0.142585568923 0.811 2.35029688059e-38
0.0782393083494 -0.142937197946 0.813 2.35062184171e-38
0.0797439104331 -0.142937197946 0.813 2.35062114106e-38
0.0812485125167 -0.142937197946 0.813 2.35047820861e-38
0.0827531146003 -0.142937197946 0.813 2.35055121626e-38
0.084257716684 -0.142937197946 0.813 2.35037030863e-38
0.0859732961816 -0.143288826969 0.815 2.35055065574e-38
0.0874815996233 -0.143288826969 0.815 2.35022569463e-38
0.0892082831954 -0.143640455993 0.817 2.34993926922e-38
0.0909423694836 -0.143992085016 0.819 2.35008122076e-38
0.0926838584882 -0.144343714039 0.821 2.34979269341e-38
0.0942032660044 -0.144343714039 0.821 2.34990031313e-38
0.0957226735206 -0.144343714039 0.821 2.34903963561e-38
0.0970051941159 -0.143992085016 0.819 2.34896746874e-38
0.0985209002739 -0.143992085016 0.819 2.34997248e-38
0.0260186970405 -0.143868089518 0.827 2.34932395907e-38
0.0275492086311 -0.143868089518 0.827 2.34968465329e-38
0.0290797202217 -0.143868089518 0.827 2.35001325778e-38
0.0305362046496 -0.143520161853 0.825 1.29681947251e-38
0.0320630148821 -0.143520161853 0.825 1.68476040444e-38
0.0335898251145 -0.143520161853 0.825 1.56530293334e-38
0.0350315041098 -0.143172234188 0.823 1.74951510713e-38
0.0364657803888 -0.142824306523 0.821 1.73125282502e-38
0.0378926539515 -0.142476378858 0.819 1.88777225829e-38
0.039312124798 -0.142128451193 0.817 1.86947368255e-38
0.0407241929281 -0.141780523527 0.815 1.88762736403e-38
0.0422324963699 -0.141780523527 0.815 2.00737476378e-38
0.0436334604256 -0.141432595862 0.813 2.05361523089e-38
0.0451380625093 -0.141432595862 0.813 2.0259192674e-38
0.0466426645929 -0.141432595862 0.813 2.05361649206e-38
0.0481472666766 -0.141432595862 0.813 2.09042089558e-38
0.0495297239416 -0.141084668197 0.811 2.12733417999e-38
0.0510306246671 -0.141084668197 0.811 2.09045802999e-38
0.0525315253926 -0.141084668197 0.811 2.22864427545e-38
0.0540324261181 -0.141084668197 0.811 2.2931433813e-38
0.0555333268436 -0.141084668197 0.811 2.30236140285e-38
0.0570342275691 -0.141084668197 0.811 2.32991303261e-38
0.0583907753272 -0.140736740532 0.809 2.3482818134e-38
0.0598879746946 -0.140736740532 0.809 2.34853208531e-38
0.0613851740619 -0.140736740532 0.809 2.34853418725e-38
0.0628823734293 -0.140736740532 0.809 2.34900278146e-38
0.0643795727966 -0.140736740532 0.809 2.34928892661e-38
0.065876772164 -0.140736740532 0.809 2.34907284638e-38
0.0673739715314 -0.140736740532 0.809 2.3492156387e-38
0.0688711708987 -0.140736740532 0.809 2.34957619279e-38
0.0703683702661 -0.140736740532 0.809 2.34939528516e-38
0.0718655696335 -0.140736740532 0.809 2.34968409277e-38
0.0735441355497 -0.141084668197 0.811 2.35012087751e-38
0.0750450362752 -0.141084668197 0.811 2.35004436661e-38
0.0765459370007 -0.141084668197 0.811 2.34997360104e-38
0.0782393083494 -0.141432595862 0.813 2.34990465715e-38
0.0797439104331 -0.141432595862 0.813 2.35019206347e-38
0.0812485125167 -0.141432595862 0.813 2.35029800163e-38
0.0827531146003 -0.141432595862 0.813 2.35051212004e-38
0.084257716684 -0.141432595862 0.813 2.35072693909e-38
0.0859732961816 -0.141780523527 0.815 2.34997360104e-38
0.0874815996233 -0.141780523527 0.815 2.35062002002e-38
0.0892082831954 -0.142128451193 0.817 2.35004534752e-38
0.0909423694836 -0.142476378858 0.819 2.34997121883e-38
0.0924580756417 -0.142476378858 0.819 2.34997009779e-38
0.0939737817998 -0.142476378858 0.819 2.34943059788e-38
0.0957226735206 -0.142824306523 0.821 2.34914823624e-38
0.0972420810368 -0.142824306523 0.821 2.34835398027e-38
0.098761488553 -0.142824306523 0.821 2.34993814819e-38
0.0244289637197 -0.141993351621 0.825 2.34911278339e-38
0.0259557739521 -0.141993351621 0.825 2.34929130881e-38
0.0274825841846 -0.141993351621 0.825 2.34964990109e-38
0.0290797202217 -0.142337577927 0.827 2.34997682402e-38
0.0305362046496 -0.141993351621 0.825 1.4535192529e-38
0.0320630148821 -0.141993351621 0.825 1.55558058447e-38
0.0335898251145 -0.141993351621 0.825 1.65732017791e-38
0.0350315041098 -0.141649125314 0.823 1.68515669165e-38
0.0364657803888 -0.141304899007 0.821 1.73121765243e-38
0.0378926539515 -0.1409606727 0.819 1.78624916546e-38
0.039312124798 -0.140616446393 0.817 1.86947340229e-38
0.0407241929281 -0.140272220086 0.815 1.94315928074e-38
0.0422324963699 -0.140272220086 0.815 1.90620914219e-38
0.0436334604256 -0.139927993779 0.813 2.02574102223e-38
0.0451380625093 -0.139927993779 0.813 2.03484918199e-38
0.0466426645929 -0.139927993779 0.813 2.08127139752e-38
0.0481472666766 -0.139927993779 0.813 2.11807790298e-38
0.0495297239416 -0.139583767472 0.811 2.13644710416e-38
0.0510306246671 -0.139583767472 0.811 2.2009837648e-38
0.0525315253926 -0.139583767472 0.811 2.23779125118e-38
0.0540324261181 -0.139583767472 0.811 2.25623065741e-38
0.0555333268436 -0.139583767472 0.811 2.29317869402e-38
0.0570342275691 -0.139583767472 0.811 2.3486395649e-38
0.0583907753272 -0.139239541165 0.809 2.34849481077e-38
0.0598879746946 -0.139239541165 0.809 2.34882047253e-38
0.0613851740619 -0.139239541165 0.809 2.34881977188e-38
0.0628823734293 -0.139239541165 0.809 2.34846174012e-38
0.0643795727966 -0.139239541165 0.809 2.34921746039e-38
0.065876772164 -0.139239541165 0.809 2.34910773872e-38
0.0673739715314 -0.139239541165 0.809 2.34935871127e-38
0.0688711708987 -0.139239541165 0.809 2.3492156387e-38
0.0703683702661 -0.139239541165 0.809 2.34950388579e-38
0.0718655696335 -0.139239541165 0.809 2.34957535201e-38
0.0735441355497 -0.139583767472 0.811 2.34968507368e-38
0.0750450362752 -0.139583767472 0.811 2.34968787628e-38
0.0765459370007 -0.139583767472 0.811 2.34968731576e-38
0.0780468377262 -0.139583767472 0.811 2.34964962083e-38
0.0797439104331 -0.139927993779 0.813 2.34990241508e-38
0.0812485125167 -0.139927993779 0.813 2.34986570106e-38
0.0827531146003 -0.139927993779 0.813 2.34983010807e-38
0.084257716684 -0.139927993779 0.813 2.34997402143e-38
0.0857623187676 -0.139927993779 0.813 2.35004674882e-38
0.0874815996233 -0.140272220086 0.815 2.34965130239e-38
0.0892082831954 -0.140616446393 0.817 2.34965046161e-38
0.0909423694836 -0.1409606727 0.819 2.34961514889e-38
0.0924580756417 -0.1409606727 0.819 2.34936067309e-38
0.0939737817998 -0.1409606727 0.819 2.34911222287e-38
0.0957226735206 -0.141304899007 0.821 2.34907354703e-38
0.0972420810368 -0.141304899007 0.821 2.34892907316e-38
0.098761488553 -0.141304899007 0.821 2.35037100928e-38
0.0244289637197 -0.140466541388 0.825 2.34914669481e-38
0.0259557739521 -0.140466541388 0.825 2.34954270176e-38
0.0274825841846 -0.140466541388 0.825 2.34975583926e-38
0.0290797202217 -0.140807066337 0.827 2.34997402143e-38
0.0305362046496 -0.140466541388 0.825 1.4349002002e-38
0.0320630148821 -0.140466541388 0.825 1.69422757687e-38
0.0335083952355 -0.140126016439 0.823 1.620258496e-38
0.0350315041098 -0.140126016439 0.823 1.72174781754e-38
0.0364657803888 -0.13978549149 0.821 1.76798828465e-38
0.037800119998 -0.139104441593 0.817 1.85078456494e-38
0.039312124798 -0.139104441593 0.817 1.85089148401e-38
0.0407241929281 -0.138763916644 0.815 1.9246132357e-38
0.0422324963699 -0.138763916644 0.815 1.94315928074e-38
0.0436334604256 -0.138423391695 0.813 2.04446601309e-38
0.0451380625093 -0.138423391695 0.813 2.0258817126e-38
0.0466426645929 -0.138423391695 0.813 2.17332311403e-38
0.0481472666766 -0.138423391695 0.813 2.15495559441e-38
0.0495297239416 -0.138082866746 0.811 2.22882153971e-38
0.0510306246671 -0.138082866746 0.811 2.22864147285e-38
0.0525315253926 -0.138082866746 0.811 2.22853483404e-38
0.0540324261181 -0.138082866746 0.811 2.32991429378e-38
0.0555333268436 -0.138082866746 0.811 2.32090968998e-38
0.0570342275691 -0.138082866746 0.811 2.31165313271e-38
0.0585351282946 -0.138082866746 0.811 2.34849649233e-38
0.0598879746946 -0.137742341797 0.809 2.34889179862e-38
0.0613851740619 -0.137742341797 0.809 2.34853222544e-38
0.0628823734293 -0.137742341797 0.809 2.34896452601e-38
0.0643795727966 -0.137742341797 0.809 2.3493255005e-38
0.065876772164 -0.137742341797 0.809 2.34903501133e-38
0.0673739715314 -0.137742341797 0.809 2.34874928657e-38
0.0688711708987 -0.137742341797 0.809 2.34907424768e-38
0.0703683702661 -0.137742341797 0.809 2.3492156387e-38
0.0718655696335 -0.137742341797 0.809 2.34968465329e-38
0.0733627690008 -0.137742341797 0.809 2.3492531935e-38
0.0750450362752 -0.138082866746 0.811 2.34954200111e-38
0.0765459370007 -0.138082866746 0.811 2.34957675331e-38
0.0780468377262 -0.138082866746 0.811 2.34957773422e-38
0.0795477384517 -0.138082866746 0.811 2.34965018135e-38
0.0812485125167 -0.138423391695 0.813 2.34975710042e-38
0.0827531146003 -0.138423391695 0.813 2.34975541887e-38
0.084257716684 -0.138423391695 0.813 2.34975513861e-38
0.0857623187676 -0.138423391695 0.813 2.34964709849e-38
0.0874815996233 -0.138763916644 0.815 2.34968367238e-38
0.0892082831954 -0.139104441593 0.817 2.34932437946e-38
0.0909423694836 -0.139444966542 0.819 2.34982870678e-38
0.0924580756417 -0.139444966542 0.819 2.34950374566e-38
0.0942032660044 -0.13978549149 0.821 2.34903627249e-38
0.0957226735206 -0.13978549149 0.821 2.34838761144e-38
0.0972420810368 -0.13978549149 0.821 2.34871341333e-38
0.098761488553 -0.13978549149 0.821 2.34993758767e-38
0.0260186970405 -0.139276554746 0.827 2.3492531935e-38
0.0275492086311 -0.139276554746 0.827 2.34936417633e-38
0.0290797202217 -0.139276554746 0.827 2.34947039476e-38
0.0305362046496 -0.138939731156 0.825 1.50836775635e-38
0.0320630148821 -0.138939731156 0.825 1.67575692168e-38
0.0335083952355 -0.138602907565 0.823 1.67572160896e-38
0.0349463728726 -0.138266083974 0.821 1.71263587427e-38
0.0364657803888 -0.138266083974 0.821 1.74958601283e-38
0.037800119998 -0.137592436793 0.817 1.76788010441e-38
0.039312124798 -0.137592436793 0.817 1.86911635145e-38
0.0407241929281 -0.137255613202 0.815 1.92450631662e-38
0.0422324963699 -0.137255613202 0.815 1.92457666181e-38
0.0436334604256 -0.136918789611 0.813 2.03521239855e-38
0.0451380625093 -0.136918789611 0.813 2.00755202803e-38
0.0466426645929 -0.136918789611 0.813 2.09042089558e-38
0.0480288232161 -0.136581966021 0.811 2.18258079233e-38
0.0495297239416 -0.136581966021 0.811 2.06287136777e-38
0.0510306246671 -0.136581966021 0.811 2.15477959132e-38
0.0525315253926 -0.136581966021 0.811 2.19151364965e-38
0.0540324261181 -0.136581966021 0.811 2.21927827678e-38
0.0555333268436 -0.136581966021 0.811 2.34842446558e-38
0.0570342275691 -0.136581966021 0.811 2.30246860219e-38
0.0585351282946 -0.136581966021 0.811 2.34878431903e-38
0.0598879746946 -0.13624514243 0.809 2.34860257062e-38
0.0613851740619 -0.13624514243 0.809 2.3489635451e-38
0.0630378304711 -0.136581966021 0.811 2.34874788527e-38
0.0645387311966 -0.136581966021 0.811 2.34889305979e-38
0.065876772164 -0.13624514243 0.809 2.34885592538e-38
0.0673739715314 -0.13624514243 0.809 2.34903557184e-38
0.0688711708987 -0.13624514243 0.809 2.34925305337e-38
0.0703683702661 -0.13624514243 0.809 2.34907396742e-38
0.0718655696335 -0.13624514243 0.809 2.34928864635e-38
0.0733627690008 -0.13624514243 0.809 2.34928808583e-38
0.0750450362752 -0.136581966021 0.811 2.34918060624e-38
0.0765459370007 -0.136581966021 0.811 2.34921675974e-38
0.0780468377262 -0.136581966021 0.811 2.34936221452e-38
0.0795477384517 -0.136581966021 0.811 2.34943340048e-38
0.0812485125167 -0.136918789611 0.813 2.34968619472e-38
0.0827531146003 -0.136918789611 0.813 2.34961276668e-38
0.084257716684 -0.136918789611 0.813 2.34975541887e-38
0.0859732961816 -0.137255613202 0.815 2.34925627635e-38
0.0874815996233 -0.137255613202 0.815 2.34943340048e-38
0.0892082831954 -0.137592436793 0.817 2.34943213931e-38
0.0909423694836 -0.137929260384 0.819 2.34928864635e-38
0.0924580756417 -0.137929260384 0.819 2.34939556542e-38
0.0942032660044 -0.138266083974 0.821 2.34896592731e-38
0.0957226735206 -0.138266083974 0.821 2.34817405355e-38
0.0972420810368 -0.138266083974 0.821 2.34968605459e-38
0.098761488553 -0.138266083974 0.821 2.35004843038e-38
0.0260186970405 -0.137746043156 0.827 2.34925263298e-38
0.0275492086311 -0.137746043156 0.827 2.34943410113e-38
0.0290093944171 -0.137412920923 0.825 2.34950598774e-38
0.0304621774868 -0.137079798691 0.823 1.49010617489e-38
0.0319075578402 -0.136746676458 0.821 1.7032361043e-38
0.0334269653564 -0.136746676458 0.821 1.73096738052e-38
0.0349463728726 -0.136746676458 0.821 1.6850485114e-38
0.0363769477935 -0.136413554225 0.819 1.75877026309e-38
0.037800119998 -0.136080431993 0.817 1.86029139411e-38
0.0392158894863 -0.13574730976 0.815 1.8416366083e-38
0.0407241929281 -0.13574730976 0.815 1.90613907726e-38
0.042128858342 -0.135414187528 0.813 1.91525116066e-38
0.0436334604256 -0.135414187528 0.813 1.95209424001e-38
0.0451380625093 -0.135414187528 0.813 2.02588577636e-38
0.0465279224906 -0.135081065295 0.811 2.03528134244e-38
0.0480288232161 -0.135081065295 0.811 2.09041893376e-38
0.0495297239416 -0.135081065295 0.811 2.10889729609e-38
0.0510306246671 -0.135081065295 0.811 2.21927995833e-38
0.0525315253926 -0.135081065295 0.811 2.265305186e-38
0.0540324261181 -0.135081065295 0.811 2.26544797832e-38
0.0555333268436 -0.135081065295 0.811 2.22860700091e-38
0.0570342275691 -0.135081065295 0.811 2.3299496065e-38
0.0585351282946 -0.135081065295 0.811 2.34871299294e-38
0.0598879746946 -0.134747943063 0.809 2.29310708767e-38
0.0613851740619 -0.134747943063 0.809 2.3484963522e-38
0.0630378304711 -0.135081065295 0.811 2.34892865277e-38
0.0645387311966 -0.135081065295 0.811 2.34871131138e-38
0.065876772164 -0.134747943063 0.809 2.34910787885e-38
0.0673739715314 -0.134747943063 0.809 2.34896242407e-38
0.0688711708987 -0.134747943063 0.809 2.34885774707e-38
0.0703683702661 -0.134747943063 0.809 2.34907242599e-38
0.0718655696335 -0.134747943063 0.809 2.34932564063e-38
0.0733627690008 -0.134747943063 0.809 2.34932465972e-38
0.0748599683682 -0.134747943063 0.809 2.34961206603e-38
0.0763571677356 -0.134747943063 0.809 2.34910843937e-38
0.0780468377262 -0.135081065295 0.811 2.34954270176e-38
0.0795477384517 -0.135081065295 0.811 2.34943185905e-38
0.0812485125167 -0.135414187528 0.813 2.34914417248e-38
0.0827531146003 -0.135414187528 0.813 2.34928948713e-38
0.084257716684 -0.135414187528 0.813 2.34943283996e-38
0.0859732961816 -0.13574730976 0.815 2.3491818674e-38
0.0874815996233 -0.13574730976 0.815 2.34954059981e-38
0.0892082831954 -0.136080431993 0.817 2.34928920687e-38
0.0909423694836 -0.136413554225 0.819 2.34882257448e-38
0.0924580756417 -0.136413554225 0.819 2.3490025012e-38
0.0942032660044 -0.136746676458 0.821 2.34875096813e-38
0.0957226735206 -0.136746676458 0.821 2.29271206163e-38
0.0972420810368 -0.136746676458 0.821 2.34975752081e-38
0.098761488553 -0.136746676458 0.821 2.34997654376e-38
0.0274825841846 -0.135886110691 0.825 2.35004688895e-38
0.0290093944171 -0.135886110691 0.825 2.22007085119e-38
0.0304621774868 -0.135556689816 0.823 1.56396623474e-38
0.0319075578402 -0.135227268942 0.821 1.76773801275e-38
0.0334269653564 -0.135227268942 0.821 1.76791569739e-38
0.0349463728726 -0.135227268942 0.821 1.72178256974e-38
0.0363769477935 -0.134897848067 0.819 1.83252550582e-38
0.037800119998 -0.134568427193 0.817 1.79575165061e-38
0.0392158894863 -0.134239006319 0.815 1.84163492674e-38
0.0407241929281 -0.134239006319 0.815 1.9060706939e-38
0.042128858342 -0.133909585444 0.813 1.89677686209e-38
0.0436334604256 -0.133909585444 0.813 1.98882969964e-38
0.0451380625093 -0.133909585444 0.813 1.98911360271e-38
0.0465279224906 -0.13358016457 0.811 2.0259192674e-38
0.0480288232161 -0.13358016457 0.811 2.08120161285e-38
0.0495297239416 -0.13358016457 0.811 2.07194645689e-38
0.0510306246671 -0.13358016457 0.811 2.20091313936e-38
0.0525315253926 -0.13358016457 0.811 2.16406949949e-38
0.0540324261181 -0.13358016457 0.811 2.26537763314e-38
0.0555333268436 -0.13358016457 0.811 2.2654126656e-38
0.0570342275691 -0.13358016457 0.811 2.31140272068e-38
0.0585351282946 -0.13358016457 0.811 2.34835496118e-38
0.0598879746946 -0.133250743695 0.809 2.34845977831e-38
0.0613851740619 -0.133250743695 0.809 2.34864026555e-38
0.0630378304711 -0.13358016457 0.811 2.34885480434e-38
0.0645387311966 -0.13358016457 0.811 2.34867557827e-38
0.065876772164 -0.133250743695 0.809 2.34867529801e-38
0.0673739715314 -0.133250743695 0.809 2.34899479406e-38
0.0688711708987 -0.133250743695 0.809 2.34899843744e-38
0.0703683702661 -0.133250743695 0.809 2.34921535844e-38
0.0718655696335 -0.133250743695 0.809 2.34907116483e-38
0.073181402452 -0.132921322821 0.807 2.34914375209e-38
0.0746749004612 -0.132921322821 0.807 2.34914361196e-38
0.0763571677356 -0.133250743695 0.809 2.34925095142e-38
0.0780468377262 -0.13358016457 0.811 2.34907228586e-38
0.0795477384517 -0.13358016457 0.811 2.34935983231e-38
0.0810486391772 -0.13358016457 0.811 2.34914389222e-38
0.0825495399027 -0.13358016457 0.811 2.34921675974e-38
0.084257716684 -0.133909585444 0.813 2.34914515338e-38
0.0859732961816 -0.134239006319 0.815 2.34910984066e-38
0.0874815996233 -0.134239006319 0.815 2.3492517922e-38
0.0892082831954 -0.134568427193 0.817 2.34914235079e-38
0.0909423694836 -0.134897848067 0.819 2.3489649464e-38
0.0924580756417 -0.134897848067 0.819 2.34892907316e-38
0.0939737817998 -0.134897848067 0.819 2.34846272103e-38
0.0957226735206 -0.135227268942 0.821 2.34828097262e-38
0.0972420810368 -0.135227268942 0.821 2.35008598517e-38
0.0290093944171 -0.134359300458 0.825 2.18312225406e-38
0.0304621774868 -0.134033580942 0.823 1.64712615197e-38
0.0319075578402 -0.133707861426 0.821 1.77710246999e-38
0.0334269653564 -0.133707861426 0.821 1.74944153896e-38
