# .PCD v0.7 - Point Cloud Data file format
VERSION 0.7
FIELDS x y z rgb
SIZE 4 4 4 4
TYPE F F F F
COUNT 1 1 1 1
WIDTH 839
HEIGHT 1
VIEWPOINT 0 0 0 1 0 0 0
POINTS 839
DATA ascii
0.0130583915156 -0.0930410395486 0.882 2.34867529801e-38
0.014690690455 -0.0930410395486 0.882 2.3209450027e-38
0.0163229893945 -0.0930410395486 0.882 2.34892753173e-38
0.0179552883339 -0.0930410395486 0.882 2.34889011706e-38
0.0195875872734 -0.0930410395486 0.882 2.34860369166e-38
0.0212198862128 -0.0930410395486 0.882 2.34907172535e-38
0.0228521851523 -0.0930410395486 0.882 2.33942098282e-38
0.0244844840917 -0.0930410395486 0.882 2.34860593374e-38
0.0262056156265 -0.0933575056696 0.885 2.34864040568e-38
0.0278434666032 -0.0933575056696 0.885 2.34928710492e-38
0.0295479420264 -0.0935684830835 0.887 2.34878347825e-38
0.0312598201658 -0.0937794604974 0.889 2.34892963368e-38
0.0329050738588 -0.0937794604974 0.889 2.34885718655e-38
0.0346280560726 -0.0939904379114 0.891 2.34896382536e-38
0.0362770111237 -0.0939904379114 0.891 2.34899815718e-38
0.0380536630306 -0.0943069040323 0.894 2.34899913808e-38
0.0398858353096 -0.0947288588602 0.898 2.34889081771e-38
0.0415477451141 -0.0947288588602 0.898 2.3492879457e-38
0.0432096549187 -0.0947288588602 0.898 2.34900180055e-38
0.0448715647232 -0.0947288588602 0.898 2.34921409727e-38
0.0466889315697 -0.0950453249811 0.901 2.35076253207e-38
0.0484637327975 -0.095256302395 0.903 2.3504410742e-38
0.0501348959974 -0.095256302395 0.903 2.35004646856e-38
-0.0252062489289 -0.0941033293346 0.908 1.89702264984e-38
-0.0234740133197 -0.0938960532788 0.906 2.00798362796e-38
-0.0217972980826 -0.0938960532788 0.906 6.53861557997e-39
-0.0201649991431 -0.0941033293346 0.908 1.62191833403e-38
-0.018382795199 -0.0935851391951 0.903 1.82355551409e-38
-0.0166190980456 -0.0930669490556 0.898 1.86951081696e-38
-0.0149571882411 -0.0930669490556 0.898 1.88780701049e-38
-0.0132656675714 -0.0928596729998 0.896 2.00765964776e-38
-0.011581549618 -0.092652396944 0.894 1.90610152246e-38
-0.00989373030646 -0.0923414828603 0.891 2.10896736101e-38
-0.00822626846469 -0.0921342068045 0.889 2.01692026879e-38
-0.00658101477175 -0.0921342068045 0.889 2.05365180478e-38
-0.00493576107881 -0.0921342068045 0.889 2.13670045892e-38
-0.0032831046696 -0.0919269307487 0.887 2.16446508604e-38
-0.0016415523348 -0.0919269307487 0.887 2.10896890244e-38
0.0 -0.0919269307487 0.887 2.21023990168e-38
0.0016415523348 -0.0919269307487 0.887 2.28413891762e-38
0.0032831046696 -0.0919269307487 0.887 2.20098404506e-38
0.00491355292998 -0.0917196546929 0.885 2.24704584662e-38
0.00655140390664 -0.0917196546929 0.885 2.21031052712e-38
0.00818925488329 -0.0917196546929 0.885 2.32998730143e-38
0.00982710585995 -0.0917196546929 0.885 2.26552042545e-38
0.0114260925761 -0.0914087406092 0.882 2.34892711134e-38
0.0130583915156 -0.0914087406092 0.882 2.33016288413e-38
0.014690690455 -0.0914087406092 0.882 2.3486743171e-38
0.0163229893945 -0.0914087406092 0.882 2.34863998529e-38
0.0179552883339 -0.0914087406092 0.882 2.34882215409e-38
0.0195875872734 -0.0914087406092 0.882 2.34888913616e-38
0.0212198862128 -0.0914087406092 0.882 2.3489996986e-38
0.0228521851523 -0.0914087406092 0.882 2.34874816553e-38
0.0244844840917 -0.0914087406092 0.882 2.30236294428e-38
0.0262056156265 -0.0917196546929 0.885 2.34932423933e-38
0.0279063896916 -0.0919269307487 0.887 2.34889235914e-38
0.0295479420264 -0.0919269307487 0.887 2.34885550499e-38
0.0312598201658 -0.0921342068045 0.889 2.34907158522e-38
0.0329050738588 -0.0921342068045 0.889 2.34911012092e-38
0.0346280560726 -0.0923414828603 0.891 2.34874970696e-38
0.0363991559423 -0.092652396944 0.894 2.34942961697e-38
0.0381387942678 -0.0928596729998 0.896 2.34932283803e-38
0.0398858353096 -0.0930669490556 0.898 2.34903501133e-38
0.0415477451141 -0.0930669490556 0.898 2.34921647948e-38
0.0432096549187 -0.0930669490556 0.898 2.34910731833e-38
0.0448715647232 -0.0930669490556 0.898 1.86086690739e-38
0.0466889315697 -0.0933778631393 0.901 2.35086833011e-38
0.0483563934114 -0.0933778631393 0.901 2.35076589519e-38
-0.0252062489289 -0.0924229127394 0.908 1.97095964098e-38
-0.0234740133197 -0.0922193380417 0.906 2.04471922772e-38
-0.0217972980826 -0.0922193380417 0.906 6.81268713881e-39
-0.0201649991431 -0.0924229127394 0.908 1.64935225471e-38
-0.018382795199 -0.0919139759952 0.903 1.74076119562e-38
-0.0166746184177 -0.0917104012975 0.901 1.88798707735e-38
-0.0149571882411 -0.0914050392511 0.898 1.91571863382e-38
-0.0132656675714 -0.0912014645534 0.896 1.87865821308e-38
-0.011581549618 -0.0909978898557 0.894 2.01662907897e-38
-0.00992704252972 -0.0909978898557 0.894 2.016879491e-38
-0.00824477525538 -0.0906925278092 0.891 2.11833097748e-38
-0.00658101477175 -0.0904889531116 0.889 2.12758459202e-38
-0.00493576107881 -0.0904889531116 0.889 2.10903952789e-38
-0.00329050738588 -0.0904889531116 0.889 2.14602722124e-38
-0.0016415523348 -0.0902853784139 0.887 2.1275882354e-38
0.0 -0.0902853784139 0.887 2.16431991152e-38
0.0016415523348 -0.0902853784139 0.887 2.32083962505e-38
0.0032831046696 -0.0902853784139 0.887 2.32991275235e-38
0.00492465700439 -0.0902853784139 0.887 2.22864203337e-38
0.00656620933919 -0.0902853784139 0.887 2.28395885077e-38
0.00818925488329 -0.0900818037162 0.885 2.34867655918e-38
0.00982710585995 -0.0900818037162 0.885 2.29317869402e-38
0.0114649568366 -0.0900818037162 0.885 2.34896382536e-38
0.0130583915156 -0.0897764416697 0.882 2.34878291773e-38
0.014690690455 -0.0897764416697 0.882 2.34867613879e-38
0.0163785097666 -0.0900818037162 0.885 2.28406675075e-38
0.0179552883339 -0.0897764416697 0.882 2.33005736635e-38
0.0195875872734 -0.0897764416697 0.882 2.34863970503e-38
0.0212920626966 -0.0900818037162 0.885 2.34871257255e-38
0.0229299136732 -0.0900818037162 0.885 2.3488536833e-38
0.0245677646499 -0.0900818037162 0.885 2.34892613043e-38
0.0262056156265 -0.0900818037162 0.885 2.34849677259e-38
0.0279063896916 -0.0902853784139 0.887 2.34882047253e-38
0.0295479420264 -0.0902853784139 0.887 2.34903501133e-38
0.0312598201658 -0.0904889531116 0.889 2.34867277567e-38
0.0329050738588 -0.0904889531116 0.889 2.34907284638e-38
0.0346280560726 -0.0906925278092 0.891 2.34914221066e-38
0.0363991559423 -0.0909978898557 0.894 2.34967834745e-38
0.0381387942678 -0.0912014645534 0.896 2.34925081129e-38
0.0398858353096 -0.0914050392511 0.898 2.3491433317e-38
0.0415477451141 -0.0914050392511 0.898 2.34921886168e-38
0.0432096549187 -0.0914050392511 0.898 2.3487104706e-38
0.0448715647232 -0.0914050392511 0.898 1.57537336476e-38
0.0466889315697 -0.0917104012975 0.901 2.35094217854e-38
0.0483563934114 -0.0917104012975 0.901 2.35062044041e-38
0.0500238552532 -0.0917104012975 0.901 2.35018982139e-38
-0.0252062489289 -0.0907424961441 0.908 1.84199660188e-38
-0.0234740133197 -0.0905426228046 0.906 2.0262432476e-38
-0.0217972980826 -0.0905426228046 0.906 1.03146328947e-38
-0.0201649991431 -0.0907424961441 0.908 9.12543496589e-39
-0.0184845825479 -0.0907424961441 0.908 1.78740159332e-38
-0.0167116319991 -0.0902428127953 0.903 1.8697236742e-38
-0.0149571882411 -0.0897431294465 0.898 1.82334097529e-38
-0.0132656675714 -0.089543256107 0.896 1.98911486388e-38
-0.011607459125 -0.089543256107 0.896 2.01687921074e-38
-0.00992704252972 -0.0893433827674 0.894 1.99847511723e-38
-0.00824477525538 -0.0890435727582 0.891 2.09056340763e-38
-0.00659582020431 -0.0890435727582 0.891 2.13669569451e-38
-0.00493576107881 -0.0888436994186 0.889 2.24744437591e-38
-0.00329050738588 -0.0888436994186 0.889 2.08141811347e-38
-0.0016415523348 -0.0886438260791 0.887 2.18286791839e-38
0.0 -0.0886438260791 0.887 2.16442374774e-38
0.0016415523348 -0.0886438260791 0.887 2.24708270077e-38
0.0032831046696 -0.0886438260791 0.887 2.26541084391e-38
0.00492465700439 -0.0886438260791 0.887 2.29328687426e-38
0.00656620933919 -0.0886438260791 0.887 2.30243384999e-38
0.00820776167399 -0.0886438260791 0.887 2.29310652715e-38
0.00984931400879 -0.0886438260791 0.887 2.34856613686e-38
0.0114649568366 -0.0884439527396 0.885 2.30250265374e-38
0.0131028078133 -0.0884439527396 0.885 2.34885536486e-38
0.0147406587899 -0.0884439527396 0.885 2.31172529958e-38
0.0163785097666 -0.0884439527396 0.885 2.34889081771e-38
0.0180163607432 -0.0884439527396 0.885 2.34885550499e-38
0.0196542117199 -0.0884439527396 0.885 2.3487104706e-38
0.0212920626966 -0.0884439527396 0.885 2.3486034114e-38
0.0229299136732 -0.0884439527396 0.885 2.3490320686e-38
0.0245677646499 -0.0884439527396 0.885 2.33012785167e-38
0.0262648373568 -0.0886438260791 0.887 2.34914417248e-38
0.0279063896916 -0.0886438260791 0.887 2.34892655082e-38
0.0296145664729 -0.0888436994186 0.889 2.3487104706e-38
0.0312598201658 -0.0888436994186 0.889 2.34889151836e-38
0.0329050738588 -0.0888436994186 0.889 2.34914277118e-38
0.0346280560726 -0.0890435727582 0.891 2.34885326291e-38
0.0363991559423 -0.0893433827674 0.894 2.3489625642e-38
0.038223925505 -0.0897431294465 0.898 2.34903445081e-38
0.0400190842026 -0.0900429394558 0.901 2.34939514503e-38
0.0416865460443 -0.0900429394558 0.901 2.34932493998e-38
0.0433540078861 -0.0900429394558 0.901 1.98057479052e-38
0.0450214697279 -0.0900429394558 0.901 1.66806981869e-38
0.0466889315697 -0.0900429394558 0.901 2.35098029385e-38
-0.0252062489289 -0.0890620795488 0.908 1.95255905071e-38
-0.0235258323337 -0.0890620795488 0.908 2.0631222002e-38
-0.0218454157384 -0.0890620795488 0.908 1.05919498607e-38
-0.0201649991431 -0.0890620795488 0.908 7.10577151522e-39
-0.0184845825479 -0.0890620795488 0.908 1.17115565052e-38
-0.0167116319991 -0.0885716495954 0.903 1.87952309449e-38
-0.015007156576 -0.088375477614 0.901 1.92483001657e-38
-0.0132952784365 -0.0880812196419 0.898 1.97067573791e-38
-0.011607459125 -0.0878850476605 0.896 2.00769650191e-38
-0.00994925067855 -0.0878850476605 0.896 2.00765992802e-38
-0.00827253544143 -0.0876888756792 0.894 2.09978325088e-38
-0.00659582020431 -0.0873946177071 0.891 2.09059872035e-38
-0.00494686515323 -0.0873946177071 0.891 2.13662590984e-38
-0.00329050738588 -0.0871984457257 0.889 2.13666318438e-38
-0.00164525369294 -0.0871984457257 0.889 2.16453487071e-38
0.0 -0.0871984457257 0.889 2.21041968827e-38
0.00164525369294 -0.0871984457257 0.889 2.31183361995e-38
0.0032831046696 -0.0870022737443 0.887 2.20116285075e-38
0.00492465700439 -0.0870022737443 0.887 2.21041996853e-38
0.00656620933919 -0.0870022737443 0.887 2.33945881788e-38
0.00820776167399 -0.0870022737443 0.887 2.33009267907e-38
0.00984931400879 -0.0870022737443 0.887 2.33023617204e-38
0.0114908663436 -0.0870022737443 0.887 2.3486743171e-38
0.0131324186784 -0.0870022737443 0.887 2.25640778154e-38
0.0147739710132 -0.0870022737443 0.887 2.34874830566e-38
0.016415523348 -0.0870022737443 0.887 2.34878081578e-38
0.0180570756828 -0.0870022737443 0.887 2.33941972165e-38
0.0196986280176 -0.0870022737443 0.887 2.34899899796e-38
0.0213401803524 -0.0870022737443 0.887 2.34892683108e-38
0.0229817326872 -0.0870022737443 0.887 2.34867627892e-38
0.024623285022 -0.0870022737443 0.887 2.34875012735e-38
0.0262648373568 -0.0870022737443 0.887 2.34878389864e-38
0.0279063896916 -0.0870022737443 0.887 2.3487480254e-38
0.0296145664729 -0.0871984457257 0.889 2.34928528323e-38
0.0313301459705 -0.0873946177071 0.891 2.34914179027e-38
0.0329791010215 -0.0873946177071 0.891 2.34896242407e-38
0.034744648854 -0.0876888756792 0.894 2.34899913808e-38
0.0364805858214 -0.0878850476605 0.896 2.34946829281e-38
0.038223925505 -0.0880812196419 0.898 2.34939332334e-38
0.0400190842026 -0.088375477614 0.901 2.34907438781e-38
0.0416865460443 -0.088375477614 0.901 2.34918144702e-38
0.0434502431977 -0.0885716495954 0.903 1.56676378699e-38
0.0451214063976 -0.0885716495954 0.903 1.84381646819e-38
0.0467925695976 -0.0885716495954 0.903 2.3509100888e-38
-0.0252062489289 -0.0873816629536 0.908 1.85117692851e-38
-0.0234740133197 -0.0871891923303 0.906 2.04482488563e-38
-0.0217972980826 -0.0871891923303 0.906 1.08681920309e-38
-0.0201649991431 -0.0873816629536 0.908 8.3007091625e-39
-0.0184845825479 -0.0873816629536 0.908 7.75615336887e-39
-0.0167671523712 -0.0871891923303 0.906 1.08832237595e-38
-0.0150404687992 -0.0869004863955 0.903 1.81523656562e-38
-0.0133396947342 -0.0867080157722 0.901 1.94345089095e-38
-0.011633368632 -0.0864193098374 0.898 2.08149000008e-38
-0.00994925067855 -0.0862268392141 0.896 2.00783747253e-38
-0.00827253544143 -0.0860343685909 0.894 2.03542595644e-38
-0.00661802835314 -0.0860343685909 0.894 2.10910987307e-38
-0.00494686515323 -0.085745662656 0.891 2.13662562958e-38
-0.00329050738588 -0.0855531920328 0.889 2.15499441037e-38
-0.00164525369294 -0.0855531920328 0.889 2.14602147592e-38
0.0 -0.0855531920328 0.889 2.1642845988e-38
0.00164525369294 -0.0855531920328 0.889 2.2380768358e-38
0.00329050738588 -0.0855531920328 0.889 2.34867277567e-38
0.00493576107881 -0.0855531920328 0.889 2.21960169646e-38
0.00656620933919 -0.0853607214095 0.887 2.31183460086e-38
0.00820776167399 -0.0853607214095 0.887 2.28417423035e-38
0.00984931400879 -0.0853607214095 0.887 2.3116897066e-38
0.0114908663436 -0.0853607214095 0.887 2.34871159164e-38
0.0131324186784 -0.0853607214095 0.887 2.34860397192e-38
0.0147739710132 -0.0853607214095 0.887 2.34874858592e-38
0.016415523348 -0.0853607214095 0.887 2.32112506955e-38
0.0180570756828 -0.0853607214095 0.887 2.34899997886e-38
0.0196986280176 -0.0853607214095 0.887 2.34863718269e-38
0.0213401803524 -0.0853607214095 0.887 2.34892781199e-38
0.0229817326872 -0.0853607214095 0.887 2.34842418533e-38
0.024623285022 -0.0853607214095 0.887 2.34882061266e-38
0.0262648373568 -0.0853607214095 0.887 2.34928598388e-38
0.0279063896916 -0.0853607214095 0.887 2.34896578718e-38
0.0296811909194 -0.085745662656 0.891 2.34878291773e-38
0.0313301459705 -0.085745662656 0.891 2.34892697121e-38
0.0330901417657 -0.0860343685909 0.894 2.34899899796e-38
0.034744648854 -0.0860343685909 0.894 2.34903501133e-38
0.0365620157004 -0.0864193098374 0.898 2.3492865444e-38
0.0383516223608 -0.0867080157722 0.901 2.34928598388e-38
0.0401079167979 -0.0869004863955 0.903 2.23857850065e-38
0.0417790799978 -0.0869004863955 0.903 1.88001382921e-38
0.0434502431977 -0.0869004863955 0.903 1.35600849796e-38
0.0451214063976 -0.0869004863955 0.903 1.88134169964e-38
-0.0252062489289 -0.0857012463583 0.908 1.93397475022e-38
-0.0234740133197 -0.0855124770932 0.906 2.0079485955e-38
-0.0217972980826 -0.0855124770932 0.906 1.16057290438e-38
-0.0201649991431 -0.0857012463583 0.908 7.93121478343e-39
-0.0184845825479 -0.0857012463583 0.908 7.94125929082e-39
-0.0167671523712 -0.0855124770932 0.906 7.94125929082e-39
-0.0150404687992 -0.0852293231956 0.903 9.96379260074e-39
-0.0133396947342 -0.0850405539305 0.901 1.65860853172e-38
-0.011633368632 -0.0847574000328 0.898 1.96209839001e-38
-0.00994925067855 -0.0845686307677 0.896 1.9985862402e-38
-0.00829104223213 -0.0845686307677 0.896 2.08149028034e-38
-0.00661802835314 -0.0843798615026 0.894 2.0999631776e-38
-0.00496352126486 -0.0843798615026 0.894 2.10900421516e-38
-0.00329791010215 -0.0840967076049 0.891 2.17350486244e-38
-0.00164525369294 -0.0839079383398 0.889 2.16435494399e-38
0.0 -0.0839079383398 0.889 2.21953009011e-38
0.00164525369294 -0.0839079383398 0.889 2.18261610505e-38
0.00329050738588 -0.0839079383398 0.889 2.28403171829e-38
0.00493576107881 -0.0839079383398 0.889 2.21038241373e-38
0.00658101477175 -0.0839079383398 0.889 2.34867838087e-38
0.00820776167399 -0.0837191690747 0.887 2.3208726957e-38
0.00984931400879 -0.0837191690747 0.887 2.31172529958e-38
0.0114908663436 -0.0837191690747 0.887 2.33009295933e-38
0.0131324186784 -0.0837191690747 0.887 2.33009225868e-38
0.0147739710132 -0.0837191690747 0.887 2.34889207888e-38
0.016415523348 -0.0837191690747 0.887 2.33966957317e-38
0.0180570756828 -0.0837191690747 0.887 2.34874648397e-38
0.0196986280176 -0.0837191690747 0.887 2.34856753816e-38
0.0213401803524 -0.0837191690747 0.887 2.34864040568e-38
0.0229817326872 -0.0837191690747 0.887 2.34867739996e-38
0.0246788053941 -0.0839079383398 0.889 2.34870991008e-38
0.026324059087 -0.0839079383398 0.889 2.34871215216e-38
0.0279693127799 -0.0839079383398 0.889 2.34871285281e-38
0.0296811909194 -0.0840967076049 0.891 2.34910829924e-38
0.0314356346774 -0.0843798615026 0.894 2.34892627056e-38
0.0330901417657 -0.0843798615026 0.894 2.34928710492e-38
0.0348223773749 -0.0845686307677 0.896 2.34950332527e-38
0.036684160519 -0.0850405539305 0.901 2.32130807913e-38
0.038436753598 -0.0852293231956 0.903 2.16503415335e-38
0.0401079167979 -0.0852293231956 0.903 1.7420466067e-38
0.0417790799978 -0.0852293231956 0.903 1.39295793587e-38
0.0435945961652 -0.0855124770932 0.906 6.4722500847e-39
0.0452713114023 -0.0855124770932 0.906 2.24069151861e-38
-0.025261769301 -0.08420589767 0.91 1.91546247647e-38
-0.0235258323337 -0.0840208297631 0.908 2.06326443199e-38
-0.0218454157384 -0.0840208297631 0.908 1.14213784218e-38
-0.0201649991431 -0.0840208297631 0.908 7.37912560926e-39
-0.0184845825479 -0.0840208297631 0.908 7.48100561281e-39
-0.0168041659526 -0.0840208297631 0.908 7.57355857378e-39
-0.0150904371341 -0.0838357618561 0.906 7.75830576332e-39
-0.0133693055993 -0.0835581599956 0.903 9.87482696383e-39
-0.0116722328924 -0.0833730920887 0.901 1.24480145183e-38
-0.00997145882739 -0.0830954902282 0.898 1.8337024564e-38
-0.00829104223213 -0.0829104223213 0.896 1.98993784647e-38
-0.0066328337857 -0.0829104223213 0.896 2.07255560133e-38
-0.00497462533928 -0.0829104223213 0.896 2.15524678423e-38
-0.00330901417657 -0.0827253544143 0.894 2.23815124475e-38
-0.00164895505108 -0.0824477525538 0.891 2.14602371799e-38
0.0 -0.0824477525538 0.891 2.19187084063e-38
0.00164525369294 -0.0822626846469 0.889 2.28406675075e-38
0.00329050738588 -0.0822626846469 0.889 2.31179508425e-38
0.00493576107881 -0.0822626846469 0.889 2.21956512257e-38
0.00658101477175 -0.0822626846469 0.889 2.34846047896e-38
0.00822626846469 -0.0822626846469 0.889 2.20101879727e-38
0.00987152215763 -0.0822626846469 0.889 2.34878389864e-38
0.0115167758506 -0.0822626846469 0.889 2.34871159164e-38
0.0131620295435 -0.0822626846469 0.889 2.34874634384e-38
0.0148072832364 -0.0822626846469 0.889 2.33942098282e-38
0.0164525369294 -0.0822626846469 0.889 2.33945475411e-38
0.0180977906223 -0.0822626846469 0.889 2.34892613043e-38
0.0197430443153 -0.0822626846469 0.889 2.3489625642e-38
0.0213882980082 -0.0822626846469 0.889 2.34878207695e-38
0.0230335517011 -0.0822626846469 0.889 2.3491071782e-38
0.0246788053941 -0.0822626846469 0.889 2.34892571005e-38
0.026324059087 -0.0822626846469 0.889 2.3489625642e-38
0.0279693127799 -0.0822626846469 0.889 2.34896228394e-38
0.0297811275891 -0.0827253544143 0.894 2.34907270625e-38
0.0314356346774 -0.0827253544143 0.894 2.34903389029e-38
0.0331641689285 -0.0829104223213 0.896 2.34907060431e-38
0.0348223773749 -0.0829104223213 0.896 2.1554983173e-38
0.036684160519 -0.0833730920887 0.901 1.83395707233e-38
0.0383516223608 -0.0833730920887 0.901 1.65067129696e-38
0.0402411656909 -0.0838357618561 0.906 1.27364353734e-38
0.041917880928 -0.0838357618561 0.906 1.09915609464e-38
0.0435945961652 -0.0838357618561 0.906 7.76368674942e-39
0.0452713114023 -0.0838357618561 0.906 2.31358706472e-38
-0.025261769301 -0.0825217797166 0.91 1.80435814551e-38
-0.0235776513476 -0.0825217797166 0.91 2.31114726397e-38
-0.0218935333942 -0.0825217797166 0.91 1.37193621682e-38
-0.0202094154408 -0.0825217797166 0.91 7.09752066987e-39
-0.0184845825479 -0.0823404131678 0.908 6.9267640442e-39
-0.0168041659526 -0.0823404131678 0.908 7.57427603859e-39
-0.0150904371341 -0.082159046619 0.906 7.0211106672e-39
-0.013413721897 -0.082159046619 0.906 7.48387547206e-39
-0.0116981423994 -0.0818869967957 0.903 7.11581602262e-39
-0.00997145882739 -0.0814335804237 0.898 9.13942552975e-39
-0.00830954902282 -0.0814335804237 0.898 1.30919391886e-38
-0.0066328337857 -0.0812522138748 0.896 1.66818808828e-38
-0.00497462533928 -0.0812522138748 0.896 1.87055212185e-38
-0.00331641689285 -0.0812522138748 0.896 1.97149844024e-38
-0.00165820844643 -0.0812522138748 0.896 2.22939607208e-38
0.0 -0.081070847326 0.894 2.15560355482e-38
0.00165450708829 -0.081070847326 0.894 2.22910894602e-38
0.00330901417657 -0.081070847326 0.894 2.25669504772e-38
0.00494686515323 -0.0807987975028 0.891 2.30283013719e-38
0.00659582020431 -0.0807987975028 0.891 2.31190368488e-38
0.00822626846469 -0.0806174309539 0.889 2.3117606123e-38
0.00987152215763 -0.0806174309539 0.889 2.29332162646e-38
0.0115167758506 -0.0806174309539 0.889 2.34863998529e-38
0.0131916404086 -0.0807987975028 0.891 2.34878151643e-38
0.0148405954597 -0.0807987975028 0.891 2.34892472914e-38
0.0164895505108 -0.0807987975028 0.891 2.34892346797e-38
0.0181385055618 -0.0807987975028 0.891 2.34874480241e-38
0.0197874606129 -0.0807987975028 0.891 2.34889179862e-38
0.021436415664 -0.0807987975028 0.891 2.3488550846e-38
0.0230853707151 -0.0807987975028 0.891 2.34903501133e-38
0.0248176063243 -0.081070847326 0.894 2.3487104706e-38
0.0264721134126 -0.081070847326 0.894 2.34899983873e-38
0.0281266205009 -0.081070847326 0.894 2.28460611053e-38
0.0297811275891 -0.081070847326 0.894 2.2663812431e-38
0.0315059604821 -0.0812522138748 0.896 1.92593928443e-38
0.0331641689285 -0.0812522138748 0.896 1.8434944498e-38
0.0349001058959 -0.0814335804237 0.898 1.7700933152e-38
0.036684160519 -0.0817056302469 0.901 1.45749389586e-38
0.0383516223608 -0.0817056302469 0.901 1.09901260168e-38
0.0401079167979 -0.0818869967957 0.903 1.01639652838e-38
0.041917880928 -0.082159046619 0.906 9.42605272284e-39
0.0436908314768 -0.0823404131678 0.908 7.58037448951e-39
0.0453712480721 -0.0823404131678 0.908 2.35097034463e-38
-0.025261769301 -0.0808376617632 0.91 2.35064916703e-38
-0.0235776513476 -0.0808376617632 0.91 2.35098183528e-38
-0.0218935333942 -0.0808376617632 0.91 1.46521729248e-38
-0.0202094154408 -0.0808376617632 0.91 8.65514098438e-39
-0.0184845825479 -0.0806599965725 0.908 6.83528728045e-39
-0.0168041659526 -0.0806599965725 0.908 6.83456981563e-39
-0.0150904371341 -0.0804823313819 0.906 7.29733462049e-39
-0.013413721897 -0.0804823313819 0.906 7.11545729021e-39
-0.0116981423994 -0.0802158335958 0.903 7.30056321215e-39
-0.0100047710506 -0.0800381684051 0.901 7.67041632363e-39
-0.00830954902282 -0.0797716706191 0.898 7.02290432924e-39
-0.00664763921826 -0.0797716706191 0.898 8.31398226155e-39
-0.00497462533928 -0.0795940054284 0.896 1.04283510676e-38
-0.00331641689285 -0.0795940054284 0.896 1.3188080875e-38
-0.00165820844643 -0.0795940054284 0.896 1.54864808071e-38
0.0 -0.0795940054284 0.896 1.76031141114e-38
0.00165450708829 -0.0794163402377 0.894 1.8890606121e-38
0.00330901417657 -0.0794163402377 0.894 2.04543248864e-38
0.00496352126486 -0.0794163402377 0.894 2.11922542629e-38
0.00659582020431 -0.0791498424517 0.891 2.16518381203e-38
0.00824477525538 -0.0791498424517 0.891 2.19255467428e-38
0.00989373030646 -0.0791498424517 0.891 2.22010588365e-38
0.0115426853575 -0.0791498424517 0.891 2.21084932638e-38
0.0131916404086 -0.0791498424517 0.891 2.22932516637e-38
0.0148405954597 -0.0791498424517 0.891 2.32155638922e-38
0.0164895505108 -0.0791498424517 0.891 2.25698189352e-38
0.0181385055618 -0.0791498424517 0.891 2.34924912973e-38
0.0197874606129 -0.0791498424517 0.891 2.17414679726e-38
0.021436415664 -0.0791498424517 0.891 2.12826954671e-38
0.0230853707151 -0.0791498424517 0.891 2.11915564163e-38
0.0248176063243 -0.0794163402377 0.894 2.05461870072e-38
0.0264721134126 -0.0794163402377 0.894 1.90774482517e-38
0.0281895435892 -0.0795940054284 0.896 1.62255102029e-38
0.0298477520357 -0.0795940054284 0.896 1.60439733881e-38
0.0315059604821 -0.0795940054284 0.896 1.44820272652e-38
0.0332381960913 -0.0797716706191 0.898 1.21861398613e-38
0.0350166986772 -0.0800381684051 0.901 1.05280786767e-38
0.036684160519 -0.0800381684051 0.901 9.2413055333e-39
0.038436753598 -0.0802158335958 0.903 9.70335287335e-39
0.0401079167979 -0.0802158335958 0.903 1.0257594442e-38
0.0417790799978 -0.0802158335958 0.903 1.07171306552e-38
0.0434502431977 -0.0802158335958 0.903 6.65771473905e-39
-0.0219657098779 -0.0794144895587 0.913 1.52035292198e-38
-0.0202094154408 -0.0791535438098 0.91 6.53789811515e-39
-0.0185252974874 -0.0791535438098 0.91 6.92748150901e-39
-0.016841179534 -0.0791535438098 0.91 7.20334672989e-39
-0.0150904371341 -0.0788056161447 0.906 6.74703910836e-39
-0.013413721897 -0.0788056161447 0.906 6.56300938363e-39
-0.0116981423994 -0.0785446703959 0.903 6.47296754951e-39
-0.0100047710506 -0.0783707065634 0.901 6.84102699896e-39
-0.00830954902282 -0.0781097608145 0.898 7.4856691341e-39
-0.00664763921826 -0.0781097608145 0.898 7.11725095224e-39
-0.00498572941369 -0.0781097608145 0.898 7.11868588187e-39
-0.00331641689285 -0.077935796982 0.896 7.76440421423e-39
-0.00165820844643 -0.077935796982 0.896 8.77674706641e-39
0.0 -0.077935796982 0.896 8.68275917581e-39
0.00165820844643 -0.077935796982 0.896 1.0615609384e-38
0.00331641689285 -0.077935796982 0.896 1.23608425434e-38
0.00496352126486 -0.0777618331494 0.894 1.34635887647e-38
0.00661802835314 -0.0777618331494 0.894 1.53975445974e-38
0.00824477525538 -0.0775008874006 0.891 1.53968257313e-38
0.00989373030646 -0.0775008874006 0.891 1.65013558056e-38
0.0115426853575 -0.0775008874006 0.891 1.71456686356e-38
0.0131916404086 -0.0775008874006 0.891 1.70531198785e-38
0.0148405954597 -0.0775008874006 0.891 1.640885189e-38
0.0164895505108 -0.0775008874006 0.891 1.67776091861e-38
0.0181385055618 -0.0775008874006 0.891 1.69627095029e-38
0.0197874606129 -0.0775008874006 0.891 1.61343907702e-38
0.021436415664 -0.0775008874006 0.891 1.44784427438e-38
0.023163099236 -0.0777618331494 0.894 1.4017828932e-38
0.0248176063243 -0.0777618331494 0.894 1.38366676653e-38
0.0265313351428 -0.077935796982 0.896 1.12624039136e-38
0.0281895435892 -0.077935796982 0.896 1.17258861833e-38
0.0298477520357 -0.077935796982 0.896 9.60972371516e-39
0.0315762862867 -0.0781097608145 0.898 8.13927957941e-39
0.0332381960913 -0.0781097608145 0.898 9.42820511728e-39
0.0350166986772 -0.0783707065634 0.901 9.79590583432e-39
0.0367655903981 -0.0785446703959 0.903 1.01625303541e-38
0.038436753598 -0.0785446703959 0.903 9.15018750196e-39
0.0401079167979 -0.0785446703959 0.903 1.02590293716e-38
0.0417790799978 -0.0785446703959 0.903 1.04401892371e-38
0.0434502431977 -0.0785446703959 0.903 8.96149425595e-39
-0.0219657098779 -0.077724819568 0.913 1.64010032173e-38
-0.0202094154408 -0.0774694258564 0.91 6.63224473816e-39
-0.0185252974874 -0.0774694258564 0.91 6.74237558707e-39
-0.016841179534 -0.0774694258564 0.91 7.20262926508e-39
-0.0151237493574 -0.077299163382 0.908 7.11581602262e-39
-0.013413721897 -0.0771289009076 0.906 6.74739784076e-39
-0.0116981423994 -0.076873507196 0.903 6.65663854183e-39
-0.0100269791995 -0.076873507196 0.903 7.20836898359e-39
-0.00833730920887 -0.0767032447216 0.901 6.93357995993e-39
-0.00664763921826 -0.07644785101 0.898 7.11796841706e-39
-0.00498572941369 -0.07644785101 0.898 7.11868588187e-39
-0.00332381960913 -0.07644785101 0.898 7.02792658293e-39
-0.00166190980456 -0.07644785101 0.898 7.39634476479e-39
0.0 -0.0762775885356 0.896 7.39957335645e-39
0.00165820844643 -0.0762775885356 0.896 6.93860221362e-39
0.00331641689285 -0.0762775885356 0.896 6.84748418228e-39
0.00497462533928 -0.0762775885356 0.896 7.12299067075e-39
0.0066328337857 -0.0762775885356 0.896 8.13461605812e-39
0.00827253544143 -0.0761073260612 0.894 9.60793005312e-39
0.00992704252972 -0.0761073260612 0.894 8.7760296016e-39
0.011581549618 -0.0761073260612 0.894 1.01582255653e-38
0.0132360567063 -0.0761073260612 0.894 9.23843567405e-39
0.0148905637946 -0.0761073260612 0.894 9.05548214655e-39
0.0165450708829 -0.0761073260612 0.894 9.2409468009e-39
0.0181995779711 -0.0761073260612 0.894 8.78105185529e-39
0.0198540850594 -0.0761073260612 0.894 9.33242356465e-39
0.0215085921477 -0.0761073260612 0.894 9.97814189701e-39
0.02321491825 -0.0762775885356 0.896 8.87324608386e-39
0.0248731266964 -0.0762775885356 0.896 8.50698029645e-39
0.0265313351428 -0.0762775885356 0.896 8.68993382395e-39
0.0281895435892 -0.0762775885356 0.896 9.15126369918e-39
0.0299143764822 -0.07644785101 0.898 8.5984570602e-39
0.0315762862867 -0.07644785101 0.898 8.78284551733e-39
0.0332381960913 -0.07644785101 0.898 9.24381666015e-39
0.0350166986772 -0.0767032447216 0.901 9.33565215631e-39
0.0367655903981 -0.076873507196 0.903 9.42784638488e-39
0.038436753598 -0.076873507196 0.903 9.97993555904e-39
0.0401079167979 -0.076873507196 0.903 1.02568769771e-38
0.0417790799978 -0.076873507196 0.903 1.01625303541e-38
0.0434502431977 -0.076873507196 0.903 8.776388334e-39
-0.0219657098779 -0.0760351495774 0.913 1.53854219644e-38
-0.0202760398873 -0.0760351495774 0.913 7.26971222516e-39
-0.0185863698967 -0.0760351495774 0.913 8.03309478698e-39
-0.0168966999061 -0.0760351495774 0.913 7.20406419471e-39
-0.0151237493574 -0.0756187467868 0.908 7.02254559683e-39
-0.013413721897 -0.0754521856705 0.906 6.83959206933e-39
-0.0116981423994 -0.0752023439961 0.903 7.02505672368e-39
-0.0100269791995 -0.0752023439961 0.903 7.11545729021e-39
-0.00835581599956 -0.0752023439961 0.903 8.22358169502e-39
-0.00666984736709 -0.0750357828798 0.901 7.11904461428e-39
-0.00500238552532 -0.0750357828798 0.901 7.30271560659e-39
-0.00332381960913 -0.0747859412054 0.898 8.8700174922e-39
-0.00166190980456 -0.0747859412054 0.898 7.48853899335e-39
0.0 -0.0747859412054 0.898 7.94951013618e-39
0.00166190980456 -0.0747859412054 0.898 7.21554363173e-39
0.00332381960913 -0.0747859412054 0.898 7.95202126302e-39
0.00497462533928 -0.0746193800891 0.896 8.22645155428e-39
0.0066328337857 -0.0746193800891 0.896 7.67579730974e-39
0.00829104223213 -0.0746193800891 0.896 8.410481279e-39
0.00994925067855 -0.0746193800891 0.896 8.59486973613e-39
0.011607459125 -0.0746193800891 0.896 7.95166253062e-39
0.0132360567063 -0.0744528189729 0.894 8.78248678492e-39
0.0148905637946 -0.0744528189729 0.894 7.86018576687e-39
0.0165450708829 -0.0744528189729 0.894 8.59773959539e-39
0.0181995779711 -0.0744528189729 0.894 8.69029255636e-39
0.0198985013571 -0.0746193800891 0.896 8.22968014594e-39
0.0215567098035 -0.0746193800891 0.896 8.138920847e-39
0.02321491825 -0.0746193800891 0.896 8.78356298214e-39
0.0248731266964 -0.0746193800891 0.896 8.96723397446e-39
0.0265313351428 -0.0746193800891 0.896 8.5984570602e-39
0.0281895435892 -0.0746193800891 0.896 9.15126369918e-39
0.0299143764822 -0.0747859412054 0.898 8.68993382395e-39
0.0315762862867 -0.0747859412054 0.898 9.42820511728e-39
0.0333492368355 -0.0750357828798 0.901 9.15090496677e-39
0.0350166986772 -0.0750357828798 0.901 9.52075807825e-39
0.0367655903981 -0.0752023439961 0.903 1.03472775437e-38
0.0385644504538 -0.0754521856705 0.906 9.33385849428e-39
0.0402411656909 -0.0754521856705 0.906 9.98101175626e-39
0.041917880928 -0.0754521856705 0.906 1.01639652838e-38
0.0435945961652 -0.0754521856705 0.906 7.4856691341e-39
-0.0220138275337 -0.074508339345 0.915 1.7507713712e-38
-0.020320456185 -0.074508339345 0.915 7.17644179938e-39
-0.0186270848362 -0.074508339345 0.915 7.29518222605e-39
-0.0169337134875 -0.074508339345 0.915 7.11258743096e-39
-0.0151237493574 -0.0739383301915 0.908 7.20621658915e-39
-0.0134433327621 -0.0739383301915 0.908 6.74811530558e-39
-0.0117370066599 -0.0737754704334 0.906 7.02505672368e-39
-0.0100602914227 -0.0737754704334 0.906 7.20836898359e-39
-0.00835581599956 -0.0735311807962 0.903 6.84246192858e-39
-0.00668465279965 -0.0735311807962 0.903 7.02756785053e-39
-0.00500238552532 -0.073368321038 0.901 7.76404548183e-39
-0.00333492368355 -0.073368321038 0.901 7.21159757525e-39
-0.00166190980456 -0.0731240314008 0.898 7.95166253062e-39
0.0 -0.0731240314008 0.898 6.93788474881e-39
0.00166190980456 -0.0731240314008 0.898 7.49033265539e-39
0.00332381960913 -0.0731240314008 0.898 7.2141087021e-39
0.00497462533928 -0.0729611716427 0.896 8.04421549159e-39
0.0066328337857 -0.0729611716427 0.896 8.04385675918e-39
0.00829104223213 -0.0729611716427 0.896 8.41012254659e-39
0.00994925067855 -0.0729611716427 0.896 7.95130379821e-39
0.011607459125 -0.0729611716427 0.896 7.85946830205e-39
0.0132656675714 -0.0729611716427 0.896 8.87432228108e-39
0.0149238760178 -0.0729611716427 0.896 7.86126196409e-39
0.0165820844643 -0.0729611716427 0.896 7.67759097177e-39
0.0182402929107 -0.0729611716427 0.896 7.77086139756e-39
0.0198985013571 -0.0729611716427 0.896 8.32223310691e-39
0.0215567098035 -0.0729611716427 0.896 8.32223310691e-39
0.02321491825 -0.0729611716427 0.896 8.87396354867e-39
0.0248731266964 -0.0729611716427 0.896 9.70371160576e-39
0.026590556873 -0.0731240314008 0.898 9.15090496677e-39
0.0282524666776 -0.0731240314008 0.898 9.79590583432e-39
0.0299143764822 -0.0731240314008 0.898 9.15018750196e-39
0.0315762862867 -0.0731240314008 0.898 9.3352934239e-39
0.0333492368355 -0.073368321038 0.901 9.42820511728e-39
0.0350944271982 -0.0735311807962 0.903 9.79662329914e-39
0.0368877352167 -0.0737754704334 0.906 1.03465600789e-38
0.0385644504538 -0.0737754704334 0.906 1.02543658503e-38
0.0403299982863 -0.0739383301915 0.908 1.07174893876e-38
0.0420104148815 -0.0739383301915 0.908 9.70263540854e-39
0.0436908314768 -0.0739383301915 0.908 8.31577592359e-39
-0.0220138275337 -0.0728149679962 0.915 1.79683219185e-38
-0.020320456185 -0.0728149679962 0.915 7.08639996525e-39
-0.0186270848362 -0.0728149679962 0.915 6.83456981563e-39
-0.0169337134875 -0.0728149679962 0.915 7.20478165952e-39
-0.0151237493574 -0.0722579135962 0.908 7.48353355524e-39
-0.0134433327621 -0.0722579135962 0.908 7.66647026716e-39
-0.0117370066599 -0.0720987551962 0.906 7.20729278637e-39
-0.0100602914227 -0.0720987551962 0.906 7.02577418849e-39
-0.00838357618561 -0.0720987551962 0.906 6.93465615715e-39
-0.00668465279965 -0.0718600175963 0.903 7.21123884284e-39
-0.00501348959974 -0.0718600175963 0.903 7.57929829229e-39
-0.00333492368355 -0.0717008591963 0.901 7.39598603238e-39
-0.00166190980456 -0.0714621215963 0.898 7.39634476479e-39
0.0 -0.0714621215963 0.898 7.94915140377e-39
0.00166190980456 -0.0714621215963 0.898 8.13425732571e-39
0.00332381960913 -0.0714621215963 0.898 7.49212631742e-39
0.00498572941369 -0.0714621215963 0.898 7.39957335645e-39
0.00664763921826 -0.0714621215963 0.898 7.58324434876e-39
0.00830954902282 -0.0714621215963 0.898 8.04385675918e-39
0.00997145882739 -0.0714621215963 0.898 7.58432054599e-39
0.011633368632 -0.0714621215963 0.898 8.044574224e-39
0.0132656675714 -0.0713029631963 0.896 8.22788648391e-39
0.0149238760178 -0.0713029631963 0.896 8.22932141353e-39
0.0165820844643 -0.0713029631963 0.896 9.06086313265e-39
0.0182402929107 -0.0713029631963 0.896 7.58611420802e-39
0.0198985013571 -0.0713029631963 0.896 8.138920847e-39
0.0216048274593 -0.0714621215963 0.898 7.76978520034e-39
0.0232667372639 -0.0714621215963 0.898 8.59809832779e-39
0.0249286470685 -0.0714621215963 0.898 8.22932141353e-39
0.026590556873 -0.0714621215963 0.898 8.69029255636e-39
0.0282524666776 -0.0714621215963 0.898 8.87503974589e-39
0.0300143131519 -0.0717008591963 0.901 8.96615777724e-39
0.0316817749937 -0.0717008591963 0.901 8.87503974589e-39
0.0334232639983 -0.0718600175963 0.903 9.61079991238e-39
0.0352110199796 -0.0720987551962 0.906 9.33565215631e-39
0.0368877352167 -0.0720987551962 0.906 9.79554710191e-39
0.0385644504538 -0.0720987551962 0.906 1.09926371436e-38
0.0403299982863 -0.0722579135962 0.908 1.03472775437e-38
0.0420104148815 -0.0722579135962 0.908 1.09015191123e-38
0.0436908314768 -0.0722579135962 0.908 8.86965875979e-39
-0.0220860040175 -0.0713547822102 0.918 1.7970512148e-38
-0.0203870806315 -0.0713547822102 0.918 7.73032463558e-39
-0.0186881572455 -0.0713547822102 0.918 7.93838943156e-39
-0.0169337134875 -0.0711215966475 0.915 7.48028814799e-39
-0.0151570615806 -0.0707329540428 0.91 7.29876955012e-39
-0.0134433327621 -0.070577497001 0.908 7.48315800725e-39
-0.0117370066599 -0.0704220399591 0.906 7.11617475502e-39
-0.0100602914227 -0.0704220399591 0.906 6.65807347145e-39
-0.00838357618561 -0.0704220399591 0.906 6.84210319618e-39
-0.00670686094849 -0.0704220399591 0.906 6.93465615715e-39
-0.00501348959974 -0.0701888543963 0.903 7.21123884284e-39
-0.00333492368355 -0.0700333973545 0.901 7.94735774173e-39
-0.00166746184177 -0.0700333973545 0.901 7.67185125326e-39
0.0 -0.0700333973545 0.901 7.94951013618e-39
0.00166746184177 -0.0700333973545 0.901 7.39885589164e-39
0.00333492368355 -0.0700333973545 0.901 7.86090323168e-39
0.00498572941369 -0.0698002117917 0.898 7.67543857733e-39
0.00664763921826 -0.0698002117917 0.898 8.31756958562e-39
0.00830954902282 -0.0698002117917 0.898 7.95166253062e-39
0.00997145882739 -0.0698002117917 0.898 7.95166253062e-39
0.011633368632 -0.0698002117917 0.898 7.86126196409e-39
0.0132952784365 -0.0698002117917 0.898 8.04242182955e-39
0.0149571882411 -0.0698002117917 0.898 8.22932141353e-39
0.0166190980456 -0.0698002117917 0.898 7.49499617668e-39
0.0182810078502 -0.0698002117917 0.898 8.50698029645e-39
0.0199429176548 -0.0698002117917 0.898 8.138920847e-39
0.0216048274593 -0.0698002117917 0.898 9.33565215631e-39
0.0232667372639 -0.0698002117917 0.898 9.97921809423e-39
0.0249286470685 -0.0698002117917 0.898 8.87288735145e-39
0.0266793894684 -0.0700333973545 0.901 9.51896441622e-39
0.0283468513102 -0.0700333973545 0.901 8.78284551733e-39
0.0300809375984 -0.0701888543963 0.903 9.42748765247e-39
0.0317521007983 -0.0701888543963 0.903 9.33565215631e-39
0.0335343047424 -0.0704220399591 0.906 9.79447090469e-39
0.0352110199796 -0.0704220399591 0.906 1.08997254503e-38
0.0369691650957 -0.070577497001 0.908 1.00717710552e-38
0.038649581691 -0.070577497001 0.908 1.07171306552e-38
0.0404188308816 -0.0707329540428 0.91 1.07153369931e-38
0.042102948835 -0.0707329540428 0.91 1.11763081359e-38
0.0437870667884 -0.0707329540428 0.91 8.50088184553e-39
-0.0220860040175 -0.0696558588243 0.918 1.8703373028e-38
-0.0203870806315 -0.0696558588243 0.918 7.08532376803e-39
-0.0186881572455 -0.0696558588243 0.918 8.39936057439e-39
-0.0169892338596 -0.0696558588243 0.918 7.4806468804e-39
-0.0151570615806 -0.0690488360894 0.91 7.75902322813e-39
-0.0134433327621 -0.0688970804057 0.908 7.48423420447e-39
-0.0117629161668 -0.0688970804057 0.908 6.93286249511e-39
-0.0100824995716 -0.0688970804057 0.908 7.30092194456e-39
-0.00838357618561 -0.068745324722 0.906 6.93322122752e-39
-0.00670686094849 -0.068745324722 0.906 7.48674533132e-39
-0.00501348959974 -0.0685176911964 0.903 7.57929829229e-39
-0.00334232639983 -0.0685176911964 0.903 6.93501488956e-39
-0.00167116319991 -0.0685176911964 0.903 7.03043770978e-39
0.0 -0.0683659355127 0.901 7.03079644219e-39
0.00166746184177 -0.0683659355127 0.901 6.84748418228e-39
0.00334232639983 -0.0685176911964 0.903 7.12334940316e-39
0.00500238552532 -0.0683659355127 0.901 8.13640972015e-39
0.00666984736709 -0.0683659355127 0.901 8.04385675918e-39
0.00833730920887 -0.0683659355127 0.901 8.044574224e-39
0.0100047710506 -0.0683659355127 0.901 8.22788648391e-39
0.0116722328924 -0.0683659355127 0.901 8.41263367344e-39
0.0132952784365 -0.0681383019871 0.898 8.3215156421e-39
0.0149571882411 -0.0681383019871 0.898 8.3215156421e-39
0.0166190980456 -0.0681383019871 0.898 8.32259183932e-39
0.0182810078502 -0.0681383019871 0.898 8.78284551733e-39
0.0199429176548 -0.0681383019871 0.898 7.8619794289e-39
0.0216770039431 -0.0683659355127 0.901 8.04672661844e-39
0.0233444657848 -0.0683659355127 0.901 8.32223310691e-39
0.0250119276266 -0.0683659355127 0.901 8.87396354867e-39
0.0266793894684 -0.0683659355127 0.901 8.59809832779e-39
0.0283468513102 -0.0683659355127 0.901 9.61115864478e-39
0.0300809375984 -0.0685176911964 0.903 1.00714123228e-38
0.0318575895053 -0.068745324722 0.906 9.61115864478e-39
0.0335343047424 -0.068745324722 0.906 9.79411217229e-39
0.0352887485005 -0.0688970804057 0.908 9.7948296371e-39
0.0369691650957 -0.0688970804057 0.908 1.03490712057e-38
0.0387347129282 -0.0690488360894 0.91 1.01639652838e-38
0.0404188308816 -0.0690488360894 0.91 1.07146195283e-38
0.042102948835 -0.0690488360894 0.91 1.09908434816e-38
0.0437870667884 -0.0690488360894 0.91 8.86894129498e-39
-0.0238367464174 -0.0681049897639 0.92 2.3507251174e-38
-0.0221341216733 -0.0681049897639 0.92 2.00881347691e-38
-0.0204314969292 -0.0681049897639 0.92 6.90775122663e-39
-0.0187288721851 -0.0681049897639 0.92 7.20334672989e-39
-0.0169892338596 -0.0679569354383 0.918 7.20549912433e-39
-0.0152070299155 -0.0675867996244 0.913 7.57391730619e-39
-0.0134729436272 -0.067364718136 0.91 7.20765151877e-39
-0.0117629161668 -0.0672166638105 0.908 7.48387547206e-39
-0.0100824995716 -0.0672166638105 0.908 7.48423420447e-39
-0.00840208297631 -0.0672166638105 0.908 7.20836898359e-39
-0.00670686094849 -0.0670686094849 0.906 7.21052137803e-39
-0.00503014571137 -0.0670686094849 0.906 7.48674533132e-39
-0.00334232639983 -0.0668465279965 0.903 7.6736449153e-39
-0.00167116319991 -0.0668465279965 0.903 7.21518489932e-39
0.0 -0.0668465279965 0.903 7.12263193835e-39
0.00167116319991 -0.0668465279965 0.903 7.49284378223e-39
0.00334232639983 -0.0668465279965 0.903 8.044574224e-39
0.00500238552532 -0.0666984736709 0.901 7.49212631742e-39
0.00666984736709 -0.0666984736709 0.901 7.67651477455e-39
0.00833730920887 -0.0666984736709 0.901 7.3084553251e-39
0.0100047710506 -0.0666984736709 0.901 7.86126196409e-39
0.0116981423994 -0.0668465279965 0.903 7.67651477455e-39
0.0133396947342 -0.0666984736709 0.901 7.95345619265e-39
0.015007156576 -0.0666984736709 0.901 7.8619794289e-39
0.0166190980456 -0.0664763921826 0.898 7.8619794289e-39
0.0182810078502 -0.0664763921826 0.898 8.32223310691e-39
0.0200095421013 -0.0666984736709 0.901 8.13927957941e-39
0.0216770039431 -0.0666984736709 0.901 8.78499791177e-39
0.0233444657848 -0.0666984736709 0.901 8.78284551733e-39
0.0250119276266 -0.0666984736709 0.901 8.87288735145e-39
0.0267386111986 -0.0668465279965 0.903 8.96615777724e-39
0.0284097743985 -0.0668465279965 0.903 9.97957682664e-39
0.0301808742682 -0.0670686094849 0.906 8.96651650964e-39
0.0318575895053 -0.0670686094849 0.906 8.4155035327e-39
0.0336083319052 -0.0672166638105 0.908 9.79554710191e-39
0.0352887485005 -0.0672166638105 0.908 1.12692198293e-38
0.0370505949748 -0.067364718136 0.91 9.97957682664e-39
0.038862409784 -0.0675867996244 0.913 1.08082486865e-38
0.0405520797746 -0.0675867996244 0.913 1.07146195283e-38
0.0422417497652 -0.0675867996244 0.913 1.09890498196e-38
0.0439314197559 -0.0675867996244 0.913 9.14480651586e-39
-0.0239144749383 -0.0666188944709 0.923 2.35080274934e-38
-0.022206298157 -0.0666188944709 0.923 1.98115156497e-38
-0.0204981213757 -0.0666188944709 0.923 6.99815179316e-39
-0.0187288721851 -0.0664023650198 0.92 8.58410776392e-39
-0.017026247441 -0.0664023650198 0.92 7.38809391943e-39
-0.0152070299155 -0.0658971296338 0.913 7.48136434521e-39
-0.0134729436272 -0.0656806001826 0.91 7.39096377868e-39
-0.0117888256738 -0.0656806001826 0.91 7.20801025118e-39
-0.0100824995716 -0.0655362472152 0.908 7.85408731595e-39
-0.00840208297631 -0.0655362472152 0.908 6.47440247914e-39
-0.00670686094849 -0.0653918942478 0.906 7.48818026094e-39
-0.00503014571137 -0.0653918942478 0.906 7.67077505604e-39
-0.00335343047424 -0.0653918942478 0.906 7.94843393896e-39
-0.00167116319991 -0.0651753647966 0.903 7.30666166307e-39
0.0 -0.0651753647966 0.903 7.2141087021e-39
0.00167116319991 -0.0651753647966 0.903 7.3084553251e-39
0.00334232639983 -0.0651753647966 0.903 7.49212631742e-39
0.00501348959974 -0.0651753647966 0.903 7.86126196409e-39
0.00668465279965 -0.0651753647966 0.903 7.67651477455e-39
0.00833730920887 -0.0650310118292 0.901 7.95417365747e-39
0.0100047710506 -0.0650310118292 0.901 8.32223310691e-39
0.0116981423994 -0.0651753647966 0.903 7.86018576687e-39
0.0133396947342 -0.0650310118292 0.901 8.138920847e-39
0.015007156576 -0.0650310118292 0.901 8.13784464978e-39
0.0166746184177 -0.0650310118292 0.901 8.04636788603e-39
0.0183420802595 -0.0650310118292 0.901 8.32330930413e-39
0.0200095421013 -0.0650310118292 0.901 8.50698029645e-39
0.0217251215989 -0.0651753647966 0.903 8.32259183932e-39
0.0233962847988 -0.0651753647966 0.903 8.41478606788e-39
0.0250674479987 -0.0651753647966 0.903 8.69029255636e-39
0.026827443794 -0.0653918942478 0.906 8.96795143927e-39
0.0285041590311 -0.0653918942478 0.906 9.42784638488e-39
0.0301808742682 -0.0653918942478 0.906 8.78356298214e-39
0.0318575895053 -0.0653918942478 0.906 9.33816328316e-39
0.0336083319052 -0.0655362472152 0.908 9.97921809423e-39
0.0353664770214 -0.0656806001826 0.91 1.06238602294e-38
0.0371727397934 -0.0658971296338 0.913 1.07153369931e-38
0.038862409784 -0.0658971296338 0.913 1.1453249554e-38
0.04064091237 -0.0660414826012 0.915 1.16344094195e-38
0.0423342837187 -0.0660414826012 0.915 1.21872160585e-38
0.0440276550675 -0.0660414826012 0.915 1.09858212279e-38
-0.0256226517196 -0.0649107176896 0.923 2.34997262013e-38
-0.0239144749383 -0.0649107176896 0.923 2.35033387487e-38
-0.022206298157 -0.0649107176896 0.923 1.99951810368e-38
-0.0204981213757 -0.0649107176896 0.923 6.34741120711e-39
-0.0187288721851 -0.0646997402757 0.92 8.39864310957e-39
-0.017026247441 -0.0646997402757 0.92 7.94161802323e-39
-0.0152403421387 -0.0643481112525 0.915 7.39096377868e-39
-0.0135173599249 -0.0642074596432 0.913 7.20765151877e-39
-0.0117888256738 -0.0639964822292 0.91 7.39205398889e-39
-0.0100824995716 -0.0638558306199 0.908 7.02577418849e-39
-0.00840208297631 -0.0638558306199 0.908 7.11868588187e-39
-0.00672166638105 -0.0638558306199 0.908 7.1201208115e-39
-0.00503014571137 -0.0637151790106 0.906 7.57929829229e-39
-0.00335343047424 -0.0637151790106 0.906 7.30379180382e-39
-0.00167671523712 -0.0637151790106 0.906 7.76548041145e-39
0.0 -0.0635042015967 0.903 7.39885589164e-39
0.00167116319991 -0.0635042015967 0.903 7.39885589164e-39
0.00335343047424 -0.0637151790106 0.906 9.15090496677e-39
0.00501348959974 -0.0635042015967 0.903 7.58396181358e-39
0.00668465279965 -0.0635042015967 0.903 7.67723223936e-39
0.00835581599956 -0.0635042015967 0.903 7.21554363173e-39
0.0100269791995 -0.0635042015967 0.903 8.13748591737e-39
0.0117370066599 -0.0637151790106 0.906 8.22932141353e-39
0.0133693055993 -0.0635042015967 0.903 8.04672661844e-39
0.0150404687992 -0.0635042015967 0.903 7.95381492506e-39
0.0167116319991 -0.0635042015967 0.903 8.59773959539e-39
0.018382795199 -0.0635042015967 0.903 8.41478606788e-39
0.020053958399 -0.0635042015967 0.903 8.69029255636e-39
0.0217972980826 -0.0637151790106 0.906 7.95453238987e-39
0.0234740133197 -0.0637151790106 0.906 9.24453412497e-39
0.0251507285568 -0.0637151790106 0.906 8.87396354867e-39
0.026827443794 -0.0637151790106 0.906 8.96723397446e-39
0.0285670821194 -0.0638558306199 0.908 9.61115864478e-39
0.0302474987147 -0.0638558306199 0.908 8.4158622651e-39
0.03192791531 -0.0638558306199 0.908 9.15269862881e-39
0.033682359068 -0.0639964822292 0.91 1.03490712057e-38
0.0353664770214 -0.0639964822292 0.91 9.88738259807e-39
0.0371727397934 -0.0642074596432 0.913 9.3352934239e-39
0.0389475410212 -0.0643481112525 0.915 1.05320247332e-38
0.04064091237 -0.0643481112525 0.915 1.10833964426e-38
0.0423342837187 -0.0643481112525 0.915 1.10823202453e-38
0.0440276550675 -0.0643481112525 0.915 9.4188780747e-39
-0.0256226517196 -0.0632025409083 0.923 2.35001115584e-38
-0.0239144749383 -0.0632025409083 0.923 2.35080120791e-38
-0.022206298157 -0.0632025409083 0.923 2.18409167234e-38
-0.0204981213757 -0.0632025409083 0.923 5.15283229224e-39
-0.0187288721851 -0.0629971155316 0.92 8.12277788869e-39
-0.0169892338596 -0.0628601652804 0.918 8.03309478698e-39
-0.0152403421387 -0.0626547399037 0.915 7.20765151877e-39
-0.0135173599249 -0.0625177896526 0.913 7.66969885882e-39
-0.0118276899343 -0.0625177896526 0.913 6.93286249511e-39
-0.0101047077204 -0.0623123642758 0.91 6.75026770002e-39
-0.00840208297631 -0.0621754140247 0.908 7.30343307141e-39
-0.00672166638105 -0.0621754140247 0.908 7.39598603238e-39
-0.00503014571137 -0.0620384637735 0.906 7.57929829229e-39
-0.00335343047424 -0.0620384637735 0.906 7.39598603238e-39
-0.00167671523712 -0.0620384637735 0.906 7.94735774173e-39
0.0 -0.0620384637735 0.906 7.58073322192e-39
0.00167671523712 -0.0620384637735 0.906 7.39885589164e-39
0.00335343047424 -0.0620384637735 0.906 7.76691534108e-39
0.00503014571137 -0.0620384637735 0.906 8.31972198006e-39
