# .PCD v0.7 - Point Cloud Data file format
VERSION 0.7
FIELDS x y z rgb
SIZE 4 4 4 4
TYPE F F F F
COUNT 1 1 1 1
WIDTH 847
HEIGHT 1
VIEWPOINT 0 0 0 1 0 0 0
POINTS 847
DATA ascii
0.0346280560726 -0.115426853575 0.891 2.3503288302e-38
0.0363991559423 -0.11581549618 0.894 2.34997290039e-38
0.0380536630306 -0.11581549618 0.894 2.35054967484e-38
0.0397081701189 -0.11581549618 0.894 2.35072792e-38
0.0414552111606 -0.11607459125 0.896 2.35068854351e-38
0.0431134196071 -0.11607459125 0.896 2.3504410742e-38
0.0447716280535 -0.11607459125 0.896 2.35025750411e-38
0.0465334745278 -0.11633368632 0.898 2.34997205961e-38
0.0481953843324 -0.11633368632 0.898 2.34979339405e-38
0.0500238552532 -0.116722328924 0.901 2.34982744561e-38
0.051691317095 -0.116722328924 0.901 2.34954003929e-38
0.0534772223972 -0.116981423994 0.903 2.34953933864e-38
0.055331602825 -0.117370066599 0.906 1.795358166e-38
-0.0117370066599 -0.115693351361 0.906 1.64827619762e-38
-0.0100602914227 -0.115693351361 0.906 1.72199766905e-38
-0.00835581599956 -0.115310260794 0.903 1.878872892e-38
-0.00666984736709 -0.115054867082 0.901 1.84195918721e-38
-0.00498572941369 -0.114671776515 0.898 2.03524799153e-38
-0.00331641689285 -0.114416382803 0.896 1.92457638155e-38
-0.00165820844643 -0.114416382803 0.896 2.09960570636e-38
0.0 -0.114416382803 0.896 2.05375746269e-38
0.00165820844643 -0.114416382803 0.896 2.08155908409e-38
0.00330901417657 -0.114160989092 0.894 2.22878496582e-38
0.00496352126486 -0.114160989092 0.894 2.21945750285e-38
0.00659582020431 -0.113777898524 0.891 2.293286594e-38
0.00824477525538 -0.113777898524 0.891 2.34871103112e-38
0.00987152215763 -0.113522504813 0.889 2.2194539996e-38
0.0115167758506 -0.113522504813 0.889 2.34889151836e-38
0.0131620295435 -0.113522504813 0.889 2.34885424382e-38
0.0148072832364 -0.113522504813 0.889 2.34907046418e-38
0.0164525369294 -0.113522504813 0.889 2.34924926986e-38
0.0180977906223 -0.113522504813 0.889 2.34903501133e-38
0.0196986280176 -0.113267111101 0.887 2.34896410562e-38
0.0213401803524 -0.113267111101 0.887 2.34943185905e-38
0.0229817326872 -0.113267111101 0.887 2.3496081424e-38
0.024623285022 -0.113267111101 0.887 2.34960828253e-38
0.0262648373568 -0.113267111101 0.887 2.34957451123e-38
0.0279693127799 -0.113522504813 0.889 2.34932325842e-38
0.0296145664729 -0.113522504813 0.889 2.34986191755e-38
0.0312598201658 -0.113522504813 0.889 2.34979101185e-38
0.0329050738588 -0.113522504813 0.889 2.35000456973e-38
0.0346280560726 -0.113777898524 0.891 2.34979115198e-38
0.0363991559423 -0.114160989092 0.894 2.35015002451e-38
0.0380536630306 -0.114160989092 0.894 2.35015128568e-38
0.0397081701189 -0.114160989092 0.894 2.34964723862e-38
0.0414552111606 -0.114416382803 0.896 2.3504400933e-38
0.0431134196071 -0.114416382803 0.896 2.35000597103e-38
0.0447716280535 -0.114416382803 0.896 2.3501142914e-38
0.0465334745278 -0.114671776515 0.898 2.35047400472e-38
0.0481953843324 -0.114671776515 0.898 2.34975569913e-38
0.0500238552532 -0.115054867082 0.901 2.349683252e-38
0.051691317095 -0.115054867082 0.901 2.34971912524e-38
0.0534772223972 -0.115310260794 0.903 2.34939654633e-38
0.055331602825 -0.115693351361 0.906 1.82298322379e-38
-0.0151237493574 -0.114268328478 0.908 1.99858231656e-38
-0.0134433327621 -0.114268328478 0.908 1.61158165591e-38
-0.0117370066599 -0.114016636124 0.906 1.73117841607e-38
-0.0100269791995 -0.113639097594 0.903 1.74976425799e-38
-0.00835581599956 -0.113639097594 0.903 1.71281467996e-38
-0.00666984736709 -0.113387405241 0.901 1.90638920904e-38
-0.00498572941369 -0.11300986671 0.898 1.93390468529e-38
-0.00331641689285 -0.112758174357 0.896 1.98922178295e-38
-0.00165820844643 -0.112758174357 0.896 2.04457293216e-38
0.0 -0.112758174357 0.896 2.12758459202e-38
0.00165820844643 -0.112758174357 0.896 2.08159243499e-38
0.00330901417657 -0.112506482003 0.894 2.20119788321e-38
0.00496352126486 -0.112506482003 0.894 2.22864203337e-38
0.00659582020431 -0.112128943473 0.891 2.25633743635e-38
0.00824477525538 -0.112128943473 0.891 2.21956540283e-38
0.00987152215763 -0.11187725112 0.889 2.34853180505e-38
0.0115167758506 -0.11187725112 0.889 2.34846244077e-38
0.0131620295435 -0.11187725112 0.889 2.34853096427e-38
0.0148072832364 -0.11187725112 0.889 2.34860299101e-38
0.0164525369294 -0.11187725112 0.889 2.34896410562e-38
0.0180570756828 -0.111625558766 0.887 2.34910731833e-38
0.0196986280176 -0.111625558766 0.887 2.3493588514e-38
0.0213401803524 -0.111625558766 0.887 2.34889109797e-38
0.0229817326872 -0.111625558766 0.887 2.34889151836e-38
0.024623285022 -0.111625558766 0.887 2.34921760052e-38
0.0262648373568 -0.111625558766 0.887 2.34964765901e-38
0.0279693127799 -0.11187725112 0.889 2.34964681824e-38
0.0296145664729 -0.11187725112 0.889 2.34986135703e-38
0.0312598201658 -0.11187725112 0.889 2.34961066473e-38
0.0329050738588 -0.11187725112 0.889 2.34953919851e-38
0.0346280560726 -0.112128943473 0.891 2.34972220809e-38
0.0363991559423 -0.112506482003 0.894 2.34982534366e-38
0.0380536630306 -0.112506482003 0.894 2.3496804494e-38
0.0397081701189 -0.112506482003 0.894 2.34989807105e-38
0.0414552111606 -0.112758174357 0.896 2.34975499848e-38
0.0431134196071 -0.112758174357 0.896 2.34986472015e-38
0.0448715647232 -0.11300986671 0.898 2.34964709849e-38
0.0465334745278 -0.11300986671 0.898 2.34968339213e-38
0.0481953843324 -0.11300986671 0.898 2.34961248642e-38
0.0500238552532 -0.113387405241 0.901 2.34950458644e-38
0.051691317095 -0.113387405241 0.901 2.34896592731e-38
0.0534772223972 -0.113639097594 0.903 2.3492156387e-38
0.055331602825 -0.114016636124 0.906 1.9245033739e-38
-0.0151237493574 -0.112587911883 0.908 2.03553287551e-38
-0.013413721897 -0.112339920887 0.906 1.66696923888e-38
-0.0117370066599 -0.112339920887 0.906 1.78649929724e-38
-0.0100269791995 -0.111967934394 0.903 1.72203326203e-38
-0.00833730920887 -0.111719943399 0.901 1.86951081696e-38
-0.00664763921826 -0.111347956906 0.898 1.87847786597e-38
-0.00498572941369 -0.111347956906 0.898 1.97085398307e-38
-0.00331641689285 -0.11109996591 0.896 1.98936247332e-38
-0.00165820844643 -0.11109996591 0.896 1.98936275358e-38
0.0 -0.11109996591 0.896 2.01694983619e-38
0.00165820844643 -0.11109996591 0.896 2.06286562245e-38
0.00330901417657 -0.110851974915 0.894 2.12733417999e-38
0.00494686515323 -0.110479988422 0.891 2.19176378143e-38
0.00659582020431 -0.110479988422 0.891 2.21034710101e-38
0.00822626846469 -0.110231997427 0.889 2.29339379333e-38
0.00987152215763 -0.110231997427 0.889 2.21953009011e-38
0.0115167758506 -0.110231997427 0.889 2.31165467414e-38
0.0131324186784 -0.109984006431 0.887 2.34874788527e-38
0.0147739710132 -0.109984006431 0.887 2.34896158329e-38
0.016415523348 -0.109984006431 0.887 2.34892571005e-38
0.0180570756828 -0.109984006431 0.887 2.34892907316e-38
0.0196986280176 -0.109984006431 0.887 2.34896298458e-38
0.0213401803524 -0.109984006431 0.887 2.34907186548e-38
0.0229817326872 -0.109984006431 0.887 2.34950360553e-38
0.024623285022 -0.109984006431 0.887 2.34932241764e-38
0.0262648373568 -0.109984006431 0.887 2.34928738518e-38
0.0279063896916 -0.109984006431 0.887 2.34961262655e-38
0.0295479420264 -0.109984006431 0.887 2.34950178384e-38
0.0312598201658 -0.110231997427 0.889 2.34975387744e-38
0.0329050738588 -0.110231997427 0.889 2.34950304501e-38
0.0346280560726 -0.110479988422 0.891 2.34921647948e-38
0.0363991559423 -0.110851974915 0.894 2.34975387744e-38
0.0380536630306 -0.110851974915 0.894 2.34928682466e-38
0.0397970027142 -0.11109996591 0.896 2.34950024242e-38
0.0414552111606 -0.11109996591 0.896 2.34975611952e-38
0.0431134196071 -0.11109996591 0.896 2.3498640195e-38
0.0448715647232 -0.111347956906 0.898 2.34979157237e-38
0.0465334745278 -0.111347956906 0.898 2.34925263298e-38
0.0481953843324 -0.111347956906 0.898 2.34946759216e-38
0.0498572941369 -0.111347956906 0.898 2.34932437946e-38
0.051691317095 -0.111719943399 0.901 2.34936095335e-38
0.0534772223972 -0.111967934394 0.903 2.3491457139e-38
-0.0150904371341 -0.11066320565 0.906 2.01709346928e-38
-0.013413721897 -0.11066320565 0.906 1.55629510655e-38
-0.0116981423994 -0.110296771194 0.903 1.67572188922e-38
-0.0100269791995 -0.110296771194 0.903 1.83245193765e-38
-0.00833730920887 -0.110052481557 0.901 1.79561096024e-38
-0.00664763921826 -0.109686047101 0.898 1.83231026637e-38
-0.00498572941369 -0.109686047101 0.898 1.98911486388e-38
-0.00331641689285 -0.109441757464 0.896 1.89709747918e-38
-0.00165820844643 -0.109441757464 0.896 2.08130853193e-38
0.0 -0.109441757464 0.896 2.04450104555e-38
0.00165820844643 -0.109441757464 0.896 2.08127139752e-38
0.00329791010215 -0.108831033371 0.891 2.17350486244e-38
0.00494686515323 -0.108831033371 0.891 2.13648185636e-38
0.00659582020431 -0.108831033371 0.891 2.2102404622e-38
0.00822626846469 -0.108586743734 0.889 2.20123543801e-38
0.00987152215763 -0.108586743734 0.889 2.18272442542e-38
0.0115167758506 -0.108586743734 0.889 2.27488404192e-38
0.0131324186784 -0.108342454097 0.887 2.28417395009e-38
0.0147739710132 -0.108342454097 0.887 2.32087325622e-38
0.016415523348 -0.108342454097 0.887 2.34871271268e-38
0.0180570756828 -0.108342454097 0.887 2.34874732475e-38
0.0196986280176 -0.108342454097 0.887 2.34910703807e-38
0.0213401803524 -0.108342454097 0.887 2.34914179027e-38
0.0229817326872 -0.108342454097 0.887 2.3492851431e-38
0.024623285022 -0.108342454097 0.887 2.34906794184e-38
0.0262648373568 -0.108342454097 0.887 2.34903641262e-38
0.0279063896916 -0.108342454097 0.887 2.34939178191e-38
0.0295479420264 -0.108342454097 0.887 2.34903445081e-38
0.0312598201658 -0.108586743734 0.889 2.34936053296e-38
0.0329050738588 -0.108586743734 0.889 2.34936011257e-38
0.0346280560726 -0.108831033371 0.891 2.34950262462e-38
0.0363991559423 -0.109197467827 0.894 2.34960912331e-38
0.0380536630306 -0.109197467827 0.894 2.34968339213e-38
0.0397970027142 -0.109441757464 0.896 2.34961122525e-38
0.0414552111606 -0.109441757464 0.896 2.34957521188e-38
0.0431134196071 -0.109441757464 0.896 2.3492156387e-38
0.0447716280535 -0.109441757464 0.896 2.3494659106e-38
0.0465334745278 -0.109686047101 0.898 2.34950108319e-38
0.0481953843324 -0.109686047101 0.898 2.34942919658e-38
0.0498572941369 -0.109686047101 0.898 2.34903599223e-38
0.051691317095 -0.110052481557 0.901 2.34863942477e-38
0.0534772223972 -0.110296771194 0.903 2.34903795405e-38
-0.0150904371341 -0.108986490413 0.906 1.98932744086e-38
-0.013413721897 -0.108986490413 0.906 1.7498361446e-38
-0.0116981423994 -0.108625607994 0.903 1.76798954582e-38
-0.0100269791995 -0.108625607994 0.903 1.77731476671e-38
-0.00833730920887 -0.108385019715 0.901 1.79568186594e-38
-0.00666984736709 -0.108385019715 0.901 1.90613851674e-38
-0.00498572941369 -0.108024137297 0.898 1.99844190646e-38
-0.00331641689285 -0.107783549018 0.896 1.93394266048e-38
-0.00165820844643 -0.107783549018 0.896 2.05354040156e-38
0.0 -0.107783549018 0.896 2.05368529582e-38
0.00165820844643 -0.107783549018 0.896 2.10900449542e-38
0.00329791010215 -0.10718207832 0.891 2.09978325088e-38
0.00494686515323 -0.10718207832 0.891 2.21963700918e-38
0.00659582020431 -0.10718207832 0.891 2.20116229023e-38
0.00822626846469 -0.106941490041 0.889 2.14577358622e-38
0.00987152215763 -0.106941490041 0.889 2.22885713269e-38
0.0115167758506 -0.106941490041 0.889 2.25637274907e-38
0.0131324186784 -0.106700901762 0.887 2.29339407359e-38
0.0147739710132 -0.106700901762 0.887 2.30243356973e-38
0.016415523348 -0.106700901762 0.887 2.34867389671e-38
0.0180570756828 -0.106700901762 0.887 2.34881766993e-38
0.0196986280176 -0.106700901762 0.887 2.34860257062e-38
0.0213401803524 -0.106700901762 0.887 2.34935815075e-38
0.0229817326872 -0.106700901762 0.887 2.3488217337e-38
0.024623285022 -0.106700901762 0.887 2.34874788527e-38
0.0262648373568 -0.106700901762 0.887 2.34903529159e-38
0.0279063896916 -0.106700901762 0.887 2.34899913808e-38
0.0295479420264 -0.106700901762 0.887 2.3492879457e-38
0.0312598201658 -0.106941490041 0.889 2.34899955847e-38
0.0329050738588 -0.106941490041 0.889 2.34881823045e-38
0.0346280560726 -0.10718207832 0.891 2.3494297571e-38
0.0363991559423 -0.107542960739 0.894 2.34953695644e-38
0.0380536630306 -0.107542960739 0.894 2.34942989723e-38
0.0397970027142 -0.107783549018 0.896 2.34903571197e-38
0.0414552111606 -0.107783549018 0.896 2.34921577883e-38
0.0431134196071 -0.107783549018 0.896 2.34914403235e-38
0.0447716280535 -0.107783549018 0.896 2.34914221066e-38
0.0465334745278 -0.108024137297 0.898 2.34917878455e-38
0.0481953843324 -0.108024137297 0.898 2.34925151194e-38
0.0498572941369 -0.108024137297 0.898 2.34896200368e-38
0.051691317095 -0.108385019715 0.901 2.34928710492e-38
0.0534772223972 -0.108625607994 0.903 2.34867796048e-38
-0.0150904371341 -0.107309775176 0.906 2.09992940631e-38
-0.013413721897 -0.107309775176 0.906 1.59302944515e-38
-0.0117370066599 -0.107309775176 0.906 1.71281187736e-38
-0.0100269791995 -0.106954444794 0.903 1.71277838633e-38
-0.00833730920887 -0.106717557874 0.901 1.83256053828e-38
-0.00666984736709 -0.106717557874 0.901 2.06308660721e-38
-0.00498572941369 -0.106362227492 0.898 1.80490114867e-38
-0.00332381960913 -0.106362227492 0.898 2.01666439169e-38
-0.00165820844643 -0.106125340571 0.896 2.01662907897e-38
0.0 -0.106125340571 0.896 2.06297674542e-38
0.00165820844643 -0.106125340571 0.896 2.05375718243e-38
0.00330901417657 -0.10588845365 0.894 2.1366238079e-38
0.00494686515323 -0.105533123269 0.891 2.10911015333e-38
0.00659582020431 -0.105533123269 0.891 2.12754899904e-38
0.00822626846469 -0.105296236348 0.889 2.15513566126e-38
0.00987152215763 -0.105296236348 0.889 2.21956512257e-38
0.0115167758506 -0.105296236348 0.889 2.24718835868e-38
0.0131620295435 -0.105296236348 0.889 2.31168998686e-38
0.0148072832364 -0.105296236348 0.889 2.29332190672e-38
0.0164525369294 -0.105296236348 0.889 2.26562790504e-38
0.0180570756828 -0.105059349427 0.887 2.34907144509e-38
0.0196986280176 -0.105059349427 0.887 2.30247308634e-38
0.0213401803524 -0.105059349427 0.887 2.34846047896e-38
0.0229817326872 -0.105059349427 0.887 2.34853320635e-38
0.024623285022 -0.105059349427 0.887 2.34874900631e-38
0.0262648373568 -0.105059349427 0.887 2.34867627892e-38
0.0279063896916 -0.105059349427 0.887 2.34878473942e-38
0.0296145664729 -0.105296236348 0.889 2.34899885783e-38
0.0312598201658 -0.105296236348 0.889 2.34889039732e-38
0.0329791010215 -0.105533123269 0.891 2.34907074444e-38
0.0346280560726 -0.105533123269 0.891 2.34899773679e-38
0.0363991559423 -0.10588845365 0.894 2.34882019227e-38
0.0381387942678 -0.106125340571 0.896 2.34914417248e-38
0.0397970027142 -0.106125340571 0.896 2.34885746681e-38
0.0414552111606 -0.106125340571 0.896 2.34935955205e-38
0.0431134196071 -0.106125340571 0.896 2.34914599416e-38
0.0448715647232 -0.106362227492 0.898 2.34925095142e-38
0.0465334745278 -0.106362227492 0.898 2.3491794852e-38
0.0481953843324 -0.106362227492 0.898 2.34903599223e-38
0.0500238552532 -0.106717557874 0.901 2.3492865444e-38
0.0518060591973 -0.106954444794 0.903 2.34928752531e-38
0.0536548875879 -0.107309775176 0.906 2.34892865277e-38
-0.0151237493574 -0.105866245501 0.908 1.97081642827e-38
-0.013413721897 -0.105633059939 0.906 1.7035229501e-38
-0.0117370066599 -0.105633059939 0.906 1.74958405101e-38
-0.0100269791995 -0.105283281595 0.903 1.71270804114e-38
-0.00835581599956 -0.105283281595 0.903 1.86958298383e-38
-0.00666984736709 -0.105050096032 0.901 1.83252648672e-38
-0.00498572941369 -0.104700317688 0.898 1.98014543267e-38
-0.00332381960913 -0.104700317688 0.898 2.02613576801e-38
-0.00166190980456 -0.104700317688 0.898 2.03521267881e-38
0.0 -0.104467132125 0.896 2.06301416008e-38
0.00165820844643 -0.104467132125 0.896 2.11829412333e-38
0.00330901417657 -0.104233946562 0.894 2.10893232855e-38
0.00494686515323 -0.103884168218 0.891 2.09982402866e-38
0.00659582020431 -0.103884168218 0.891 2.10900449542e-38
0.00822626846469 -0.103650982655 0.889 2.21034682075e-38
0.00987152215763 -0.103650982655 0.889 2.22882027854e-38
0.0115167758506 -0.103650982655 0.889 2.21956512257e-38
0.0131620295435 -0.103650982655 0.889 2.33016484595e-38
0.0148072832364 -0.103650982655 0.889 2.29332162646e-38
0.0164525369294 -0.103650982655 0.889 2.33934881595e-38
0.0180570756828 -0.103417797092 0.887 2.3117606123e-38
0.0196986280176 -0.103417797092 0.887 2.28403199855e-38
0.0213401803524 -0.103417797092 0.887 2.34853208531e-38
0.0229817326872 -0.103417797092 0.887 2.34849621207e-38
0.024623285022 -0.103417797092 0.887 2.34889249927e-38
0.0262648373568 -0.103417797092 0.887 2.34907088457e-38
0.0279063896916 -0.103417797092 0.887 2.34903403042e-38
0.0296145664729 -0.103650982655 0.889 2.34863900438e-38
0.0312598201658 -0.103650982655 0.889 2.34896298458e-38
0.0329791010215 -0.103884168218 0.891 2.34935843101e-38
0.0346280560726 -0.103884168218 0.891 2.34878487955e-38
0.0363991559423 -0.104233946562 0.894 2.34914627442e-38
0.0381387942678 -0.104467132125 0.896 2.34888927629e-38
0.0397970027142 -0.104467132125 0.896 2.34878361838e-38
0.0414552111606 -0.104467132125 0.896 2.3491818674e-38
0.0431134196071 -0.104467132125 0.896 2.34928626414e-38
0.0448715647232 -0.104700317688 0.898 2.34921647948e-38
0.0465334745278 -0.104700317688 0.898 2.3494673119e-38
0.0481953843324 -0.104700317688 0.898 2.34950192397e-38
0.0500238552532 -0.105050096032 0.901 2.34889039732e-38
0.0518060591973 -0.105283281595 0.903 2.34943354061e-38
0.0536548875879 -0.105633059939 0.906 2.34878431903e-38
-0.0151237493574 -0.104185828906 0.908 2.01687921074e-38
-0.0134433327621 -0.104185828906 0.908 1.69440932528e-38
-0.0117629161668 -0.104185828906 0.908 1.73100367415e-38
-0.0100602914227 -0.103956344702 0.906 1.86018321387e-38
-0.00835581599956 -0.103612118395 0.903 1.82341230138e-38
-0.00668465279965 -0.103612118395 0.903 1.85082113883e-38
-0.00500238552532 -0.10338263419 0.901 1.97081642827e-38
-0.00332381960913 -0.103038407883 0.898 1.95237954438e-38
-0.00166190980456 -0.103038407883 0.898 2.05365054362e-38
0.0 -0.103038407883 0.898 2.07205239505e-38
0.00165820844643 -0.102808923678 0.896 2.05368529582e-38
0.00330901417657 -0.102579439474 0.894 2.21956288049e-38
0.00494686515323 -0.102235213167 0.891 2.14595505437e-38
0.00659582020431 -0.102235213167 0.891 2.17357618853e-38
0.00824477525538 -0.102235213167 0.891 2.20127047047e-38
0.00987152215763 -0.102005728962 0.889 2.2287496531e-38
0.0115167758506 -0.102005728962 0.889 2.18275973815e-38
0.0131620295435 -0.102005728962 0.889 2.30254315127e-38
0.0148072832364 -0.102005728962 0.889 2.28406857244e-38
0.0164525369294 -0.102005728962 0.889 2.29343078761e-38
0.0180977906223 -0.102005728962 0.889 2.34871117125e-38
0.0196986280176 -0.101776244757 0.887 2.28406857244e-38
0.0213401803524 -0.101776244757 0.887 2.3487452228e-38
0.0229817326872 -0.101776244757 0.887 2.33923923441e-38
0.024623285022 -0.101776244757 0.887 2.34863970503e-38
0.0262648373568 -0.101776244757 0.887 2.34892346797e-38
0.0279063896916 -0.101776244757 0.887 2.34867375658e-38
0.0296145664729 -0.102005728962 0.889 2.34853404712e-38
0.0312598201658 -0.102005728962 0.889 2.34882103305e-38
0.0329791010215 -0.102235213167 0.891 2.34892809225e-38
0.034744648854 -0.102579439474 0.894 2.34885676616e-38
0.0363991559423 -0.102579439474 0.894 2.3485700605e-38
0.0381387942678 -0.102808923678 0.896 2.34932493998e-38
0.0397970027142 -0.102808923678 0.896 2.3492156387e-38
0.0414552111606 -0.102808923678 0.896 2.34871649618e-38
0.0432096549187 -0.103038407883 0.898 2.34946324814e-38
0.0448715647232 -0.103038407883 0.898 2.34917822403e-38
0.0465334745278 -0.103038407883 0.898 2.3490358521e-38
0.0483563934114 -0.10338263419 0.901 2.34939542529e-38
0.0501348959974 -0.103612118395 0.903 2.34939402399e-38
0.0519781723508 -0.103956344702 0.906 2.34946675138e-38
0.0536548875879 -0.103956344702 0.906 2.33031086125e-38
-0.0151570615806 -0.102731195157 0.91 1.96188777485e-38
-0.0134433327621 -0.102505412311 0.908 1.64838185553e-38
-0.0117629161668 -0.102505412311 0.908 1.7862437004e-38
-0.0100602914227 -0.102279629464 0.906 1.79568130542e-38
-0.00838357618561 -0.102279629464 0.906 1.8326306032e-38
-0.00668465279965 -0.101940955195 0.903 1.86922719415e-38
-0.00500238552532 -0.101715172348 0.901 2.01702368461e-38
-0.00333492368355 -0.101715172348 0.901 2.01681082738e-38
-0.00166190980456 -0.101376498078 0.898 2.12729886727e-38
0.0 -0.101376498078 0.898 2.04435797298e-38
0.00165820844643 -0.101150715232 0.896 2.21031052712e-38
0.00331641689285 -0.101150715232 0.896 2.2009813826e-38
0.00496352126486 -0.100924932385 0.894 2.09971234518e-38
0.00659582020431 -0.100586258116 0.891 2.20134109591e-38
0.00824477525538 -0.100586258116 0.891 2.16421018985e-38
0.00987152215763 -0.100360475269 0.889 2.29317897428e-38
0.0115167758506 -0.100360475269 0.889 2.17350430192e-38
0.0131620295435 -0.100360475269 0.889 2.33931378349e-38
0.0148072832364 -0.100360475269 0.889 2.32094458231e-38
0.0164525369294 -0.100360475269 0.889 2.26569951139e-38
0.0180977906223 -0.100360475269 0.889 2.30261335632e-38
0.0196986280176 -0.100134692423 0.887 2.31179802697e-38
0.0213401803524 -0.100134692423 0.887 2.34885564512e-38
0.0229817326872 -0.100134692423 0.887 2.32087325622e-38
0.024623285022 -0.100134692423 0.887 2.34885676616e-38
0.026324059087 -0.100360475269 0.889 2.34878263747e-38
0.0279693127799 -0.100360475269 0.889 2.34885494447e-38
0.0296145664729 -0.100360475269 0.889 2.34878544007e-38
0.0312598201658 -0.100360475269 0.889 2.3487480254e-38
0.0329791010215 -0.100586258116 0.891 2.34907186548e-38
0.034744648854 -0.100924932385 0.894 2.34889053745e-38
0.0363991559423 -0.100924932385 0.894 2.34878515981e-38
0.0381387942678 -0.101150715232 0.896 2.34892809225e-38
0.0397970027142 -0.101150715232 0.896 2.34910675781e-38
0.0414552111606 -0.101150715232 0.896 2.34892907316e-38
0.0432096549187 -0.101376498078 0.898 2.34907186548e-38
0.0448715647232 -0.101376498078 0.898 2.34896298458e-38
0.0465334745278 -0.101376498078 0.898 2.34950262462e-38
0.0483563934114 -0.101715172348 0.901 2.34936347569e-38
0.0501348959974 -0.101940955195 0.903 2.34921549857e-38
0.0519781723508 -0.102279629464 0.906 2.3497194055e-38
-0.0151570615806 -0.101047077204 0.91 1.94358989976e-38
-0.0134433327621 -0.100824995716 0.908 1.56569249432e-38
-0.0117629161668 -0.100824995716 0.908 1.86029111385e-38
-0.0100824995716 -0.100824995716 0.908 1.80500918878e-38
-0.00838357618561 -0.100602914227 0.906 1.79586151241e-38
-0.00670686094849 -0.100602914227 0.906 1.9063185836e-38
-0.00501348959974 -0.100269791995 0.903 1.90620886193e-38
-0.00333492368355 -0.100047710506 0.901 2.06272717416e-38
-0.00166190980456 -0.0997145882739 0.898 2.10878771455e-38
0.0 -0.0997145882739 0.898 2.06272661364e-38
0.00165820844643 -0.0994925067855 0.896 2.08123790648e-38
0.00331641689285 -0.0994925067855 0.896 2.25630072233e-38
0.00496352126486 -0.0992704252972 0.894 2.14584519257e-38
0.00661802835314 -0.0992704252972 0.894 2.08148817839e-38
0.00824477525538 -0.0989373030646 0.891 2.25637274907e-38
0.00989373030646 -0.0989373030646 0.891 2.33920448221e-38
0.0115167758506 -0.0987152215763 0.889 2.33012785167e-38
0.0131620295435 -0.0987152215763 0.889 2.26559231206e-38
0.0148072832364 -0.0987152215763 0.889 2.302398257e-38
0.0164525369294 -0.0987152215763 0.889 2.3208379435e-38
0.0180977906223 -0.0987152215763 0.889 2.34885564512e-38
0.0197430443153 -0.0987152215763 0.889 2.28406731127e-38
0.0213882980082 -0.0987152215763 0.889 2.34882005214e-38
0.0230335517011 -0.0987152215763 0.889 2.34935801062e-38
0.0246788053941 -0.0987152215763 0.889 2.32080291104e-38
0.026324059087 -0.0987152215763 0.889 2.34878473942e-38
0.0279693127799 -0.0987152215763 0.889 2.34867599866e-38
0.0296145664729 -0.0987152215763 0.889 2.34903669288e-38
0.0313301459705 -0.0989373030646 0.891 2.34885494447e-38
0.0329791010215 -0.0989373030646 0.891 2.34910689794e-38
0.034744648854 -0.0992704252972 0.894 2.34896284445e-38
0.0363991559423 -0.0992704252972 0.894 2.34885620564e-38
0.0381387942678 -0.0994925067855 0.896 2.34900138016e-38
0.0397970027142 -0.0994925067855 0.896 2.34889277953e-38
0.0415477451141 -0.0997145882739 0.898 2.34932718206e-38
0.0432096549187 -0.0997145882739 0.898 2.34907144509e-38
0.0448715647232 -0.0997145882739 0.898 2.34914375209e-38
0.0466889315697 -0.100047710506 0.901 2.34917976546e-38
0.0483563934114 -0.100047710506 0.901 2.3489635451e-38
0.0501348959974 -0.100269791995 0.903 2.34910689794e-38
0.0519781723508 -0.100602914227 0.906 2.34979339405e-38
-0.0152403421387 -0.0999089095762 0.915 2.10921903422e-38
-0.0134729436272 -0.0993629592506 0.91 9.57780353744e-39
-0.0117629161668 -0.0991445791204 0.908 1.6676529324e-38
-0.0100824995716 -0.0991445791204 0.908 1.74965607775e-38
-0.00838357618561 -0.0989261989902 0.906 1.82355761603e-38
-0.00670686094849 -0.0989261989902 0.906 1.93408461202e-38
-0.00501348959974 -0.0985986287949 0.903 1.99836399426e-38
-0.00333492368355 -0.0983802486646 0.901 2.04435615129e-38
-0.00166190980456 -0.0980526784693 0.898 2.09049152102e-38
0.0 -0.0980526784693 0.898 2.03524743101e-38
0.00165820844643 -0.0978342983391 0.896 2.13676884229e-38
0.00331641689285 -0.0978342983391 0.896 2.12747893412e-38
0.00497462533928 -0.0978342983391 0.896 2.1643569058e-38
0.00661802835314 -0.0976159182089 0.894 2.18283162476e-38
0.00827253544143 -0.0976159182089 0.894 2.17347109115e-38
0.00989373030646 -0.0972883480135 0.891 2.29307303611e-38
0.0115426853575 -0.0972883480135 0.891 2.21942443221e-38
0.0131916404086 -0.0972883480135 0.891 2.34856893946e-38
0.0148405954597 -0.0972883480135 0.891 2.33016484595e-38
0.0164895505108 -0.0972883480135 0.891 2.34863942477e-38
0.0180977906223 -0.0970699678833 0.889 2.33016456569e-38
0.0197430443153 -0.0970699678833 0.889 2.33020113958e-38
0.0213882980082 -0.0970699678833 0.889 2.29339379333e-38
0.0230335517011 -0.0970699678833 0.889 2.34856879933e-38
0.0246788053941 -0.0970699678833 0.889 2.34846047896e-38
0.026324059087 -0.0970699678833 0.889 2.34874732475e-38
0.0279693127799 -0.0970699678833 0.889 2.3487841789e-38
0.0296811909194 -0.0972883480135 0.891 2.34896340497e-38
0.0313301459705 -0.0972883480135 0.891 2.34885606551e-38
0.0330901417657 -0.0976159182089 0.894 2.34885690629e-38
0.034744648854 -0.0976159182089 0.894 2.34900053938e-38
0.0363991559423 -0.0976159182089 0.894 2.3489273916e-38
0.0381387942678 -0.0978342983391 0.896 2.34885634577e-38
0.0397970027142 -0.0978342983391 0.896 2.34878249734e-38
0.0415477451141 -0.0980526784693 0.898 2.34892949355e-38
0.0432096549187 -0.0980526784693 0.898 2.3489635451e-38
0.0448715647232 -0.0980526784693 0.898 2.34917934507e-38
0.0466889315697 -0.0983802486646 0.901 2.34900039925e-38
0.0484637327975 -0.0985986287949 0.903 2.34947039476e-38
0.0503014571137 -0.0989261989902 0.906 2.34935969218e-38
0.0520929144531 -0.0991445791204 0.908 2.3499025552e-38
0.0537733310484 -0.0991445791204 0.908 1.73200279996e-38
-0.0152903104736 -0.0985375563856 0.918 2.0815586637e-38
-0.0134729436272 -0.0976788412972 0.91 2.11365134126e-39
-0.0117888256738 -0.0976788412972 0.91 1.67720067949e-38
-0.0100824995716 -0.0974641625252 0.908 1.79607661172e-38
-0.00840208297631 -0.0974641625252 0.908 1.78667950422e-38
-0.00670686094849 -0.0972494837531 0.906 1.93394027828e-38
-0.00503014571137 -0.0972494837531 0.906 1.97982313402e-38
-0.00334232639983 -0.096927465595 0.903 2.02584920247e-38
-0.00166746184177 -0.0967127868229 0.901 2.04443070037e-38
0.0 -0.0963907686647 0.898 2.09063795671e-38
0.00166190980456 -0.0963907686647 0.898 2.13673352957e-38
0.00331641689285 -0.0961760898927 0.896 2.09067326943e-38
0.00497462533928 -0.0961760898927 0.896 2.14588442893e-38
0.0066328337857 -0.0961760898927 0.896 2.16439221852e-38
0.00827253544143 -0.0959614111206 0.894 2.19205118774e-38
0.00992704252972 -0.0959614111206 0.894 2.2102752144e-38
0.0115426853575 -0.0956393929625 0.891 2.29325156154e-38
0.0131916404086 -0.0956393929625 0.891 2.2564414127e-38
0.0148405954597 -0.0956393929625 0.891 2.33942070256e-38
0.0164895505108 -0.0956393929625 0.891 2.33023617204e-38
0.0181385055618 -0.0956393929625 0.891 2.32105052047e-38
0.0197430443153 -0.0954247141904 0.889 2.33016582685e-38
0.0213882980082 -0.0954247141904 0.889 2.34885256227e-38
0.0230335517011 -0.0954247141904 0.889 2.34860733503e-38
0.0246788053941 -0.0954247141904 0.889 2.34853306622e-38
0.026324059087 -0.0954247141904 0.889 2.33942070256e-38
0.0280322358683 -0.0956393929625 0.891 2.34867641905e-38
0.0296811909194 -0.0956393929625 0.891 2.34867543814e-38
0.0314356346774 -0.0959614111206 0.894 2.34893005407e-38
0.0330901417657 -0.0959614111206 0.894 2.34892823238e-38
0.0348223773749 -0.0961760898927 0.896 2.3489273916e-38
0.0364805858214 -0.0961760898927 0.896 2.34896158329e-38
0.0381387942678 -0.0961760898927 0.896 2.34918116676e-38
0.0398858353096 -0.0963907686647 0.898 2.34896270432e-38
0.0415477451141 -0.0963907686647 0.898 2.34921507818e-38
0.0432096549187 -0.0963907686647 0.898 2.34964709849e-38
0.0450214697279 -0.0967127868229 0.901 2.34910815911e-38
0.0467925695976 -0.096927465595 0.903 2.34921535844e-38
0.0486247418765 -0.0972494837531 0.906 2.34914361196e-38
0.0504124978578 -0.0974641625252 0.908 2.3494311584e-38
0.0520929144531 -0.0974641625252 0.908 2.34943241957e-38
0.0537733310484 -0.0974641625252 0.908 1.79671896694e-38
-0.0153236226969 -0.0970496104135 0.92 2.2559056963e-38
-0.01354697079 -0.0965221668787 0.915 5.14745130614e-39
-0.0118535994412 -0.0965221668787 0.915 1.60350653338e-38
-0.0101047077204 -0.0959947233438 0.91 1.74072560264e-38
-0.00840208297631 -0.0957837459299 0.908 1.88791449009e-38
-0.00672166638105 -0.0957837459299 0.908 1.92471468971e-38
-0.00503014571137 -0.095572768516 0.906 1.94315984126e-38
-0.00334232639983 -0.095256302395 0.903 2.00758958283e-38
-0.00166746184177 -0.0950453249811 0.901 2.01680508205e-38
0.0 -0.0950453249811 0.901 2.10900449542e-38
0.00166190980456 -0.0947288588602 0.898 2.11825460672e-38
0.00332381960913 -0.0947288588602 0.898 2.22889384671e-38
0.00498572941369 -0.0947288588602 0.898 2.12747893412e-38
0.0066328337857 -0.0945178814462 0.896 2.23814844216e-38
0.00829104223213 -0.0945178814462 0.896 2.17350584335e-38
0.00992704252972 -0.0943069040323 0.894 2.27502697436e-38
0.011581549618 -0.0943069040323 0.894 2.2564118453e-38
0.0132360567063 -0.0943069040323 0.894 2.33012925296e-38
0.0148405954597 -0.0939904379114 0.891 2.26559287258e-38
0.0164895505108 -0.0939904379114 0.891 2.33020366191e-38
0.0181385055618 -0.0939904379114 0.891 2.31183361995e-38
0.0197874606129 -0.0939904379114 0.891 2.34874858592e-38
0.021436415664 -0.0939904379114 0.891 2.34867585853e-38
0.0230335517011 -0.0937794604974 0.889 2.34874900631e-38
0.0246788053941 -0.0937794604974 0.889 2.34867627892e-38
0.0263832808172 -0.0939904379114 0.891 2.34896298458e-38
0.0280322358683 -0.0939904379114 0.891 2.3488550846e-38
0.0297811275891 -0.0943069040323 0.894 2.34881851071e-38
0.0314356346774 -0.0943069040323 0.894 2.34864068594e-38
0.0331641689285 -0.0945178814462 0.896 2.34885718655e-38
0.0348223773749 -0.0945178814462 0.896 2.34885536486e-38
0.0364805858214 -0.0945178814462 0.896 2.3492156387e-38
0.038223925505 -0.0947288588602 0.898 2.34871271268e-38
0.0398858353096 -0.0947288588602 0.898 2.34921619922e-38
0.0415477451141 -0.0947288588602 0.898 2.34907060431e-38
0.0433540078861 -0.0950453249811 0.901 2.3489635451e-38
0.0451214063976 -0.095256302395 0.903 2.3494673119e-38
0.0469480266394 -0.095572768516 0.906 2.34971646277e-38
0.0487320812626 -0.0957837459299 0.908 2.34946492969e-38
0.0504124978578 -0.0957837459299 0.908 2.34943157879e-38
0.0520929144531 -0.0957837459299 0.908 1.96224328427e-38
0.0537733310484 -0.0957837459299 0.908 1.68704676301e-38
-0.0171187813945 -0.095865175809 0.925 2.35054897419e-38
-0.0153236226969 -0.0953469856695 0.92 2.35098197541e-38
-0.0135913870877 -0.0951397096136 0.918 4.31626831943e-39
-0.0118535994412 -0.0948287955299 0.915 7.3773501641e-39
-0.0101380199437 -0.0946215194741 0.913 1.8336057668e-38
-0.008420589767 -0.0943106053904 0.91 1.96188805511e-38
-0.00672166638105 -0.0941033293346 0.908 1.92496874512e-38
-0.00503014571137 -0.0938960532788 0.906 1.99847721918e-38
-0.00334232639983 -0.0935851391951 0.903 2.1274436214e-38
-0.00167116319991 -0.0935851391951 0.903 1.99836973959e-38
0.0 -0.0933778631393 0.901 2.09060292425e-38
0.00166746184177 -0.0933778631393 0.901 2.18265113751e-38
0.00332381960913 -0.0930669490556 0.898 2.13658933595e-38
0.00498572941369 -0.0930669490556 0.898 2.15506475556e-38
0.0066328337857 -0.0928596729998 0.896 2.15510034854e-38
0.00829104223213 -0.0928596729998 0.896 2.19183608843e-38
0.00994925067855 -0.0928596729998 0.896 2.22885685243e-38
0.011581549618 -0.092652396944 0.894 2.26559287258e-38
0.0132360567063 -0.092652396944 0.894 2.26552042545e-38
0.0148905637946 -0.092652396944 0.894 2.33916888923e-38
0.0165450708829 -0.092652396944 0.894 2.32083766324e-38
0.0181995779711 -0.092652396944 0.894 2.34860215023e-38
0.0197874606129 -0.0923414828603 0.891 2.33942070256e-38
0.021436415664 -0.0923414828603 0.891 2.34864026555e-38
0.0230853707151 -0.0923414828603 0.891 2.34907242599e-38
0.0247343257662 -0.0923414828603 0.891 2.31183333969e-38
0.0263832808172 -0.0923414828603 0.891 2.34881766993e-38
0.0280322358683 -0.0923414828603 0.891 2.34885480434e-38
0.0297811275891 -0.092652396944 0.894 2.34888815525e-38
0.0315059604821 -0.0928596729998 0.896 2.34878445916e-38
0.0331641689285 -0.0928596729998 0.896 2.34893005407e-38
0.0348223773749 -0.0928596729998 0.896 2.34878319799e-38
0.0365620157004 -0.0930669490556 0.898 2.3491419304e-38
0.038223925505 -0.0930669490556 0.898 2.3493588514e-38
0.0398858353096 -0.0930669490556 0.898 2.34896536679e-38
0.0416865460443 -0.0933778631393 0.901 2.34925305337e-38
0.0433540078861 -0.0933778631393 0.901 2.34900152029e-38
0.0451214063976 -0.0935851391951 0.903 2.34939626607e-38
0.0469480266394 -0.0938960532788 0.906 2.34935618893e-38
0.0487320812626 -0.0941033293346 0.908 2.34960842266e-38
0.0504124978578 -0.0941033293346 0.908 2.3030118856e-38
0.0520929144531 -0.0941033293346 0.908 1.5669431532e-38
0.0537733310484 -0.0941033293346 0.908 1.59521126686e-38
-0.0171187813945 -0.0941532976695 0.925 2.34990241508e-38
-0.0153735910318 -0.0939497229719 0.923 2.35087617738e-38
-0.0135913870877 -0.0934407862277 0.918 4.41097367484e-39
-0.0118924637017 -0.0934407862277 0.918 7.10864978227e-39
-0.0101602280925 -0.0931354241812 0.915 1.13424040429e-38
-0.008420589767 -0.092626487437 0.91 1.81520097264e-38
-0.00672166638105 -0.0924229127394 0.908 1.91596988664e-38
-0.00504124978578 -0.0924229127394 0.908 1.91567911721e-38
-0.00335343047424 -0.0922193380417 0.906 2.09067298917e-38
-0.00167116319991 -0.0919139759952 0.903 2.08138111919e-38
0.0 -0.0917104012975 0.901 2.05375746269e-38
0.00166746184177 -0.0917104012975 0.901 2.1735398949e-38
0.00332381960913 -0.0914050392511 0.898 2.20119788321e-38
0.00498572941369 -0.0914050392511 0.898 2.10911015333e-38
0.00664763921826 -0.0914050392511 0.898 2.21066575628e-38
0.00829104223213 -0.0912014645534 0.896 2.2471527657e-38
0.00994925067855 -0.0912014645534 0.896 2.22871434037e-38
0.011607459125 -0.0912014645534 0.896 2.34856893946e-38
0.0132656675714 -0.0912014645534 0.896 2.29332162646e-38
0.0148905637946 -0.0909978898557 0.894 2.27470103234e-38
0.0165450708829 -0.0909978898557 0.894 2.34871285281e-38
0.0181995779711 -0.0909978898557 0.894 2.28413891762e-38
0.0198540850594 -0.0909978898557 0.894 2.31179830723e-38
0.0215085921477 -0.0909978898557 0.894 2.34885634577e-38
0.023163099236 -0.0909978898557 0.894 2.33941972165e-38
0.0248176063243 -0.0909978898557 0.894 2.34889039732e-38
0.0264721134126 -0.0909978898557 0.894 2.34903613236e-38
0.0281266205009 -0.0909978898557 0.894 2.34849705285e-38
0.0298477520357 -0.0912014645534 0.896 2.34885592538e-38
0.0315059604821 -0.0912014645534 0.896 2.34860439231e-38
0.0331641689285 -0.0912014645534 0.896 2.34907256612e-38
0.0348223773749 -0.0912014645534 0.896 2.34892613043e-38
0.0365620157004 -0.0914050392511 0.898 2.34921087428e-38
0.038223925505 -0.0914050392511 0.898 2.34907060431e-38
0.0398858353096 -0.0914050392511 0.898 2.34867739996e-38
0.0416865460443 -0.0917104012975 0.901 2.34943185905e-38
0.0434502431977 -0.0919139759952 0.903 2.3492865444e-38
0.0452713114023 -0.0922193380417 0.906 2.34953891825e-38
0.0469480266394 -0.0922193380417 0.906 2.34932522024e-38
0.0487320812626 -0.0924229127394 0.908 2.34928920687e-38
0.0504124978578 -0.0924229127394 0.908 1.76969870956e-38
0.0520929144531 -0.0924229127394 0.908 1.36555077998e-38
0.0537733310484 -0.0924229127394 0.908 1.54904660999e-38
-0.0171187813945 -0.0924414195301 0.925 2.35000681181e-38
-0.0153735910318 -0.0922415461905 0.923 2.35065757482e-38
-0.0135913870877 -0.0917418628417 0.918 3.49010758641e-39
-0.0118924637017 -0.0917418628417 0.918 7.56857415514e-39
-0.0101602280925 -0.0914420528324 0.915 8.49155480295e-39
-0.00844834995305 -0.0912421794929 0.913 1.10686884139e-38
-0.0067364718136 -0.0909423694836 0.91 1.79697134079e-38
-0.00504124978578 -0.0907424961441 0.908 1.98990547647e-38
-0.00335343047424 -0.0905426228046 0.906 2.08188502611e-38
-0.00167116319991 -0.0902428127953 0.903 1.98932996319e-38
0.0 -0.0902428127953 0.903 2.12747893412e-38
0.00167116319991 -0.0902428127953 0.903 2.10907456035e-38
0.00333492368355 -0.0900429394558 0.901 2.1643569058e-38
0.00500238552532 -0.0900429394558 0.901 2.21974659072e-38
0.00664763921826 -0.0897431294465 0.898 2.17364653371e-38
0.00830954902282 -0.0897431294465 0.898 2.25640834205e-38
0.00997145882739 -0.0897431294465 0.898 2.31183305944e-38
0.011607459125 -0.089543256107 0.896 2.26569979165e-38
0.0132656675714 -0.089543256107 0.896 2.31183361995e-38
0.0149238760178 -0.089543256107 0.896 2.34889067758e-38
0.0165820844643 -0.089543256107 0.896 2.28417423035e-38
0.0182402929107 -0.089543256107 0.896 2.34900039925e-38
0.0198985013571 -0.089543256107 0.896 2.29332218698e-38
0.0215567098035 -0.089543256107 0.896 2.34917976546e-38
0.02321491825 -0.089543256107 0.896 2.34863872412e-38
0.0248731266964 -0.089543256107 0.896 2.34878081578e-38
0.0265313351428 -0.089543256107 0.896 2.3487480254e-38
0.0281895435892 -0.089543256107 0.896 2.34871313307e-38
0.0298477520357 -0.089543256107 0.896 2.3487841789e-38
0.0315059604821 -0.089543256107 0.896 2.34868006242e-38
0.0331641689285 -0.089543256107 0.896 2.34903795405e-38
0.0349001058959 -0.0897431294465 0.898 2.34878291773e-38
0.0365620157004 -0.0897431294465 0.898 2.34900138016e-38
0.038223925505 -0.0897431294465 0.898 2.3490710247e-38
0.0400190842026 -0.0900429394558 0.901 2.34928710492e-38
0.0416865460443 -0.0900429394558 0.901 2.34914207053e-38
0.0434502431977 -0.0902428127953 0.903 2.34961066473e-38
0.0452713114023 -0.0905426228046 0.906 2.34918046611e-38
0.0469480266394 -0.0905426228046 0.906 2.11926045875e-38
0.0487320812626 -0.0907424961441 0.908 1.51202234274e-38
0.0504124978578 -0.0907424961441 0.908 1.40285895029e-38
0.0520929144531 -0.0907424961441 0.908 9.42246820137e-39
0.0537733310484 -0.0907424961441 0.908 1.76109235478e-38
-0.0171187813945 -0.0907295413906 0.925 2.34997430169e-38
-0.015406903255 -0.0907295413906 0.925 2.35083792193e-38
-0.0136654142505 -0.0905333694092 0.923 4.68863255775e-39
-0.0119183732087 -0.0902391114372 0.92 6.55552084464e-39
-0.0101935403157 -0.0900429394558 0.918 6.6498226261e-39
-0.00844834995305 -0.0895525095023 0.913 8.67845438693e-39
-0.0067364718136 -0.0892582515302 0.91 1.01485397903e-38
-0.00504124978578 -0.0890620795488 0.908 1.52078227983e-38
-0.00335343047424 -0.0888659075675 0.906 1.82423920761e-38
-0.00167671523712 -0.0888659075675 0.906 2.10024427807e-38
0.0 -0.0885716495954 0.903 2.16450165993e-38
0.00167116319991 -0.0885716495954 0.903 2.11822223672e-38
0.00333492368355 -0.088375477614 0.901 2.16424774465e-38
0.00500238552532 -0.088375477614 0.901 2.16406851858e-38
0.00664763921826 -0.0880812196419 0.898 2.24711619181e-38
0.00830954902282 -0.0880812196419 0.898 2.19190601322e-38
0.00997145882739 -0.0880812196419 0.898 2.33023294905e-38
0.011633368632 -0.0880812196419 0.898 2.15510427217e-38
0.0132952784365 -0.0880812196419 0.898 2.30228867546e-38
0.0149238760178 -0.0878850476605 0.896 2.34871103112e-38
0.0165820844643 -0.0878850476605 0.896 2.33938440893e-38
0.0182402929107 -0.0878850476605 0.896 2.33942392555e-38
0.0198985013571 -0.0878850476605 0.896 2.34860425218e-38
0.0215567098035 -0.0878850476605 0.896 2.34864040568e-38
0.02321491825 -0.0878850476605 0.896 2.33935035738e-38
0.0248731266964 -0.0878850476605 0.896 2.3490348712e-38
0.0265313351428 -0.0878850476605 0.896 2.34892865277e-38
0.0281895435892 -0.0878850476605 0.896 2.34878291773e-38
0.0298477520357 -0.0878850476605 0.896 2.34878263747e-38
0.0315762862867 -0.0880812196419 0.898 2.34914375209e-38
0.0332381960913 -0.0880812196419 0.898 2.34910633742e-38
0.0349001058959 -0.0880812196419 0.898 2.3491419304e-38
0.0365620157004 -0.0880812196419 0.898 2.3493964062e-38
0.0383516223608 -0.088375477614 0.901 2.34889334005e-38
0.0400190842026 -0.088375477614 0.901 2.34918214766e-38
0.0417790799978 -0.0885716495954 0.903 2.34950360553e-38
0.0435945961652 -0.0888659075675 0.906 2.13744398789e-38
0.0452713114023 -0.0888659075675 0.906 1.76020168947e-38
0.0470516646673 -0.0890620795488 0.908 1.45709929021e-38
0.0487320812626 -0.0890620795488 0.908 1.19088397108e-38
0.0504124978578 -0.0890620795488 0.908 1.16376380112e-38
0.0520929144531 -0.0890620795488 0.908 1.03447664168e-38
0.0537733310484 -0.0890620795488 0.908 1.72403277481e-38
-0.0205425376733 -0.0890176632512 0.925 2.34979255328e-38
-0.0188306595339 -0.0890176632512 0.925 2.34989863157e-38
-0.0171187813945 -0.0890176632512 0.925 2.34950696865e-38
-0.015406903255 -0.0890176632512 0.925 2.35094876464e-38
-0.0136654142505 -0.0888251926279 0.923 4.2258677529e-39
-0.0119183732087 -0.0885364866931 0.92 6.92250129427e-39
-0.0101935403157 -0.0883440160698 0.918 7.29589969086e-39
-0.00846685674374 -0.0880553101349 0.915 6.92784024142e-39
-0.00675867996244 -0.0878628395117 0.913 8.12636521276e-39
-0.00504124978578 -0.0873816629536 0.908 9.41385582101e-39
-0.00336083319052 -0.0873816629536 0.908 1.21732254946e-38
-0.00167671523712 -0.0871891923303 0.906 1.63137401581e-38
0.0 -0.0871891923303 0.906 1.87951917086e-38
0.00167671523712 -0.0871891923303 0.906 2.00830284375e-38
0.00334232639983 -0.0869004863955 0.903 2.20169954806e-38
0.00501348959974 -0.0869004863955 0.903 2.32123198862e-38
0.00666984736709 -0.0867080157722 0.901 2.23814872242e-38
0.00833730920887 -0.0867080157722 0.901 2.21985407031e-38
0.00997145882739 -0.0864193098374 0.898 2.25666001526e-38
0.011633368632 -0.0864193098374 0.898 2.28413891762e-38
0.0132952784365 -0.0864193098374 0.898 2.31172501932e-38
0.0149571882411 -0.0864193098374 0.898 2.29332162646e-38
0.0165820844643 -0.0862268392141 0.896 2.34863998529e-38
0.0182402929107 -0.0862268392141 0.896 2.34860369166e-38
0.0198985013571 -0.0862268392141 0.896 2.34885578525e-38
0.0215567098035 -0.0862268392141 0.896 2.34892809225e-38
0.02321491825 -0.0862268392141 0.896 2.34885522473e-38
0.0248731266964 -0.0862268392141 0.896 2.34889109797e-38
0.026590556873 -0.0864193098374 0.898 2.34885452408e-38
0.0282524666776 -0.0864193098374 0.898 2.34892585018e-38
0.0299143764822 -0.0864193098374 0.898 2.34914249092e-38
0.0315762862867 -0.0864193098374 0.898 2.34896340497e-38
0.0332381960913 -0.0864193098374 0.898 2.34921774065e-38
0.0350166986772 -0.0867080157722 0.901 2.34914263105e-38
0.036684160519 -0.0867080157722 0.901 2.34910479599e-38
0.038436753598 -0.0869004863955 0.903 2.34924632713e-38
0.0401079167979 -0.0869004863955 0.903 1.91650476226e-38
0.041917880928 -0.0871891923303 0.906 1.66840094552e-38
0.0435945961652 -0.0871891923303 0.906 1.54947288498e-38
0.0453712480721 -0.0873816629536 0.908 1.32885245476e-38
0.0470516646673 -0.0873816629536 0.908 1.06209903701e-38
0.0487320812626 -0.0873816629536 0.908 9.98029429145e-39
0.0504124978578 -0.0873816629536 0.908 1.05305898036e-38
0.0520929144531 -0.0873816629536 0.908 1.15414977261e-38
-0.0188306595339 -0.0873057851117 0.925 2.35004688895e-38
-0.0171187813945 -0.0873057851117 0.925 2.34975682016e-38
-0.015406903255 -0.0873057851117 0.925 2.35058722963e-38
-0.0136950251156 -0.0873057851117 0.925 6.34597627748e-39
-0.0119183732087 -0.086833861949 0.92 5.82082706629e-39
-0.0101935403157 -0.0866450926839 0.918 6.74237558707e-39
-0.00846685674374 -0.0863619387862 0.915 7.57319984137e-39
-0.006773485395 -0.0863619387862 0.915 6.65340995017e-39
-0.0050523538602 -0.0858900156234 0.91 7.20693405396e-39
-0.0033682359068 -0.0858900156234 0.91 8.12923507202e-39
-0.00168041659526 -0.0857012463583 0.908 8.21855944133e-39
0.0 -0.0857012463583 0.908 1.03336457122e-38
0.00167671523712 -0.0855124770932 0.906 1.35551440012e-38
0.00335343047424 -0.0855124770932 0.906 1.57616425761e-38
0.00503014571137 -0.0855124770932 0.906 1.77824887227e-38
0.00668465279965 -0.0852293231956 0.903 2.00827453752e-38
0.00833730920887 -0.0850405539305 0.901 2.07302125281e-38
0.0100047710506 -0.0850405539305 0.901 2.17411400688e-38
0.011633368632 -0.0847574000328 0.898 2.2383650829e-38
0.0132952784365 -0.0847574000328 0.898 2.25683966172e-38
0.0149571882411 -0.0847574000328 0.898 2.32137464081e-38
0.0166190980456 -0.0847574000328 0.898 2.30275979201e-38
0.0182810078502 -0.0847574000328 0.898 2.3120864142e-38
0.0198985013571 -0.0845686307677 0.896 2.17372262422e-38
0.0215567098035 -0.0845686307677 0.896 2.34892585018e-38
0.0232667372639 -0.0847574000328 0.898 2.34885592538e-38
0.0249286470685 -0.0847574000328 0.898 2.3489635451e-38
0.026590556873 -0.0847574000328 0.898 2.34921633935e-38
0.0282524666776 -0.0847574000328 0.898 2.28453744691e-38
0.0299143764822 -0.0847574000328 0.898 2.28460428884e-38
0.0316817749937 -0.0850405539305 0.901 2.21109959829e-38
0.0333492368355 -0.0850405539305 0.901 2.10096888951e-38
0.0350944271982 -0.0852293231956 0.903 1.98143420687e-38
0.0367655903981 -0.0852293231956 0.903 1.70534730057e-38
0.0385644504538 -0.0855124770932 0.906 1.63205798959e-38
0.0402411656909 -0.0855124770932 0.906 1.36533554054e-38
0.041917880928 -0.0855124770932 0.906 1.19091984432e-38
0.0435945961652 -0.0855124770932 0.906 1.007248852e-38
0.0453712480721 -0.0857012463583 0.908 9.79626456673e-39
0.0470516646673 -0.0857012463583 0.908 9.98101175626e-39
0.0487320812626 -0.0857012463583 0.908 1.06238602294e-38
0.0504124978578 -0.0857012463583 0.908 1.08071724893e-38
0.0520929144531 -0.0857012463583 0.908 1.07110322042e-38
-0.0171187813945 -0.0855939069723 0.925 2.34989919209e-38
-0.015406903255 -0.0855939069723 0.925 2.35083624037e-38
-0.0136950251156 -0.0855939069723 0.925 6.53036473461e-39
-0.0119572374691 -0.0854088390653 0.923 4.8073940039e-39
-0.0102157484646 -0.0851312372049 0.92 7.11294616336e-39
-0.00846685674374 -0.0846685674374 0.915 6.92999263586e-39
-0.006773485395 -0.0846685674374 0.915 6.83851587211e-39
-0.00506900997183 -0.0844834995305 0.913 7.02326306165e-39
-0.00337933998122 -0.0844834995305 0.913 7.57642843303e-39
-0.0016841179534 -0.08420589767 0.91 7.30056321215e-39
0.0 -0.0840208297631 0.908 8.13102873405e-39
0.00168041659526 -0.0840208297631 0.908 7.39419237035e-39
0.00335343047424 -0.0838357618561 0.906 9.41959553952e-39
0.00503014571137 -0.0838357618561 0.906 1.10708408083e-38
0.00668465279965 -0.0835581599956 0.903 1.23579726842e-38
0.00835581599956 -0.0835581599956 0.903 1.4105358238e-38
0.0100047710506 -0.0833730920887 0.901 1.70534337693e-38
0.0116722328924 -0.0833730920887 0.901 1.72364223293e-38
0.0132952784365 -0.0830954902282 0.898 1.78796813829e-38
0.0149571882411 -0.0830954902282 0.898 1.75076940938e-38
0.0166190980456 -0.0830954902282 0.898 1.93519472066e-38
0.0182810078502 -0.0830954902282 0.898 1.93530163973e-38
0.0199429176548 -0.0830954902282 0.898 1.97218213376e-38
0.0216048274593 -0.0830954902282 0.898 1.81545124455e-38
0.0232667372639 -0.0830954902282 0.898 1.95381279245e-38
0.0249286470685 -0.0830954902282 0.898 1.84324838179e-38
0.026590556873 -0.0830954902282 0.898 1.7787833275e-38
0.0282524666776 -0.0830954902282 0.898 1.77910408472e-38
0.0300143131519 -0.0833730920887 0.901 1.65953661169e-38
0.0316817749937 -0.0833730920887 0.901 1.41093267153e-38
0.0333492368355 -0.0833730920887 0.901 1.31920255301e-38
