# .PCD v0.7 - Point Cloud Data file format
VERSION 0.7
FIELDS x y z rgb
SIZE 4 4 4 4
TYPE F F F F
COUNT 1 1 1 1
WIDTH 860
HEIGHT 1
VIEWPOINT 0 0 0 1 0 0 0
POINTS 860
DATA ascii
0.0766033080518 -0.166464880959 0.796 7.84547773818e-39
0.0782726205727 -0.166883134429 0.798 6.18777528605e-39
0.0795495891307 -0.166464880959 0.796 5.90904020592e-39
0.0808191549725 -0.166046627489 0.794 4.99104397674e-39
0.0822885941539 -0.166046627489 0.794 3.88614816359e-39
0.0835470559212 -0.165628374019 0.792 2.68834065706e-39
0.0847981149723 -0.16521012055 0.79 3.23827743679e-39
0.0861509613723 -0.165000993815 0.789 3.14967053229e-39
0.0876111471582 -0.165000993815 0.789 4.81167777331e-39
0.0890713329442 -0.165000993815 0.789 4.80988411127e-39
0.0905315187302 -0.165000993815 0.789 7.02327287073e-39
0.0919917045161 -0.165000993815 0.789 7.02254559683e-39
0.0934518903021 -0.165000993815 0.789 6.00805035021e-39
0.0950323702276 -0.16521012055 0.79 1.46553342541e-38
0.0598676172248 -0.163540808029 0.789 9.56452343189e-39
0.0613278030108 -0.163540808029 0.789 5.88787499391e-39
0.0626288303967 -0.163126255917 0.787 2.77730629397e-39
0.0640853148246 -0.163126255917 0.787 3.88758589582e-39
0.0655417992524 -0.163126255917 0.787 6.28140444424e-39
0.0671685461546 -0.163540808029 0.789 5.82545555512e-39
0.0686287319406 -0.163540808029 0.789 6.83708094248e-39
0.0700889177266 -0.163540808029 0.789 7.94486202917e-39
0.071639786787 -0.163748084084 0.79 7.66898139401e-39
0.073286891159 -0.164162636196 0.792 7.48177072177e-39
0.0749413982473 -0.164577188308 0.794 7.66612694903e-39
0.0764108374286 -0.164577188308 0.794 7.84979233616e-39
0.0780764485913 -0.164991740419 0.796 6.83349501971e-39
0.0793497157912 -0.164577188308 0.794 6.00123443448e-39
0.0808191549725 -0.164577188308 0.794 4.71553748827e-39
0.082081318098 -0.164162636196 0.792 4.25636000748e-39
0.0835470559212 -0.164162636196 0.792 2.78161108285e-39
0.0847981149723 -0.163748084084 0.79 3.98013885679e-39
0.0862601514374 -0.163748084084 0.79 4.90064341021e-39
0.0876111471582 -0.163540808029 0.789 6.10060331118e-39
0.0890713329442 -0.163540808029 0.789 6.92999263586e-39
0.0905315187302 -0.163540808029 0.789 6.19208007493e-39
0.0921082972975 -0.163748084084 0.79 8.31401168882e-39
0.0935703337626 -0.163748084084 0.79 6.19279753975e-39
0.0950323702276 -0.163748084084 0.79 1.18945002236e-38
0.0598676172248 -0.162080622243 0.789 8.91880509953e-39
0.0613278030108 -0.162080622243 0.789 5.42869751312e-39
0.0626288303967 -0.161669771489 0.787 3.78857294892e-39
0.0640853148246 -0.161669771489 0.787 2.96241221591e-39
0.0655417992524 -0.161669771489 0.787 6.83852988509e-39
0.0669982836802 -0.161669771489 0.787 5.64142583039e-39
0.0684547681081 -0.161669771489 0.787 5.27013778929e-39
0.0699112525359 -0.161669771489 0.787 6.65664134442e-39
0.0715491035126 -0.162080622243 0.789 8.31577592359e-39
0.073101823252 -0.162286047619 0.79 8.03596464623e-39
0.0747526289822 -0.162696898373 0.792 8.03596464623e-39
0.0764108374286 -0.163107749126 0.794 7.57391730619e-39
0.0778802766099 -0.163107749126 0.794 6.74237558707e-39
0.0793497157912 -0.163107749126 0.794 7.20442292711e-39
0.0806155802749 -0.162696898373 0.792 6.37467487003e-39
0.0818740420422 -0.162286047619 0.79 5.6367623091e-39
0.0833360785073 -0.162286047619 0.79 3.33621138386e-39
0.0847981149723 -0.162286047619 0.79 4.34964584755e-39
0.0862601514374 -0.162286047619 0.79 4.62693058377e-39
0.0876111471582 -0.162080622243 0.789 6.8385270825e-39
0.0890713329442 -0.162080622243 0.789 6.46902149304e-39
0.0905315187302 -0.162080622243 0.789 7.02398192776e-39
0.0919917045161 -0.162080622243 0.789 7.29984574734e-39
0.0934518903021 -0.162080622243 0.789 6.1016795084e-39
0.0950323702276 -0.162286047619 0.79 1.08843391931e-38
0.0598676172248 -0.160620436457 0.789 1.17757499878e-38
0.0613278030108 -0.160620436457 0.789 4.77939185669e-39
0.0626288303967 -0.160213287061 0.787 4.24918535934e-39
0.0640853148246 -0.160213287061 0.787 3.79072534337e-39
0.0655417992524 -0.160213287061 0.787 4.8124176589e-39
0.0669982836802 -0.160213287061 0.787 6.28678543035e-39
0.0684547681081 -0.160213287061 0.787 7.76117562257e-39
0.0699112525359 -0.160213287061 0.787 6.00948527984e-39
0.0715491035126 -0.160620436457 0.789 8.03777091995e-39
0.0730092892985 -0.160620436457 0.789 1.00639742305e-38
0.074563859717 -0.160824011154 0.79 8.77208354512e-39
0.0762183668053 -0.16123116055 0.792 8.21891817373e-39
0.0776841046285 -0.16123116055 0.792 8.40402409568e-39
0.0791498424517 -0.16123116055 0.792 6.74560417873e-39
0.0804120055772 -0.160824011154 0.79 6.37646853206e-39
0.0818740420422 -0.160824011154 0.79 5.63891470354e-39
0.0833360785073 -0.160824011154 0.79 6.46902149304e-39
0.0846907755863 -0.160620436457 0.789 6.74524544632e-39
0.0861509613723 -0.160620436457 0.789 7.94341168526e-39
0.0876111471582 -0.160620436457 0.789 7.75902322813e-39
0.0890713329442 -0.160620436457 0.789 7.57535223581e-39
0.0905315187302 -0.160620436457 0.789 7.30056321215e-39
0.0919917045161 -0.160620436457 0.789 6.65558756798e-39
0.0934518903021 -0.160620436457 0.789 5.91729105127e-39
0.0950323702276 -0.160824011154 0.79 1.12520006738e-38
0.0598676172248 -0.159160250671 0.789 1.42618048038e-38
0.0613278030108 -0.159160250671 0.789 5.15247355983e-39
0.0627879887967 -0.159160250671 0.789 3.41943730226e-39
0.0642481745827 -0.159160250671 0.789 3.88291957193e-39
0.0657083603687 -0.159160250671 0.789 2.59794009053e-39
0.0669982836802 -0.158756802634 0.787 6.28535750721e-39
0.0684547681081 -0.158756802634 0.787 7.02721332202e-39
0.0699112525359 -0.158756802634 0.787 6.28750289516e-39
0.0713677369637 -0.158756802634 0.787 7.30021148624e-39
0.0730092892985 -0.159160250671 0.789 6.3786209265e-39
0.0744694750845 -0.159160250671 0.789 1.00645978084e-38
0.0760258961821 -0.159361974689 0.79 8.77211857758e-39
0.0774879326471 -0.159361974689 0.79 7.20765151877e-39
0.0789499691122 -0.159361974689 0.79 6.83959206933e-39
0.0804120055772 -0.159361974689 0.79 5.36412567988e-39
0.0817704040143 -0.159160250671 0.789 7.20693405396e-39
0.0832305898003 -0.159160250671 0.789 7.48423420447e-39
0.0846907755863 -0.159160250671 0.789 7.85229365392e-39
0.0861509613723 -0.159160250671 0.789 7.66790519679e-39
0.0876111471582 -0.159160250671 0.789 8.95862579799e-39
0.0890713329442 -0.159160250671 0.789 7.76048758502e-39
0.0905315187302 -0.159160250671 0.789 8.03883450549e-39
0.0919917045161 -0.159160250671 0.789 6.83959206933e-39
0.0934518903021 -0.159160250671 0.789 4.90351326947e-39
0.0950323702276 -0.159361974689 0.79 1.5942461926e-38
0.0599434950666 -0.157899938224 0.79 1.39859017478e-38
0.0613278030108 -0.157700064885 0.789 1.31688018107e-38
0.0627879887967 -0.157700064885 0.789 1.84316710648e-39
0.0642481745827 -0.157700064885 0.789 2.69157625522e-39
0.0657083603687 -0.157700064885 0.789 3.79072534337e-39
0.0669982836802 -0.157300318206 0.787 3.33621138386e-39
0.0684547681081 -0.157300318206 0.787 6.47189135229e-39
0.0699112525359 -0.157300318206 0.787 8.13102873405e-39
0.0713677369637 -0.157300318206 0.787 8.31218859952e-39
0.0728242213916 -0.157300318206 0.787 8.03596464623e-39
0.0742807058194 -0.157300318206 0.787 7.76045815776e-39
0.0759296608705 -0.157700064885 0.789 9.51215971088e-39
0.0773898466564 -0.157700064885 0.789 8.49693578906e-39
0.0789499691122 -0.157899938224 0.79 8.31254733193e-39
0.0803102182284 -0.157700064885 0.789 8.12887633961e-39
0.0817704040143 -0.157700064885 0.789 8.4051002929e-39
0.0832305898003 -0.157700064885 0.789 8.03704084345e-39
0.0846907755863 -0.157700064885 0.789 8.77423593956e-39
0.0861509613723 -0.157700064885 0.789 9.41639217123e-39
0.0876111471582 -0.157700064885 0.789 8.95790693188e-39
0.0890713329442 -0.157700064885 0.789 7.48782152854e-39
0.0905315187302 -0.157700064885 0.789 6.19674359622e-39
0.0919917045161 -0.157700064885 0.789 4.90458946669e-39
0.0935703337626 -0.157899938224 0.79 8.306824429e-39
0.0950323702276 -0.157899938224 0.79 1.98972667079e-38
0.0599434950666 -0.156437901759 0.79 1.46384612193e-38
0.0614055315317 -0.156437901759 0.79 1.6569938155e-38
0.0627879887967 -0.156239879099 0.789 1.20596152216e-38
0.0642481745827 -0.156239879099 0.789 3.49799969936e-39
0.0657083603687 -0.156239879099 0.789 3.88291957193e-39
0.0669982836802 -0.155843833778 0.787 3.14859433507e-39
0.0684547681081 -0.155843833778 0.787 2.14234993381e-39
0.0699112525359 -0.155843833778 0.787 6.19423246938e-39
0.0713677369637 -0.155843833778 0.787 8.03632337864e-39
0.0728242213916 -0.155843833778 0.787 8.40438282808e-39
0.0742807058194 -0.155843833778 0.787 7.94412915007e-39
0.0757371902472 -0.155843833778 0.787 8.21927690614e-39
0.0773898466564 -0.156239879099 0.789 8.95754819947e-39
0.0788500324424 -0.156239879099 0.789 8.49550926722e-39
0.0803102182284 -0.156239879099 0.789 8.8649952385e-39
0.0817704040143 -0.156239879099 0.789 9.60220715019e-39
0.0832305898003 -0.156239879099 0.789 8.95754819947e-39
0.0846907755863 -0.156239879099 0.789 8.59020621484e-39
0.0861509613723 -0.156239879099 0.789 9.41995427192e-39
0.0876111471582 -0.156239879099 0.789 7.11581602262e-39
0.0890713329442 -0.156239879099 0.789 5.36520187711e-39
0.0905315187302 -0.156239879099 0.789 4.62944171062e-39
0.0919917045161 -0.156239879099 0.789 2.61874657013e-41
0.0935703337626 -0.156437901759 0.79 2.35097637022e-38
0.0614055315317 -0.154975865294 0.79 1.60138973192e-38
0.0628675679967 -0.154975865294 0.79 1.74004218938e-38
0.0642481745827 -0.154779693313 0.789 1.41793580073e-38
0.0657083603687 -0.154779693313 0.789 7.91901788159e-39
0.0669982836802 -0.15438734935 0.787 4.14945775023e-39
0.0684547681081 -0.15438734935 0.787 4.71230889661e-39
0.0699112525359 -0.15438734935 0.787 4.16237211688e-39
0.0713677369637 -0.15438734935 0.787 3.61243533715e-39
0.0728242213916 -0.15438734935 0.787 5.54959033423e-39
0.0742807058194 -0.15438734935 0.787 7.20729278637e-39
0.0757371902472 -0.15438734935 0.787 8.49621832424e-39
0.0773898466564 -0.154779693313 0.789 8.58984748243e-39
0.0788500324424 -0.154779693313 0.789 9.1430352746e-39
0.0803102182284 -0.154779693313 0.789 8.68240044341e-39
0.0815631279585 -0.15438734935 0.787 8.77495340438e-39
0.0830196123864 -0.15438734935 0.787 8.12887633961e-39
0.0846907755863 -0.154779693313 0.789 7.02433925887e-39
0.0861509613723 -0.154779693313 0.789 5.82617301993e-39
0.0876111471582 -0.154779693313 0.789 4.99750116007e-39
0.0890713329442 -0.154779693313 0.789 5.27157271891e-39
0.0905315187302 -0.154779693313 0.789 4.71374382623e-39
0.0919917045161 -0.154779693313 0.789 2.0641922317e-38
0.0935703337626 -0.154975865294 0.79 2.35022863736e-38
0.0614055315317 -0.153513828829 0.79 1.69394437445e-38
0.0628675679967 -0.153513828829 0.79 1.71259803921e-38
0.0642481745827 -0.153319507527 0.789 1.79546480481e-38
0.0657083603687 -0.153319507527 0.789 1.722144385e-38
0.0671685461546 -0.153319507527 0.789 1.35382023028e-38
0.0686287319406 -0.153319507527 0.789 7.64387012553e-39
0.0699112525359 -0.152930864922 0.787 2.76977291342e-39
0.0713677369637 -0.152930864922 0.787 2.87559897345e-39
0.0728242213916 -0.152930864922 0.787 4.16667690576e-39
0.0742807058194 -0.152930864922 0.787 3.61171787234e-39
0.0757371902472 -0.152930864922 0.787 3.89045715637e-39
0.077193674675 -0.152930864922 0.787 3.89009422007e-39
0.0786501591029 -0.152930864922 0.787 3.98874563196e-39
0.0801066435307 -0.152930864922 0.787 3.06536841668e-39
0.0815631279585 -0.152930864922 0.787 3.61709885844e-39
0.0830196123864 -0.152930864922 0.787 4.53724748206e-39
0.0844760968142 -0.152930864922 0.787 4.44182466183e-39
0.085932581242 -0.152930864922 0.787 3.15182292673e-39
0.0876111471582 -0.153319507527 0.789 5.63783850632e-39
0.0890713329442 -0.153319507527 0.789 1.13359594713e-38
0.0905315187302 -0.153319507527 0.789 2.08185153508e-38
0.0921082972975 -0.153513828829 0.79 2.35019010165e-38
0.0935703337626 -0.153513828829 0.79 2.34929060817e-38
0.0562180780994 -0.158018381685 0.821 1.97042364431e-38
0.0577374856156 -0.158018381685 0.821 2.06279695882e-38
0.0592568931318 -0.158018381685 0.821 1.90624221283e-38
0.0600952507504 -0.152436733611 0.792 1.36225744833e-38
0.0615609885735 -0.152436733611 0.792 1.68501600128e-38
0.0630267263967 -0.152436733611 0.792 1.7035938558e-38
0.0643296044618 -0.152051792364 0.79 1.82330566257e-38
0.0657083603687 -0.151859321741 0.789 1.78628265649e-38
0.0671685461546 -0.151859321741 0.789 1.92457792298e-38
0.0686287319406 -0.151859321741 0.789 1.8420319146e-38
0.0699112525359 -0.151474380494 0.787 1.52910557232e-38
0.0713677369637 -0.151474380494 0.787 1.22510704269e-38
0.0728242213916 -0.151474380494 0.787 9.57743779854e-39
0.0742807058194 -0.151474380494 0.787 7.46522138691e-39
0.0757371902472 -0.151474380494 0.787 5.25973454949e-39
0.077193674675 -0.151474380494 0.787 3.6045432242e-39
0.0786501591029 -0.151474380494 0.787 3.24042983123e-39
0.0801066435307 -0.151474380494 0.787 3.79287773781e-39
0.0815631279585 -0.151474380494 0.787 4.62011466804e-39
0.0830196123864 -0.151474380494 0.787 7.2872901131e-39
0.0844760968142 -0.151474380494 0.787 1.02278196522e-38
0.085932581242 -0.151474380494 0.787 1.45570079435e-38
0.0876111471582 -0.151859321741 0.789 2.04553156044e-38
0.0890713329442 -0.151859321741 0.789 2.34910227365e-38
0.0905315187302 -0.151859321741 0.789 2.34979269341e-38
0.0921082972975 -0.152051792364 0.79 2.22871630219e-38
0.0938072206835 -0.152436733611 0.792 2.35086762946e-38
0.0533088106019 -0.156880214057 0.823 2.04418168963e-38
0.0548319194762 -0.156880214057 0.823 2.04428580611e-38
0.0562180780994 -0.156498974169 0.821 2.00740825481e-38
0.0577374856156 -0.156498974169 0.821 1.91539367271e-38
0.0592568931318 -0.156498974169 0.821 1.86000440818e-38
0.060776300648 -0.156498974169 0.821 1.51913393245e-38
0.0622957081642 -0.156498974169 0.821 1.38094810738e-38
0.0617164456154 -0.151352235676 0.794 1.65728542571e-38
0.0631858847967 -0.151352235676 0.794 1.75884060828e-38
0.0644924642199 -0.150970995787 0.792 1.75884060828e-38
0.0657916409268 -0.150589755899 0.79 1.82301825625e-38
0.0671685461546 -0.150399135955 0.789 1.89681063339e-38
0.0686287319406 -0.150399135955 0.789 1.86911607119e-38
0.0699112525359 -0.150017896067 0.787 1.84153024975e-38
0.0713677369637 -0.150017896067 0.787 2.00762209296e-38
0.0728242213916 -0.150017896067 0.787 1.99880133951e-38
0.0744694750845 -0.150399135955 0.789 1.92522504261e-38
0.0759296608705 -0.150399135955 0.789 1.89785095737e-38
0.0773898466564 -0.150399135955 0.789 1.79650596957e-38
0.0788500324424 -0.150399135955 0.789 1.80590531915e-38
0.0803102182284 -0.150399135955 0.789 1.83338450177e-38
0.0817704040143 -0.150399135955 0.789 1.93483696916e-38
0.0832305898003 -0.150399135955 0.789 1.9901896598e-38
0.0846907755863 -0.150399135955 0.789 2.03571434366e-38
0.0861509613723 -0.150399135955 0.789 2.34867221515e-38
0.0876111471582 -0.150399135955 0.789 2.34903893496e-38
0.0890713329442 -0.150399135955 0.789 2.3490734069e-38
0.0905315187302 -0.150399135955 0.789 2.28381521768e-38
0.0921082972975 -0.150589755899 0.79 2.35019010165e-38
0.0938072206835 -0.150970995787 0.792 2.3509837971e-38
0.0519115479043 -0.155734643713 0.825 1.8692255126e-38
0.0533088106019 -0.155357105183 0.823 2.09028188677e-38
0.0546986705832 -0.154979566652 0.821 1.88755673859e-38
0.0562180780994 -0.154979566652 0.821 1.93358140574e-38
0.0577374856156 -0.154979566652 0.821 1.95216276351e-38
0.0592568931318 -0.154979566652 0.821 1.68479936054e-38
0.060776300648 -0.154979566652 0.821 1.55608056776e-38
0.0622957081642 -0.154979566652 0.821 1.30715629076e-38
0.0617164456154 -0.149882796495 0.794 1.62040647312e-38
0.0631858847967 -0.149882796495 0.794 1.58352850143e-38
0.064655323978 -0.149882796495 0.794 1.79575641502e-38
0.0659582020431 -0.149505257964 0.792 1.87844311376e-38
0.0672536773918 -0.149127719434 0.79 1.95209241832e-38
0.0687157138569 -0.149127719434 0.79 1.94301508713e-38
0.0701777503219 -0.149127719434 0.79 1.95230751764e-38
0.0715491035126 -0.148938950169 0.789 1.93390314387e-38
0.0730092892985 -0.148938950169 0.789 1.94297949415e-38
0.0744694750845 -0.148938950169 0.789 1.94290816806e-38
0.0759296608705 -0.148938950169 0.789 2.00733762937e-38
0.0773898466564 -0.148938950169 0.789 2.04424895196e-38
0.0788500324424 -0.148938950169 0.789 2.05347229845e-38
0.0803102182284 -0.148938950169 0.789 2.09946277392e-38
0.0817704040143 -0.148938950169 0.789 2.14559786339e-38
0.0832305898003 -0.148938950169 0.789 2.2287158818e-38
0.0846907755863 -0.148938950169 0.789 2.34892683108e-38
0.0861509613723 -0.148938950169 0.789 2.34896326484e-38
0.0876111471582 -0.148938950169 0.789 2.34824453886e-38
0.0890713329442 -0.148938950169 0.789 2.3483179669e-38
0.0906462608325 -0.149127719434 0.79 2.34846145986e-38
0.0921082972975 -0.149127719434 0.79 2.35048353355e-38
0.0938072206835 -0.149505257964 0.792 2.35098575892e-38
0.0517857017275 -0.153833996308 0.823 1.91524905871e-38
0.053179263067 -0.153460159136 0.821 1.96138386792e-38
0.0546986705832 -0.153460159136 0.821 1.9246132357e-38
0.0562180780994 -0.153460159136 0.821 1.8600744731e-38
0.0575968340063 -0.153086321964 0.819 1.84170723374e-38
0.0591125401644 -0.153086321964 0.819 1.77706519545e-38
0.0604801919968 -0.152712484792 0.817 1.50994744011e-38
0.0619921967968 -0.152712484792 0.817 1.3898471934e-38
0.0617164456154 -0.148413357313 0.794 1.5282462961e-38
0.0631858847967 -0.148413357313 0.794 1.64831571424e-38
0.064655323978 -0.148413357313 0.794 1.74965860009e-38
0.0659582020431 -0.148039520141 0.792 1.87840780104e-38
0.0674239398663 -0.148039520141 0.792 1.89684692702e-38
0.0688896776894 -0.148039520141 0.792 1.96163442009e-38
0.0701777503219 -0.147665682969 0.79 1.93393999802e-38
0.071639786787 -0.147665682969 0.79 2.08141783321e-38
0.0730092892985 -0.147478764383 0.789 2.07230406825e-38
0.0744694750845 -0.147478764383 0.789 2.08145146437e-38
0.0759296608705 -0.147478764383 0.789 2.12726215325e-38
0.0773898466564 -0.147478764383 0.789 2.19180105597e-38
0.0788500324424 -0.147478764383 0.789 2.22874993336e-38
0.0803102182284 -0.147478764383 0.789 2.25640778154e-38
0.0817704040143 -0.147478764383 0.789 2.2471527657e-38
0.0832305898003 -0.147478764383 0.789 2.29314212013e-38
0.0846907755863 -0.147478764383 0.789 2.26534077899e-38
0.0861509613723 -0.147478764383 0.789 2.34839013377e-38
0.0877221879024 -0.147665682969 0.79 2.34846047896e-38
0.0891842243674 -0.147665682969 0.79 2.28392381831e-38
0.0906462608325 -0.147665682969 0.79 2.34878866306e-38
0.0923414828603 -0.148039520141 0.792 2.3507307226e-38
0.0501404480346 -0.15194075162 0.821 1.84152996949e-38
0.0516598555508 -0.15194075162 0.821 1.97971509391e-38
0.053179263067 -0.15194075162 0.821 1.91539339245e-38
0.0546986705832 -0.15194075162 0.821 1.89699210154e-38
0.0560811278482 -0.151570615806 0.819 1.89684566585e-38
0.0575968340063 -0.151570615806 0.819 1.85074658975e-38
0.0589681871969 -0.151200479992 0.817 1.72171222456e-38
0.0604801919968 -0.151200479992 0.817 1.52824265273e-38
0.0607022734852 -0.148054325574 0.8 1.48211148689e-38
0.0620273596991 -0.14768418976 0.798 1.6203345865e-38
0.0635042015967 -0.14768418976 0.798 1.60214503179e-38
0.0648181837362 -0.147314053946 0.796 1.66661008608e-38
0.0661247631593 -0.146943918132 0.794 1.84160157584e-38
0.0675942023407 -0.146943918132 0.794 1.91532332753e-38
0.0688896776894 -0.146573782318 0.792 1.96160036853e-38
0.0701777503219 -0.146203646504 0.79 2.03546281059e-38
0.071639786787 -0.146203646504 0.79 1.97089083722e-38
0.073101823252 -0.146203646504 0.79 2.08149028034e-38
0.0744694750845 -0.146018578597 0.789 2.09978465218e-38
0.0759296608705 -0.146018578597 0.789 2.14584547283e-38
0.0773898466564 -0.146018578597 0.789 2.14570324104e-38
0.0788500324424 -0.146018578597 0.789 2.22878846906e-38
0.0803102182284 -0.146018578597 0.789 2.21031052712e-38
0.0817704040143 -0.146018578597 0.789 2.18250890572e-38
0.0832305898003 -0.146018578597 0.789 2.28385347313e-38
0.0846907755863 -0.146018578597 0.789 2.26552070571e-38
0.0862601514374 -0.146203646504 0.79 2.26552196688e-38
0.0877221879024 -0.146203646504 0.79 2.34871243242e-38
0.0891842243674 -0.146203646504 0.79 2.34864068594e-38
0.0906462608325 -0.146203646504 0.79 2.34892991394e-38
0.0925746684231 -0.146943918132 0.794 2.35076841753e-38
0.0945178814462 -0.14768418976 0.798 2.35098828126e-38
0.045582225486 -0.150421344104 0.821 1.25943773403e-38
0.0471016330022 -0.150421344104 0.821 1.79496678334e-38
0.0486210405184 -0.150421344104 0.821 1.78617882028e-38
0.0501404480346 -0.150421344104 0.821 1.86007657505e-38
0.0515340093741 -0.150054909648 0.819 1.86004126233e-38
0.0530497155321 -0.150054909648 0.819 1.96138414818e-38
0.0545654216902 -0.150054909648 0.819 1.90610222311e-38
0.0559441775971 -0.149688475192 0.817 1.89666686016e-38
0.0573155307877 -0.149322040736 0.815 1.78628293675e-38
0.0586794812621 -0.148955606281 0.813 1.77706519545e-38
0.0601840833457 -0.148955606281 0.813 1.61111334196e-38
0.0607022734852 -0.146573782318 0.8 1.61107802924e-38
0.0620273596991 -0.146207347862 0.798 1.59267365547e-38
0.0635042015967 -0.146207347862 0.798 1.6850137592e-38
0.0649810434943 -0.146207347862 0.798 1.79575459333e-38
0.0662913242756 -0.145840913406 0.796 1.76798828465e-38
0.0675942023407 -0.145474478951 0.794 1.83256207971e-38
0.069063641522 -0.145474478951 0.794 1.86922579286e-38
0.0703554155126 -0.145108044495 0.792 1.97060539272e-38
0.0718211533358 -0.145108044495 0.792 2.01688243373e-38
0.073101823252 -0.144741610039 0.79 1.99836973959e-38
0.074563859717 -0.144741610039 0.79 2.06294199321e-38
0.0760258961821 -0.144741610039 0.79 2.15506377465e-38
0.0774879326471 -0.144741610039 0.79 2.13662590984e-38
0.0789499691122 -0.144741610039 0.79 2.14577484739e-38
0.0804120055772 -0.144741610039 0.79 2.16414264727e-38
0.0818740420422 -0.144741610039 0.79 2.20094873234e-38
0.0833360785073 -0.144741610039 0.79 2.28388906611e-38
0.0847981149723 -0.144741610039 0.79 2.21931653222e-38
0.0862601514374 -0.144741610039 0.79 2.25630072233e-38
0.0877221879024 -0.144741610039 0.79 2.34860369166e-38
0.0891842243674 -0.144741610039 0.79 2.34892725147e-38
0.0906462608325 -0.144741610039 0.79 2.34928696479e-38
0.0925746684231 -0.145474478951 0.794 2.35087729842e-38
0.0945178814462 -0.146207347862 0.798 2.35098730035e-38
0.0985209002739 -0.150054909648 0.819 2.3509851984e-38
0.100036606432 -0.150054909648 0.819 2.35098491814e-38
0.045582225486 -0.148901936588 0.821 1.21391949614e-38
0.0471016330022 -0.148901936588 0.821 1.69401626106e-38
0.0486210405184 -0.148901936588 0.821 1.76798982608e-38
0.050018303216 -0.14853920349 0.819 1.83259683191e-38
0.0515340093741 -0.14853920349 0.819 1.88759050988e-38
0.0530497155321 -0.14853920349 0.819 1.84134976251e-38
0.0544321727972 -0.148176470392 0.817 1.92464854842e-38
0.0559441775971 -0.148176470392 0.817 1.85085224765e-38
0.0571748791784 -0.147451004197 0.813 1.81404882504e-38
0.0586794812621 -0.147451004197 0.813 1.82305539066e-38
0.0600360290201 -0.147088271099 0.811 1.77710246999e-38
0.0607022734852 -0.145093239062 0.8 1.67586285984e-38
0.0621828167409 -0.145093239062 0.8 1.71256300675e-38
0.0636633599967 -0.145093239062 0.8 1.67579251466e-38
0.0649810434943 -0.144730505965 0.798 1.69416171584e-38
0.0664578853919 -0.144730505965 0.798 1.85997119741e-38
0.0677644648151 -0.144367772867 0.796 1.85100120568e-38
0.0692376053545 -0.144367772867 0.796 1.97989502063e-38
0.0705330807033 -0.144005039769 0.794 1.97996592634e-38
0.0720025198846 -0.144005039769 0.794 1.97071105063e-38
0.073286891159 -0.143642306672 0.792 2.04439566791e-38
0.074563859717 -0.143279573574 0.79 2.11822433867e-38
0.0760258961821 -0.143279573574 0.79 2.05365180478e-38
0.0774879326471 -0.143279573574 0.79 2.20105719284e-38
0.0789499691122 -0.143279573574 0.79 2.08123818674e-38
0.0804120055772 -0.143279573574 0.79 2.20098530623e-38
0.0818740420422 -0.143279573574 0.79 2.2101653526e-38
0.0833360785073 -0.143279573574 0.79 2.31165467414e-38
0.0847981149723 -0.143279573574 0.79 2.30239853726e-38
0.0862601514374 -0.143279573574 0.79 2.34871145151e-38
0.0877221879024 -0.143279573574 0.79 2.34842866948e-38
0.0891842243674 -0.143279573574 0.79 2.34871089099e-38
0.0906462608325 -0.143279573574 0.79 2.34983108898e-38
0.0925746684231 -0.144005039769 0.794 2.35083974362e-38
0.0945178814462 -0.144730505965 0.798 2.35098772074e-38
0.0985209002739 -0.14853920349 0.819 2.35098589905e-38
0.100036606432 -0.14853920349 0.819 2.35098673983e-38
0.10155231259 -0.14853920349 0.819 2.35098505827e-38
0.0454711847418 -0.147023497332 0.819 1.5546027584e-38
0.0469868908999 -0.147023497332 0.819 1.83252228283e-38
0.0485025970579 -0.147023497332 0.819 1.74050910203e-38
0.0498961583974 -0.146664465592 0.817 1.78643091387e-38
0.0514081631973 -0.146664465592 0.817 1.95212773104e-38
0.0529201679972 -0.146664465592 0.817 1.97982103208e-38
0.0542989239041 -0.146305433853 0.815 1.86933089024e-38
0.0558072273459 -0.146305433853 0.815 1.86007601453e-38
0.0571748791784 -0.145946402113 0.813 1.86000412792e-38
0.0585351282946 -0.145587370374 0.811 1.7770283413e-38
0.0600360290201 -0.145587370374 0.811 1.74944153896e-38
0.0610816626945 -0.144510275155 0.805 1.73121765243e-38
0.0624160023037 -0.144151243416 0.803 1.73114492504e-38
0.0636633599967 -0.143612695806 0.8 1.85078218273e-38
0.0651439032524 -0.143612695806 0.8 1.79539459976e-38
0.0664578853919 -0.143253664067 0.798 1.78624944572e-38
0.0677644648151 -0.142894632327 0.796 1.94305292219e-38
0.0692376053545 -0.142894632327 0.796 1.9153217861e-38
0.070710745894 -0.142894632327 0.796 2.05358019843e-38
0.0721838864334 -0.142894632327 0.796 2.04450258698e-38
0.0734719590659 -0.142535600588 0.794 2.02588395468e-38
0.0747526289822 -0.142176568848 0.792 2.13659087738e-38
0.0762183668053 -0.142176568848 0.792 2.07201862376e-38
0.0776841046285 -0.142176568848 0.792 2.13641179144e-38
0.0791498424517 -0.142176568848 0.792 2.1825444987e-38
0.0806155802749 -0.142176568848 0.792 2.16396258042e-38
0.082081318098 -0.142176568848 0.792 2.24711647207e-38
0.0833360785073 -0.141817537109 0.79 2.26562790504e-38
0.0847981149723 -0.141817537109 0.79 2.32991401352e-38
0.0864785315676 -0.142176568848 0.792 2.27452502925e-38
0.0881663508791 -0.142535600588 0.794 2.34874718462e-38
0.0896357900604 -0.142535600588 0.794 2.34947109541e-38
0.0911052292418 -0.142535600588 0.794 2.35066093793e-38
0.0928078539859 -0.142894632327 0.796 2.35098575892e-38
0.0960576464322 -0.145587370374 0.811 2.35098533853e-38
0.0977991354368 -0.145946402113 0.813 2.35098463788e-38
0.0997923167948 -0.146664465592 0.817 2.35098463788e-38
0.101304321595 -0.146664465592 0.817 2.35098505827e-38
0.102816326395 -0.146664465592 0.817 2.35091106971e-38
0.104583724906 -0.147023497332 0.819 2.35091247101e-38
0.0454711847418 -0.145507791174 0.819 1.69361815216e-38
0.0469868908999 -0.145507791174 0.819 1.7494788135e-38
0.0483841535975 -0.145152460792 0.817 1.76798828465e-38
0.0498961583974 -0.145152460792 0.817 1.80486849841e-38
0.0512823170206 -0.144797130411 0.815 1.84178010126e-38
0.0527906204624 -0.144797130411 0.815 1.86003944064e-38
0.0541656750111 -0.14444180003 0.813 1.8967750404e-38
0.0556702770948 -0.14444180003 0.813 1.99826436194e-38
0.0570342275691 -0.144086469648 0.811 1.82312545559e-38
0.0585351282946 -0.144086469648 0.811 1.84152968923e-38
0.0598879746946 -0.143731139267 0.809 1.82312545559e-38
0.0610816626945 -0.143020478504 0.805 1.76802359737e-38
0.0625714593456 -0.143020478504 0.805 1.76802359737e-38
0.0639020975967 -0.142665148123 0.803 1.93368804455e-38
0.0653067630106 -0.142487482932 0.802 1.74926175236e-38
0.0666244465082 -0.142132152551 0.8 1.88759233157e-38
0.0679347272895 -0.141776822169 0.798 1.88766239649e-38
0.0694115691871 -0.141776822169 0.798 1.87837122715e-38
0.070710745894 -0.141421491788 0.796 2.04425259533e-38
0.0721838864334 -0.141421491788 0.796 2.05361495063e-38
0.0736570269729 -0.141421491788 0.796 2.11800853871e-38
0.0749413982473 -0.141066161407 0.794 2.09964073883e-38
0.0764108374286 -0.141066161407 0.794 2.14566792831e-38
0.0778802766099 -0.141066161407 0.794 2.23789690908e-38
0.0795495891307 -0.141421491788 0.796 2.21016591312e-38
0.0810227296702 -0.141421491788 0.796 2.28381816041e-38
0.0822885941539 -0.141066161407 0.794 2.27481243557e-38
0.0837580333352 -0.141066161407 0.794 2.25655281593e-38
0.0854421512886 -0.141421491788 0.796 2.34838915286e-38
0.086915291828 -0.141421491788 0.796 2.34824481912e-38
0.0886105138558 -0.141776822169 0.798 2.34929186933e-38
0.0905389214464 -0.142487482932 0.802 2.35029898254e-38
0.0921379081626 -0.142665148123 0.803 2.3509865997e-38
0.0943235601439 -0.143731139267 0.809 2.35098449775e-38
0.0960576464322 -0.144086469648 0.811 2.35098617931e-38
0.0977991354368 -0.14444180003 0.813 2.35098533853e-38
0.0995480271576 -0.144797130411 0.815 2.35098645957e-38
0.101056330599 -0.144797130411 0.815 2.35098267606e-38
0.102816326395 -0.145152460792 0.817 2.35098225567e-38
0.104583724906 -0.145507791174 0.819 2.35098309645e-38
0.0425434104536 -0.144343714039 0.821 2.35004394622e-38
0.0440628179698 -0.144343714039 0.821 1.05640037655e-38
0.0454711847418 -0.143992085016 0.819 1.7490821059e-38
0.0468721487976 -0.143640455993 0.817 1.74947685168e-38
0.0483841535975 -0.143640455993 0.817 1.8601481814e-38
0.0497740135788 -0.143288826969 0.815 1.75880781789e-38
0.0511564708438 -0.142937197946 0.813 1.91532150584e-38
0.0526610729275 -0.142937197946 0.813 1.88769742895e-38
0.0541656750111 -0.142937197946 0.813 1.90610194285e-38
0.0555333268436 -0.142585568923 0.811 1.8693311705e-38
0.0570342275691 -0.142585568923 0.811 1.91532150584e-38
0.0585351282946 -0.142585568923 0.811 1.83223992119e-38
0.0598879746946 -0.1422339399 0.809 1.87830060171e-38
0.0612334183782 -0.141882310876 0.807 1.85082015792e-38
0.0625714593456 -0.141530681853 0.805 1.8138002347e-38
0.0640612559967 -0.141530681853 0.805 1.81390813468e-38
0.0653881928896 -0.14117905283 0.803 1.90613851674e-38
0.0668742881826 -0.14117905283 0.803 1.86014692024e-38
0.0682752522383 -0.141003238318 0.802 1.97070936907e-38
0.0694115691871 -0.140299980272 0.798 1.95223493038e-38
0.0708884110847 -0.140299980272 0.798 2.02574102223e-38
0.0723652529823 -0.140299980272 0.798 2.0721240014e-38
0.0736570269729 -0.139948351249 0.796 2.10903798646e-38
0.0751301675124 -0.139948351249 0.796 2.12722712078e-38
0.0766033080518 -0.139948351249 0.796 2.13641151118e-38
0.0780764485913 -0.139948351249 0.796 2.31154747481e-38
0.0797494624703 -0.140299980272 0.798 2.13641179144e-38
0.0812263043679 -0.140299980272 0.798 2.2284294564e-38
0.0827031462655 -0.140299980272 0.798 2.34849901466e-38
0.0841799881631 -0.140299980272 0.798 2.34870850878e-38
0.0856568300607 -0.140299980272 0.798 2.34896606744e-38
0.0871336719583 -0.140299980272 0.798 2.34943045775e-38
0.0890546768326 -0.141003238318 0.802 2.35022471372e-38
0.0908775957162 -0.141530681853 0.805 2.35069653091e-38
0.0923673923673 -0.141530681853 0.805 2.35098267606e-38
0.0940903745811 -0.141882310876 0.807 2.35098351684e-38
0.0958207595113 -0.1422339399 0.809 2.35098407736e-38
0.0975585471577 -0.142585568923 0.811 2.35098309645e-38
0.0995480271576 -0.143288826969 0.815 2.3509851984e-38
0.101056330599 -0.143288826969 0.815 2.35098435762e-38
0.102816326395 -0.143640455993 0.817 2.3509851984e-38
0.104328331195 -0.143640455993 0.817 2.35076799714e-38
0.105840335994 -0.143640455993 0.817 2.35037100928e-38
0.107615137222 -0.143992085016 0.819 2.35018968126e-38
0.0425434104536 -0.142824306523 0.821 2.21132044293e-38
0.0440628179698 -0.142824306523 0.821 1.314431412e-38
0.0454711847418 -0.142476378858 0.819 1.65695696135e-38
0.0468721487976 -0.142128451193 0.817 1.74036420776e-38
0.0483841535975 -0.142128451193 0.817 1.70345106349e-38
0.0497740135788 -0.141780523527 0.815 1.83234501857e-38
0.0511564708438 -0.141432595862 0.813 1.83227341222e-38
0.0526610729275 -0.141432595862 0.813 1.92446834144e-38
0.0541656750111 -0.141432595862 0.813 1.90610222311e-38
0.0555333268436 -0.141084668197 0.811 1.96134701377e-38
0.0570342275691 -0.141084668197 0.811 1.92439813638e-38
0.0582464223598 -0.140388812867 0.807 1.89677532066e-38
0.059739920369 -0.140388812867 0.807 1.91524877845e-38
0.0610816626945 -0.140040885202 0.805 1.88755519716e-38
0.0625714593456 -0.140040885202 0.805 1.94283600119e-38
0.0640612559967 -0.140040885202 0.805 1.94283600119e-38
0.0653881928896 -0.139692957537 0.803 1.92443372936e-38
0.0668742881826 -0.139692957537 0.803 1.96134757429e-38
0.0683603834755 -0.139692957537 0.803 1.98900500208e-38
0.0697594968522 -0.139518993704 0.802 1.97975012637e-38
0.0710660762754 -0.139171066039 0.8 2.09038614338e-38
0.0725466195311 -0.139171066039 0.8 2.03517568453e-38
0.0740271627868 -0.139171066039 0.8 2.16406851858e-38
0.0753189367775 -0.138823138374 0.798 2.19177120831e-38
0.0767957786751 -0.138823138374 0.798 2.19180105597e-38
0.0782726205727 -0.138823138374 0.798 2.24693864729e-38
0.0797494624703 -0.138823138374 0.798 2.34860677451e-38
0.0814298790655 -0.139171066039 0.8 2.3484573961e-38
0.0829104223213 -0.139171066039 0.8 2.34917822403e-38
0.0846019429909 -0.139518993704 0.802 2.3490682221e-38
0.0860861876048 -0.139518993704 0.802 2.34965256356e-38
0.0876796222838 -0.139692957537 0.803 2.35065813534e-38
0.0891657175768 -0.139692957537 0.803 2.35069358819e-38
0.0908775957162 -0.140040885202 0.805 2.35097777152e-38
0.0923673923673 -0.140040885202 0.805 2.35098477801e-38
0.0940903745811 -0.140388812867 0.807 2.35098351684e-38
0.0955838725904 -0.140388812867 0.807 2.35098281619e-38
0.0975585471577 -0.141084668197 0.811 2.35098463788e-38
0.0993037375204 -0.141432595862 0.813 2.35098351684e-38
0.100808339604 -0.141432595862 0.813 2.35073198377e-38
0.102564634041 -0.141780523527 0.815 2.35094834425e-38
0.104328331195 -0.142128451193 0.817 2.35079798492e-38
0.105840335994 -0.142128451193 0.817 2.35090840724e-38
0.107352340794 -0.142128451193 0.817 2.35040562135e-38
0.0425434104536 -0.141304899007 0.821 1.7961173895e-38
0.0440628179698 -0.141304899007 0.821 1.58205013155e-38
0.0454711847418 -0.1409606727 0.819 1.61124926791e-38
0.0468721487976 -0.140616446393 0.817 1.68508410439e-38
0.0483841535975 -0.140616446393 0.817 1.78624916546e-38
0.0497740135788 -0.140272220086 0.815 1.83238033129e-38
0.0511564708438 -0.139927993779 0.813 1.85082015792e-38
0.0526610729275 -0.139927993779 0.813 1.92443316884e-38
0.0540324261181 -0.139583767472 0.811 1.90588698367e-38
0.0555333268436 -0.139583767472 0.811 2.02570570951e-38
0.0568935759598 -0.139239541165 0.809 1.95198704068e-38
0.0582464223598 -0.138895314858 0.807 1.98893339573e-38
0.059739920369 -0.138895314858 0.807 1.97978417793e-38
0.0610816626945 -0.138551088551 0.805 1.93361223431e-38
0.0625714593456 -0.138551088551 0.805 1.97967725885e-38
0.0640612559967 -0.138551088551 0.805 1.98900374091e-38
0.0653881928896 -0.138206862244 0.803 1.97070936907e-38
0.0668742881826 -0.138206862244 0.803 2.02592080882e-38
0.0683603834755 -0.138206862244 0.803 1.98900500208e-38
0.0697594968522 -0.13803474909 0.802 2.09971108401e-38
0.0712437414661 -0.13803474909 0.802 2.06269017988e-38
0.0727279860799 -0.13803474909 0.802 2.15503000335e-38
0.0742122306938 -0.13803474909 0.802 2.10871764963e-38
0.0756964753077 -0.13803474909 0.802 2.200772449e-38
0.0771807199216 -0.13803474909 0.802 2.3206581569e-38
0.0786649645354 -0.13803474909 0.802 2.33916790832e-38
0.0799493358098 -0.137690522784 0.8 2.34860495283e-38
0.0814298790655 -0.137690522784 0.8 2.34903949548e-38
0.0831176983771 -0.13803474909 0.802 2.34953947877e-38
0.0846019429909 -0.13803474909 0.802 2.34993506533e-38
0.0861935269909 -0.138206862244 0.803 2.35026380995e-38
0.0876796222838 -0.138206862244 0.803 2.3505138016e-38
0.0893877990651 -0.138551088551 0.805 2.3508767379e-38
0.0908775957162 -0.138551088551 0.805 2.35084128505e-38
0.0923673923673 -0.138551088551 0.805 2.35098421749e-38
0.0940903745811 -0.138895314858 0.807 2.35098477801e-38
0.0955838725904 -0.138895314858 0.807 2.35098463788e-38
0.0975585471577 -0.139583767472 0.811 2.35098267606e-38
0.0993037375204 -0.139927993779 0.813 2.35098183528e-38
0.100808339604 -0.139927993779 0.813 2.35098127476e-38
0.102312941688 -0.139927993779 0.813 2.3508391831e-38
0.104072937483 -0.140272220086 0.815 2.35080134804e-38
0.105840335994 -0.140616446393 0.817 2.35080120791e-38
0.107352340794 -0.140616446393 0.817 2.35019024178e-38
0.108864345594 -0.140616446393 0.817 2.34947277697e-38
0.0410240029374 -0.13978549149 0.821 2.35048171186e-38
0.0425434104536 -0.13978549149 0.821 1.65757241164e-38
0.0440628179698 -0.13978549149 0.821 1.5916972307e-38
0.0454711847418 -0.139444966542 0.819 1.53764494503e-38
0.0468721487976 -0.139104441593 0.817 1.768059891e-38
0.0483841535975 -0.139104441593 0.817 1.72178256974e-38
0.0497740135788 -0.138763916644 0.815 1.89688223974e-38
0.0511564708438 -0.138423391695 0.813 1.8507121178e-38
0.0525315253926 -0.138082866746 0.811 1.93354609302e-38
0.0540324261181 -0.138082866746 0.811 1.9151062664e-38
0.0553963765925 -0.137742341797 0.809 1.94290816806e-38
0.0568935759598 -0.137742341797 0.809 1.96134757429e-38
0.0582464223598 -0.137401816849 0.807 2.00737294209e-38
0.059739920369 -0.137401816849 0.807 2.0350309304e-38
0.0612334183782 -0.137401816849 0.807 2.09042089558e-38
0.0625714593456 -0.1370612919 0.805 1.98907562752e-38
0.0640612559967 -0.1370612919 0.805 2.08130881219e-38
0.0655510526477 -0.1370612919 0.805 1.98907857025e-38
0.0668742881826 -0.136720766951 0.803 2.0442876278e-38
0.0683603834755 -0.136720766951 0.803 2.1272638348e-38
0.0698464787685 -0.136720766951 0.803 2.07180184288e-38
0.0712437414661 -0.136550504477 0.802 2.17318242366e-38
0.0727279860799 -0.136550504477 0.802 2.26523063693e-38
0.0742122306938 -0.136550504477 0.802 2.3299082682e-38
0.0756964753077 -0.136550504477 0.802 2.34823893367e-38
0.0771807199216 -0.136550504477 0.802 2.34896690822e-38
0.0786649645354 -0.136550504477 0.802 2.34874928657e-38
0.0801492091493 -0.136550504477 0.802 2.34907452794e-38
0.0816334537632 -0.136550504477 0.802 2.3492531935e-38
0.083221336405 -0.136720766951 0.803 2.34964821953e-38
0.0847074316979 -0.136720766951 0.803 2.35004128375e-38
0.0864082057629 -0.1370612919 0.805 2.35037044876e-38
0.087898002414 -0.1370612919 0.805 2.35011779465e-38
0.0893877990651 -0.1370612919 0.805 2.35073156338e-38
0.0911033785627 -0.137401816849 0.807 2.3509410575e-38
0.0925968765719 -0.137401816849 0.807 2.35076589519e-38
0.0940903745811 -0.137401816849 0.807 2.35098491814e-38
0.0955838725904 -0.137401816849 0.807 2.35098267606e-38
0.0975585471577 -0.138082866746 0.811 2.35069540988e-38
0.0990594478832 -0.138082866746 0.811 2.3509114901e-38
0.100560348609 -0.138082866746 0.811 2.35098267606e-38
0.102312941688 -0.138423391695 0.813 2.35051520289e-38
0.104072937483 -0.138763916644 0.815 2.35076617545e-38
0.105581240925 -0.138763916644 0.815 2.35026254878e-38
0.107089544367 -0.138763916644 0.815 2.3501546488e-38
0.108597847808 -0.138763916644 0.815 2.34946913359e-38
0.0412238762769 -0.138939731156 0.825 2.35062282262e-38
0.0425434104536 -0.138266083974 0.821 1.42664795354e-38
0.0440628179698 -0.138266083974 0.821 1.58305430203e-38
0.0454711847418 -0.137929260384 0.819 1.62976896855e-38
0.0468721487976 -0.137592436793 0.817 1.67571810571e-38
0.048265710137 -0.137255613202 0.815 1.80479394934e-38
0.0496518687602 -0.136918789611 0.813 1.85989678846e-38
0.0511564708438 -0.136918789611 0.813 1.96138414818e-38
0.0525315253926 -0.136581966021 0.811 1.88759079014e-38
0.0540324261181 -0.136581966021 0.811 1.90592173587e-38
0.0553963765925 -0.13624514243 0.809 2.0905618662e-38
0.0567529243505 -0.135908318839 0.807 1.95223465012e-38
0.0582464223598 -0.135908318839 0.807 2.09038586312e-38
0.059739920369 -0.135908318839 0.807 2.06279695882e-38
0.0612334183782 -0.135908318839 0.807 2.00733790963e-38
0.0625714593456 -0.135571495249 0.805 2.0441791673e-38
0.0640612559967 -0.135571495249 0.805 2.14548646016e-38
0.0655510526477 -0.135571495249 0.805 2.13626689718e-38
0.0668742881826 -0.135234671658 0.803 2.16417543765e-38
0.0683603834755 -0.135234671658 0.803 2.20090949599e-38
0.0698464787685 -0.135234671658 0.803 2.22849405626e-38
0.0713325740614 -0.135234671658 0.803 2.31158306779e-38
0.0728186693543 -0.135234671658 0.803 2.34813818031e-38
0.0742122306938 -0.135066259863 0.802 2.3484264274e-38
0.0756964753077 -0.135066259863 0.802 2.3486409662e-38
0.0771807199216 -0.135066259863 0.802 2.34885774707e-38
0.0786649645354 -0.135066259863 0.802 2.34907116483e-38
0.0801492091493 -0.135066259863 0.802 2.3492531935e-38
0.0816334537632 -0.135066259863 0.802 2.34946717177e-38
0.083221336405 -0.135234671658 0.803 2.3496856342e-38
0.0847074316979 -0.135234671658 0.803 2.35004660869e-38
0.0864082057629 -0.135571495249 0.805 2.35029547929e-38
0.087898002414 -0.135571495249 0.805 2.35044177485e-38
0.0893877990651 -0.135571495249 0.805 2.35029870228e-38
0.0908775957162 -0.135571495249 0.805 2.35080274934e-38
0.0925968765719 -0.135908318839 0.807 2.3509086875e-38
0.0940903745811 -0.135908318839 0.807 2.35087659777e-38
0.0955838725904 -0.135908318839 0.807 2.35098197541e-38
0.0973179588787 -0.13624514243 0.809 2.35084002388e-38
0.0990594478832 -0.136581966021 0.811 2.35098211554e-38
0.100560348609 -0.136581966021 0.811 2.35051464237e-38
0.102312941688 -0.136918789611 0.813 2.35062296275e-38
0.104072937483 -0.137255613202 0.815 2.35019136282e-38
0.105581240925 -0.137255613202 0.815 2.34997332078e-38
0.107089544367 -0.137255613202 0.815 2.34997346091e-38
0.108331350022 -0.136918789611 0.813 2.34936277504e-38
0.109835952106 -0.136918789611 0.813 2.34957899539e-38
0.0396970660444 -0.137412920923 0.825 2.34954130046e-38
0.0412238762769 -0.137412920923 0.825 2.35033569656e-38
0.0425434104536 -0.136746676458 0.821 1.48185757161e-38
0.0439554785838 -0.136413554225 0.819 1.61067697762e-38
0.0454711847418 -0.136413554225 0.819 1.61143676165e-38
0.0468721487976 -0.136080431993 0.817 1.74032945556e-38
0.048265710137 -0.13574730976 0.815 1.74025728869e-38
0.0496518687602 -0.135414187528 0.813 1.85993182092e-38
0.0510306246671 -0.135081065295 0.811 1.8876258226e-38
0.0525315253926 -0.135081065295 0.811 1.9245033739e-38
0.0538991772251 -0.134747943063 0.809 1.94290760754e-38
0.0552594263413 -0.13441482083 0.807 1.94290970949e-38
0.0567529243505 -0.13441482083 0.807 2.03517568453e-38
0.0582464223598 -0.13441482083 0.807 2.05361495063e-38
0.059739920369 -0.13441482083 0.807 2.0259164648e-38
0.0612334183782 -0.13441482083 0.807 2.09024138925e-38
0.0625714593456 -0.134081698598 0.805 2.17318018158e-38
0.0640612559967 -0.134081698598 0.805 2.17324982612e-38
0.0655510526477 -0.134081698598 0.805 2.27473760623e-38
0.0670408492988 -0.134081698598 0.805 2.24722156945e-38
0.0683603834755 -0.133748576365 0.803 2.28388584312e-38
0.0698464787685 -0.133748576365 0.803 2.34860369166e-38
0.0713325740614 -0.133748576365 0.803 2.34838831208e-38
0.0728186693543 -0.133748576365 0.803 2.34853222544e-38
0.0742122306938 -0.133582015249 0.802 2.34874956683e-38
0.0756964753077 -0.133582015249 0.802 2.34889151836e-38
0.0771807199216 -0.133582015249 0.802 2.3494325597e-38
0.0787630505261 -0.133748576365 0.803 2.34892851264e-38
0.0802491458191 -0.133748576365 0.803 2.34921689987e-38
0.081735241112 -0.133748576365 0.803 2.34950472657e-38
0.083221336405 -0.133748576365 0.803 2.34982702522e-38
0.0847074316979 -0.133748576365 0.803 2.35004492713e-38
0.0864082057629 -0.134081698598 0.805 2.35047498563e-38
0.087898002414 -0.134081698598 0.805 2.35043897226e-38
0.0893877990651 -0.134081698598 0.805 2.35055037548e-38
0.0908775957162 -0.134081698598 0.805 2.3505147825e-38
0.0923673923673 -0.134081698598 0.805 2.35065827547e-38
0.0938571890184 -0.134081698598 0.805 2.35090812698e-38
0.0953469856695 -0.134081698598 0.805 2.35072763974e-38
0.0970773705996 -0.13441482083 0.807 2.35098141489e-38
0.098815158246 -0.134747943063 0.809 2.35051352134e-38
0.100560348609 -0.135081065295 0.811 2.35069428884e-38
0.102061249334 -0.135081065295 0.811 2.34997542273e-38
0.103817543771 -0.135414187528 0.813 2.35043911239e-38
0.105322145855 -0.135414187528 0.813 2.34989975261e-38
0.107089544367 -0.13574730976 0.815 2.34950752917e-38
0.108331350022 -0.135414187528 0.813 2.34900404263e-38
0.109835952106 -0.135414187528 0.813 2.34957703357e-38
0.0396008307328 -0.135556689816 0.823 2.34965158265e-38
0.0411239396072 -0.135556689816 0.823 2.35030164501e-38
0.0425434104536 -0.135227268942 0.821 1.5091896179e-38
0.0439554785838 -0.134897848067 0.819 1.61993381514e-38
0.0454711847418 -0.134897848067 0.819 1.62961874935e-38
0.0467574066952 -0.134239006319 0.815 1.6850137592e-38
0.048265710137 -0.134239006319 0.815 1.73096738052e-38
0.0496518687602 -0.133909585444 0.813 1.85082169934e-38
0.0510306246671 -0.13358016457 0.811 1.85085519038e-38
0.0525315253926 -0.13358016457 0.811 1.93361629807e-38
0.0538991772251 -0.133250743695 0.809 2.00740951598e-38
0.0552594263413 -0.132921322821 0.807 2.04432266026e-38
0.0567529243505 -0.132921322821 0.807 1.98922080204e-38
0.0582464223598 -0.132921322821 0.807 2.02588423493e-38
0.059739920369 -0.132921322821 0.807 2.20094578962e-38
0.0610816626945 -0.132591901947 0.805 2.1179366521e-38
0.0625714593456 -0.132591901947 0.805 2.21020486922e-38
0.0640612559967 -0.132591901947 0.805 2.17335940766e-38
0.0655510526477 -0.132591901947 0.805 2.22864175311e-38
0.0668742881826 -0.132262481072 0.803 2.31165341297e-38
0.0683603834755 -0.132262481072 0.803 2.3484587974e-38
0.0698464787685 -0.132262481072 0.803 2.34853124453e-38
0.0713325740614 -0.132262481072 0.803 2.34878319799e-38
0.0728186693543 -0.132262481072 0.803 2.3487480254e-38
0.0742122306938 -0.132097770635 0.802 2.34860593374e-38
0.0756964753077 -0.132097770635 0.802 2.34899955847e-38
0.0772769552332 -0.132262481072 0.803 2.34900095977e-38
0.0787630505261 -0.132262481072 0.803 2.34936193426e-38
0.0802491458191 -0.132262481072 0.803 2.34939584568e-38
0.081735241112 -0.132262481072 0.803 2.34957899539e-38
0.083221336405 -0.132262481072 0.803 2.34971786407e-38
0.0847074316979 -0.132262481072 0.803 2.35004772973e-38
0.0864082057629 -0.132591901947 0.805 2.35036820668e-38
0.087898002414 -0.132591901947 0.805 2.34990129404e-38
0.0893877990651 -0.132591901947 0.805 2.35004730934e-38
0.0908775957162 -0.132591901947 0.805 2.35033373474e-38
0.0923673923673 -0.132591901947 0.805 2.35058526782e-38
0.0938571890184 -0.132591901947 0.805 2.35076365311e-38
0.0953469856695 -0.132591901947 0.805 2.35054981497e-38
0.0970773705996 -0.132921322821 0.807 2.35044065382e-38
0.098815158246 -0.133250743695 0.809 2.35022653541e-38
0.100312357613 -0.133250743695 0.809 2.35065729456e-38
0.102061249334 -0.13358016457 0.811 2.35047680732e-38
0.103817543771 -0.133909585444 0.813 2.3499015743e-38
0.105322145855 -0.133909585444 0.813 2.35007939907e-38
0.106826747939 -0.133909585444 0.813 2.35007911881e-38
0.108331350022 -0.133909585444 0.813 2.34911040118e-38
0.109835952106 -0.133909585444 0.813 2.34983038833e-38
0.0396008307328 -0.134033580942 0.823 2.35008276219e-38
0.0411239396072 -0.134033580942 0.823 2.35048073095e-38
0.0425434104536 -0.133707861426 0.821 1.49071742128e-38
0.0439554785838 -0.133382141909 0.819 1.74018147844e-38
0.0453601439976 -0.133056422393 0.817 1.57430711676e-38
0.0467574066952 -0.132730702877 0.815 1.72189201115e-38
0.0481472666766 -0.132404983361 0.813 1.74951412622e-38
0.0496518687602 -0.132404983361 0.813 1.86014692024e-38
0.0510306246671 -0.132079263844 0.811 1.86014635972e-38
0.0525315253926 -0.132079263844 0.811 1.95209213806e-38
0.0538991772251 -0.131753544328 0.809 1.9244334491e-38
0.0552594263413 -0.131427824812 0.807 1.99811806638e-38
0.0567529243505 -0.131427824812 0.807 2.05361495063e-38
0.0581020693923 -0.131102105295 0.805 2.10896764127e-38
0.0595918660434 -0.131102105295 0.805 1.99826057844e-38
0.0610816626945 -0.131102105295 0.805 2.25608408159e-38
0.0625714593456 -0.131102105295 0.805 2.24697171794e-38
0.0640612559967 -0.131102105295 0.805 2.21012905897e-38
0.0653881928896 -0.130776385779 0.803 2.26534049873e-38
0.0668742881826 -0.130776385779 0.803 2.27448747445e-38
0.0683603834755 -0.130776385779 0.803 2.34853222544e-38
0.0698464787685 -0.130776385779 0.803 2.20083887054e-38
0.0713325740614 -0.130776385779 0.803 2.34896396549e-38
0.0728186693543 -0.130776385779 0.803 2.34881795019e-38
