# .PCD v0.7 - Point Cloud Data file format
VERSION 0.7
FIELDS x y z rgb
SIZE 4 4 4 4
TYPE F F F F
COUNT 1 1 1 1
WIDTH 854
HEIGHT 1
VIEWPOINT 0 0 0 1 0 0 0
POINTS 854
DATA ascii
0.0558127793831 -0.0180570756828 0.887 1.17240925212e-38
0.0574543317179 -0.0180570756828 0.887 1.22768991602e-38
0.0593623818388 -0.0181385055618 0.891 1.20021101366e-38
0.0610113368898 -0.0181385055618 0.891 1.3383657299e-38
0.0626602919409 -0.0181385055618 0.891 1.26453173421e-38
0.00829104223213 -0.0165820844643 0.896 1.06084347359e-38
0.00992704252972 -0.0165450708829 0.894 1.02421689485e-38
0.011581549618 -0.0165450708829 0.894 9.3248901841e-39
0.0131916404086 -0.0164895505108 0.891 9.6014728698e-39
0.0148405954597 -0.0164895505108 0.891 1.05223389582e-38
0.0164525369294 -0.0164525369294 0.889 9.78693752415e-39
0.0180977906223 -0.0164525369294 0.889 1.00645964071e-38
0.0196986280176 -0.016415523348 0.887 9.14408905104e-39
0.0212920626966 -0.0163785097666 0.885 1.01514096495e-38
0.0228521851523 -0.0163229893945 0.882 1.20778026744e-38
0.0244844840917 -0.0163229893945 0.882 1.74165522404e-38
0.0261167830312 -0.0163229893945 0.882 1.93501591498e-38
0.0276861588823 -0.0162859758131 0.88 2.19290583968e-38
0.0293147564636 -0.0162859758131 0.88 2.34935506789e-38
0.0309433540449 -0.0162859758131 0.88 2.3215919822e-38
0.0325719516262 -0.0162859758131 0.88 2.3491419304e-38
0.0342005492075 -0.0162859758131 0.88 2.33974145978e-38
0.0357477169098 -0.0162489622317 0.878 2.34942611373e-38
0.0373726131329 -0.0162489622317 0.878 2.34913884754e-38
0.0390863419515 -0.0162859758131 0.88 2.34002858584e-38
0.0407149395328 -0.0162859758131 0.88 2.21141979499e-38
0.0423435371141 -0.0162859758131 0.88 1.82455870366e-38
0.0439721346954 -0.0162859758131 0.88 1.60371883009e-38
0.0456007322767 -0.0162859758131 0.88 1.456529242e-38
0.047229329858 -0.0162859758131 0.88 1.26388601587e-38
0.0488579274393 -0.0162859758131 0.88 1.28300645316e-38
0.0506012671229 -0.0163229893945 0.882 1.1724809986e-38
0.0522335660624 -0.0163229893945 0.882 1.17255274509e-38
0.0540490822297 -0.0163785097666 0.885 1.16333332223e-38
0.0562532410017 -0.0165450708829 0.894 1.20021101366e-38
0.05790774809 -0.0165450708829 0.894 1.17251687185e-38
0.0595622551783 -0.0165450708829 0.894 1.19095571756e-38
0.0612167622666 -0.0165450708829 0.894 1.20925107031e-38
0.00672166638105 -0.0151237493574 0.908 1.04244050112e-38
0.00833730920887 -0.015007156576 0.901 1.08850202242e-38
0.00994925067855 -0.0149238760178 0.896 1.1532529416e-38
0.011607459125 -0.0149238760178 0.896 9.78406766489e-39
0.0132360567063 -0.0148905637946 0.894 1.01539207764e-38
0.0148405954597 -0.0148405954597 0.891 1.01546382412e-38
0.0164895505108 -0.0148405954597 0.891 9.97168471369e-39
0.0180977906223 -0.0148072832364 0.889 9.41816060989e-39
0.0196986280176 -0.0147739710132 0.887 1.0617403046e-38
0.0213401803524 -0.0147739710132 0.887 1.12620451812e-38
0.0229299136732 -0.0147406587899 0.885 1.0247908667e-38
0.0245677646499 -0.0147406587899 0.885 1.01589430301e-38
0.0261167830312 -0.014690690455 0.882 9.97096724887e-39
0.0277490819706 -0.014690690455 0.882 1.21757366215e-38
0.0293813809101 -0.014690690455 0.882 1.26316855106e-38
0.0310136798495 -0.014690690455 0.882 1.39202523161e-38
0.032645978789 -0.014690690455 0.882 1.46588823418e-38
0.0342782777284 -0.014690690455 0.882 1.57648543522e-38
0.0359105766679 -0.014690690455 0.882 1.42886704979e-38
0.0375428756073 -0.014690690455 0.882 1.49340300979e-38
0.0391751745468 -0.014690690455 0.882 1.38302104819e-38
0.0408074734862 -0.014690690455 0.882 1.29140079148e-38
0.0424397724257 -0.014690690455 0.882 1.19063285839e-38
0.0440720713651 -0.014690690455 0.882 1.21861398613e-38
0.0457043703046 -0.014690690455 0.882 1.23694521212e-38
0.047336669244 -0.014690690455 0.882 1.09872561575e-38
0.0489689681835 -0.014690690455 0.882 1.08954206614e-38
0.0507733802764 -0.0147406587899 0.885 1.13560330718e-38
0.0524112312531 -0.0147406587899 0.885 1.11730795443e-38
0.0545987339134 -0.0148905637946 0.894 1.11734382767e-38
0.0562532410017 -0.0148905637946 0.894 1.14489447652e-38
0.0581668431598 -0.0149571882411 0.898 1.21861398613e-38
0.0598287529643 -0.0149571882411 0.898 1.18166454822e-38
0.0614906627689 -0.0149571882411 0.898 1.32903182096e-38
0.00672166638105 -0.0134433327621 0.908 1.06034124822e-38
0.00835581599956 -0.0133693055993 0.903 1.00577804913e-38
0.0100047710506 -0.0133396947342 0.901 1.01510509171e-38
0.011633368632 -0.0132952784365 0.898 1.06109458627e-38
0.0132656675714 -0.0132656675714 0.896 1.02439920378e-38
0.0148905637946 -0.0132360567063 0.894 1.01549969736e-38
0.0165450708829 -0.0132360567063 0.894 1.06148919192e-38
0.0181385055618 -0.0131916404086 0.891 1.02446800753e-38
0.0197430443153 -0.0131620295435 0.889 9.60254906702e-39
0.0213401803524 -0.0131324186784 0.887 9.97132598128e-39
0.0229817326872 -0.0131324186784 0.887 1.02489848642e-38
0.024623285022 -0.0131324186784 0.887 9.97347837572e-39
0.0262648373568 -0.0131324186784 0.887 1.10780154565e-38
0.0279063896916 -0.0131324186784 0.887 1.08925508021e-38
0.0294813175799 -0.0131028078133 0.885 1.23662235295e-38
0.0311191685565 -0.0131028078133 0.885 1.13538806773e-38
0.0327570195332 -0.0131028078133 0.885 1.17240925212e-38
0.0343948705098 -0.0131028078133 0.885 1.06195554405e-38
0.0360327214865 -0.0131028078133 0.885 1.09883323547e-38
0.0376705724632 -0.0131028078133 0.885 1.15407802613e-38
0.0393084234398 -0.0131028078133 0.885 1.20013926717e-38
0.0409462744165 -0.0131028078133 0.885 1.15411389937e-38
0.0425841253931 -0.0131028078133 0.885 1.12641975756e-38
0.0443219130396 -0.0131324186784 0.887 1.18162867498e-38
0.0459634653743 -0.0131324186784 0.887 1.17240925212e-38
0.0476050177091 -0.0131324186784 0.887 1.12634801108e-38
0.0492465700439 -0.0131324186784 0.887 1.20932688056e-38
0.0510028644811 -0.0131620295435 0.889 1.16333332223e-38
0.0527665616345 -0.0131916404086 0.891 1.11730795443e-38
0.0548430235506 -0.0132952784365 0.898 1.17258861833e-38
0.0565049333552 -0.0132952784365 0.898 1.17237337888e-38
0.0581668431598 -0.0132952784365 0.898 1.23705283184e-38
0.0598287529643 -0.0132952784365 0.898 1.21857811289e-38
0.0625177896526 -0.0135173599249 0.913 1.23694521212e-38
0.00675867996244 -0.0118276899343 0.913 1.13309218033e-38
0.00838357618561 -0.0117370066599 0.906 9.8733920342e-39
0.0100269791995 -0.0116981423994 0.903 1.0426916138e-38
0.0116722328924 -0.0116722328924 0.901 1.10719170055e-38
0.0132952784365 -0.011633368632 0.898 1.06116633275e-38
0.0149238760178 -0.011607459125 0.896 9.78622005934e-39
0.0165820844643 -0.011607459125 0.896 1.05226976906e-38
0.0182402929107 -0.011607459125 0.896 9.50927864123e-39
0.0198540850594 -0.011581549618 0.894 1.0249702329e-38
0.021436415664 -0.0115426853575 0.891 1.02489848642e-38
0.0230335517011 -0.0115167758506 0.889 9.60362526424e-39
0.0246788053941 -0.0115167758506 0.889 1.0617403046e-38
0.0262648373568 -0.0114908663436 0.887 1.08021502356e-38
0.0279063896916 -0.0114908663436 0.887 1.02486261318e-38
0.0295479420264 -0.0114908663436 0.887 1.01560731708e-38
0.0311894943612 -0.0114908663436 0.887 1.11698509526e-38
0.032831046696 -0.0114908663436 0.887 1.07106734718e-38
0.0344725990308 -0.0114908663436 0.887 1.06191967081e-38
0.0361141513656 -0.0114908663436 0.887 1.07103147394e-38
0.0377557037004 -0.0114908663436 0.887 1.07103147394e-38
0.0393972560352 -0.0114908663436 0.887 1.0617403046e-38
0.04103880837 -0.0114908663436 0.887 1.10783741889e-38
0.0427765960164 -0.0115167758506 0.889 1.19084809784e-38
0.0444218497093 -0.0115167758506 0.889 1.03426140224e-38
0.0460671034023 -0.0115167758506 0.889 1.10794503861e-38
0.0477123570952 -0.0115167758506 0.889 1.08957793938e-38
0.0496352126486 -0.011581549618 0.894 1.12649150404e-38
0.0512897197369 -0.011581549618 0.894 1.16340506871e-38
0.0530626702856 -0.011607459125 0.896 1.12656325053e-38
0.0548430235506 -0.011633368632 0.898 1.20021101366e-38
0.0570083180621 -0.0117370066599 0.906 1.19088397108e-38
0.0586850332993 -0.0117370066599 0.906 1.22786928222e-38
0.0608281196619 -0.0118276899343 0.913 1.20946630975e-38
0.0625177896526 -0.0118276899343 0.913 1.14482273004e-38
0.0645590886664 -0.0118924637017 0.918 9.33134736743e-39
0.0662580120524 -0.0118924637017 0.918 2.35097412814e-38
0.006773485395 -0.0101602280925 0.915 1.74086615287e-38
0.00846685674374 -0.0101602280925 0.915 9.77043583343e-39
0.0101602280925 -0.0101602280925 0.915 9.96558626277e-39
0.0116981423994 -0.0100269791995 0.903 1.11637525017e-38
0.0133396947342 -0.0100047710506 0.901 1.09804402418e-38
0.0149571882411 -0.00997145882739 0.898 1.07989216439e-38
0.0166190980456 -0.00997145882739 0.898 1.06142136907e-38
0.0182402929107 -0.00994925067855 0.896 9.60362526424e-39
0.0198985013571 -0.00994925067855 0.896 9.9724021785e-39
0.0215085921477 -0.00992704252972 0.894 1.0249702329e-38
0.0230853707151 -0.00989373030646 0.891 1.02493435966e-38
0.0246788053941 -0.00987152215763 0.889 1.04319383917e-38
0.026324059087 -0.00987152215763 0.889 1.06170443136e-38
0.0279693127799 -0.00987152215763 0.889 1.05270024795e-38
0.0295479420264 -0.00984931400879 0.887 1.08017915032e-38
0.0311894943612 -0.00984931400879 0.887 1.0802508968e-38
0.0329050738588 -0.00987152215763 0.889 1.04330145889e-38
0.0345503275517 -0.00987152215763 0.889 1.02518547234e-38
0.0361141513656 -0.00984931400879 0.887 1.1357109269e-38
0.0377557037004 -0.00984931400879 0.887 1.07106734718e-38
0.0394860886305 -0.00987152215763 0.889 1.0895061929e-38
0.0411313423234 -0.00987152215763 0.889 1.07106734718e-38
0.0427765960164 -0.00987152215763 0.889 1.11730795443e-38
0.0445217863791 -0.00989373030646 0.891 1.18180804118e-38
0.0461707414302 -0.00989373030646 0.891 1.0895061929e-38
0.0478196964812 -0.00989373030646 0.891 1.12638388432e-38
0.0497462533928 -0.00994925067855 0.896 1.12631213784e-38
0.0515192039415 -0.00997145882739 0.898 1.21854223965e-38
0.0533587789368 -0.0100047710506 0.901 1.13560400783e-38
0.0550262407785 -0.0100047710506 0.901 1.12652737728e-38
0.0571341642389 -0.0100824995716 0.908 1.15414977261e-38
0.0588145808341 -0.0100824995716 0.908 1.1909915908e-38
0.0608281196619 -0.0101380199437 0.913 1.21857811289e-38
0.0625177896526 -0.0101380199437 0.913 1.07128258663e-38
0.0645590886664 -0.0101935403157 0.918 2.00109456445e-38
0.0662580120524 -0.0101935403157 0.918 2.35098225567e-38
0.0679569354383 -0.0101935403157 0.918 2.35098309645e-38
0.006773485395 -0.00846685674374 0.915 2.17361150125e-38
0.00846685674374 -0.00846685674374 0.915 1.35385974689e-38
0.0101602280925 -0.00846685674374 0.915 9.96164020629e-39
0.0117888256738 -0.008420589767 0.91 1.00588566886e-38
0.0134433327621 -0.00840208297631 0.908 9.87697935827e-39
0.015007156576 -0.00833730920887 0.901 9.8784142879e-39
0.0166746184177 -0.00833730920887 0.901 1.03383092335e-38
0.0182810078502 -0.00830954902282 0.898 1.01549969736e-38
0.0198985013571 -0.00829104223213 0.896 9.78693752415e-39
0.0215567098035 -0.00829104223213 0.896 1.02489848642e-38
0.02321491825 -0.00829104223213 0.896 9.88128414716e-39
0.0248176063243 -0.00827253544143 0.894 1.04333733213e-38
0.0264721134126 -0.00827253544143 0.894 1.03411790928e-38
0.0280322358683 -0.00824477525538 0.891 9.88307780919e-39
0.0296145664729 -0.00822626846469 0.889 1.00674662663e-38
0.0312598201658 -0.00822626846469 0.889 1.02493435966e-38
0.0329791010215 -0.00824477525538 0.891 1.07113909366e-38
0.0346280560726 -0.00824477525538 0.891 1.02522134559e-38
0.0362770111237 -0.00824477525538 0.891 9.05335497548e-39
0.0379259661748 -0.00824477525538 0.891 1.10801678509e-38
0.0395749212258 -0.00824477525538 0.891 1.09876148899e-38
0.0412238762769 -0.00824477525538 0.891 1.02522134559e-38
0.0430171842954 -0.00827253544143 0.894 1.0989408552e-38
0.0446716913837 -0.00827253544143 0.894 1.14482273004e-38
0.046326198472 -0.00827253544143 0.894 1.12620451812e-38
0.0480880449463 -0.00829104223213 0.896 1.20010339393e-38
0.0498572941369 -0.00830954902282 0.898 1.17255274509e-38
0.051691317095 -0.00833730920887 0.901 1.21864985937e-38
0.0534772223972 -0.00835581599956 0.903 1.11737970091e-38
0.0551483855971 -0.00835581599956 0.903 1.18187978766e-38
0.0571341642389 -0.00840208297631 0.908 1.18184391442e-38
0.058944128369 -0.008420589767 0.91 1.19091984432e-38
0.0608281196619 -0.00844834995305 0.913 1.06202729053e-38
0.0625177896526 -0.00844834995305 0.913 1.38421004994e-38
0.0645590886664 -0.00849461692979 0.918 2.35097665048e-38
0.0662580120524 -0.00849461692979 0.918 2.35058526782e-38
0.00701777503219 -0.00701777503219 0.948 2.15502818167e-38
0.00877221879024 -0.00701777503219 0.948 2.12773046719e-38
0.0105266625483 -0.00701777503219 0.948 1.16064927515e-38
0.0118924637017 -0.00679569354383 0.918 1.0979722777e-38
0.0135173599249 -0.00675867996244 0.913 9.41529075064e-39
0.0151570615806 -0.0067364718136 0.91 1.05219802258e-38
0.0167671523712 -0.00670686094849 0.906 1.0706368683e-38
0.0183420802595 -0.00666984736709 0.901 9.96989105165e-39
0.0199429176548 -0.00664763921826 0.898 1.00642376747e-38
0.0216048274593 -0.00664763921826 0.898 9.69402583077e-39
0.0232667372639 -0.00664763921826 0.898 1.06170443136e-38
0.0248731266964 -0.0066328337857 0.896 9.97347837572e-39
0.0265313351428 -0.0066328337857 0.896 1.04351669834e-38
0.0281895435892 -0.0066328337857 0.896 1.06191967081e-38
0.0297811275891 -0.00661802835314 0.894 1.03426140224e-38
0.0314356346774 -0.00661802835314 0.894 1.02507785262e-38
0.0330901417657 -0.00661802835314 0.894 1.07128258663e-38
0.034744648854 -0.00661802835314 0.894 9.97491330535e-39
0.0363991559423 -0.00661802835314 0.894 1.05284374091e-38
0.0380536630306 -0.00661802835314 0.894 1.06199141729e-38
0.0397081701189 -0.00661802835314 0.894 9.88271907678e-39
0.0413626772071 -0.00661802835314 0.894 1.1357109269e-38
0.0431134196071 -0.0066328337857 0.896 1.15414977261e-38
0.0447716280535 -0.0066328337857 0.896 1.08028677004e-38
0.0465334745278 -0.00664763921826 0.898 1.12631536083e-38
0.0483563934114 -0.00666984736709 0.901 1.15414977261e-38
0.0501348959974 -0.00668465279965 0.903 1.15414977261e-38
0.0519781723508 -0.00670686094849 0.906 1.13581854662e-38
0.0537733310484 -0.00672166638105 0.908 1.09922784112e-38
0.0554537476436 -0.00672166638105 0.908 1.07149782607e-38
0.0572600104156 -0.0067364718136 0.91 1.09922784112e-38
0.058944128369 -0.0067364718136 0.91 1.08964968586e-38
0.0608281196619 -0.00675867996244 0.913 1.24616463498e-38
0.0625177896526 -0.00675867996244 0.913 2.3508978975e-38
0.0646997402757 -0.00681049897639 0.92 2.35055247743e-38
0.0664023650198 -0.00681049897639 0.92 2.35065645378e-38
0.00701777503219 -0.00526333127414 0.948 2.04457153087e-38
0.00877221879024 -0.00526333127414 0.948 2.14588078555e-38
0.0105266625483 -0.00526333127414 0.948 2.00798601017e-38
0.0119572374691 -0.00512453034392 0.923 1.2622358468e-38
0.0135913870877 -0.00509677015787 0.918 9.68756864745e-39
0.0152403421387 -0.00508011404625 0.915 1.09800815094e-38
0.0168966999061 -0.00506900997183 0.913 1.09836688335e-38
0.0185863698967 -0.00506900997183 0.913 1.02471912022e-38
0.0200095421013 -0.00500238552532 0.901 9.60183160221e-39
0.0216048274593 -0.00498572941369 0.898 1.0615609384e-38
0.0232667372639 -0.00498572941369 0.898 1.03401028955e-38
0.0249286470685 -0.00498572941369 0.898 1.05266437471e-38
0.0265313351428 -0.00497462533928 0.896 1.02486261318e-38
0.0281895435892 -0.00497462533928 0.896 1.04344495185e-38
0.0298477520357 -0.00497462533928 0.896 9.97455457294e-39
0.0315059604821 -0.00497462533928 0.896 9.88415400641e-39
0.0331641689285 -0.00497462533928 0.896 1.05270024795e-38
0.0348223773749 -0.00497462533928 0.896 1.12631213784e-38
0.0364805858214 -0.00497462533928 0.896 1.11709271498e-38
0.0381387942678 -0.00497462533928 0.896 1.07117496691e-38
0.0398858353096 -0.00498572941369 0.898 1.06191967081e-38
0.0415477451141 -0.00498572941369 0.898 1.10805265833e-38
0.0433540078861 -0.00500238552532 0.901 1.13560330718e-38
0.0450214697279 -0.00500238552532 0.901 1.07128258663e-38
0.0466889315697 -0.00500238552532 0.901 1.03451251492e-38
0.0484637327975 -0.00501348959974 0.903 1.0989408552e-38
0.0503014571137 -0.00503014571137 0.906 1.15414977261e-38
0.0520929144531 -0.00504124978578 0.908 1.13585441986e-38
0.0537733310484 -0.00504124978578 0.908 1.12659912377e-38
0.0555758924622 -0.0050523538602 0.91 1.20021101366e-38
0.0574487796807 -0.00506900997183 0.913 1.03444076844e-38
0.0591384496713 -0.00506900997183 0.913 1.13560330718e-38
0.060961368555 -0.00508011404625 0.915 2.3507936409e-38
0.0628601652804 -0.00509677015787 0.918 2.35051001809e-38
0.0649107176896 -0.00512453034392 0.923 2.35062016015e-38
0.00526333127414 -0.0035088875161 0.948 1.97996438491e-38
0.00701777503219 -0.0035088875161 0.948 2.14595309255e-38
0.00875371199954 -0.00350148479982 0.946 2.09059815984e-38
0.0104378299529 -0.00347927665098 0.94 2.30243356973e-38
0.0119831469761 -0.00342375627889 0.925 2.21985379005e-38
0.0135913870877 -0.00339784677192 0.918 1.42797021878e-38
0.0152903104736 -0.00339784677192 0.918 1.00538344349e-38
0.0169337134875 -0.0033867426975 0.915 9.97096724887e-39
0.0186270848362 -0.0033867426975 0.915 1.01549969736e-38
0.0202094154408 -0.0033682359068 0.91 1.03393854307e-38
0.0218454157384 -0.00336083319052 0.908 1.04319383917e-38
0.0234740133197 -0.00335343047424 0.906 1.05252088175e-38
0.0250674479987 -0.00334232639983 0.903 1.06181205109e-38
0.0267386111986 -0.00334232639983 0.903 1.14475098355e-38
0.0283468513102 -0.00333492368355 0.901 9.60577765868e-39
0.0300143131519 -0.00333492368355 0.901 1.0989408552e-38
0.0316817749937 -0.00333492368355 0.901 1.06202729053e-38
0.0333492368355 -0.00333492368355 0.901 1.00674662663e-38
0.0350166986772 -0.00333492368355 0.901 1.08943444641e-38
0.036684160519 -0.00333492368355 0.901 1.08021502356e-38
0.0383516223608 -0.00333492368355 0.901 1.10801678509e-38
0.0400190842026 -0.00333492368355 0.901 1.10798091185e-38
0.0416865460443 -0.00333492368355 0.901 1.09883323547e-38
0.0434502431977 -0.00334232639983 0.903 1.06195554405e-38
0.0451214063976 -0.00334232639983 0.903 1.0989408552e-38
0.0467925695976 -0.00334232639983 0.903 1.05316660008e-38
0.0486247418765 -0.00335343047424 0.906 1.11737970091e-38
0.0504124978578 -0.00336083319052 0.908 1.13574680014e-38
0.0522076565554 -0.0033682359068 0.91 1.14485860328e-38
0.0538917745088 -0.0033682359068 0.91 1.08972143234e-38
0.0557591096901 -0.00337933998122 0.913 9.97527203775e-39
0.0575746258575 -0.0033867426975 0.915 1.44823930041e-38
0.0592679972062 -0.0033867426975 0.915 2.35047050147e-38
0.0611612418945 -0.00339784677192 0.918 2.35047372446e-38
0.0629971155316 -0.00340524948819 0.92 2.35058624873e-38
0.0650513692989 -0.00342375627889 0.925 2.3506542117e-38
0.00526333127414 -0.00175444375805 0.948 2.08156034526e-38
0.00701777503219 -0.00175444375805 0.948 2.07194645689e-38
0.00875371199954 -0.00175074239991 0.946 2.13651716908e-38
0.0104378299529 -0.00173963832549 0.94 2.11807790298e-38
0.0120479207436 -0.00172113153479 0.93 2.30236168311e-38
0.0137394414132 -0.00171743017665 0.928 2.21974687098e-38
0.015406903255 -0.00171187813945 0.925 1.59367390231e-38
0.0169892338596 -0.00169892338596 0.918 1.08792777031e-38
0.0186270848362 -0.00169337134875 0.915 9.23341342035e-39
0.0202760398873 -0.00168966999061 0.913 9.60254906702e-39
0.0218935333942 -0.0016841179534 0.91 1.00638789423e-38
0.0234740133197 -0.00167671523712 0.906 1.03411790928e-38
0.0250674479987 -0.00167116319991 0.903 9.88128414716e-39
0.0267386111986 -0.00167116319991 0.903 1.05270024795e-38
0.0283468513102 -0.00166746184177 0.901 1.04355257158e-38
0.0300143131519 -0.00166746184177 0.901 1.09890498196e-38
0.0317521007983 -0.00167116319991 0.903 9.6064951235e-39
0.0334232639983 -0.00167116319991 0.903 1.08046613624e-38
0.0350944271982 -0.00167116319991 0.903 1.10798091185e-38
0.0367655903981 -0.00167116319991 0.903 1.10798091185e-38
0.0383516223608 -0.00166746184177 0.901 1.12638388432e-38
0.0400190842026 -0.00166746184177 0.901 1.09883323547e-38
0.041917880928 -0.00167671523712 0.906 1.05273612119e-38
0.0435945961652 -0.00167671523712 0.906 1.15404243315e-38
0.0452713114023 -0.00167671523712 0.906 1.0989408552e-38
0.0469480266394 -0.00167671523712 0.906 1.05305982114e-38
0.0487320812626 -0.00168041659526 0.908 1.19095571756e-38
0.050523538602 -0.0016841179534 0.91 1.16336919547e-38
0.0523797697089 -0.00168966999061 0.913 1.08028677004e-38
0.0540694396995 -0.00168966999061 0.913 1.09872561575e-38
0.0558812545087 -0.00169337134875 0.915 1.79796822452e-38
0.0578892412993 -0.0017026247441 0.92 2.35050315173e-38
0.0595918660434 -0.0017026247441 0.92 2.35026395008e-38
0.06162761302 -0.00171187813945 0.925 2.35000821311e-38
0.0640242424153 -0.00173038493014 0.935 2.35007967933e-38
0.00527998738577 0.0 0.951 2.03517596479e-38
0.00703998318103 0.0 0.951 2.0813069905e-38
0.00877221879024 0.0 0.948 2.05357725571e-38
0.0104378299529 0.0 0.94 2.13651688882e-38
0.012112694511 0.0 0.935 2.19186971959e-38
0.0137690522784 0.0 0.93 2.27473788649e-38
0.015406903255 0.0 0.925 2.27488278075e-38
0.0171187813945 0.0 0.925 2.07270049559e-38
0.0187899445944 0.0 0.923 1.4467677969e-38
0.0204981213757 0.0 0.923 1.16197013908e-38
0.0220860040175 0.0 0.918 9.87733809068e-39
0.0237849274034 0.0 0.918 1.06163268488e-38
0.0254005702312 0.0 0.915 1.0617403046e-38
0.0270347198498 0.0 0.913 1.02493435966e-38
0.0287243898404 0.0 0.913 1.01593017625e-38
0.030414059831 0.0 0.913 1.1355315607e-38
0.0321740556262 0.0 0.915 1.05270024795e-38
0.033867426975 0.0 0.915 1.06191967081e-38
0.0355607983237 0.0 0.915 1.0896855591e-38
0.0371727397934 0.0 0.913 1.09879736223e-38
0.038862409784 0.0 0.913 1.0896855591e-38
0.04064091237 0.0 0.915 1.08961381262e-38
0.0422417497652 0.0 0.913 1.12638388432e-38
0.0439314197559 0.0 0.913 1.0989408552e-38
0.0456210897465 0.0 0.913 1.07128258663e-38
0.0471553026952 0.0 0.91 1.09904847492e-38
0.0488394206486 0.0 0.91 1.08975730558e-38
0.0506900997183 0.0 0.913 1.14485860328e-38
0.0523797697089 0.0 0.913 1.42050858471e-38
0.0540694396995 0.0 0.913 2.21192356179e-38
0.0560644717366 0.0 0.918 2.35036736591e-38
0.0578892412993 0.0 0.92 2.35011387101e-38
0.0595918660434 0.0 0.92 2.35000905389e-38
0.06162761302 0.0 0.925 2.35004534752e-38
0.0640242424153 0.0 0.935 2.35072777987e-38
0.0052966434974 0.00176554783247 0.954 2.10889701583e-38
0.00703998318103 0.00175999579526 0.951 2.09978297062e-38
0.00877221879024 0.00175444375805 0.948 2.09971080375e-38
0.0105044543995 0.00175074239991 0.946 2.15492056194e-38
0.0121515587715 0.00173593696735 0.938 2.17343031336e-38
0.013813468576 0.001726683572 0.933 2.21949225505e-38
0.0154901838131 0.00172113153479 0.93 2.27470285403e-38
0.0171743017665 0.00171743017665 0.928 2.3116897066e-38
0.0188306595339 0.00171187813945 0.925 2.33030651722e-38
0.0205425376733 0.00171187813945 0.925 1.99890699742e-38
0.022206298157 0.00170817678131 0.923 1.62168571848e-38
0.0238367464174 0.0017026247441 0.92 1.24472970535e-38
0.0254838507894 0.00169892338596 0.918 1.05198278314e-38
0.0271827741753 0.00169892338596 0.918 9.9724021785e-39
0.0287873129287 0.00169337134875 0.915 9.60541892627e-39
0.0304806842775 0.00169337134875 0.915 1.03415378252e-38
0.0321740556262 0.00169337134875 0.915 1.06199141729e-38
0.033867426975 0.00169337134875 0.915 1.03444076844e-38
0.0355607983237 0.00169337134875 0.915 1.07117496691e-38
0.0372541696725 0.00169337134875 0.915 1.02518547234e-38
0.0389475410212 0.00169337134875 0.915 1.11730795443e-38
0.040774161263 0.00169892338596 0.918 1.10798091185e-38
0.0423342837187 0.00169337134875 0.915 1.09876148899e-38
0.0440276550675 0.00169337134875 0.915 1.0895061929e-38
0.0458709314209 0.00169892338596 0.918 1.08028677004e-38
0.0475698548068 0.00169892338596 0.918 1.17233750564e-38
0.0492687781928 0.00169892338596 0.918 1.50323227774e-38
0.0510787423229 0.0017026247441 0.92 2.20279942722e-38
0.0530682223228 0.00171187813945 0.925 2.35021910853e-38
0.054957765653 0.00171743017665 0.928 2.34986654183e-38
0.0567973406482 0.00172113153479 0.93 2.34975808133e-38
0.058518472183 0.00172113153479 0.93 2.34979255328e-38
0.0604339250201 0.001726683572 0.933 2.34975583926e-38
0.0622938574851 0.00173038493014 0.935 2.35015086529e-38
0.0645720434199 0.0017451903627 0.943 2.35054771302e-38
0.00703998318103 0.00351999159051 0.951 2.00751643505e-38
0.00877221879024 0.0035088875161 0.948 2.09052683374e-38
0.0105044543995 0.00350148479982 0.946 2.18268645024e-38
0.0121774682784 0.00347927665098 0.94 2.12733277869e-38
0.0138874957388 0.0034718739347 0.938 2.22871237856e-38
0.0156234327062 0.0034718739347 0.938 2.25647644516e-38
0.0172113153479 0.00344226306959 0.93 2.26569656867e-38
0.0189324468827 0.00344226306959 0.93 2.31161431674e-38
0.0206535784175 0.00344226306959 0.93 2.3487090693e-38
0.0223265922965 0.00343486035331 0.928 2.34907228586e-38
0.0239662939522 0.00342375627889 0.925 2.17414875908e-38
0.0256781720917 0.00342375627889 0.925 1.88876241579e-38
0.0272419959056 0.00340524948819 0.92 1.63112038078e-38
0.0289446206497 0.00340524948819 0.92 1.42886704979e-38
0.0306472453938 0.00340524948819 0.92 1.24519605748e-38
0.0323498701378 0.00340524948819 0.92 1.17179940703e-38
0.0339784677192 0.00339784677192 0.918 1.13495758885e-38
0.0356773911051 0.00339784677192 0.918 1.06152506516e-38
0.0373763144911 0.00339784677192 0.918 1.09851037631e-38
0.039075237877 0.00339784677192 0.918 1.1260968984e-38
0.040774161263 0.00339784677192 0.918 1.2639936356e-38
0.042473084649 0.00339784677192 0.918 1.30969614423e-38
0.0441720080349 0.00339784677192 0.918 1.65924598239e-38
0.0459708680906 0.00340524948819 0.92 2.02738782819e-38
0.0476734928347 0.00340524948819 0.92 2.33120138642e-38
0.0495371266579 0.00341635356261 0.923 2.35007491492e-38
0.0513563441834 0.00342375627889 0.925 2.35007925894e-38
0.0532403354763 0.00343486035331 0.928 2.34968507368e-38
0.0550762091134 0.00344226306959 0.93 2.34954116033e-38
0.0569805578761 0.00345336714401 0.933 2.34993828832e-38
0.0587072414481 0.00345336714401 0.933 2.34997093857e-38
0.0607577938573 0.0034718739347 0.938 2.35032854994e-38
0.0628268530572 0.0034903807254 0.943 2.35061693716e-38
0.0647774687966 0.00350148479982 0.946 2.35026240865e-38
0.00703998318103 0.00527998738577 0.951 2.17364709423e-38
0.00877221879024 0.00526333127414 0.948 2.17350065854e-38
0.0105044543995 0.00525222719973 0.946 2.03524630997e-38
0.0121774682784 0.00521891497647 0.94 2.24700899248e-38
0.0138874957388 0.00520781090205 0.938 2.28399388323e-38
0.0156234327062 0.00520781090205 0.938 2.13658905569e-38
0.01726683572 0.00518005071601 0.933 2.22878524608e-38
0.018993519292 0.00518005071601 0.933 2.30243384999e-38
0.020720202864 0.00518005071601 0.933 2.34853138466e-38
0.0223747099523 0.00516339460438 0.93 2.34853236557e-38
0.0240440224732 0.00515229052996 0.928 2.34874620371e-38
0.0257614526498 0.00515229052996 0.928 2.34899829731e-38
0.0273900502311 0.00513563441834 0.925 2.34917906481e-38
0.0290390052822 0.00512453034392 0.923 2.33985132158e-38
0.0306472453938 0.00510787423229 0.92 2.31251437075e-38
0.0323498701378 0.00510787423229 0.92 2.16532394187e-38
0.0339784677192 0.00509677015787 0.918 2.10074930604e-38
0.0356773911051 0.00509677015787 0.918 2.15610017499e-38
0.0373763144911 0.00509677015787 0.918 2.18379445693e-38
0.039075237877 0.00509677015787 0.918 2.25758753471e-38
0.0408629938583 0.00510787423229 0.92 2.29432355486e-38
0.0425656186024 0.00510787423229 0.92 2.35003848116e-38
0.0442682433465 0.00510787423229 0.92 2.34957507175e-38
0.046220709765 0.00513563441834 0.925 2.34989751053e-38
0.0479325879045 0.00513563441834 0.925 2.34982800613e-38
0.049805475123 0.00515229052996 0.928 2.3496818507e-38
0.0518005071601 0.00518005071601 0.933 2.35000751246e-38
0.0535271907321 0.00518005071601 0.933 2.34939542529e-38
0.0553723177646 0.00519115479043 0.935 2.34975289653e-38
0.0571027026947 0.00519115479043 0.935 2.34986710235e-38
0.0588330876248 0.00519115479043 0.935 2.35015240672e-38
0.0607577938573 0.00520781090205 0.938 2.35004506726e-38
0.0630267263967 0.00525222719973 0.946 2.35062016015e-38
0.0649144190478 0.00526333127414 0.948 2.35044219524e-38
0.00703998318103 0.00703998318103 0.951 2.08148649683e-38
0.00877221879024 0.00701777503219 0.948 2.15509880711e-38
0.0105266625483 0.00701777503219 0.948 2.09963821649e-38
0.0122163325389 0.0069807614508 0.943 2.22863993143e-38
0.0139171066039 0.00695855330196 0.94 2.1640329256e-38
0.0156234327062 0.00694374786941 0.938 2.28399444375e-38
0.0173038493014 0.00692153972057 0.935 2.21956540283e-38
0.018993519292 0.00690673428801 0.933 2.33916916949e-38
0.020720202864 0.00690673428801 0.933 2.3117234779e-38
0.022446886436 0.00690673428801 0.933 2.3486034114e-38
0.0240958414871 0.00688452613918 0.93 2.34888941642e-38
0.0258169730219 0.00688452613918 0.93 2.34856571647e-38
0.0275381045567 0.00688452613918 0.93 2.34863942477e-38
0.0291963130031 0.00686972070662 0.928 2.34874648397e-38
0.0309137431798 0.00686972070662 0.928 2.34939346347e-38
0.0325256846495 0.00684751255778 0.925 2.34892641069e-38
0.0341635356261 0.00683270712523 0.923 2.34928766544e-38
0.0358717124074 0.00683270712523 0.923 2.34935773036e-38
0.0375798891887 0.00683270712523 0.923 2.34968072966e-38
0.0391603691142 0.00681049897639 0.92 2.34968199083e-38
0.0408629938583 0.00681049897639 0.92 2.34943045775e-38
0.0427044195327 0.00683270712523 0.923 2.34950304501e-38
0.044412596314 0.00683270712523 0.923 2.34954031955e-38
0.046220709765 0.00684751255778 0.925 2.34953765708e-38
0.0481916829742 0.00688452613918 0.93 2.34943087814e-38
0.0501811629741 0.00692153972057 0.935 2.34964737875e-38
0.0519115479043 0.00692153972057 0.935 2.34953975903e-38
0.0536419328344 0.00692153972057 0.935 2.34946773229e-38
0.0555499829552 0.00694374786941 0.938 2.34968409277e-38
0.0572859199226 0.00694374786941 0.938 2.34961234629e-38
0.0590218568899 0.00694374786941 0.938 2.34982730548e-38
0.0614055315317 0.00701777503219 0.948 2.35047512576e-38
0.0633598486293 0.00703998318103 0.951 2.35025988631e-38
0.0651198444245 0.00703998318103 0.951 2.35055023536e-38
0.00877221879024 0.00877221879024 0.948 2.14584365114e-38
0.0105266625483 0.00877221879024 0.948 2.12736753089e-38
0.0122551967994 0.00875371199954 0.946 2.13654799765e-38
0.0139615229016 0.0087259518135 0.943 2.25615624846e-38
0.0157067132643 0.0087259518135 0.943 2.19172650689e-38
0.0173963832549 0.00869819162745 0.94 2.27456006171e-38
0.0190953066409 0.00867968483676 0.938 2.32072822183e-38
0.0208312436082 0.00867968483676 0.938 2.32998281727e-38
0.0224950040919 0.00865192465071 0.935 2.34878445916e-38
0.024173570008 0.00863341786002 0.933 2.34889067758e-38
0.02590025358 0.00863341786002 0.933 2.34834991651e-38
0.027626937152 0.00863341786002 0.933 2.34878473942e-38
0.0292592360915 0.00860565767397 0.93 2.34903332977e-38
0.0309803676263 0.00860565767397 0.93 2.34903417055e-38
0.0326311733564 0.00858715088327 0.928 2.34918018585e-38
0.0342375627889 0.00855939069723 0.925 2.34932115647e-38
0.0358717124074 0.00854088390653 0.923 2.34903276925e-38
0.0375798891887 0.00854088390653 0.923 2.34928542336e-38
0.03928806597 0.00854088390653 0.923 2.34921774065e-38
0.0409962427514 0.00854088390653 0.923 2.34921437753e-38
0.0427969534861 0.00855939069723 0.925 2.34946577047e-38
0.0445088316256 0.00855939069723 0.925 2.34964457616e-38
0.0466204564441 0.00863341786002 0.933 2.34943087814e-38
0.048450778044 0.00865192465071 0.935 2.34950430618e-38
0.0501811629741 0.00865192465071 0.935 2.34964793927e-38
0.0519115479043 0.00865192465071 0.935 2.34982590418e-38
0.0538140459879 0.00867968483676 0.938 2.34975485835e-38
0.0555499829552 0.00867968483676 0.938 2.34990115391e-38
0.057774499197 0.00875371199954 0.946 2.3501504449e-38
0.0596510877736 0.00877221879024 0.948 2.35029309709e-38
0.0614055315317 0.00877221879024 0.948 2.35061889898e-38
0.0633598486293 0.00879997897629 0.951 2.34982898704e-38
0.0653252698012 0.00882773916233 0.954 2.35098449775e-38
0.00877221879024 0.0105266625483 0.948 2.04450104555e-38
0.0105266625483 0.0105266625483 0.948 2.14584841556e-38
0.0122811063063 0.0105266625483 0.948 2.21945694233e-38
0.0140059391993 0.0105044543995 0.946 2.18239918405e-38
0.0157566815992 0.0105044543995 0.946 2.25618973949e-38
0.017451903627 0.0104711421762 0.943 2.28374235016e-38
0.0191360215804 0.0104378299529 0.94 2.31140145951e-38
0.0208312436082 0.0104156218041 0.938 2.34874620371e-38
0.0225671805756 0.0104156218041 0.938 2.3486034114e-38
0.024225389022 0.0103823095809 0.935 2.34892921329e-38
0.0259557739521 0.0103823095809 0.935 2.34863788334e-38
0.0277749914776 0.0104156218041 0.938 2.34899941834e-38
0.0294165438124 0.0103823095809 0.935 2.34888927629e-38
0.0311469287426 0.0103823095809 0.935 2.34903389029e-38
0.0328069878681 0.010360101432 0.933 2.34939486477e-38
0.0344226306959 0.0103267892088 0.93 2.34896186355e-38
0.0361437622307 0.0103267892088 0.93 2.3492865444e-38
0.0379870385841 0.010360101432 0.933 2.3492865444e-38
0.0397137221561 0.010360101432 0.933 2.34914066923e-38
0.0414404057281 0.010360101432 0.933 2.34932185712e-38
0.0431670893001 0.010360101432 0.933 2.34954172085e-38
0.0448937728721 0.010360101432 0.933 2.34960632071e-38
0.0467203931138 0.0103823095809 0.935 2.34960912331e-38
0.048450778044 0.0103823095809 0.935 2.34946647112e-38
0.0503421720532 0.0104156218041 0.938 2.34946619086e-38
0.0520781090205 0.0104156218041 0.938 2.3497180042e-38
0.0539287880902 0.0104378299529 0.94 2.34982758574e-38
0.0556684264157 0.0104378299529 0.94 2.3498987717e-38
0.057774499197 0.0105044543995 0.946 2.34989933222e-38
0.0596510877736 0.0105266625483 0.948 2.35029421813e-38
0.0614055315317 0.0105266625483 0.948 2.35054743276e-38
0.0635597219688 0.0105932869948 0.954 2.35051604367e-38
0.0653252698012 0.0105932869948 0.954 2.35098225567e-38
0.0105266625483 0.0122811063063 0.948 2.15499441037e-38
0.0122811063063 0.0122811063063 0.948 2.19183412661e-38
0.0140355500644 0.0122811063063 0.948 2.34842544649e-38
0.0157899938224 0.0122811063063 0.948 2.31154229e-38
0.0175074239991 0.0122551967994 0.946 2.32998491922e-38
0.0191970939897 0.0122163325389 0.943 2.33923769298e-38
0.0208756599059 0.0121774682784 0.94 2.30246734102e-38
0.0225671805756 0.0121515587715 0.938 2.34856739803e-38
0.0243031175429 0.0121515587715 0.938 2.34871145151e-38
0.0260390545103 0.0121515587715 0.938 2.34870682723e-38
0.0277749914776 0.0121515587715 0.938 2.34856655725e-38
0.029510928445 0.0121515587715 0.938 2.34871033047e-38
0.0312468654123 0.0121515587715 0.938 2.34889039732e-38
0.0329828023797 0.0121515587715 0.938 2.34903515146e-38
0.0346076986028 0.012112694511 0.935 2.34867445723e-38
0.036338083533 0.012112694511 0.935 2.34917864442e-38
0.0380684684631 0.012112694511 0.935 2.34907186548e-38
0.0397988533933 0.012112694511 0.935 2.34928892661e-38
0.0415292383234 0.012112694511 0.935 2.34943045775e-38
0.0432596232536 0.012112694511 0.935 2.34946535008e-38
0.0449900081837 0.012112694511 0.935 2.34928500297e-38
0.0467203931138 0.012112694511 0.935 2.34928710492e-38
0.048450778044 0.012112694511 0.935 2.34953975903e-38
0.0503421720532 0.0121515587715 0.938 2.34957325007e-38
0.0520781090205 0.0121515587715 0.938 2.34993226273e-38
0.0539287880902 0.0121774682784 0.94 2.3499335239e-38
0.0560237567971 0.0122551967994 0.946 2.35000681181e-38
0.0578966440156 0.0122811063063 0.948 2.35000835324e-38
0.0596510877736 0.0122811063063 0.948 2.35022289203e-38
0.061599852834 0.0123199705668 0.951 2.35051169965e-38
0.0635597219688 0.0123588348273 0.954 2.35069232702e-38
0.0654622200524 0.0123847443342 0.956 2.35098071424e-38
0.0123199705668 0.0140799663621 0.951 2.15488496896e-38
0.0140799663621 0.0140799663621 0.951 2.25619128092e-38
0.0157899938224 0.0140355500644 0.948 2.25604666692e-38
0.0175074239991 0.0140059391993 0.946 2.24704458546e-38
0.019258166399 0.0140059391993 0.946 2.34863718269e-38
0.0209422843524 0.0139615229016 0.943 2.3209783536e-38
0.0226152982314 0.0139171066039 0.94 2.34870948969e-38
0.0243549365569 0.0139171066039 0.94 2.34860229036e-38
0.0260945748824 0.0139171066039 0.94 2.34856669738e-38
0.0279230458032 0.0139615229016 0.943 2.34864054581e-38
0.0295738515333 0.0139171066039 0.94 2.34921507818e-38
0.0313134898588 0.0139171066039 0.94 2.34932045582e-38
0.0329828023797 0.0138874957388 0.938 2.34881879097e-38
0.034718739347 0.0138874957388 0.938 2.34906990366e-38
0.0364546763144 0.0138874957388 0.938 2.34913898767e-38
0.0381906132817 0.0138874957388 0.938 2.34914249092e-38
0.0397988533933 0.0138430794411 0.935 2.34917850429e-38
0.0415292383234 0.0138430794411 0.935 2.34971912524e-38
0.0432596232536 0.0138430794411 0.935 2.34932171699e-38
0.0449900081837 0.0138430794411 0.935 2.34946577047e-38
0.0467203931138 0.0138430794411 0.935 2.3497194055e-38
0.0486062350858 0.0138874957388 0.938 2.34986205768e-38
0.0503421720532 0.0138874957388 0.938 2.34932241764e-38
0.0520781090205 0.0138874957388 0.938 2.35000527038e-38
0.0541009012437 0.0139615229016 0.943 2.35000569077e-38
0.0561422002575 0.0140355500644 0.948 2.34997065831e-38
0.0578966440156 0.0140355500644 0.948 2.35037241058e-38
0.0598398570387 0.0140799663621 0.951 2.3501879997e-38
0.0617941741363 0.0141243826597 0.954 2.35069148624e-38
0.0636929708618 0.0141539935248 0.956 2.35062128119e-38
0.0654622200524 0.0141539935248 0.956 2.35097875243e-38
0.0141243826597 0.0158899304922 0.954 2.20998430484e-38
0.0158899304922 0.0158899304922 0.954 2.29296219341e-38
0.0176554783247 0.0158899304922 0.954 2.31161655882e-38
0.0192988813385 0.0157899938224 0.948 2.33005372298e-38
0.0210089087989 0.0157566815992 0.946 2.34853124453e-38
0.0227596511988 0.0157566815992 0.946 2.34853082414e-38
0.0245103935987 0.0157566815992 0.946 2.34853096427e-38
0.0262611359986 0.0157566815992 0.946 2.3487118719e-38
0.0280118783985 0.0157566815992 0.946 2.34871033047e-38
0.0296682361659 0.0157067132643 0.943 2.34863914451e-38
0.0314134265286 0.0157067132643 0.943 2.34878347825e-38
0.0330531281843 0.0156567449294 0.94 2.34867529801e-38
0.0347927665098 0.0156567449294 0.94 2.34907284638e-38
0.0365324048353 0.0156567449294 0.94 2.34921507818e-38
0.0382720431608 0.0156567449294 0.94 2.34964611759e-38
0.0399265502491 0.0156234327062 0.938 2.34942877619e-38
0.0416624872164 0.0156234327062 0.938 2.34928486284e-38
0.0433984241838 0.0156234327062 0.938 2.34921437753e-38
0.0451343611511 0.0156234327062 0.938 2.34960926344e-38
0.0468702981185 0.0156234327062 0.938 2.34971786407e-38
0.0487098731137 0.0156567449294 0.94 2.34982856665e-38
0.0504495114392 0.0156567449294 0.94 2.34985995573e-38
0.0521891497647 0.0156567449294 0.94 2.34989680988e-38
0.0542730143972 0.0157566815992 0.946 2.35022107035e-38
0.0561422002575 0.0157899938224 0.948 2.35015128568e-38
0.0578966440156 0.0157899938224 0.948 2.35004534752e-38
0.0600286263038 0.0158899304922 0.954 2.35062114106e-38
0.0617941741363 0.0158899304922 0.954 2.35083596011e-38
0.0638928442013 0.0159732110503 0.959 2.35098155502e-38
0.0656676454291 0.0159732110503 0.959 2.35098365697e-38
0.0680050530941 0.0161064599433 0.967 2.35098449775e-38
0.0141984098225 0.0177480122781 0.959 2.29310652715e-38
0.0159232427154 0.0176924919061 0.956 2.21938561624e-38
0.0176924919061 0.0176924919061 0.956 2.26534049873e-38
0.0193599537478 0.0175999579526 0.951 2.30218203665e-38
0.0210533250966 0.0175444375805 0.948 2.34820740445e-38
0.0228077688546 0.0175444375805 0.948 2.34853068401e-38
0.0245622126127 0.0175444375805 0.948 2.34885424382e-38
0.0263166563707 0.0175444375805 0.948 2.34845697571e-38
0.0280118783985 0.0175074239991 0.946 2.34881766993e-38
0.0297626207984 0.0175074239991 0.946 2.34903473107e-38
0.0315133631984 0.0175074239991 0.946 2.34892767186e-38
0.0332641055983 0.0175074239991 0.946 2.34932297816e-38
0.0350148479982 0.0175074239991 0.946 2.34910703807e-38
0.0367655903981 0.0175074239991 0.946 2.34925193233e-38
0.0383941879794 0.017451903627 0.943 2.34939388386e-38
0.0400116814863 0.0173963832549 0.94 2.34917920494e-38
0.0417513198118 0.0173963832549 0.94 2.34942863606e-38
0.0434909581373 0.0173963832549 0.94 2.34946380866e-38
0.0452305964628 0.0173963832549 0.94 2.3493574501e-38
0.0469702347883 0.0173963832549 0.94 2.34943101827e-38
0.0488653301556 0.017451903627 0.943 2.34957367046e-38
0.0507715295974 0.0175074239991 0.946 2.34964737875e-38
0.0525222719973 0.0175074239991 0.946 2.34971898511e-38
0.0543877564995 0.0175444375805 0.948 2.35004184427e-38
0.0561422002575 0.0175444375805 0.948 2.35022387294e-38
0.0582630784714 0.0176554783247 0.954 2.3506903652e-38
0.0600286263038 0.0176554783247 0.954 2.35040464044e-38
0.0619237216712 0.0176924919061 0.956 2.35098211554e-38
0.0640927175408 0.0178035326502 0.962 2.35080120791e-38
0.0662154464338 0.0178960666037 0.967 2.35098421749e-38
0.0680050530941 0.0178960666037 0.967 2.35098365697e-38
0.014316853283 0.0196856732641 0.967 2.21938533598e-38
0.0160231793852 0.0195838859153 0.962 2.20105410999e-38
0.0177480122781 0.019522813506 0.959 2.29314212013e-38
0.0194617410967 0.0194617410967 0.956 2.26537581145e-38
0.0211865739896 0.0194210261571 0.954 2.3486020101e-38
0.0229521218221 0.0194210261571 0.954 2.34881724954e-38
0.0246399411336 0.0193599537478 0.951 2.34860186997e-38
0.0263999369289 0.0193599537478 0.951 2.34874620371e-38
0.0281599327241 0.0193599537478 0.951 2.34946114619e-38
0.0298255438868 0.0192988813385 0.948 2.3492142374e-38
0.0315799876449 0.0192988813385 0.948 2.3490710247e-38
0.0333344314029 0.0192988813385 0.948 2.34917696286e-38
0.035088875161 0.0192988813385 0.948 2.34931569141e-38
0.036843318919 0.0192988813385 0.948 2.3496119259e-38
0.038516332798 0.019258166399 0.946 2.34910703807e-38
0.0402670751979 0.019258166399 0.946 2.34943157879e-38
0.0418845687048 0.0191970939897 0.943 2.34939346347e-38
0.0436297590675 0.0191970939897 0.943 2.34971996601e-38
0.0455193023976 0.019258166399 0.946 2.34968409277e-38
0.0473699814673 0.0192988813385 0.948 2.34993324364e-38
0.0491244252253 0.0192988813385 0.948 2.34982436275e-38
0.0508788689834 0.0192988813385 0.948 2.34993478507e-38
0.0526333127414 0.0192988813385 0.948 2.34979087172e-38
0.054559869653 0.0193599537478 0.951 2.35000597103e-38
0.0563198654482 0.0193599537478 0.951 2.35043799135e-38
0.0582630784714 0.0194210261571 0.954 2.35050847666e-38
0.0601544724806 0.0194617410967 0.956 2.35058652899e-38
0.0619237216712 0.0194617410967 0.956 2.35076701623e-38
0.0646257131129 0.0197467456734 0.97 2.35098407736e-38
0.0666262971872 0.0198078180827 0.973 2.35098351684e-38
0.068427007922 0.0198078180827 0.973 2.35098505827e-38
0.014316853283 0.0214752799245 0.967 2.29321400674e-38
0.0160564916085 0.021408655478 0.964 2.23796725426e-38
0.0178035326502 0.0213642391803 0.962 2.27495312593e-38
0.019522813506 0.0212976147338 0.959 2.3485658566e-38
0.0212309902873 0.0212309902873 0.956 2.33916762806e-38
0.0230002394779 0.0212309902873 0.956 2.34860355153e-38
0.0247694886685 0.0212309902873 0.956 2.34856641712e-38
0.026483217487 0.0211865739896 0.954 2.3489635451e-38
0.0281599327241 0.0211199495431 0.951 2.34885480434e-38
0.0298255438868 0.0210533250966 0.948 2.34889207888e-38
0.0315799876449 0.0210533250966 0.948 2.34921718013e-38
0.0333344314029 0.0210533250966 0.948 2.34910521638e-38
0.035088875161 0.0210533250966 0.948 2.34910703807e-38
0.036843318919 0.0210533250966 0.948 2.34921353675e-38
0.0385977626771 0.0210533250966 0.948 2.34939486477e-38
0.0403522064351 0.0210533250966 0.948 2.34943199918e-38
0.0421066501932 0.0210533250966 0.948 2.34953779721e-38
0.0438610939512 0.0210533250966 0.948 2.34950248449e-38
0.0459042436441 0.0211865739896 0.954 2.34946535008e-38
0.0476697914766 0.0211865739896 0.954 2.34971884498e-38
0.0494353393091 0.0211865739896 0.954 2.34961038448e-38
0.0512008871415 0.0211865739896 0.954 2.34993394429e-38
0.0530774757182 0.0212309902873 0.956 2.34993478507e-38
0.0548467249088 0.0212309902873 0.956 2.35072763974e-38
0.0566159740994 0.0212309902873 0.956 2.35033051176e-38
0.0585684405179 0.0212976147338 0.959 2.35047666719e-38
0.0603432417457 0.0212976147338 0.959 2.35043953278e-38
0.0628305544153 0.021541904371 0.97 2.35098253593e-38
0.0648255864524 0.0216085288175 0.973 2.35098295632e-38
0.0667632474384 0.0216529451152 0.975 2.35098561879e-38
0.0161064599433 0.0232648865848 0.967 2.21942190987e-38
0.0178405462316 0.0231927101011 0.964 2.28413485386e-38
0.0195838859153 0.0231445924453 0.962 2.31168690401e-38
0.0212976147338 0.0230724159616 0.959 2.34867557827e-38
0.0230724159616 0.0230724159616 0.959 2.34860355153e-38
0.0247694886685 0.0230002394779 0.956 2.34881682915e-38
0.0265387378591 0.0230002394779 0.956 2.34889053745e-38
0.0282487653195 0.0229521218221 0.954 2.34885578525e-38
0.0299199285194 0.0228799453383 0.951 2.34889095784e-38
0.0316799243146 0.0228799453383 0.951 2.34914108962e-38
0.0334399201099 0.0228799453383 0.951 2.34914221066e-38
0.0353109566493 0.0229521218221 0.954 2.34918116676e-38
0.0370765044818 0.0229521218221 0.954 2.34921437753e-38
0.0388420523143 0.0229521218221 0.954 2.34932353868e-38
0.0406076001467 0.0229521218221 0.954 2.34946829281e-38
0.0423731479792 0.0229521218221 0.954 2.34957521188e-38
0.0441386958117 0.0229521218221 0.954 2.34971856472e-38
0.0460004789557 0.0230002394779 0.956 2.34974953341e-38
0.047919633151 0.0230724159616 0.959 2.3494311584e-38
0.0496944343788 0.0230724159616 0.959 2.34997346091e-38
0.0514692356066 0.0230724159616 0.959 2.35004100349e-38
0.0534105979507 0.0231445924453 0.962 2.35040211811e-38
0.0551909512157 0.0231445924453 0.962 2.35032981111e-38
0.0570897479412 0.0231927101011 0.964 2.35090588491e-38
0.0588738025644 0.0231927101011 0.964 2.35062002002e-38
0.0608466264526 0.0232648865848 0.967 2.35097833204e-38
0.0630248757176 0.0234092395523 0.973 2.35097973333e-38
0.0162063966131 0.0252099502871 0.973 2.17328752105e-38
0.0178960666037 0.0250544932452 0.967 2.27502347111e-38
0.0196856732641 0.0250544932452 0.967 2.29324777803e-38
0.021408655478 0.0249767647243 0.964 2.34838747131e-38
0.0231445924453 0.0249249457103 0.962 2.34853264583e-38
0.0249249457103 0.0249249457103 0.962 2.34874185969e-38
0.0267052989754 0.0249249457103 0.962 2.34871145151e-38
0.028396819645 0.0248472171894 0.959 2.34892851264e-38
0.0300772362403 0.0247694886685 0.956 2.34892627056e-38
0.0318464854309 0.0247694886685 0.956 2.34921339662e-38
0.0336157346215 0.0247694886685 0.956 2.34932311829e-38
0.0354960245563 0.0248472171894 0.959 2.34932157686e-38
0.0372708257841 0.0248472171894 0.959 2.34935773036e-38
0.0390456270119 0.0248472171894 0.959 2.34946773229e-38
0.0408204282397 0.0248472171894 0.959 2.34982716535e-38
0.0425952294675 0.0248472171894 0.959 2.3494297571e-38
0.0443700306954 0.0248472171894 0.959 2.34950388579e-38
0.0461448319232 0.0248472171894 0.959 2.35004142388e-38
0.0480695381556 0.0249249457103 0.962 2.34968367238e-38
0.0498498914207 0.0249249457103 0.962 2.35026184813e-38
0.0517375840717 0.0249767647243 0.964 2.3498640195e-38
0.0535216386949 0.0249767647243 0.964 2.35036722578e-38
0.0554778064715 0.0250544932452 0.967 2.35090756646e-38
0.0572674131319 0.0250544932452 0.967 2.35043855187e-38
0.0592402370202 0.0251322217661 0.97 2.35098015372e-38
0.0612241649829 0.0252099502871 0.973 2.35097679061e-38
0.0197467456734 0.0269273804637 0.97 2.28395716921e-38
0.0214752799245 0.0268440999056 0.967 2.34842376494e-38
0.0232648865848 0.0268440999056 0.967 2.34874676423e-38
0.0249767647243 0.0267608193474 0.964 2.34885312278e-38
0.0267608193474 0.0267608193474 0.964 2.34903318964e-38
0.0285448739706 0.0267608193474 0.964 2.34895892082e-38
0.0302660055054 0.0267052989754 0.962 2.34899801705e-38
0.0320463587704 0.0267052989754 0.962 2.34917976546e-38
0.0338267120354 0.0267052989754 0.962 2.34918102663e-38
0.0356070653005 0.0267052989754 0.962 2.34914319157e-38
0.0373874185655 0.0267052989754 0.962 2.34928710492e-38
0.0391677718305 0.0267052989754 0.962 2.34918004572e-38
0.0409481250955 0.0267052989754 0.962 2.34953919851e-38
0.0427284783606 0.0267052989754 0.962 2.34982590418e-38
0.0446013655791 0.0267608193474 0.964 2.34971926537e-38
0.0463854202022 0.0267608193474 0.964 2.35000667168e-38
0.0481694748254 0.0267608193474 0.964 2.34993478507e-38
0.0501089864904 0.0268440999056 0.967 2.35022359268e-38
0.0518985931508 0.0268440999056 0.967 2.34997079844e-38
0.0538547609274 0.0269273804637 0.97 2.35022289203e-38
