# .PCD v0.7 - Point Cloud Data file format
VERSION 0.7
FIELDS x y z rgb
SIZE 4 4 4 4
TYPE F F F F
COUNT 1 1 1 1
WIDTH 851
HEIGHT 1
VIEWPOINT 0 0 0 1 0 0 0
POINTS 851
DATA ascii
0.0351777077563 -0.0239848007429 0.864 2.34899507432e-38
0.0369043913283 -0.0240680813011 0.867 2.34889011706e-38
0.0385089300817 -0.0240680813011 0.867 2.34921605909e-38
0.0401134688351 -0.0240680813011 0.867 2.34889081771e-38
0.0417180075885 -0.0240680813011 0.867 2.3488536833e-38
0.0434224830117 -0.0241236016732 0.869 2.34932059595e-38
0.0451343611511 -0.0241791220453 0.871 2.34921255584e-38
0.0467463026208 -0.0241791220453 0.871 2.34899857757e-38
0.0484692848347 -0.0242346424173 0.873 2.34914221066e-38
0.0500849276625 -0.0242346424173 0.873 2.34914277118e-38
0.0518190139508 -0.0242901627894 0.875 2.34939584568e-38
0.0534383581368 -0.0242901627894 0.875 2.34925291324e-38
0.0552464715878 -0.0243734433476 0.878 2.34997318065e-38
0.0570009153459 -0.0244289637197 0.88 2.34899927821e-38
0.0586295129272 -0.0244289637197 0.88 1.42847244415e-38
0.0602581105085 -0.0244289637197 0.88 1.39313730207e-38
0.0618867080898 -0.0244289637197 0.88 1.25513294515e-38
0.0635153056711 -0.0244289637197 0.88 1.31977652486e-38
0.00493576107881 -0.0230335517011 0.889 1.01474635931e-38
0.00658101477175 -0.0230335517011 0.889 1.05162405073e-38
0.00822626846469 -0.0230335517011 0.889 1.04258399408e-38
0.00987152215763 -0.0230335517011 0.889 8.40187170124e-39
0.0114908663436 -0.0229817326872 0.887 1.41068071806e-38
0.0131028078133 -0.0229299136732 0.885 2.15588913944e-38
0.014690690455 -0.0228521851523 0.882 2.25648247074e-38
0.0162489622317 -0.0227485471244 0.878 2.25622659364e-38
0.0178127860456 -0.0226708186035 0.875 2.27488250049e-38
0.0193877139339 -0.0226189995895 0.873 2.31186865242e-38
0.0210033567617 -0.0226189995895 0.873 2.31161781999e-38
0.0225671805756 -0.0225671805756 0.871 2.34853026362e-38
0.0241791220453 -0.0225671805756 0.871 2.34863732282e-38
0.0257318417847 -0.0225153615616 0.869 2.33005498415e-38
0.0273400818963 -0.0225153615616 0.869 2.34889067758e-38
0.0289483220078 -0.0225153615616 0.869 2.3486743171e-38
0.0305565621193 -0.0225153615616 0.869 2.34878291773e-38
0.0321648022309 -0.0225153615616 0.869 2.34907116483e-38
0.0336953138215 -0.0224635425477 0.867 2.3490334699e-38
0.0352998525749 -0.0224635425477 0.867 2.34910465586e-38
0.0369895225655 -0.0225153615616 0.869 2.34896186355e-38
0.0385977626771 -0.0225153615616 0.869 2.34889305979e-38
0.0402060027886 -0.0225153615616 0.869 2.34914122975e-38
0.0418142429001 -0.0225153615616 0.869 2.34913968832e-38
0.0435224196815 -0.0225671805756 0.871 2.34946520995e-38
0.0451343611511 -0.0225671805756 0.871 2.3490348712e-38
0.0468536420069 -0.0226189995895 0.873 2.34914361196e-38
0.0484692848347 -0.0226189995895 0.873 2.34925011064e-38
0.0501996697648 -0.0226708186035 0.875 2.34957226916e-38
0.0518190139508 -0.0226708186035 0.875 2.34925011064e-38
0.0536215753646 -0.0227485471244 0.878 2.34978989081e-38
0.0552464715878 -0.0227485471244 0.878 2.27520297745e-38
0.0570009153459 -0.0228003661383 0.88 1.5391772649e-38
0.0587627618202 -0.0228521851523 0.882 1.3196330319e-38
0.0603950607596 -0.0228521851523 0.882 1.21843461992e-38
0.0620273596991 -0.0228521851523 0.882 1.2737870303e-38
0.0636596586385 -0.0228521851523 0.882 1.23680171916e-38
0.00493576107881 -0.0213882980082 0.889 1.03325723176e-38
0.00658101477175 -0.0213882980082 0.889 1.08850174216e-38
0.00822626846469 -0.0213882980082 0.889 1.03318520502e-38
0.00987152215763 -0.0213882980082 0.889 1.06116633275e-38
0.0115167758506 -0.0213882980082 0.889 8.67881311934e-39
0.0131324186784 -0.0213401803524 0.887 1.14374653281e-38
0.0147406587899 -0.0212920626966 0.885 2.03642732432e-38
0.0163229893945 -0.0212198862128 0.882 2.19226768836e-38
0.0178738584549 -0.0211236509012 0.878 2.28413709594e-38
0.0194321302315 -0.0210514744175 0.875 2.30239699584e-38
0.0210514744175 -0.0210514744175 0.875 2.3484587974e-38
0.0226189995895 -0.0210033567617 0.873 2.34860088906e-38
0.0242346424173 -0.0210033567617 0.873 2.33927426687e-38
0.0257910635149 -0.0209552391059 0.871 2.34856683751e-38
0.0274030049846 -0.0209552391059 0.871 2.34874564319e-38
0.0290149464543 -0.0209552391059 0.871 2.34863367945e-38
0.030626887924 -0.0209552391059 0.871 2.34885522473e-38
0.0322388293937 -0.0209552391059 0.871 2.34871089099e-38
0.0337730423424 -0.0209071214501 0.869 2.34907004379e-38
0.035381282454 -0.0209071214501 0.869 2.3487118719e-38
0.0369895225655 -0.0209071214501 0.869 2.34896242407e-38
0.0386865952724 -0.0209552391059 0.871 2.34892655082e-38
0.0402985367421 -0.0209552391059 0.871 2.34907032405e-38
0.0419104782118 -0.0209552391059 0.871 2.34867557827e-38
0.0436223563512 -0.0210033567617 0.873 2.3489649464e-38
0.045237999179 -0.0210033567617 0.873 2.34889179862e-38
0.0469609813929 -0.0210514744175 0.875 2.34946689151e-38
0.0485803255789 -0.0210514744175 0.875 2.34899941834e-38
0.0503717829183 -0.0211236509012 0.878 2.3500044296e-38
0.0519966791415 -0.0211236509012 0.878 2.3492517922e-38
0.0536215753646 -0.0211236509012 0.878 1.85185641813e-38
0.0553723177646 -0.021171768557 0.88 1.38309279468e-38
0.0571304628807 -0.0212198862128 0.882 1.26449586097e-38
0.0590958840527 -0.0213401803524 0.887 1.23687346564e-38
0.0607374363875 -0.0213401803524 0.887 1.20935869003e-38
0.0625196403316 -0.0213882980082 0.889 1.23694521212e-38
0.0641648940246 -0.0213882980082 0.889 1.33825124382e-38
0.00333492368355 -0.0200095421013 0.901 8.09515549336e-39
0.00500238552532 -0.0200095421013 0.901 1.04229826932e-38
0.0066328337857 -0.0198985013571 0.896 1.06995527672e-38
0.00829104223213 -0.0198985013571 0.896 1.06098696655e-38
0.00989373030646 -0.0197874606129 0.891 1.02428906172e-38
0.0115426853575 -0.0197874606129 0.891 9.96558626277e-39
0.0131620295435 -0.0197430443153 0.889 9.69330836596e-39
0.0147739710132 -0.0196986280176 0.887 1.00581392237e-38
0.0163785097666 -0.0196542117199 0.885 1.57624287045e-38
0.0179552883339 -0.0195875872734 0.882 2.13781000705e-38
0.0194987546781 -0.0194987546781 0.878 2.30290230406e-38
0.0211236509012 -0.0194987546781 0.878 2.34892613043e-38
0.0226708186035 -0.0194321302315 0.875 2.26569656867e-38
0.0242901627894 -0.0194321302315 0.875 2.34867445723e-38
0.0258502852452 -0.0193877139339 0.873 2.34892585018e-38
0.027465928073 -0.0193877139339 0.873 2.34867277567e-38
0.0290815709008 -0.0193877139339 0.873 2.34878179669e-38
0.0306972137286 -0.0193877139339 0.873 2.34871145151e-38
0.0323128565565 -0.0193877139339 0.873 2.34871243242e-38
0.0338507708634 -0.0193432976362 0.871 2.34881809032e-38
0.035462712333 -0.0193432976362 0.871 2.34867347632e-38
0.0371597850399 -0.0193877139339 0.873 2.3488898368e-38
0.0387754278677 -0.0193877139339 0.873 2.34924940999e-38
0.0403910706956 -0.0193877139339 0.873 2.3491043756e-38
0.0420067135234 -0.0193877139339 0.873 2.34881865084e-38
0.043722293021 -0.0194321302315 0.875 2.34914389222e-38
0.0453416372069 -0.0194321302315 0.875 2.34950332527e-38
0.0469609813929 -0.0194321302315 0.875 2.34946577047e-38
0.0487468866951 -0.0194987546781 0.878 2.34946675138e-38
0.0503717829183 -0.0194987546781 0.878 2.15570612986e-38
0.0521151226019 -0.0195431709757 0.88 1.50208433403e-38
0.0537437201832 -0.0195431709757 0.88 1.36519204757e-38
0.0556869332064 -0.0196542117199 0.885 1.30133767915e-38
0.0574543317179 -0.0196986280176 0.887 1.14464336383e-38
0.0592291329458 -0.0197430443153 0.889 1.15404215289e-38
0.0608743866387 -0.0197430443153 0.889 1.21854223965e-38
0.0626602919409 -0.0197874606129 0.891 1.24612876173e-38
0.064309246992 -0.0197874606129 0.891 1.19074047811e-38
0.00333492368355 -0.0183420802595 0.901 9.29511539433e-39
0.00500238552532 -0.0183420802595 0.901 1.11551625421e-38
0.00666984736709 -0.0183420802595 0.901 1.12523594062e-38
0.00829104223213 -0.0182402929107 0.896 1.02410927512e-38
0.00992704252972 -0.0181995779711 0.894 1.0887169816e-38
0.011581549618 -0.0181995779711 0.894 9.78406766489e-39
0.0131916404086 -0.0181385055618 0.891 1.0061009083e-38
0.0148072832364 -0.0180977906223 0.889 9.87590316105e-39
0.0164525369294 -0.0180977906223 0.889 9.6954607604e-39
0.0180570756828 -0.0180570756828 0.887 1.07034988237e-38
0.0196542117199 -0.0180163607432 0.885 1.5761740667e-38
0.021171768557 -0.0179145733944 0.88 2.12851435355e-38
0.0227485471244 -0.0178738584549 0.878 2.32148029871e-38
0.0243734433476 -0.0178738584549 0.878 2.34903473107e-38
0.0259095069754 -0.0178127860456 0.875 2.34910563677e-38
0.027465928073 -0.0177720711061 0.873 2.34913982845e-38
0.0290815709008 -0.0177720711061 0.873 2.34899619536e-38
0.0307675395333 -0.0178127860456 0.875 2.34863704256e-38
0.0323868837192 -0.0178127860456 0.875 2.34888955655e-38
0.0339284993843 -0.0177720711061 0.873 2.34888829538e-38
0.0355441422121 -0.0177720711061 0.873 2.34924814882e-38
0.0372449162771 -0.0178127860456 0.875 2.34892711134e-38
0.0388642604631 -0.0178127860456 0.875 2.34935843101e-38
0.0406224055793 -0.0178738584549 0.878 2.34946717177e-38
0.0422473018025 -0.0178738584549 0.878 2.3493588514e-38
0.0438721980256 -0.0178738584549 0.878 2.34946661125e-38
0.0454970942488 -0.0178738584549 0.878 2.34921073415e-38
0.047121990472 -0.0178738584549 0.878 2.10989151735e-38
0.0488579274393 -0.0179145733944 0.88 1.59431821935e-38
0.0504865250206 -0.0179145733944 0.88 1.38312866792e-38
0.0522335660624 -0.0179552883339 0.882 1.32899594772e-38
0.0540490822297 -0.0180163607432 0.885 1.16315395603e-38
0.0558127793831 -0.0180570756828 0.887 1.16308220954e-38
0.0575838792528 -0.0180977906223 0.889 1.26449586097e-38
0.0593623818388 -0.0181385055618 0.891 1.2737870303e-38
0.0610113368898 -0.0181385055618 0.891 1.32914042159e-38
0.0626602919409 -0.0181385055618 0.891 1.22761816954e-38
0.064309246992 -0.0181385055618 0.891 1.12616864488e-38
0.00333492368355 -0.0166746184177 0.901 1.56530013075e-38
0.00500238552532 -0.0166746184177 0.901 9.85617287868e-39
0.00666984736709 -0.0166746184177 0.901 1.04254812084e-38
0.00829104223213 -0.0165820844643 0.896 1.06098696655e-38
0.00994925067855 -0.0165820844643 0.896 1.02421689485e-38
0.011581549618 -0.0165450708829 0.894 9.87697935827e-39
0.0132360567063 -0.0165450708829 0.894 1.00617265478e-38
0.0148405954597 -0.0164895505108 0.891 1.01532033116e-38
0.0164525369294 -0.0164525369294 0.889 1.03390266983e-38
0.0180977906223 -0.0164525369294 0.889 1.01564319032e-38
0.0196986280176 -0.016415523348 0.887 9.32811877577e-39
0.0212198862128 -0.0163229893945 0.882 1.04265574056e-38
0.0228003661383 -0.0162859758131 0.88 1.46556607566e-38
0.0244289637197 -0.0162859758131 0.88 1.86157288155e-38
0.026057561301 -0.0162859758131 0.88 2.04564898925e-38
0.0276232357939 -0.0162489622317 0.878 2.16517904761e-38
0.0292481320171 -0.0162489622317 0.878 2.34953219202e-38
0.0308730282403 -0.0162489622317 0.878 2.34917710299e-38
0.0325719516262 -0.0162859758131 0.88 2.3491433317e-38
0.0341228206866 -0.0162489622317 0.878 2.3493588514e-38
0.0357477169098 -0.0162489622317 0.878 2.34914179027e-38
0.0374577443701 -0.0162859758131 0.88 2.34953793734e-38
0.0390863419515 -0.0162859758131 0.88 2.34913758637e-38
0.0407149395328 -0.0162859758131 0.88 2.22949920764e-38
0.0423435371141 -0.0162859758131 0.88 1.94419918433e-38
0.0439721346954 -0.0162859758131 0.88 1.65882363103e-38
0.0456007322767 -0.0162859758131 0.88 1.41954000721e-38
0.047229329858 -0.0162859758131 0.88 1.28221724187e-38
0.0488579274393 -0.0162859758131 0.88 1.21854223965e-38
0.0506012671229 -0.0163229893945 0.882 1.30133767915e-38
0.0524112312531 -0.0163785097666 0.885 1.16315395603e-38
0.0542933718669 -0.0164525369294 0.889 1.15418564585e-38
0.0560644717366 -0.0164895505108 0.891 1.13563918042e-38
0.05790774809 -0.0165450708829 0.894 1.19088397108e-38
0.0595622551783 -0.0165450708829 0.894 1.10801678509e-38
0.0612167622666 -0.0165450708829 0.894 1.24612876173e-38
0.0628712693549 -0.0165450708829 0.894 1.25527643811e-38
0.0645257764432 -0.0165450708829 0.894 9.14265412142e-39
0.00334232639983 -0.0150404687992 0.903 2.13666094231e-38
0.00501348959974 -0.0150404687992 0.903 1.12311941942e-38
0.00668465279965 -0.0150404687992 0.903 1.02410927512e-38
0.00830954902282 -0.0149571882411 0.898 1.03336457122e-38
0.00997145882739 -0.0149571882411 0.898 1.11641112341e-38
0.011607459125 -0.0149238760178 0.896 1.06116633275e-38
0.0132360567063 -0.0148905637946 0.894 9.87662062587e-39
0.0148405954597 -0.0148405954597 0.891 9.50820244401e-39
0.0164895505108 -0.0148405954597 0.891 9.60470146146e-39
0.0181385055618 -0.0148405954597 0.891 9.60434272905e-39
0.0196986280176 -0.0147739710132 0.887 9.60326653183e-39
0.0212920626966 -0.0147406587899 0.885 1.11694922202e-38
0.0228521851523 -0.014690690455 0.882 1.07999978411e-38
0.0244844840917 -0.014690690455 0.882 1.04322971241e-38
0.026057561301 -0.0146573782318 0.88 1.02464737373e-38
0.0276861588823 -0.0146573782318 0.88 1.16204188556e-38
0.0293147564636 -0.0146573782318 0.88 1.43790710645e-38
0.0309433540449 -0.0146573782318 0.88 1.60375288165e-38
0.032645978789 -0.014690690455 0.882 1.60374909814e-38
0.0342782777284 -0.014690690455 0.882 1.65906563528e-38
0.0359105766679 -0.014690690455 0.882 1.59456554852e-38
0.0375428756073 -0.014690690455 0.882 1.46574474122e-38
0.0391751745468 -0.014690690455 0.882 1.43815821913e-38
0.0408074734862 -0.014690690455 0.882 1.39227634429e-38
0.0424397724257 -0.014690690455 0.882 1.24562653636e-38
0.0440720713651 -0.014690690455 0.882 1.05277199443e-38
0.0457043703046 -0.014690690455 0.882 1.23708870508e-38
0.047336669244 -0.014690690455 0.882 1.19084809784e-38
0.0489689681835 -0.014690690455 0.882 1.00674662663e-38
0.0507733802764 -0.0147406587899 0.885 1.0896855591e-38
0.052648118174 -0.0148072832364 0.889 1.14485860328e-38
0.0545987339134 -0.0148905637946 0.894 1.21847049316e-38
0.0562532410017 -0.0148905637946 0.894 1.21847049316e-38
0.0580372956249 -0.0149238760178 0.896 1.19095571756e-38
0.0596955040713 -0.0149238760178 0.896 1.29222587602e-38
0.0613537125177 -0.0149238760178 0.896 1.25538405783e-38
0.00336083319052 -0.0134433327621 0.908 2.17364709423e-38
0.00504124978578 -0.0134433327621 0.908 1.31644409699e-38
0.00672166638105 -0.0134433327621 0.908 1.06970416404e-38
0.00838357618561 -0.013413721897 0.906 1.12537943358e-38
0.0100269791995 -0.0133693055993 0.903 1.0793546263e-38
0.011633368632 -0.0132952784365 0.898 1.11619588397e-38
0.0132656675714 -0.0132656675714 0.896 1.07942581226e-38
0.0148905637946 -0.0132360567063 0.894 1.0061009083e-38
0.0165450708829 -0.0132360567063 0.894 1.00635202098e-38
0.0181995779711 -0.0132360567063 0.894 1.02471912022e-38
0.0197874606129 -0.0131916404086 0.891 9.8784142879e-39
0.0213401803524 -0.0131324186784 0.887 9.69617822521e-39
0.0229299136732 -0.0131028078133 0.885 9.41995427192e-39
0.0245677646499 -0.0131028078133 0.885 1.02500610614e-38
0.0261167830312 -0.0130583915156 0.882 1.1355315607e-38
0.0277490819706 -0.0130583915156 0.882 1.05252088175e-38
0.0293813809101 -0.0130583915156 0.882 1.15379104021e-38
0.0311191685565 -0.0131028078133 0.885 1.01564319032e-38
0.0327570195332 -0.0131028078133 0.885 1.06177617785e-38
0.0343948705098 -0.0131028078133 0.885 1.09868974251e-38
0.0360327214865 -0.0131028078133 0.885 1.06181205109e-38
0.0376705724632 -0.0131028078133 0.885 1.09868974251e-38
0.0393084234398 -0.0131028078133 0.885 1.21836287344e-38
0.0409462744165 -0.0131028078133 0.885 1.21836287344e-38
0.0425841253931 -0.0131028078133 0.885 1.18159280174e-38
0.0442219763698 -0.0131028078133 0.885 1.13574680014e-38
0.0459634653743 -0.0131324186784 0.887 1.12649150404e-38
0.0476050177091 -0.0131324186784 0.887 1.10798091185e-38
0.0492465700439 -0.0131324186784 0.887 1.07124671339e-38
0.0508881223787 -0.0131324186784 0.887 1.13581854662e-38
0.0529442268251 -0.0132360567063 0.894 1.09883323547e-38
0.0545987339134 -0.0132360567063 0.894 1.12638388432e-38
0.0563790871785 -0.0132656675714 0.896 1.21847049316e-38
0.0581668431598 -0.0132952784365 0.898 1.20932281679e-38
0.0603617485364 -0.013413721897 0.906 1.23672997267e-38
0.0620384637735 -0.013413721897 0.906 1.22768991602e-38
0.00336083319052 -0.0117629161668 0.908 2.25633169103e-38
0.00504124978578 -0.0117629161668 0.908 2.00755020635e-38
0.00672166638105 -0.0117629161668 0.908 9.76433738252e-39
0.008420589767 -0.0117888256738 0.91 9.41242089138e-39
0.0100602914227 -0.0117370066599 0.906 1.06102283979e-38
0.0116981423994 -0.0116981423994 0.903 1.0887169816e-38
0.0133396947342 -0.0116722328924 0.901 1.0885376154e-38
0.0149238760178 -0.011607459125 0.896 1.02436038781e-38
0.0165820844643 -0.011607459125 0.896 9.87697935827e-39
0.0182402929107 -0.011607459125 0.896 1.05226976906e-38
0.0198540850594 -0.011581549618 0.894 1.00635202098e-38
0.0213882980082 -0.0115167758506 0.889 9.69653695762e-39
0.0229817326872 -0.0114908663436 0.887 1.0249702329e-38
0.024623285022 -0.0114908663436 0.887 9.88128414716e-39
0.0262056156265 -0.0114649568366 0.885 9.7898073834e-39
0.0278434666032 -0.0114649568366 0.885 9.88200161197e-39
0.0294813175799 -0.0114649568366 0.885 1.01589430301e-38
0.0311191685565 -0.0114649568366 0.885 1.0434808251e-38
0.032831046696 -0.0114908663436 0.887 1.10783741889e-38
0.0344725990308 -0.0114908663436 0.887 1.11705684174e-38
0.0361141513656 -0.0114908663436 0.887 1.10794503861e-38
0.0377557037004 -0.0114908663436 0.887 1.08039438976e-38
0.0394860886305 -0.0115167758506 0.889 1.08943444641e-38
0.0411313423234 -0.0115167758506 0.889 1.09872561575e-38
0.0427765960164 -0.0115167758506 0.889 1.08957793938e-38
0.0444218497093 -0.0115167758506 0.889 1.09883323547e-38
0.0460671034023 -0.0115167758506 0.889 1.07106734718e-38
0.0477123570952 -0.0115167758506 0.889 1.24620345094e-38
0.0494686515323 -0.0115426853575 0.891 1.15411389937e-38
0.0512897197369 -0.011581549618 0.894 1.13563918042e-38
0.0529442268251 -0.011581549618 0.894 1.15418564585e-38
0.0548430235506 -0.011633368632 0.898 1.12656325053e-38
0.056819548797 -0.0116981423994 0.903 1.13574680014e-38
0.058490711997 -0.0116981423994 0.903 1.28300645316e-38
0.0603617485364 -0.0117370066599 0.906 1.20925107031e-38
0.00506900997183 -0.0101380199437 0.913 2.21016381117e-38
0.00675867996244 -0.0101380199437 0.913 1.61172416796e-38
0.00844834995305 -0.0101380199437 0.913 1.04157954334e-38
0.0101047077204 -0.0101047077204 0.91 9.5074849792e-39
0.0117629161668 -0.0100824995716 0.908 1.08911158725e-38
0.0133396947342 -0.0100047710506 0.901 1.07049337533e-38
0.0149571882411 -0.00997145882739 0.898 9.87733809068e-39
0.0165820844643 -0.00994925067855 0.896 9.78693752415e-39
0.0182402929107 -0.00994925067855 0.896 9.87913175271e-39
0.0198985013571 -0.00994925067855 0.896 9.78801372137e-39
0.021436415664 -0.00989373030646 0.891 9.79088358063e-39
0.0230853707151 -0.00989373030646 0.891 9.69689569003e-39
0.0246788053941 -0.00987152215763 0.889 9.60541892627e-39
0.026324059087 -0.00987152215763 0.889 9.97419584053e-39
0.0279693127799 -0.00987152215763 0.889 9.97383710813e-39
0.0296145664729 -0.00987152215763 0.889 1.04337320537e-38
0.0312598201658 -0.00987152215763 0.889 1.08017915032e-38
0.0329050738588 -0.00987152215763 0.889 1.06184792433e-38
0.0345503275517 -0.00987152215763 0.889 1.0529154874e-38
0.0361955812446 -0.00987152215763 0.889 1.0802508968e-38
0.0378408349376 -0.00987152215763 0.889 1.04341244173e-38
0.0395749212258 -0.00989373030646 0.891 1.05273612119e-38
0.0412238762769 -0.00989373030646 0.891 1.12656325053e-38
0.042872831328 -0.00989373030646 0.891 1.09883323547e-38
0.0446716913837 -0.00992704252972 0.894 1.12638388432e-38
0.046326198472 -0.00992704252972 0.894 1.15414977261e-38
0.0479807055603 -0.00992704252972 0.894 1.10798091185e-38
0.0497462533928 -0.00994925067855 0.896 1.1355315607e-38
0.0515192039415 -0.00997145882739 0.898 1.17237337888e-38
0.0533587789368 -0.0100047710506 0.901 1.20932281679e-38
0.0550262407785 -0.0100047710506 0.901 1.15411389937e-38
0.056819548797 -0.0100269791995 0.903 1.21864985937e-38
0.0586850332993 -0.0100602914227 0.906 1.20943043651e-38
0.0603617485364 -0.0100602914227 0.906 1.15411389937e-38
0.0645590886664 -0.0101935403157 0.918 2.16664186308e-38
0.0662580120524 -0.0101935403157 0.918 2.35087141296e-38
0.00508011404625 -0.00846685674374 0.915 2.19175999792e-38
0.006773485395 -0.00846685674374 0.915 2.15517615878e-38
0.00846685674374 -0.00846685674374 0.915 1.28946503778e-38
0.0101380199437 -0.00844834995305 0.913 9.78012160842e-39
0.0118276899343 -0.00844834995305 0.913 9.69259090114e-39
0.01354697079 -0.00846685674374 0.915 1.02461150049e-38
0.0152070299155 -0.00844834995305 0.913 9.60183160221e-39
0.0166746184177 -0.00833730920887 0.901 9.6954607604e-39
0.0182810078502 -0.00830954902282 0.898 1.00645964071e-38
0.0198985013571 -0.00829104223213 0.896 9.69581949281e-39
0.0215567098035 -0.00829104223213 0.896 1.04340907861e-38
0.023163099236 -0.00827253544143 0.894 1.03415378252e-38
0.0248176063243 -0.00827253544143 0.894 1.00656726043e-38
0.0264721134126 -0.00827253544143 0.894 1.00667488015e-38
0.0281266205009 -0.00827253544143 0.894 1.03415378252e-38
0.0296811909194 -0.00824477525538 0.891 1.06177617785e-38
0.0313301459705 -0.00824477525538 0.891 1.08943444641e-38
0.0330901417657 -0.00827253544143 0.894 1.07103147394e-38
0.0348223773749 -0.00829104223213 0.896 1.0434808251e-38
0.0364805858214 -0.00829104223213 0.896 1.0802508968e-38
0.0381387942678 -0.00829104223213 0.896 1.034225529e-38
0.0397081701189 -0.00827253544143 0.894 1.06199141729e-38
0.0413626772071 -0.00827253544143 0.894 1.05270024795e-38
0.0430171842954 -0.00827253544143 0.894 1.07117496691e-38
0.0447716280535 -0.00829104223213 0.896 1.19109921052e-38
0.0464298364999 -0.00829104223213 0.896 1.09883323547e-38
0.0480880449463 -0.00829104223213 0.896 1.22783340898e-38
0.0498572941369 -0.00830954902282 0.898 1.18162867498e-38
0.051691317095 -0.00833730920887 0.901 1.12638388432e-38
0.0534772223972 -0.00835581599956 0.903 1.11730795443e-38
0.0551483855971 -0.00835581599956 0.903 1.15414977261e-38
0.0570083180621 -0.00838357618561 0.906 1.14485860328e-38
0.0586850332993 -0.00838357618561 0.906 1.16329744899e-38
0.0604949974294 -0.00840208297631 0.908 1.02543658503e-38
0.0628601652804 -0.00849461692979 0.918 1.41146852806e-38
0.0645590886664 -0.00849461692979 0.918 2.35097370775e-38
0.0662580120524 -0.00849461692979 0.918 2.35098225567e-38
0.00701777503219 -0.00701777503219 0.948 2.14588022503e-38
0.00877221879024 -0.00701777503219 0.948 2.0817032777e-38
0.0105266625483 -0.00701777503219 0.948 1.03182202187e-38
0.0118924637017 -0.00679569354383 0.918 9.2305435611e-39
0.01354697079 -0.006773485395 0.915 9.69366709836e-39
0.0152070299155 -0.00675867996244 0.913 9.87805555549e-39
0.0168041659526 -0.00672166638105 0.908 9.32560764892e-39
0.0184438676083 -0.00670686094849 0.906 9.78801372137e-39
0.0199429176548 -0.00664763921826 0.898 1.08925508021e-38
0.0215567098035 -0.0066328337857 0.896 9.69653695762e-39
0.02321491825 -0.0066328337857 0.896 9.78873118618e-39
0.0248731266964 -0.0066328337857 0.896 9.789448651e-39
0.0265313351428 -0.0066328337857 0.896 9.88128414716e-39
0.0281895435892 -0.0066328337857 0.896 1.04344495185e-38
0.0298477520357 -0.0066328337857 0.896 1.04326558565e-38
0.0315059604821 -0.0066328337857 0.896 1.11698509526e-38
0.0332381960913 -0.00664763921826 0.898 1.03418965576e-38
0.0349001058959 -0.00664763921826 0.898 1.08943444641e-38
0.0365620157004 -0.00664763921826 0.898 1.08021502356e-38
0.038223925505 -0.00664763921826 0.898 1.0802508968e-38
0.0397970027142 -0.0066328337857 0.896 1.09861981772e-38
0.0414552111606 -0.0066328337857 0.896 1.15400627965e-38
0.0431134196071 -0.0066328337857 0.896 1.08961381262e-38
0.0447716280535 -0.0066328337857 0.896 1.06195554405e-38
0.0465334745278 -0.00664763921826 0.898 1.10801678509e-38
0.0481953843324 -0.00664763921826 0.898 1.13560330718e-38
0.0500238552532 -0.00666984736709 0.901 1.13563932055e-38
0.0518060591973 -0.00668465279965 0.903 1.12649150404e-38
0.0534772223972 -0.00668465279965 0.903 1.22790879884e-38
0.0551483855971 -0.00668465279965 0.903 1.15418564585e-38
0.0570083180621 -0.00670686094849 0.906 1.17262449157e-38
0.0588145808341 -0.00672166638105 0.908 1.07121084015e-38
0.0604949974294 -0.00672166638105 0.908 1.23694689368e-38
0.0628601652804 -0.00679569354383 0.918 2.35061371418e-38
0.0645590886664 -0.00679569354383 0.918 2.35062142132e-38
0.0662580120524 -0.00679569354383 0.918 2.35062156145e-38
0.00525222719973 -0.00525222719973 0.946 2.07187218807e-38
0.00700296959964 -0.00525222719973 0.946 2.07223218164e-38
0.00877221879024 -0.00526333127414 0.948 2.19194132594e-38
0.0105266625483 -0.00526333127414 0.948 1.93430139289e-38
0.0119831469761 -0.00513563441834 0.925 1.17976326646e-38
0.0135913870877 -0.00509677015787 0.918 8.86212537925e-39
0.0152903104736 -0.00509677015787 0.918 9.78622005934e-39
0.0169337134875 -0.00508011404625 0.915 9.78693752415e-39
0.0185252974874 -0.0050523538602 0.91 9.97132598128e-39
0.0199429176548 -0.00498572941369 0.898 1.00617265478e-38
0.0216048274593 -0.00498572941369 0.898 9.6954607604e-39
0.0232667372639 -0.00498572941369 0.898 9.9724021785e-39
0.0249286470685 -0.00498572941369 0.898 1.09865386927e-38
0.026590556873 -0.00498572941369 0.898 1.11698509526e-38
0.0282524666776 -0.00498572941369 0.898 9.97383710813e-39
0.0300143131519 -0.00500238552532 0.901 1.06181205109e-38
0.0316817749937 -0.00500238552532 0.901 1.02493435966e-38
0.0334232639983 -0.00501348959974 0.903 1.06177617785e-38
0.0350166986772 -0.00500238552532 0.901 1.10783741889e-38
0.036684160519 -0.00500238552532 0.901 1.10787329213e-38
0.0383516223608 -0.00500238552532 0.901 1.0434808251e-38
0.0400190842026 -0.00500238552532 0.901 1.11705684174e-38
0.0415477451141 -0.00498572941369 0.898 1.12631213784e-38
0.0432096549187 -0.00498572941369 0.898 1.10798091185e-38
0.0448715647232 -0.00498572941369 0.898 1.06195554405e-38
0.0465334745278 -0.00498572941369 0.898 1.18184391442e-38
0.0483563934114 -0.00500238552532 0.901 1.10808853157e-38
0.0500238552532 -0.00500238552532 0.901 1.0989408552e-38
0.0518060591973 -0.00501348959974 0.903 1.12638388432e-38
0.0536548875879 -0.00503014571137 0.906 1.07124671339e-38
0.055331602825 -0.00503014571137 0.906 1.20943043651e-38
0.0571341642389 -0.00504124978578 0.908 1.01603779597e-38
0.058944128369 -0.0050523538602 0.91 1.19992402773e-38
0.0606282463224 -0.0050523538602 0.91 2.35075580584e-38
0.0629971155316 -0.00510787423229 0.92 2.3504049207e-38
0.0649107176896 -0.00512453034392 0.923 2.35044317615e-38
0.0666188944709 -0.00512453034392 0.923 2.35033107228e-38
0.0034903807254 -0.0034903807254 0.943 2.21924464561e-38
0.0052355710881 -0.0034903807254 0.943 2.09934982926e-38
0.00700296959964 -0.00350148479982 0.946 2.1274046653e-38
0.00877221879024 -0.0035088875161 0.948 2.09063375282e-38
0.0104711421762 -0.0034903807254 0.943 2.24729373632e-38
0.0119831469761 -0.00342375627889 0.925 2.04507459701e-38
0.0135913870877 -0.00339784677192 0.918 1.38230358338e-38
0.0152903104736 -0.00339784677192 0.918 1.01496159875e-38
0.0169337134875 -0.0033867426975 0.915 9.87877302031e-39
0.0185863698967 -0.00337933998122 0.913 1.01542795088e-38
0.0202094154408 -0.0033682359068 0.91 1.03386679659e-38
0.0218935333942 -0.0033682359068 0.91 1.05241326203e-38
0.0235258323337 -0.00336083319052 0.908 1.01560731708e-38
0.0251507285568 -0.00335343047424 0.906 1.03411790928e-38
0.026827443794 -0.00335343047424 0.906 1.02500610614e-38
0.0285041590311 -0.00335343047424 0.906 1.02511372586e-38
0.0301808742682 -0.00335343047424 0.906 1.08943444641e-38
0.0318575895053 -0.00335343047424 0.906 1.0895061929e-38
0.0335343047424 -0.00335343047424 0.906 1.08017915032e-38
0.0350944271982 -0.00334232639983 0.903 1.06191967081e-38
0.0367655903981 -0.00334232639983 0.903 1.08957793938e-38
0.038436753598 -0.00334232639983 0.903 1.06195554405e-38
0.0401079167979 -0.00334232639983 0.903 1.08943444641e-38
0.0417790799978 -0.00334232639983 0.903 1.12631213784e-38
0.0433540078861 -0.00333492368355 0.901 1.12649150404e-38
0.0450214697279 -0.00333492368355 0.901 1.08050200948e-38
0.0466889315697 -0.00333492368355 0.901 1.19113508376e-38
0.0483563934114 -0.00333492368355 0.901 1.08972143234e-38
0.0501348959974 -0.00334232639983 0.903 1.15411389937e-38
0.0518060591973 -0.00334232639983 0.903 1.21861398613e-38
0.0536548875879 -0.00335343047424 0.906 1.13567505366e-38
0.0554537476436 -0.00336083319052 0.908 9.79124231303e-39
0.0572600104156 -0.0033682359068 0.91 1.43912679663e-38
0.058944128369 -0.0033682359068 0.91 2.35050343199e-38
0.060961368555 -0.0033867426975 0.915 2.35054799328e-38
0.0633394911595 -0.00342375627889 0.925 2.35047722771e-38
0.0650513692989 -0.00342375627889 0.925 2.35054799328e-38
0.0667632474384 -0.00342375627889 0.925 2.35069204676e-38
0.0034903807254 -0.0017451903627 0.943 2.13648213662e-38
0.0052355710881 -0.0017451903627 0.943 2.16402900196e-38
0.00700296959964 -0.00175074239991 0.946 2.11811447687e-38
0.00877221879024 -0.00175444375805 0.948 2.09059844009e-38
0.0104711421762 -0.0017451903627 0.943 2.09971136427e-38
0.012086785004 -0.001726683572 0.933 2.33016428543e-38
0.0137394414132 -0.00171743017665 0.928 2.10014436549e-38
0.0153735910318 -0.00170817678131 0.923 1.52016444734e-38
0.0169892338596 -0.00169892338596 0.918 1.06977591052e-38
0.0186270848362 -0.00169337134875 0.915 9.51035483846e-39
0.0202760398873 -0.00168966999061 0.913 9.51107230327e-39
0.0218935333942 -0.0016841179534 0.91 1.00642376747e-38
0.0235776513476 -0.0016841179534 0.91 1.02486261318e-38
0.0251507285568 -0.00167671523712 0.906 9.97419584053e-39
0.026827443794 -0.00167671523712 0.906 1.08943444641e-38
0.0285041590311 -0.00167671523712 0.906 9.97419584053e-39
0.0301808742682 -0.00167671523712 0.906 1.03408203604e-38
0.0318575895053 -0.00167671523712 0.906 1.02511372586e-38
0.0335343047424 -0.00167671523712 0.906 1.05287961416e-38
0.0352110199796 -0.00167671523712 0.906 1.11727208119e-38
0.0368877352167 -0.00167671523712 0.906 1.14485860328e-38
0.038436753598 -0.00167116319991 0.903 1.12638388432e-38
0.0401079167979 -0.00167116319991 0.903 1.20010339393e-38
0.0417790799978 -0.00167116319991 0.903 1.03426140224e-38
0.0433540078861 -0.00166746184177 0.901 1.09890498196e-38
0.0450214697279 -0.00166746184177 0.901 1.10805265833e-38
0.0466889315697 -0.00166746184177 0.901 1.11727208119e-38
0.0484637327975 -0.00167116319991 0.903 1.20939456327e-38
0.0501348959974 -0.00167116319991 0.903 1.16315395603e-38
0.0519781723508 -0.00167671523712 0.906 1.10780154565e-38
0.0537733310484 -0.00168041659526 0.908 1.12638388432e-38
0.0555758924622 -0.0016841179534 0.91 1.67822264646e-38
0.0577633951226 -0.00169892338596 0.918 2.3505067951e-38
0.0597861873457 -0.00170817678131 0.923 2.35047946978e-38
0.0619607352526 -0.00172113153479 0.93 2.34979283354e-38
0.0636818667874 -0.00172113153479 0.93 2.34997290039e-38
0.0654029983222 -0.00172113153479 0.93 2.35008037998e-38
0.00526333127414 0.0 0.948 2.09031173443e-38
0.00701777503219 0.0 0.948 2.09052683374e-38
0.00877221879024 0.0 0.948 2.09059844009e-38
0.0105044543995 0.0 0.946 2.21960015503e-38
0.0121515587715 0.0 0.938 2.21038241373e-38
0.0137690522784 0.0 0.93 2.27473634506e-38
0.015406903255 0.0 0.925 2.29335721944e-38
0.0171187813945 0.0 0.925 1.83317122415e-38
0.0188306595339 0.0 0.925 1.39163062596e-38
0.0204981213757 0.0 0.923 1.0792823193e-38
0.0220860040175 0.0 0.918 9.4188780747e-39
0.0237849274034 0.0 0.918 1.04340907861e-38
0.0253450498591 0.0 0.913 1.05252088175e-38
0.0268866655242 0.0 0.908 1.02486261318e-38
0.0285670821194 0.0 0.908 1.18152105526e-38
0.0302474987147 0.0 0.908 1.07095972746e-38
0.03192791531 0.0 0.908 1.1355315607e-38
0.0336083319052 0.0 0.908 9.97455457294e-39
0.0352887485005 0.0 0.908 1.080430263e-38
0.0370505949748 0.0 0.91 1.08957793938e-38
0.0387347129282 0.0 0.91 1.07124671339e-38
0.0405520797746 0.0 0.913 1.09876148899e-38
0.042102948835 0.0 0.91 1.12638388432e-38
0.0437870667884 0.0 0.91 1.15400627965e-38
0.0454711847418 0.0 0.91 1.06184792433e-38
0.0469480266394 0.0 0.906 1.15414977261e-38
0.0486247418765 0.0 0.906 1.08954206614e-38
0.0503014571137 0.0 0.906 1.15389865993e-38
0.0520929144531 0.0 0.908 1.41125328862e-38
0.0538917745088 0.0 0.91 2.26726574269e-38
0.0558812545087 0.0 0.915 2.35025610281e-38
0.0580780105644 0.0 0.923 2.34997233987e-38
0.0597861873457 0.0 0.923 2.34975724055e-38
0.0621606085921 0.0 0.933 2.3502603067e-38
0.0640242424153 0.0 0.935 2.35080120791e-38
0.0659656047594 0.0 0.938 2.35079910596e-38
0.0052966434974 0.00176554783247 0.954 2.06279527726e-38
0.00703998318103 0.00175999579526 0.951 2.07205183453e-38
0.00877221879024 0.00175444375805 0.948 2.13651871051e-38
0.0105044543995 0.00175074239991 0.946 2.11822013477e-38
0.0121774682784 0.00173963832549 0.94 2.15495559441e-38
0.013813468576 0.001726683572 0.933 2.21012877871e-38
0.0154568715899 0.00171743017665 0.928 2.29314212013e-38
0.0171743017665 0.00171743017665 0.928 2.34892472914e-38
0.0188306595339 0.00171187813945 0.925 2.28449638886e-38
0.0205425376733 0.00171187813945 0.925 1.8424901392e-38
0.022206298157 0.00170817678131 0.923 1.43733313459e-38
0.0238367464174 0.0017026247441 0.92 1.18980777386e-38
0.0254838507894 0.00169892338596 0.918 9.32381398688e-39
0.02709394158 0.00169337134875 0.915 9.97204344609e-39
0.0286300052078 0.0016841179534 0.91 1.08954206614e-38
0.0302474987147 0.00168041659526 0.908 9.7898073834e-39
0.03192791531 0.00168041659526 0.908 1.14482273004e-38
0.0337933998122 0.00168966999061 0.913 1.07117496691e-38
0.0354830698028 0.00168966999061 0.913 1.11705684174e-38
0.0371727397934 0.00168966999061 0.913 1.12631213784e-38
0.038862409784 0.00168966999061 0.913 1.14482273004e-38
0.04064091237 0.00169337134875 0.915 1.0895061929e-38
0.0423342837187 0.00169337134875 0.915 1.12638388432e-38
0.0440276550675 0.00169337134875 0.915 1.04340907861e-38
0.046220709765 0.00171187813945 0.925 1.13549568746e-38
0.0479325879045 0.00171187813945 0.925 1.23680171916e-38
0.049805475123 0.00171743017665 0.928 1.45706341697e-38
0.0515229052996 0.00171743017665 0.928 2.12897524062e-38
0.0532403354763 0.00171743017665 0.928 2.35011078816e-38
0.054957765653 0.00171743017665 0.928 2.35036624487e-38
0.0567973406482 0.00172113153479 0.93 2.34972122718e-38
0.058518472183 0.00172113153479 0.93 2.34990073352e-38
0.0604339250201 0.001726683572 0.933 2.3498264647e-38
0.0621606085921 0.001726683572 0.933 2.35018589775e-38
0.064229667792 0.00173593696735 0.938 2.35032995124e-38
0.0661062563686 0.00173963832549 0.94 2.3504720429e-38
0.0052966434974 0.00353109566493 0.954 2.12729886727e-38
0.00703998318103 0.00351999159051 0.951 2.09059717893e-38
0.00875371199954 0.00350148479982 0.946 2.08134608672e-38
0.0104711421762 0.0034903807254 0.943 2.17371519734e-38
0.0121774682784 0.00347927665098 0.94 2.15520572618e-38
0.0138430794411 0.00346076986028 0.935 2.25640638024e-38
0.0154901838131 0.00344226306959 0.93 2.21960043529e-38
0.0172113153479 0.00344226306959 0.93 2.34863774321e-38
0.0188917319432 0.00343486035331 0.928 2.31161431674e-38
0.0206091621199 0.00343486035331 0.928 2.34885396356e-38
0.0222544158128 0.00342375627889 0.925 2.34892683108e-38
0.0239662939522 0.00342375627889 0.925 2.05439617453e-38
0.0256226517196 0.00341635356261 0.923 1.82436952836e-38
0.0272419959056 0.00340524948819 0.92 1.4931518971e-38
0.0288816975613 0.00339784677192 0.918 1.23547440925e-38
0.0305806209472 0.00339784677192 0.918 1.21775302835e-38
0.0322795443332 0.00339784677192 0.918 1.05223389582e-38
0.033867426975 0.0033867426975 0.915 1.01560731708e-38
0.0355607983237 0.0033867426975 0.915 1.05248500851e-38
0.0372541696725 0.0033867426975 0.915 1.11698509526e-38
0.0389475410212 0.0033867426975 0.915 1.10769392592e-38
0.040774161263 0.00339784677192 0.918 1.14446399763e-38
0.0425656186024 0.00340524948819 0.92 1.26392188912e-38
0.0442682433465 0.00340524948819 0.92 1.56740950532e-38
0.046220709765 0.00342375627889 0.925 1.99983073337e-38
0.0480880449463 0.00343486035331 0.928 2.29438941589e-38
0.049805475123 0.00343486035331 0.928 2.34989428754e-38
0.0516339460438 0.00344226306959 0.93 2.34986570106e-38
0.0533550775786 0.00344226306959 0.93 2.34979129211e-38
0.0550762091134 0.00344226306959 0.93 2.34946759216e-38
0.0567973406482 0.00344226306959 0.93 2.34986317872e-38
0.058518472183 0.00344226306959 0.93 2.34968451316e-38
0.0604339250201 0.00345336714401 0.933 2.35015380802e-38
0.0621606085921 0.00345336714401 0.933 2.35061917924e-38
0.0643666180432 0.00347927665098 0.94 2.3502603067e-38
0.0665282111965 0.00350148479982 0.946 2.35097875243e-38
0.00530774757182 0.00530774757182 0.956 1.97978571935e-38
0.00701777503219 0.00526333127414 0.948 2.11832761437e-38
0.00875371199954 0.00525222719973 0.946 2.09992520241e-38
0.0104711421762 0.0052355710881 0.943 1.99851071021e-38
0.0121774682784 0.00521891497647 0.94 2.16424774465e-38
0.0138874957388 0.00520781090205 0.938 2.21945750285e-38
0.015540152148 0.00518005071601 0.933 2.16424774465e-38
0.01726683572 0.00518005071601 0.933 2.33012757141e-38
0.018993519292 0.00518005071601 0.933 2.28385025014e-38
0.0206535784175 0.00516339460438 0.93 2.32062130275e-38
0.0223747099523 0.00516339460438 0.93 2.34889081771e-38
0.0240440224732 0.00515229052996 0.928 2.34921395714e-38
0.0257614526498 0.00515229052996 0.928 2.34896284445e-38
0.0273900502311 0.00513563441834 0.925 2.34932213738e-38
0.0291019283706 0.00513563441834 0.925 2.28478127284e-38
0.0306472453938 0.00510787423229 0.92 2.22056705097e-38
0.0322795443332 0.00509677015787 0.918 2.02720607978e-38
0.0339784677192 0.00509677015787 0.918 2.03649598795e-38
0.0356773911051 0.00509677015787 0.918 2.05511041636e-38
0.0373763144911 0.00509677015787 0.918 1.9721738661e-38
0.039075237877 0.00509677015787 0.918 2.12876420507e-38
0.0410850753467 0.00513563441834 0.925 2.2668446525e-38
0.0427969534861 0.00513563441834 0.925 2.34971408056e-38
0.0445088316256 0.00513563441834 0.925 2.34971954563e-38
0.0463706147697 0.00515229052996 0.928 2.34996841623e-38
0.0481916829742 0.00516339460438 0.93 2.3499335239e-38
0.049912814509 0.00516339460438 0.93 2.34982492327e-38
0.0518005071601 0.00518005071601 0.933 2.34982450288e-38
0.0535271907321 0.00518005071601 0.933 2.34953513475e-38
0.0552538743041 0.00518005071601 0.933 2.34971982589e-38
0.0569805578761 0.00518005071601 0.933 2.34968339213e-38
0.0587072414481 0.00518005071601 0.933 2.34997093857e-38
0.060563472555 0.00519115479043 0.935 2.35015226659e-38
0.0628268530572 0.0052355710881 0.943 2.35011555257e-38
0.0645720434199 0.0052355710881 0.943 2.35062198184e-38
0.0665282111965 0.00525222719973 0.946 2.35087281426e-38
0.00700296959964 0.00700296959964 0.946 2.09992492215e-38
0.00875371199954 0.00700296959964 0.946 2.11836446852e-38
0.0104711421762 0.0069807614508 0.943 2.09988988969e-38
0.0122163325389 0.0069807614508 0.943 2.25626134585e-38
0.0139171066039 0.00695855330196 0.94 2.11804259026e-38
0.0156234327062 0.00694374786941 0.938 2.30246860219e-38
0.01726683572 0.00690673428801 0.933 2.25651329931e-38
0.018993519292 0.00690673428801 0.933 2.32994778481e-38
0.020720202864 0.00690673428801 0.933 2.33920294078e-38
0.0223747099523 0.00688452613918 0.93 2.34863620178e-38
0.0240958414871 0.00688452613918 0.93 2.34895850043e-38
0.0258169730219 0.00688452613918 0.93 2.34874494254e-38
0.0275381045567 0.00688452613918 0.93 2.34867403684e-38
0.0292592360915 0.00688452613918 0.93 2.34906850236e-38
0.0309137431798 0.00686972070662 0.928 2.34914263105e-38
0.0323498701378 0.00681049897639 0.92 2.34914305144e-38
0.0340524948819 0.00681049897639 0.92 2.34939584568e-38
0.035755119626 0.00681049897639 0.92 2.34950276475e-38
0.0374577443701 0.00681049897639 0.92 2.34986163729e-38
0.0391603691142 0.00681049897639 0.92 2.34989638949e-38
0.0410850753467 0.00684751255778 0.925 2.34943213931e-38
0.0429357544164 0.00686972070662 0.928 2.34953807747e-38
0.044653184593 0.00686972070662 0.928 2.34953765708e-38
0.0464705514394 0.00688452613918 0.93 2.34968058953e-38
0.0483471400161 0.00690673428801 0.933 2.34953779721e-38
0.0500738235881 0.00690673428801 0.933 2.34921549857e-38
0.0518005071601 0.00690673428801 0.933 2.34971856472e-38
0.0535271907321 0.00690673428801 0.933 2.34975317679e-38
0.0553723177646 0.00692153972057 0.935 2.34968689537e-38
0.0571027026947 0.00692153972057 0.935 2.34957675331e-38
0.0588330876248 0.00692153972057 0.935 2.3498654208e-38
0.0614055315317 0.00701777503219 0.948 2.35033457552e-38
0.0631599752897 0.00701777503219 0.948 2.35036820668e-38
0.0649144190478 0.00701777503219 0.948 2.35098127476e-38
0.0666688628058 0.00701777503219 0.948 2.35051394172e-38
0.00700296959964 0.00875371199954 0.946 2.03538826151e-38
0.0087259518135 0.0087259518135 0.943 2.08155740253e-38
0.0104711421762 0.0087259518135 0.943 2.09059844009e-38
0.0122163325389 0.0087259518135 0.943 2.16414012493e-38
0.0139171066039 0.00869819162745 0.94 2.22864021169e-38
0.0156567449294 0.00869819162745 0.94 2.18250344066e-38
0.0173593696735 0.00867968483676 0.938 2.29321218505e-38
0.0190953066409 0.00867968483676 0.938 2.33001841026e-38
0.0207646191617 0.00865192465071 0.935 2.34852816167e-38
0.022446886436 0.00863341786002 0.933 2.34881809032e-38
0.024173570008 0.00863341786002 0.933 2.34878179669e-38
0.02590025358 0.00863341786002 0.933 2.34871005021e-38
0.0276861588823 0.00865192465071 0.935 2.34882061266e-38
0.0293536207241 0.00863341786002 0.933 2.34885354317e-38
0.0310803042961 0.00863341786002 0.933 2.34907060431e-38
0.0326311733564 0.00858715088327 0.928 2.34928528323e-38
0.0342375627889 0.00855939069723 0.925 2.34935674945e-38
0.0359494409284 0.00855939069723 0.925 2.34910619729e-38
0.0376613190678 0.00855939069723 0.925 2.34917738325e-38
0.0395008940631 0.00858715088327 0.928 2.34928304115e-38
0.0412183242397 0.00858715088327 0.928 2.34917836416e-38
0.0430282883699 0.00860565767397 0.93 2.34932255777e-38
0.0447494199046 0.00860565767397 0.93 2.34960898318e-38
0.0464705514394 0.00860565767397 0.93 2.34949912138e-38
0.048450778044 0.00865192465071 0.935 2.34953975903e-38
0.0501811629741 0.00865192465071 0.935 2.34982590418e-38
0.0519115479043 0.00865192465071 0.935 2.34996925701e-38
0.0536419328344 0.00865192465071 0.935 2.34982548379e-38
0.0555499829552 0.00867968483676 0.938 2.34986345898e-38
0.0572859199226 0.00867968483676 0.938 2.35033163279e-38
0.0596510877736 0.00877221879024 0.948 2.35040197798e-38
0.0614055315317 0.00877221879024 0.948 2.3502579245e-38
0.0635597219688 0.00882773916233 0.954 2.35007771751e-38
0.0651198444245 0.00879997897629 0.951 2.35098365697e-38
0.0668798402198 0.00879997897629 0.951 2.35098169515e-38
0.0087259518135 0.0104711421762 0.943 2.09063375282e-38
0.0104711421762 0.0104711421762 0.943 2.21041716594e-38
0.0122163325389 0.0104711421762 0.943 2.16435340256e-38
0.0139171066039 0.0104378299529 0.94 2.1639981734e-38
0.0156567449294 0.0104378299529 0.94 2.34827999171e-38
0.0173963832549 0.0104378299529 0.94 2.33005498415e-38
0.0190953066409 0.0104156218041 0.938 2.27473760623e-38
0.0208312436082 0.0104156218041 0.938 2.34845977831e-38
0.0224950040919 0.0103823095809 0.935 2.34856683751e-38
0.024225389022 0.0103823095809 0.935 2.34867445723e-38
0.0259557739521 0.0103823095809 0.935 2.34885452408e-38
0.0276861588823 0.0103823095809 0.935 2.34910689794e-38
0.0294165438124 0.0103823095809 0.935 2.34899773679e-38
0.0311469287426 0.0103823095809 0.935 2.34885480434e-38
0.0328773136727 0.0103823095809 0.935 2.3488189311e-38
0.0344226306959 0.0103267892088 0.93 2.34906976353e-38
0.0361437622307 0.0103267892088 0.93 2.34906934314e-38
0.0378648937655 0.0103267892088 0.93 2.34910675781e-38
0.0395860253003 0.0103267892088 0.93 2.34925095142e-38
0.0413071568351 0.0103267892088 0.93 2.34924969025e-38
0.0430282883699 0.0103267892088 0.93 2.34950332527e-38
0.0448937728721 0.010360101432 0.933 2.34957282968e-38
0.0466204564441 0.010360101432 0.933 2.34942849593e-38
0.048450778044 0.0103823095809 0.935 2.34936067309e-38
0.0501811629741 0.0103823095809 0.935 2.34960968383e-38
0.0519115479043 0.0103823095809 0.935 2.34953835773e-38
0.0538140459879 0.0104156218041 0.938 2.34975513861e-38
0.0556684264157 0.0104378299529 0.94 2.34975499848e-38
0.0574080647412 0.0104378299529 0.94 2.35004450674e-38
0.0598398570387 0.0105599747715 0.951 2.3502978615e-38
0.0617941741363 0.0105932869948 0.954 2.35036890733e-38
0.0635597219688 0.0105932869948 0.954 2.35058512769e-38
0.0654622200524 0.0106154951436 0.956 2.35094526139e-38
0.00875371199954 0.0122551967994 0.946 2.13666066205e-38
0.0105044543995 0.0122551967994 0.946 2.09056158595e-38
0.0122551967994 0.0122551967994 0.946 2.21963154412e-38
0.0140059391993 0.0122551967994 0.946 2.24718835868e-38
0.0157067132643 0.0122163325389 0.943 2.28377584119e-38
0.017451903627 0.0122163325389 0.943 2.30236140285e-38
0.0191970939897 0.0122163325389 0.943 2.34867375658e-38
0.0208756599059 0.0121774682784 0.94 2.32998337779e-38
0.0225671805756 0.0121515587715 0.938 2.34863802347e-38
0.0243031175429 0.0121515587715 0.938 2.34888479213e-38
0.0260390545103 0.0121515587715 0.938 2.34867347632e-38
0.0277749914776 0.0121515587715 0.938 2.34838705092e-38
0.029510928445 0.0121515587715 0.938 2.34856501582e-38
0.0312468654123 0.0121515587715 0.938 2.34928766544e-38
0.0329828023797 0.0121515587715 0.938 2.3489273916e-38
0.0346076986028 0.012112694511 0.935 2.34907242599e-38
0.036338083533 0.012112694511 0.935 2.34921339662e-38
0.0380684684631 0.012112694511 0.935 2.34903445081e-38
0.0397137221561 0.012086785004 0.933 2.34957605266e-38
0.0414404057281 0.012086785004 0.933 2.34907046418e-38
0.0431670893001 0.012086785004 0.933 2.34964751888e-38
0.0448937728721 0.012086785004 0.933 2.34949996216e-38
0.0467203931138 0.012112694511 0.935 2.34950164371e-38
0.048450778044 0.012112694511 0.935 2.34957675331e-38
0.0503421720532 0.0121515587715 0.938 2.34957325007e-38
0.0520781090205 0.0121515587715 0.938 2.35004114362e-38
0.0539287880902 0.0121774682784 0.94 2.3501142914e-38
0.0560237567971 0.0122551967994 0.946 2.35004380609e-38
0.0580798612435 0.0123199705668 0.951 2.34986486028e-38
0.0598398570387 0.0123199705668 0.951 2.35037100928e-38
0.0617941741363 0.0123588348273 0.954 2.35040422006e-38
0.0636929708618 0.0123847443342 0.956 2.35083539959e-38
0.0654622200524 0.0123847443342 0.956 2.35098477801e-38
0.0105044543995 0.0140059391993 0.946 2.04446601309e-38
0.0122551967994 0.0140059391993 0.946 2.21031052712e-38
0.0140059391993 0.0140059391993 0.946 2.21034738127e-38
0.0157566815992 0.0140059391993 0.946 2.30246860219e-38
0.0175074239991 0.0140059391993 0.946 2.2564414127e-38
0.019258166399 0.0140059391993 0.946 2.26559091076e-38
0.0209422843524 0.0139615229016 0.943 2.34849270882e-38
0.0226152982314 0.0139171066039 0.94 2.34878179669e-38
0.0243549365569 0.0139171066039 0.94 2.34867403684e-38
0.0260945748824 0.0139171066039 0.94 2.34860271075e-38
0.0278342132079 0.0139171066039 0.94 2.34892907316e-38
0.0295738515333 0.0139171066039 0.94 2.3491057769e-38
0.0313134898588 0.0139171066039 0.94 2.34928598388e-38
0.0330531281843 0.0139171066039 0.94 2.34889053745e-38
0.0347927665098 0.0139171066039 0.94 2.34892627056e-38
0.0365324048353 0.0139171066039 0.94 2.34892388836e-38
0.0381906132817 0.0138874957388 0.938 2.34921353675e-38
0.0397988533933 0.0138430794411 0.935 2.3491057769e-38
0.0415292383234 0.0138430794411 0.935 2.34960856279e-38
0.0432596232536 0.0138430794411 0.935 2.34914403235e-38
0.0449900081837 0.0138430794411 0.935 2.34942919658e-38
0.0467203931138 0.0138430794411 0.935 2.34971744368e-38
0.048450778044 0.0138430794411 0.935 2.34961066473e-38
0.0503421720532 0.0138874957388 0.938 2.34953737683e-38
0.0521891497647 0.0139171066039 0.94 2.35025722385e-38
0.0543877564995 0.0140355500644 0.948 2.34978876977e-38
0.0561422002575 0.0140355500644 0.948 2.34982464301e-38
0.0580798612435 0.0140799663621 0.951 2.35026100735e-38
0.0600286263038 0.0141243826597 0.954 2.35022513411e-38
0.0619237216712 0.0141539935248 0.956 2.3505847073e-38
0.0636929708618 0.0141539935248 0.956 2.3509795932e-38
0.0656676454291 0.0141984098225 0.959 2.3505138016e-38
0.0140799663621 0.0158399621573 0.951 2.19183440687e-38
0.0158399621573 0.0158399621573 0.951 2.34863942477e-38
0.0175999579526 0.0158399621573 0.951 2.29331938438e-38
0.0192988813385 0.0157899938224 0.948 2.30239671558e-38
0.0210089087989 0.0157566815992 0.946 2.34863844386e-38
