# .PCD v0.7 - Point Cloud Data file format
VERSION 0.7
FIELDS x y z rgb
SIZE 4 4 4 4
TYPE F F F F
COUNT 1 1 1 1
WIDTH 845
HEIGHT 1
VIEWPOINT 0 0 0 1 0 0 0
POINTS 845
DATA ascii
0.0254653439987 -0.0509306879973 0.86 2.32991247209e-38
0.0270569279986 -0.0509306879973 0.86 2.26551650181e-38
0.0286485119985 -0.0509306879973 0.86 2.33944900879e-38
0.0302400959984 -0.0509306879973 0.86 2.34860411205e-38
0.0318316799983 -0.0509306879973 0.86 2.34928486284e-38
0.0334232639983 -0.0509306879973 0.86 2.34906612015e-38
0.0349334181191 -0.0508122445369 0.858 2.34975948263e-38
0.0365213007609 -0.0508122445369 0.858 2.34993436468e-38
0.038198015998 -0.0509306879973 0.86 2.3502589054e-38
0.0397895999979 -0.0509306879973 0.86 2.35050945757e-38
0.0413811839978 -0.0509306879973 0.86 2.35098393723e-38
0.0429727679978 -0.0509306879973 0.86 2.35098449775e-38
0.0445643519977 -0.0509306879973 0.86 2.3509823958e-38
0.0462632753836 -0.0510491314578 0.862 2.35098309645e-38
0.0478585607417 -0.0510491314578 0.862 2.35098211554e-38
0.0494538460997 -0.0510491314578 0.862 2.35098421749e-38
0.0510491314578 -0.0510491314578 0.862 2.3509851984e-38
0.0527665616345 -0.0511675749183 0.864 2.35098365697e-38
0.0545543176158 -0.051345240109 0.867 2.35098155502e-38
0.056288403904 -0.0514636835694 0.869 2.35098211554e-38
0.0578966440156 -0.0514636835694 0.869 2.35087295439e-38
0.0596418343783 -0.0515821270299 0.871 2.35051226017e-38
0.061253775848 -0.0515821270299 0.871 2.35026016657e-38
0.0628657173177 -0.0515821270299 0.871 2.34975836159e-38
0.0644776587873 -0.0515821270299 0.871 2.35091050919e-38
-0.00655140390664 -0.0507733802764 0.885 2.35018926087e-38
-0.00491355292998 -0.0507733802764 0.885 2.35036918759e-38
-0.00324979244634 -0.0503717829183 0.878 2.35008304245e-38
-0.00161934418596 -0.0501996697648 0.875 1.61953948976e-38
0.0 -0.0501996697648 0.875 1.84149073313e-38
0.00161564282782 -0.0500849276625 0.873 1.97085104035e-38
0.00322388293937 -0.0499701855602 0.871 2.02598933232e-38
0.00483582440905 -0.0499701855602 0.871 2.14555680535e-38
0.00644776587873 -0.0499701855602 0.871 2.15498922557e-38
0.00804120055772 -0.0498554434579 0.869 2.17339051648e-38
0.00964944066926 -0.0498554434579 0.869 2.19168965274e-38
0.0112576807808 -0.0498554434579 0.869 2.20087418326e-38
0.0127918937296 -0.0495685882021 0.864 2.20108928258e-38
0.0143908804458 -0.0495685882021 0.864 2.25623037715e-38
0.0159528535806 -0.0494538460997 0.862 2.23789536765e-38
0.0175481389386 -0.0494538460997 0.862 2.21016381117e-38
0.0191434242967 -0.0494538460997 0.862 2.30242964609e-38
0.0207387096547 -0.0494538460997 0.862 2.28406310738e-38
0.0222821759988 -0.0493391039974 0.86 2.25651175788e-38
0.0238737599988 -0.0493391039974 0.86 2.30243174804e-38
0.0254653439987 -0.0493391039974 0.86 2.32079856701e-38
0.0270569279986 -0.0493391039974 0.86 2.34885172149e-38
0.0286485119985 -0.0493391039974 0.86 2.34885452408e-38
0.0302400959984 -0.0493391039974 0.86 2.34885410369e-38
0.0318316799983 -0.0493391039974 0.86 2.34932171699e-38
0.0334232639983 -0.0493391039974 0.86 2.34993702715e-38
0.0350148479982 -0.0493391039974 0.86 2.34968269148e-38
0.0366064319981 -0.0493391039974 0.86 2.35007785764e-38
0.038198015998 -0.0493391039974 0.86 2.35011597296e-38
0.0397895999979 -0.0493391039974 0.86 2.35090616517e-38
0.0413811839978 -0.0493391039974 0.86 2.35097833204e-38
0.0429727679978 -0.0493391039974 0.86 2.35098015372e-38
0.0445643519977 -0.0493391039974 0.86 2.35098183528e-38
0.0462632753836 -0.0494538460997 0.862 2.35098211554e-38
0.0478585607417 -0.0494538460997 0.862 2.35098309645e-38
0.0494538460997 -0.0494538460997 0.862 2.35098211554e-38
0.0510491314578 -0.0494538460997 0.862 2.3509823958e-38
0.0527665616345 -0.0495685882021 0.864 2.35098449775e-38
0.0545543176158 -0.0497407013555 0.867 2.35098057411e-38
0.056288403904 -0.0498554434579 0.869 2.35098057411e-38
0.0578966440156 -0.0498554434579 0.869 2.35065463209e-38
0.0596418343783 -0.0499701855602 0.871 2.35083511933e-38
0.061253775848 -0.0499701855602 0.871 2.35043715057e-38
0.0628657173177 -0.0499701855602 0.871 2.34990101378e-38
0.0644776587873 -0.0499701855602 0.871 2.35098435762e-38
0.066089600257 -0.0499701855602 0.871 2.35098463788e-38
-0.00487468866951 -0.0487468866951 0.878 2.35061987989e-38
-0.00324979244634 -0.0487468866951 0.878 2.3508391831e-38
-0.00161934418596 -0.0485803255789 0.875 1.6934385057e-38
0.0 -0.0485803255789 0.875 1.79546452455e-38
0.00161564282782 -0.0484692848347 0.873 2.00751489363e-38
0.00322388293937 -0.0483582440905 0.871 2.04464327735e-38
0.00483582440905 -0.0483582440905 0.871 2.0260249253e-38
0.00644776587873 -0.0483582440905 0.871 2.11818482205e-38
0.00804120055772 -0.0482472033463 0.869 2.16413984467e-38
0.00964944066926 -0.0482472033463 0.869 2.26552042545e-38
0.0112317712738 -0.0481361626021 0.867 2.26569628841e-38
0.0127918937296 -0.0479696014859 0.864 2.23796543258e-38
0.0143908804458 -0.0479696014859 0.864 2.34856263361e-38
0.0159528535806 -0.0478585607417 0.862 2.27480795141e-38
0.0175481389386 -0.0478585607417 0.862 2.23782474221e-38
0.0191434242967 -0.0478585607417 0.862 2.29307149469e-38
0.0207387096547 -0.0478585607417 0.862 2.33934517257e-38
0.0223339950128 -0.0478585607417 0.862 2.23786005493e-38
0.0239292803708 -0.0478585607417 0.862 2.34878207695e-38
0.0255245657289 -0.0478585607417 0.862 2.34856221322e-38
0.0270569279986 -0.0477475199975 0.86 2.3487132732e-38
0.0286485119985 -0.0477475199975 0.86 2.34899927821e-38
0.0302400959984 -0.0477475199975 0.86 2.34928486284e-38
0.0318316799983 -0.0477475199975 0.86 2.34964387551e-38
0.0334232639983 -0.0477475199975 0.86 2.34986331885e-38
0.0350148479982 -0.0477475199975 0.86 2.35000541051e-38
0.0366064319981 -0.0477475199975 0.86 2.35011471179e-38
0.038198015998 -0.0477475199975 0.86 2.35072567792e-38
0.0397895999979 -0.0477475199975 0.86 2.35097791165e-38
0.0413811839978 -0.0477475199975 0.86 2.35097819191e-38
0.0429727679978 -0.0477475199975 0.86 2.35097735113e-38
0.0445643519977 -0.0477475199975 0.86 2.35098113463e-38
0.0462632753836 -0.0478585607417 0.862 2.35098141489e-38
0.0478585607417 -0.0478585607417 0.862 2.35098365697e-38
0.0494538460997 -0.0478585607417 0.862 2.35098155502e-38
0.0510491314578 -0.0478585607417 0.862 2.3509809945e-38
0.0527665616345 -0.0479696014859 0.864 2.35098127476e-38
0.0545543176158 -0.0481361626021 0.867 2.3509786123e-38
0.0561588563692 -0.0481361626021 0.867 2.35062100093e-38
0.0578966440156 -0.0482472033463 0.869 2.35036736591e-38
0.0596418343783 -0.0483582440905 0.871 2.35004352583e-38
0.061253775848 -0.0483582440905 0.871 2.34968381251e-38
0.0628657173177 -0.0483582440905 0.871 2.3497217877e-38
0.0644776587873 -0.0483582440905 0.871 2.35098169515e-38
-0.00487468866951 -0.047121990472 0.878 2.35072679896e-38
-0.00324979244634 -0.047121990472 0.878 2.35062212197e-38
-0.00161934418596 -0.0469609813929 0.875 1.80425697176e-38
0.0 -0.0468536420069 0.873 1.87807933668e-38
0.00161564282782 -0.0468536420069 0.873 1.94297851324e-38
0.00322388293937 -0.0467463026208 0.871 2.02599087375e-38
0.00483582440905 -0.0467463026208 0.871 2.01687724893e-38
0.00644776587873 -0.0467463026208 0.871 2.15509880711e-38
0.00804120055772 -0.0466389632348 0.869 2.29331770283e-38
0.00964944066926 -0.0466389632348 0.869 2.17339317895e-38
0.0111929070134 -0.0463706147697 0.864 2.32097961477e-38
0.0127918937296 -0.0463706147697 0.864 2.21963546775e-38
0.0143908804458 -0.0463706147697 0.864 2.20109096414e-38
0.0159528535806 -0.0462632753836 0.862 2.3487452228e-38
0.0175481389386 -0.0462632753836 0.862 2.33923979493e-38
0.0191434242967 -0.0462632753836 0.862 2.34842222351e-38
0.0207387096547 -0.0462632753836 0.862 2.34856599673e-38
0.0223339950128 -0.0462632753836 0.862 2.34878095591e-38
0.0239292803708 -0.0462632753836 0.862 2.34874634384e-38
0.0255245657289 -0.0462632753836 0.862 2.34895808004e-38
0.0270569279986 -0.0461559359976 0.86 2.3494645093e-38
0.0286485119985 -0.0461559359976 0.86 2.34935716984e-38
0.0302400959984 -0.0461559359976 0.86 2.34950178384e-38
0.0318316799983 -0.0461559359976 0.86 2.34993254299e-38
0.0334232639983 -0.0461559359976 0.86 2.34986275833e-38
0.0350148479982 -0.0461559359976 0.86 2.35022205125e-38
0.0366064319981 -0.0461559359976 0.86 2.35047386459e-38
0.038198015998 -0.0461559359976 0.86 2.35047162251e-38
0.0397895999979 -0.0461559359976 0.86 2.35087155309e-38
0.0413811839978 -0.0461559359976 0.86 2.35061861872e-38
0.0429727679978 -0.0461559359976 0.86 2.35097552944e-38
0.0445643519977 -0.0461559359976 0.86 2.35097889256e-38
0.0462632753836 -0.0462632753836 0.862 2.35098127476e-38
0.0478585607417 -0.0462632753836 0.862 2.35098071424e-38
0.0494538460997 -0.0462632753836 0.862 2.35098029385e-38
0.0510491314578 -0.0462632753836 0.862 2.35065771495e-38
0.0527665616345 -0.0463706147697 0.864 2.35069372832e-38
0.0545543176158 -0.0465316238487 0.867 2.35076421363e-38
0.0561588563692 -0.0465316238487 0.867 2.35047722771e-38
0.0578966440156 -0.0466389632348 0.869 2.35047162251e-38
0.0596418343783 -0.0467463026208 0.871 2.35022135061e-38
0.061253775848 -0.0467463026208 0.871 2.34978919016e-38
0.0630100702851 -0.0468536420069 0.873 2.34979115198e-38
0.0646257131129 -0.0468536420069 0.873 2.35098351684e-38
-0.00324979244634 -0.0454970942488 0.878 2.35098351684e-38
-0.00161934418596 -0.0453416372069 0.875 1.84127787589e-38
0.0 -0.045237999179 0.873 1.88740904173e-38
0.00161564282782 -0.045237999179 0.873 1.86010740362e-38
0.00322388293937 -0.0451343611511 0.871 1.94305039985e-38
0.00483582440905 -0.0451343611511 0.871 2.00762083179e-38
0.00644776587873 -0.0451343611511 0.871 2.11807734246e-38
0.00804120055772 -0.0450307231232 0.869 2.08109147079e-38
0.00964944066926 -0.0450307231232 0.869 2.20105144752e-38
0.0111929070134 -0.0447716280535 0.864 2.24718807842e-38
0.0127918937296 -0.0447716280535 0.864 2.19186943933e-38
0.0143575682225 -0.0446679900256 0.862 2.32090828868e-38
0.0159528535806 -0.0446679900256 0.862 2.3486006088e-38
0.0175481389386 -0.0446679900256 0.862 2.33927328596e-38
0.0191434242967 -0.0446679900256 0.862 2.34852914258e-38
0.0207387096547 -0.0446679900256 0.862 2.34878095591e-38
0.0223339950128 -0.0446679900256 0.862 2.34906878262e-38
0.0239292803708 -0.0446679900256 0.862 2.34924926986e-38
0.0255245657289 -0.0446679900256 0.862 2.34914179027e-38
0.0270569279986 -0.0445643519977 0.86 2.34953653605e-38
0.0286485119985 -0.0445643519977 0.86 2.34953653605e-38
0.0302400959984 -0.0445643519977 0.86 2.34967778693e-38
0.0318316799983 -0.0445643519977 0.86 2.35000653155e-38
0.0334232639983 -0.0445643519977 0.86 2.34968100992e-38
0.0350148479982 -0.0445643519977 0.86 2.35011443153e-38
0.0366064319981 -0.0445643519977 0.86 2.35047932965e-38
0.038198015998 -0.0445643519977 0.86 2.3506889639e-38
0.0397895999979 -0.0445643519977 0.86 2.35090616517e-38
0.0413811839978 -0.0445643519977 0.86 2.35097763139e-38
0.0429727679978 -0.0445643519977 0.86 2.35090672568e-38
0.0445643519977 -0.0445643519977 0.86 2.35090756646e-38
0.0462632753836 -0.0446679900256 0.862 2.35090714607e-38
0.0478585607417 -0.0446679900256 0.862 2.3509424588e-38
0.0494538460997 -0.0446679900256 0.862 2.35090672568e-38
0.0510491314578 -0.0446679900256 0.862 2.35097931294e-38
0.0527665616345 -0.0447716280535 0.864 2.35076337285e-38
0.0545543176158 -0.0449270850953 0.867 2.35047358433e-38
0.0561588563692 -0.0449270850953 0.867 2.35036736591e-38
0.0578966440156 -0.0450307231232 0.869 2.34978764873e-38
0.0596418343783 -0.0451343611511 0.871 2.34971912524e-38
0.061253775848 -0.0451343611511 0.871 2.34967946849e-38
0.0628657173177 -0.0451343611511 0.871 2.34996911688e-38
-0.00324979244634 -0.0438721980256 0.878 2.35098309645e-38
-0.00161934418596 -0.043722293021 0.875 1.81365407927e-38
0.0 -0.043722293021 0.875 1.98903905363e-38
0.00161564282782 -0.0436223563512 0.873 1.92454106883e-38
0.00323128565565 -0.0436223563512 0.873 1.98918366763e-38
0.00483582440905 -0.0435224196815 0.871 2.00758523881e-38
0.00644776587873 -0.0435224196815 0.871 2.15492056194e-38
0.00804120055772 -0.0434224830117 0.869 2.13655206141e-38
0.00964944066926 -0.0434224830117 0.869 2.16417487713e-38
0.0111929070134 -0.0431726413373 0.864 2.22864147285e-38
0.0127918937296 -0.0431726413373 0.864 2.31168844543e-38
0.0143575682225 -0.0430727046675 0.862 2.31172221673e-38
0.0159528535806 -0.0430727046675 0.862 2.34845725597e-38
0.0175481389386 -0.0430727046675 0.862 2.32076325429e-38
0.0191434242967 -0.0430727046675 0.862 2.34885424382e-38
0.0207387096547 -0.0430727046675 0.862 2.34863522087e-38
0.0223339950128 -0.0430727046675 0.862 2.34924702778e-38
0.0239292803708 -0.0430727046675 0.862 2.34895990173e-38
0.0255245657289 -0.0430727046675 0.862 2.34910633742e-38
0.0270569279986 -0.0429727679978 0.86 2.34960912331e-38
0.0286485119985 -0.0429727679978 0.86 2.34960856279e-38
0.0302400959984 -0.0429727679978 0.86 2.34950178384e-38
0.0318316799983 -0.0429727679978 0.86 2.3499710787e-38
0.0334232639983 -0.0429727679978 0.86 2.35000190727e-38
0.0350148479982 -0.0429727679978 0.86 2.35000555064e-38
0.0366064319981 -0.0429727679978 0.86 2.3502589054e-38
0.038198015998 -0.0429727679978 0.86 2.35076211168e-38
0.0397895999979 -0.0429727679978 0.86 2.35043925252e-38
0.0413811839978 -0.0429727679978 0.86 2.35061889898e-38
0.0429727679978 -0.0429727679978 0.86 2.35083946336e-38
0.0445643519977 -0.0429727679978 0.86 2.35058512769e-38
0.0462632753836 -0.0430727046675 0.862 2.35090840724e-38
0.0478585607417 -0.0430727046675 0.862 2.35072553779e-38
0.0494538460997 -0.0430727046675 0.862 2.35036946785e-38
0.0510491314578 -0.0430727046675 0.862 2.35044345641e-38
0.0527665616345 -0.0431726413373 0.864 2.35072890091e-38
0.0545543176158 -0.0433225463419 0.867 2.35036652513e-38
0.056288403904 -0.0434224830117 0.869 2.34972010614e-38
0.0578966440156 -0.0434224830117 0.869 2.34997009779e-38
0.0596418343783 -0.0435224196815 0.871 2.349683252e-38
0.061253775848 -0.0435224196815 0.871 2.34961220616e-38
0.0630100702851 -0.0436223563512 0.873 2.34953947877e-38
0.0646257131129 -0.0436223563512 0.873 2.350977211e-38
-0.00488579274393 -0.0423435371141 0.88 2.35054799328e-38
-0.00324979244634 -0.0422473018025 0.878 2.35098197541e-38
-0.00161934418596 -0.042102948835 0.875 1.70312638263e-38
0.0 -0.042102948835 0.875 2.06290275686e-38
0.00161934418596 -0.042102948835 0.875 1.95209213806e-38
0.00323128565565 -0.0420067135234 0.873 1.94283572093e-38
0.00484692848347 -0.0420067135234 0.873 2.01651543366e-38
0.00644776587873 -0.0419104782118 0.871 2.09027474015e-38
0.00804120055772 -0.0418142429001 0.869 2.19172622663e-38
0.00964944066926 -0.0418142429001 0.869 2.15495531415e-38
0.0112576807808 -0.0418142429001 0.869 2.20101907753e-38
0.0127918937296 -0.0415736546211 0.864 2.19183440687e-38
0.0143908804458 -0.0415736546211 0.864 2.34867221515e-38
0.0159528535806 -0.0414774193095 0.862 2.31161403649e-38
0.0175481389386 -0.0414774193095 0.862 2.34878123617e-38
0.0191434242967 -0.0414774193095 0.862 2.34939290295e-38
0.0207387096547 -0.0414774193095 0.862 2.34874101891e-38
0.0223339950128 -0.0414774193095 0.862 2.3491419304e-38
0.0239292803708 -0.0414774193095 0.862 2.34921213545e-38
0.0255245657289 -0.0414774193095 0.862 2.34917892468e-38
0.0270569279986 -0.0413811839978 0.86 2.34957296981e-38
0.0286485119985 -0.0413811839978 0.86 2.3493936036e-38
0.0302400959984 -0.0413811839978 0.86 2.34975387744e-38
0.0318316799983 -0.0413811839978 0.86 2.34971281939e-38
0.0334232639983 -0.0413811839978 0.86 2.35000975454e-38
0.0350148479982 -0.0413811839978 0.86 2.35018519711e-38
0.0366064319981 -0.0413811839978 0.86 2.35032784929e-38
0.038198015998 -0.0413811839978 0.86 2.35011246971e-38
0.0397895999979 -0.0413811839978 0.86 2.3502241532e-38
0.0413811839978 -0.0413811839978 0.86 2.35051029835e-38
0.0430727046675 -0.0414774193095 0.862 2.3507227352e-38
0.0446679900256 -0.0414774193095 0.862 2.35076183142e-38
0.0462632753836 -0.0414774193095 0.862 2.35047526589e-38
0.0478585607417 -0.0414774193095 0.862 2.35033121241e-38
0.0494538460997 -0.0414774193095 0.862 2.35029491877e-38
0.0511675749183 -0.0415736546211 0.864 2.35029323722e-38
0.0527665616345 -0.0415736546211 0.864 2.34982492327e-38
0.0545543176158 -0.0417180075885 0.867 2.34971604238e-38
0.056288403904 -0.0418142429001 0.869 2.34975401757e-38
0.0580298929086 -0.0419104782118 0.871 2.3494325597e-38
0.0596418343783 -0.0419104782118 0.871 2.34935983231e-38
0.0613944274573 -0.0420067135234 0.873 2.34964821953e-38
0.0630100702851 -0.0420067135234 0.873 2.34964681824e-38
0.0646257131129 -0.0420067135234 0.873 2.35086889063e-38
-0.00488579274393 -0.0407149395328 0.88 2.35047218303e-38
-0.00324979244634 -0.0406224055793 0.878 2.35098183528e-38
-0.00162489622317 -0.0406224055793 0.878 1.3256238631e-38
0.0 -0.0404836046491 0.875 2.10003450369e-38
0.00161934418596 -0.0404836046491 0.875 2.04446573283e-38
0.00323128565565 -0.0403910706956 0.873 2.0810548969e-38
0.00484692848347 -0.0403910706956 0.873 2.00729811275e-38
0.00644776587873 -0.0402985367421 0.871 2.04403371251e-38
0.00805970734842 -0.0402985367421 0.871 2.14552177288e-38
0.00964944066926 -0.0402060027886 0.869 2.21952756777e-38
0.0112576807808 -0.0402060027886 0.869 2.11807762272e-38
0.0127918937296 -0.0399746679049 0.864 2.2285698665e-38
0.0143908804458 -0.0399746679049 0.864 2.2747360648e-38
0.015989867162 -0.0399746679049 0.864 2.34867333619e-38
0.0175481389386 -0.0398821339514 0.862 2.34863620178e-38
0.0191434242967 -0.0398821339514 0.862 2.34878235721e-38
0.0207387096547 -0.0398821339514 0.862 2.34896214381e-38
0.0223339950128 -0.0398821339514 0.862 2.34921451766e-38
0.0239292803708 -0.0398821339514 0.862 2.34921213545e-38
0.0255245657289 -0.0398821339514 0.862 2.34946492969e-38
0.0270569279986 -0.0397895999979 0.86 2.34957226916e-38
0.0286485119985 -0.0397895999979 0.86 2.34932185712e-38
0.0302400959984 -0.0397895999979 0.86 2.34975485835e-38
0.0318316799983 -0.0397895999979 0.86 2.35007561557e-38
0.0334232639983 -0.0397895999979 0.86 2.34971688316e-38
0.0350148479982 -0.0397895999979 0.86 2.35007869842e-38
0.0366064319981 -0.0397895999979 0.86 2.35032784929e-38
0.038198015998 -0.0397895999979 0.86 2.35022093022e-38
0.0397895999979 -0.0397895999979 0.86 2.35018631814e-38
0.0413811839978 -0.0397895999979 0.86 2.35022121048e-38
0.0430727046675 -0.0398821339514 0.862 2.3501128901e-38
0.0446679900256 -0.0398821339514 0.862 2.35036610474e-38
0.0462632753836 -0.0398821339514 0.862 2.3502227519e-38
0.0478585607417 -0.0398821339514 0.862 2.35022653541e-38
0.0494538460997 -0.0398821339514 0.862 2.35025918566e-38
0.0511675749183 -0.0399746679049 0.864 2.34986135703e-38
0.0529497788624 -0.0401134688351 0.867 2.34953891825e-38
0.0545543176158 -0.0401134688351 0.867 2.34975541887e-38
0.056288403904 -0.0402060027886 0.869 2.34950248449e-38
0.0580298929086 -0.0402985367421 0.871 2.34950262462e-38
0.0596418343783 -0.0402985367421 0.871 2.34942947684e-38
0.0613944274573 -0.0403910706956 0.873 2.349755559e-38
0.0630100702851 -0.0403910706956 0.873 2.32123170837e-38
0.0646257131129 -0.0403910706956 0.873 2.35097847217e-38
-0.00658101477175 -0.0394860886305 0.889 2.35033205318e-38
-0.00489689681835 -0.0391751745468 0.882 2.35051169965e-38
-0.00325719516262 -0.0390863419515 0.88 2.35094946529e-38
-0.00162489622317 -0.0389975093561 0.878 9.57098061522e-39
0.0 -0.0389975093561 0.878 2.0999955476e-38
0.00161934418596 -0.0388642604631 0.875 2.09970856167e-38
0.00323868837192 -0.0388642604631 0.875 2.0811623765e-38
0.00484692848347 -0.0387754278677 0.873 1.98911065998e-38
0.00644776587873 -0.0386865952724 0.871 2.11814922907e-38
0.00805970734842 -0.0386865952724 0.871 2.10878617312e-38
0.00964944066926 -0.0385977626771 0.869 2.0718000212e-38
0.0112576807808 -0.0385977626771 0.869 2.23778676702e-38
0.0128363100272 -0.0385089300817 0.867 2.27463068715e-38
0.0143908804458 -0.0383756811887 0.864 2.28399444375e-38
0.015989867162 -0.0383756811887 0.864 2.32998463896e-38
0.0175481389386 -0.0382868485934 0.862 2.34860172984e-38
0.0191434242967 -0.0382868485934 0.862 2.34870991008e-38
0.0207387096547 -0.0382868485934 0.862 2.34925067116e-38
0.0223339950128 -0.0382868485934 0.862 2.34889011706e-38
0.0239292803708 -0.0382868485934 0.862 2.34892641069e-38
0.0255245657289 -0.0382868485934 0.862 2.34917850429e-38
0.0270569279986 -0.038198015998 0.86 2.34935674945e-38
0.0286485119985 -0.038198015998 0.86 2.34968269148e-38
0.0302400959984 -0.038198015998 0.86 2.34953891825e-38
0.0318316799983 -0.038198015998 0.86 2.34978848951e-38
0.0334232639983 -0.038198015998 0.86 2.34989638949e-38
0.0350148479982 -0.038198015998 0.86 2.35000499012e-38
0.0366064319981 -0.038198015998 0.86 2.34978876977e-38
0.038198015998 -0.038198015998 0.86 2.3499710787e-38
0.0397895999979 -0.038198015998 0.86 2.34997290039e-38
0.0413811839978 -0.038198015998 0.86 2.3501504449e-38
0.0430727046675 -0.0382868485934 0.862 2.35004030284e-38
0.0446679900256 -0.0382868485934 0.862 2.35007743725e-38
0.0462632753836 -0.0382868485934 0.862 2.35011345062e-38
0.0478585607417 -0.0382868485934 0.862 2.34975303666e-38
0.0494538460997 -0.0382868485934 0.862 2.34957563227e-38
0.0511675749183 -0.0383756811887 0.864 2.34989709014e-38
0.0529497788624 -0.0385089300817 0.867 2.3497180042e-38
0.0546801637925 -0.0385977626771 0.869 2.3489287929e-38
0.056288403904 -0.0385977626771 0.869 2.3491095604e-38
0.0580298929086 -0.0386865952724 0.871 2.34950332527e-38
0.0596418343783 -0.0386865952724 0.871 2.34978834938e-38
0.0613944274573 -0.0387754278677 0.873 2.35026156787e-38
0.0630100702851 -0.0387754278677 0.873 1.43683777559e-38
-0.00658101477175 -0.0378408349376 0.889 2.35025932579e-38
-0.00491355292998 -0.0376705724632 0.885 2.35029477865e-38
-0.00325719516262 -0.0374577443701 0.88 2.3508377818e-38
-0.00162859758131 -0.0374577443701 0.88 1.62148098878e-38
0.0 -0.0373726131329 0.878 1.95226211557e-38
0.00162489622317 -0.0373726131329 0.878 2.14595505437e-38
0.00323868837192 -0.0372449162771 0.875 2.10907484061e-38
0.00485803255789 -0.0372449162771 0.875 2.06308240332e-38
0.00646257131129 -0.0371597850399 0.873 2.03528134244e-38
0.00805970734842 -0.0370746538027 0.871 2.07197994792e-38
0.00964944066926 -0.0369895225655 0.869 2.15477664859e-38
0.0112576807808 -0.0369895225655 0.869 2.15470378107e-38
0.0128363100272 -0.0369043913283 0.867 2.28388556286e-38
0.0143908804458 -0.0367766944725 0.864 2.21952756777e-38
0.015989867162 -0.0367766944725 0.864 2.28388556286e-38
0.0175888538782 -0.0367766944725 0.864 2.34852858206e-38
0.0191434242967 -0.0366915632353 0.862 2.3486729158e-38
0.0207387096547 -0.0366915632353 0.862 2.34867333619e-38
0.0223339950128 -0.0366915632353 0.862 2.34896200368e-38
0.0239292803708 -0.0366915632353 0.862 2.3489273916e-38
0.0255245657289 -0.0366915632353 0.862 2.34899899796e-38
0.0270569279986 -0.0366064319981 0.86 2.34924884947e-38
0.0286485119985 -0.0366064319981 0.86 2.3492865444e-38
0.0302400959984 -0.0366064319981 0.86 2.34928766544e-38
0.0318316799983 -0.0366064319981 0.86 2.34960982396e-38
0.0334232639983 -0.0366064319981 0.86 2.34953611566e-38
0.0350148479982 -0.0366064319981 0.86 2.34939374373e-38
0.0366064319981 -0.0366064319981 0.86 2.34971758381e-38
0.038198015998 -0.0366064319981 0.86 2.34975233601e-38
0.0398821339514 -0.0366915632353 0.862 2.34957296981e-38
0.0414774193095 -0.0366915632353 0.862 2.34953919851e-38
0.0430727046675 -0.0366915632353 0.862 2.34975513861e-38
0.0446679900256 -0.0366915632353 0.862 2.34961178577e-38
0.0462632753836 -0.0366915632353 0.862 2.34968339213e-38
0.0478585607417 -0.0366915632353 0.862 2.34961066473e-38
0.0495685882021 -0.0367766944725 0.864 2.34982604431e-38
0.0511675749183 -0.0367766944725 0.864 2.34935702971e-38
0.0529497788624 -0.0369043913283 0.867 2.34921507818e-38
0.0546801637925 -0.0369895225655 0.869 2.34921535844e-38
0.056288403904 -0.0369895225655 0.869 2.34935983231e-38
0.0580298929086 -0.0370746538027 0.871 2.34939472464e-38
0.0596418343783 -0.0370746538027 0.871 2.34968115005e-38
0.0617460564805 -0.0373726131329 0.878 2.34982898704e-38
0.0633709527037 -0.0373726131329 0.878 1.26202060736e-38
-0.00658101477175 -0.0361955812446 0.889 2.35015366789e-38
-0.00491355292998 -0.0360327214865 0.885 2.35000793285e-38
-0.00327570195332 -0.0360327214865 0.885 2.35090756646e-38
-0.00162859758131 -0.0358291467888 0.88 2.00863200876e-38
0.0 -0.0358291467888 0.88 1.17761087202e-38
0.00162489622317 -0.0357477169098 0.878 2.0545875919e-38
0.00323868837192 -0.0356255720912 0.875 2.05364760089e-38
0.00485803255789 -0.0356255720912 0.875 2.09985499736e-38
0.00646257131129 -0.0355441422121 0.873 2.11829594502e-38
0.00805970734842 -0.035462712333 0.871 2.2655183235e-38
0.0096716488181 -0.035462712333 0.871 2.12718802456e-38
0.0112576807808 -0.035381282454 0.869 2.19165307885e-38
0.0128659208924 -0.035381282454 0.869 2.20090319014e-38
0.0144408487806 -0.0352998525749 0.867 2.22878076192e-38
0.016045387534 -0.0352998525749 0.867 2.33923769298e-38
0.0175888538782 -0.0351777077563 0.864 2.28388584312e-38
0.0191878405943 -0.0351777077563 0.864 2.34870976995e-38
0.0207868273105 -0.0351777077563 0.864 2.34881710941e-38
0.0223339950128 -0.0350962778772 0.862 2.34878067565e-38
0.0239292803708 -0.0350962778772 0.862 2.34878249734e-38
0.0255245657289 -0.0350962778772 0.862 2.34892542979e-38
0.027119851087 -0.0350962778772 0.862 2.34906906288e-38
0.0286485119985 -0.0350148479982 0.86 2.34942933671e-38
0.0302400959984 -0.0350148479982 0.86 2.34942947684e-38
0.0318316799983 -0.0350148479982 0.86 2.34939290295e-38
0.0334232639983 -0.0350148479982 0.86 2.3495719889e-38
0.0350148479982 -0.0350148479982 0.86 2.34982492327e-38
0.0366915632353 -0.0350962778772 0.862 2.34946675138e-38
0.0382868485934 -0.0350962778772 0.862 2.3496456972e-38
0.0398821339514 -0.0350962778772 0.862 2.34964415577e-38
0.0414774193095 -0.0350962778772 0.862 2.34939164178e-38
0.0430727046675 -0.0350962778772 0.862 2.34960884305e-38
0.0446679900256 -0.0350962778772 0.862 2.34964331499e-38
0.0462632753836 -0.0350962778772 0.862 2.3496804494e-38
0.0479696014859 -0.0351777077563 0.864 2.34907116483e-38
0.0495685882021 -0.0351777077563 0.864 2.34892795212e-38
0.0511675749183 -0.0351777077563 0.864 2.34921605909e-38
0.0529497788624 -0.0352998525749 0.867 2.34964555707e-38
0.0546801637925 -0.035381282454 0.869 2.34900011899e-38
0.0564179514389 -0.035462712333 0.871 2.34928738518e-38
0.0581631418016 -0.0355441422121 0.873 2.34975359718e-38
0.0597787846294 -0.0355441422121 0.873 2.34989807105e-38
0.0618867080898 -0.0358291467888 0.88 2.08188082222e-38
0.0635153056711 -0.0358291467888 0.88 1.41078693649e-38
-0.00658101477175 -0.0345503275517 0.889 2.35036792642e-38
-0.00492465700439 -0.0344725990308 0.887 2.35000737233e-38
-0.0032831046696 -0.0344725990308 0.887 2.35058162444e-38
-0.00163785097666 -0.0343948705098 0.885 2.35047764809e-38
0.0 -0.0342782777284 0.882 4.5917748079e-39
0.00162859758131 -0.0342005492075 0.88 2.01806414872e-38
0.00324979244634 -0.0341228206866 0.878 2.14606071227e-38
0.00485803255789 -0.0340062279052 0.875 2.1274046653e-38
0.00646257131129 -0.0339284993843 0.873 2.10907456035e-38
0.00805970734842 -0.0338507708634 0.871 2.13658737414e-38
0.0096716488181 -0.0338507708634 0.871 2.22863993143e-38
0.0112835902878 -0.0338507708634 0.871 2.16421018985e-38
0.0128659208924 -0.0337730423424 0.869 2.19165405976e-38
0.0144408487806 -0.0336953138215 0.867 2.25619100066e-38
0.016045387534 -0.0336953138215 0.867 2.21009346599e-38
0.0175888538782 -0.0335787210401 0.864 2.27463194832e-38
0.0191878405943 -0.0335787210401 0.864 2.24715150453e-38
0.0207868273105 -0.0335787210401 0.864 2.33923923441e-38
0.0223858140267 -0.0335787210401 0.864 2.34878179669e-38
0.0239292803708 -0.0335009925192 0.862 2.34863690243e-38
0.0255245657289 -0.0335009925192 0.862 2.34889011706e-38
0.027119851087 -0.0335009925192 0.862 2.34892669095e-38
0.028715136445 -0.0335009925192 0.862 2.34867529801e-38
0.0303104218031 -0.0335009925192 0.862 2.3488564859e-38
0.0319057071611 -0.0335009925192 0.862 2.34921521831e-38
0.0335009925192 -0.0335009925192 0.862 2.34932101634e-38
0.0350962778772 -0.0335009925192 0.862 2.34907116483e-38
0.0366915632353 -0.0335009925192 0.862 2.34936081322e-38
0.0382868485934 -0.0335009925192 0.862 2.3494659106e-38
0.0398821339514 -0.0335009925192 0.862 2.34910535651e-38
0.0414774193095 -0.0335009925192 0.862 2.3492851431e-38
0.0430727046675 -0.0335009925192 0.862 2.34946324814e-38
0.0446679900256 -0.0335009925192 0.862 2.34914151001e-38
0.0463706147697 -0.0335787210401 0.864 2.34921451766e-38
0.0479696014859 -0.0335787210401 0.864 2.34925067116e-38
0.0495685882021 -0.0335787210401 0.864 2.34917906481e-38
0.051345240109 -0.0336953138215 0.867 2.34896396549e-38
0.053071923681 -0.0337730423424 0.869 2.34910689794e-38
0.0548060099692 -0.0338507708634 0.871 2.34935128439e-38
0.0564179514389 -0.0338507708634 0.871 2.3494659106e-38
0.0584962640342 -0.0341228206866 0.878 2.35004100349e-38
0.0603950607596 -0.0342782777284 0.882 2.34997121883e-38
0.062238337113 -0.0343948705098 0.885 1.35457356833e-38
0.0638761880897 -0.0343948705098 0.885 1.38395515375e-38
0.0655140390664 -0.0343948705098 0.885 2.35098295632e-38
-0.00492465700439 -0.032831046696 0.887 2.3500433857e-38
-0.0032831046696 -0.032831046696 0.887 2.35029533916e-38
-0.0016415523348 -0.032831046696 0.887 2.35051282069e-38
0.0 -0.032645978789 0.882 4.68361030406e-39
0.00162859758131 -0.0325719516262 0.88 1.09722160211e-38
0.00324979244634 -0.0324979244634 0.878 2.07277644597e-38
0.00487468866951 -0.0324979244634 0.878 2.13637227482e-38
0.00647737674385 -0.0323868837192 0.875 2.10892840492e-38
0.00807821413911 -0.0323128565565 0.873 2.14573252817e-38
0.0096716488181 -0.0322388293937 0.871 2.18272176296e-38
0.0112835902878 -0.0322388293937 0.871 2.18272176296e-38
0.0128659208924 -0.0321648022309 0.869 2.17335968792e-38
0.0144408487806 -0.0320907750681 0.867 2.17328780131e-38
0.016045387534 -0.0320907750681 0.867 2.24715122427e-38
0.0175888538782 -0.0319797343239 0.864 2.28392255714e-38
0.0191878405943 -0.0319797343239 0.864 2.31161375623e-38
0.0207868273105 -0.0319797343239 0.864 2.33930985985e-38
0.0223858140267 -0.0319797343239 0.864 2.3484226439e-38
0.0239848007429 -0.0319797343239 0.864 2.34863690243e-38
0.0255837874591 -0.0319797343239 0.864 2.34914179027e-38
0.027119851087 -0.0319057071611 0.862 2.34881486734e-38
0.028715136445 -0.0319057071611 0.862 2.34899857757e-38
0.0303104218031 -0.0319057071611 0.862 2.34878221708e-38
0.0319057071611 -0.0319057071611 0.862 2.34881500747e-38
0.0335009925192 -0.0319057071611 0.862 2.34910633742e-38
0.0350962778772 -0.0319057071611 0.862 2.34921353675e-38
0.0366915632353 -0.0319057071611 0.862 2.34899913808e-38
0.0382868485934 -0.0319057071611 0.862 2.34924884947e-38
0.0398821339514 -0.0319057071611 0.862 2.34942793542e-38
0.0414774193095 -0.0319057071611 0.862 2.34939290295e-38
0.0431726413373 -0.0319797343239 0.864 2.34935674945e-38
0.0447716280535 -0.0319797343239 0.864 2.34928542336e-38
0.0463706147697 -0.0319797343239 0.864 2.34910675781e-38
0.0481361626021 -0.0320907750681 0.867 2.3490710247e-38
0.0498554434579 -0.0321648022309 0.869 2.34925067116e-38
0.0514636835694 -0.0321648022309 0.869 2.34953863799e-38
0.053071923681 -0.0321648022309 0.869 2.34964709849e-38
0.0548060099692 -0.0322388293937 0.871 2.3493602527e-38
0.0566770465087 -0.0323868837192 0.875 2.34932479985e-38
0.0584962640342 -0.0324979244634 0.878 2.34997219974e-38
0.0606004861364 -0.0327570195332 0.885 1.77763524367e-38
0.062238337113 -0.0327570195332 0.885 1.28203787566e-38
0.0638761880897 -0.0327570195332 0.885 1.66936601977e-38
0.0655140390664 -0.0327570195332 0.885 2.35098407736e-38
-0.0016415523348 -0.0311894943612 0.887 2.35098043398e-38
0.0 -0.0311191685565 0.885 4.31626831943e-39
0.00162859758131 -0.0309433540449 0.88 6.92532911457e-39
0.00324979244634 -0.0308730282403 0.878 1.78832560952e-38
0.00487468866951 -0.0308730282403 0.878 2.1003960387e-38
0.00649958489268 -0.0308730282403 0.878 2.11814824816e-38
0.00809672092981 -0.0307675395333 0.875 2.13662436842e-38
0.00969385696694 -0.0306972137286 0.873 2.19183412661e-38
0.0112835902878 -0.030626887924 0.871 2.17332283377e-38
0.0128955317575 -0.030626887924 0.871 2.22871237856e-38
0.0144741610039 -0.0305565621193 0.869 2.23789634856e-38
0.0160824011154 -0.0305565621193 0.869 2.21942190987e-38
0.0176499262875 -0.0304862363147 0.867 2.28392634065e-38
0.0192544650409 -0.0304862363147 0.867 2.22871237856e-38
0.0208590037943 -0.0304862363147 0.867 2.3024320283e-38
0.0224635425477 -0.0304862363147 0.867 2.33916510572e-38
0.0239848007429 -0.0303807476077 0.864 2.34870458515e-38
0.0255837874591 -0.0303807476077 0.864 2.34856291387e-38
0.0271827741753 -0.0303807476077 0.864 2.3486329788e-38
0.028715136445 -0.0303104218031 0.862 2.34903389029e-38
0.0303104218031 -0.0303104218031 0.862 2.34892556992e-38
0.0319057071611 -0.0303104218031 0.862 2.34899773679e-38
0.0335009925192 -0.0303104218031 0.862 2.34874592345e-38
0.0350962778772 -0.0303104218031 0.862 2.34896158329e-38
0.0366915632353 -0.0303104218031 0.862 2.34874578332e-38
0.0382868485934 -0.0303104218031 0.862 2.34892627056e-38
0.0398821339514 -0.0303104218031 0.862 2.34906878262e-38
0.0415736546211 -0.0303807476077 0.864 2.34878221708e-38
0.0431726413373 -0.0303807476077 0.864 2.34907298651e-38
0.0447716280535 -0.0303807476077 0.864 2.34907186548e-38
0.0465316238487 -0.0304862363147 0.867 2.3493602527e-38
0.0481361626021 -0.0304862363147 0.867 2.34892865277e-38
0.0498554434579 -0.0305565621193 0.869 2.34899899796e-38
0.0514636835694 -0.0305565621193 0.869 2.34935843101e-38
0.0531940684996 -0.030626887924 0.871 2.34917836416e-38
0.054931856146 -0.0306972137286 0.873 2.34939584568e-38
0.056871367811 -0.0308730282403 0.878 2.3498973704e-38
0.0584962640342 -0.0308730282403 0.878 2.22946865934e-38
0.0606004861364 -0.0311191685565 0.885 1.41078693649e-38
0.062238337113 -0.0311191685565 0.885 1.1815569285e-38
0.0638761880897 -0.0311191685565 0.885 1.67836880188e-38
0.0655140390664 -0.0311191685565 0.885 2.35098407736e-38
-0.00165450708829 -0.0297811275891 0.894 2.35098141489e-38
0.0 -0.0296145664729 0.889 4.04076183095e-39
0.00163785097666 -0.0294813175799 0.885 8.85783320205e-39
0.0032645978789 -0.0293813809101 0.882 7.0157296811e-39
0.00488579274393 -0.0293147564636 0.88 1.98164930618e-38
0.00649958489268 -0.0292481320171 0.878 2.07262846885e-38
0.00809672092981 -0.0291481953473 0.875 2.14587924412e-38
0.00969385696694 -0.0290815709008 0.873 2.21949057349e-38
0.0113094997948 -0.0290815709008 0.873 2.24711493064e-38
0.0129251426226 -0.0290815709008 0.873 2.20108900232e-38
0.0145074732272 -0.0290149464543 0.871 2.28395562779e-38
0.0160824011154 -0.0289483220078 0.869 2.32065605496e-38
0.017690641227 -0.0289483220078 0.869 2.31161655882e-38
0.0192544650409 -0.0288816975613 0.867 2.29324875894e-38
0.0208590037943 -0.0288816975613 0.867 2.30250419517e-38
0.0224635425477 -0.0288816975613 0.867 2.3486381636e-38
0.0240680813011 -0.0288816975613 0.867 2.34856753816e-38
0.0255837874591 -0.0287817608915 0.864 2.34867263554e-38
0.0271827741753 -0.0287817608915 0.864 2.34852914258e-38
0.028715136445 -0.028715136445 0.862 2.34860215023e-38
0.0303104218031 -0.028715136445 0.862 2.34889179862e-38
0.0319057071611 -0.028715136445 0.862 2.34838915286e-38
0.0335009925192 -0.028715136445 0.862 2.34889291966e-38
0.0350962778772 -0.028715136445 0.862 2.34888955655e-38
0.0366915632353 -0.028715136445 0.862 2.34881402656e-38
0.0383756811887 -0.0287817608915 0.864 2.3488550846e-38
0.0399746679049 -0.0287817608915 0.864 2.34885396356e-38
0.0415736546211 -0.0287817608915 0.864 2.34874760501e-38
0.0433225463419 -0.0288816975613 0.867 2.34907396742e-38
0.0449270850953 -0.0288816975613 0.867 2.3490320686e-38
0.0466389632348 -0.0289483220078 0.869 2.34914221066e-38
0.0482472033463 -0.0289483220078 0.869 2.34885452408e-38
0.0499701855602 -0.0290149464543 0.871 2.34957142838e-38
0.0515821270299 -0.0290149464543 0.871 2.34935969218e-38
0.0533162133182 -0.0290815709008 0.873 2.34928780557e-38
0.0550577023227 -0.0291481953473 0.875 2.34968549407e-38
0.056871367811 -0.0292481320171 0.878 2.34950234436e-38
0.0584962640342 -0.0292481320171 0.878 1.52995784205e-38
0.0606004861364 -0.0294813175799 0.885 1.32881658152e-38
0.062238337113 -0.0294813175799 0.885 1.41179138723e-38
0.0638761880897 -0.0294813175799 0.885 1.78900187616e-38
0.0655140390664 -0.0294813175799 0.885 2.3509837971e-38
0.0 -0.0279693127799 0.889 4.96198665179e-39
0.00164525369294 -0.0279693127799 0.889 8.58161905785e-39
0.00329050738588 -0.0279693127799 0.889 9.31843300078e-39
0.00492465700439 -0.0279063896916 0.887 8.57980297504e-39
0.00655140390664 -0.0278434666032 0.885 2.04593289232e-38
0.00816149469725 -0.0277490819706 0.882 2.08159565798e-38
0.00977158548786 -0.0276861588823 0.88 2.19179531064e-38
0.0114001830692 -0.0276861588823 0.88 2.23767956769e-38
0.0129991697854 -0.0276232357939 0.878 2.26541084391e-38
0.0145407854504 -0.027465928073 0.873 2.2469344434e-38
0.0161194146968 -0.0274030049846 0.871 2.3298369421e-38
0.017690641227 -0.0273400818963 0.869 2.30232398819e-38
0.0192988813385 -0.0273400818963 0.869 2.34867515788e-38
0.0209071214501 -0.0273400818963 0.869 2.29314183987e-38
0.0225153615616 -0.0273400818963 0.869 2.34852914258e-38
0.0240680813011 -0.0272771588079 0.867 2.34856641712e-38
0.0256726200545 -0.0272771588079 0.867 2.34888955655e-38
0.0271827741753 -0.0271827741753 0.864 2.34856543621e-38
0.0287817608915 -0.0271827741753 0.864 2.34889053745e-38
0.0303807476077 -0.0271827741753 0.864 2.34885424382e-38
0.0319057071611 -0.027119851087 0.862 2.34853152479e-38
0.0335009925192 -0.027119851087 0.862 2.34914291131e-38
0.0350962778772 -0.027119851087 0.862 2.34892683108e-38
0.0367766944725 -0.0271827741753 0.864 2.34860635413e-38
0.0385089300817 -0.0272771588079 0.867 2.34892795212e-38
0.0401134688351 -0.0272771588079 0.867 2.34888955655e-38
0.0417180075885 -0.0272771588079 0.867 2.34903473107e-38
0.0433225463419 -0.0272771588079 0.867 2.34907088457e-38
0.0450307231232 -0.0273400818963 0.869 2.34925011064e-38
0.0466389632348 -0.0273400818963 0.869 2.34881823045e-38
0.0483582440905 -0.0274030049846 0.871 2.34932325842e-38
0.0500849276625 -0.027465928073 0.873 2.34946506982e-38
0.0517005704903 -0.027465928073 0.873 2.34928976739e-38
0.0536215753646 -0.0276232357939 0.878 2.34971814433e-38
0.0552464715878 -0.0276232357939 0.878 2.34950262462e-38
0.0571304628807 -0.0277490819706 0.882 1.48368318325e-38
0.0587627618202 -0.0277490819706 0.882 1.37451909015e-38
0.0606004861364 -0.0278434666032 0.885 1.44838209273e-38
0.062238337113 -0.0278434666032 0.885 1.47589686833e-38
0.0638761880897 -0.0278434666032 0.885 1.91754368494e-38
0.0655140390664 -0.0278434666032 0.885 2.3509837971e-38
0.00164525369294 -0.026324059087 0.889 8.58198479675e-39
0.00329050738588 -0.026324059087 0.889 9.22731496944e-39
0.00493576107881 -0.026324059087 0.889 9.2305435611e-39
0.00656620933919 -0.0262648373568 0.887 8.67235593601e-39
0.00818925488329 -0.0262056156265 0.885 2.03649921093e-38
0.00982710585995 -0.0262056156265 0.885 2.18297749993e-38
0.0114260925761 -0.0261167830312 0.882 2.23789634856e-38
0.0130287806505 -0.026057561301 0.88 2.21935002326e-38
0.0146240660085 -0.0259983395707 0.878 2.32987743963e-38
0.0161934418596 -0.0259095069754 0.875 2.34867543814e-38
0.0177313561665 -0.0257910635149 0.871 2.32094304088e-38
0.0193432976362 -0.0257910635149 0.871 2.3115812461e-38
0.0209552391059 -0.0257910635149 0.871 2.34838957325e-38
0.0225153615616 -0.0257318417847 0.869 2.34835103755e-38
0.0241236016732 -0.0257318417847 0.869 2.34856543621e-38
0.0257318417847 -0.0257318417847 0.869 2.34860074893e-38
0.0273400818963 -0.0257318417847 0.869 2.34878179669e-38
0.0288816975613 -0.0256726200545 0.867 2.34878389864e-38
0.0304862363147 -0.0256726200545 0.867 2.34853054388e-38
0.0320907750681 -0.0256726200545 0.867 2.3490710247e-38
0.0336953138215 -0.0256726200545 0.867 2.34892276732e-38
0.0352998525749 -0.0256726200545 0.867 2.34888997693e-38
0.0369043913283 -0.0256726200545 0.867 2.3492851431e-38
0.0385977626771 -0.0257318417847 0.869 2.34899227172e-38
0.0402060027886 -0.0257318417847 0.869 2.34889039732e-38
0.0418142429001 -0.0257318417847 0.869 2.34903473107e-38
0.0435224196815 -0.0257910635149 0.871 2.34889095784e-38
0.0451343611511 -0.0257910635149 0.871 2.34896102277e-38
0.0467463026208 -0.0257910635149 0.871 2.34914263105e-38
0.0484692848347 -0.0258502852452 0.873 2.34910801898e-38
0.0503717829183 -0.0259983395707 0.878 2.34960856279e-38
0.0519966791415 -0.0259983395707 0.878 2.34961080486e-38
0.0536215753646 -0.0259983395707 0.878 2.34921704e-38
0.0552464715878 -0.0259983395707 0.878 1.5575084909e-38
0.0571304628807 -0.0261167830312 0.882 1.38381025949e-38
0.0589626351597 -0.0262056156265 0.885 1.31044948229e-38
0.0606004861364 -0.0262056156265 0.885 1.35647485009e-38
0.062238337113 -0.0262056156265 0.885 1.3467890751e-38
0.0638761880897 -0.0262056156265 0.885 2.03718178341e-38
0.0655140390664 -0.0262056156265 0.885 2.35098155502e-38
0.00331641689285 -0.0248731266964 0.896 7.846195203e-39
0.00493576107881 -0.0246788053941 0.889 9.22946736388e-39
0.00658101477175 -0.0246788053941 0.889 9.87410949902e-39
0.00820776167399 -0.024623285022 0.887 8.67307340083e-39
0.00984931400879 -0.024623285022 0.887 1.86211140055e-38
0.0114908663436 -0.024623285022 0.887 2.13751993826e-38
0.0131028078133 -0.0245677646499 0.885 2.24715332622e-38
0.014690690455 -0.0244844840917 0.882 2.27470285403e-38
0.0162489622317 -0.0243734433476 0.878 2.34845935792e-38
0.0178127860456 -0.0242901627894 0.875 2.26559133115e-38
0.0193877139339 -0.0242346424173 0.873 2.34853138466e-38
0.0210033567617 -0.0242346424173 0.873 2.34859808646e-38
0.0225671805756 -0.0241791220453 0.871 2.34842208338e-38
0.0241791220453 -0.0241791220453 0.871 2.34871033047e-38
0.0257318417847 -0.0241236016732 0.869 2.3486409662e-38
0.0273400818963 -0.0241236016732 0.869 2.34881921136e-38
0.0289483220078 -0.0241236016732 0.869 2.34867445723e-38
0.0305565621193 -0.0241236016732 0.869 2.34888871577e-38
0.0321648022309 -0.0241236016732 0.869 2.34888997693e-38
0.0336953138215 -0.0240680813011 0.867 2.34882075279e-38
0.0352998525749 -0.0240680813011 0.867 2.34899829731e-38
0.0369895225655 -0.0241236016732 0.869 2.34888871577e-38
0.0385977626771 -0.0241236016732 0.869 2.34910675781e-38
0.0402985367421 -0.0241791220453 0.871 2.34917892468e-38
0.0419104782118 -0.0241791220453 0.871 2.34874900631e-38
0.0436223563512 -0.0242346424173 0.873 2.34918004572e-38
0.0453416372069 -0.0242901627894 0.875 2.34928528323e-38
0.047121990472 -0.0243734433476 0.878 2.34881907123e-38
0.0487468866951 -0.0243734433476 0.878 2.34921661961e-38
0.0504865250206 -0.0244289637197 0.88 2.34975639978e-38
0.0522335660624 -0.0244844840917 0.882 2.10972153985e-38
0.0540490822297 -0.0245677646499 0.885 1.51187772874e-38
0.0556869332064 -0.0245677646499 0.885 1.3469684413e-38
0.0573247841831 -0.0245677646499 0.885 1.3196330319e-38
0.0589626351597 -0.0245677646499 0.885 1.3287141466e-38
0.0606004861364 -0.0245677646499 0.885 1.46707219125e-38
0.062238337113 -0.0245677646499 0.885 1.42062054846e-38
0.00331641689285 -0.02321491825 0.896 1.00567042941e-38
0.00497462533928 -0.02321491825 0.896 9.78012160842e-39
0.00659582020431 -0.0230853707151 0.891 8.58554269355e-39
0.00822626846469 -0.0230335517011 0.889 1.06152562568e-38
0.00987152215763 -0.0230335517011 0.889 7.57391730619e-39
0.0114908663436 -0.0229817326872 0.887 1.38312978896e-38
0.0131028078133 -0.0229299136732 0.885 2.10078882266e-38
0.0147406587899 -0.0229299136732 0.885 2.27527934821e-38
0.0163229893945 -0.0228521851523 0.882 2.32998463896e-38
0.0178738584549 -0.0227485471244 0.878 2.33930957959e-38
0.0194321302315 -0.0226708186035 0.875 2.29317687233e-38
0.0210514744175 -0.0226708186035 0.875 2.33001995168e-38
0.0226189995895 -0.0226189995895 0.873 2.34867557827e-38
0.0242346424173 -0.0226189995895 0.873 2.34853040375e-38
0.0257910635149 -0.0225671805756 0.871 2.34856375465e-38
0.0274030049846 -0.0225671805756 0.871 2.34881851071e-38
0.0290149464543 -0.0225671805756 0.871 2.3487118719e-38
0.030626887924 -0.0225671805756 0.871 2.34871033047e-38
0.0322388293937 -0.0225671805756 0.871 2.34885424382e-38
0.0338507708634 -0.0225671805756 0.871 2.34903262912e-38
0.035462712333 -0.0225671805756 0.871 2.34896144316e-38
0.0370746538027 -0.0225671805756 0.871 2.34895948134e-38
0.0386865952724 -0.0225671805756 0.871 2.34899899796e-38
0.0402985367421 -0.0225671805756 0.871 2.34882229422e-38
0.0420067135234 -0.0226189995895 0.873 2.34943185905e-38
0.043722293021 -0.0226708186035 0.875 2.34871159164e-38
0.0454970942488 -0.0227485471244 0.878 2.3492517922e-38
0.047121990472 -0.0227485471244 0.878 2.34953709657e-38
0.0488579274393 -0.0228003661383 0.88 2.3498598156e-38
0.0504865250206 -0.0228003661383 0.88 1.70452361733e-38
0.0522335660624 -0.0228521851523 0.882 1.26374252291e-38
0.0541712270483 -0.0229817326872 0.887 1.3383229903e-38
0.0556869332064 -0.0229299136732 0.885 1.20910757735e-38
0.0573247841831 -0.0229299136732 0.885 1.35647485009e-38
0.0589626351597 -0.0229299136732 0.885 1.46703617788e-38
0.0606004861364 -0.0229299136732 0.885 1.4209390636e-38
0.062238337113 -0.0229299136732 0.885 1.18123406933e-38
0.00331641689285 -0.0215567098035 0.896 9.41206215897e-39
0.00497462533928 -0.0215567098035 0.896 9.22946736388e-39
0.00661802835314 -0.0215085921477 0.894 9.04687256878e-39
0.00824477525538 -0.021436415664 0.891 9.04830749841e-39
0.00987152215763 -0.0213882980082 0.889 9.60003794017e-39
0.0114908663436 -0.0213401803524 0.887 9.32596638133e-39
0.0131324186784 -0.0213401803524 0.887 9.41385582101e-39
0.0147406587899 -0.0212920626966 0.885 1.71446176617e-38
0.0163229893945 -0.0212198862128 0.882 2.13770014525e-38
0.0179145733944 -0.021171768557 0.88 2.3030804091e-38
0.0194987546781 -0.0211236509012 0.878 2.34899843744e-38
0.0211236509012 -0.0211236509012 0.878 2.34874578332e-38
0.0227485471244 -0.0211236509012 0.878 2.34870991008e-38
0.0242901627894 -0.0210514744175 0.875 2.34856711777e-38
0.0259095069754 -0.0210514744175 0.875 2.34860172984e-38
0.0275288511614 -0.0210514744175 0.875 2.34881781006e-38
0.0291481953473 -0.0210514744175 0.875 2.34874648397e-38
0.0306972137286 -0.0210033567617 0.873 2.3487827776e-38
0.0323128565565 -0.0210033567617 0.873 2.34899885783e-38
0.0338507708634 -0.0209552391059 0.871 2.34910199339e-38
0.035462712333 -0.0209552391059 0.871 2.34903361003e-38
0.0371597850399 -0.0210033567617 0.873 2.34906948327e-38
0.0387754278677 -0.0210033567617 0.873 2.34917738325e-38
0.0404836046491 -0.0210514744175 0.875 2.34878235721e-38
0.0422473018025 -0.0211236509012 0.878 2.34896298458e-38
0.0438721980256 -0.0211236509012 0.878 2.34953807747e-38
0.0454970942488 -0.0211236509012 0.878 2.34939136153e-38
0.047229329858 -0.021171768557 0.88 1.99000412789e-38
0.0488579274393 -0.021171768557 0.88 1.42865181035e-38
0.0504865250206 -0.021171768557 0.88 1.31948953894e-38
0.0522335660624 -0.0212198862128 0.882 1.20017514041e-38
0.0541712270483 -0.0213401803524 0.887 1.20013926717e-38
0.0556869332064 -0.0212920626966 0.885 1.35661834305e-38
0.0573247841831 -0.0212920626966 0.885 1.34736304695e-38
0.0590958840527 -0.0213401803524 0.887 1.31956128542e-38
0.0607374363875 -0.0213401803524 0.887 1.41186313371e-38
0.0623789887223 -0.0213401803524 0.887 1.05237738879e-38
0.00332381960913 -0.0199429176548 0.898 9.96522753036e-39
0.00498572941369 -0.0199429176548 0.898 9.59537582018e-39
0.0066328337857 -0.0198985013571 0.896 9.41600821545e-39
0.00824477525538 -0.0197874606129 0.891 9.047948766e-39
0.00989373030646 -0.0197874606129 0.891 9.50820244401e-39
0.0115167758506 -0.0197430443153 0.889 9.3248901841e-39
0.0131324186784 -0.0196986280176 0.887 9.87913175271e-39
0.0147739710132 -0.0196986280176 0.887 8.4054590253e-39
0.0163785097666 -0.0196542117199 0.885 1.07045750209e-38
0.0179552883339 -0.0195875872734 0.882 1.59470904149e-38
0.0195875872734 -0.0195875872734 0.882 2.01813113079e-38
0.021171768557 -0.0195431709757 0.88 2.19280494619e-38
0.0227485471244 -0.0194987546781 0.878 2.34924969025e-38
0.0243734433476 -0.0194987546781 0.878 2.34903501133e-38
0.0259983395707 -0.0194987546781 0.878 2.34914445274e-38
0.0276232357939 -0.0194987546781 0.878 2.34885466421e-38
