# .PCD v0.7 - Point Cloud Data file format
VERSION 0.7
FIELDS x y z rgb
SIZE 4 4 4 4
TYPE F F F F
COUNT 1 1 1 1
WIDTH 842
HEIGHT 1
VIEWPOINT 0 0 0 1 0 0 0
POINTS 842
DATA ascii
-0.0100047710506 -0.0967127868229 0.901 1.97986026843e-38
-0.00833730920887 -0.0967127868229 0.901 2.0073391708e-38
-0.00664763921826 -0.0963907686647 0.898 2.14566792831e-38
-0.00498572941369 -0.0963907686647 0.898 2.07198204987e-38
-0.00332381960913 -0.0963907686647 0.898 2.09020607652e-38
-0.00166190980456 -0.0963907686647 0.898 2.11797196482e-38
0.0 -0.0963907686647 0.898 2.15481490404e-38
0.00165820844643 -0.0961760898927 0.896 2.18243856054e-38
0.00331641689285 -0.0961760898927 0.896 2.21020486922e-38
0.00497462533928 -0.0961760898927 0.896 2.182473593e-38
0.0066328337857 -0.0961760898927 0.896 2.21927995833e-38
0.00829104223213 -0.0961760898927 0.896 2.23779097092e-38
0.00994925067855 -0.0961760898927 0.896 2.24718835868e-38
0.011607459125 -0.0961760898927 0.896 2.24722577335e-38
0.0132656675714 -0.0961760898927 0.896 2.25626540961e-38
0.0149238760178 -0.0961760898927 0.896 2.32987926132e-38
0.0165820844643 -0.0961760898927 0.896 2.32994932624e-38
0.0182402929107 -0.0961760898927 0.896 2.24715332622e-38
0.0199429176548 -0.0963907686647 0.898 2.34846075921e-38
0.0216048274593 -0.0963907686647 0.898 2.34842348468e-38
0.0232667372639 -0.0963907686647 0.898 2.34824467899e-38
0.0249286470685 -0.0963907686647 0.898 2.34835398027e-38
0.0266793894684 -0.0967127868229 0.901 2.34874914644e-38
0.0283468513102 -0.0967127868229 0.901 2.34849523116e-38
0.0301808742682 -0.0972494837531 0.906 2.3300942205e-38
0.0318575895053 -0.0972494837531 0.906 2.34907354703e-38
0.0335343047424 -0.0972494837531 0.906 2.34889165849e-38
0.0352887485005 -0.0974641625252 0.908 2.34878431903e-38
0.0369691650957 -0.0974641625252 0.908 2.34831586495e-38
0.0387347129282 -0.0976788412972 0.91 2.34910745846e-38
0.0404188308816 -0.0976788412972 0.91 2.33945853762e-38
0.042102948835 -0.0976788412972 0.91 1.56665616727e-38
-0.0254838507894 -0.0968386329996 0.918 1.98003977477e-38
-0.0237849274034 -0.0968386329996 0.918 8.19416563766e-39
-0.0220860040175 -0.0968386329996 0.918 1.06884642925e-38
-0.020320456185 -0.0965221668787 0.915 1.85150315079e-38
-0.0186270848362 -0.0965221668787 0.915 1.7863197909e-38
-0.0168966999061 -0.0963111894648 0.913 1.92457792298e-38
-0.0151570615806 -0.0959947233438 0.91 1.91524877845e-38
-0.013413721897 -0.095572768516 0.906 1.96131226157e-38
-0.0117370066599 -0.095572768516 0.906 1.97063916402e-38
-0.0100269791995 -0.095256302395 0.903 2.00751699557e-38
-0.00835581599956 -0.095256302395 0.903 2.03517568453e-38
-0.00666984736709 -0.0950453249811 0.901 2.11807916415e-38
-0.00500238552532 -0.0950453249811 0.901 2.03521267881e-38
-0.00333492368355 -0.0950453249811 0.901 2.11822223672e-38
-0.00166190980456 -0.0947288588602 0.898 2.11804259026e-38
0.0 -0.0947288588602 0.898 2.17325459053e-38
0.00166190980456 -0.0947288588602 0.898 2.19169343625e-38
0.00332381960913 -0.0947288588602 0.898 2.23783048753e-38
0.00498572941369 -0.0947288588602 0.898 2.18258079233e-38
0.00664763921826 -0.0947288588602 0.898 2.25612065548e-38
0.00830954902282 -0.0947288588602 0.898 2.24686606003e-38
0.00997145882739 -0.0947288588602 0.898 2.31158474935e-38
0.011633368632 -0.0947288588602 0.898 2.25630100259e-38
0.0132952784365 -0.0947288588602 0.898 2.31151090092e-38
0.0149571882411 -0.0947288588602 0.898 2.30232791182e-38
0.0166190980456 -0.0947288588602 0.898 2.34849677259e-38
0.0182810078502 -0.0947288588602 0.898 2.31183361995e-38
0.0199429176548 -0.0947288588602 0.898 2.29339379333e-38
0.0216048274593 -0.0947288588602 0.898 2.33005498415e-38
0.0232667372639 -0.0947288588602 0.898 2.34831712612e-38
0.0249286470685 -0.0947288588602 0.898 2.3483179669e-38
0.0266793894684 -0.0950453249811 0.901 2.34831852742e-38
0.0283468513102 -0.0950453249811 0.901 2.348750828e-38
0.0301808742682 -0.095572768516 0.906 2.34853306622e-38
0.0318575895053 -0.095572768516 0.906 2.34838943312e-38
0.0336083319052 -0.0957837459299 0.908 2.34838901273e-38
0.0352887485005 -0.0957837459299 0.908 2.34910787885e-38
0.0369691650957 -0.0957837459299 0.908 2.34885578525e-38
0.0387347129282 -0.0959947233438 0.91 2.34928892661e-38
0.0404188308816 -0.0959947233438 0.91 1.75044528905e-38
0.042102948835 -0.0959947233438 0.91 1.54893478637e-38
-0.0237849274034 -0.0951397096136 0.918 9.1157491909e-39
-0.0220860040175 -0.0951397096136 0.918 6.55009501699e-39
-0.0203870806315 -0.0951397096136 0.918 1.40996605585e-38
-0.0186270848362 -0.0948287955299 0.915 1.79636976336e-38
-0.0168966999061 -0.0946215194741 0.913 1.869584245e-38
-0.0151570615806 -0.0943106053904 0.91 1.91517661158e-38
-0.013413721897 -0.0938960532788 0.906 1.96120436159e-38
-0.0117370066599 -0.0938960532788 0.906 1.97042364431e-38
-0.0100269791995 -0.0935851391951 0.903 2.04443098063e-38
-0.00835581599956 -0.0935851391951 0.903 2.02588451519e-38
-0.00666984736709 -0.0933778631393 0.901 2.11800923936e-38
-0.00500238552532 -0.0933778631393 0.901 2.05368893919e-38
-0.00333492368355 -0.0933778631393 0.901 2.1274394175e-38
-0.00166746184177 -0.0933778631393 0.901 2.0997476579e-38
0.0 -0.0933778631393 0.901 2.18250918598e-38
0.00166746184177 -0.0933778631393 0.901 2.22867552441e-38
0.00333492368355 -0.0933778631393 0.901 2.18254547961e-38
0.00498572941369 -0.0930669490556 0.898 2.1548874913e-38
0.00664763921826 -0.0930669490556 0.898 2.28381689924e-38
0.00830954902282 -0.0930669490556 0.898 2.21927855703e-38
0.00997145882739 -0.0930669490556 0.898 2.21934890222e-38
0.011633368632 -0.0930669490556 0.898 2.34853278596e-38
0.0132952784365 -0.0930669490556 0.898 2.30239853726e-38
0.0149571882411 -0.0930669490556 0.898 2.33920448221e-38
0.0166190980456 -0.0930669490556 0.898 2.26552098597e-38
0.0182810078502 -0.0930669490556 0.898 2.31151090092e-38
0.0199429176548 -0.0930669490556 0.898 2.33005764661e-38
0.0216048274593 -0.0930669490556 0.898 2.34881977188e-38
0.0233444657848 -0.0933778631393 0.901 2.34885578525e-38
0.0250119276266 -0.0933778631393 0.901 2.31154747481e-38
0.0267386111986 -0.0935851391951 0.903 2.34849901466e-38
0.0284097743985 -0.0935851391951 0.903 2.34857090127e-38
0.0301808742682 -0.0938960532788 0.906 2.34860467257e-38
0.03192791531 -0.0941033293346 0.908 2.3486423675e-38
0.0336083319052 -0.0941033293346 0.908 2.34864110633e-38
0.0352887485005 -0.0941033293346 0.908 2.34867725983e-38
0.0370505949748 -0.0943106053904 0.91 2.34917864442e-38
0.0387347129282 -0.0943106053904 0.91 2.04511593532e-38
0.0404188308816 -0.0943106053904 0.91 1.45666881132e-38
0.042102948835 -0.0943106053904 0.91 1.32799415945e-38
-0.0237849274034 -0.0934407862277 0.918 9.20830215187e-39
-0.0220860040175 -0.0934407862277 0.918 7.8408142169e-39
-0.0203870806315 -0.0934407862277 0.918 7.84189041412e-39
-0.0186881572455 -0.0934407862277 0.918 1.16146791371e-38
-0.0169337134875 -0.0931354241812 0.915 1.7412939693e-38
-0.0152070299155 -0.0929318494835 0.913 1.97089083722e-38
-0.0134433327621 -0.0924229127394 0.908 1.95209269858e-38
-0.0117370066599 -0.0922193380417 0.906 2.04421728261e-38
-0.0100602914227 -0.0922193380417 0.906 1.96141918064e-38
-0.00835581599956 -0.0919139759952 0.903 2.0812732192e-38
-0.00668465279965 -0.0919139759952 0.903 2.06290668049e-38
-0.00501348959974 -0.0919139759952 0.903 2.07209121102e-38
-0.00333492368355 -0.0917104012975 0.901 2.08120287402e-38
-0.00166746184177 -0.0917104012975 0.901 2.13651997168e-38
0.0 -0.0917104012975 0.901 2.14552331431e-38
0.00166746184177 -0.0917104012975 0.901 2.2378613161e-38
0.00333492368355 -0.0917104012975 0.901 2.21949505765e-38
0.00500238552532 -0.0917104012975 0.901 2.19180105597e-38
0.00664763921826 -0.0914050392511 0.898 2.27481369673e-38
0.00830954902282 -0.0914050392511 0.898 2.31161810025e-38
0.00997145882739 -0.0914050392511 0.898 2.22860672065e-38
0.011633368632 -0.0914050392511 0.898 2.34842670766e-38
0.0132952784365 -0.0914050392511 0.898 2.21938968e-38
0.0149571882411 -0.0914050392511 0.898 2.34860369166e-38
0.0166190980456 -0.0914050392511 0.898 2.27477838401e-38
0.0182810078502 -0.0914050392511 0.898 2.31154593338e-38
0.0199429176548 -0.0914050392511 0.898 2.3485686592e-38
0.0216048274593 -0.0914050392511 0.898 2.28399668583e-38
0.0233444657848 -0.0917104012975 0.901 2.32076927987e-38
0.0250119276266 -0.0917104012975 0.901 2.34875012735e-38
0.0267386111986 -0.0919139759952 0.903 2.34871355346e-38
0.0284097743985 -0.0919139759952 0.903 2.34842684779e-38
0.0301808742682 -0.0922193380417 0.906 2.34864040568e-38
0.03192791531 -0.0924229127394 0.908 2.34878389864e-38
0.0336083319052 -0.0924229127394 0.908 2.34885564512e-38
0.0352887485005 -0.0924229127394 0.908 2.34885732668e-38
0.0370505949748 -0.092626487437 0.91 2.07287635855e-38
0.0387347129282 -0.092626487437 0.91 1.53946775408e-38
0.0404188308816 -0.092626487437 0.91 1.28243248131e-38
0.042102948835 -0.092626487437 0.91 1.46635935072e-38
-0.0237849274034 -0.0917418628417 0.918 8.28707733104e-39
-0.0220860040175 -0.0917418628417 0.918 7.74826125592e-39
-0.0203870806315 -0.0917418628417 0.918 8.02986759661e-39
-0.0186881572455 -0.0917418628417 0.918 8.03130112494e-39
-0.0169337134875 -0.0914420528324 0.915 1.06062823414e-38
-0.0152070299155 -0.0912421794929 0.913 1.60314724045e-38
-0.0134729436272 -0.0909423694836 0.91 1.86983886093e-38
-0.0117629161668 -0.0907424961441 0.908 2.03539218515e-38
-0.0100602914227 -0.0905426228046 0.906 1.99847539749e-38
-0.00838357618561 -0.0905426228046 0.906 2.03546154942e-38
-0.00668465279965 -0.0902428127953 0.903 2.10911365657e-38
-0.00501348959974 -0.0902428127953 0.903 2.0998575197e-38
-0.00333492368355 -0.0900429394558 0.901 2.18262058921e-38
-0.00166746184177 -0.0900429394558 0.901 2.19183580817e-38
0.0 -0.0900429394558 0.901 2.21009500742e-38
0.00166746184177 -0.0900429394558 0.901 2.18254547961e-38
0.00333492368355 -0.0900429394558 0.901 2.19180105597e-38
0.00500238552532 -0.0900429394558 0.901 2.22857168819e-38
0.00666984736709 -0.0900429394558 0.901 2.21942247039e-38
0.00833730920887 -0.0900429394558 0.901 2.24700955299e-38
0.0100047710506 -0.0900429394558 0.901 2.26534204015e-38
0.0116722328924 -0.0900429394558 0.901 2.30229287936e-38
0.0132952784365 -0.0897431294465 0.898 2.27474181012e-38
0.0149571882411 -0.0897431294465 0.898 2.34842418533e-38
0.0166190980456 -0.0897431294465 0.898 2.28388850559e-38
0.0182810078502 -0.0897431294465 0.898 2.348678521e-38
0.0200095421013 -0.0900429394558 0.901 2.28396193363e-38
0.0216770039431 -0.0900429394558 0.901 2.34860537322e-38
0.0233962847988 -0.0902428127953 0.903 2.34842572675e-38
0.0250674479987 -0.0902428127953 0.903 2.3485325057e-38
0.0267386111986 -0.0902428127953 0.903 2.34867487762e-38
0.0285041590311 -0.0905426228046 0.906 2.34871257255e-38
0.0302474987147 -0.0907424961441 0.908 2.34903529159e-38
0.03192791531 -0.0907424961441 0.908 2.29336016217e-38
0.033682359068 -0.0909423694836 0.91 2.20155367289e-38
0.0353664770214 -0.0909423694836 0.91 1.89813822355e-38
0.0370505949748 -0.0909423694836 0.91 1.53971536351e-38
0.038862409784 -0.0912421794929 0.913 1.2641730018e-38
0.0405520797746 -0.0912421794929 0.913 1.14471511031e-38
-0.0220860040175 -0.0900429394558 0.918 6.4618468449e-39
-0.0203870806315 -0.0900429394558 0.918 6.64910516128e-39
-0.0186881572455 -0.0900429394558 0.918 6.83492854804e-39
-0.0169337134875 -0.0897486814837 0.915 7.38917011665e-39
-0.0152403421387 -0.0897486814837 0.915 9.32022666282e-39
-0.0134729436272 -0.0892582515302 0.91 1.41039835642e-38
-0.0117629161668 -0.0890620795488 0.908 1.73222042161e-38
-0.0100824995716 -0.0890620795488 0.908 1.91586184653e-38
-0.00838357618561 -0.0888659075675 0.906 1.91575492745e-38
-0.00670686094849 -0.0888659075675 0.906 2.02631751642e-38
-0.00503014571137 -0.0888659075675 0.906 2.07219813009e-38
-0.00334232639983 -0.0885716495954 0.903 2.09045802999e-38
-0.00167116319991 -0.0885716495954 0.903 2.1181521718e-38
0.0 -0.0885716495954 0.903 2.16406823832e-38
0.00167116319991 -0.0885716495954 0.903 2.20105410999e-38
0.00334232639983 -0.0885716495954 0.903 2.20105410999e-38
0.00500238552532 -0.088375477614 0.901 2.23790083272e-38
0.00666984736709 -0.088375477614 0.901 2.21953135128e-38
0.00833730920887 -0.088375477614 0.901 2.3484611796e-38
0.0100047710506 -0.088375477614 0.901 2.34853222544e-38
0.0116722328924 -0.088375477614 0.901 2.24711773324e-38
0.0133396947342 -0.088375477614 0.901 2.28389102793e-38
0.015007156576 -0.088375477614 0.901 2.26534204015e-38
0.0166746184177 -0.088375477614 0.901 2.32998730143e-38
0.0183420802595 -0.088375477614 0.901 2.28385221196e-38
0.020053958399 -0.0885716495954 0.903 2.31161810025e-38
0.0217251215989 -0.0885716495954 0.903 2.31158306779e-38
0.0233962847988 -0.0885716495954 0.903 2.34839139494e-38
0.0251507285568 -0.0888659075675 0.906 2.34860649426e-38
0.026827443794 -0.0888659075675 0.906 2.34856711777e-38
0.0285041590311 -0.0888659075675 0.906 2.23836536316e-38
0.0302474987147 -0.0890620795488 0.908 2.1187615965e-38
0.0319982411146 -0.0892582515302 0.91 2.05472407837e-38
0.033682359068 -0.0892582515302 0.91 1.67758729773e-38
0.0353664770214 -0.0892582515302 0.91 1.41121741537e-38
0.0371727397934 -0.0895525095023 0.913 1.16315395603e-38
0.038862409784 -0.0895525095023 0.913 1.04340907861e-38
0.0405520797746 -0.0895525095023 0.913 1.07092385422e-38
-0.0220860040175 -0.0883440160698 0.918 7.01250108944e-39
-0.0203870806315 -0.0883440160698 0.918 6.64910516128e-39
-0.0186881572455 -0.0883440160698 0.918 6.83456981563e-39
-0.0169892338596 -0.0883440160698 0.918 6.65197502054e-39
-0.0152403421387 -0.0880553101349 0.915 7.20621658915e-39
-0.0135173599249 -0.0878628395117 0.913 7.39096377868e-39
-0.0117888256738 -0.0875741335768 0.91 1.04261986732e-38
-0.0100824995716 -0.0873816629536 0.908 1.33646556918e-38
-0.00840208297631 -0.0873816629536 0.908 1.6401659025e-38
-0.00670686094849 -0.0871891923303 0.906 1.78739584799e-38
-0.00503014571137 -0.0871891923303 0.906 1.9713536861e-38
-0.00335343047424 -0.0871891923303 0.906 2.09099696938e-38
-0.00167671523712 -0.0871891923303 0.906 2.15531684915e-38
0.0 -0.0869004863955 0.903 2.17361150125e-38
0.00167116319991 -0.0869004863955 0.903 2.13676912255e-38
0.00334232639983 -0.0869004863955 0.903 2.32104869879e-38
0.00501348959974 -0.0869004863955 0.903 2.22882322127e-38
0.00668465279965 -0.0869004863955 0.903 2.21956694426e-38
0.00835581599956 -0.0869004863955 0.903 2.24726290776e-38
0.0100269791995 -0.0869004863955 0.903 2.23790055246e-38
0.0116981423994 -0.0869004863955 0.903 2.29325156154e-38
0.0133396947342 -0.0867080157722 0.901 2.34860271075e-38
0.015007156576 -0.0867080157722 0.901 2.28399640557e-38
0.0167116319991 -0.0869004863955 0.903 2.33942098282e-38
0.018382795199 -0.0869004863955 0.903 2.30265063086e-38
0.020053958399 -0.0869004863955 0.903 2.34881907123e-38
0.0217251215989 -0.0869004863955 0.903 2.30290048237e-38
0.0234740133197 -0.0871891923303 0.906 2.18311678899e-38
0.0251507285568 -0.0871891923303 0.906 2.16471689938e-38
0.026827443794 -0.0871891923303 0.906 2.1279821404e-38
0.0285670821194 -0.0873816629536 0.908 1.88001326869e-38
0.0302474987147 -0.0873816629536 0.908 1.70548644951e-38
0.0319982411146 -0.0875741335768 0.91 1.46639045955e-38
0.0337933998122 -0.0878628395117 0.913 1.14464336383e-38
0.0354830698028 -0.0878628395117 0.913 1.09883323547e-38
0.0371727397934 -0.0878628395117 0.913 1.06195554405e-38
0.039075237877 -0.0883440160698 0.918 1.05277199443e-38
0.040774161263 -0.0883440160698 0.918 1.01585842977e-38
-0.0220860040175 -0.0866450926839 0.918 6.82919163213e-39
-0.0203870806315 -0.0866450926839 0.918 6.64910516128e-39
-0.0186881572455 -0.0866450926839 0.918 6.46686909859e-39
-0.0169892338596 -0.0866450926839 0.918 6.83564601285e-39
-0.0152403421387 -0.0863619387862 0.915 7.20585785674e-39
-0.0135173599249 -0.0861731695211 0.913 6.74524544632e-39
-0.0118276899343 -0.0861731695211 0.913 6.56157445401e-39
-0.0101047077204 -0.0858900156234 0.91 7.02182813202e-39
-0.00840208297631 -0.0857012463583 0.908 9.32202032485e-39
-0.00672166638105 -0.0857012463583 0.908 1.21732254946e-38
-0.00503014571137 -0.0855124770932 0.906 1.39199202083e-38
-0.00335343047424 -0.0855124770932 0.906 1.64077098318e-38
-0.00167671523712 -0.0855124770932 0.906 1.76923978431e-38
0.0 -0.0855124770932 0.906 1.84256889217e-38
0.00167671523712 -0.0855124770932 0.906 1.97157242879e-38
0.00335343047424 -0.0855124770932 0.906 1.93458683739e-38
0.00503014571137 -0.0855124770932 0.906 2.04500481235e-38
0.00670686094849 -0.0855124770932 0.906 2.12794612703e-38
0.00835581599956 -0.0852293231956 0.903 2.05418934288e-38
0.0100269791995 -0.0852293231956 0.903 2.08173887068e-38
0.0116981423994 -0.0852293231956 0.903 2.11843887746e-38
0.0133693055993 -0.0852293231956 0.903 2.18308287757e-38
0.0150404687992 -0.0852293231956 0.903 2.1831515412e-38
0.0167116319991 -0.0852293231956 0.903 2.15567263883e-38
0.018382795199 -0.0852293231956 0.903 2.03617761293e-38
0.020053958399 -0.0852293231956 0.903 1.89785305931e-38
0.0217972980826 -0.0855124770932 0.906 1.9904765056e-38
0.0234740133197 -0.0855124770932 0.906 1.68655644868e-38
0.0251507285568 -0.0855124770932 0.906 1.65020564548e-38
0.026827443794 -0.0855124770932 0.906 1.3924566914e-38
0.0285670821194 -0.0857012463583 0.908 1.20882059142e-38
0.0303141231612 -0.0858900156234 0.91 1.0895061929e-38
0.0321037298216 -0.0861731695211 0.913 9.23843567405e-39
0.0337933998122 -0.0861731695211 0.913 8.50411043719e-39
0.0355607983237 -0.0863619387862 0.915 8.96579904483e-39
0.0372541696725 -0.0863619387862 0.915 9.8834365416e-39
0.039075237877 -0.0866450926839 0.918 1.13567561418e-38
-0.0221341216733 -0.0851312372049 0.92 7.19440924829e-39
-0.0203870806315 -0.0849461692979 0.918 6.74129938985e-39
-0.0186881572455 -0.0849461692979 0.918 6.74309305188e-39
-0.0169892338596 -0.0849461692979 0.918 6.74381472059e-39
-0.0152403421387 -0.0846685674374 0.915 5.4538087816e-39
-0.01354697079 -0.0846685674374 0.915 7.11581602262e-39
-0.0118276899343 -0.0844834995305 0.913 6.83851587211e-39
-0.0101380199437 -0.0844834995305 0.913 7.76117562257e-39
-0.008420589767 -0.08420589767 0.91 7.11760968465e-39
-0.00672166638105 -0.0840208297631 0.908 6.93286249511e-39
-0.00504124978578 -0.0840208297631 0.908 8.12887633961e-39
-0.00335343047424 -0.0838357618561 0.906 8.1281588748e-39
-0.00167671523712 -0.0838357618561 0.906 8.86427777369e-39
0.0 -0.0838357618561 0.906 1.08860936188e-38
0.00167671523712 -0.0838357618561 0.906 1.24494564544e-38
0.00335343047424 -0.0838357618561 0.906 1.34614377716e-38
0.00503014571137 -0.0838357618561 0.906 1.52120477132e-38
0.00670686094849 -0.0838357618561 0.906 1.57637935692e-38
0.00838357618561 -0.0838357618561 0.906 1.41036276344e-38
0.0100269791995 -0.0835581599956 0.903 1.60379520086e-38
0.0116981423994 -0.0835581599956 0.903 1.60386218293e-38
0.0133693055993 -0.0835581599956 0.903 1.63158953551e-38
0.0150404687992 -0.0835581599956 0.903 1.47496766732e-38
0.0167671523712 -0.0838357618561 0.906 1.50280656326e-38
0.0184438676083 -0.0838357618561 0.906 1.46606830103e-38
0.0201205828455 -0.0838357618561 0.906 1.29122142528e-38
0.0217972980826 -0.0838357618561 0.906 1.16283109686e-38
0.0234740133197 -0.0838357618561 0.906 1.06181205109e-38
0.0252062489289 -0.0840208297631 0.908 9.79195977785e-39
0.0268866655242 -0.0840208297631 0.908 9.33421722668e-39
0.0285670821194 -0.0840208297631 0.908 9.33170609984e-39
0.0303141231612 -0.08420589767 0.91 8.5044691696e-39
0.0321037298216 -0.0844834995305 0.913 9.33385849428e-39
0.033867426975 -0.0846685674374 0.915 9.2413055333e-39
0.0355607983237 -0.0846685674374 0.915 9.33349976187e-39
0.0373763144911 -0.0849461692979 0.918 9.42533525803e-39
0.039075237877 -0.0849461692979 0.918 1.08035865665e-38
-0.0240440224732 -0.0841540786561 0.928 7.08317137359e-39
-0.0223265922965 -0.0841540786561 0.928 6.45935954012e-39
-0.0204314969292 -0.0834286124608 0.92 6.74165812225e-39
-0.0187288721851 -0.0834286124608 0.92 6.46651036619e-39
-0.017026247441 -0.0834286124608 0.92 6.56013952438e-39
-0.0152903104736 -0.0832472459119 0.918 6.37790346169e-39
-0.01354697079 -0.0829751960887 0.915 6.37790346169e-39
-0.0118535994412 -0.0829751960887 0.915 6.93071010067e-39
-0.0101380199437 -0.0827938295399 0.913 6.47153261988e-39
-0.00844834995305 -0.0827938295399 0.913 6.93322122752e-39
-0.0067364718136 -0.0825217797166 0.91 7.57858082748e-39
-0.00504124978578 -0.0823404131678 0.908 7.30092194456e-39
-0.00336083319052 -0.0823404131678 0.908 7.66969885882e-39
-0.00168041659526 -0.0823404131678 0.908 7.02577418849e-39
0.0 -0.082159046619 0.906 7.30271560659e-39
0.00167671523712 -0.082159046619 0.906 7.57858082748e-39
0.00335343047424 -0.082159046619 0.906 8.31505845877e-39
0.00504124978578 -0.0823404131678 0.908 7.30199814178e-39
0.00672166638105 -0.0823404131678 0.908 8.59271734169e-39
0.00840208297631 -0.0823404131678 0.908 8.68455283785e-39
0.0100602914227 -0.082159046619 0.906 7.11940334669e-39
0.0117370066599 -0.082159046619 0.906 8.59451100372e-39
0.013413721897 -0.082159046619 0.906 8.68562903507e-39
0.0150904371341 -0.082159046619 0.906 9.05368848451e-39
0.0167671523712 -0.082159046619 0.906 8.8703762246e-39
0.0184438676083 -0.082159046619 0.906 8.03991070271e-39
0.0201205828455 -0.082159046619 0.906 8.68634649988e-39
0.0217972980826 -0.082159046619 0.906 7.76655660867e-39
0.0235258323337 -0.0823404131678 0.908 8.68957509154e-39
0.025261769301 -0.0825217797166 0.91 7.95166253062e-39
0.0269458872544 -0.0825217797166 0.91 8.87324608386e-39
0.0286300052078 -0.0825217797166 0.91 8.41012254659e-39
0.0303141231612 -0.0825217797166 0.91 9.05691707618e-39
0.0321037298216 -0.0827938295399 0.913 8.59558720094e-39
0.033867426975 -0.0829751960887 0.915 9.05727580858e-39
0.0355607983237 -0.0829751960887 0.915 1.05313072684e-38
0.0373763144911 -0.0832472459119 0.918 1.07131845987e-38
0.039075237877 -0.0832472459119 0.918 1.09879736223e-38
-0.0240440224732 -0.0824366484794 0.928 4.87086862044e-39
-0.0223265922965 -0.0824366484794 0.928 6.55192090889e-39
-0.0204981213757 -0.0819924855027 0.923 6.64874642888e-39
-0.0187899445944 -0.0819924855027 0.923 6.74309305188e-39
-0.017026247441 -0.0817259877167 0.92 8.21855944133e-39
-0.0152903104736 -0.081548322526 0.918 6.65305121776e-39
-0.01354697079 -0.08128182474 0.915 6.8381571397e-39
-0.0118535994412 -0.08128182474 0.915 6.6552036122e-39
-0.0101602280925 -0.08128182474 0.915 7.67005759123e-39
-0.00844834995305 -0.0811041595493 0.913 7.30056321215e-39
-0.0067364718136 -0.0808376617632 0.91 7.208727716e-39
-0.0050523538602 -0.0808376617632 0.91 7.39311617313e-39
-0.00336083319052 -0.0806599965725 0.908 7.02541545609e-39
-0.00168041659526 -0.0806599965725 0.908 7.67041632363e-39
0.0 -0.0806599965725 0.908 7.303074339e-39
0.00168041659526 -0.0806599965725 0.908 8.31721085321e-39
0.00336083319052 -0.0806599965725 0.908 7.5796570247e-39
0.00504124978578 -0.0806599965725 0.908 7.58073322192e-39
0.00672166638105 -0.0806599965725 0.908 7.39598603238e-39
0.00840208297631 -0.0806599965725 0.908 8.59271734169e-39
0.0100602914227 -0.0804823313819 0.906 7.94951013618e-39
0.0117370066599 -0.0804823313819 0.906 7.94951013618e-39
0.013413721897 -0.0804823313819 0.906 7.76512167905e-39
0.0150904371341 -0.0804823313819 0.906 8.04170436474e-39
0.0167671523712 -0.0804823313819 0.906 8.04170436474e-39
0.0184438676083 -0.0804823313819 0.906 8.40976381419e-39
0.0201205828455 -0.0804823313819 0.906 8.41227494103e-39
0.0217972980826 -0.0804823313819 0.906 7.85946830205e-39
0.0235258323337 -0.0806599965725 0.908 7.85946830205e-39
0.025261769301 -0.0808376617632 0.91 8.59415227132e-39
0.0269458872544 -0.0808376617632 0.91 8.87073495701e-39
0.0286300052078 -0.0808376617632 0.91 8.31972198006e-39
0.030414059831 -0.0811041595493 0.913 7.86162069649e-39
0.0321037298216 -0.0811041595493 0.913 9.05763454099e-39
0.033867426975 -0.08128182474 0.915 9.60828878553e-39
0.0356773911051 -0.081548322526 0.918 9.42354159599e-39
0.0373763144911 -0.081548322526 0.918 9.69868935206e-39
-0.0258169730219 -0.0808931821353 0.93 2.35022527424e-38
-0.0240958414871 -0.0808931821353 0.93 6.89842418406e-39
-0.0223265922965 -0.0807192183028 0.928 7.29019500482e-39
-0.0205425376733 -0.0804582725539 0.925 6.55691093272e-39
-0.0188306595339 -0.0804582725539 0.925 6.6498226261e-39
-0.0170817678131 -0.0802843087214 0.923 6.74309305188e-39
-0.0152903104736 -0.07984939914 0.918 6.19172134253e-39
-0.01354697079 -0.0795884533912 0.915 7.20729278637e-39
-0.0118535994412 -0.0795884533912 0.915 7.02290432924e-39
-0.0101602280925 -0.0795884533912 0.915 7.02362179405e-39
-0.00846685674374 -0.0795884533912 0.915 7.11689221984e-39
-0.00675867996244 -0.0794144895587 0.913 7.11725095224e-39
-0.00506900997183 -0.0794144895587 0.913 6.84210319618e-39
-0.0033682359068 -0.0791535438098 0.91 7.11760968465e-39
-0.0016841179534 -0.0791535438098 0.91 7.39383363794e-39
0.0 -0.0791535438098 0.91 7.21123884284e-39
0.00168041659526 -0.0789795799773 0.908 7.67077505604e-39
0.00336083319052 -0.0789795799773 0.908 7.85408731595e-39
0.00504124978578 -0.0789795799773 0.908 7.67149252085e-39
0.00672166638105 -0.0789795799773 0.908 8.3164933884e-39
0.00840208297631 -0.0789795799773 0.908 8.04026943511e-39
0.0100824995716 -0.0789795799773 0.908 7.39598603238e-39
0.0117629161668 -0.0789795799773 0.908 8.13389859331e-39
0.013413721897 -0.0788056161447 0.906 7.58252688395e-39
0.0150904371341 -0.0788056161447 0.906 8.04170436474e-39
0.0167671523712 -0.0788056161447 0.906 8.22645155428e-39
0.0184438676083 -0.0788056161447 0.906 8.59451100372e-39
0.0201205828455 -0.0788056161447 0.906 7.76691534108e-39
0.0217972980826 -0.0788056161447 0.906 8.044574224e-39
0.0235258323337 -0.0789795799773 0.908 8.50231677516e-39
0.025261769301 -0.0791535438098 0.91 1.01603779597e-38
0.0269458872544 -0.0791535438098 0.91 8.59451100372e-39
0.0286300052078 -0.0791535438098 0.91 9.70227947873e-39
0.030414059831 -0.0794144895587 0.913 8.50518663441e-39
0.0321740556262 -0.0795884533912 0.915 8.87288735145e-39
0.033867426975 -0.0795884533912 0.915 9.60828878553e-39
0.0356773911051 -0.07984939914 0.918 1.03444259013e-38
0.0374577443701 -0.0800233629726 0.92 1.03444076844e-38
-0.027626937152 -0.0794274443121 0.933 2.34954200111e-38
-0.0258169730219 -0.0791720506005 0.93 2.35004660869e-38
-0.0240958414871 -0.0791720506005 0.93 7.26612490109e-39
-0.0223265922965 -0.0790017881261 0.928 7.01289625561e-39
-0.0206091621199 -0.0790017881261 0.928 7.47564144229e-39
-0.0188306595339 -0.0787463944145 0.925 7.11043503651e-39
-0.0170817678131 -0.0785761319401 0.923 6.92784024142e-39
-0.0152903104736 -0.0781504757541 0.918 7.11294616336e-39
-0.0135913870877 -0.0781504757541 0.918 6.74524544632e-39
-0.0118535994412 -0.0778950820425 0.915 6.74524544632e-39
-0.0101602280925 -0.0778950820425 0.915 7.48459293688e-39
-0.00846685674374 -0.0778950820425 0.915 7.11545729021e-39
-0.006773485395 -0.0778950820425 0.915 7.30056321215e-39
-0.00508011404625 -0.0778950820425 0.915 7.39311617313e-39
-0.00337933998122 -0.077724819568 0.913 7.30092194456e-39
-0.00168966999061 -0.077724819568 0.913 7.94807520655e-39
0.0 -0.077724819568 0.913 7.39419237035e-39
0.0016841179534 -0.0774694258564 0.91 8.03847577308e-39
0.0033682359068 -0.0774694258564 0.91 8.03991070271e-39
0.0050523538602 -0.0774694258564 0.91 8.03991070271e-39
0.0067364718136 -0.0774694258564 0.91 8.13210493127e-39
0.00840208297631 -0.077299163382 0.908 9.14731764271e-39
0.0100824995716 -0.077299163382 0.908 7.85731590761e-39
0.0117629161668 -0.077299163382 0.908 8.22537535706e-39
0.0134433327621 -0.077299163382 0.908 7.76691534108e-39
0.0151237493574 -0.077299163382 0.908 7.85731590761e-39
0.0168041659526 -0.077299163382 0.908 7.94951013618e-39
0.0184845825479 -0.077299163382 0.908 8.59379353891e-39
0.0201649991431 -0.077299163382 0.908 8.22537535706e-39
0.0218454157384 -0.077299163382 0.908 8.410481279e-39
0.0235258323337 -0.077299163382 0.908 9.33027117021e-39
0.025261769301 -0.0774694258564 0.91 9.05404721692e-39
0.0269458872544 -0.0774694258564 0.91 9.88415400641e-39
0.0287243898404 -0.077724819568 0.913 8.59702213057e-39
0.0304806842775 -0.0778950820425 0.915 8.41299240585e-39
0.0321740556262 -0.0778950820425 0.915 8.78069312289e-39
0.0339784677192 -0.0781504757541 0.918 9.517888219e-39
0.0356773911051 -0.0781504757541 0.918 8.87252861905e-39
0.0373763144911 -0.0781504757541 0.918 9.88666513326e-39
0.03928806597 -0.0785761319401 0.923 1.11727208119e-38
0.0410850753467 -0.0787463944145 0.925 8.22107056817e-39
-0.0294165438124 -0.0778673218564 0.935 2.34907326677e-38
-0.027626937152 -0.0777007607401 0.933 2.34943185905e-38
-0.02590025358 -0.0777007607401 0.933 2.35029842202e-38
-0.024173570008 -0.0777007607401 0.933 6.53036473461e-39
-0.0223747099523 -0.0774509190657 0.93 6.55407610592e-39
-0.0206091621199 -0.0772843579495 0.928 7.01501221629e-39
-0.0188917319432 -0.0772843579495 0.928 8.21389592004e-39
-0.0171187813945 -0.0770345162751 0.925 6.28355683869e-39
-0.0152903104736 -0.0764515523681 0.918 6.65269248535e-39
-0.0135913870877 -0.0764515523681 0.918 8.21966646711e-39
-0.0118535994412 -0.0762017106937 0.915 7.39096377868e-39
-0.0101602280925 -0.0762017106937 0.915 7.02290432924e-39
-0.00846685674374 -0.0762017106937 0.915 7.57606970063e-39
-0.006773485395 -0.0762017106937 0.915 7.11617475502e-39
-0.00508011404625 -0.0762017106937 0.915 7.66969885882e-39
-0.0033867426975 -0.0762017106937 0.915 7.39383363794e-39
-0.00169337134875 -0.0762017106937 0.915 7.4860278665e-39
0.0 -0.0760351495774 0.913 7.21088011044e-39
0.00168966999061 -0.0760351495774 0.913 7.30343307141e-39
0.00337933998122 -0.0760351495774 0.913 7.48818026094e-39
0.0050523538602 -0.075785307903 0.91 7.58073322192e-39
0.0067364718136 -0.075785307903 0.91 8.04098689993e-39
0.008420589767 -0.075785307903 0.91 7.48853899335e-39
0.0100824995716 -0.0756187467868 0.908 7.58145068673e-39
0.0117629161668 -0.0756187467868 0.908 8.22429915984e-39
0.0134433327621 -0.0756187467868 0.908 7.94843393896e-39
0.0151237493574 -0.0756187467868 0.908 7.94951013618e-39
0.0168041659526 -0.0756187467868 0.908 8.04170436474e-39
0.0184845825479 -0.0756187467868 0.908 8.96257045317e-39
0.0201649991431 -0.0756187467868 0.908 8.59451100372e-39
0.0218454157384 -0.0756187467868 0.908 8.5934348065e-39
0.0235776513476 -0.075785307903 0.91 8.59451100372e-39
0.025261769301 -0.075785307903 0.91 8.5934348065e-39
0.0270347198498 -0.0760351495774 0.913 9.14588271308e-39
0.0287243898404 -0.0760351495774 0.913 1.08064564258e-38
0.0304806842775 -0.0762017106937 0.915 8.87324608386e-39
0.0321740556262 -0.0762017106937 0.915 8.78069312289e-39
0.033867426975 -0.0762017106937 0.915 8.87288735145e-39
0.0356773911051 -0.0764515523681 0.918 9.70155921132e-39
0.0373763144911 -0.0764515523681 0.918 1.03447664168e-38
0.03928806597 -0.0768679551588 0.923 1.05277199443e-38
0.0410850753467 -0.0770345162751 0.925 8.31577592359e-39
-0.0294165438124 -0.0761369369263 0.935 2.34925627635e-38
-0.0276861588823 -0.0761369369263 0.935 2.34964779914e-38
-0.02590025358 -0.0759740771681 0.933 2.35012031699e-38
-0.024173570008 -0.0759740771681 0.933 1.03092519085e-38
-0.022446886436 -0.0759740771681 0.933 7.1936651588e-39
-0.020720202864 -0.0759740771681 0.933 7.47490716189e-39
-0.0189324468827 -0.0757297875309 0.93 6.92461164976e-39
-0.0171187813945 -0.0753226381356 0.925 6.37646853206e-39
-0.0153735910318 -0.0751597783775 0.923 7.1147398254e-39
-0.0135913870877 -0.0747526289822 0.918 6.19243880734e-39
-0.0118535994412 -0.074508339345 0.915 7.02398192776e-39
-0.0101602280925 -0.074508339345 0.915 7.11617475502e-39
-0.00846685674374 -0.074508339345 0.915 7.20836898359e-39
-0.006773485395 -0.074508339345 0.915 7.30056321215e-39
-0.00508011404625 -0.074508339345 0.915 7.4856691341e-39
-0.0033867426975 -0.074508339345 0.915 7.48674533132e-39
-0.00169337134875 -0.074508339345 0.915 7.57858082748e-39
0.0 -0.074508339345 0.915 7.7626105522e-39
0.00169337134875 -0.074508339345 0.915 7.57929829229e-39
0.00337933998122 -0.0743454795868 0.913 8.04098689993e-39
0.00506900997183 -0.0743454795868 0.913 7.67185125326e-39
0.00675867996244 -0.0743454795868 0.913 7.58145068673e-39
0.008420589767 -0.0741011899496 0.91 7.48853899335e-39
0.0101047077204 -0.0741011899496 0.91 8.1335398609e-39
0.0117629161668 -0.0739383301915 0.908 8.22465789224e-39
0.0134433327621 -0.0739383301915 0.908 8.50016438072e-39
0.0151237493574 -0.0739383301915 0.908 9.14552398067e-39
0.0168041659526 -0.0739383301915 0.908 8.22537535706e-39
0.0184845825479 -0.0739383301915 0.908 8.13425732571e-39
0.0202094154408 -0.0741011899496 0.91 8.04170436474e-39
0.0218935333942 -0.0741011899496 0.91 7.76691534108e-39
0.0235776513476 -0.0741011899496 0.91 9.42569399043e-39
0.025261769301 -0.0741011899496 0.91 8.044574224e-39
0.0270347198498 -0.0743454795868 0.913 9.14625125457e-39
0.0287243898404 -0.0743454795868 0.913 8.96257045317e-39
0.0304806842775 -0.074508339345 0.915 9.42497652562e-39
0.0321740556262 -0.074508339345 0.915 9.14947003715e-39
0.033867426975 -0.074508339345 0.915 9.88415400641e-39
0.0356773911051 -0.0747526289822 0.918 9.97814189701e-39
0.0374577443701 -0.0749154887403 0.92 1.0251495991e-38
0.03928806597 -0.0751597783775 0.923 1.10801678509e-38
0.0410850753467 -0.0753226381356 0.925 9.33098863502e-39
-0.0294165438124 -0.0744065519961 0.935 2.34903823431e-38
-0.0276861588823 -0.0744065519961 0.935 2.34896620757e-38
-0.02590025358 -0.0742473935961 0.933 2.35015492906e-38
-0.024173570008 -0.0742473935961 0.933 8.55612663619e-39
-0.0224950040919 -0.0744065519961 0.935 8.66267436492e-39
-0.020720202864 -0.0742473935961 0.933 8.02807253328e-39
-0.0189324468827 -0.0740086559961 0.93 7.66144801346e-39
-0.0171743017665 -0.0738494975962 0.928 7.11258743096e-39
-0.0153735910318 -0.0734516015962 0.923 6.92963390345e-39
-0.0135913870877 -0.0730537055962 0.918 6.74775657317e-39
-0.0118924637017 -0.0730537055962 0.918 6.93107724087e-39
-0.0101935403157 -0.0730537055962 0.918 7.11725095224e-39
-0.00849461692979 -0.0730537055962 0.918 7.30092194456e-39
-0.006773485395 -0.0728149679962 0.915 7.39311617313e-39
-0.00508011404625 -0.0728149679962 0.915 7.39311617313e-39
-0.0033867426975 -0.0728149679962 0.915 7.30163940937e-39
-0.00169337134875 -0.0728149679962 0.915 7.48674533132e-39
0.0 -0.0728149679962 0.915 7.67077505604e-39
0.00169337134875 -0.0728149679962 0.915 7.57929829229e-39
0.0033867426975 -0.0728149679962 0.915 8.04062816752e-39
0.00508011404625 -0.0728149679962 0.915 7.67185125326e-39
0.00675867996244 -0.0726558095962 0.913 7.8569571752e-39
0.00844834995305 -0.0726558095962 0.913 7.48853899335e-39
0.0101380199437 -0.0726558095962 0.913 8.1335398609e-39
0.0117888256738 -0.0724170719962 0.91 7.85731590761e-39
0.0134729436272 -0.0724170719962 0.91 7.8569571752e-39
0.0151570615806 -0.0724170719962 0.91 7.58073322192e-39
0.016841179534 -0.0724170719962 0.91 7.94951013618e-39
0.0185252974874 -0.0724170719962 0.91 8.22645155428e-39
0.0202760398873 -0.0726558095962 0.913 8.41263367344e-39
0.0219657098779 -0.0726558095962 0.913 8.59738086298e-39
0.0236553798685 -0.0726558095962 0.913 8.59738086298e-39
0.0253450498591 -0.0726558095962 0.913 8.68849889432e-39
0.0270347198498 -0.0726558095962 0.913 9.14767637511e-39
0.0287873129287 -0.0728149679962 0.915 8.87109368942e-39
0.0304806842775 -0.0728149679962 0.915 8.3215156421e-39
0.0321740556262 -0.0728149679962 0.915 9.69940681687e-39
0.0339784677192 -0.0730537055962 0.918 9.70155921132e-39
0.035755119626 -0.0732128639962 0.92 9.883795274e-39
0.0375798891887 -0.0734516015962 0.923 1.09890498196e-38
0.0393731972073 -0.0736107599962 0.925 1.05280786767e-38
0.0412183242397 -0.0738494975962 0.928 7.76332801701e-39
-0.0294165438124 -0.072676167066 0.935 2.34918172727e-38
-0.0276861588823 -0.072676167066 0.935 2.34921774065e-38
-0.02590025358 -0.0725207100241 0.933 2.34993926922e-38
-0.024173570008 -0.0725207100241 0.933 1.11390307942e-38
-0.0224950040919 -0.072676167066 0.935 7.92763026195e-39
-0.020720202864 -0.0725207100241 0.933 7.93551957231e-39
-0.018993519292 -0.0725207100241 0.933 7.75400097443e-39
-0.0171743017665 -0.0721320674195 0.928 7.02003446998e-39
-0.015406903255 -0.0718988818567 0.925 6.92963390345e-39
-0.0136654142505 -0.0717434248149 0.923 6.93035136827e-39
-0.0118924637017 -0.0713547822102 0.918 7.02398052646e-39
-0.0101935403157 -0.0713547822102 0.918 6.84030953414e-39
-0.00849461692979 -0.0713547822102 0.918 7.11725095224e-39
-0.00679569354383 -0.0713547822102 0.918 7.30092194456e-39
-0.00509677015787 -0.0713547822102 0.918 7.39311617313e-39
-0.00339784677192 -0.0713547822102 0.918 7.30163940937e-39
-0.00169892338596 -0.0713547822102 0.918 7.57893955988e-39
0.0 -0.0713547822102 0.918 7.67041632363e-39
0.00169892338596 -0.0713547822102 0.918 7.8569571752e-39
0.00339784677192 -0.0713547822102 0.918 7.67113378845e-39
0.00508011404625 -0.0711215966475 0.915 7.58037448951e-39
0.006773485395 -0.0711215966475 0.915 7.85623971039e-39
0.00844834995305 -0.0709661396056 0.913 7.94951013618e-39
0.0101380199437 -0.0709661396056 0.913 8.31685212081e-39
0.0118276899343 -0.0709661396056 0.913 8.13425732571e-39
0.0135173599249 -0.0709661396056 0.913 7.76691534108e-39
0.0152070299155 -0.0709661396056 0.913 8.50267550757e-39
0.0168966999061 -0.0709661396056 0.913 8.22645155428e-39
0.0185863698967 -0.0709661396056 0.913 9.33349976187e-39
0.0202760398873 -0.0709661396056 0.913 7.58432054599e-39
0.0220138275337 -0.0711215966475 0.915 8.13712718497e-39
0.0237071988825 -0.0711215966475 0.915 8.41263367344e-39
0.0254005702312 -0.0711215966475 0.915 8.96328791798e-39
0.02709394158 -0.0711215966475 0.915 9.33134736743e-39
0.0288816975613 -0.0713547822102 0.918 9.42354159599e-39
0.0305806209472 -0.0713547822102 0.918 9.14875257233e-39
0.0322795443332 -0.0713547822102 0.918 8.87252861905e-39
0.0340524948819 -0.0715102392521 0.92 9.88630640085e-39
0.035755119626 -0.0715102392521 0.92 1.03444076844e-38
0.0375798891887 -0.0717434248149 0.923 1.15411389937e-38
0.0395008940631 -0.0721320674195 0.928 1.08954206614e-38
0.0412183242397 -0.0721320674195 0.928 7.94520534729e-39
0.0429357544164 -0.0721320674195 0.928 2.35083147596e-38
-0.0294165438124 -0.0709457821358 0.935 2.34893047446e-38
-0.0276861588823 -0.0709457821358 0.935 2.3491457139e-38
-0.0259557739521 -0.0709457821358 0.935 2.35029954306e-38
-0.024225389022 -0.0709457821358 0.935 1.03092547111e-38
-0.0224950040919 -0.0709457821358 0.935 8.01732737666e-39
-0.0207646191617 -0.0709457821358 0.935 7.66001308383e-39
-0.018993519292 -0.0707940264521 0.933 7.38522406017e-39
-0.0171743017665 -0.0704146372428 0.928 7.38809391943e-39
-0.015406903255 -0.0701870037173 0.925 7.11222869855e-39
-0.0136654142505 -0.0700352480336 0.923 7.11545729021e-39
-0.0118924637017 -0.0696558588243 0.918 7.1150985578e-39
-0.0101935403157 -0.0696558588243 0.918 7.11617475502e-39
-0.00849461692979 -0.0696558588243 0.918 7.30056321215e-39
-0.00679569354383 -0.0696558588243 0.918 7.3920399759e-39
-0.00509677015787 -0.0696558588243 0.918 7.48638659891e-39
-0.00339784677192 -0.0696558588243 0.918 7.0261329209e-39
-0.00169892338596 -0.0696558588243 0.918 7.30271560659e-39
0.0 -0.0696558588243 0.918 7.39383363794e-39
0.00169892338596 -0.0696558588243 0.918 7.12083827631e-39
0.00339784677192 -0.0696558588243 0.918 7.94843393896e-39
0.00508011404625 -0.0694282252987 0.915 8.04098689993e-39
0.006773485395 -0.0694282252987 0.915 7.5800157571e-39
0.00846685674374 -0.0694282252987 0.915 7.39598603238e-39
0.0101602280925 -0.0694282252987 0.915 8.1335398609e-39
0.0118276899343 -0.069276469615 0.913 8.22501662465e-39
0.0135173599249 -0.069276469615 0.913 7.95166253062e-39
0.0152070299155 -0.069276469615 0.913 8.5934348065e-39
0.0168966999061 -0.069276469615 0.913 8.96221172076e-39
0.0186270848362 -0.0694282252987 0.915 7.85946830205e-39
0.020320456185 -0.0694282252987 0.915 7.95202126302e-39
0.0220138275337 -0.0694282252987 0.915 7.95237999543e-39
0.0237071988825 -0.0694282252987 0.915 8.87360481627e-39
0.0254005702312 -0.0694282252987 0.915 8.32043944488e-39
0.02709394158 -0.0694282252987 0.915 8.68849889432e-39
0.0288816975613 -0.0696558588243 0.918 9.61044117997e-39
0.0305806209472 -0.0696558588243 0.918 9.14911130474e-39
0.0322795443332 -0.0696558588243 0.918 8.68993382395e-39
0.0340524948819 -0.069807614508 0.92 9.79447090469e-39
0.0358717124074 -0.0700352480336 0.923 9.70155921132e-39
0.0376613190678 -0.0701870037173 0.925 1.04373193778e-38
0.0395008940631 -0.0704146372428 0.928 1.10783741889e-38
0.0412183242397 -0.0704146372428 0.928 8.86607143572e-39
0.0429357544164 -0.0704146372428 0.928 2.35086762946e-38
-0.0347927665098 -0.0695855330196 0.94 2.34903949548e-38
-0.0329828023797 -0.0694374786941 0.938 2.34943382087e-38
-0.0312468654123 -0.0694374786941 0.938 2.34911180248e-38
-0.029510928445 -0.0694374786941 0.938 2.34907522859e-38
-0.0276861588823 -0.0692153972057 0.935 2.34939752724e-38
-0.0259557739521 -0.0692153972057 0.935 2.35018968126e-38
-0.024225389022 -0.0692153972057 0.935 1.08617054203e-38
-0.0224950040919 -0.0692153972057 0.935 8.57013121304e-39
-0.0207646191617 -0.0692153972057 0.935 7.84476027337e-39
-0.018993519292 -0.0690673428801 0.933 7.38522406017e-39
-0.0171743017665 -0.0686972070662 0.928 7.20334672989e-39
-0.015406903255 -0.0684751255778 0.925 7.11294616336e-39
-0.0136950251156 -0.0684751255778 0.925 7.48315800725e-39
-0.0119572374691 -0.0683270712523 0.923 7.11617475502e-39
-0.0102157484646 -0.0681049897639 0.92 7.11617475502e-39
-0.00851312372049 -0.0681049897639 0.92 7.11725095224e-39
-0.00679569354383 -0.0679569354383 0.918 7.30128067697e-39
-0.00509677015787 -0.0679569354383 0.918 7.48638659891e-39
-0.00339784677192 -0.0679569354383 0.918 7.48674533132e-39
-0.00169892338596 -0.0679569354383 0.918 7.57929829229e-39
0.0 -0.0679569354383 0.918 8.31685212081e-39
0.00169892338596 -0.0679569354383 0.918 7.76512167905e-39
0.00339784677192 -0.0679569354383 0.918 7.76476294664e-39
0.00509677015787 -0.0679569354383 0.918 7.85623971039e-39
0.00679569354383 -0.0679569354383 0.918 7.94843393896e-39
0.00846685674374 -0.06773485395 0.915 7.76512167905e-39
0.0101602280925 -0.06773485395 0.915 8.04242182955e-39
0.0118535994412 -0.06773485395 0.915 7.30666166307e-39
0.01354697079 -0.06773485395 0.915 7.39957335645e-39
0.0152403421387 -0.06773485395 0.915 7.58324434876e-39
0.0169337134875 -0.06773485395 0.915 8.13425732571e-39
0.0186270848362 -0.06773485395 0.915 8.50411043719e-39
0.020320456185 -0.06773485395 0.915 8.32043944488e-39
0.0220860040175 -0.0679569354383 0.918 8.68849889432e-39
0.0237849274034 -0.0679569354383 0.918 8.68849889432e-39
0.0254838507894 -0.0679569354383 0.918 8.87288735145e-39
0.0271827741753 -0.0679569354383 0.918 8.59738086298e-39
0.0289446206497 -0.0681049897639 0.92 8.96579904483e-39
0.0306472453938 -0.0681049897639 0.92 8.96579904483e-39
0.0323498701378 -0.0681049897639 0.92 8.41478606788e-39
0.0341635356261 -0.0683270712523 0.923 9.3352934239e-39
0.0359494409284 -0.0684751255778 0.925 9.70227667613e-39
0.0376613190678 -0.0684751255778 0.925 1.04373193778e-38
0.0395008940631 -0.0686972070662 0.928 1.07103147394e-38
0.0412183242397 -0.0686972070662 0.928 8.68168297859e-39
0.0429357544164 -0.0686972070662 0.928 2.35057882184e-38
-0.0347927665098 -0.0678458946941 0.94 2.34903949548e-38
-0.0329828023797 -0.0677015417267 0.938 2.34910885975e-38
-0.0312468654123 -0.0677015417267 0.938 2.34925137181e-38
-0.029510928445 -0.0677015417267 0.938 2.34954073994e-38
-0.0277749914776 -0.0677015417267 0.938 2.34936319543e-38
-0.0260390545103 -0.0677015417267 0.938 2.34968199083e-38
-0.0243031175429 -0.0677015417267 0.938 1.39034703657e-38
-0.0225671805756 -0.0677015417267 0.938 7.65104757626e-39
-0.0208312436082 -0.0677015417267 0.938 8.03022492772e-39
-0.0190342342316 -0.0674850122756 0.935 7.38809391943e-39
-0.0172113153479 -0.067124129857 0.93 7.48136434521e-39
-0.0154568715899 -0.0669797768895 0.928 7.29841081771e-39
-0.0136950251156 -0.0667632474384 0.925 7.1150985578e-39
-0.0119831469761 -0.0667632474384 0.925 6.74811530558e-39
-0.0102490606878 -0.0666188944709 0.923 7.11581602262e-39
-0.00851312372049 -0.0664023650198 0.92 6.93286249511e-39
-0.00681049897639 -0.0664023650198 0.92 7.21016264562e-39
-0.00510787423229 -0.0664023650198 0.92 7.39383363794e-39
-0.00339784677192 -0.0662580120524 0.918 7.39383363794e-39
-0.00169892338596 -0.0662580120524 0.918 6.75313755927e-39
0.0 -0.0662580120524 0.918 6.9375260164e-39
0.00169892338596 -0.0662580120524 0.918 7.8569571752e-39
0.00339784677192 -0.0662580120524 0.918 7.58073322192e-39
0.00509677015787 -0.0662580120524 0.918 7.76404548183e-39
0.00679569354383 -0.0662580120524 0.918 7.94915140377e-39
0.00846685674374 -0.0660414826012 0.915 7.76476294664e-39
0.0101602280925 -0.0660414826012 0.915 8.22645155428e-39
0.0118535994412 -0.0660414826012 0.915 7.76691534108e-39
0.01354697079 -0.0660414826012 0.915 8.13640972015e-39
0.0152403421387 -0.0660414826012 0.915 7.85875083724e-39
0.0169337134875 -0.0660414826012 0.915 7.76691534108e-39
0.0186881572455 -0.0662580120524 0.918 7.95166253062e-39
0.0203870806315 -0.0662580120524 0.918 7.76870900312e-39
0.0220860040175 -0.0662580120524 0.918 8.13676845256e-39
0.0237849274034 -0.0662580120524 0.918 8.04672661844e-39
0.0254838507894 -0.0662580120524 0.918 8.3218743745e-39
0.0272419959056 -0.0664023650198 0.92 8.22932141353e-39
0.0290390052822 -0.0666188944709 0.923 8.96795143927e-39
0.0307471820635 -0.0666188944709 0.923 8.96759270687e-39
0.0324553588448 -0.0666188944709 0.923 9.0579932734e-39
0.0342375627889 -0.0667632474384 0.925 1.01639652838e-38
0.0359494409284 -0.0667632474384 0.925 9.79124231303e-39
0.0377834638864 -0.0669797768895 0.928 1.22804948921e-38
0.0395860253003 -0.067124129857 0.93 1.10801678509e-38
0.0413071568351 -0.067124129857 0.93 9.04938369563e-39
-0.0347927665098 -0.0661062563686 0.94 2.34893257641e-38
-0.0330531281843 -0.0661062563686 0.94 2.3493964062e-38
-0.0313134898588 -0.0661062563686 0.94 2.34903697314e-38
-0.029510928445 -0.0659656047594 0.938 2.34907312664e-38
-0.0277749914776 -0.0659656047594 0.938 2.34921774065e-38
-0.0260390545103 -0.0659656047594 0.938 2.34982940743e-38
-0.0243031175429 -0.0659656047594 0.938 1.56551663136e-38
-0.0225671805756 -0.0659656047594 0.938 8.84060143483e-39
-0.0208312436082 -0.0659656047594 0.938 8.21138479319e-39
-0.0190342342316 -0.0657546273454 0.935 6.92855770623e-39
-0.0172113153479 -0.0654029983222 0.93 6.83636347767e-39
-0.0154568715899 -0.0652623467129 0.928 7.02254559683e-39
-0.0136950251156 -0.0650513692989 0.925 6.92963390345e-39
-0.0119831469761 -0.0650513692989 0.925 7.02326306165e-39
-0.0102490606878 -0.0649107176896 0.923 7.48423420447e-39
-0.00854088390653 -0.0649107176896 0.923 7.30163940937e-39
-0.00681049897639 -0.0646997402757 0.92 7.30163940937e-39
-0.00510787423229 -0.0646997402757 0.92 7.39383363794e-39
-0.00340524948819 -0.0646997402757 0.92 7.4863992106e-39
-0.0017026247441 -0.0646997402757 0.92 7.48710406372e-39
0.0 -0.0646997402757 0.92 7.94843393896e-39
0.00169892338596 -0.0645590886664 0.918 7.48638659891e-39
0.00339784677192 -0.0645590886664 0.918 8.68634649988e-39
0.00509677015787 -0.0645590886664 0.918 7.58073322192e-39
0.00679569354383 -0.0645590886664 0.918 8.5934348065e-39
0.00846685674374 -0.0643481112525 0.915 7.95166253062e-39
0.0101602280925 -0.0643481112525 0.915 7.30594419826e-39
0.0118535994412 -0.0643481112525 0.915 8.410481279e-39
0.01354697079 -0.0643481112525 0.915 8.22645155428e-39
0.0152403421387 -0.0643481112525 0.915 9.05368848451e-39
0.0169892338596 -0.0645590886664 0.918 8.22645155428e-39
0.0186881572455 -0.0645590886664 0.918 7.95237999543e-39
0.0203870806315 -0.0645590886664 0.918 8.32043944488e-39
0.0221341216733 -0.0646997402757 0.92 8.69029255636e-39
0.0238367464174 -0.0646997402757 0.92 7.85982703446e-39
0.0255393711615 -0.0646997402757 0.92 8.78248678492e-39
0.0273900502311 -0.0650513692989 0.925 9.05763454099e-39
0.0291019283706 -0.0650513692989 0.925 8.96615777724e-39
0.03081380651 -0.0650513692989 0.925 8.87468101349e-39
0.0325256846495 -0.0650513692989 0.925 9.0583520058e-39
0.0342375627889 -0.0650513692989 0.925 9.70155921132e-39
0.0360660337097 -0.0652623467129 0.928 1.04387683204e-38
0.0378648937655 -0.0654029983222 0.93 1.02522134559e-38
