# .PCD v0.7 - Point Cloud Data file format
VERSION 0.7
FIELDS x y z rgb
SIZE 4 4 4 4
TYPE F F F F
COUNT 1 1 1 1
WIDTH 848
HEIGHT 1
VIEWPOINT 0 0 0 1 0 0 0
POINTS 848
DATA ascii
0.0479696014859 -0.0863452826746 0.864 1.70381007615e-38
0.0494538460997 -0.086145409335 0.862 1.20731391531e-38
0.0509306879973 -0.0859455359955 0.86 8.12277788869e-39
0.0525222719973 -0.0859455359955 0.86 7.66790519679e-39
0.0538621636437 -0.0855457893165 0.856 7.6686226616e-39
0.0553167973925 -0.0853459159769 0.854 7.76081689016e-39
0.0566974039784 -0.0850461059677 0.851 7.4856691341e-39
0.0582723318667 -0.0850461059677 0.851 8.2221467654e-39
0.060058237169 -0.0853459159769 0.854 7.57750463025e-39
0.0614221876433 -0.0850461059677 0.851 7.67077505604e-39
0.0629971155316 -0.0850461059677 0.851 7.76189308738e-39
0.0644202877362 -0.0848462326281 0.849 8.77674706641e-39
0.0659915142663 -0.0848462326281 0.849 7.94664027692e-39
0.0675627407965 -0.0848462326281 0.849 7.67185125326e-39
0.0691339673266 -0.0848462326281 0.849 8.77746453123e-39
0.0705386327405 -0.0846463592886 0.847 8.96113552354e-39
0.0721061579125 -0.0846463592886 0.847 8.96113552354e-39
0.0736736830845 -0.0846463592886 0.847 8.68562903507e-39
0.0752412082565 -0.0846463592886 0.847 8.5934348065e-39
0.0768087334286 -0.0846463592886 0.847 8.96113552354e-39
0.0785613265075 -0.0848462326281 0.849 8.77782326363e-39
0.0801325530377 -0.0848462326281 0.849 9.60434272905e-39
0.0817037795678 -0.0848462326281 0.849 9.0529710197e-39
0.083275006098 -0.0848462326281 0.849 9.42174793396e-39
0.0848462326281 -0.0848462326281 0.849 8.8700174922e-39
0.0864174591583 -0.0848462326281 0.849 9.51430089493e-39
0.0879886856884 -0.0848462326281 0.849 9.14767637511e-39
0.0897708896325 -0.0850461059677 0.851 9.70120047891e-39
0.0913458175208 -0.0850461059677 0.851 9.88415400641e-39
0.0932483156044 -0.0853459159769 0.854 9.97634823498e-39
0.0948287955299 -0.0853459159769 0.854 1.07113909366e-38
0.0968608411484 -0.085745662656 0.858 1.05266437471e-38
0.0984487237902 -0.085745662656 0.858 1.08939857317e-38
0.100269791995 -0.0859455359955 0.86 1.16301046306e-38
0.102098262916 -0.086145409335 0.862 2.33202969394e-38
0.103693548274 -0.086145409335 0.862 2.35015534945e-38
0.105288833632 -0.086145409335 0.862 2.35025974618e-38
0.10688411899 -0.086145409335 0.862 2.35098617931e-38
0.0391751745468 -0.0865118437908 0.882 2.34968661511e-38
0.0407149395328 -0.0863156718095 0.88 1.83166356713e-38
0.0422473018025 -0.0861194998281 0.878 2.0259192674e-38
0.043722293021 -0.085825241856 0.875 1.97964348756e-38
0.0451343611511 -0.0854328978932 0.871 1.98893479703e-38
0.0466389632348 -0.0852367259118 0.869 1.94298369804e-38
0.0481361626021 -0.0850405539305 0.867 2.08156062552e-38
0.0495685882021 -0.0847462959584 0.864 1.74079804977e-38
0.0511675749183 -0.0847462959584 0.864 1.46491965668e-38
0.0526444168159 -0.084550123977 0.862 1.02375054272e-38
0.0542397021739 -0.084550123977 0.862 7.94377041767e-39
0.0557054399971 -0.0843539519956 0.86 7.6686226616e-39
0.056897277318 -0.0837654360515 0.854 7.02577418849e-39
0.0584777572435 -0.0837654360515 0.854 7.11832714946e-39
0.0603395403876 -0.0841577800142 0.858 8.13174619886e-39
0.0616387170945 -0.0837654360515 0.854 7.94592281211e-39
0.0629971155316 -0.0834711780794 0.851 7.94592281211e-39
0.0645720434199 -0.0834711780794 0.851 7.76296928461e-39
0.0661469713082 -0.0834711780794 0.851 8.13210493127e-39
0.0677218991965 -0.0834711780794 0.851 7.58073322192e-39
0.0692968270848 -0.0834711780794 0.851 8.04098689993e-39
0.0707051938568 -0.083275006098 0.849 8.31685212081e-39
0.0722764203869 -0.083275006098 0.849 8.40976381419e-39
0.0738476469171 -0.083275006098 0.849 8.40904634937e-39
0.0754188734472 -0.083275006098 0.849 8.96113552354e-39
0.0771714665262 -0.0834711780794 0.851 9.5128659653e-39
0.0787463944145 -0.0834711780794 0.851 9.14516524826e-39
0.0803213223028 -0.0834711780794 0.851 8.68491157025e-39
0.0818962501911 -0.0834711780794 0.851 9.33027117021e-39
0.0834711780794 -0.0834711780794 0.851 9.42282413118e-39
0.0853459159769 -0.0837654360515 0.854 8.8703762246e-39
0.086621033856 -0.0834711780794 0.851 9.42354159599e-39
0.0881959617442 -0.0834711780794 0.851 9.51573582456e-39
0.0897708896325 -0.0834711780794 0.851 1.04355257158e-38
0.0916678356789 -0.0837654360515 0.854 1.09879736223e-38
0.0932483156044 -0.0837654360515 0.854 1.0434808251e-38
0.0952729585067 -0.0841577800142 0.858 1.0802508968e-38
0.0968608411484 -0.0841577800142 0.858 1.03418965576e-38
0.0986782079949 -0.0843539519956 0.86 1.32845784911e-38
0.100502977558 -0.084550123977 0.862 2.30415618593e-38
0.102098262916 -0.084550123977 0.862 2.35022653541e-38
0.103693548274 -0.084550123977 0.862 2.34936151387e-38
0.105288833632 -0.084550123977 0.862 2.35029421813e-38
0.0407149395328 -0.0846870742281 0.88 1.79478377376e-38
0.0423435371141 -0.0846870742281 0.88 2.06279695882e-38
0.043722293021 -0.08420589767 0.875 1.90610194285e-38
0.045237999179 -0.0840134270468 0.873 2.04439538765e-38
0.0467463026208 -0.0838209564235 0.871 1.94315549724e-38
0.0482472033463 -0.0836284858003 0.869 1.92457666181e-38
0.0497407013555 -0.083436015177 0.867 2.0538293493e-38
0.0511675749183 -0.0831473092422 0.864 1.93404565592e-38
0.0526444168159 -0.0829548386189 0.862 1.56584131221e-38
0.0542397021739 -0.0829548386189 0.862 1.31801873607e-38
0.0557054399971 -0.0827623679957 0.86 9.50318019032e-39
0.057163775104 -0.0825698973724 0.858 7.57678716544e-39
0.0587516577458 -0.0825698973724 0.858 7.67077505604e-39
0.0603395403876 -0.0825698973724 0.858 7.57858082748e-39
0.0617830700619 -0.0823774267492 0.856 8.2221467654e-39
0.06321919702 -0.082184956126 0.854 8.12887633961e-39
0.0647996769455 -0.082184956126 0.854 8.31505845877e-39
0.066380156871 -0.082184956126 0.854 8.03991070271e-39
0.0679606367965 -0.082184956126 0.854 7.94735774173e-39
0.069541116722 -0.082184956126 0.854 8.59271734169e-39
0.0708717549731 -0.0818962501911 0.851 8.68491157025e-39
0.0724466828613 -0.0818962501911 0.851 8.8700174922e-39
0.0740216107496 -0.0818962501911 0.851 8.59129502375e-39
0.0755965386379 -0.0818962501911 0.851 8.5930760741e-39
0.0771714665262 -0.0818962501911 0.851 8.96041805873e-39
0.079023996275 -0.082184956126 0.854 9.42067173674e-39
0.0806044762005 -0.082184956126 0.854 9.23843567405e-39
0.082184956126 -0.082184956126 0.854 9.23735947683e-39
0.0837654360515 -0.082184956126 0.854 9.33027117021e-39
0.0853459159769 -0.082184956126 0.854 9.33134736743e-39
0.0869263959024 -0.082184956126 0.854 9.60828878553e-39
0.0885068758279 -0.082184956126 0.854 1.00674662663e-38
0.0900873557534 -0.082184956126 0.854 9.88307780919e-39
0.0916678356789 -0.082184956126 0.854 9.7898073834e-39
0.0934666957347 -0.0823774267492 0.856 9.14552398067e-39
0.0952729585067 -0.0825698973724 0.858 9.97311964331e-39
0.0970866239949 -0.0827623679957 0.86 1.78853468325e-38
0.0989076921995 -0.0829548386189 0.862 2.35003974232e-38
0.10073616312 -0.0831473092422 0.864 2.34975864185e-38
0.102335149837 -0.0831473092422 0.864 2.3493950049e-38
0.104295018971 -0.083436015177 0.867 2.34994039026e-38
0.105899557725 -0.083436015177 0.867 2.35055149652e-38
0.0393972560352 -0.0837191690747 0.887 2.29386490988e-38
0.0408074734862 -0.0832472459119 0.882 1.92389296829e-38
0.0424397724257 -0.0832472459119 0.882 1.97982369454e-38
0.0438721980256 -0.0828697073817 0.878 1.97985844674e-38
0.0453416372069 -0.0825865534841 0.875 2.00762489556e-38
0.0468536420069 -0.082397784219 0.873 1.9800047423e-38
0.0482472033463 -0.0820202456888 0.869 2.01684417828e-38
0.0497407013555 -0.0818314764236 0.867 1.98936527592e-38
0.051345240109 -0.0818314764236 0.867 2.08149000008e-38
0.0527665616345 -0.081548322526 0.864 2.05368683725e-38
0.0542397021739 -0.0813595532609 0.862 1.95263149784e-38
0.0557054399971 -0.0811707839958 0.86 1.61214848114e-38
0.057297023997 -0.0811707839958 0.86 1.27188574855e-38
0.0588886079969 -0.0811707839958 0.86 9.96164020629e-39
0.0604801919968 -0.0811707839958 0.86 8.77280100994e-39
0.0619274230293 -0.0809820147307 0.858 8.12995253683e-39
0.0633672513455 -0.0807932454656 0.856 9.05045989285e-39
0.0647996769455 -0.0806044762005 0.854 8.4990881835e-39
0.066380156871 -0.0806044762005 0.854 8.31541719118e-39
0.0679606367965 -0.0806044762005 0.854 8.68455283785e-39
0.069541116722 -0.0806044762005 0.854 9.14373031864e-39
0.0708717549731 -0.0803213223028 0.851 8.77531213678e-39
0.0724466828613 -0.0803213223028 0.851 8.5930760741e-39
0.0740216107496 -0.0803213223028 0.851 8.31756958562e-39
0.0755965386379 -0.0803213223028 0.851 9.23807694164e-39
0.0774435163495 -0.0806044762005 0.854 9.05368848451e-39
0.079023996275 -0.0806044762005 0.854 9.32847750817e-39
0.0806044762005 -0.0806044762005 0.854 8.96113552354e-39
0.082184956126 -0.0806044762005 0.854 9.33027117021e-39
0.0839616080328 -0.0807932454656 0.856 9.23807694164e-39
0.0855457893165 -0.0807932454656 0.856 9.69940681687e-39
0.0871299706001 -0.0807932454656 0.856 1.04355257158e-38
0.0885068758279 -0.0806044762005 0.854 1.00660313367e-38
0.0900873557534 -0.0806044762005 0.854 9.97419584053e-39
0.091882514451 -0.0807932454656 0.856 1.08921920697e-38
0.0936850758649 -0.0809820147307 0.858 1.56751712505e-38
0.095495039995 -0.0811707839958 0.86 2.16542511562e-38
0.0970866239949 -0.0811707839958 0.86 2.34986331885e-38
0.0989076921995 -0.0813595532609 0.862 2.34957633292e-38
0.10073616312 -0.081548322526 0.864 2.3493240992e-38
0.102690480218 -0.0818314764236 0.867 2.34921774065e-38
0.104776195529 -0.0822090149539 0.871 2.34976158458e-38
0.106388136999 -0.0822090149539 0.871 2.3508016283e-38
0.0364805858214 -0.0829104223213 0.896 2.34936263491e-38
0.0379259661748 -0.0824477525538 0.891 2.34975682016e-38
0.0393972560352 -0.0820776167399 0.887 2.20141718642e-38
0.0408074734862 -0.0816149469725 0.882 1.96098730045e-38
0.0424397724257 -0.0816149469725 0.882 1.97049847365e-38
0.0438721980256 -0.0812448111586 0.878 2.01662963949e-38
0.0453416372069 -0.0809672092981 0.875 2.01666467195e-38
0.0468536420069 -0.0807821413911 0.873 1.97993033336e-38
0.0483582440905 -0.0805970734842 0.871 2.03528274373e-38
0.0498554434579 -0.0804120055772 0.869 2.03535561126e-38
0.051345240109 -0.0802269376702 0.867 2.02613786996e-38
0.0529497788624 -0.0802269376702 0.867 2.03517596479e-38
0.0543655483507 -0.0799493358098 0.864 2.16410355104e-38
0.055834987532 -0.0797642679028 0.862 2.09974961972e-38
0.05743027289 -0.0797642679028 0.862 1.9802915881e-38
0.0590255582481 -0.0797642679028 0.862 1.75951435258e-38
0.0604801919968 -0.0795791999959 0.86 1.51133963013e-38
0.0620717759968 -0.0795791999959 0.86 1.3552551599e-38
0.0633672513455 -0.0792090641819 0.856 1.13449123672e-38
0.0649514326292 -0.0792090641819 0.856 9.14014299457e-39
0.0665356139128 -0.0792090641819 0.856 8.59164114447e-39
0.0681197951965 -0.0792090641819 0.856 7.57858082748e-39
0.069541116722 -0.079023996275 0.854 7.94843393896e-39
0.0711215966475 -0.079023996275 0.854 9.05261228729e-39
0.072702076573 -0.079023996275 0.854 9.0529710197e-39
0.0742825564985 -0.079023996275 0.854 8.86822383016e-39
0.075863036424 -0.079023996275 0.854 8.5934348065e-39
0.0774435163495 -0.079023996275 0.854 9.05368848451e-39
0.079023996275 -0.079023996275 0.854 9.88271907678e-39
0.0806044762005 -0.079023996275 0.854 9.42174793396e-39
0.082184956126 -0.079023996275 0.854 9.42282413118e-39
0.0839616080328 -0.0792090641819 0.856 9.78908991859e-39
0.085745662656 -0.0793941320889 0.858 9.69581949281e-39
0.0873335452978 -0.0793941320889 0.858 1.08925508021e-38
0.0889214279396 -0.0793941320889 0.858 1.27310543873e-38
0.0905093105813 -0.0793941320889 0.858 1.73307255121e-38
0.0920971932231 -0.0793941320889 0.858 2.07323354952e-38
0.0939034559951 -0.0795791999959 0.86 2.3495757724e-38
0.0957171214834 -0.0797642679028 0.862 2.3494325597e-38
0.0973124068414 -0.0797642679028 0.862 2.34911082157e-38
0.0997108869157 -0.0804120055772 0.869 2.34935955205e-38
0.10155231259 -0.0805970734842 0.871 2.34918060624e-38
0.10316425406 -0.0805970734842 0.871 2.34965340434e-38
0.105016783808 -0.0807821413911 0.873 2.34957885526e-38
0.106632426636 -0.0807821413911 0.873 2.35087323465e-38
0.0350944271982 -0.0818869967957 0.903 2.34950430618e-38
0.0364805858214 -0.0812522138748 0.896 2.34968451316e-38
0.0379259661748 -0.0807987975028 0.891 2.34990087365e-38
0.0394860886305 -0.0806174309539 0.889 2.06319562824e-38
0.0409462744165 -0.0802546978563 0.885 1.92414478162e-38
0.0425841253931 -0.0802546978563 0.885 1.96145267167e-38
0.0439721346954 -0.0798012814842 0.88 2.04432238e-38
0.0454970942488 -0.0796199149354 0.878 2.01648446497e-38
0.0469609813929 -0.0793478651121 0.875 1.98911360271e-38
0.0484692848347 -0.0791664985633 0.873 1.99836973959e-38
0.0499701855602 -0.0789851320145 0.871 1.99840505231e-38
0.0514636835694 -0.0788037654657 0.869 2.01670096558e-38
0.0529497788624 -0.0786223989168 0.867 2.18254575987e-38
0.0543655483507 -0.0783503490936 0.864 2.13637353599e-38
0.0559645350669 -0.0783503490936 0.864 2.19172594637e-38
0.05743027289 -0.0781689825448 0.862 2.12726215325e-38
0.0590255582481 -0.0781689825448 0.862 2.26577237891e-38
0.0606208436061 -0.0781689825448 0.862 2.14609756642e-38
0.0620717759968 -0.0779876159959 0.86 2.02667358636e-38
0.0635153056711 -0.0778062494471 0.858 1.87019240854e-38
0.0649514326292 -0.0776248828983 0.856 1.68622293965e-38
0.0665356139128 -0.0776248828983 0.856 1.61293264776e-38
0.0681197951965 -0.0776248828983 0.856 1.49322364358e-38
0.0697039764801 -0.0776248828983 0.856 1.22611149343e-38
0.0711215966475 -0.0774435163495 0.854 1.2358690149e-38
0.072702076573 -0.0774435163495 0.854 1.09779291149e-38
0.0742825564985 -0.0774435163495 0.854 1.16222125177e-38
0.075863036424 -0.0774435163495 0.854 1.15321706836e-38
0.0774435163495 -0.0774435163495 0.854 1.12548705331e-38
0.0792090641819 -0.0776248828983 0.856 1.15318119512e-38
0.0807932454656 -0.0776248828983 0.856 1.26381426939e-38
0.0823774267492 -0.0776248828983 0.856 1.39231221753e-38
0.0841577800142 -0.0778062494471 0.858 1.53939250435e-38
0.085745662656 -0.0778062494471 0.858 1.77866800064e-38
0.0873335452978 -0.0778062494471 0.858 2.10096258367e-38
0.0891287039954 -0.0779876159959 0.86 2.19291410734e-38
0.0907202879953 -0.0779876159959 0.86 2.34939430425e-38
0.0923118719952 -0.0779876159959 0.86 2.34925123168e-38
0.0941218361253 -0.0781689825448 0.862 2.34936389608e-38
0.0957171214834 -0.0781689825448 0.862 2.34917962533e-38
0.0981026468042 -0.0788037654657 0.869 2.34939542529e-38
0.0997108869157 -0.0788037654657 0.869 2.34932423933e-38
0.10155231259 -0.0789851320145 0.871 2.34950472657e-38
0.103401140981 -0.0791664985633 0.873 2.34961697058e-38
0.105016783808 -0.0791664985633 0.873 2.34986794313e-38
0.106632426636 -0.0791664985633 0.873 2.35097903269e-38
0.0350944271982 -0.0802158335958 0.903 2.34961458837e-38
0.0365620157004 -0.0797716706191 0.898 2.34903753366e-38
0.0381387942678 -0.0795940054284 0.896 2.35001227687e-38
0.0395749212258 -0.0791498424517 0.891 2.04450258698e-38
0.0411313423234 -0.078972177261 0.889 1.98875332888e-38
0.0426803607048 -0.0787945120703 0.887 1.90617354921e-38
0.0442219763698 -0.0786168468796 0.885 2.04428734754e-38
0.0457043703046 -0.0783503490936 0.882 1.99815464027e-38
0.047121990472 -0.0779950187122 0.878 1.98922206321e-38
0.0485803255789 -0.0777285209262 0.875 2.01688243373e-38
0.0500849276625 -0.0775508557355 0.873 2.07223344281e-38
0.0515821270299 -0.0773731905448 0.871 2.02613604827e-38
0.053071923681 -0.0771955253541 0.869 2.09978493244e-38
0.0545543176158 -0.0770178601634 0.867 2.10871708911e-38
0.0559645350669 -0.0767513623774 0.864 2.11793721261e-38
0.057563521783 -0.0767513623774 0.864 2.2287867875e-38
0.0590255582481 -0.0765736971867 0.862 2.13651716908e-38
0.0606208436061 -0.0765736971867 0.862 2.20091341962e-38
0.0620717759968 -0.076396031996 0.86 2.21945974493e-38
0.0635153056711 -0.0762183668053 0.858 2.16410733455e-38
0.0651031883129 -0.0762183668053 0.858 2.25658910956e-38
0.0666910709547 -0.0762183668053 0.858 2.24751275927e-38
0.0682789535964 -0.0762183668053 0.858 2.21978190344e-38
0.0697039764801 -0.0760407016146 0.856 2.21070485251e-38
0.0712881577637 -0.0760407016146 0.856 2.08206229037e-38
0.0728723390474 -0.0760407016146 0.856 2.00837837374e-38
0.074456520331 -0.0760407016146 0.856 2.13745001347e-38
0.0760407016146 -0.0760407016146 0.856 2.0268502901e-38
0.0776248828983 -0.0760407016146 0.856 2.10989754294e-38
0.0792090641819 -0.0760407016146 0.856 2.13755188787e-38
0.0807932454656 -0.0760407016146 0.856 2.1652493928e-38
0.0823774267492 -0.0760407016146 0.856 2.23872101271e-38
0.0841577800142 -0.0762183668053 0.858 2.32137520133e-38
0.0859455359955 -0.076396031996 0.86 2.34903613236e-38
0.0875371199954 -0.076396031996 0.86 2.3488217337e-38
0.0891287039954 -0.076396031996 0.86 2.34936067309e-38
0.0909312654092 -0.0765736971867 0.862 2.34903599223e-38
0.0925265507673 -0.0765736971867 0.862 2.34914683494e-38
0.0946677864509 -0.0770178601634 0.867 2.34921928207e-38
0.0962723252043 -0.0770178601634 0.867 2.34918158714e-38
0.0981026468042 -0.0771955253541 0.869 2.34961066473e-38
0.0999403711204 -0.0773731905448 0.871 2.3490748082e-38
0.10155231259 -0.0773731905448 0.871 2.34932746232e-38
0.103401140981 -0.0775508557355 0.873 2.34976004315e-38
0.105016783808 -0.0775508557355 0.873 2.35026395008e-38
0.106632426636 -0.0775508557355 0.873 2.35080429077e-38
0.0350944271982 -0.0785446703959 0.903 2.349256977e-38
0.0365620157004 -0.0781097608145 0.898 2.34936081322e-38
0.0381387942678 -0.077935796982 0.896 2.34972206796e-38
0.0395749212258 -0.0775008874006 0.891 1.95201758898e-38
0.0411313423234 -0.0773269235681 0.889 1.99790156577e-38
0.0427765960164 -0.0773269235681 0.889 1.98907857025e-38
0.0442219763698 -0.076978995903 0.885 1.97986026843e-38
0.0458598273464 -0.076978995903 0.885 1.97982341428e-38
0.047121990472 -0.076370122489 0.878 1.97085524424e-38
0.0485803255789 -0.0761091767402 0.875 2.02591898714e-38
0.0500849276625 -0.0759352129077 0.873 2.03521099725e-38
0.0515821270299 -0.0757612490751 0.871 2.05361523089e-38
0.053071923681 -0.0755872852426 0.869 2.09985303554e-38
0.0545543176158 -0.07541332141 0.867 2.11797392663e-38
0.0561588563692 -0.07541332141 0.867 2.17325403001e-38
0.0577633951226 -0.07541332141 0.867 2.15499469063e-38
0.0591625084992 -0.0751523756612 0.864 2.15492280402e-38
0.0607614952154 -0.0751523756612 0.864 2.18247415352e-38
0.0622161289642 -0.0749784118287 0.862 2.265305186e-38
0.0636633599967 -0.0748044479961 0.86 2.26534077899e-38
0.0652549439966 -0.0748044479961 0.86 2.24704780844e-38
0.0668465279965 -0.0748044479961 0.86 2.26562762478e-38
0.0684381119964 -0.0748044479961 0.86 2.34853124453e-38
0.0700296959964 -0.0748044479961 0.86 2.3300942205e-38
0.0716212799963 -0.0748044479961 0.86 2.24704612688e-38
0.0732128639962 -0.0748044479961 0.86 2.34864180698e-38
0.0748044479961 -0.0748044479961 0.86 2.34867683944e-38
0.076396031996 -0.0748044479961 0.86 2.34856907959e-38
0.0779876159959 -0.0748044479961 0.86 2.34878501968e-38
0.0795791999959 -0.0748044479961 0.86 2.34856879933e-38
0.0811707839958 -0.0748044479961 0.86 2.34853362674e-38
0.0827623679957 -0.0748044479961 0.86 2.34900124003e-38
0.0843539519956 -0.0748044479961 0.86 2.34910857949e-38
0.0859455359955 -0.0748044479961 0.86 2.3484625809e-38
0.0875371199954 -0.0748044479961 0.86 2.34889362031e-38
0.0893359800512 -0.0749784118287 0.862 2.34889305979e-38
0.0911422428232 -0.0751523756612 0.864 2.34928752531e-38
0.0932779264696 -0.0755872852426 0.869 2.34903529159e-38
0.0948861665811 -0.0755872852426 0.869 2.34896396549e-38
0.0964944066926 -0.0755872852426 0.869 2.34925361389e-38
0.0983284296507 -0.0757612490751 0.871 2.3492517922e-38
0.0999403711204 -0.0757612490751 0.871 2.34929130881e-38
0.101785498153 -0.0759352129077 0.873 2.34954354254e-38
0.103638027902 -0.0761091767402 0.875 2.34950598774e-38
0.105257372088 -0.0761091767402 0.875 2.35051772523e-38
0.106876716274 -0.0761091767402 0.875 2.35098631944e-38
0.0350944271982 -0.076873507196 0.903 2.34914753559e-38
0.036684160519 -0.0767032447216 0.901 2.34925389415e-38
0.0381387942678 -0.0762775885356 0.896 2.34957731383e-38
0.0397081701189 -0.0761073260612 0.894 1.82287182056e-38
0.0411313423234 -0.0756816698751 0.889 1.99793841992e-38
0.0427765960164 -0.0756816698751 0.889 1.94290914897e-38
0.0443219130396 -0.0755114074007 0.887 1.91528647338e-38
0.0458598273464 -0.0753411449263 0.885 2.04428580611e-38
0.047336669244 -0.0750857512147 0.882 1.96153030361e-38
0.0487468866951 -0.0747452262659 0.878 1.99815464027e-38
0.0501996697648 -0.0744898325543 0.875 2.15499497089e-38
0.0517005704903 -0.0743195700798 0.873 2.03517540427e-38
0.0531940684996 -0.0741493076054 0.871 2.11822279724e-38
0.0546801637925 -0.073979045131 0.869 2.1181521718e-38
0.056288403904 -0.073979045131 0.869 2.12719180806e-38
0.0577633951226 -0.0738087826566 0.867 2.14570324104e-38
0.059367933876 -0.0738087826566 0.867 2.21024018194e-38
0.0607614952154 -0.073553388945 0.864 2.23779153144e-38
0.0623604819316 -0.073553388945 0.864 2.27466726104e-38
0.0638114143223 -0.0733831264706 0.862 2.2376082416e-38
0.0654066996803 -0.0733831264706 0.862 2.265305186e-38
0.0668465279965 -0.0732128639962 0.86 2.31154621364e-38
0.0684381119964 -0.0732128639962 0.86 2.29321372648e-38
0.0700296959964 -0.0732128639962 0.86 2.28388752468e-38
0.0716212799963 -0.0732128639962 0.86 2.31154593338e-38
0.0732128639962 -0.0732128639962 0.86 2.31154747481e-38
0.0748044479961 -0.0732128639962 0.86 2.33916916949e-38
0.076396031996 -0.0732128639962 0.86 2.34889305979e-38
0.0779876159959 -0.0732128639962 0.86 2.34860369166e-38
0.0797642679028 -0.0733831264706 0.862 2.34864012542e-38
0.0813595532609 -0.0733831264706 0.862 2.34853390699e-38
0.0829548386189 -0.0733831264706 0.862 2.34864138659e-38
0.084550123977 -0.0733831264706 0.862 2.34878487955e-38
0.0863452826746 -0.073553388945 0.864 2.34860607387e-38
0.0882496314373 -0.0738087826566 0.867 2.34911138209e-38
0.0900614462465 -0.073979045131 0.869 2.34918116676e-38
0.091669686358 -0.073979045131 0.869 2.34871369359e-38
0.0934926052416 -0.0741493076054 0.871 2.34914347183e-38
0.0951045467113 -0.0741493076054 0.871 2.34932311829e-38
0.0969385696694 -0.0743195700798 0.873 2.34903669288e-38
0.0985542124972 -0.0743195700798 0.873 2.34925473492e-38
0.10039933953 -0.0744898325543 0.875 2.34936151387e-38
0.10236846206 -0.0747452262659 0.878 2.34950752917e-38
0.103993358283 -0.0747452262659 0.878 2.34993618637e-38
0.105618254506 -0.0747452262659 0.878 2.3508363805e-38
0.107243150729 -0.0747452262659 0.878 2.35098449775e-38
0.0350944271982 -0.0752023439961 0.903 2.349144733e-38
0.0365620157004 -0.0747859412054 0.898 2.34921774065e-38
0.038223925505 -0.0747859412054 0.898 2.34957731383e-38
0.0397081701189 -0.0744528189729 0.894 1.92446708027e-38
0.0412238762769 -0.0742029772985 0.891 1.95194752406e-38
0.0427765960164 -0.0740364161822 0.889 1.96130973923e-38
0.0444218497093 -0.0740364161822 0.889 2.08120161285e-38
0.0459634653743 -0.0738698550659 0.887 1.99840505231e-38
0.0474976783231 -0.0737032939496 0.885 1.97989530089e-38
0.0489689681835 -0.0734534522752 0.882 2.03510547948e-38
0.0503717829183 -0.0731203300427 0.878 2.04443252206e-38
0.0517005704903 -0.072703927252 0.873 2.08130881219e-38
0.0531940684996 -0.0725373661358 0.871 2.05361523089e-38
0.0548060099692 -0.0725373661358 0.871 2.09964214012e-38
0.0564179514389 -0.0725373661358 0.871 2.19183608843e-38
0.0578966440156 -0.0723708050195 0.869 2.21949477739e-38
0.0595048841271 -0.0723708050195 0.869 2.26548567325e-38
0.0609724726294 -0.0722042439032 0.867 2.19194552984e-38
0.0625770113828 -0.0722042439032 0.867 2.28403171829e-38
0.0638114143223 -0.0717878411125 0.862 2.34842516623e-38
0.0654066996803 -0.0717878411125 0.862 2.31158306779e-38
0.0670019850384 -0.0717878411125 0.862 2.34835355988e-38
0.0685972703964 -0.0717878411125 0.862 2.30239853726e-38
0.0701925557545 -0.0717878411125 0.862 2.34846174012e-38
0.0717878411125 -0.0717878411125 0.862 2.34860439231e-38
0.0733831264706 -0.0717878411125 0.862 2.3300594683e-38
0.0749784118287 -0.0717878411125 0.862 2.34831684586e-38
0.0765736971867 -0.0717878411125 0.862 2.34871089099e-38
0.0781689825448 -0.0717878411125 0.862 2.34856501582e-38
0.0797642679028 -0.0717878411125 0.862 2.33938440893e-38
0.081548322526 -0.0719544022288 0.864 2.34871033047e-38
0.0831473092422 -0.0719544022288 0.864 2.34878529994e-38
0.0847462959584 -0.0719544022288 0.864 2.34867754009e-38
0.0866450926839 -0.0722042439032 0.867 2.34903809418e-38
0.0884532061349 -0.0723708050195 0.869 2.34871089099e-38
0.0900614462465 -0.0723708050195 0.869 2.34939738711e-38
0.091669686358 -0.0723708050195 0.869 2.34896606744e-38
0.0934926052416 -0.0725373661358 0.871 2.34903781392e-38
0.0953229268415 -0.072703927252 0.873 2.34914515338e-38
0.0971606511577 -0.0728704883683 0.875 2.34957591253e-38
0.0987799953437 -0.0728704883683 0.875 2.34929060817e-38
0.100743565837 -0.0731203300427 0.878 2.34925445467e-38
0.102601647623 -0.073286891159 0.88 2.34950836995e-38
0.104230245204 -0.073286891159 0.88 2.34968619472e-38
0.105858842785 -0.073286891159 0.88 2.35098730035e-38
0.0334232639983 -0.0735311807962 0.903 2.34882271461e-38
0.0350944271982 -0.0735311807962 0.903 2.34878600059e-38
0.0365620157004 -0.0731240314008 0.898 2.34878572033e-38
0.038223925505 -0.0731240314008 0.898 2.34907256612e-38
0.0397081701189 -0.0727983118846 0.894 1.90599208105e-38
0.0412238762769 -0.0725540222474 0.891 1.95216304377e-38
0.042872831328 -0.0725540222474 0.891 1.96141890038e-38
0.0444218497093 -0.0723911624893 0.889 2.01662935923e-38
0.0459634653743 -0.0722283027311 0.887 2.0812732192e-38
0.0476050177091 -0.0722283027311 0.887 1.97070880855e-38
0.0491355292998 -0.072065442973 0.885 2.07194491546e-38
0.0506012671229 -0.0718211533358 0.882 2.11829594502e-38
0.0518190139508 -0.0712511441823 0.875 2.01684585984e-38
0.0533162133182 -0.0710882844242 0.873 2.11822279724e-38
0.0548060099692 -0.0709254246661 0.871 2.13662590984e-38
0.0564179514389 -0.0709254246661 0.871 2.14581016011e-38
0.0578966440156 -0.0707625649079 0.869 2.17321717586e-38
0.0595048841271 -0.0707625649079 0.869 2.26530700769e-38
0.0611131242387 -0.0707625649079 0.869 2.18254547961e-38
0.0625770113828 -0.0705997051498 0.867 2.22867706584e-38
0.0641815501362 -0.0705997051498 0.867 2.34842614714e-38
0.065558455364 -0.0703554155126 0.864 2.25605059056e-38
0.0671574420802 -0.0703554155126 0.864 2.31136796847e-38
0.0685972703964 -0.0701925557545 0.862 2.32994778481e-38
0.0701925557545 -0.0701925557545 0.862 2.33920448221e-38
0.0717878411125 -0.0701925557545 0.862 2.30243356973e-38
0.0733831264706 -0.0701925557545 0.862 2.31161781999e-38
0.0749784118287 -0.0701925557545 0.862 2.34827746938e-38
0.0765736971867 -0.0701925557545 0.862 2.3487841789e-38
0.0781689825448 -0.0701925557545 0.862 2.34828237392e-38
0.0799493358098 -0.0703554155126 0.864 2.34896690822e-38
0.081548322526 -0.0703554155126 0.864 2.34867936178e-38
0.083436015177 -0.0705997051498 0.867 2.34878501968e-38
0.0850405539305 -0.0705997051498 0.867 2.34892935342e-38
0.0868449660234 -0.0707625649079 0.869 2.34874900631e-38
0.0884532061349 -0.0707625649079 0.869 2.34896536679e-38
0.0900614462465 -0.0707625649079 0.869 2.34882229422e-38
0.091880663772 -0.0709254246661 0.871 2.34921746039e-38
0.0934926052416 -0.0709254246661 0.871 2.34882257448e-38
0.0953229268415 -0.0710882844242 0.873 2.34914445274e-38
0.0974937733903 -0.0714954338195 0.878 2.34907396742e-38
0.0991186696134 -0.0714954338195 0.878 2.34889362031e-38
0.100973050041 -0.0716582935777 0.88 2.3496147285e-38
0.102834833185 -0.0718211533358 0.882 2.34979451509e-38
0.104467132125 -0.0718211533358 0.882 2.35001185649e-38
0.106700901762 -0.0722283027311 0.887 2.35098617931e-38
0.0334232639983 -0.0718600175963 0.903 2.34839139494e-38
0.0350944271982 -0.0718600175963 0.903 2.34831908794e-38
0.0365620157004 -0.0714621215963 0.898 2.34856921972e-38
0.038223925505 -0.0714621215963 0.898 2.3488564859e-38
0.0397970027142 -0.0713029631963 0.896 1.80440340745e-38
0.0413626772071 -0.0711438047963 0.894 1.97981472623e-38
0.042872831328 -0.0709050671963 0.891 1.94308795465e-38
0.0444218497093 -0.0707459087963 0.889 1.96120408133e-38
0.0460671034023 -0.0707459087963 0.889 2.02574102223e-38
0.0476050177091 -0.0705867503963 0.887 2.01662907897e-38
0.0492465700439 -0.0705867503963 0.887 2.08116658039e-38
0.0507733802764 -0.0704275919963 0.885 2.09978493244e-38
0.0519966791415 -0.0698705375964 0.878 2.07219686892e-38
0.0533162133182 -0.0694726415964 0.873 2.11829468385e-38
0.0548060099692 -0.0693134831964 0.871 2.1366984971e-38
0.0564179514389 -0.0693134831964 0.871 2.18254575987e-38
0.0580298929086 -0.0693134831964 0.871 2.29321400674e-38
0.0595048841271 -0.0691543247964 0.869 2.2101695565e-38
0.0611131242387 -0.0691543247964 0.869 2.25626540961e-38
0.0627213643502 -0.0691543247964 0.869 2.23779125118e-38
0.0641815501362 -0.0689951663964 0.867 2.2376843321e-38
0.0657860888896 -0.0689951663964 0.867 2.34857202231e-38
0.0671574420802 -0.0687564287964 0.864 2.28370955978e-38
0.0687564287964 -0.0687564287964 0.864 2.34842516623e-38
0.0701925557545 -0.0685972703964 0.862 2.34853320635e-38
0.0717878411125 -0.0685972703964 0.862 2.33005736635e-38
0.073553388945 -0.0687564287964 0.864 2.34867627892e-38
0.0751523756612 -0.0687564287964 0.864 2.34856851907e-38
0.0767513623774 -0.0687564287964 0.864 2.348606214e-38
0.0783503490936 -0.0687564287964 0.864 2.34878880319e-38
0.0799493358098 -0.0687564287964 0.864 2.34871243242e-38
0.0818314764236 -0.0689951663964 0.867 2.34878123617e-38
0.0836284858003 -0.0691543247964 0.869 2.3484973331e-38
0.0852367259118 -0.0691543247964 0.869 2.34896452601e-38
0.0868449660234 -0.0691543247964 0.869 2.34889151836e-38
0.0884532061349 -0.0691543247964 0.869 2.34899815718e-38
0.0900614462465 -0.0691543247964 0.869 2.34889446109e-38
0.091880663772 -0.0693134831964 0.871 2.34918032598e-38
0.0934926052416 -0.0693134831964 0.871 2.34914529351e-38
0.0953229268415 -0.0694726415964 0.873 2.34911040118e-38
0.0974937733903 -0.0698705375964 0.878 2.34950668839e-38
0.0991186696134 -0.0698705375964 0.878 2.34957591253e-38
0.100973050041 -0.0700296959964 0.88 2.34961262655e-38
0.102834833185 -0.0701888543963 0.882 2.34990171443e-38
0.104822462506 -0.0704275919963 0.885 2.35058652899e-38
0.106941490041 -0.0707459087963 0.889 2.35098477801e-38
0.0334232639983 -0.0701888543963 0.903 2.31133293601e-38
0.0350944271982 -0.0701888543963 0.903 2.32980737471e-38
0.0365620157004 -0.0698002117917 0.898 2.3487104706e-38
0.038223925505 -0.0698002117917 0.898 2.34838901273e-38
0.0397970027142 -0.0696447547499 0.896 1.88712387749e-38
0.0413626772071 -0.069489297708 0.894 1.9613485552e-38
0.042872831328 -0.0692561121452 0.891 2.00759126439e-38
0.0444218497093 -0.0691006551034 0.889 2.01669970441e-38
0.0460671034023 -0.0691006551034 0.889 2.09953283884e-38
0.0476050177091 -0.0689451980615 0.887 2.11815399349e-38
0.0492465700439 -0.0689451980615 0.887 2.02585046364e-38
0.0507733802764 -0.0687897410197 0.885 2.04439692908e-38
0.0521151226019 -0.068401098415 0.88 2.17350640387e-38
0.0534383581368 -0.0680124558104 0.875 2.09045746947e-38
0.054931856146 -0.0678569987686 0.873 2.2193521252e-38
0.0565474989738 -0.0678569987686 0.873 2.15495811674e-38
0.0580298929086 -0.0677015417267 0.871 2.19172342403e-38
0.0596418343783 -0.0677015417267 0.871 2.29314366156e-38
0.061253775848 -0.0677015417267 0.871 2.23789690908e-38
0.0627213643502 -0.0675460846849 0.869 2.34842544649e-38
0.0643296044618 -0.0675460846849 0.869 2.34842488597e-38
0.0659378445733 -0.0675460846849 0.869 2.30204078577e-38
0.0675460846849 -0.0675460846849 0.869 2.34831684586e-38
0.0689951663964 -0.067390627643 0.867 2.34838985351e-38
0.0705997051498 -0.067390627643 0.867 2.34860439231e-38
0.0719544022288 -0.0671574420802 0.864 2.33005792687e-38
0.073553388945 -0.0671574420802 0.864 2.3487146745e-38
0.0751523756612 -0.0671574420802 0.864 2.34867627892e-38
0.0767513623774 -0.0671574420802 0.864 2.34882019227e-38
0.0786223989168 -0.067390627643 0.867 2.34860537322e-38
0.0802269376702 -0.067390627643 0.867 2.34867683944e-38
0.0820202456888 -0.0675460846849 0.869 2.34903711327e-38
0.0836284858003 -0.0675460846849 0.869 2.34882243435e-38
0.0852367259118 -0.0675460846849 0.869 2.34881766993e-38
0.0868449660234 -0.0675460846849 0.869 2.34896522666e-38
0.0886567808326 -0.0677015417267 0.871 2.34896410562e-38
0.0902687223023 -0.0677015417267 0.871 2.34907368716e-38
0.091880663772 -0.0677015417267 0.871 2.34924955012e-38
0.0937072840137 -0.0678569987686 0.873 2.34914445274e-38
0.0953229268415 -0.0678569987686 0.873 2.34925459479e-38
0.0974937733903 -0.0682456413732 0.878 2.34918354896e-38
0.0991186696134 -0.0682456413732 0.878 2.34921928207e-38
0.100973050041 -0.068401098415 0.88 2.34954228137e-38
0.102601647623 -0.068401098415 0.88 2.34975738068e-38
0.104467132125 -0.0685565554569 0.882 2.3502631093e-38
0.10718207832 -0.0692561121452 0.891 2.35098491814e-38
0.0365620157004 -0.0681383019871 0.898 2.2193149908e-38
0.038223925505 -0.0681383019871 0.898 2.2838519317e-38
0.0397970027142 -0.0679865463034 0.896 1.88715862969e-38
0.0413626772071 -0.0678347906197 0.894 1.95212899221e-38
0.0430171842954 -0.0678347906197 0.894 1.90606663013e-38
0.0445217863791 -0.0676071570942 0.891 2.02570570951e-38
0.0461707414302 -0.0676071570942 0.891 2.01669970441e-38
0.0477123570952 -0.0674554014104 0.889 2.08109567469e-38
0.0492465700439 -0.0673036457267 0.887 2.0996054261e-38
0.0507733802764 -0.067151890043 0.885 2.03514051194e-38
0.0522335660624 -0.0669242565174 0.882 2.10896946296e-38
0.0536215753646 -0.06662074515 0.878 2.18265141777e-38
0.0550577023227 -0.0663931116244 0.875 2.15516915229e-38
0.0566770465087 -0.0663931116244 0.875 2.17339920453e-38
0.0581631418016 -0.0662413559407 0.873 2.23768180977e-38
0.0597787846294 -0.0662413559407 0.873 2.27456062223e-38
0.061253775848 -0.066089600257 0.871 2.2655183235e-38
0.0628657173177 -0.066089600257 0.871 2.29310708767e-38
0.0644776587873 -0.066089600257 0.871 2.27463222858e-38
0.066089600257 -0.066089600257 0.871 2.32062102249e-38
0.0677015417267 -0.066089600257 0.871 2.33002233389e-38
0.0691543247964 -0.0659378445733 0.869 2.30250994049e-38
0.0707625649079 -0.0659378445733 0.869 2.34849551142e-38
0.0722042439032 -0.0657860888896 0.867 2.34842544649e-38
0.0738087826566 -0.0657860888896 0.867 2.34860803568e-38
0.07541332141 -0.0657860888896 0.867 2.34870864891e-38
0.0770178601634 -0.0657860888896 0.867 2.34878235721e-38
0.0788037654657 -0.0659378445733 0.869 2.34867669931e-38
0.0804120055772 -0.0659378445733 0.869 2.348678521e-38
0.0820202456888 -0.0659378445733 0.869 2.34875040761e-38
0.0838209564235 -0.066089600257 0.871 2.34885774707e-38
0.0854328978932 -0.066089600257 0.871 2.34903627249e-38
0.0870448393629 -0.066089600257 0.871 2.3491095604e-38
0.0886567808326 -0.066089600257 0.871 2.34910829924e-38
0.0902687223023 -0.066089600257 0.871 2.34889418083e-38
0.0920916411859 -0.0662413559407 0.873 2.34914627442e-38
0.0942439809439 -0.06662074515 0.878 2.34954186098e-38
0.0958688771671 -0.06662074515 0.878 2.34961276668e-38
0.0974937733903 -0.06662074515 0.878 2.3491808865e-38
0.0991186696134 -0.06662074515 0.878 2.34947025463e-38
0.100973050041 -0.0667725008337 0.88 2.34986612144e-38
0.102601647623 -0.0667725008337 0.88 2.34986612144e-38
0.104467132125 -0.0669242565174 0.882 2.35080541181e-38
0.106099431064 -0.0669242565174 0.882 2.35098772074e-38
0.038223925505 -0.0664763921826 0.898 2.22853637547e-38
0.0397970027142 -0.066328337857 0.896 1.93340119876e-38
0.0414552111606 -0.066328337857 0.896 1.89681161429e-38
0.0430171842954 -0.0661802835314 0.894 1.94290760754e-38
0.0446716913837 -0.0661802835314 0.894 2.00730287717e-38
0.0461707414302 -0.0659582020431 0.891 2.04428734754e-38
0.0477123570952 -0.0658101477175 0.889 2.05343698573e-38
0.0493576107881 -0.0658101477175 0.889 2.08116658039e-38
0.0507733802764 -0.0655140390664 0.885 2.09042243701e-38
0.0524112312531 -0.0655140390664 0.885 2.10918624383e-38
0.0537437201832 -0.0651439032524 0.88 2.09992786488e-38
0.0552464715878 -0.0649958489268 0.878 2.16446508604e-38
0.0566770465087 -0.0647737674385 0.875 2.2287496531e-38
0.0581631418016 -0.0646257131129 0.873 2.21009346599e-38
0.0597787846294 -0.0646257131129 0.873 2.32991401352e-38
0.0613944274573 -0.0646257131129 0.873 2.25640834205e-38
0.0628657173177 -0.0644776587873 0.871 2.27481243557e-38
0.0644776587873 -0.0644776587873 0.871 2.26552224714e-38
0.066089600257 -0.0644776587873 0.871 2.32080459259e-38
0.0677015417267 -0.0644776587873 0.871 2.28399668583e-38
0.0693134831964 -0.0644776587873 0.871 2.32087493778e-38
0.0707625649079 -0.0643296044618 0.869 2.34860565348e-38
0.0723708050195 -0.0643296044618 0.869 2.34853334648e-38
0.073979045131 -0.0643296044618 0.869 2.34885802733e-38
0.0755872852426 -0.0643296044618 0.869 2.34856879933e-38
0.0771955253541 -0.0643296044618 0.869 2.3485325057e-38
0.0789851320145 -0.0644776587873 0.871 2.34871397385e-38
0.0805970734842 -0.0644776587873 0.871 2.34907312664e-38
0.0822090149539 -0.0644776587873 0.871 2.34907228586e-38
0.0840134270468 -0.0646257131129 0.873 2.34871341333e-38
0.085825241856 -0.0647737674385 0.875 2.34907438781e-38
0.087444586042 -0.0647737674385 0.875 2.34882075279e-38
0.0893692922744 -0.0649958489268 0.878 2.34921774065e-38
0.0909941884976 -0.0649958489268 0.878 2.34921647948e-38
0.0926190847208 -0.0649958489268 0.878 2.34957773422e-38
0.094458659716 -0.0651439032524 0.88 2.34918158714e-38
0.0960872572973 -0.0651439032524 0.88 2.34947095528e-38
0.0974937733903 -0.0649958489268 0.878 2.34946955398e-38
0.0991186696134 -0.0649958489268 0.878 2.34943550243e-38
0.100973050041 -0.0651439032524 0.88 2.34990087365e-38
0.102601647623 -0.0651439032524 0.88 2.34997065831e-38
0.0398858353096 -0.064814482378 0.898 1.8230551104e-38
0.0414552111606 -0.0646701294106 0.896 1.95220228012e-38
0.0431134196071 -0.0646701294106 0.896 2.05358328129e-38
0.0446716913837 -0.0645257764432 0.894 2.00730231665e-38
0.046326198472 -0.0645257764432 0.894 2.06265626846e-38
0.0478196964812 -0.064309246992 0.891 2.11804385143e-38
0.0493576107881 -0.0641648940246 0.889 2.09960570636e-38
0.0508881223787 -0.0640205410571 0.887 2.15499497089e-38
0.0524112312531 -0.0638761880897 0.885 2.07216127594e-38
0.0538658650018 -0.0636596586385 0.882 2.12740830868e-38
0.0553723177646 -0.0635153056711 0.88 2.17343395674e-38
0.056871367811 -0.0633709527037 0.878 2.20109068388e-38
0.0584962640342 -0.0633709527037 0.878 2.24697396001e-38
0.0599157348806 -0.0631544232525 0.875 2.24686606003e-38
0.0615350790666 -0.0631544232525 0.875 2.3208379435e-38
0.0630100702851 -0.0630100702851 0.873 2.30261377671e-38
0.0646257131129 -0.0630100702851 0.873 2.20109068388e-38
0.0662413559407 -0.0630100702851 0.873 2.33916762806e-38
0.0678569987686 -0.0630100702851 0.873 2.34853208531e-38
0.0693134831964 -0.0628657173177 0.871 2.34863928464e-38
0.0709254246661 -0.0628657173177 0.871 2.34853152479e-38
0.0725373661358 -0.0628657173177 0.871 2.34860355153e-38
0.0741493076054 -0.0628657173177 0.871 2.34842516623e-38
0.0757612490751 -0.0628657173177 0.871 2.34875026748e-38
0.0773731905448 -0.0628657173177 0.871 2.34871341333e-38
0.0789851320145 -0.0628657173177 0.871 2.34882397578e-38
0.0805970734842 -0.0628657173177 0.871 2.3488203324e-38
0.082397784219 -0.0630100702851 0.873 2.34910633742e-38
0.0840134270468 -0.0630100702851 0.873 2.34874928657e-38
0.0861194998281 -0.0633709527037 0.878 2.34889502161e-38
0.0877443960512 -0.0633709527037 0.878 2.34907256612e-38
0.0893692922744 -0.0633709527037 0.878 2.34903290938e-38
0.0912014645534 -0.0635153056711 0.88 2.3492156387e-38
0.0928300621347 -0.0635153056711 0.88 2.34936039283e-38
0.094458659716 -0.0635153056711 0.88 2.34936095335e-38
0.0963056374275 -0.0636596586385 0.882 2.34943438139e-38
0.0977158548786 -0.0635153056711 0.88 2.34961360746e-38
0.0993444524599 -0.0635153056711 0.88 2.34968717563e-38
0.100973050041 -0.0635153056711 0.88 2.34986682209e-38
0.102601647623 -0.0635153056711 0.88 2.34997177935e-38
0.0398858353096 -0.0631525725735 0.898 1.93383279868e-38
0.0415477451141 -0.0631525725735 0.898 1.9153217861e-38
0.0431134196071 -0.0630119209642 0.896 1.93361797963e-38
0.0447716280535 -0.0630119209642 0.896 1.98886333081e-38
0.046326198472 -0.0628712693549 0.894 2.05347173793e-38
0.0478196964812 -0.0626602919409 0.891 2.06276220662e-38
0.0493576107881 -0.0625196403316 0.889 2.10878743429e-38
0.0508881223787 -0.0623789887223 0.887 2.09024265041e-38
0.0525296747135 -0.0623789887223 0.887 2.17325459053e-38
0.0540490822297 -0.062238337113 0.885 2.15481490404e-38
0.0553723177646 -0.0618867080898 0.88 2.29310834884e-38
0.0570009153459 -0.0618867080898 0.88 2.23793194154e-38
0.0584962640342 -0.0617460564805 0.878 2.32087297596e-38
0.0601211602573 -0.0617460564805 0.878 2.2654126656e-38
0.0617460564805 -0.0617460564805 0.878 2.23775411677e-38
0.0631544232525 -0.0615350790666 0.875 2.34860467257e-38
0.0647737674385 -0.0615350790666 0.875 2.33016582685e-38
0.0662413559407 -0.0613944274573 0.873 2.30236294428e-38
0.0678569987686 -0.0613944274573 0.873 2.34838901273e-38
0.0694726415964 -0.0613944274573 0.873 2.34845991844e-38
0.0709254246661 -0.061253775848 0.871 2.34860439231e-38
0.0725373661358 -0.061253775848 0.871 2.34849579168e-38
0.0741493076054 -0.061253775848 0.871 2.34885718655e-38
0.0757612490751 -0.061253775848 0.871 2.34867627892e-38
0.0775508557355 -0.0613944274573 0.873 2.34871397385e-38
0.0791664985633 -0.0613944274573 0.873 2.34864152672e-38
0.0807821413911 -0.0613944274573 0.873 2.34882187383e-38
0.082397784219 -0.0613944274573 0.873 2.34867683944e-38
0.08420589767 -0.0615350790666 0.875 2.34892935342e-38
0.0861194998281 -0.0617460564805 0.878 2.34885620564e-38
0.0879442693908 -0.0618867080898 0.88 2.34903809418e-38
0.0895728669721 -0.0618867080898 0.88 2.34910928014e-38
0.0912014645534 -0.0618867080898 0.88 2.34964835966e-38
0.0928300621347 -0.0618867080898 0.88 2.3491457139e-38
0.094458659716 -0.0618867080898 0.88 2.34903683301e-38
0.0963056374275 -0.0620273596991 0.882 2.34947137567e-38
0.0982710585995 -0.062238337113 0.885 2.3496856342e-38
0.100134692423 -0.0623789887223 0.887 2.34946955398e-38
0.101776244757 -0.0623789887223 0.887 2.35001339791e-38
0.104467132125 -0.0630119209642 0.896 2.3502269558e-38
0.0398858353096 -0.0614906627689 0.898 1.97982341428e-38
0.0415477451141 -0.0614906627689 0.898 1.9151771721e-38
0.0432096549187 -0.0614906627689 0.898 2.09953255858e-38
0.0447716280535 -0.0613537125177 0.896 1.96145393284e-38
0.0464298364999 -0.0613537125177 0.896 2.01691452346e-38
0.0479807055603 -0.0612167622666 0.894 2.072126804e-38
0.0494686515323 -0.0610113368898 0.891 1.99837001985e-38
0.0508881223787 -0.0607374363875 0.887 2.16425096764e-38
0.0525296747135 -0.0607374363875 0.887 2.11832943605e-38
0.0540490822297 -0.0606004861364 0.885 2.13651871051e-38
0.0554981639413 -0.0603950607596 0.882 2.22853455378e-38
0.0570009153459 -0.0602581105085 0.88 2.24704584662e-38
0.0586295129272 -0.0602581105085 0.88 2.2009865674e-38
0.0602581105085 -0.0602581105085 0.88 2.2931086291e-38
0.0617460564805 -0.0601211602573 0.878 2.34856333426e-38
0.0633709527037 -0.0601211602573 0.878 2.33009295933e-38
0.0647737674385 -0.0599157348806 0.875 2.32090968998e-38
0.0663931116244 -0.0599157348806 0.875 2.34857174205e-38
0.0680124558104 -0.0599157348806 0.875 2.34838873247e-38
0.0696317999964 -0.0599157348806 0.875 2.34838859234e-38
0.0710882844242 -0.0597787846294 0.873 2.34889277953e-38
0.072703927252 -0.0597787846294 0.873 2.34895962147e-38
0.0743195700798 -0.0597787846294 0.873 2.34896368523e-38
0.0759352129077 -0.0597787846294 0.873 2.3487841789e-38
0.0777285209262 -0.0599157348806 0.875 2.348750828e-38
0.0793478651121 -0.0599157348806 0.875 2.34900180055e-38
0.0809672092981 -0.0599157348806 0.875 2.3489649464e-38
0.0828697073817 -0.0601211602573 0.878 2.3492156387e-38
0.0844946036049 -0.0601211602573 0.878 2.34903767379e-38
0.0861194998281 -0.0601211602573 0.878 2.34900180055e-38
0.0879442693908 -0.0602581105085 0.88 2.34921675974e-38
0.0895728669721 -0.0602581105085 0.88 2.34911040118e-38
0.0912014645534 -0.0602581105085 0.88 2.34929060817e-38
0.0928300621347 -0.0602581105085 0.88 2.3490386547e-38
0.0946733384881 -0.0603950607596 0.882 2.34925151194e-38
0.0966332076229 -0.0606004861364 0.885 2.34950612787e-38
0.0984931400879 -0.0607374363875 0.887 2.34921872155e-38
0.100360475269 -0.0608743866387 0.889 2.34979577626e-38
0.102808923678 -0.0613537125177 0.896 2.35001073545e-38
0.104467132125 -0.0613537125177 0.896 2.35084002388e-38
0.0400190842026 -0.0600286263038 0.901 1.9063185836e-38
0.0416865460443 -0.0600286263038 0.901 1.93386783115e-38
0.0432096549187 -0.0598287529643 0.898 2.01670096558e-38
0.0448715647232 -0.0598287529643 0.898 1.93379776622e-38
0.0464298364999 -0.0596955040713 0.896 2.03528274373e-38
0.0480880449463 -0.0596955040713 0.896 2.03524771127e-38
0.0494686515323 -0.0593623818388 0.891 2.01684585984e-38
0.0510028644811 -0.0592291329458 0.889 2.1459218436e-38
0.0525296747135 -0.0590958840527 0.887 2.12768996967e-38
0.0540490822297 -0.0589626351597 0.885 2.17339920453e-38
0.0556869332064 -0.0589626351597 0.885 2.182473593e-38
0.0571304628807 -0.0587627618202 0.882 2.26548567325e-38
0.0587627618202 -0.0587627618202 0.882 2.22871462063e-38
0.0602581105085 -0.0586295129272 0.88 2.23771936457e-38
0.0618867080898 -0.0586295129272 0.88 2.30218371821e-38
0.0635153056711 -0.0586295129272 0.88 2.31147614872e-38
0.0651439032524 -0.0586295129272 0.88 2.34878389864e-38
0.06662074515 -0.0584962640342 0.878 2.3484611796e-38
0.0682456413732 -0.0584962640342 0.878 2.34838957325e-38
0.0698705375964 -0.0584962640342 0.878 2.34856949998e-38
0.0716582935777 -0.0586295129272 0.88 2.34864124646e-38
0.0728704883683 -0.0582963906946 0.875 2.34846145986e-38
0.0744898325543 -0.0582963906946 0.875 2.34875012735e-38
0.076370122489 -0.0584962640342 0.878 2.34860705477e-38
0.0779950187122 -0.0584962640342 0.878 2.34889432096e-38
0.0796199149354 -0.0584962640342 0.878 2.34889277953e-38
0.0812448111586 -0.0584962640342 0.878 2.34882159357e-38
0.0828697073817 -0.0584962640342 0.878 2.34882285474e-38
0.0846870742281 -0.0586295129272 0.88 2.34896858978e-38
0.0863156718095 -0.0586295129272 0.88 2.34896648783e-38
0.0879442693908 -0.0586295129272 0.88 2.34911012092e-38
0.0895728669721 -0.0586295129272 0.88 2.34910928014e-38
0.0912014645534 -0.0586295129272 0.88 2.34939878841e-38
0.0930410395486 -0.0587627618202 0.882 2.34921704e-38
0.0946733384881 -0.0587627618202 0.882 2.34936193426e-38
0.0968515877531 -0.0590958840527 0.887 2.34950668839e-38
0.0987152215763 -0.0592291329458 0.889 2.3498302482e-38
0.100924932385 -0.0595622551783 0.894 2.34965116226e-38
0.102808923678 -0.0596955040713 0.896 2.35026465073e-38
0.104467132125 -0.0596955040713 0.896 2.35055177678e-38
0.0433540078861 -0.0583611644621 0.901 2.05375774295e-38
0.0450214697279 -0.0583611644621 0.901 2.02610227698e-38
0.0465334745278 -0.0581668431598 0.898 2.01680886556e-38
0.0480880449463 -0.0580372956249 0.896 2.02592080882e-38
0.0494686515323 -0.0577134267877 0.891 2.12722852208e-38
0.0510028644811 -0.0575838792528 0.889 2.04436035519e-38
0.0525296747135 -0.0574543317179 0.887 2.11829314242e-38
0.0540490822297 -0.0573247841831 0.885 2.21945946467e-38
0.0556869332064 -0.0573247841831 0.885 2.21931527105e-38
0.0571304628807 -0.0571304628807 0.882 2.2931086291e-38
0.0587627618202 -0.0571304628807 0.882 2.19180077571e-38
0.0603950607596 -0.0571304628807 0.882 2.30236294428e-38
0.0618867080898 -0.0570009153459 0.88 2.32062284418e-38
0.0635153056711 -0.0570009153459 0.88 2.31161838051e-38
0.0651439032524 -0.0570009153459 0.88 2.33012925296e-38
0.0667725008337 -0.0570009153459 0.88 2.34849663246e-38
0.068401098415 -0.0570009153459 0.88 2.34846202038e-38
0.0700296959964 -0.0570009153459 0.88 2.34853264583e-38
0.0716582935777 -0.0570009153459 0.88 2.34838943312e-38
0.073286891159 -0.0570009153459 0.88 2.34874830566e-38
0.0747452262659 -0.056871367811 0.878 2.34878473942e-38
0.076370122489 -0.056871367811 0.878 2.34874844579e-38
0.0779950187122 -0.056871367811 0.878 2.34896214381e-38
0.0798012814842 -0.0570009153459 0.88 2.3489287929e-38
0.0814298790655 -0.0570009153459 0.88 2.34874928657e-38
