# .PCD v0.7 - Point Cloud Data file format
VERSION 0.7
FIELDS x y z rgb
SIZE 4 4 4 4
TYPE F F F F
COUNT 1 1 1 1
WIDTH 862
HEIGHT 1
VIEWPOINT 0 0 0 1 0 0 0
POINTS 862
DATA ascii
0.0876111471582 -0.150399135955 0.789 2.3491780839e-38
0.0890713329442 -0.150399135955 0.789 2.34946983424e-38
0.0905315187302 -0.150399135955 0.789 2.30214490224e-38
0.0921082972975 -0.150589755899 0.79 2.34986514054e-38
0.0578781372249 -0.155357105183 0.823 1.89698915881e-38
0.0594012460992 -0.155357105183 0.823 1.72192732387e-38
0.0609243549736 -0.155357105183 0.823 1.40871049242e-38
0.0600952507504 -0.149505257964 0.792 1.45437866924e-38
0.0615609885735 -0.149505257964 0.792 1.55597771245e-38
0.0630267263967 -0.149505257964 0.792 1.69459079343e-38
0.0643296044618 -0.149127719434 0.79 1.79571956087e-38
0.0657916409268 -0.149127719434 0.79 1.89691923402e-38
0.0672536773918 -0.149127719434 0.79 1.97070936907e-38
0.0687157138569 -0.149127719434 0.79 1.9244334491e-38
0.0700889177266 -0.148938950169 0.789 1.87833591443e-38
0.0715491035126 -0.148938950169 0.789 1.95219807623e-38
0.0730092892985 -0.148938950169 0.789 1.96145239142e-38
0.0744694750845 -0.148938950169 0.789 2.01677004959e-38
0.0759296608705 -0.148938950169 0.789 2.05354222324e-38
0.0773898466564 -0.148938950169 0.789 2.09041893376e-38
0.0788500324424 -0.148938950169 0.789 2.13666066205e-38
0.0803102182284 -0.148938950169 0.789 2.12744390166e-38
0.0815631279585 -0.148561411639 0.787 2.16399943457e-38
0.0830196123864 -0.148561411639 0.787 2.22871181804e-38
0.0846907755863 -0.148938950169 0.789 2.34896046225e-38
0.0861509613723 -0.148938950169 0.789 2.34903753366e-38
0.0876111471582 -0.148938950169 0.789 2.34853418725e-38
0.0890713329442 -0.148938950169 0.789 2.34846103947e-38
0.0906462608325 -0.149127719434 0.79 2.34846188025e-38
0.0921082972975 -0.149127719434 0.79 2.35084184557e-38
0.053179263067 -0.153460159136 0.821 1.95216248325e-38
0.0546986705832 -0.153460159136 0.821 1.92475420632e-38
0.0562180780994 -0.153460159136 0.821 1.90620914219e-38
0.0577374856156 -0.153460159136 0.821 1.82334223646e-38
0.0591125401644 -0.153086321964 0.819 1.67579251466e-38
0.0606282463224 -0.153086321964 0.819 1.50065753194e-38
0.0621439524805 -0.153086321964 0.819 1.41779090647e-38
0.0615609885735 -0.148039520141 0.792 1.5375377457e-38
0.0630267263967 -0.148039520141 0.792 1.65749800269e-38
0.0644924642199 -0.148039520141 0.792 1.77717407634e-38
0.0657916409268 -0.147665682969 0.79 1.86929767947e-38
0.0672536773918 -0.147665682969 0.79 1.86926054506e-38
0.0687157138569 -0.147665682969 0.79 2.04450286724e-38
0.0701777503219 -0.147665682969 0.79 2.00762433504e-38
0.0715491035126 -0.147478764383 0.789 2.05361705258e-38
0.0730092892985 -0.147478764383 0.789 2.00755427011e-38
0.0744694750845 -0.147478764383 0.789 2.18279603178e-38
0.0759296608705 -0.147478764383 0.789 2.13666066205e-38
0.0773898466564 -0.147478764383 0.789 2.15520964982e-38
0.0788500324424 -0.147478764383 0.789 2.12755054047e-38
0.0803102182284 -0.147478764383 0.789 2.2472236714e-38
0.0817704040143 -0.147478764383 0.789 2.28395885077e-38
0.0832305898003 -0.147478764383 0.789 2.31161810025e-38
0.0847981149723 -0.147665682969 0.79 2.26555573817e-38
0.0862601514374 -0.147665682969 0.79 2.28374515276e-38
0.0877221879024 -0.147665682969 0.79 2.3483888726e-38
0.0891842243674 -0.147665682969 0.79 2.34831880768e-38
0.0906462608325 -0.147665682969 0.79 2.3486423675e-38
0.0516598555508 -0.15194075162 0.821 1.97975068689e-38
0.053179263067 -0.15194075162 0.821 1.90631704217e-38
0.0546986705832 -0.15194075162 0.821 1.86007601453e-38
0.0560811278482 -0.151570615806 0.819 1.84163716882e-38
0.057456182397 -0.151200479992 0.817 1.84160059493e-38
0.0586794812621 -0.150460208364 0.813 1.71267118699e-38
0.0601840833457 -0.150460208364 0.813 1.44544581192e-38
0.0605505178015 -0.14768418976 0.798 1.41746314276e-38
0.0617164456154 -0.146943918132 0.794 1.65742737724e-38
0.0631858847967 -0.146943918132 0.794 1.69437653489e-38
0.0644924642199 -0.146573782318 0.792 1.66661162751e-38
0.0659582020431 -0.146573782318 0.792 1.83249019309e-38
0.0672536773918 -0.146203646504 0.79 1.95223759284e-38
0.0687157138569 -0.146203646504 0.79 1.943159561e-38
0.0701777503219 -0.146203646504 0.79 1.97067545765e-38
0.0715491035126 -0.146018578597 0.789 2.01666593312e-38
0.0730092892985 -0.146018578597 0.789 2.08138111919e-38
0.0744694750845 -0.146018578597 0.789 2.04450286724e-38
0.0759296608705 -0.146018578597 0.789 2.08134608672e-38
0.0773898466564 -0.146018578597 0.789 2.11826357503e-38
0.0788500324424 -0.146018578597 0.789 2.13673380983e-38
0.0803102182284 -0.146018578597 0.789 2.19176153935e-38
0.0817704040143 -0.146018578597 0.789 2.19172846871e-38
0.0832305898003 -0.146018578597 0.789 2.27474181012e-38
0.0847981149723 -0.146203646504 0.79 2.31179564477e-38
0.0862601514374 -0.146203646504 0.79 2.32080235052e-38
0.0877221879024 -0.146203646504 0.79 2.34853278596e-38
0.0891842243674 -0.146203646504 0.79 2.34860649426e-38
0.0906462608325 -0.146203646504 0.79 2.34885564512e-38
0.0923414828603 -0.146573782318 0.792 2.35098491814e-38
0.0486210405184 -0.150421344104 0.821 1.78646454503e-38
0.050018303216 -0.150054909648 0.819 1.88762764429e-38
0.0515340093741 -0.150054909648 0.819 1.89695454674e-38
0.0530497155321 -0.150054909648 0.819 1.89699210154e-38
0.0544321727972 -0.149688475192 0.817 1.87851598128e-38
0.0559441775971 -0.149688475192 0.817 1.79543215456e-38
0.0573155307877 -0.149322040736 0.815 1.74926175236e-38
0.0586794812621 -0.148955606281 0.813 1.74025854986e-38
0.0595918660434 -0.147489868457 0.805 1.56515972064e-38
0.0605505178015 -0.146207347862 0.798 1.58348912494e-38
0.0618719026572 -0.145840913406 0.796 1.66653763895e-38
0.0633450431967 -0.145840913406 0.796 1.62969638128e-38
0.0648181837362 -0.145840913406 0.796 1.73118388114e-38
0.0661247631593 -0.145474478951 0.794 1.74018694351e-38
0.0674239398663 -0.145108044495 0.792 1.89691923402e-38
0.0688896776894 -0.145108044495 0.792 1.94312438841e-38
0.0701777503219 -0.144741610039 0.79 1.91528647338e-38
0.071639786787 -0.144741610039 0.79 2.12715845716e-38
0.0730092892985 -0.144558392811 0.789 1.99837128102e-38
0.0744694750845 -0.144558392811 0.789 2.15517489762e-38
0.0759296608705 -0.144558392811 0.789 2.07219658866e-38
0.0773898466564 -0.144558392811 0.789 2.10893232855e-38
0.0788500324424 -0.144558392811 0.789 2.15488524922e-38
0.0803102182284 -0.144558392811 0.789 2.2285351143e-38
0.0817704040143 -0.144558392811 0.789 2.26552042545e-38
0.0833360785073 -0.144741610039 0.79 2.22864147285e-38
0.0847981149723 -0.144741610039 0.79 2.21938491559e-38
0.0864785315676 -0.145108044495 0.792 2.27463194832e-38
0.0877221879024 -0.144741610039 0.79 2.33906365171e-38
0.0891842243674 -0.144741610039 0.79 2.34874886618e-38
0.0906462608325 -0.144741610039 0.79 2.34900362224e-38
0.0923414828603 -0.145108044495 0.792 2.35098337671e-38
0.0938072206835 -0.145108044495 0.792 2.35098786087e-38
0.0982803119949 -0.149688475192 0.817 2.35098463788e-38
0.0997923167948 -0.149688475192 0.817 2.35098505827e-38
0.0471016330022 -0.148901936588 0.821 1.71256328701e-38
0.0485025970579 -0.14853920349 0.819 1.76798800439e-38
0.050018303216 -0.14853920349 0.819 1.8140505066e-38
0.0514081631973 -0.148176470392 0.817 1.95216402467e-38
0.0529201679972 -0.148176470392 0.817 1.87851542077e-38
0.0542989239041 -0.147813737295 0.815 1.89688195948e-38
0.0558072273459 -0.147813737295 0.815 1.83230998611e-38
0.0571748791784 -0.147451004197 0.813 1.90613711544e-38
0.0585351282946 -0.147088271099 0.811 1.71260056155e-38
0.0595918660434 -0.146000071806 0.805 1.74954887842e-38
0.0607022734852 -0.145093239062 0.8 1.64809613077e-38
0.0620273596991 -0.144730505965 0.798 1.69401528015e-38
0.0635042015967 -0.144730505965 0.798 1.72174781754e-38
0.0648181837362 -0.144367772867 0.796 1.70352351062e-38
0.0662913242756 -0.144367772867 0.796 1.83249145426e-38
0.0675942023407 -0.144005039769 0.794 1.90631830334e-38
0.0688896776894 -0.143642306672 0.792 1.96152848192e-38
0.0703554155126 -0.143642306672 0.792 2.05372243023e-38
0.071639786787 -0.143279573574 0.79 2.0167015261e-38
0.073101823252 -0.143279573574 0.79 2.03521099725e-38
0.0744694750845 -0.143098207025 0.789 2.06294353464e-38
0.0759296608705 -0.143098207025 0.789 2.09964214012e-38
0.0774879326471 -0.143279573574 0.79 2.14577484739e-38
0.0789499691122 -0.143279573574 0.79 2.16403474729e-38
0.0804120055772 -0.143279573574 0.79 2.21931653222e-38
0.0818740420422 -0.143279573574 0.79 2.16414264727e-38
0.0833360785073 -0.143279573574 0.79 2.24708087909e-38
0.0850127937444 -0.143642306672 0.792 2.33909756314e-38
0.0864785315676 -0.143642306672 0.792 2.3486743171e-38
0.0877221879024 -0.143279573574 0.79 2.3484987344e-38
0.0891842243674 -0.143279573574 0.79 2.34878333812e-38
0.0906462608325 -0.143279573574 0.79 2.34993464494e-38
0.0923414828603 -0.143642306672 0.792 2.35098393723e-38
0.096768307195 -0.148176470392 0.817 2.35098856151e-38
0.0982803119949 -0.148176470392 0.817 2.35098505827e-38
0.0997923167948 -0.148176470392 0.817 2.35098716022e-38
0.0454711847418 -0.147023497332 0.819 1.74817756774e-38
0.0469868908999 -0.147023497332 0.819 1.74955070011e-38
0.0485025970579 -0.147023497332 0.819 1.79564627296e-38
0.0498961583974 -0.146664465592 0.817 1.83238229311e-38
0.0512823170206 -0.146305433853 0.815 1.93365273183e-38
0.0527906204624 -0.146305433853 0.815 1.91517871353e-38
0.0542989239041 -0.146305433853 0.815 1.90599208105e-38
0.0556702770948 -0.145946402113 0.813 1.89698887855e-38
0.0570342275691 -0.145587370374 0.811 1.80454381756e-38
0.0582464223598 -0.144869306895 0.807 1.85060491847e-38
0.0595918660434 -0.144510275155 0.805 1.73100423467e-38
0.0609299070108 -0.144151243416 0.803 1.78628419792e-38
0.0623382737828 -0.143971727546 0.802 1.76773647132e-38
0.0636633599967 -0.143612695806 0.8 1.78631951064e-38
0.0649810434943 -0.143253664067 0.798 1.758875921e-38
0.0662913242756 -0.142894632327 0.796 1.83259739243e-38
0.0675942023407 -0.142535600588 0.794 1.87858632647e-38
0.069063641522 -0.142535600588 0.794 1.89667162458e-38
0.0703554155126 -0.142176568848 0.792 2.06258648379e-38
0.0718211533358 -0.142176568848 0.792 2.03524771127e-38
0.073101823252 -0.141817537109 0.79 2.03524771127e-38
0.074563859717 -0.141817537109 0.79 2.0997129057e-38
0.0760258961821 -0.141817537109 0.79 2.09967731272e-38
0.0776841046285 -0.142176568848 0.792 2.11808154636e-38
0.0791498424517 -0.142176568848 0.792 2.29321624882e-38
0.0806155802749 -0.142176568848 0.792 2.12715663547e-38
0.082081318098 -0.142176568848 0.792 2.25640806179e-38
0.0835470559212 -0.142176568848 0.792 2.2471499631e-38
0.0850127937444 -0.142176568848 0.792 2.34824523951e-38
0.0864785315676 -0.142176568848 0.792 2.34813874083e-38
0.0879442693908 -0.142176568848 0.792 2.34864138659e-38
0.0894100072139 -0.142176568848 0.792 2.34939710685e-38
0.0908757450371 -0.142176568848 0.792 2.35054869393e-38
0.0945567457067 -0.145587370374 0.811 2.35098617931e-38
0.096531420274 -0.146305433853 0.815 2.35098505827e-38
0.0982803119949 -0.146664465592 0.817 2.35098365697e-38
0.0997923167948 -0.146664465592 0.817 2.35098603918e-38
0.101304321595 -0.146664465592 0.817 2.35098575892e-38
0.103068018748 -0.147023497332 0.819 2.35098393723e-38
0.104583724906 -0.147023497332 0.819 2.3508030296e-38
0.0454711847418 -0.145507791174 0.819 1.68453759798e-38
0.0469868908999 -0.145507791174 0.819 1.74937147403e-38
0.0483841535975 -0.145152460792 0.817 1.76788038467e-38
0.0497740135788 -0.144797130411 0.815 1.85993378274e-38
0.0512823170206 -0.144797130411 0.815 1.85082113883e-38
0.0526610729275 -0.14444180003 0.813 1.92439813638e-38
0.0541656750111 -0.14444180003 0.813 1.88762708377e-38
0.0556702770948 -0.14444180003 0.813 1.86933145076e-38
0.0570342275691 -0.144086469648 0.811 1.84152996949e-38
0.0582464223598 -0.143375808886 0.807 1.83227341222e-38
0.0595918660434 -0.143020478504 0.805 1.78617882028e-38
0.0610816626945 -0.143020478504 0.805 1.79546774754e-38
0.0624160023037 -0.142665148123 0.803 1.83223964093e-38
0.0639020975967 -0.142665148123 0.803 1.76777304521e-38
0.0653067630106 -0.142487482932 0.802 1.74025911038e-38
0.0664578853919 -0.141776822169 0.798 1.87851710232e-38
0.0677644648151 -0.141421491788 0.796 1.87855101375e-38
0.0692376053545 -0.141421491788 0.796 1.92439813638e-38
0.070710745894 -0.141421491788 0.796 2.04425231508e-38
0.0721838864334 -0.141421491788 0.796 2.07201862376e-38
0.0734719590659 -0.141066161407 0.794 2.00758958283e-38
0.0749413982473 -0.141066161407 0.794 2.21027675583e-38
0.0764108374286 -0.141066161407 0.794 2.05361649206e-38
0.0780764485913 -0.141421491788 0.796 2.14577512765e-38
0.0795495891307 -0.141421491788 0.796 2.20098530623e-38
0.0808191549725 -0.141066161407 0.794 2.29325128128e-38
0.0822885941539 -0.141066161407 0.794 2.22882181997e-38
0.0839690107491 -0.141421491788 0.796 2.20112627686e-38
0.0854421512886 -0.141421491788 0.796 2.34849368973e-38
0.086915291828 -0.141421491788 0.796 2.34817573511e-38
0.0883884323675 -0.141421491788 0.796 2.34939402399e-38
0.0903131385999 -0.142132152551 0.8 2.3503687672e-38
0.0920231660603 -0.142487482932 0.802 2.3509851984e-38
0.0945567457067 -0.144086469648 0.811 2.35098617931e-38
0.096531420274 -0.144797130411 0.815 2.3509865997e-38
0.0980397237158 -0.144797130411 0.815 2.3509851984e-38
0.0997923167948 -0.145152460792 0.817 2.35098463788e-38
0.101304321595 -0.145152460792 0.817 2.3509851984e-38
0.103068018748 -0.145507791174 0.819 2.35098057411e-38
0.104583724906 -0.145507791174 0.819 2.35098421749e-38
0.0424397724257 -0.143992085016 0.819 2.31273521539e-38
0.0439554785838 -0.143992085016 0.819 1.29624367897e-38
0.0454711847418 -0.143992085016 0.819 1.71238125834e-38
0.0469868908999 -0.143992085016 0.819 1.79546900871e-38
0.0483841535975 -0.143640455993 0.817 1.82309014287e-38
0.0497740135788 -0.143288826969 0.815 1.85085491012e-38
0.0511564708438 -0.142937197946 0.813 1.8600397209e-38
0.0526610729275 -0.142937197946 0.813 1.89688223974e-38
0.0541656750111 -0.142937197946 0.813 1.89681063339e-38
0.0555333268436 -0.142585568923 0.811 1.85074925221e-38
0.0570342275691 -0.142585568923 0.811 1.85071450001e-38
0.0582464223598 -0.141882310876 0.807 1.86904390432e-38
0.059739920369 -0.141882310876 0.807 1.85978916874e-38
0.0610816626945 -0.141530681853 0.805 1.786069519e-38
0.0625714593456 -0.141530681853 0.805 1.87819340238e-38
0.0640612559967 -0.141530681853 0.805 1.85067946755e-38
0.0653881928896 -0.14117905283 0.803 1.92457792298e-38
0.0668742881826 -0.14117905283 0.803 1.90617410972e-38
0.0679347272895 -0.140299980272 0.798 1.95234283036e-38
0.0694115691871 -0.140299980272 0.798 1.92450603636e-38
0.0708884110847 -0.140299980272 0.798 2.06269158118e-38
0.0723652529823 -0.140299980272 0.798 2.08138139945e-38
0.0736570269729 -0.139948351249 0.796 2.04436063545e-38
0.0751301675124 -0.139948351249 0.796 2.09038768481e-38
0.0766033080518 -0.139948351249 0.796 2.14577512765e-38
0.0780764485913 -0.139948351249 0.796 2.18269065413e-38
0.0795495891307 -0.139948351249 0.796 2.17350640387e-38
0.0810227296702 -0.139948351249 0.796 2.23775411677e-38
0.0824958702097 -0.139948351249 0.796 2.30229161819e-38
0.0839690107491 -0.139948351249 0.796 2.34857174205e-38
0.0856568300607 -0.140299980272 0.798 2.34889095784e-38
0.0871336719583 -0.140299980272 0.798 2.3494687132e-38
0.0890546768326 -0.141003238318 0.802 2.35008598517e-38
0.0908775957162 -0.141530681853 0.805 2.35073170351e-38
0.0925968765719 -0.141882310876 0.807 2.35098477801e-38
0.0943235601439 -0.1422339399 0.809 2.35094806399e-38
0.0960576464322 -0.142585568923 0.811 2.35098730035e-38
0.0977991354368 -0.142937197946 0.813 2.35091163023e-38
0.0995480271576 -0.143288826969 0.815 2.35098421749e-38
0.101056330599 -0.143288826969 0.815 2.35098505827e-38
0.102816326395 -0.143640455993 0.817 2.35098463788e-38
0.104328331195 -0.143640455993 0.817 2.35069877299e-38
0.105840335994 -0.143640455993 0.817 2.35076729649e-38
0.107615137222 -0.143992085016 0.819 2.35019192334e-38
0.0424397724257 -0.142476378858 0.819 1.86068964313e-38
0.0439554785838 -0.142476378858 0.819 1.55427989923e-38
0.0454711847418 -0.142476378858 0.819 1.67568125156e-38
0.0469868908999 -0.142476378858 0.819 1.71245734885e-38
0.0483841535975 -0.142128451193 0.817 1.75851690833e-38
0.0497740135788 -0.141780523527 0.815 1.85085519038e-38
0.0511564708438 -0.141432595862 0.813 1.8600397209e-38
0.0526610729275 -0.141432595862 0.813 1.9244686217e-38
0.0540324261181 -0.141084668197 0.811 1.90613907726e-38
0.0555333268436 -0.141084668197 0.811 1.94312494893e-38
0.0568935759598 -0.140736740532 0.809 1.92454106883e-38
0.0582464223598 -0.140388812867 0.807 1.91514157912e-38
0.059739920369 -0.140388812867 0.807 1.96123911379e-38
0.0610816626945 -0.140040885202 0.805 1.80457885002e-38
0.0625714593456 -0.140040885202 0.805 1.90599110014e-38
0.0640612559967 -0.140040885202 0.805 1.99815464027e-38
0.0653881928896 -0.139692957537 0.803 1.83231166767e-38
0.0668742881826 -0.139692957537 0.803 1.94301508713e-38
0.0683603834755 -0.139692957537 0.803 1.98907800973e-38
0.0695855330196 -0.139171066039 0.8 2.00744454844e-38
0.0708884110847 -0.138823138374 0.798 2.08116601987e-38
0.0723652529823 -0.138823138374 0.798 2.10900421516e-38
0.0738420948799 -0.138823138374 0.798 2.14588274737e-38
0.0753189367775 -0.138823138374 0.798 2.10889729609e-38
0.0767957786751 -0.138823138374 0.798 2.18258079233e-38
0.0782726205727 -0.138823138374 0.798 2.21945974493e-38
0.0797494624703 -0.138823138374 0.798 2.27481187505e-38
0.0812263043679 -0.138823138374 0.798 2.34881738967e-38
0.0827031462655 -0.138823138374 0.798 2.34870710748e-38
0.0841799881631 -0.138823138374 0.798 2.34885284253e-38
0.0858715088327 -0.139171066039 0.8 2.349867803e-38
0.0875704322187 -0.139518993704 0.802 2.35015506919e-38
0.0891657175768 -0.139692957537 0.803 2.35097875243e-38
0.0908775957162 -0.140040885202 0.805 2.35098085437e-38
0.0925968765719 -0.140388812867 0.807 2.3509837971e-38
0.0943235601439 -0.140736740532 0.809 2.35098491814e-38
0.0960576464322 -0.141084668197 0.811 2.35098589905e-38
0.0977991354368 -0.141432595862 0.813 2.3509851984e-38
0.0993037375204 -0.141432595862 0.813 2.35098225567e-38
0.101056330599 -0.141780523527 0.815 2.35091205062e-38
0.102816326395 -0.142128451193 0.817 2.35073170351e-38
0.104328331195 -0.142128451193 0.817 2.35058905132e-38
0.105840335994 -0.142128451193 0.817 2.35083834232e-38
0.107615137222 -0.142476378858 0.819 2.3503715698e-38
0.0425434104536 -0.141304899007 0.821 1.36246652206e-38
0.0439554785838 -0.1409606727 0.819 1.66574128103e-38
0.0454711847418 -0.1409606727 0.819 1.62047653804e-38
0.0468721487976 -0.140616446393 0.817 1.77713750245e-38
0.0483841535975 -0.140616446393 0.817 1.7495844714e-38
0.0496518687602 -0.139927993779 0.813 1.81404938556e-38
0.0511564708438 -0.139927993779 0.813 1.9523049953e-38
0.0525315253926 -0.139583767472 0.811 1.97056307351e-38
0.0540324261181 -0.139583767472 0.811 1.88784442516e-38
0.0555333268436 -0.139583767472 0.811 1.9246132357e-38
0.0568935759598 -0.139239541165 0.809 1.94290760754e-38
0.0582464223598 -0.138895314858 0.807 1.97967669833e-38
0.059739920369 -0.138895314858 0.807 1.95226996284e-38
0.0610816626945 -0.138551088551 0.805 1.89688223974e-38
0.0625714593456 -0.138551088551 0.805 1.95209213806e-38
0.0640612559967 -0.138551088551 0.805 2.01670124584e-38
0.0655510526477 -0.138551088551 0.805 1.89691923402e-38
0.0668742881826 -0.138206862244 0.803 1.99837001985e-38
0.0683603834755 -0.138206862244 0.803 1.98904297727e-38
0.0698464787685 -0.138206862244 0.803 2.01670096558e-38
0.0710660762754 -0.137690522784 0.8 2.07194673715e-38
0.0725466195311 -0.137690522784 0.8 2.09964242038e-38
0.0738420948799 -0.137346296477 0.798 2.13648493922e-38
0.0753189367775 -0.137346296477 0.798 2.19165826365e-38
0.0767957786751 -0.137346296477 0.798 2.29314366156e-38
0.0782726205727 -0.137346296477 0.798 2.34853208531e-38
0.0799493358098 -0.137690522784 0.8 2.34885480434e-38
0.0814298790655 -0.137690522784 0.8 2.34899843744e-38
0.0829104223213 -0.137690522784 0.8 2.34947137567e-38
0.084390965577 -0.137690522784 0.8 2.34993436468e-38
0.0860861876048 -0.13803474909 0.802 2.34993604624e-38
0.0876796222838 -0.138206862244 0.803 2.35080429077e-38
0.0893877990651 -0.138551088551 0.805 2.35098085437e-38
0.0911033785627 -0.138895314858 0.807 2.35072960156e-38
0.0925968765719 -0.138895314858 0.807 2.35098281619e-38
0.0943235601439 -0.139239541165 0.809 2.3509865997e-38
0.0958207595113 -0.139239541165 0.809 2.35098449775e-38
0.0975585471577 -0.139583767472 0.811 2.3509851984e-38
0.0993037375204 -0.139927993779 0.813 2.35098351684e-38
0.100808339604 -0.139927993779 0.813 2.35098393723e-38
0.102564634041 -0.140272220086 0.815 2.3509837971e-38
0.104328331195 -0.140616446393 0.817 2.3507307226e-38
0.106099431064 -0.1409606727 0.819 2.35058694937e-38
0.107615137222 -0.1409606727 0.819 2.35033317422e-38
0.10913084338 -0.1409606727 0.819 2.34914739546e-38
0.0410240029374 -0.13978549149 0.821 2.35048059082e-38
0.0425434104536 -0.13978549149 0.821 1.38072740287e-38
0.0440628179698 -0.13978549149 0.821 1.61092781004e-38
0.0454711847418 -0.139444966542 0.819 1.57444780712e-38
0.0468721487976 -0.139104441593 0.817 1.7311799575e-38
0.0483841535975 -0.139104441593 0.817 1.80486583595e-38
0.0496518687602 -0.138423391695 0.813 1.76798856491e-38
0.0511564708438 -0.138423391695 0.813 1.87833563417e-38
0.0525315253926 -0.138082866746 0.811 1.96120380107e-38
0.0540324261181 -0.138082866746 0.811 1.9614542131e-38
0.0553963765925 -0.137742341797 0.809 1.95223493038e-38
0.0567529243505 -0.137401816849 0.807 1.97045867678e-38
0.0582464223598 -0.137401816849 0.807 2.04425105391e-38
0.059739920369 -0.137401816849 0.807 1.97985578428e-38
0.0610816626945 -0.1370612919 0.805 2.00744510896e-38
0.0625714593456 -0.1370612919 0.805 2.04428734754e-38
0.0640612559967 -0.1370612919 0.805 2.03517568453e-38
0.0655510526477 -0.1370612919 0.805 2.0076246153e-38
0.0670408492988 -0.1370612919 0.805 1.9706038513e-38
0.0685306459499 -0.1370612919 0.805 2.09031551793e-38
0.0698464787685 -0.136720766951 0.803 2.109002954e-38
0.0710660762754 -0.136209979528 0.8 2.20105565142e-38
0.0725466195311 -0.136209979528 0.8 2.19162056873e-38
0.0740271627868 -0.136209979528 0.8 2.28381689924e-38
0.0755077060426 -0.136209979528 0.8 2.24697424027e-38
0.0769882492983 -0.136209979528 0.8 2.34831558469e-38
0.0784687925541 -0.136209979528 0.8 2.34864110633e-38
0.0799493358098 -0.136209979528 0.8 2.34903094756e-38
0.0816334537632 -0.136550504477 0.802 2.34936067309e-38
0.0831176983771 -0.136550504477 0.802 2.3496095437e-38
0.0846019429909 -0.136550504477 0.802 2.34993618637e-38
0.0861935269909 -0.136720766951 0.803 2.35033205318e-38
0.087898002414 -0.1370612919 0.805 2.35011835517e-38
0.0896098805535 -0.137401816849 0.807 2.35083876271e-38
0.0911033785627 -0.137401816849 0.807 2.35098267606e-38
0.0925968765719 -0.137401816849 0.807 2.35073016208e-38
0.0943235601439 -0.137742341797 0.809 2.35098365697e-38
0.0958207595113 -0.137742341797 0.809 2.35047904939e-38
0.0975585471577 -0.138082866746 0.811 2.35098085437e-38
0.0990594478832 -0.138082866746 0.811 2.35080204869e-38
0.100808339604 -0.138423391695 0.813 2.35098421749e-38
0.102564634041 -0.138763916644 0.815 2.35051674432e-38
0.104072937483 -0.138763916644 0.815 2.35091134997e-38
0.105840335994 -0.139104441593 0.817 2.35004744947e-38
0.107615137222 -0.139444966542 0.819 2.35036708565e-38
0.10913084338 -0.139444966542 0.819 2.34929144894e-38
0.0409240662676 -0.137929260384 0.819 2.35080499142e-38
0.0424397724257 -0.137929260384 0.819 1.23275112581e-38
0.0439554785838 -0.137929260384 0.819 1.58312590838e-38
0.0453601439976 -0.137592436793 0.817 1.68497816622e-38
0.0468721487976 -0.137592436793 0.817 1.70352323036e-38
0.048265710137 -0.137255613202 0.815 1.78631951064e-38
0.0496518687602 -0.136918789611 0.813 1.79554061506e-38
0.0510306246671 -0.136581966021 0.811 1.90592173587e-38
0.0525315253926 -0.136581966021 0.811 1.93358112548e-38
0.0538991772251 -0.13624514243 0.809 1.90617214791e-38
0.0552594263413 -0.135908318839 0.807 1.95223465012e-38
0.0567529243505 -0.135908318839 0.807 1.97989347921e-38
0.0581020693923 -0.135571495249 0.805 2.04432266026e-38
0.0595918660434 -0.135571495249 0.805 2.13633724236e-38
0.0610816626945 -0.135571495249 0.805 2.01641285861e-38
0.0625714593456 -0.135571495249 0.805 2.10857261524e-38
0.0640612559967 -0.135571495249 0.805 2.13640912897e-38
0.0655510526477 -0.135571495249 0.805 2.09971080375e-38
0.0670408492988 -0.135571495249 0.805 2.13641151118e-38
0.0685306459499 -0.135571495249 0.805 2.1455936595e-38
0.0698464787685 -0.135234671658 0.803 2.16396258042e-38
0.0713325740614 -0.135234671658 0.803 2.2930011495e-38
0.0728186693543 -0.135234671658 0.803 2.3391325956e-38
0.0740271627868 -0.134729436272 0.8 2.30203980486e-38
0.0755077060426 -0.134729436272 0.8 2.34849929492e-38
0.0769882492983 -0.134729436272 0.8 2.34875152865e-38
0.0786649645354 -0.135066259863 0.802 2.3489987177e-38
0.0801492091493 -0.135066259863 0.802 2.34936095335e-38
0.0816334537632 -0.135066259863 0.802 2.34925207246e-38
0.0831176983771 -0.135066259863 0.802 2.34986177742e-38
0.0847074316979 -0.135234671658 0.803 2.34997121883e-38
0.0861935269909 -0.135234671658 0.803 2.35036792642e-38
0.087898002414 -0.135571495249 0.805 2.35054785315e-38
0.0896098805535 -0.135908318839 0.807 2.35054981497e-38
0.0911033785627 -0.135908318839 0.807 2.35098309645e-38
0.0925968765719 -0.135908318839 0.807 2.35080288947e-38
0.0943235601439 -0.13624514243 0.809 2.35080218882e-38
0.0958207595113 -0.13624514243 0.809 2.35098337671e-38
0.0975585471577 -0.136581966021 0.811 2.35079938622e-38
0.0990594478832 -0.136581966021 0.811 2.35080457103e-38
0.100808339604 -0.136918789611 0.813 2.3507668761e-38
0.102312941688 -0.136918789611 0.813 2.35033569656e-38
0.103817543771 -0.136918789611 0.813 2.35044345641e-38
0.105840335994 -0.137592436793 0.817 2.35029800163e-38
0.107352340794 -0.137592436793 0.817 2.35025862514e-38
0.108864345594 -0.137592436793 0.817 2.34911194261e-38
0.0394083601096 -0.136413554225 0.819 2.34968535394e-38
0.0409240662676 -0.136413554225 0.819 2.35051492263e-38
0.0424397724257 -0.136413554225 0.819 1.29685926939e-38
0.0439554785838 -0.136413554225 0.819 1.55529121634e-38
0.0453601439976 -0.136080431993 0.817 1.70334624636e-38
0.0467574066952 -0.13574730976 0.815 1.70345106349e-38
0.0481472666766 -0.135414187528 0.813 1.80486583595e-38
0.0496518687602 -0.135414187528 0.813 1.85082015792e-38
0.0510306246671 -0.135081065295 0.811 1.96141918064e-38
0.0525315253926 -0.135081065295 0.811 1.9153565383e-38
0.0538991772251 -0.134747943063 0.809 1.96148546206e-38
0.0552594263413 -0.13441482083 0.807 1.96134701377e-38
0.0567529243505 -0.13441482083 0.807 2.05365054362e-38
0.0581020693923 -0.134081698598 0.805 2.0535425035e-38
0.0595918660434 -0.134081698598 0.805 2.09038362104e-38
0.0610816626945 -0.134081698598 0.805 2.09956661014e-38
0.0625714593456 -0.134081698598 0.805 2.17321521405e-38
0.0640612559967 -0.134081698598 0.805 2.1456284117e-38
0.0655510526477 -0.134081698598 0.805 2.19186971959e-38
0.0670408492988 -0.134081698598 0.805 2.21009374625e-38
0.0683603834755 -0.133748576365 0.803 2.29296219341e-38
0.0698464787685 -0.133748576365 0.803 2.34849326934e-38
0.0713325740614 -0.133748576365 0.803 2.32994806507e-38
0.0728186693543 -0.133748576365 0.803 2.34878221708e-38
0.0742122306938 -0.133582015249 0.802 2.34907074444e-38
0.0756964753077 -0.133582015249 0.802 2.34896270432e-38
0.0771807199216 -0.133582015249 0.802 2.34928668453e-38
0.0786649645354 -0.133582015249 0.802 2.34917878455e-38
0.0801492091493 -0.133582015249 0.802 2.34928976739e-38
0.0816334537632 -0.133582015249 0.802 2.34971968576e-38
0.0831176983771 -0.133582015249 0.802 2.34986177742e-38
0.0847074316979 -0.133748576365 0.803 2.35022499398e-38
0.0861935269909 -0.133748576365 0.803 2.35040422006e-38
0.087898002414 -0.134081698598 0.805 2.35054813341e-38
0.0893877990651 -0.134081698598 0.805 2.35058694937e-38
0.0911033785627 -0.13441482083 0.807 2.3506246443e-38
0.0925968765719 -0.13441482083 0.807 2.35094750347e-38
0.0940903745811 -0.13441482083 0.807 2.35076603532e-38
0.0955838725904 -0.13441482083 0.807 2.35083736141e-38
0.0973179588787 -0.134747943063 0.809 2.35090798685e-38
0.098815158246 -0.134747943063 0.809 2.35066009715e-38
0.100560348609 -0.135081065295 0.811 2.35098295632e-38
0.102312941688 -0.135414187528 0.813 2.35044317615e-38
0.103817543771 -0.135414187528 0.813 2.35033331435e-38
0.105840335994 -0.136080431993 0.817 2.34993534559e-38
0.107352340794 -0.136080431993 0.817 2.34979423483e-38
0.108864345594 -0.136080431993 0.817 2.34878810254e-38
0.0395045954212 -0.135227268942 0.821 2.34982800613e-38
0.0410240029374 -0.135227268942 0.821 2.35051632393e-38
0.0425434104536 -0.135227268942 0.821 1.43508012692e-38
0.0439554785838 -0.134897848067 0.819 1.55532877113e-38
0.0453601439976 -0.134568427193 0.817 1.72171096339e-38
0.0467574066952 -0.134239006319 0.815 1.64827647788e-38
0.0481472666766 -0.133909585444 0.813 1.71260084181e-38
0.0495297239416 -0.13358016457 0.811 1.8507848452e-38
0.0510306246671 -0.13358016457 0.811 1.93368832481e-38
0.0525315253926 -0.13358016457 0.811 1.87837066663e-38
0.0538991772251 -0.133250743695 0.809 2.01669970441e-38
0.0552594263413 -0.132921322821 0.807 1.98897039001e-38
0.0567529243505 -0.132921322821 0.807 2.03499561768e-38
0.0581020693923 -0.132591901947 0.805 2.1548874913e-38
0.0595918660434 -0.132591901947 0.805 2.03524602972e-38
0.0610816626945 -0.132591901947 0.805 2.09978325088e-38
0.0625714593456 -0.132591901947 0.805 2.17325403001e-38
0.0640612559967 -0.132591901947 0.805 2.17321899755e-38
0.0655510526477 -0.132591901947 0.805 2.22860489896e-38
0.0668742881826 -0.132262481072 0.803 2.30228895572e-38
0.0683603834755 -0.132262481072 0.803 2.30225336274e-38
0.0698464787685 -0.132262481072 0.803 2.34853222544e-38
0.0713325740614 -0.132262481072 0.803 2.34867389671e-38
0.0728186693543 -0.132262481072 0.803 2.34863942477e-38
0.0740271627868 -0.131768349761 0.8 2.34878487955e-38
0.0755077060426 -0.131768349761 0.8 2.34899927821e-38
0.0771807199216 -0.132097770635 0.802 2.34921661961e-38
0.0786649645354 -0.132097770635 0.802 2.34907242599e-38
0.0801492091493 -0.132097770635 0.802 2.34954073994e-38
0.0816334537632 -0.132097770635 0.802 2.349683252e-38
0.083221336405 -0.132262481072 0.803 2.34979199276e-38
0.0847074316979 -0.132262481072 0.803 2.34968577433e-38
0.0861935269909 -0.132262481072 0.803 2.35026044683e-38
0.087898002414 -0.132591901947 0.805 2.35033149266e-38
0.0893877990651 -0.132591901947 0.805 2.35044219524e-38
0.0908775957162 -0.132591901947 0.805 2.35037128954e-38
0.0925968765719 -0.132921322821 0.807 2.35044289589e-38
0.0940903745811 -0.132921322821 0.807 2.35058596847e-38
0.0955838725904 -0.132921322821 0.807 2.35062142132e-38
0.0973179588787 -0.133250743695 0.809 2.35036904746e-38
0.098815158246 -0.133250743695 0.809 2.35011905582e-38
0.100312357613 -0.133250743695 0.809 2.35054785315e-38
0.102061249334 -0.13358016457 0.811 2.35008248193e-38
0.103817543771 -0.133909585444 0.813 2.3499025552e-38
0.105581240925 -0.134239006319 0.815 2.35033289396e-38
0.107089544367 -0.134239006319 0.815 2.34943368074e-38
0.108597847808 -0.134239006319 0.815 2.34925445467e-38
0.0395045954212 -0.133707861426 0.821 2.34964709849e-38
0.0410240029374 -0.133707861426 0.821 2.35029898254e-38
0.0424397724257 -0.133382141909 0.819 1.56422435392e-38
0.0439554785838 -0.133382141909 0.819 1.67554084145e-38
0.0453601439976 -0.133056422393 0.817 1.62944456795e-38
0.0467574066952 -0.132730702877 0.815 1.68497690505e-38
0.0481472666766 -0.132404983361 0.813 1.72192732387e-38
0.0495297239416 -0.132079263844 0.811 1.82323531739e-38
0.0510306246671 -0.132079263844 0.811 1.8507121178e-38
0.0525315253926 -0.132079263844 0.811 1.97978866208e-38
0.0538991772251 -0.131753544328 0.809 1.96134757429e-38
0.0552594263413 -0.131427824812 0.807 1.97038861185e-38
0.0567529243505 -0.131427824812 0.807 2.05339971119e-38
0.0582464223598 -0.131427824812 0.807 2.15481770664e-38
0.0595918660434 -0.131102105295 0.805 2.0626545869e-38
0.0610816626945 -0.131102105295 0.805 2.15477833015e-38
0.0625714593456 -0.131102105295 0.805 2.28395941129e-38
0.0640612559967 -0.131102105295 0.805 2.22863993143e-38
0.0653881928896 -0.130776385779 0.803 2.22860517922e-38
0.0668742881826 -0.130776385779 0.803 2.31161838051e-38
0.0683603834755 -0.130776385779 0.803 2.34860411205e-38
0.0698464787685 -0.130776385779 0.803 2.2652704338e-38
0.0712437414661 -0.130613526021 0.802 2.34867585853e-38
0.0727279860799 -0.130613526021 0.802 2.3487827776e-38
0.0740271627868 -0.130287806505 0.8 2.3489996986e-38
0.0755077060426 -0.130287806505 0.8 2.34914319157e-38
0.0771807199216 -0.130613526021 0.802 2.34889418083e-38
0.0786649645354 -0.130613526021 0.802 2.3490748082e-38
0.0801492091493 -0.130613526021 0.802 2.34932423933e-38
0.0816334537632 -0.130613526021 0.802 2.34950444631e-38
0.083221336405 -0.130776385779 0.803 2.34954088007e-38
0.0847074316979 -0.130776385779 0.803 2.34961388772e-38
0.0861935269909 -0.130776385779 0.803 2.34986373924e-38
0.0876796222838 -0.130776385779 0.803 2.35004296531e-38
0.0893877990651 -0.131102105295 0.805 2.3504424755e-38
0.0908775957162 -0.131102105295 0.805 2.3502978615e-38
0.0925968765719 -0.131427824812 0.807 2.35036834681e-38
0.0938571890184 -0.131102105295 0.805 2.35001087558e-38
0.0953469856695 -0.131102105295 0.805 2.3505485538e-38
0.0970773705996 -0.131427824812 0.807 2.35051268056e-38
0.0985708686088 -0.131427824812 0.807 2.34997430169e-38
0.100064366618 -0.131427824812 0.807 2.35004702908e-38
0.101809556981 -0.131753544328 0.809 2.35015647049e-38
0.103306756348 -0.131753544328 0.809 2.34939612594e-38
0.105063050785 -0.132079263844 0.811 2.34972010614e-38
0.106563951511 -0.132079263844 0.811 2.34943424126e-38
0.10779835445 -0.131753544328 0.809 2.34928626414e-38
0.109295553818 -0.131753544328 0.809 2.35022471372e-38
0.0410240029374 -0.132188453909 0.821 2.3497217877e-38
0.0424397724257 -0.131866435751 0.819 1.52730882743e-38
0.0438481391977 -0.131544417593 0.817 1.73103744545e-38
0.0453601439976 -0.131544417593 0.817 1.64792040794e-38
0.0466426645929 -0.130900381277 0.813 1.7033084113e-38
0.0481472666766 -0.130900381277 0.813 1.76791821973e-38
0.0495297239416 -0.130578363119 0.811 1.79561096024e-38
0.0510306246671 -0.130578363119 0.811 1.92461351596e-38
0.0524019778577 -0.130256344961 0.809 1.9800009588e-38
0.0538991772251 -0.130256344961 0.809 1.92454134909e-38
0.0552594263413 -0.129934326803 0.807 2.04432238e-38
0.0567529243505 -0.129934326803 0.807 2.06269017988e-38
0.0581020693923 -0.129612308644 0.805 2.09027796314e-38
0.0595918660434 -0.129612308644 0.805 2.15481336261e-38
0.0610816626945 -0.129612308644 0.805 2.16403320586e-38
0.0625714593456 -0.129612308644 0.805 2.11800727754e-38
0.0640612559967 -0.129612308644 0.805 2.24715150453e-38
0.0653881928896 -0.129290290486 0.803 2.31154593338e-38
0.0668742881826 -0.129290290486 0.803 2.2471527657e-38
0.0683603834755 -0.129290290486 0.803 2.3486409662e-38
0.0698464787685 -0.129290290486 0.803 2.34853054388e-38
0.0712437414661 -0.129129281407 0.802 2.3486409662e-38
0.0727279860799 -0.129129281407 0.802 2.34874690436e-38
0.0742122306938 -0.129129281407 0.802 2.34871201203e-38
0.0756964753077 -0.129129281407 0.802 2.34874606358e-38
0.0771807199216 -0.129129281407 0.802 2.34903655275e-38
0.0786649645354 -0.129129281407 0.802 2.3489649464e-38
0.0801492091493 -0.129129281407 0.802 2.3492503909e-38
0.0816334537632 -0.129129281407 0.802 2.34932437946e-38
0.0831176983771 -0.129129281407 0.802 2.34943298009e-38
0.0847074316979 -0.129290290486 0.803 2.34979297366e-38
0.0861935269909 -0.129290290486 0.803 2.34964765901e-38
0.0876796222838 -0.129290290486 0.803 2.34993562585e-38
0.0893877990651 -0.129612308644 0.805 2.35011583283e-38
0.0908775957162 -0.129612308644 0.805 2.34989975261e-38
0.0923673923673 -0.129612308644 0.805 2.35008108063e-38
0.0938571890184 -0.129612308644 0.805 2.35012115777e-38
0.0953469856695 -0.129612308644 0.805 2.34986682209e-38
0.0970773705996 -0.129934326803 0.807 2.3501546488e-38
0.0985708686088 -0.129934326803 0.807 2.35008150102e-38
0.100064366618 -0.129934326803 0.807 2.35022499398e-38
0.101809556981 -0.130256344961 0.809 2.34975878198e-38
0.103306756348 -0.130256344961 0.809 2.34947039476e-38
0.104803955715 -0.130256344961 0.809 2.34982828639e-38
0.106563951511 -0.130578363119 0.811 2.34914599416e-38
0.10779835445 -0.130256344961 0.809 2.34896592731e-38
0.109295553818 -0.130256344961 0.809 2.35030192527e-38
0.0425434104536 -0.130669046393 0.821 1.53642245225e-38
0.0438481391977 -0.130032412793 0.817 1.72192732387e-38
0.0452491032535 -0.129714095993 0.815 1.66639540716e-38
0.0466426645929 -0.129395779193 0.813 1.72185291492e-38
0.0480288232161 -0.129077462393 0.811 1.74954887842e-38
0.0495297239416 -0.129077462393 0.811 1.80479605128e-38
0.0510306246671 -0.129077462393 0.811 1.8417450688e-38
0.0524019778577 -0.128759145593 0.809 1.86014790114e-38
0.0538991772251 -0.128759145593 0.809 1.95219961766e-38
0.0552594263413 -0.128440828793 0.807 1.95209241832e-38
0.0567529243505 -0.128440828793 0.807 2.06265528755e-38
0.0581020693923 -0.128122511993 0.805 2.11804385143e-38
0.0595918660434 -0.128122511993 0.805 2.10878743429e-38
0.0610816626945 -0.128122511993 0.805 2.2010536896e-38
0.0625714593456 -0.128122511993 0.805 2.16421299245e-38
0.0639020975967 -0.127804195193 0.803 2.21935184494e-38
0.0653881928896 -0.127804195193 0.803 2.30229105767e-38
0.0668742881826 -0.127804195193 0.803 2.24711647207e-38
0.0683603834755 -0.127804195193 0.803 2.29325156154e-38
0.0697594968522 -0.127645036793 0.802 2.34871075086e-38
0.0712437414661 -0.127645036793 0.802 2.34838915286e-38
0.0727279860799 -0.127645036793 0.802 2.34860523309e-38
0.0742122306938 -0.127645036793 0.802 2.34878487955e-38
0.0756964753077 -0.127645036793 0.802 2.34914207053e-38
0.0771807199216 -0.127645036793 0.802 2.34910745846e-38
0.0786649645354 -0.127645036793 0.802 2.34943003736e-38
0.0799493358098 -0.127326719993 0.8 2.34921704e-38
0.0814298790655 -0.127326719993 0.8 2.34928766544e-38
0.0831176983771 -0.127645036793 0.802 2.34943185905e-38
0.0847074316979 -0.127804195193 0.803 2.34946815268e-38
0.0861935269909 -0.127804195193 0.803 2.34946815268e-38
0.0876796222838 -0.127804195193 0.803 2.34979227302e-38
0.0893877990651 -0.128122511993 0.805 2.34961234629e-38
0.0908775957162 -0.128122511993 0.805 2.34979255328e-38
0.0923673923673 -0.128122511993 0.805 2.34986345898e-38
0.0938571890184 -0.128122511993 0.805 2.34975597939e-38
0.0953469856695 -0.128122511993 0.805 2.34968577433e-38
0.0968367823205 -0.128122511993 0.805 2.34975752081e-38
0.0985708686088 -0.128440828793 0.807 2.34950598774e-38
0.100064366618 -0.128440828793 0.807 2.35004492713e-38
0.101557864627 -0.128440828793 0.807 2.34950752917e-38
0.103051362636 -0.128440828793 0.807 2.349361654e-38
0.104544860646 -0.128440828793 0.807 2.34957689344e-38
0.106301155083 -0.128759145593 0.809 2.34903683301e-38
0.108331350022 -0.129395779193 0.813 2.34932592089e-38
0.109835952106 -0.129395779193 0.813 2.35029996345e-38
0.11134055419 -0.129395779193 0.813 2.3500837431e-38
0.0425434104536 -0.129149638877 0.821 1.69315180003e-38
0.0438481391977 -0.128520407993 0.817 1.73093360923e-38
0.0452491032535 -0.128205792551 0.815 1.74930098872e-38
0.0466426645929 -0.12789117711 0.813 1.73089675508e-38
0.0480288232161 -0.127576561668 0.811 1.78628475844e-38
0.0495297239416 -0.127576561668 0.811 1.75869991791e-38
0.0510306246671 -0.127576561668 0.811 1.86007755596e-38
0.0524019778577 -0.127261946226 0.809 1.84159989428e-38
0.0538991772251 -0.127261946226 0.809 1.98921603763e-38
0.0552594263413 -0.126947330784 0.807 1.9614542131e-38
0.0566122727412 -0.126632715342 0.805 2.02595429986e-38
0.0581020693923 -0.126632715342 0.805 2.0904562083e-38
0.0595918660434 -0.126632715342 0.805 2.09971080375e-38
0.0610816626945 -0.126632715342 0.805 2.13633850353e-38
0.0624160023037 -0.1263180999 0.803 2.17325459053e-38
0.0639020975967 -0.1263180999 0.803 2.20091313936e-38
0.0653881928896 -0.1263180999 0.803 2.26545008027e-38
0.0667910076244 -0.126160792179 0.802 2.28392409857e-38
0.0682752522383 -0.126160792179 0.802 2.31169026712e-38
0.0697594968522 -0.126160792179 0.802 2.29307149469e-38
0.0712437414661 -0.126160792179 0.802 2.34856711777e-38
0.0727279860799 -0.126160792179 0.802 2.34899997886e-38
0.0740271627868 -0.125846176738 0.8 2.34893033433e-38
0.0755077060426 -0.125846176738 0.8 2.34881991201e-38
0.0771807199216 -0.126160792179 0.802 2.34914515338e-38
0.0786649645354 -0.126160792179 0.802 2.34910647755e-38
0.0799493358098 -0.125846176738 0.8 2.34885536486e-38
0.0814298790655 -0.125846176738 0.8 2.34896438588e-38
0.0831176983771 -0.126160792179 0.802 2.3493950049e-38
0.0846019429909 -0.126160792179 0.802 2.34935913166e-38
0.0861935269909 -0.1263180999 0.803 2.34918158714e-38
0.0876796222838 -0.1263180999 0.803 2.34936039283e-38
0.0891657175768 -0.1263180999 0.803 2.34943129853e-38
0.0906518128697 -0.1263180999 0.803 2.34950472657e-38
0.0923673923673 -0.126632715342 0.805 2.34968381251e-38
0.0938571890184 -0.126632715342 0.805 2.34939766737e-38
0.0953469856695 -0.126632715342 0.805 2.34936221452e-38
0.0968367823205 -0.126632715342 0.805 2.3495424215e-38
0.0983265789716 -0.126632715342 0.805 2.34986500041e-38
0.0998163756227 -0.126632715342 0.805 2.34954031955e-38
0.101557864627 -0.126947330784 0.807 2.3494687132e-38
0.103051362636 -0.126947330784 0.807 2.34950388579e-38
0.104544860646 -0.126947330784 0.807 2.34882383565e-38
0.106301155083 -0.127261946226 0.809 2.34867908152e-38
0.108331350022 -0.12789117711 0.813 2.34921998272e-38
0.109835952106 -0.12789117711 0.813 2.35058877106e-38
0.0437407998117 -0.12669748911 0.815 1.78599763239e-38
0.0452491032535 -0.12669748911 0.815 1.77703212481e-38
0.0466426645929 -0.126386575026 0.813 1.7308973156e-38
0.0480288232161 -0.126075660942 0.811 1.77695925729e-38
0.0495297239416 -0.126075660942 0.811 1.77713778271e-38
0.0510306246671 -0.126075660942 0.811 1.87847814623e-38
0.0524019778577 -0.125764746859 0.809 1.88766113532e-38
0.0538991772251 -0.125764746859 0.809 1.9521993374e-38
0.0552594263413 -0.125453832775 0.807 1.97993033336e-38
0.0566122727412 -0.125142918691 0.805 1.9338681114e-38
0.0581020693923 -0.125142918691 0.805 2.09045774973e-38
0.0595918660434 -0.125142918691 0.805 2.03517568453e-38
0.0609299070108 -0.124832004607 0.803 2.1548151843e-38
0.0624160023037 -0.124832004607 0.803 2.2010574731e-38
0.0639020975967 -0.124832004607 0.803 2.20101907753e-38
0.0653067630106 -0.124676547566 0.802 2.22860644039e-38
0.0667910076244 -0.124676547566 0.802 2.29325156154e-38
0.0682752522383 -0.124676547566 0.802 2.25644169296e-38
0.0697594968522 -0.124676547566 0.802 2.34867529801e-38
0.0710660762754 -0.124365633482 0.8 2.34831474391e-38
0.0725466195311 -0.124365633482 0.8 2.34817237199e-38
0.0740271627868 -0.124365633482 0.8 2.34856697764e-38
0.0755077060426 -0.124365633482 0.8 2.34863998529e-38
0.0771807199216 -0.124676547566 0.802 2.3485325057e-38
0.0786649645354 -0.124676547566 0.802 2.34910942027e-38
0.0799493358098 -0.124365633482 0.8 2.34910675781e-38
0.0814298790655 -0.124365633482 0.8 2.34921661961e-38
0.0831176983771 -0.124676547566 0.802 2.34953919851e-38
0.0846019429909 -0.124676547566 0.802 2.34896466614e-38
0.0860861876048 -0.124676547566 0.802 2.34932606102e-38
0.0875704322187 -0.124676547566 0.802 2.34953891825e-38
0.0890546768326 -0.124676547566 0.802 2.34950332527e-38
0.0906518128697 -0.124832004607 0.803 2.34950416605e-38
0.0921379081626 -0.124832004607 0.803 2.34953975903e-38
0.0938571890184 -0.125142918691 0.805 2.34918228779e-38
0.0953469856695 -0.125142918691 0.805 2.3493630553e-38
0.0968367823205 -0.125142918691 0.805 2.34929018778e-38
0.0983265789716 -0.125142918691 0.805 2.34932522024e-38
0.0998163756227 -0.125142918691 0.805 2.34954059981e-38
0.101557864627 -0.125453832775 0.807 2.349433961e-38
0.103051362636 -0.125453832775 0.807 2.34911012092e-38
0.104544860646 -0.125453832775 0.807 2.34874858592e-38
0.106301155083 -0.125764746859 0.809 2.34896522666e-38
0.108331350022 -0.126386575026 0.813 2.34983136924e-38
0.109835952106 -0.126386575026 0.813 2.35037114941e-38
0.0437407998117 -0.125189185668 0.815 1.68497690505e-38
0.0452491032535 -0.125189185668 0.815 1.73107247791e-38
0.0466426645929 -0.124881972942 0.813 1.82309014287e-38
0.0480288232161 -0.124574760217 0.811 1.78617755911e-38
0.0495297239416 -0.124574760217 0.811 1.84160059493e-38
0.0510306246671 -0.124574760217 0.811 1.84142038795e-38
0.0525315253926 -0.124574760217 0.811 1.85064149236e-38
0.0538991772251 -0.124267547491 0.809 1.89691923402e-38
0.0552594263413 -0.123960334766 0.807 1.98911514414e-38
0.0566122727412 -0.12365312204 0.805 1.98897039001e-38
0.0581020693923 -0.12365312204 0.805 2.02581388975e-38
0.0595918660434 -0.12365312204 0.805 2.10886198337e-38
0.0609299070108 -0.123345909315 0.803 2.06290696075e-38
0.0624160023037 -0.123345909315 0.803 2.14577512765e-38
0.0639020975967 -0.123345909315 0.803 2.19169119417e-38
0.0653067630106 -0.123192302952 0.802 2.26537581145e-38
0.0667910076244 -0.123192302952 0.802 2.24715304596e-38
0.0682752522383 -0.123192302952 0.802 2.24718835868e-38
0.0697594968522 -0.123192302952 0.802 2.3484601987e-38
0.0710660762754 -0.122885090226 0.8 2.34838789169e-38
0.0725466195311 -0.122885090226 0.8 2.34842572675e-38
0.0740271627868 -0.122885090226 0.8 2.34860411205e-38
0.0755077060426 -0.122885090226 0.8 2.34871117125e-38
0.0771807199216 -0.123192302952 0.802 2.34896550692e-38
0.0786649645354 -0.123192302952 0.802 2.3490734069e-38
0.0801492091493 -0.123192302952 0.802 2.34889207888e-38
0.0816334537632 -0.123192302952 0.802 2.34911040118e-38
0.0831176983771 -0.123192302952 0.802 2.34907186548e-38
0.0846019429909 -0.123192302952 0.802 2.34921591896e-38
0.0860861876048 -0.123192302952 0.802 2.34928878648e-38
0.0875704322187 -0.123192302952 0.802 2.34943059788e-38
0.0890546768326 -0.123192302952 0.802 2.34918340883e-38
0.0906518128697 -0.123345909315 0.803 2.34907452794e-38
0.0921379081626 -0.123345909315 0.803 2.34936221452e-38
0.0936240034556 -0.123345909315 0.803 2.34932325842e-38
0.0953469856695 -0.12365312204 0.805 2.34953653605e-38
0.0968367823205 -0.12365312204 0.805 2.34907452794e-38
0.0983265789716 -0.12365312204 0.805 2.34921858142e-38
0.0998163756227 -0.12365312204 0.805 2.34903837444e-38
0.101557864627 -0.123960334766 0.807 2.34925277311e-38
0.103051362636 -0.123960334766 0.807 2.3488564859e-38
0.104544860646 -0.123960334766 0.807 2.34831558469e-38
0.106301155083 -0.124267547491 0.809 2.34889460122e-38
0.10779835445 -0.124267547491 0.809 2.34997486221e-38
0.0452491032535 -0.123680882226 0.815 1.77720784764e-38
0.0466426645929 -0.123377370859 0.813 1.7772081279e-38
0.0480288232161 -0.123073859491 0.811 1.77695771586e-38
0.0495297239416 -0.123073859491 0.811 1.82294566899e-38
0.0510306246671 -0.123073859491 0.811 1.97042392457e-38
0.0524019778577 -0.122770348124 0.809 1.85064387457e-38
0.0538991772251 -0.122770348124 0.809 1.90613907726e-38
0.0551224760902 -0.122163325389 0.805 1.97060357104e-38
0.0566122727412 -0.122163325389 0.805 1.99811764599e-38
0.0581020693923 -0.122163325389 0.805 1.97967880028e-38
0.0594438117178 -0.121859814022 0.803 2.09957039364e-38
0.0609299070108 -0.121859814022 0.803 2.05379277541e-38
0.0624160023037 -0.121859814022 0.803 2.10900267374e-38
0.0639020975967 -0.121859814022 0.803 2.20094578962e-38
0.0653067630106 -0.121708058338 0.802 2.21917009653e-38
0.0667910076244 -0.121708058338 0.802 2.20091075715e-38
0.0682752522383 -0.121708058338 0.802 2.27463250884e-38
0.0697594968522 -0.121708058338 0.802 2.31161810025e-38
0.0710660762754 -0.12140454697 0.8 2.30232637039e-38
0.0725466195311 -0.12140454697 0.8 2.34856781842e-38
0.0740271627868 -0.12140454697 0.8 2.34863900438e-38
0.0755077060426 -0.12140454697 0.8 2.34867529801e-38
0.0771807199216 -0.121708058338 0.802 2.34864054581e-38
0.0786649645354 -0.121708058338 0.802 2.34871285281e-38
0.0801492091493 -0.121708058338 0.802 2.34903571197e-38
0.0816334537632 -0.121708058338 0.802 2.3488888559e-38
0.0831176983771 -0.121708058338 0.802 2.34907172535e-38
