# .PCD v0.7 - Point Cloud Data file format
VERSION 0.7
FIELDS x y z rgb
SIZE 4 4 4 4
TYPE F F F F
COUNT 1 1 1 1
WIDTH 862
HEIGHT 1
VIEWPOINT 0 0 0 1 0 0 0
POINTS 862
DATA ascii
0.0592217302295 -0.130287806505 0.8 2.19190643361e-38
0.0607022734852 -0.130287806505 0.8 2.34860425218e-38
0.0621828167409 -0.130287806505 0.8 2.3485311044e-38
0.0636633599967 -0.130287806505 0.8 2.34838705092e-38
0.0649810434943 -0.129962086989 0.798 2.34871285281e-38
0.0664578853919 -0.129962086989 0.798 2.34849537129e-38
0.0679347272895 -0.129962086989 0.798 2.34943269983e-38
0.0694115691871 -0.129962086989 0.798 2.34878249734e-38
0.0708884110847 -0.129962086989 0.798 2.34943143866e-38
0.0723652529823 -0.129962086989 0.798 2.34961220616e-38
0.0738420948799 -0.129962086989 0.798 2.34979227302e-38
0.0753189367775 -0.129962086989 0.798 2.34993450481e-38
0.0769882492983 -0.130287806505 0.8 2.35047918952e-38
0.0784687925541 -0.130287806505 0.8 2.35008248193e-38
0.0801492091493 -0.130613526021 0.802 2.35087365504e-38
0.0816334537632 -0.130613526021 0.802 2.35061875885e-38
0.083221336405 -0.130776385779 0.803 2.35084016401e-38
0.0847074316979 -0.130776385779 0.803 2.35073240416e-38
0.0861935269909 -0.130776385779 0.803 2.35058877106e-38
0.087898002414 -0.131102105295 0.805 2.35058372639e-38
0.0896098805535 -0.131427824812 0.807 2.35065939651e-38
0.0911033785627 -0.131427824812 0.807 2.35055023536e-38
0.0928263607766 -0.131753544328 0.809 2.35004352583e-38
0.0943235601439 -0.131753544328 0.809 2.35015254685e-38
0.0958207595113 -0.131753544328 0.809 2.35000933415e-38
0.0973179588787 -0.131753544328 0.809 2.34957941578e-38
0.098815158246 -0.131753544328 0.809 2.34925375402e-38
0.100312357613 -0.131753544328 0.809 2.34939682659e-38
0.101809556981 -0.131753544328 0.809 2.3503354163e-38
0.103306756348 -0.131753544328 0.809 2.34983291067e-38
0.0316743722774 -0.131222399435 0.815 2.35015520932e-38
0.0331826757192 -0.131222399435 0.815 1.44458639558e-38
0.0346058479238 -0.130900381277 0.813 1.60174846432e-38
0.0361104500074 -0.130900381277 0.813 1.66664694023e-38
0.0375225181376 -0.130578363119 0.811 1.69433869983e-38
0.0389271835515 -0.130256344961 0.809 1.75883906685e-38
0.0403244462491 -0.129934326803 0.807 1.8047942296e-38
0.0418179442583 -0.129934326803 0.807 1.87840752078e-38
0.0432041028815 -0.129612308644 0.805 1.98896996962e-38
0.0446938995326 -0.129612308644 0.805 2.08123692557e-38
0.0461836961836 -0.129612308644 0.805 2.01655481015e-38
0.0475550493743 -0.129290290486 0.803 2.08130853193e-38
0.0490411446672 -0.129290290486 0.803 2.11807944441e-38
0.0505272399602 -0.129290290486 0.803 2.05354194298e-38
0.0520133352531 -0.129290290486 0.803 2.18250918598e-38
0.0534994305461 -0.129290290486 0.803 2.19165560119e-38
0.0549170507134 -0.129129281407 0.802 2.17311179822e-38
0.056260643718 -0.128807263249 0.8 2.27459537443e-38
0.0577411869737 -0.128807263249 0.8 2.24711647207e-38
0.0592217302295 -0.128807263249 0.8 2.29310680741e-38
0.0607022734852 -0.128807263249 0.8 2.34864166685e-38
0.0621828167409 -0.128807263249 0.8 2.3485311044e-38
0.0636633599967 -0.128807263249 0.8 2.34881963175e-38
0.0651439032524 -0.128807263249 0.8 2.34889207888e-38
0.0666244465082 -0.128807263249 0.8 2.34903599223e-38
0.0681049897639 -0.128807263249 0.8 2.34907130496e-38
0.0695855330196 -0.128807263249 0.8 2.34943073801e-38
0.0710660762754 -0.128807263249 0.8 2.34928766544e-38
0.0725466195311 -0.128807263249 0.8 2.34964709849e-38
0.0740271627868 -0.128807263249 0.8 2.34968451316e-38
0.0755077060426 -0.128807263249 0.8 2.34982744561e-38
0.0769882492983 -0.128807263249 0.8 2.35011667361e-38
0.0784687925541 -0.128807263249 0.8 2.35022653541e-38
0.0801492091493 -0.129129281407 0.802 2.35036932772e-38
0.0816334537632 -0.129129281407 0.802 2.35054925445e-38
0.083221336405 -0.129290290486 0.803 2.3502255545e-38
0.0847074316979 -0.129290290486 0.803 2.35069372832e-38
0.0861935269909 -0.129290290486 0.803 2.35062128119e-38
0.0876796222838 -0.129290290486 0.803 2.35047722771e-38
0.0893877990651 -0.129612308644 0.805 2.35069512962e-38
0.0908775957162 -0.129612308644 0.805 2.35026254878e-38
0.0925968765719 -0.129934326803 0.807 2.35040436018e-38
0.0943235601439 -0.130256344961 0.809 2.3500475896e-38
0.0958207595113 -0.130256344961 0.809 2.34968605459e-38
0.0973179588787 -0.130256344961 0.809 2.34990241508e-38
0.098815158246 -0.130256344961 0.809 2.34939612594e-38
0.100312357613 -0.130256344961 0.809 2.34950556735e-38
0.101809556981 -0.130256344961 0.809 2.34986850365e-38
0.0316743722774 -0.129714095993 0.815 2.35001185649e-38
0.0331826757192 -0.129714095993 0.815 1.4353302587e-38
0.0346058479238 -0.129395779193 0.813 1.59256701665e-38
0.0361104500074 -0.129395779193 0.813 1.65749996451e-38
0.0375225181376 -0.129077462393 0.811 1.66678594904e-38
0.0389271835515 -0.128759145593 0.809 1.758948228e-38
0.0403244462491 -0.128440828793 0.807 1.77731504697e-38
0.0417143062304 -0.128122511993 0.805 1.94294474195e-38
0.0432041028815 -0.128122511993 0.805 1.88755547742e-38
0.0446938995326 -0.128122511993 0.805 1.9796432073e-38
0.0460689540813 -0.127804195193 0.803 2.03496058522e-38
0.0475550493743 -0.127804195193 0.803 2.08130881219e-38
0.0490411446672 -0.127804195193 0.803 2.02581388975e-38
0.0505272399602 -0.127804195193 0.803 2.12704859536e-38
0.0519485614857 -0.127645036793 0.802 2.09020607652e-38
0.0534328060995 -0.127645036793 0.802 2.19165560119e-38
0.0549170507134 -0.127645036793 0.802 2.23771936457e-38
0.056260643718 -0.127326719993 0.8 2.29310680741e-38
0.0577411869737 -0.127326719993 0.8 2.30218147613e-38
0.0592217302295 -0.127326719993 0.8 2.34838929299e-38
0.0607022734852 -0.127326719993 0.8 2.34860565348e-38
0.0621828167409 -0.127326719993 0.8 2.34849509103e-38
0.0636633599967 -0.127326719993 0.8 2.34881935149e-38
0.0651439032524 -0.127326719993 0.8 2.34929018778e-38
0.0664578853919 -0.127008403193 0.798 2.3488940407e-38
0.0679347272895 -0.127008403193 0.798 2.34918004572e-38
0.0695855330196 -0.127326719993 0.8 2.34928710492e-38
0.0710660762754 -0.127326719993 0.8 2.34928836609e-38
0.0725466195311 -0.127326719993 0.8 2.34957563227e-38
0.0740271627868 -0.127326719993 0.8 2.34928920687e-38
0.0755077060426 -0.127326719993 0.8 2.34975710042e-38
0.0769882492983 -0.127326719993 0.8 2.35008037998e-38
0.0784687925541 -0.127326719993 0.8 2.34979325392e-38
0.0801492091493 -0.127645036793 0.802 2.35000975454e-38
0.0816334537632 -0.127645036793 0.802 2.35029589968e-38
0.083221336405 -0.127804195193 0.803 2.35029814176e-38
0.0847074316979 -0.127804195193 0.803 2.35015310737e-38
0.0861935269909 -0.127804195193 0.803 2.35022611502e-38
0.0876796222838 -0.127804195193 0.803 2.35029828189e-38
0.0893877990651 -0.128122511993 0.805 2.35004786986e-38
0.0908775957162 -0.128122511993 0.805 2.35008276219e-38
0.0925968765719 -0.128440828793 0.807 2.34983066859e-38
0.0940903745811 -0.128440828793 0.807 2.34993702715e-38
0.0955838725904 -0.128440828793 0.807 2.35000849337e-38
0.0973179588787 -0.128759145593 0.809 2.34954158072e-38
0.0990594478832 -0.129077462393 0.811 2.34911012092e-38
0.100560348609 -0.129077462393 0.811 2.34939766737e-38
0.102061249334 -0.129077462393 0.811 2.3499039565e-38
0.0316743722774 -0.128205792551 0.815 2.35004576791e-38
0.0331826757192 -0.128205792551 0.815 1.68415252117e-38
0.0346058479238 -0.12789117711 0.813 1.70334204247e-38
0.0361104500074 -0.12789117711 0.813 1.66646673325e-38
0.0375225181376 -0.127576561668 0.811 1.65742541543e-38
0.0389271835515 -0.127261946226 0.809 1.7587336892e-38
0.0403244462491 -0.126947330784 0.807 1.7772428801e-38
0.0417143062304 -0.126632715342 0.805 1.88762708377e-38
0.0430967634954 -0.1263180999 0.803 1.92443316884e-38
0.0445828587884 -0.1263180999 0.803 2.00744510896e-38
0.0460689540813 -0.1263180999 0.803 1.99822498546e-38
0.0475550493743 -0.1263180999 0.803 2.06272661364e-38
0.0490411446672 -0.1263180999 0.803 2.12726355454e-38
0.0504643168718 -0.126160792179 0.802 2.15481462378e-38
0.0519485614857 -0.126160792179 0.802 2.13651716908e-38
0.0534328060995 -0.126160792179 0.802 2.16406851858e-38
0.0549170507134 -0.126160792179 0.802 2.24693864729e-38
0.056260643718 -0.125846176738 0.8 2.24690109249e-38
0.0577411869737 -0.125846176738 0.8 2.34846089934e-38
0.0592217302295 -0.125846176738 0.8 2.34845991844e-38
0.0605505178015 -0.125531561296 0.798 2.33923979493e-38
0.0620273596991 -0.125531561296 0.798 2.3484587974e-38
0.0635042015967 -0.125531561296 0.798 2.34853334648e-38
0.0649810434943 -0.125531561296 0.798 2.34864222737e-38
0.0664578853919 -0.125531561296 0.798 2.34903753366e-38
0.0679347272895 -0.125531561296 0.798 2.34903655275e-38
0.0694115691871 -0.125531561296 0.798 2.34910928014e-38
0.0708884110847 -0.125531561296 0.798 2.34943227944e-38
0.0723652529823 -0.125531561296 0.798 2.34961164564e-38
0.0738420948799 -0.125531561296 0.798 2.34950332527e-38
0.0755077060426 -0.125846176738 0.8 2.34954144059e-38
0.0769882492983 -0.125846176738 0.8 2.34957759409e-38
0.0784687925541 -0.125846176738 0.8 2.34975808133e-38
0.0799493358098 -0.125846176738 0.8 2.3498640195e-38
0.0814298790655 -0.125846176738 0.8 2.34979213289e-38
0.0831176983771 -0.126160792179 0.802 2.34986472015e-38
0.0847074316979 -0.1263180999 0.803 2.35022499398e-38
0.0861935269909 -0.1263180999 0.803 2.34997360104e-38
0.0876796222838 -0.1263180999 0.803 2.34997514247e-38
0.0891657175768 -0.1263180999 0.803 2.35004702908e-38
0.0908775957162 -0.126632715342 0.805 2.349650882e-38
0.0925968765719 -0.126947330784 0.807 2.34983192976e-38
0.0940903745811 -0.126947330784 0.807 2.34957787435e-38
0.0955838725904 -0.126947330784 0.807 2.3493992088e-38
0.0973179588787 -0.127261946226 0.809 2.3492555757e-38
0.0990594478832 -0.127576561668 0.811 2.34907284638e-38
0.100560348609 -0.127576561668 0.811 2.34965046161e-38
0.102061249334 -0.127576561668 0.811 2.35008332271e-38
0.0303141231612 -0.127319317277 0.819 2.34950472657e-38
0.0316743722774 -0.12669748911 0.815 2.3498654208e-38
0.0331826757192 -0.12669748911 0.815 1.53642301277e-38
0.0346058479238 -0.126386575026 0.813 1.76755640446e-38
0.0361104500074 -0.126386575026 0.813 1.78627999403e-38
0.0374299841841 -0.125764746859 0.809 1.70345106349e-38
0.0388309482398 -0.125453832775 0.807 1.7310742996e-38
0.0402245095793 -0.125142918691 0.805 1.83220278678e-38
0.0417143062304 -0.125142918691 0.805 1.85992957884e-38
0.0430967634954 -0.124832004607 0.803 1.85993140053e-38
0.0445828587884 -0.124832004607 0.803 1.94301508713e-38
0.0460689540813 -0.124832004607 0.803 2.00751699557e-38
0.0475550493743 -0.124832004607 0.803 1.97071077037e-38
0.0489800722579 -0.124676547566 0.802 2.08120315428e-38
0.0504643168718 -0.124676547566 0.802 1.97968006145e-38
0.0519485614857 -0.124676547566 0.802 2.20105410999e-38
0.0532995572065 -0.124365633482 0.8 2.1548499365e-38
0.0547801004623 -0.124365633482 0.8 2.2837462738e-38
0.056260643718 -0.124365633482 0.8 2.34835355988e-38
0.0575968340063 -0.124054719398 0.798 2.28378018522e-38
0.0590736759039 -0.124054719398 0.798 2.3114032812e-38
0.0605505178015 -0.124054719398 0.798 2.34864068594e-38
0.0620273596991 -0.124054719398 0.798 2.34885634577e-38
0.0635042015967 -0.124054719398 0.798 2.34889109797e-38
0.0649810434943 -0.124054719398 0.798 2.3490358521e-38
0.0664578853919 -0.124054719398 0.798 2.34892823238e-38
0.0679347272895 -0.124054719398 0.798 2.34899927821e-38
0.0694115691871 -0.124054719398 0.798 2.34914389222e-38
0.0708884110847 -0.124054719398 0.798 2.34928710492e-38
0.0723652529823 -0.124054719398 0.798 2.34903781392e-38
0.0738420948799 -0.124054719398 0.798 2.34921774065e-38
0.0755077060426 -0.124365633482 0.8 2.34928878648e-38
0.0769882492983 -0.124365633482 0.8 2.34929060817e-38
0.0784687925541 -0.124365633482 0.8 2.34954031955e-38
0.0799493358098 -0.124365633482 0.8 2.34986219781e-38
0.0814298790655 -0.124365633482 0.8 2.34997233987e-38
0.0831176983771 -0.124676547566 0.802 2.34957787435e-38
0.0846019429909 -0.124676547566 0.802 2.34961402785e-38
0.0860861876048 -0.124676547566 0.802 2.34982996794e-38
0.0875704322187 -0.124676547566 0.802 2.34976144445e-38
0.0891657175768 -0.124832004607 0.803 2.34946927372e-38
0.0906518128697 -0.124832004607 0.803 2.34954256163e-38
0.0923673923673 -0.125142918691 0.805 2.34928864635e-38
0.0940903745811 -0.125453832775 0.807 2.34961290681e-38
0.0958207595113 -0.125764746859 0.809 2.34925417441e-38
0.0975585471577 -0.126075660942 0.811 2.3491457139e-38
0.0990594478832 -0.126075660942 0.811 2.3483151643e-38
0.100560348609 -0.126075660942 0.811 2.34990171443e-38
0.0303141231612 -0.125803611119 0.819 2.35004520739e-38
0.0318298293193 -0.125803611119 0.819 2.34911208274e-38
0.0332641055983 -0.125496398393 0.817 1.72974642917e-38
0.0346058479238 -0.124881972942 0.813 1.82287406264e-38
0.0361104500074 -0.124881972942 0.813 1.76777304521e-38
0.0374299841841 -0.124267547491 0.809 1.72178256974e-38
0.0388309482398 -0.123960334766 0.807 1.75865885987e-38
0.0402245095793 -0.12365312204 0.805 1.78617727885e-38
0.0417143062304 -0.12365312204 0.805 1.82312545559e-38
0.0430967634954 -0.123345909315 0.803 1.91528619312e-38
0.0445828587884 -0.123345909315 0.803 1.95230723738e-38
0.0460689540813 -0.123345909315 0.803 1.95234226984e-38
0.047495827644 -0.123192302952 0.802 2.06297730593e-38
0.0489800722579 -0.123192302952 0.802 2.08130825167e-38
0.0504643168718 -0.123192302952 0.802 2.08134580646e-38
0.0518190139508 -0.122885090226 0.8 2.16431963126e-38
0.0532995572065 -0.122885090226 0.8 2.09038334078e-38
0.0547801004623 -0.122885090226 0.8 2.29307205521e-38
0.056260643718 -0.122885090226 0.8 2.24700927274e-38
0.0575968340063 -0.122577877501 0.798 2.32987771989e-38
0.0590736759039 -0.122577877501 0.798 2.31158278753e-38
0.0605505178015 -0.122577877501 0.798 2.31151118118e-38
0.0620273596991 -0.122577877501 0.798 2.34853362674e-38
0.0635042015967 -0.122577877501 0.798 2.34871285281e-38
0.0649810434943 -0.122577877501 0.798 2.34867641905e-38
0.0664578853919 -0.122577877501 0.798 2.34896522666e-38
0.0679347272895 -0.122577877501 0.798 2.3491419304e-38
0.0694115691871 -0.122577877501 0.798 2.34921451766e-38
0.0708884110847 -0.122577877501 0.798 2.34881949162e-38
0.0723652529823 -0.122577877501 0.798 2.34936207439e-38
0.0738420948799 -0.122577877501 0.798 2.3492517922e-38
0.0753189367775 -0.122577877501 0.798 2.34928920687e-38
0.0769882492983 -0.122885090226 0.8 2.34932465972e-38
0.0784687925541 -0.122885090226 0.8 2.34932423933e-38
0.0799493358098 -0.122885090226 0.8 2.34953919851e-38
0.0814298790655 -0.122885090226 0.8 2.34950430618e-38
0.0831176983771 -0.123192302952 0.802 2.34986443989e-38
0.0846019429909 -0.123192302952 0.802 2.34946787242e-38
0.0860861876048 -0.123192302952 0.802 2.34939584568e-38
0.0875704322187 -0.123192302952 0.802 2.34997093857e-38
0.0891657175768 -0.123345909315 0.803 2.34971954563e-38
0.0906518128697 -0.123345909315 0.803 2.34965284382e-38
0.0923673923673 -0.12365312204 0.805 2.34936151387e-38
0.0940903745811 -0.123960334766 0.807 2.34954003929e-38
0.0955838725904 -0.123960334766 0.807 2.34946885333e-38
0.0975585471577 -0.124574760217 0.811 2.34903851457e-38
0.0993037375204 -0.124881972942 0.813 2.34853390699e-38
0.100808339604 -0.124881972942 0.813 2.3500861253e-38
0.0303141231612 -0.124287904961 0.819 2.34990045326e-38
0.0318298293193 -0.124287904961 0.819 2.34932620115e-38
0.0332641055983 -0.123984393594 0.817 1.64680357307e-38
0.034690979161 -0.123680882226 0.815 1.85063995093e-38
0.0361104500074 -0.123377370859 0.813 1.81379897353e-38
0.0374299841841 -0.122770348124 0.809 1.75851662807e-38
0.0388309482398 -0.122466836756 0.807 1.80457913028e-38
0.0402245095793 -0.122163325389 0.805 1.8507121178e-38
0.0417143062304 -0.122163325389 0.805 1.82316076831e-38
0.0430967634954 -0.121859814022 0.803 1.88755519716e-38
0.0445828587884 -0.121859814022 0.803 1.9246132357e-38
0.0460689540813 -0.121859814022 0.803 1.94308795465e-38
0.047495827644 -0.121708058338 0.802 1.92457792298e-38
0.0489800722579 -0.121708058338 0.802 1.98900766455e-38
0.0504643168718 -0.121708058338 0.802 2.21031206855e-38
0.0518190139508 -0.12140454697 0.8 2.05368585634e-38
0.0532995572065 -0.12140454697 0.8 2.17328934273e-38
0.0547801004623 -0.12140454697 0.8 2.2193521252e-38
0.056260643718 -0.12140454697 0.8 2.15495811674e-38
0.0575968340063 -0.121101035603 0.798 2.24686606003e-38
0.0590736759039 -0.121101035603 0.798 2.33916944975e-38
0.0605505178015 -0.121101035603 0.798 2.34849677259e-38
0.0620273596991 -0.121101035603 0.798 2.34853362674e-38
0.0635042015967 -0.121101035603 0.798 2.34867501775e-38
0.0649810434943 -0.121101035603 0.798 2.34867641905e-38
0.0664578853919 -0.121101035603 0.798 2.34871173177e-38
0.0679347272895 -0.121101035603 0.798 2.34878291773e-38
0.0694115691871 -0.121101035603 0.798 2.3489273916e-38
0.0708884110847 -0.121101035603 0.798 2.34914501326e-38
0.0723652529823 -0.121101035603 0.798 2.34896452601e-38
0.0738420948799 -0.121101035603 0.798 2.34943129853e-38
0.0753189367775 -0.121101035603 0.798 2.34918060624e-38
0.0767957786751 -0.121101035603 0.798 2.34953975903e-38
0.0784687925541 -0.12140454697 0.8 2.34921521831e-38
0.0799493358098 -0.12140454697 0.8 2.34914431261e-38
0.0816334537632 -0.121708058338 0.802 2.34953975903e-38
0.0831176983771 -0.121708058338 0.802 2.34986331885e-38
0.0846019429909 -0.121708058338 0.802 2.34965130239e-38
0.0860861876048 -0.121708058338 0.802 2.34928822596e-38
0.0876796222838 -0.121859814022 0.803 2.3494325597e-38
0.0891657175768 -0.121859814022 0.803 2.34953975903e-38
0.0906518128697 -0.121859814022 0.803 2.34928612401e-38
0.0923673923673 -0.122163325389 0.805 2.34939668646e-38
0.0940903745811 -0.122466836756 0.807 2.34914459287e-38
0.0955838725904 -0.122466836756 0.807 2.34896606744e-38
0.0975585471577 -0.123073859491 0.811 2.34857034075e-38
0.0990594478832 -0.123073859491 0.811 2.34896410562e-38
0.100560348609 -0.123073859491 0.811 2.35022849723e-38
0.030388150324 -0.123072008812 0.821 2.34954312215e-38
0.0319075578402 -0.123072008812 0.821 2.22925384028e-38
0.0334269653564 -0.123072008812 0.821 1.75768705938e-38
0.0348612416354 -0.122772198803 0.819 1.82315922688e-38
0.0361104500074 -0.121872768775 0.813 1.75869837648e-38
0.0375225181376 -0.121572958766 0.811 1.79543215456e-38
0.0389271835515 -0.121273148756 0.809 1.81376366081e-38
0.0403244462491 -0.120973338747 0.807 1.76766640639e-38
0.0417143062304 -0.120673528738 0.805 1.84156528221e-38
0.0430967634954 -0.120373718729 0.803 1.87840752078e-38
0.0445828587884 -0.120373718729 0.803 1.87851542077e-38
0.0460689540813 -0.120373718729 0.803 1.97989558115e-38
0.0475550493743 -0.120373718729 0.803 1.93383307894e-38
0.0489800722579 -0.120223813724 0.802 1.97989558115e-38
0.0504643168718 -0.120223813724 0.802 2.09967731272e-38
0.0518190139508 -0.119924003715 0.8 2.14574009519e-38
0.0532995572065 -0.119924003715 0.8 2.15474301743e-38
0.0547801004623 -0.119924003715 0.8 2.1733243752e-38
0.0561199921087 -0.119624193705 0.798 2.21946002519e-38
0.0575968340063 -0.119624193705 0.798 2.25640806179e-38
0.0590736759039 -0.119624193705 0.798 2.26552042545e-38
0.0605505178015 -0.119624193705 0.798 2.32984212691e-38
0.0620273596991 -0.119624193705 0.798 2.34831684586e-38
0.0633450431967 -0.119324383696 0.796 2.34853264583e-38
0.0648181837362 -0.119324383696 0.796 2.34864068594e-38
0.0664578853919 -0.119624193705 0.798 2.34882047253e-38
0.0679347272895 -0.119624193705 0.798 2.34874900631e-38
0.0694115691871 -0.119624193705 0.798 2.34899955847e-38
0.0708884110847 -0.119624193705 0.798 2.34899997886e-38
0.0723652529823 -0.119624193705 0.798 2.34882145344e-38
0.0738420948799 -0.119624193705 0.798 2.34911040118e-38
0.0753189367775 -0.119624193705 0.798 2.34921661961e-38
0.0767957786751 -0.119624193705 0.798 2.34932451959e-38
0.0782726205727 -0.119624193705 0.798 2.34939514503e-38
0.0799493358098 -0.119924003715 0.8 2.34917990559e-38
0.0814298790655 -0.119924003715 0.8 2.34914585403e-38
0.0831176983771 -0.120223813724 0.802 2.34918102663e-38
0.0846019429909 -0.120223813724 0.802 2.34914417248e-38
0.0860861876048 -0.120223813724 0.802 2.34939626607e-38
0.0875704322187 -0.120223813724 0.802 2.34903697314e-38
0.0891657175768 -0.120373718729 0.803 2.34932634128e-38
0.0906518128697 -0.120373718729 0.803 2.34914599416e-38
0.0923673923673 -0.120673528738 0.805 2.34889446109e-38
0.0940903745811 -0.120973338747 0.807 2.34892949355e-38
0.0958207595113 -0.121273148756 0.809 2.34835524144e-38
0.0975585471577 -0.121572958766 0.811 2.34922040311e-38
0.0990594478832 -0.121572958766 0.811 2.34936333556e-38
0.100560348609 -0.121572958766 0.811 2.34968759602e-38
0.0306102318124 -0.122440927249 0.827 2.35012017686e-38
0.0319852863611 -0.121848709947 0.823 1.76805891009e-38
0.0334269653564 -0.121552601296 0.821 1.84116829435e-38
0.0349463728726 -0.121552601296 0.821 1.76795479362e-38
0.0361992826028 -0.120664275343 0.815 1.76798954582e-38
0.0376150520911 -0.120368166691 0.813 1.79568396789e-38
0.0389271835515 -0.119775949389 0.809 1.83241704531e-38
0.0403244462491 -0.119479840738 0.807 1.86000468844e-38
0.0417143062304 -0.119183732087 0.805 1.86911607119e-38
0.0432041028815 -0.119183732087 0.805 1.89691923402e-38
0.0445828587884 -0.118887623436 0.803 1.88784260347e-38
0.0460689540813 -0.118887623436 0.803 1.94301732921e-38
0.0475550493743 -0.118887623436 0.803 1.97071077037e-38
0.0489800722579 -0.11873956911 0.802 1.98907857025e-38
0.0504643168718 -0.11873956911 0.802 2.0167015261e-38
0.0519485614857 -0.11873956911 0.802 2.13651997168e-38
0.0532995572065 -0.118443460459 0.8 2.08113126767e-38
0.0547801004623 -0.118443460459 0.8 2.18261610505e-38
0.0561199921087 -0.118147351808 0.798 2.21945974493e-38
0.0575968340063 -0.118147351808 0.798 2.22871462063e-38
0.0590736759039 -0.118147351808 0.798 2.23793194154e-38
0.0605505178015 -0.118147351808 0.798 2.34849621207e-38
0.0620273596991 -0.118147351808 0.798 2.27463068715e-38
0.0633450431967 -0.117851243157 0.796 2.34871355346e-38
0.0648181837362 -0.117851243157 0.796 2.29317869402e-38
0.0662913242756 -0.117851243157 0.796 2.34842670766e-38
0.0677644648151 -0.117851243157 0.796 2.34896718848e-38
0.0694115691871 -0.118147351808 0.798 2.34878319799e-38
0.0708884110847 -0.118147351808 0.798 2.34903599223e-38
0.0723652529823 -0.118147351808 0.798 2.34918032598e-38
0.0738420948799 -0.118147351808 0.798 2.34867838087e-38
0.0753189367775 -0.118147351808 0.798 2.3490025012e-38
0.0767957786751 -0.118147351808 0.798 2.34932704193e-38
0.0782726205727 -0.118147351808 0.798 2.34928906674e-38
0.0799493358098 -0.118443460459 0.8 2.34914417248e-38
0.0814298790655 -0.118443460459 0.8 2.34889418083e-38
0.0831176983771 -0.11873956911 0.802 2.34936529737e-38
0.0846019429909 -0.11873956911 0.802 2.34939528516e-38
0.0860861876048 -0.11873956911 0.802 2.34925235272e-38
0.0875704322187 -0.11873956911 0.802 2.34907144509e-38
0.0891657175768 -0.118887623436 0.803 2.34910759859e-38
0.0906518128697 -0.118887623436 0.803 2.34907116483e-38
0.0923673923673 -0.119183732087 0.805 2.34892935342e-38
0.0940903745811 -0.119479840738 0.807 2.34900124003e-38
0.0958207595113 -0.119775949389 0.809 2.3485325057e-38
0.0975585471577 -0.12007205804 0.811 2.34871509489e-38
0.0990594478832 -0.12007205804 0.811 2.349795496e-38
0.0291500460264 -0.121202822952 0.829 2.34918256805e-38
0.0306102318124 -0.120910415659 0.827 2.3501198966e-38
0.0320630148821 -0.120618008366 0.825 1.12269076222e-38
0.0335083952355 -0.120325601073 0.823 1.80479450986e-38
0.0350315041098 -0.120325601073 0.823 1.81383582768e-38
0.0362881151981 -0.119448379194 0.817 1.76788262675e-38
0.0376150520911 -0.118863564608 0.813 1.86029139411e-38
0.0390234188631 -0.118571157315 0.811 1.82326586569e-38
0.0403244462491 -0.117986342729 0.807 1.85993182092e-38
0.0418179442583 -0.117986342729 0.807 1.98889836327e-38
0.0432041028815 -0.117693935436 0.805 1.85078456494e-38
0.0446938995326 -0.117693935436 0.805 1.89688223974e-38
0.0460689540813 -0.117401528143 0.803 1.97982341428e-38
0.0475550493743 -0.117401528143 0.803 1.92457792298e-38
0.0489800722579 -0.117255324496 0.802 1.97064070545e-38
0.0504643168718 -0.117255324496 0.802 1.98911514414e-38
0.0519485614857 -0.117255324496 0.802 2.09964073883e-38
0.0532995572065 -0.116962917203 0.8 2.07205617856e-38
0.0547801004623 -0.116962917203 0.8 2.11822405841e-38
0.0561199921087 -0.11667050991 0.798 2.11804413169e-38
0.0575968340063 -0.11667050991 0.798 2.25623037715e-38
0.0590736759039 -0.11667050991 0.798 2.21935002326e-38
0.0605505178015 -0.11667050991 0.798 2.26548539299e-38
0.0620273596991 -0.11667050991 0.798 2.28396193363e-38
0.0633450431967 -0.116378102617 0.796 2.3486771197e-38
0.0648181837362 -0.116378102617 0.796 2.28395941129e-38
0.0662913242756 -0.116378102617 0.796 2.34877983488e-38
0.0677644648151 -0.116378102617 0.796 2.34845935792e-38
0.0694115691871 -0.11667050991 0.798 2.34892921329e-38
0.0708884110847 -0.11667050991 0.798 2.34867655918e-38
0.0723652529823 -0.11667050991 0.798 2.34892837251e-38
0.0738420948799 -0.11667050991 0.798 2.34863830373e-38
0.0753189367775 -0.11667050991 0.798 2.34871075086e-38
0.0767957786751 -0.11667050991 0.798 2.34871285281e-38
0.0782726205727 -0.11667050991 0.798 2.34874900631e-38
0.0799493358098 -0.116962917203 0.8 2.34878515981e-38
0.0814298790655 -0.116962917203 0.8 2.3488217337e-38
0.0831176983771 -0.117255324496 0.802 2.34871481463e-38
0.0846019429909 -0.117255324496 0.802 2.34910787885e-38
0.0861935269909 -0.117401528143 0.803 2.34892949355e-38
0.0876796222838 -0.117401528143 0.803 2.3488217337e-38
0.0893877990651 -0.117693935436 0.805 2.34896438588e-38
0.0908775957162 -0.117693935436 0.805 2.3487132732e-38
0.0923673923673 -0.117693935436 0.805 2.34878529994e-38
0.0943235601439 -0.118278750022 0.809 2.34871341333e-38
0.0958207595113 -0.118278750022 0.809 2.34871355346e-38
0.0975585471577 -0.118571157315 0.811 2.34871369359e-38
0.0990594478832 -0.118571157315 0.811 2.34965102213e-38
0.100560348609 -0.118571157315 0.811 2.35037100928e-38
0.102061249334 -0.118571157315 0.811 2.34994011e-38
0.0291500460264 -0.119668610003 0.829 2.34954088007e-38
0.0306102318124 -0.119379904068 0.827 2.3501184953e-38
0.0320630148821 -0.119091198133 0.825 6.06724119734e-39
0.0335898251145 -0.119091198133 0.825 1.76838232978e-38
0.0350315041098 -0.118802492198 0.823 1.87830088197e-38
0.0362881151981 -0.117936374394 0.817 1.85997119741e-38
0.0377075860445 -0.117647668459 0.815 1.72171068313e-38
0.0390234188631 -0.117070256589 0.811 1.8233419562e-38
0.0404243829188 -0.116781550654 0.809 1.94305460375e-38
0.0418179442583 -0.11649284472 0.807 1.89684720728e-38
0.0432041028815 -0.116204138785 0.805 1.78657160424e-38
0.0446938995326 -0.116204138785 0.805 1.98915045686e-38
0.0461836961836 -0.116204138785 0.805 1.96138260675e-38
0.0475550493743 -0.11591543285 0.803 1.94298005467e-38
0.0490411446672 -0.11591543285 0.803 2.07209121102e-38
0.0505272399602 -0.11591543285 0.803 1.98914989634e-38
0.0519485614857 -0.115771079882 0.802 2.03510547948e-38
0.0532995572065 -0.115482373947 0.8 2.0904266409e-38
0.0547801004623 -0.115482373947 0.8 2.10900421516e-38
0.056260643718 -0.115482373947 0.8 2.13644654364e-38
0.0575968340063 -0.115193668013 0.798 2.26545064079e-38
0.0590736759039 -0.115193668013 0.798 2.21031052712e-38
0.0605505178015 -0.115193668013 0.798 2.21949477739e-38
0.0620273596991 -0.115193668013 0.798 2.26555601843e-38
0.0635042015967 -0.115193668013 0.798 2.31151118118e-38
0.0649810434943 -0.115193668013 0.798 2.34853432738e-38
0.0664578853919 -0.115193668013 0.798 2.34838747131e-38
0.0679347272895 -0.115193668013 0.798 2.34835327962e-38
0.0694115691871 -0.115193668013 0.798 2.3486048127e-38
0.0708884110847 -0.115193668013 0.798 2.34889095784e-38
0.0723652529823 -0.115193668013 0.798 2.3486020101e-38
0.0738420948799 -0.115193668013 0.798 2.34856935985e-38
0.0753189367775 -0.115193668013 0.798 2.34886026941e-38
0.0767957786751 -0.115193668013 0.798 2.3488564859e-38
0.0782726205727 -0.115193668013 0.798 2.34917920494e-38
0.0799493358098 -0.115482373947 0.8 2.34885718655e-38
0.0816334537632 -0.115771079882 0.802 2.34907214573e-38
0.0831176983771 -0.115771079882 0.802 2.3490010999e-38
0.0846019429909 -0.115771079882 0.802 2.34878403877e-38
0.0861935269909 -0.11591543285 0.803 2.34925221259e-38
0.0876796222838 -0.11591543285 0.803 2.34878473942e-38
0.0893877990651 -0.116204138785 0.805 2.34867655918e-38
0.0911033785627 -0.11649284472 0.807 2.34871621592e-38
0.0925968765719 -0.11649284472 0.807 2.34874928657e-38
0.0943235601439 -0.116781550654 0.809 2.34896480627e-38
0.0960576464322 -0.117070256589 0.811 2.34889376044e-38
0.0975585471577 -0.117070256589 0.811 2.3490025012e-38
0.0993037375204 -0.117358962524 0.813 2.34961823175e-38
0.100808339604 -0.117358962524 0.813 2.34982982781e-38
0.0291500460264 -0.118134397054 0.829 2.34950808969e-38
0.0306102318124 -0.117849392478 0.827 2.3502269558e-38
0.032140743403 -0.117849392478 0.827 3.85709083864e-39
0.0335898251145 -0.117564387901 0.825 1.87897826965e-38
0.035116635347 -0.117564387901 0.825 1.786214133e-38
0.0364657803888 -0.116994378747 0.821 1.79564921569e-38
0.0377075860445 -0.116139365017 0.815 1.81412071166e-38
0.0391196541747 -0.11585436044 0.813 1.79575487359e-38
0.0404243829188 -0.115284351287 0.809 1.86022090879e-38
0.0418179442583 -0.11499934671 0.807 1.89713251164e-38
0.0432041028815 -0.114714342134 0.805 1.85114371773e-38
0.0446938995326 -0.114714342134 0.805 1.92461295544e-38
0.0461836961836 -0.114714342134 0.805 1.98893339573e-38
0.0475550493743 -0.114429337557 0.803 1.95209269858e-38
0.0490411446672 -0.114429337557 0.803 2.06294227347e-38
0.0505272399602 -0.114429337557 0.803 1.97989502063e-38
0.0520133352531 -0.114429337557 0.803 2.00755048661e-38
0.0534328060995 -0.114286835268 0.802 2.08131091413e-38
0.0549170507134 -0.114286835268 0.802 2.07191142442e-38
0.056260643718 -0.114001830692 0.8 2.13641179144e-38
0.0577411869737 -0.114001830692 0.8 2.12719180806e-38
0.0590736759039 -0.113716826115 0.798 2.19172846871e-38
0.0605505178015 -0.113716826115 0.798 2.10896890244e-38
0.0620273596991 -0.113716826115 0.798 2.22871055687e-38
0.0635042015967 -0.113716826115 0.798 2.34846103947e-38
0.0649810434943 -0.113716826115 0.798 2.29328407166e-38
0.0664578853919 -0.113716826115 0.798 2.34863914451e-38
0.0679347272895 -0.113716826115 0.798 2.34842320442e-38
0.0694115691871 -0.113716826115 0.798 2.34856823881e-38
0.0708884110847 -0.113716826115 0.798 2.34856809868e-38
0.0723652529823 -0.113716826115 0.798 2.34853138466e-38
0.0738420948799 -0.113716826115 0.798 2.34842516623e-38
0.0753189367775 -0.113716826115 0.798 2.34878684137e-38
0.0767957786751 -0.113716826115 0.798 2.34860439231e-38
0.0784687925541 -0.114001830692 0.8 2.34863914451e-38
0.0799493358098 -0.114001830692 0.8 2.34874480241e-38
0.0816334537632 -0.114286835268 0.802 2.34871145151e-38
0.0831176983771 -0.114286835268 0.802 2.34885578525e-38
0.0846019429909 -0.114286835268 0.802 2.34842488597e-38
0.0861935269909 -0.114429337557 0.803 2.33913385677e-38
0.0876796222838 -0.114429337557 0.803 2.34850083635e-38
0.0893877990651 -0.114714342134 0.805 2.34846244077e-38
0.0911033785627 -0.11499934671 0.807 2.34857230257e-38
0.0925968765719 -0.11499934671 0.807 2.34882159357e-38
0.0943235601439 -0.115284351287 0.809 2.34871061073e-38
0.0960576464322 -0.115569355864 0.811 2.34914585403e-38
0.0975585471577 -0.115569355864 0.811 2.34925305337e-38
0.0993037375204 -0.11585436044 0.813 2.35004632843e-38
0.100808339604 -0.11585436044 0.813 2.35037325136e-38
0.029220371831 -0.116881487324 0.831 2.34950654826e-38
0.0306842589751 -0.116600184106 0.829 2.35044163472e-38
0.032140743403 -0.116318880887 0.827 6.71116586767e-39
0.0336712549936 -0.116318880887 0.827 1.86918445455e-38
0.035116635347 -0.116037577668 0.825 1.82348839189e-38
0.0365546129841 -0.11575627445 0.823 1.73111381621e-38
0.037800119998 -0.114912364794 0.817 1.94298201649e-38
0.0392158894863 -0.114631061575 0.815 1.82312545559e-38
0.0405243195886 -0.114068455138 0.811 1.95216430493e-38
0.0419215822862 -0.11378715192 0.809 1.86014509855e-38
0.0433114422675 -0.113505848701 0.807 1.95216402467e-38
0.0446938995326 -0.113224545482 0.805 1.93368804455e-38
0.0461836961836 -0.113224545482 0.805 2.0626142295e-38
0.0476734928347 -0.113224545482 0.805 1.96142310428e-38
0.0490411446672 -0.112943242264 0.803 2.06308688747e-38
0.0505272399602 -0.112943242264 0.803 2.06287136777e-38
0.0520133352531 -0.112943242264 0.803 2.01688271399e-38
0.0534994305461 -0.112943242264 0.803 2.10900449542e-38
0.0549170507134 -0.112802590655 0.802 2.07191170468e-38
0.0564012953273 -0.112802590655 0.802 2.09035111092e-38
0.0578855399412 -0.112802590655 0.802 2.05361677232e-38
0.0590736759039 -0.112239984217 0.798 2.1642512479e-38
0.0605505178015 -0.112239984217 0.798 2.16432131282e-38
0.0620273596991 -0.112239984217 0.798 2.20109096414e-38
0.0635042015967 -0.112239984217 0.798 2.20094999351e-38
0.0649810434943 -0.112239984217 0.798 2.2193135895e-38
0.0664578853919 -0.112239984217 0.798 2.23767956769e-38
0.0679347272895 -0.112239984217 0.798 2.256121216e-38
0.0694115691871 -0.112239984217 0.798 2.31140272068e-38
0.0708884110847 -0.112239984217 0.798 2.3482442586e-38
0.0723652529823 -0.112239984217 0.798 2.3391325956e-38
0.0738420948799 -0.112239984217 0.798 2.34842544649e-38
0.0753189367775 -0.112239984217 0.798 2.34856851907e-38
0.0767957786751 -0.112239984217 0.798 2.34860439231e-38
0.0784687925541 -0.112521287436 0.8 2.34860439231e-38
0.0799493358098 -0.112521287436 0.8 2.33891903771e-38
0.0816334537632 -0.112802590655 0.802 2.34842558662e-38
0.0831176983771 -0.112802590655 0.802 2.34831768664e-38
0.0847074316979 -0.112943242264 0.803 2.34842600701e-38
0.0861935269909 -0.112943242264 0.803 2.34846033883e-38
0.087898002414 -0.113224545482 0.805 2.34882131331e-38
0.0893877990651 -0.113224545482 0.805 2.34874718462e-38
0.0911033785627 -0.113505848701 0.807 2.34882047253e-38
0.0925968765719 -0.113505848701 0.807 2.34892795212e-38
0.0943235601439 -0.11378715192 0.809 2.3489649464e-38
0.0960576464322 -0.114068455138 0.811 2.34882257448e-38
0.0975585471577 -0.114068455138 0.811 2.34907550885e-38
0.0990594478832 -0.114068455138 0.811 2.35040926473e-38
0.100560348609 -0.114068455138 0.811 2.35030164501e-38
0.029220371831 -0.115343573017 0.831 2.34946773229e-38
0.0306842589751 -0.115065971157 0.829 2.35072904104e-38
0.0322184719239 -0.115065971157 0.829 7.26540743628e-39
0.0336712549936 -0.114788369296 0.827 1.30730314684e-38
0.035116635347 -0.114510767436 0.825 1.74126720449e-38
0.0366434455795 -0.114510767436 0.825 1.95219961766e-38
0.037985187905 -0.113955563715 0.821 1.80440158577e-38
0.0392158894863 -0.113122758134 0.815 1.9519472438e-38
0.0406242562583 -0.112845156273 0.813 1.8875201647e-38
0.0420252203141 -0.112567554413 0.811 1.91521766962e-38
0.0434187816536 -0.112289952552 0.809 1.93361769937e-38
0.0448049402767 -0.112012350692 0.807 2.00733790963e-38
0.0461836961836 -0.111734748831 0.805 2.00744300701e-38
0.0476734928347 -0.111734748831 0.805 1.97060357104e-38
0.0491632894858 -0.111734748831 0.805 1.97071105063e-38
0.0506530861369 -0.111734748831 0.805 2.09960598662e-38
0.0520133352531 -0.111457146971 0.803 2.01680886556e-38
0.0534994305461 -0.111457146971 0.803 2.06290696075e-38
0.054985525839 -0.111457146971 0.803 2.12733824375e-38
0.0564012953273 -0.111318346041 0.802 2.10889701583e-38
0.0578855399412 -0.111318346041 0.802 2.09978493244e-38
0.0592217302295 -0.11104074418 0.8 2.14588078555e-38
0.0607022734852 -0.11104074418 0.8 2.14570324104e-38
0.0621828167409 -0.11104074418 0.8 2.21945694233e-38
0.0636633599967 -0.11104074418 0.8 2.22864203337e-38
0.0651439032524 -0.11104074418 0.8 2.22864175311e-38
0.0666244465082 -0.11104074418 0.8 2.32090968998e-38
0.0681049897639 -0.11104074418 0.8 2.2011297801e-38
0.0694115691871 -0.11076314232 0.798 2.26559287258e-38
0.0708884110847 -0.11076314232 0.798 2.26537553119e-38
0.0725466195311 -0.11104074418 0.8 2.24701081416e-38
0.0738420948799 -0.11076314232 0.798 2.2655572796e-38
0.0753189367775 -0.11076314232 0.798 2.28388850559e-38
0.0767957786751 -0.11076314232 0.798 2.26545036053e-38
0.0784687925541 -0.11104074418 0.8 2.34857062101e-38
0.0801492091493 -0.111318346041 0.802 2.34838957325e-38
0.081735241112 -0.111457146971 0.803 2.33916916949e-38
0.083221336405 -0.111457146971 0.803 2.34849817388e-38
0.0847074316979 -0.111457146971 0.803 2.34842614714e-38
0.0864082057629 -0.111734748831 0.805 2.34842600701e-38
0.087898002414 -0.111734748831 0.805 2.34828251405e-38
0.0896098805535 -0.112012350692 0.807 2.34878572033e-38
0.0913291614092 -0.112289952552 0.809 2.34874970696e-38
0.0928263607766 -0.112289952552 0.809 2.3488564859e-38
0.0945567457067 -0.112567554413 0.811 2.34907634963e-38
0.0960576464322 -0.112567554413 0.811 2.34900320185e-38
0.0975585471577 -0.112567554413 0.811 2.34882229422e-38
0.0990594478832 -0.112567554413 0.811 2.35040800356e-38
0.0278823308637 -0.114627360217 0.837 2.34972010614e-38
0.0292906976357 -0.114079559213 0.833 2.3497203864e-38
0.0307582861379 -0.11380565871 0.831 2.35037395201e-38
0.0322184719239 -0.113531758208 0.829 6.34346515063e-39
0.0337526848727 -0.113531758208 0.829 1.02202862716e-39
0.0352017665842 -0.113257857706 0.827 1.76931797676e-38
0.0366434455795 -0.112983957203 0.825 1.80479577102e-38
0.0380777218585 -0.112710056701 0.823 1.86919244195e-38
0.039312124798 -0.111888355194 0.817 1.86901041328e-38
0.0406242562583 -0.11134055419 0.813 1.91528829507e-38
0.0420252203141 -0.111066653687 0.811 1.90610348428e-38
0.0435261210396 -0.111066653687 0.811 1.94290914897e-38
0.0449159810209 -0.110792753185 0.809 2.01666621338e-38
0.046298438286 -0.110518852683 0.807 1.99840533257e-38
0.0477919362952 -0.110518852683 0.807 2.05361551115e-38
0.0491632894858 -0.11024495218 0.805 2.03517596479e-38
0.0506530861369 -0.11024495218 0.805 2.03514051194e-38
0.052142882788 -0.11024495218 0.805 2.00758958283e-38
0.0534994305461 -0.109971051678 0.803 2.04446727426e-38
0.054985525839 -0.109971051678 0.803 2.09957039364e-38
0.0564716211319 -0.109971051678 0.803 2.14577540791e-38
0.0578855399412 -0.109834101427 0.802 2.0998199649e-38
0.059369784555 -0.109834101427 0.802 2.15499469063e-38
0.0608540291689 -0.109834101427 0.802 2.16407370338e-38
0.0621828167409 -0.109560200925 0.8 2.13662212634e-38
0.0636633599967 -0.109560200925 0.8 2.18257953116e-38
0.0651439032524 -0.109560200925 0.8 2.21949505765e-38
0.0666244465082 -0.109560200925 0.8 2.12751522775e-38
0.0681049897639 -0.109560200925 0.8 2.21034682075e-38
0.0695855330196 -0.109560200925 0.8 2.21931527105e-38
0.0710660762754 -0.109560200925 0.8 2.2007334929e-38
0.0725466195311 -0.109560200925 0.8 2.34846202038e-38
0.0740271627868 -0.109560200925 0.8 2.25644295413e-38
0.0755077060426 -0.109560200925 0.8 2.31161810025e-38
0.0769882492983 -0.109560200925 0.8 2.3486771197e-38
0.0786649645354 -0.109834101427 0.802 2.28392409857e-38
0.0801492091493 -0.109834101427 0.802 2.34853292609e-38
0.081735241112 -0.109971051678 0.803 2.34860453244e-38
0.083221336405 -0.109971051678 0.803 2.34864068594e-38
0.0847074316979 -0.109971051678 0.803 2.34853502803e-38
0.0864082057629 -0.11024495218 0.805 2.34839041403e-38
0.087898002414 -0.11024495218 0.805 2.34878628085e-38
0.0896098805535 -0.110518852683 0.807 2.34878431903e-38
0.0913291614092 -0.110792753185 0.809 2.34864110633e-38
0.0928263607766 -0.110792753185 0.809 2.34896242407e-38
0.0945567457067 -0.111066653687 0.811 2.34907228586e-38
0.0960576464322 -0.111066653687 0.811 2.34921647948e-38
0.0977991354368 -0.11134055419 0.813 2.17357618853e-38
0.0993037375204 -0.11134055419 0.813 2.35080541181e-38
0.0278823308637 -0.113078341836 0.837 2.34914627442e-38
0.0293610234403 -0.112808142692 0.835 2.34954073994e-38
0.0308323133007 -0.112537943548 0.833 2.35004702908e-38
0.0322962004448 -0.112267744403 0.831 6.62112403355e-39
0.0337526848727 -0.111997545259 0.829 6.36750022189e-39
0.0352868978214 -0.111997545259 0.829 1.55780178266e-38
0.0367322781748 -0.111727346115 0.827 1.80551449701e-38
0.038170255812 -0.111457146971 0.825 1.8322380995e-38
0.0396008307328 -0.111186947827 0.823 1.869045726e-38
0.0408241295979 -0.110376350394 0.817 1.91525144092e-38
0.042128858342 -0.109835952106 0.813 1.92454162935e-38
0.0435261210396 -0.109565752962 0.811 1.9706038513e-38
0.0450270217651 -0.109565752962 0.811 1.90617663206e-38
0.0464131803883 -0.109295553818 0.809 1.97067573791e-38
0.0477919362952 -0.109025354673 0.807 2.04436035519e-38
0.0492854343044 -0.109025354673 0.807 1.98911514414e-38
0.0506530861369 -0.108755155529 0.805 2.01680928595e-38
0.052142882788 -0.108755155529 0.805 2.05361649206e-38
0.0536326794391 -0.108755155529 0.805 2.03521267881e-38
0.054985525839 -0.108484956385 0.803 2.20094999351e-38
0.0564716211319 -0.108484956385 0.803 2.0995706739e-38
0.0579577164249 -0.108484956385 0.803 2.15481462378e-38
0.059369784555 -0.108349856813 0.802 2.1089691827e-38
0.0608540291689 -0.108349856813 0.802 2.14602722124e-38
0.0623382737828 -0.108349856813 0.802 2.12751368632e-38
0.0638225183967 -0.108349856813 0.802 2.22892915943e-38
0.0653067630106 -0.108349856813 0.802 2.20105593168e-38
0.0667910076244 -0.108349856813 0.802 2.16417964155e-38
0.0682752522383 -0.108349856813 0.802 2.22867958817e-38
0.0695855330196 -0.108079657669 0.8 2.25619520456e-38
0.0710660762754 -0.108079657669 0.8 2.32980709445e-38
0.0727279860799 -0.108349856813 0.802 2.28395941129e-38
0.0740271627868 -0.108079657669 0.8 2.25612093574e-38
0.0755077060426 -0.108079657669 0.8 2.32987898106e-38
0.0771807199216 -0.108349856813 0.802 2.28406675075e-38
0.0787630505261 -0.108484956385 0.803 2.28399416349e-38
0.0802491458191 -0.108484956385 0.803 2.32080291104e-38
0.081735241112 -0.108484956385 0.803 2.32080291104e-38
0.083221336405 -0.108484956385 0.803 2.34853376686e-38
0.0849184091119 -0.108755155529 0.805 2.33909728288e-38
0.0864082057629 -0.108755155529 0.805 2.34871243242e-38
0.0881163825442 -0.109025354673 0.807 2.34888955655e-38
0.0896098805535 -0.109025354673 0.807 2.34896298458e-38
0.0915549442557 -0.109565752962 0.811 2.34875180891e-38
0.0930558449812 -0.109565752962 0.811 2.34882075279e-38
0.0945567457067 -0.109565752962 0.811 2.34896718848e-38
0.0960576464322 -0.109565752962 0.811 2.34878656111e-38
0.0990594478832 -0.109565752962 0.811 2.35055317808e-38
0.0278823308637 -0.111529323455 0.837 2.34918438974e-38
0.0293610234403 -0.111262825669 0.835 2.34968451316e-38
0.0308323133007 -0.110996327883 0.833 2.3507307226e-38
0.0322962004448 -0.110729830097 0.831 3.94892633479e-39
0.0337526848727 -0.110463332311 0.829 8.57694712877e-39
0.0352868978214 -0.110463332311 0.829 5.63030512578e-39
0.0367322781748 -0.110196834524 0.827 1.769209236e-38
0.038170255812 -0.109930336738 0.825 1.89702685374e-38
0.0396008307328 -0.109663838952 0.823 1.91521374599e-38
0.0408241295979 -0.108864345594 0.817 1.86000412792e-38
0.0422324963699 -0.108597847808 0.815 1.99818995299e-38
0.0436334604256 -0.108331350022 0.813 1.97045447288e-38
0.0450270217651 -0.108064852236 0.811 1.97082175321e-38
0.0464131803883 -0.10779835445 0.809 1.96156379464e-38
0.0479103797556 -0.10779835445 0.809 2.03514107246e-38
0.049407579123 -0.10779835445 0.809 2.01688271399e-38
0.0507789323136 -0.107531856664 0.807 2.04457321242e-38
0.0522724303229 -0.107531856664 0.807 2.03524995335e-38
0.0536326794391 -0.107265358878 0.805 2.11800853871e-38
0.0551224760902 -0.107265358878 0.805 2.1547442786e-38
0.0566122727412 -0.107265358878 0.805 2.15485400027e-38
0.0579577164249 -0.106998861092 0.803 2.21938687741e-38
0.0594438117178 -0.106998861092 0.803 2.14580833842e-38
0.0609299070108 -0.106998861092 0.803 2.16442949306e-38
0.0624160023037 -0.106998861092 0.803 2.14591834035e-38
0.0639020975967 -0.106998861092 0.803 2.19180049545e-38
0.0653067630106 -0.106865612199 0.802 2.27463250884e-38
0.0667910076244 -0.106865612199 0.802 2.27459691586e-38
0.0682752522383 -0.106865612199 0.802 2.2654126656e-38
0.0697594968522 -0.106865612199 0.802 2.20098404506e-38
0.0712437414661 -0.106865612199 0.802 2.23778970975e-38
0.0727279860799 -0.106865612199 0.802 2.27484746803e-38
0.0742122306938 -0.106865612199 0.802 2.32994778481e-38
0.0756964753077 -0.106865612199 0.802 2.29317897428e-38
0.0772769552332 -0.106998861092 0.803 2.27481187505e-38
0.0787630505261 -0.106998861092 0.803 2.34860397192e-38
0.0802491458191 -0.106998861092 0.803 2.28406703101e-38
0.0819388158097 -0.107265358878 0.805 2.34892949355e-38
0.0834286124608 -0.107265358878 0.805 2.33924371857e-38
0.0849184091119 -0.107265358878 0.805 2.34867725983e-38
0.086622884535 -0.107531856664 0.807 2.34871229229e-38
0.0883347626745 -0.10779835445 0.809 2.34878572033e-38
0.0900540435302 -0.108064852236 0.811 2.34874900631e-38
0.0917807271022 -0.108331350022 0.813 2.34889460122e-38
0.0932853291858 -0.108331350022 0.813 2.34885704642e-38
0.0947899312695 -0.108331350022 0.813 2.34940004958e-38
0.0962945333531 -0.108331350022 0.813 1.464213122e-38
0.0977991354368 -0.108331350022 0.813 2.35042622044e-38
0.0278823308637 -0.109980305073 0.837 2.34986598131e-38
0.0293610234403 -0.109717508645 0.835 2.34958081708e-38
0.0308323133007 -0.109454712218 0.833 2.35047989017e-38
0.0322962004448 -0.10919191579 0.831 4.31626831943e-39
0.0337526848727 -0.108929119362 0.829 9.22051727059e-39
0.0352868978214 -0.108929119362 0.829 7.9351608399e-39
0.0367322781748 -0.108666322934 0.827 1.08825245116e-38
0.038170255812 -0.108403526506 0.825 1.82406502621e-38
0.0396008307328 -0.108140730078 0.823 1.91524905871e-38
0.0410240029374 -0.10787793365 0.821 1.906138797e-38
0.0422324963699 -0.107089544367 0.815 1.91539367271e-38
0.0436334604256 -0.106826747939 0.813 2.04428734754e-38
0.0451380625093 -0.106826747939 0.813 1.95230723738e-38
0.0465279224906 -0.106563951511 0.811 2.01676976933e-38
0.0479103797556 -0.106301155083 0.809 1.94283782287e-38
0.049407579123 -0.106301155083 0.809 2.10889701583e-38
0.0509047784904 -0.106301155083 0.809 2.02595640181e-38
0.0522724303229 -0.106038358655 0.807 2.0720183435e-38
0.0537659283321 -0.106038358655 0.807 2.12722880234e-38
0.0551224760902 -0.105775562227 0.805 2.14548814172e-38
0.0566122727412 -0.105775562227 0.805 2.12712188327e-38
0.0581020693923 -0.105775562227 0.805 2.16417739947e-38
0.0594438117178 -0.105512765799 0.803 2.21034710101e-38
0.0609299070108 -0.105512765799 0.803 2.18261610505e-38
0.0624160023037 -0.105512765799 0.803 2.20102061895e-38
0.0639020975967 -0.105512765799 0.803 2.2470105339e-38
0.0653881928896 -0.105512765799 0.803 2.25626540961e-38
0.0668742881826 -0.105512765799 0.803 2.23772118625e-38
0.0683603834755 -0.105512765799 0.803 2.29318149662e-38
0.0697594968522 -0.105381367585 0.802 2.24708298103e-38
0.0712437414661 -0.105381367585 0.802 2.27485167192e-38
0.0728186693543 -0.105512765799 0.803 2.26566475919e-38
0.0743047646473 -0.105512765799 0.803 2.34860467257e-38
0.0757908599402 -0.105512765799 0.803 2.33005764661e-38
0.0774694258564 -0.105775562227 0.805 2.34846047896e-38
0.0789592225075 -0.105775562227 0.805 2.32991401352e-38
0.0804490191586 -0.105775562227 0.805 2.31151090092e-38
0.0821423905073 -0.106038358655 0.807 2.32991457404e-38
0.0836358885166 -0.106038358655 0.807 2.34867782035e-38
0.0853403639397 -0.106301155083 0.809 2.34867655918e-38
0.0868375633071 -0.106301155083 0.809 2.34878431903e-38
0.0883347626745 -0.106301155083 0.809 2.34860537322e-38
0.0902761250186 -0.106826747939 0.813 2.34878487955e-38
0.0917807271022 -0.106826747939 0.813 2.34864278789e-38
0.0935148133905 -0.107089544367 0.815 2.34921549857e-38
0.095256302395 -0.107352340794 0.817 2.34925123168e-38
0.096768307195 -0.107352340794 0.817 9.39556046826e-39
0.0982803119949 -0.107352340794 0.817 2.35097917282e-38
0.029431349245 -0.108431286692 0.837 2.34968535394e-38
0.0309063404635 -0.108172191622 0.835 2.35072960156e-38
0.0323739289658 -0.107913096553 0.833 5.05095228869e-39
0.0338341147517 -0.107654001483 0.831 8.76024957959e-39
0.0352868978214 -0.107394906413 0.829 9.40883917251e-39
0.0367322781748 -0.107135811343 0.827 6.37144627837e-39
0.038170255812 -0.106876716274 0.825 1.42879964734e-38
0.0396008307328 -0.106617621204 0.823 1.85157924129e-38
0.0410240029374 -0.106358526134 0.821 1.94305292219e-38
0.0423361343978 -0.105840335994 0.817 1.89706244672e-38
0.0437407998117 -0.105581240925 0.815 1.94301732921e-38
