# .PCD v0.7 - Point Cloud Data file format
VERSION 0.7
FIELDS x y z rgb
SIZE 4 4 4 4
TYPE F F F F
COUNT 1 1 1 1
WIDTH 858
HEIGHT 1
VIEWPOINT 0 0 0 1 0 0 0
POINTS 858
DATA ascii
0.100525185706 -0.12641803657 0.823 2.35022779658e-38
0.102048294581 -0.12641803657 0.823 2.35030038384e-38
0.0311284219519 -0.127626530003 0.841 2.3504762468e-38
0.0326848430495 -0.127626530003 0.841 1.298112871e-38
0.0340784043889 -0.127019507268 0.837 2.38772290011e-39
0.0354571602958 -0.126412484533 0.833 1.8428972164e-38
0.0369099433655 -0.126108973166 0.831 1.80479605128e-38
0.0383553237189 -0.125805461798 0.829 1.85057142744e-38
0.0397933013561 -0.125501950431 0.827 1.95237954438e-38
0.0412238762769 -0.125198439063 0.825 1.85089148401e-38
0.0427506865094 -0.125198439063 0.825 1.87858352387e-38
0.0439554785838 -0.124287904961 0.819 1.89695426648e-38
0.0454711847418 -0.124287904961 0.819 1.93361797963e-38
0.0468721487976 -0.123984393594 0.817 2.06261997483e-38
0.048265710137 -0.123680882226 0.815 1.91514340081e-38
0.0497740135788 -0.123680882226 0.815 2.06251011303e-38
0.0512823170206 -0.123680882226 0.815 2.09960738792e-38
0.0526610729275 -0.123377370859 0.813 2.05361495063e-38
0.0541656750111 -0.123377370859 0.813 2.04439566791e-38
0.0556702770948 -0.123377370859 0.813 2.09049278219e-38
0.0571748791784 -0.123377370859 0.813 2.05339971119e-38
0.0585351282946 -0.123073859491 0.811 2.28378158652e-38
0.0600360290201 -0.123073859491 0.811 2.12722852208e-38
0.0615369297456 -0.123073859491 0.811 2.21024172337e-38
0.0630378304711 -0.123073859491 0.811 2.19165854391e-38
0.0643795727966 -0.122770348124 0.809 2.22853609521e-38
0.065876772164 -0.122770348124 0.809 2.14577750985e-38
0.0675405326476 -0.123073859491 0.811 2.17354115607e-38
0.0690414333731 -0.123073859491 0.811 2.20105410999e-38
0.0705423340987 -0.123073859491 0.811 2.21946002519e-38
0.0720432348242 -0.123073859491 0.811 2.25623065741e-38
0.0735441355497 -0.123073859491 0.811 2.31136824873e-38
0.0750450362752 -0.123073859491 0.811 2.2837420699e-38
0.0765459370007 -0.123073859491 0.811 2.28374459224e-38
0.0780468377262 -0.123073859491 0.811 2.31136796847e-38
0.0795477384517 -0.123073859491 0.811 2.25633771661e-38
0.0812485125167 -0.123377370859 0.813 2.34885424382e-38
0.0827531146003 -0.123377370859 0.813 2.32991429378e-38
0.084257716684 -0.123377370859 0.813 2.34882201396e-38
0.0859732961816 -0.123680882226 0.815 2.34867599866e-38
0.0876962783954 -0.123984393594 0.817 2.32080235052e-38
0.0892082831954 -0.123984393594 0.817 2.34842684779e-38
0.0909423694836 -0.124287904961 0.819 2.34878656111e-38
0.0926838584882 -0.124591416328 0.821 2.34874998722e-38
0.0942032660044 -0.124591416328 0.821 2.34868020255e-38
0.0957226735206 -0.124591416328 0.821 2.34918298844e-38
0.0972420810368 -0.124591416328 0.821 2.34864320827e-38
0.098761488553 -0.124591416328 0.821 2.34874648397e-38
0.100525185706 -0.124894927696 0.823 2.3506959704e-38
0.102048294581 -0.124894927696 0.823 2.35019038191e-38
0.0311284219519 -0.126070108905 0.841 2.35019108256e-38
0.0326848430495 -0.126070108905 0.841 8.83306805429e-39
0.034159834268 -0.125770298896 0.839 8.1970467073e-39
0.0356274227702 -0.125470488886 0.837 1.3549377658e-38
0.0370876085562 -0.125170678877 0.835 1.82410061919e-38
0.0384478576724 -0.124571058859 0.831 1.81387506403e-38
0.0398895366677 -0.124271248849 0.829 1.89691923402e-38
0.0413238129467 -0.12397143884 0.827 1.86933145076e-38
0.0428543245373 -0.12397143884 0.827 1.91542842491e-38
0.0440628179698 -0.123072008812 0.821 1.97071049011e-38
0.0454711847418 -0.122772198803 0.819 1.98907800973e-38
0.0469868908999 -0.122772198803 0.819 2.09967731272e-38
0.0483841535975 -0.122472388794 0.817 2.08123636505e-38
0.0498961583974 -0.122472388794 0.817 1.95209269858e-38
0.0512823170206 -0.122172578784 0.815 2.06265682898e-38
0.0527906204624 -0.122172578784 0.815 2.0720183435e-38
0.0542989239041 -0.122172578784 0.815 2.13676912255e-38
0.0556702770948 -0.121872768775 0.813 2.05375928438e-38
0.0571748791784 -0.121872768775 0.813 2.10903952789e-38
0.0586794812621 -0.121872768775 0.813 2.13644654364e-38
0.0601840833457 -0.121872768775 0.813 2.13651744934e-38
0.0615369297456 -0.121572958766 0.811 2.1642512479e-38
0.0630378304711 -0.121572958766 0.811 2.16403698936e-38
0.0645387311966 -0.121572958766 0.811 2.17325248858e-38
0.0660396319221 -0.121572958766 0.811 2.19173015027e-38
0.0675405326476 -0.121572958766 0.811 2.21946002519e-38
0.0690414333731 -0.121572958766 0.811 2.19180049545e-38
0.0705423340987 -0.121572958766 0.811 2.33005918804e-38
0.0720432348242 -0.121572958766 0.811 2.21931681248e-38
0.0735441355497 -0.121572958766 0.811 2.30211337303e-38
0.0750450362752 -0.121572958766 0.811 2.34835510131e-38
0.0765459370007 -0.121572958766 0.811 2.30218778198e-38
0.0780468377262 -0.121572958766 0.811 2.3114755882e-38
0.0795477384517 -0.121572958766 0.811 2.27477712284e-38
0.0812485125167 -0.121872768775 0.813 2.32991429378e-38
0.0827531146003 -0.121872768775 0.813 2.32058781172e-38
0.084257716684 -0.121872768775 0.813 2.28385347313e-38
0.0859732961816 -0.122172578784 0.815 2.34835398027e-38
0.0876962783954 -0.122472388794 0.817 2.34853054388e-38
0.0894266633256 -0.122772198803 0.819 2.34860579361e-38
0.091164450972 -0.123072008812 0.821 2.34871411398e-38
0.0926838584882 -0.123072008812 0.821 2.34878473942e-38
0.0942032660044 -0.123072008812 0.821 2.34871383372e-38
0.0957226735206 -0.123072008812 0.821 2.34896536679e-38
0.0972420810368 -0.123072008812 0.821 2.0537236914e-38
0.098761488553 -0.123072008812 0.821 2.35020873892e-38
0.100280896069 -0.123072008812 0.821 2.35069470923e-38
0.0299236298775 -0.125994231063 0.851 2.34957689344e-38
0.0312764762774 -0.12510590511 0.845 2.35029842202e-38
0.0328403000913 -0.12510590511 0.845 5.32896990401e-39
0.0342412641471 -0.124513687807 0.841 1.01349429913e-38
0.0357125540074 -0.124217579156 0.839 4.8005570687e-39
0.0370876085562 -0.123625361854 0.835 1.7509469539e-38
0.0385403916259 -0.123329253203 0.833 1.86036748461e-38
0.0399857719793 -0.123033144552 0.831 1.86007601453e-38
0.0414237496164 -0.122737035901 0.829 1.87858632647e-38
0.0428543245373 -0.122440927249 0.827 1.94290816806e-38
0.0441701573558 -0.121848709947 0.823 1.91517815301e-38
0.045582225486 -0.121552601296 0.821 1.95212927247e-38
0.0471016330022 -0.121552601296 0.821 2.00737448352e-38
0.0485025970579 -0.121256492645 0.819 1.98890032509e-38
0.050018303216 -0.121256492645 0.819 2.04436007493e-38
0.0514081631973 -0.120960383994 0.817 2.04436189662e-38
0.0529201679972 -0.120960383994 0.817 2.1274436214e-38
0.0542989239041 -0.120664275343 0.815 2.07212624348e-38
0.0558072273459 -0.120664275343 0.815 2.145814364e-38
0.0573155307877 -0.120664275343 0.815 2.08141811347e-38
0.0586794812621 -0.120368166691 0.813 2.15499469063e-38
0.0601840833457 -0.120368166691 0.813 2.19179937441e-38
0.0615369297456 -0.12007205804 0.811 2.15492280402e-38
0.0630378304711 -0.12007205804 0.811 2.21931653222e-38
0.0645387311966 -0.12007205804 0.811 2.20094873234e-38
0.0660396319221 -0.12007205804 0.811 2.20098502597e-38
0.0677070937639 -0.120368166691 0.813 2.24690361483e-38
0.0692116958476 -0.120368166691 0.813 2.2471180135e-38
0.0707162979312 -0.120368166691 0.813 2.26559287258e-38
0.0722209000148 -0.120368166691 0.813 2.26552098597e-38
0.0737255020985 -0.120368166691 0.813 2.34849705285e-38
0.0752301041821 -0.120368166691 0.813 2.24701109442e-38
0.0765459370007 -0.12007205804 0.811 2.24701109442e-38
0.0780468377262 -0.12007205804 0.811 2.31158432896e-38
0.0797439104331 -0.120368166691 0.813 2.27477684258e-38
0.0812485125167 -0.120368166691 0.813 2.32062256392e-38
0.0827531146003 -0.120368166691 0.813 2.34842656753e-38
0.0844649927398 -0.120664275343 0.815 2.34860537322e-38
0.0861842735955 -0.120960383994 0.817 2.3489287929e-38
0.0879109571675 -0.121256492645 0.819 2.3485700605e-38
0.0896450434558 -0.121552601296 0.821 2.34853306622e-38
0.091164450972 -0.121552601296 0.821 2.34860537322e-38
0.0929096413347 -0.121848709947 0.823 2.3488189311e-38
0.0942032660044 -0.121552601296 0.821 2.34892893303e-38
0.0957226735206 -0.121552601296 0.821 2.34925193233e-38
0.0972420810368 -0.121552601296 0.821 1.10500539469e-38
0.098761488553 -0.121552601296 0.821 2.35097244658e-38
0.100280896069 -0.121552601296 0.821 2.35076799714e-38
0.0299236298775 -0.124419303175 0.851 2.34943283996e-38
0.0314985577658 -0.124419303175 0.851 2.35040898447e-38
0.0329180286122 -0.123834488589 0.847 3.03057137321e-39
0.0343226940261 -0.123249674003 0.843 8.39115176798e-39
0.0357976852446 -0.12295726671 0.841 7.74897872074e-39
0.0371764411516 -0.122372452124 0.837 9.77474062232e-39
0.0386329255794 -0.122080044831 0.835 1.89792746826e-38
0.0399857719793 -0.121495230245 0.831 1.86951081696e-38
0.0414237496164 -0.121202822952 0.829 1.88762736403e-38
0.0428543245373 -0.120910415659 0.827 1.94283782287e-38
0.0442774967419 -0.120618008366 0.825 2.03514107246e-38
0.0456932662302 -0.120325601073 0.823 1.97993061362e-38
0.0471016330022 -0.12003319378 0.821 2.01659404651e-38
0.0485025970579 -0.119740786487 0.819 2.03514107246e-38
0.050018303216 -0.119740786487 0.819 2.01691648528e-38
0.0515340093741 -0.119740786487 0.819 2.00758986309e-38
0.0529201679972 -0.119448379194 0.817 2.12715425326e-38
0.0544321727972 -0.119448379194 0.817 2.20094845208e-38
0.0559441775971 -0.119448379194 0.817 2.05354460545e-38
0.0573155307877 -0.119155971901 0.815 2.16399915431e-38
0.0588238342295 -0.119155971901 0.815 2.16406977975e-38
0.0601840833457 -0.118863564608 0.813 2.14566400468e-38
0.0616886854293 -0.118863564608 0.813 2.18251086754e-38
0.063193287513 -0.118863564608 0.813 2.23768559327e-38
0.0646978895966 -0.118863564608 0.813 2.26530700769e-38
0.0662024916803 -0.118863564608 0.813 2.20091369988e-38
0.0677070937639 -0.118863564608 0.813 2.23764901938e-38
0.0692116958476 -0.118863564608 0.813 2.25623037715e-38
0.0707162979312 -0.118863564608 0.813 2.24719228231e-38
0.0722209000148 -0.118863564608 0.813 2.23779125118e-38
0.0737255020985 -0.118863564608 0.813 2.26530672743e-38
0.0752301041821 -0.118863564608 0.813 2.26537707262e-38
0.0767347062658 -0.118863564608 0.813 2.30239671558e-38
0.0782393083494 -0.118863564608 0.813 2.26548539299e-38
0.0799400824144 -0.119155971901 0.815 2.28385347313e-38
0.0814483858562 -0.119155971901 0.815 2.34853446751e-38
0.0831602639957 -0.119448379194 0.817 2.31151090092e-38
0.0848795448514 -0.119740786487 0.819 2.3483179669e-38
0.0866062284234 -0.12003319378 0.821 2.34878487955e-38
0.0881256359396 -0.12003319378 0.821 2.3486048127e-38
0.089863423586 -0.120325601073 0.823 2.34849579168e-38
0.0916086139487 -0.120618008366 0.825 2.34874900631e-38
0.0931354241812 -0.120618008366 0.825 2.34853558855e-38
0.094432750209 -0.120325601073 0.823 2.34928878648e-38
0.0959558590834 -0.120325601073 0.823 2.12798115949e-38
0.0974789679577 -0.120325601073 0.823 1.22629085963e-38
0.0990020768321 -0.120325601073 0.823 2.35098141489e-38
0.0300291185845 -0.123277434189 0.854 2.3497565399e-38
0.0314985577658 -0.122844375287 0.851 2.35030024371e-38
0.0329180286122 -0.122266963417 0.847 2.8469003809e-39
0.0344041239052 -0.121978257482 0.845 7.47314152583e-39
0.0357976852446 -0.121400845612 0.841 9.22409478557e-39
0.0371764411516 -0.120823433743 0.837 5.72465174879e-39
0.0386329255794 -0.120534727808 0.835 1.18930835108e-38
0.0400820072909 -0.120246021873 0.833 1.89782223075e-38
0.0414237496164 -0.119668610003 0.829 1.90624641673e-38
0.0429579625652 -0.119668610003 0.829 1.98908109259e-38
0.0442774967419 -0.119091198133 0.825 1.82327034985e-38
0.0458043069744 -0.119091198133 0.825 1.97063846337e-38
0.0472163751045 -0.118802492198 0.823 2.11793721261e-38
0.0486210405184 -0.118513786264 0.821 1.94305264193e-38
0.0501404480346 -0.118513786264 0.821 2.07212372114e-38
0.0516598555508 -0.118513786264 0.821 2.05350719078e-38
0.0530497155321 -0.118225080329 0.819 2.08091616836e-38
0.0545654216902 -0.118225080329 0.819 2.14552331431e-38
0.0560811278482 -0.118225080329 0.819 2.09964073883e-38
0.057456182397 -0.117936374394 0.817 2.14548786146e-38
0.0589681871969 -0.117936374394 0.817 2.20095027377e-38
0.0603321376713 -0.117647668459 0.815 2.09971430699e-38
0.0618404411131 -0.117647668459 0.815 2.1642512479e-38
0.0633487445548 -0.117647668459 0.815 2.21927827678e-38
0.0648570479966 -0.117647668459 0.815 2.20080537951e-38
0.0663653514384 -0.117647668459 0.815 2.22849952132e-38
0.0678736548802 -0.117647668459 0.815 2.265305186e-38
0.0692116958476 -0.117358962524 0.813 2.22857014676e-38
0.0707162979312 -0.117358962524 0.813 2.21938715767e-38
0.0723985652055 -0.117647668459 0.815 2.34845935792e-38
0.0739068686473 -0.117647668459 0.815 2.25619576508e-38
0.0754151720891 -0.117647668459 0.815 2.31136796847e-38
0.0769234755309 -0.117647668459 0.815 2.28385221196e-38
0.0786242495959 -0.117936374394 0.817 2.34860649426e-38
0.0801362543958 -0.117936374394 0.817 2.26545218221e-38
0.0816482591957 -0.117936374394 0.817 2.34871509489e-38
0.0833638386933 -0.118225080329 0.819 2.32087493778e-38
0.0848795448514 -0.118225080329 0.819 2.34849747323e-38
0.0866062284234 -0.118513786264 0.821 2.34867754009e-38
0.0883403147117 -0.118802492198 0.823 2.34878487955e-38
0.0900818037162 -0.119091198133 0.825 2.3487494267e-38
0.0916086139487 -0.119091198133 0.825 2.34903781392e-38
0.0933612070277 -0.119379904068 0.827 2.34914627442e-38
0.0946622344137 -0.119091198133 0.825 2.34928990752e-38
0.0961890446462 -0.119091198133 0.825 1.40031307124e-38
0.0977158548786 -0.119091198133 0.825 1.62312499214e-38
0.0992426651111 -0.119091198133 0.825 2.35080401051e-38
0.0300291185845 -0.121696954263 0.854 2.34968493355e-38
0.0314985577658 -0.121269447398 0.851 2.35015548958e-38
0.0329957571332 -0.120984442822 0.849 3.30607786169e-39
0.0344855537843 -0.120699438245 0.847 7.65931944109e-39
0.0358828164819 -0.120129429091 0.843 7.8408142169e-39
0.0372652737469 -0.119559419938 0.839 9.13440327606e-39
0.0386329255794 -0.118989410784 0.835 7.47454842948e-39
0.0400820072909 -0.118704406208 0.833 1.30905224759e-38
0.0415236862862 -0.118419401631 0.831 1.851794761e-38
0.0429579625652 -0.118134397054 0.829 1.91579024018e-38
0.0443848361279 -0.117849392478 0.827 1.96166973281e-38
0.0458043069744 -0.117564387901 0.825 1.92479316242e-38
0.0472163751045 -0.117279383324 0.823 1.99815464027e-38
0.0487394839789 -0.117279383324 0.823 2.02581417001e-38
0.0502625928532 -0.117279383324 0.823 2.15499441037e-38
0.0516598555508 -0.116994378747 0.821 2.02581360949e-38
0.053179263067 -0.116994378747 0.821 2.10871708911e-38
0.0545654216902 -0.116709374171 0.819 2.11822279724e-38
0.0560811278482 -0.116709374171 0.819 2.21027703609e-38
0.0575968340063 -0.116709374171 0.819 2.11800923936e-38
0.0591125401644 -0.116709374171 0.819 2.13666346464e-38
0.0604801919968 -0.116424369594 0.817 2.14588302763e-38
0.0619921967968 -0.116424369594 0.817 2.24711773324e-38
0.0633487445548 -0.116139365017 0.815 2.191585256e-38
0.0648570479966 -0.116139365017 0.815 2.26534232041e-38
0.0663653514384 -0.116139365017 0.815 2.26537609171e-38
0.0678736548802 -0.116139365017 0.815 2.3482790108e-38
0.069381958322 -0.116139365017 0.815 2.21931527105e-38
0.0708902617637 -0.116139365017 0.815 2.27456160314e-38
0.0725762303962 -0.116424369594 0.817 2.34871355346e-38
0.0740882351961 -0.116424369594 0.817 2.32998491922e-38
0.0756002399961 -0.116424369594 0.817 2.24697424027e-38
0.077112244796 -0.116424369594 0.817 2.34871285281e-38
0.0788167202191 -0.116709374171 0.819 2.29328687426e-38
0.0803324263772 -0.116709374171 0.819 2.34856711777e-38
0.0818481325353 -0.116709374171 0.819 2.34853474777e-38
0.083567413391 -0.116994378747 0.821 2.34871523502e-38
0.0850868209072 -0.116994378747 0.821 2.34871313307e-38
0.0868172058373 -0.117279383324 0.823 2.32080235052e-38
0.0885549934838 -0.117564387901 0.825 2.34874956683e-38
0.0903001838465 -0.117849392478 0.827 2.34856949998e-38
0.0918306954371 -0.117849392478 0.827 2.34878572033e-38
0.0933612070277 -0.117849392478 0.827 2.34889698343e-38
0.0948917186183 -0.117849392478 0.827 1.70406020793e-38
0.0964222302089 -0.117849392478 0.827 1.26341966375e-38
0.0979527417995 -0.117849392478 0.827 1.83478271738e-38
0.100686194785 -0.119274415361 0.837 2.35094652256e-38
0.0300291185845 -0.120116474338 0.854 2.34979339405e-38
0.0314985577658 -0.11969451951 0.851 2.35026395008e-38
0.0329957571332 -0.119413216291 0.849 3.12240686937e-39
0.0344855537843 -0.119131913073 0.847 7.56675667103e-39
0.0359679477191 -0.118850609854 0.845 8.57657438338e-39
0.0373541063422 -0.118288003417 0.841 7.56566646083e-39
0.0388179934863 -0.118006700199 0.839 9.68720991504e-39
0.0401782426026 -0.117444093761 0.835 7.10793652135e-39
0.041623622956 -0.117162790543 0.833 1.23576265634e-38
0.0429579625652 -0.116600184106 0.829 1.84271546799e-38
0.0443848361279 -0.116318880887 0.827 2.02620667371e-38
0.0459153477185 -0.116318880887 0.827 1.95245367307e-38
0.0473311172068 -0.116037577668 0.825 1.95216402467e-38
0.0488579274393 -0.116037577668 0.825 2.19169343625e-38
0.0503847376718 -0.116037577668 0.825 2.12733249843e-38
0.0517857017275 -0.11575627445 0.823 2.08113098741e-38
0.053179263067 -0.115474971231 0.821 2.10896736101e-38
0.0546986705832 -0.115474971231 0.821 2.10896736101e-38
0.0562180780994 -0.115474971231 0.821 2.0720183435e-38
0.0577374856156 -0.115474971231 0.821 2.15499441037e-38
0.0592568931318 -0.115474971231 0.821 2.09974933946e-38
0.0606282463224 -0.115193668013 0.819 2.17350640387e-38
0.0621439524805 -0.115193668013 0.819 2.16417964155e-38
0.0635042015967 -0.114912364794 0.817 2.24690109249e-38
0.0650162063966 -0.114912364794 0.817 2.30229287936e-38
0.0666910709547 -0.115193668013 0.819 2.25608562302e-38
0.0682067771127 -0.115193668013 0.819 2.21002340107e-38
0.0695522207964 -0.114912364794 0.817 2.26548567325e-38
0.0710642255963 -0.114912364794 0.817 2.34842544649e-38
0.0725762303962 -0.114912364794 0.817 2.21935184494e-38
0.0740882351961 -0.114912364794 0.817 2.24693920781e-38
0.0756002399961 -0.114912364794 0.817 2.34846230064e-38
0.0773010140611 -0.115193668013 0.819 2.34867627892e-38
0.0788167202191 -0.115193668013 0.819 2.24722731478e-38
0.0803324263772 -0.115193668013 0.819 2.2932518418e-38
0.0820480058748 -0.115474971231 0.821 2.3299496065e-38
0.0837709880887 -0.11575627445 0.823 2.3115436913e-38
0.085294096963 -0.11575627445 0.823 2.34853446751e-38
0.0870281832513 -0.116037577668 0.825 2.34860509296e-38
0.0885549934838 -0.116037577668 0.825 2.3487494267e-38
0.0903001838465 -0.116318880887 0.827 2.34918284831e-38
0.0920527769254 -0.116600184106 0.829 2.34914543364e-38
0.0935869898742 -0.116600184106 0.829 1.80562015491e-38
0.095121202823 -0.116600184106 0.829 1.38341565384e-38
0.0968886013345 -0.116881487324 0.831 1.01539207764e-38
0.0991371764041 -0.11772539698 0.837 2.35054322886e-38
0.100686194785 -0.11772539698 0.837 2.35076673597e-38
0.0300291185845 -0.118535994412 0.854 2.349433961e-38
0.0314985577658 -0.118119591622 0.851 2.35019094243e-38
0.0329957571332 -0.117841989761 0.849 3.58158435016e-39
0.0344855537843 -0.117564387901 0.847 7.84010095598e-39
0.0360530789563 -0.117564387901 0.847 7.93444898028e-39
0.0375317715329 -0.11728678604 0.845 8.21102606078e-39
0.0389105274398 -0.11673158232 0.841 7.75041365036e-39
0.0402744779142 -0.116176378599 0.837 9.31880854877e-39
0.0417235596257 -0.115898776738 0.835 7.66180674587e-39
0.043165238621 -0.115621174878 0.833 9.86836978051e-39
0.044492175514 -0.115065971157 0.829 1.81509153123e-38
0.0459153477185 -0.114788369296 0.827 1.94362843547e-38
0.0474458593092 -0.114788369296 0.827 2.03535743294e-38
0.0489763708998 -0.114788369296 0.827 2.02577605469e-38
0.0505068824904 -0.114788369296 0.827 2.09949752612e-38
0.0519115479043 -0.114510767436 0.825 2.06272661364e-38
0.0534383581368 -0.114510767436 0.825 2.1365552844e-38
0.0548319194762 -0.114233165575 0.823 2.07212652374e-38
0.0563550283506 -0.114233165575 0.823 2.19198210373e-38
0.0577374856156 -0.113955563715 0.821 2.14584547283e-38
0.0592568931318 -0.113955563715 0.821 2.1366984971e-38
0.060776300648 -0.113955563715 0.821 2.18272596685e-38
0.0621439524805 -0.113677961855 0.819 2.16428628036e-38
0.0636596586385 -0.113677961855 0.819 2.21960225698e-38
0.0651753647966 -0.113677961855 0.819 2.18258079233e-38
0.0666910709547 -0.113677961855 0.819 2.26530574652e-38
0.0682067771127 -0.113677961855 0.819 2.28381816041e-38
0.0697224832708 -0.113677961855 0.819 2.23800649062e-38
0.0712381894288 -0.113677961855 0.819 2.29307177495e-38
0.0727538955869 -0.113677961855 0.819 2.30235930091e-38
0.0744509682938 -0.113955563715 0.821 2.32991401352e-38
0.075785307903 -0.113677961855 0.819 2.3206581569e-38
0.0773010140611 -0.113677961855 0.819 2.34846174012e-38
0.0790091908424 -0.113955563715 0.821 2.28396137311e-38
0.0805285983586 -0.113955563715 0.821 2.34867627892e-38
0.0824477525538 -0.114510767436 0.825 2.33916888923e-38
0.0839745627863 -0.114510767436 0.825 2.34863998529e-38
0.0855013730188 -0.114510767436 0.825 2.34868034268e-38
0.0870281832513 -0.114510767436 0.825 2.34860509296e-38
0.0887696722558 -0.114788369296 0.827 2.34903753366e-38
0.0905185639767 -0.115065971157 0.829 2.34885746681e-38
0.0920527769254 -0.115065971157 0.829 1.76891790605e-38
0.0938127727207 -0.115343573017 0.831 1.38341565384e-38
0.0953506870276 -0.115343573017 0.831 1.14467923707e-38
0.09735497246 -0.115898776738 0.835 9.13870806494e-39
0.0991371764041 -0.116176378599 0.837 2.35054112692e-38
0.100686194785 -0.116176378599 0.837 2.3505898921e-38
0.0300291185845 -0.116955514487 0.854 2.34993590611e-38
0.03160959851 -0.116955514487 0.854 2.350406322e-38
0.0330734856541 -0.116544663733 0.851 3.58158435016e-39
0.0345669836633 -0.116270763231 0.849 8.02699773736e-39
0.0361382101935 -0.116270763231 0.849 7.93587830472e-39
0.0376206041283 -0.115996862729 0.847 7.66073054865e-39
0.0390030613933 -0.115449061724 0.843 7.84547773818e-39
0.0403707132258 -0.11490126072 0.839 7.38486532777e-39
0.0418234962955 -0.114627360217 0.837 7.20298799749e-39
0.0432688766489 -0.114353459715 0.835 7.2040669973e-39
0.044706854286 -0.114079559213 0.833 9.31807426837e-39
0.0460263884627 -0.113531758208 0.829 1.32721097374e-38
0.0475606014115 -0.113531758208 0.829 1.87048177667e-38
0.0489763708998 -0.113257857706 0.827 1.97132243715e-38
0.0505068824904 -0.113257857706 0.827 2.11836923293e-38
0.0519115479043 -0.112983957203 0.825 2.06279695882e-38
0.0534383581368 -0.112983957203 0.825 2.1272638348e-38
0.0549651683692 -0.112983957203 0.825 2.08134580646e-38
0.0563550283506 -0.112710056701 0.823 2.09978493244e-38
0.0578781372249 -0.112710056701 0.823 2.14562897222e-38
0.0594012460992 -0.112710056701 0.823 2.25633631531e-38
0.0609243549736 -0.112710056701 0.823 2.19201713619e-38
0.0622957081642 -0.112436156199 0.821 2.19191021712e-38
0.0638151156804 -0.112436156199 0.821 2.15503000335e-38
0.0653345231966 -0.112436156199 0.821 2.20084069223e-38
0.0668539307128 -0.112436156199 0.821 2.34842684779e-38
0.068373338229 -0.112436156199 0.821 2.22857561183e-38
0.0698927457452 -0.112436156199 0.821 2.24704752818e-38
0.0714121532614 -0.112436156199 0.821 2.34835426053e-38
0.0729315607776 -0.112436156199 0.821 2.22864203337e-38
0.0744509682938 -0.112436156199 0.821 2.348678521e-38
0.07597037581 -0.112436156199 0.821 2.30229133793e-38
0.0774897833262 -0.112436156199 0.821 2.30229161819e-38
0.0792016614656 -0.112710056701 0.823 2.34885858785e-38
0.08072477034 -0.112710056701 0.823 2.33005792687e-38
0.0826476258934 -0.113257857706 0.827 2.34871299294e-38
0.0839745627863 -0.112983957203 0.825 2.34871285281e-38
0.0855013730188 -0.112983957203 0.825 2.3490358521e-38
0.0872391606652 -0.113257857706 0.827 2.34892935342e-38
0.0887696722558 -0.113257857706 0.827 1.97157453074e-38
0.0905185639767 -0.113531758208 0.829 1.58495796599e-38
0.0922748584138 -0.11380565871 0.831 1.31909493329e-38
0.0940385555672 -0.114079559213 0.833 1.22772578926e-38
0.0955801712322 -0.114079559213 0.833 1.12616864488e-38
0.09735497246 -0.114353459715 0.835 9.5074849792e-39
0.0991371764041 -0.114627360217 0.837 2.35097987346e-38
0.100686194785 -0.114627360217 0.837 2.35044499784e-38
0.0314985577658 -0.114969735845 0.851 2.34986850365e-38
0.0330734856541 -0.114969735845 0.851 4.31626831943e-39
0.0346484135424 -0.114969735845 0.851 8.21030999727e-39
0.0362233414307 -0.114969735845 0.851 7.9358965216e-39
0.0377094367236 -0.114699536701 0.849 8.02878999809e-39
0.0390955953468 -0.114159138413 0.845 7.47777702115e-39
0.040563183849 -0.113888939268 0.843 6.74129938985e-39
0.0419234329653 -0.11334854098 0.839 7.29589969086e-39
0.0433725146768 -0.113078341836 0.837 7.48100561281e-39
0.0448141936721 -0.112808142692 0.835 7.38881138424e-39
0.0462484699511 -0.112537943548 0.833 7.84942379466e-39
0.0475606014115 -0.111997545259 0.829 1.04254812084e-38
0.0490948143602 -0.111997545259 0.829 1.41947877047e-38
0.050629027309 -0.111997545259 0.829 1.80594833901e-38
0.052037394081 -0.111727346115 0.827 2.04493446717e-38
0.0535679056716 -0.111727346115 0.827 2.15524678423e-38
0.0550984172622 -0.111727346115 0.827 2.09060264399e-38
0.0564919786017 -0.111457146971 0.825 2.21034976348e-38
0.0580187888342 -0.111457146971 0.825 2.18251086754e-38
0.0595455990667 -0.111457146971 0.825 2.13648339779e-38
0.0610724092991 -0.111457146971 0.825 2.18276099931e-38
0.0625992195316 -0.111457146971 0.825 2.19212307435e-38
0.0641260297641 -0.111457146971 0.825 2.18268883244e-38
0.0656528399966 -0.111457146971 0.825 2.22857140793e-38
0.0670167904709 -0.111186947827 0.823 2.3300942205e-38
0.068373338229 -0.110916748683 0.821 2.15488777156e-38
0.0698927457452 -0.110916748683 0.821 2.2471180135e-38
0.0715861170939 -0.111186947827 0.823 2.31151090092e-38
0.0731092259683 -0.111186947827 0.823 2.28381661898e-38
0.0744509682938 -0.110916748683 0.821 2.27488670438e-38
0.07597037581 -0.110916748683 0.821 2.26552098597e-38
0.0778673218564 -0.111457146971 0.825 2.31154775507e-38
0.0793941320889 -0.111457146971 0.825 2.32991457404e-38
0.0811171143028 -0.111727346115 0.827 2.34857132166e-38
0.0826476258934 -0.111727346115 0.827 2.34874900631e-38
0.084178137484 -0.111727346115 0.827 2.3118680919e-38
0.0857086490746 -0.111727346115 0.827 2.11886851557e-38
0.0872391606652 -0.111727346115 0.827 1.63105325859e-38
0.0889843510279 -0.111997545259 0.829 1.38355914681e-38
0.0907369441069 -0.112267744403 0.831 1.2274029301e-38
0.0922748584138 -0.112267744403 0.831 1.18137756229e-38
0.0942643384137 -0.112808142692 0.835 1.12631213784e-38
0.0958096554369 -0.112808142692 0.835 1.12616864488e-38
0.0975881580228 -0.113078341836 0.837 1.09822339038e-38
0.0991371764041 -0.113078341836 0.837 2.35098043398e-38
0.0299236298775 -0.113394807957 0.851 2.34982898704e-38
0.0314985577658 -0.113394807957 0.851 2.35011807491e-38
0.0330734856541 -0.113394807957 0.851 4.40810381558e-39
0.0346484135424 -0.113394807957 0.851 7.6582194218e-39
0.0362233414307 -0.113394807957 0.851 7.75113111518e-39
0.0377094367236 -0.113128310171 0.849 7.75292477721e-39
0.0390955953468 -0.112595314599 0.845 7.75364224203e-39
0.040563183849 -0.112328816813 0.843 7.29446756383e-39
0.042023369635 -0.112062319027 0.841 6.92784024142e-39
0.0434761527047 -0.111795821241 0.839 6.7441692491e-39
0.0449215330581 -0.111529323455 0.837 6.74524544632e-39
0.0463595106953 -0.111262825669 0.835 7.85049999188e-39
0.0477900856161 -0.110996327883 0.833 8.0345297166e-39
0.0492132578207 -0.110729830097 0.831 7.85193492151e-39
0.050629027309 -0.110463332311 0.829 9.59752681332e-39
0.0521632402577 -0.110463332311 0.829 1.2906524981e-38
0.0536974532065 -0.110463332311 0.829 1.71395771911e-38
0.0550984172622 -0.110196834524 0.827 1.860834117e-38
0.0566289288529 -0.110196834524 0.827 2.07259119431e-38
0.0581594404435 -0.110196834524 0.827 2.19226642719e-38
0.0596899520341 -0.110196834524 0.827 2.23818403514e-38
0.0612204636247 -0.110196834524 0.827 2.24736800514e-38
0.0627509752153 -0.110196834524 0.827 2.21056262072e-38
0.0641260297641 -0.109930336738 0.825 2.20134684124e-38
0.0656528399966 -0.109930336738 0.825 2.21034710101e-38
0.0671796502291 -0.109930336738 0.825 2.26562916621e-38
0.0687064604615 -0.109930336738 0.825 2.34875012735e-38
0.070233270694 -0.109930336738 0.825 2.33013079439e-38
0.0717600809265 -0.109930336738 0.825 2.29317715259e-38
0.073286891159 -0.109930336738 0.825 2.31158152636e-38
0.0746323348426 -0.109663838952 0.823 2.34860565348e-38
0.076155443717 -0.109663838952 0.823 2.3394941306e-38
0.0778673218564 -0.109930336738 0.825 2.32105570528e-38
0.0793941320889 -0.109930336738 0.825 2.32127094472e-38
0.0811171143028 -0.110196834524 0.827 2.06369729309e-38
0.0826476258934 -0.110196834524 0.827 1.85214900925e-38
0.084178137484 -0.110196834524 0.827 1.57598671309e-38
0.0859159251304 -0.110463332311 0.829 1.45691992401e-38
0.0876611154931 -0.110729830097 0.831 1.23665822619e-38
0.0891990298 -0.110729830097 0.831 9.88056668234e-39
0.0909553242371 -0.110996327883 0.833 1.09872561575e-38
0.0927190213905 -0.111262825669 0.835 1.08017915032e-38
0.0944901212602 -0.111529323455 0.837 1.19077635135e-38
0.0962686238461 -0.111795821241 0.839 1.17215813944e-38
0.0978213435856 -0.111795821241 0.839 1.30991180406e-38
0.0993740633251 -0.111795821241 0.839 2.35097903269e-38
0.0301697701938 -0.112739667566 0.858 2.34958263877e-38
0.0317576528356 -0.112739667566 0.858 2.34964793927e-38
0.0330734856541 -0.111819880069 0.851 4.86728129637e-39
0.0346484135424 -0.111819880069 0.851 8.30286155694e-39
0.0362233414307 -0.111819880069 0.851 7.84440714616e-39
0.0377094367236 -0.111557083641 0.849 8.12170169147e-39
0.0391881293003 -0.111294287213 0.847 7.11115250133e-39
0.0406594191607 -0.111031490785 0.845 7.29518222605e-39
0.0421233063048 -0.110768694357 0.843 7.48100561281e-39
0.0434761527047 -0.110243101501 0.839 7.20478165952e-39
0.0449215330581 -0.109980305073 0.837 7.02290432924e-39
0.0464705514394 -0.109980305073 0.837 7.48495166928e-39
0.0479048277184 -0.109717508645 0.835 7.574634771e-39
0.0493317012812 -0.109454712218 0.833 6.93071010067e-39
0.0507511721276 -0.10919191579 0.831 7.30056321215e-39
0.0521632402577 -0.108929119362 0.829 7.48423420447e-39
0.0536974532065 -0.108929119362 0.829 8.03668211104e-39
0.0552316661553 -0.108929119362 0.829 1.11612413749e-38
0.056765879104 -0.108929119362 0.829 1.29040488866e-38
0.0583000920528 -0.108929119362 0.829 1.56659521079e-38
0.0596899520341 -0.108666322934 0.827 1.7230406555e-38
0.0612204636247 -0.108666322934 0.827 1.94412855889e-38
0.0627509752153 -0.108666322934 0.827 1.97153767659e-38
0.064281486806 -0.108666322934 0.827 2.03603930478e-38
0.0658119983966 -0.108666322934 0.827 2.09128605725e-38
0.0673425099872 -0.108666322934 0.827 2.13741904477e-38
0.0687064604615 -0.108403526506 0.825 2.09121178843e-38
0.070233270694 -0.108403526506 0.825 2.1925190813e-38
0.0717600809265 -0.108403526506 0.825 2.09114018208e-38
0.073286891159 -0.108403526506 0.825 2.09110613053e-38
0.0748137013915 -0.108403526506 0.825 1.9714997014e-38
0.0763405116239 -0.108403526506 0.825 1.8702621932e-38
0.0780560911215 -0.108666322934 0.827 1.7876808721e-38
0.0795866027121 -0.108666322934 0.827 1.48365025274e-38
0.0811171143028 -0.108666322934 0.827 1.30919391886e-38
0.0828474992329 -0.108929119362 0.829 1.12602515192e-38
0.0843817121817 -0.108929119362 0.829 1.034225529e-38
0.0861232011862 -0.10919191579 0.831 1.01589430301e-38
0.0878720929071 -0.109454712218 0.833 1.034225529e-38
0.0894137085721 -0.109454712218 0.833 1.02507785262e-38
0.0911737043673 -0.109717508645 0.835 1.0802508968e-38
0.0929411028789 -0.109980305073 0.837 1.10783741889e-38
0.0944901212602 -0.109980305073 0.837 1.20914345059e-38
0.0962686238461 -0.110243101501 0.839 1.04308621945e-38
0.0978213435856 -0.110243101501 0.839 1.79825997486e-38
0.0993740633251 -0.110243101501 0.839 2.35098365697e-38
0.0301697701938 -0.111151784924 0.858 2.34979395457e-38
0.0317576528356 -0.111151784924 0.858 2.22964746502e-38
0.0331900784355 -0.110633594785 0.854 5.88034161337e-39
0.034770558361 -0.110633594785 0.854 7.38271293333e-39
0.0363510382865 -0.110633594785 0.854 7.47634209152e-39
0.037798269319 -0.11024495218 0.851 7.93659576953e-39
0.0392806632538 -0.109985857111 0.849 7.38522406017e-39
0.0406594191607 -0.109467666971 0.845 7.20262926508e-39
0.0421233063048 -0.109208571901 0.843 7.29589969086e-39
0.0435797907326 -0.108949476832 0.841 6.92748150901e-39
0.0450288724442 -0.108690381762 0.839 6.47117388748e-39
0.0465815921836 -0.108690381762 0.839 6.74703910836e-39
0.0479048277184 -0.108172191622 0.835 7.02218686442e-39
0.0493317012812 -0.107913096553 0.833 7.02362179405e-39
0.0507511721276 -0.107654001483 0.831 7.30056321215e-39
0.0522890864345 -0.107654001483 0.831 7.57571096822e-39
0.0536974532065 -0.107394906413 0.829 7.76153435498e-39
0.0552316661553 -0.107394906413 0.829 7.66898139401e-39
0.056765879104 -0.107394906413 0.829 8.03668211104e-39
0.0583000920528 -0.107394906413 0.829 7.94377041767e-39
0.0598343050015 -0.107394906413 0.829 8.31326479674e-39
0.0613685179503 -0.107394906413 0.829 1.03361568391e-38
0.062902730899 -0.107394906413 0.829 1.09768529177e-38
0.0644369438478 -0.107394906413 0.829 1.15300182891e-38
0.0658119983966 -0.107135811343 0.827 1.20813899985e-38
0.0673425099872 -0.107135811343 0.827 1.23547440925e-38
0.0688730215778 -0.107135811343 0.827 1.33688806067e-38
0.0704035331684 -0.107135811343 0.827 1.24472970535e-38
0.071934044759 -0.107135811343 0.827 1.2171790565e-38
0.0734645563497 -0.107135811343 0.827 1.18051660452e-38
0.0749950679403 -0.107135811343 0.827 1.26367077643e-38
0.0765255795309 -0.107135811343 0.827 1.10729932028e-38
0.0780560911215 -0.107135811343 0.827 1.09833101011e-38
0.0797790733354 -0.107394906413 0.829 1.09851037631e-38
0.0813132862841 -0.107394906413 0.829 1.04337320537e-38
0.0832472459119 -0.107913096553 0.833 8.776388334e-39
0.084788861577 -0.107913096553 0.833 8.96041805873e-39
0.086330477242 -0.107913096553 0.833 9.51501835974e-39
0.088083070321 -0.108172191622 0.835 1.03447664168e-38
0.0896283873442 -0.108172191622 0.835 1.01585842977e-38
0.0913920844976 -0.108431286692 0.837 1.10780154565e-38
0.0931631843672 -0.108690381762 0.839 1.19056111191e-38
0.0947159041067 -0.108690381762 0.839 1.20903611112e-38
0.0964981080508 -0.108949476832 0.841 1.02457562725e-38
0.0980545291484 -0.108949476832 0.841 2.22171765714e-38
0.03160959851 -0.109053114859 0.854 1.94387828698e-38
0.0331900784355 -0.109053114859 0.854 6.8015664342e-39
0.034770558361 -0.109053114859 0.854 7.84477008246e-39
0.0363510382865 -0.109053114859 0.854 7.75292477721e-39
0.037798269319 -0.108670024292 0.851 7.84547773818e-39
0.0392806632538 -0.10841463058 0.849 8.12458135982e-39
0.0407556544723 -0.108159236869 0.847 7.02039320239e-39
0.0422232429745 -0.107903843157 0.845 7.66611153475e-39
0.0436834287605 -0.107648449446 0.843 7.29733742309e-39
0.0451362118302 -0.107393055734 0.841 6.93071010067e-39
0.0465815921836 -0.107137662022 0.839 7.02290432924e-39
0.0480195698208 -0.106882268311 0.837 7.57606970063e-39
0.0494501447416 -0.106626874599 0.835 7.11545729021e-39
0.0508733169462 -0.106371480887 0.833 7.20765151877e-39
0.0522890864345 -0.106116087176 0.831 7.30092194456e-39
0.0538270007414 -0.106116087176 0.831 7.39311617313e-39
0.0552316661553 -0.105860693464 0.829 7.30092194456e-39
0.056765879104 -0.105860693464 0.829 7.66934012641e-39
0.0584407436621 -0.106116087176 0.831 8.12959380442e-39
0.0598343050015 -0.105860693464 0.829 8.59128241206e-39
0.0613685179503 -0.105860693464 0.829 6.93357995993e-39
0.062902730899 -0.105860693464 0.829 7.57929829229e-39
0.0644369438478 -0.105860693464 0.829 7.02577418849e-39
0.0659711567966 -0.105860693464 0.829 7.85623971039e-39
0.0675053697453 -0.105860693464 0.829 7.85623971039e-39
0.0688730215778 -0.105605299753 0.827 8.77746453123e-39
0.0704035331684 -0.105605299753 0.827 9.05368848451e-39
0.071934044759 -0.105605299753 0.827 8.8703762246e-39
0.0734645563497 -0.105605299753 0.827 8.50016438072e-39
0.0749950679403 -0.105605299753 0.827 9.0529710197e-39
0.0765255795309 -0.105605299753 0.827 9.05368848451e-39
0.0780560911215 -0.105605299753 0.827 8.96113552354e-39
0.0797790733354 -0.105860693464 0.829 9.14516524826e-39
0.0813132862841 -0.105860693464 0.829 8.96113552354e-39
0.0832472459119 -0.106371480887 0.833 9.42246539877e-39
0.084788861577 -0.106371480887 0.833 1.00667488015e-38
0.0867450293536 -0.106882268311 0.837 9.789448651e-39
0.0882940477349 -0.106882268311 0.837 9.88271907678e-39
0.0898430661163 -0.106882268311 0.837 1.09890498196e-38
0.091828844758 -0.107393055734 0.841 1.13560330718e-38
0.0931631843672 -0.107137662022 0.839 1.15386390773e-38
0.0947159041067 -0.107137662022 0.839 1.20914345059e-38
0.0964981080508 -0.107393055734 0.841 9.69189025191e-39
0.0980545291484 -0.107393055734 0.841 2.35097216632e-38
0.0318316799983 -0.108227711994 0.86 1.54722197926e-38
0.0334232639983 -0.108227711994 0.86 8.46500860484e-39
0.03485198824 -0.107724327287 0.856 7.75328350962e-39
0.0363510382865 -0.107472634934 0.854 7.66288294309e-39
0.037931518212 -0.107472634934 0.854 7.29589969086e-39
0.0392806632538 -0.10684340405 0.849 6.74309305188e-39
0.0407556544723 -0.106591711697 0.847 7.39060504628e-39
0.0422232429745 -0.106340019343 0.845 6.83743967489e-39
0.0436834287605 -0.10608832699 0.843 6.92784024142e-39
0.0451362118302 -0.105836634636 0.841 7.48279927484e-39
0.0465815921836 -0.105584942283 0.839 7.48136434521e-39
0.0480195698208 -0.105333249929 0.837 7.1150985578e-39
0.0494501447416 -0.105081557576 0.835 7.20765151877e-39
0.0508733169462 -0.104829865222 0.833 7.20765151877e-39
0.0524149326112 -0.104829865222 0.833 7.48495166928e-39
0.0539565482763 -0.104829865222 0.833 7.39311617313e-39
0.0553649150483 -0.104578172869 0.831 7.30092194456e-39
0.0569028293552 -0.104578172869 0.831 7.4860278665e-39
0.0584407436621 -0.104578172869 0.831 7.39419237035e-39
0.059978657969 -0.104578172869 0.831 8.13067000164e-39
0.0615165722759 -0.104578172869 0.831 7.48638659891e-39
0.062902730899 -0.104326480515 0.829 8.49980564831e-39
0.0644369438478 -0.104326480515 0.829 7.57929829229e-39
0.0659711567966 -0.104326480515 0.829 7.57929829229e-39
0.0675053697453 -0.104326480515 0.829 8.40904634937e-39
0.0690395826941 -0.104326480515 0.829 8.77674706641e-39
0.0705737956428 -0.104326480515 0.829 7.39634476479e-39
0.071934044759 -0.104074788162 0.827 8.68706396469e-39
0.0734645563497 -0.104074788162 0.827 8.40904634937e-39
0.0749950679403 -0.104074788162 0.827 8.04098689993e-39
0.0767106474379 -0.104326480515 0.829 8.31685212081e-39
0.0782448603866 -0.104326480515 0.829 9.14552398067e-39
0.0799715439586 -0.104578172869 0.831 9.23807694164e-39
0.0817056302469 -0.104829865222 0.833 9.23807694164e-39
0.0834471192515 -0.105081557576 0.835 9.23807694164e-39
0.0849924362746 -0.105081557576 0.835 9.42103046915e-39
0.0867450293536 -0.105333249929 0.837 1.03415378252e-38
0.0882940477349 -0.105333249929 0.837 1.0249702329e-38
0.0900577448883 -0.105584942283 0.839 1.07128258663e-38
0.0920472248882 -0.10608832699 0.843 1.10798091185e-38
0.0933852658556 -0.105836634636 0.841 1.19077635135e-38
0.0949416869532 -0.105836634636 0.841 1.19081572784e-38
0.0967275922554 -0.10608832699 0.843 9.97024978406e-39
0.0318316799983 -0.106636127994 0.86 1.13223122255e-38
0.0334232639983 -0.106636127994 0.86 7.64102128575e-39
0.03485198824 -0.106140146004 0.856 9.13476200847e-39
0.0364361695237 -0.106140146004 0.856 7.29159490198e-39
0.037931518212 -0.105892155008 0.854 7.01788207554e-39
0.0393731972073 -0.105520168515 0.851 7.29591230255e-39
0.0408518897839 -0.10527217752 0.849 7.02146939961e-39
0.0422232429745 -0.104776195529 0.845 7.11332311265e-39
0.0437870667884 -0.104776195529 0.845 7.20478165952e-39
0.0452435512162 -0.104528204534 0.843 7.48028814799e-39
0.0466926329278 -0.104280213539 0.841 7.94412915007e-39
0.0481343119231 -0.104032222543 0.839 7.48245455542e-39
0.0495685882021 -0.103784231548 0.837 7.20836898359e-39
0.0511176065834 -0.103784231548 0.837 6.38041458854e-39
0.052540778788 -0.103536240553 0.835 7.4856691341e-39
0.0540860958111 -0.103536240553 0.835 7.39311617313e-39
0.0554981639413 -0.103288249557 0.833 7.39383363794e-39
0.0570397796063 -0.103288249557 0.833 7.39383363794e-39
0.0585813952714 -0.103288249557 0.833 7.21052137803e-39
0.0601230109364 -0.103288249557 0.833 7.57929829229e-39
0.0616646266014 -0.103288249557 0.833 7.94699900933e-39
0.0630544865828 -0.103040258562 0.831 7.85444604836e-39
0.0645924008897 -0.103040258562 0.831 7.57929829229e-39
0.0661303151966 -0.103040258562 0.831 8.04026943511e-39
0.0676682295035 -0.103040258562 0.831 7.7626105522e-39
0.0690395826941 -0.102792267567 0.829 8.13174619886e-39
0.0705737956428 -0.102792267567 0.829 8.22465789224e-39
0.071934044759 -0.102544276571 0.827 8.59235860928e-39
0.0734645563497 -0.102544276571 0.827 8.40904634937e-39
0.0749950679403 -0.102544276571 0.827 8.31756958562e-39
0.0768957153448 -0.103040258562 0.831 8.2275277515e-39
0.0786223989168 -0.103288249557 0.833 8.68670523229e-39
0.0801640145819 -0.103288249557 0.833 9.33098863502e-39
0.0819018022283 -0.103536240553 0.835 8.13210493127e-39
0.0834471192515 -0.103536240553 0.835 9.70012428169e-39
0.0851960109723 -0.103784231548 0.837 9.789448651e-39
0.0867450293536 -0.103784231548 0.837 1.02489848642e-38
0.0882940477349 -0.103784231548 0.837 1.0802508968e-38
0.0900577448883 -0.104032222543 0.839 1.08947031966e-38
0.0916104646278 -0.104032222543 0.839 1.12624095188e-38
0.0944956732974 -0.105520168515 0.851 1.14471511031e-38
0.0960706011857 -0.105520168515 0.851 1.1724809986e-38
0.0318316799983 -0.105044543995 0.86 1.15985361788e-38
0.0334232639983 -0.105044543995 0.86 8.01590225612e-39
0.0349334181191 -0.104800254357 0.858 9.31915607079e-39
0.0364361695237 -0.10455596472 0.856 8.12102906821e-39
0.0380203508073 -0.10455596472 0.856 7.66180674587e-39
0.0395119981375 -0.104311675083 0.854 7.02003446998e-39
0.0409481250955 -0.103945240627 0.851 7.02003446998e-39
0.0423231796443 -0.103456661353 0.847 7.57319984137e-39
0.0437870667884 -0.103212371716 0.845 7.57355857378e-39
0.0452435512162 -0.102968082078 0.843 7.57535223581e-39
0.046803673672 -0.102968082078 0.843 7.66611153475e-39
0.0481343119231 -0.102479502804 0.839 7.29876955012e-39
0.0495685882021 -0.102235213167 0.837 7.94592281211e-39
0.0511176065834 -0.102235213167 0.837 6.93286249511e-39
0.0526666249647 -0.102235213167 0.837 7.48531040169e-39
0.0540860958111 -0.10199092353 0.835 7.48531040169e-39
0.0556314128343 -0.10199092353 0.835 7.39347490553e-39
0.0571767298575 -0.10199092353 0.835 7.30163940937e-39
0.0587220468807 -0.10199092353 0.835 7.67005759123e-39
0.0602673639038 -0.10199092353 0.835 7.94592281211e-39
0.0616646266014 -0.101746633892 0.833 8.13174619886e-39
0.0632062422665 -0.101746633892 0.833 7.94664027692e-39
0.0647478579315 -0.101746633892 0.833 8.0395519703e-39
0.0662894735965 -0.101746633892 0.833 7.76332801701e-39
0.0678310892616 -0.101746633892 0.833 8.22394042743e-39
0.0693727049266 -0.101746633892 0.833 8.22429915984e-39
0.0705737956428 -0.101258054618 0.829 8.59271734169e-39
0.0721080085916 -0.101258054618 0.829 8.77674706641e-39
0.0736422215403 -0.101258054618 0.829 8.03991070271e-39
0.0753578010379 -0.101502344255 0.831 8.8700174922e-39
0.0768957153448 -0.101502344255 0.831 8.40870443255e-39
0.0786223989168 -0.101746633892 0.833 8.59486973613e-39
0.0803564852051 -0.10199092353 0.835 8.86966436498e-39
0.0820979742097 -0.102235213167 0.837 9.33027117021e-39
0.083646992591 -0.102235213167 0.837 9.6064951235e-39
0.0851960109723 -0.102235213167 0.837 1.01603779597e-38
0.0869523054094 -0.102479502804 0.839 1.0434808251e-38
0.0885050251489 -0.102479502804 0.839 1.08954206614e-38
0.0902724236604 -0.102723792441 0.841 1.04340907861e-38
0.0929207454091 -0.103945240627 0.851 1.09861813616e-38
0.0944956732974 -0.103945240627 0.851 1.25531315213e-38
0.0319057071611 -0.103693548274 0.862 1.11368601829e-38
0.0335009925192 -0.103693548274 0.862 8.29390165456e-39
0.0349334181191 -0.103212371716 0.858 6.92532911457e-39
0.0365213007609 -0.103212371716 0.858 7.56853632008e-39
0.0381091834027 -0.103212371716 0.858 7.29554095846e-39
0.0395119981375 -0.102731195157 0.854 7.02003446998e-39
0.0409481250955 -0.102370312739 0.851 7.48028814799e-39
0.0424231163141 -0.10212972446 0.849 7.11294616336e-39
0.0438907048163 -0.101889136181 0.847 7.02254559683e-39
0.0453508906023 -0.101648547902 0.845 7.20765151877e-39
0.046803673672 -0.101407959623 0.843 7.29698709847e-39
0.0482490540254 -0.101167371344 0.841 7.57391730619e-39
0.0496870316625 -0.100926783065 0.839 7.29948701493e-39
0.0511176065834 -0.100686194785 0.837 7.11617475502e-39
0.0526666249647 -0.100686194785 0.837 7.30056321215e-39
0.054215643346 -0.100686194785 0.837 7.76153435498e-39
0.0556314128343 -0.100445606506 0.835 7.76153435498e-39
0.0571767298575 -0.100445606506 0.835 7.57858082748e-39
0.0587220468807 -0.100445606506 0.835 8.12995253683e-39
0.0602673639038 -0.100445606506 0.835 7.85372858354e-39
0.061812680927 -0.100445606506 0.835 7.66969885882e-39
0.0633579979502 -0.100445606506 0.835 8.03883450549e-39
0.0647478579315 -0.100205018227 0.833 7.85408731595e-39
0.0662894735965 -0.100205018227 0.833 7.76368674942e-39
0.0679939490197 -0.100445606506 0.835 7.8569571752e-39
0.0695392660429 -0.100445606506 0.835 8.22501662465e-39
0.0709143205917 -0.100205018227 0.833 8.3164933884e-39
0.0724559362567 -0.100205018227 0.833 8.5930760741e-39
0.0739975519217 -0.100205018227 0.833 8.59379353891e-39
0.0755391675868 -0.100205018227 0.833 8.31685212081e-39
0.0772658511588 -0.100445606506 0.835 9.14552398067e-39
0.0788111681819 -0.100445606506 0.835 9.0529710197e-39
0.0803564852051 -0.100445606506 0.835 9.14588271308e-39
0.0820979742097 -0.100686194785 0.837 9.79160104544e-39
0.0838468659305 -0.100926783065 0.839 9.88307780919e-39
0.08539958567 -0.100926783065 0.839 9.51466102864e-39
0.0869523054094 -0.100926783065 0.839 1.00674662663e-38
0.0889269799768 -0.101407959623 0.843 1.05287961416e-38
0.0907017812046 -0.101648547902 0.845 1.0895061929e-38
0.0929207454091 -0.102370312739 0.851 1.19077677174e-38
0.0944956732974 -0.102370312739 0.851 1.22768991602e-38
0.0335009925192 -0.102098262916 0.862 8.19811169414e-39
0.0350148479982 -0.101861375995 0.86 7.84511900578e-39
0.0366064319981 -0.101861375995 0.86 7.846195203e-39
0.038198015998 -0.101861375995 0.86 6.83528728045e-39
0.0396970660444 -0.101624489074 0.858 7.38845265184e-39
0.041092478063 -0.101150715232 0.854 7.38881138424e-39
0.0426729579885 -0.101150715232 0.854 7.02218686442e-39
0.0440979808721 -0.100795384851 0.851 7.66719613976e-39
0.0455655693744 -0.10055849793 0.849 6.74739784076e-39
0.0470257551603 -0.100321611009 0.847 7.20765151877e-39
0.0483637961277 -0.0998478371669 0.843 7.48315800725e-39
0.0499239185834 -0.0998478371669 0.843 8.77351847475e-39
0.051239751402 -0.0993740633251 0.839 7.29984574734e-39
0.0527924711414 -0.0993740633251 0.839 7.39311617313e-39
0.054215643346 -0.0991371764041 0.837 7.30128067697e-39
0.0557646617273 -0.0991371764041 0.837 8.03668211104e-39
0.0573136801086 -0.0991371764041 0.837 7.85336985114e-39
0.05886269849 -0.0991371764041 0.837 7.39383363794e-39
0.0604117168713 -0.0991371764041 0.837 7.57786336266e-39
0.061812680927 -0.0989002894832 0.835 9.05261228729e-39
0.0633579979502 -0.0989002894832 0.835 9.32847750817e-39
0.0649033149734 -0.0989002894832 0.835 8.0395519703e-39
0.0664486319965 -0.0989002894832 0.835 8.22429915984e-39
0.0679939490197 -0.0989002894832 0.835 8.22429915984e-39
0.0695392660429 -0.0989002894832 0.835 8.31541719118e-39
0.0710845830661 -0.0989002894832 0.835 8.68455283785e-39
0.0724559362567 -0.0986634025623 0.833 8.40904634937e-39
0.0739975519217 -0.0986634025623 0.833 8.13425732571e-39
0.0757205341356 -0.0989002894832 0.835 8.96113552354e-39
0.0774509190657 -0.0991371764041 0.837 9.41995427192e-39
0.078999937447 -0.0991371764041 0.837 9.32776004336e-39
0.0807414264516 -0.0993740633251 0.839 9.42138920155e-39
0.0824903181724 -0.099610950246 0.841 9.51394216252e-39
0.0842466126096 -0.0998478371669 0.843 9.51501835974e-39
0.0856031603676 -0.099610950246 0.841 1.00667488015e-38
0.0871595814652 -0.099610950246 0.841 1.05277199443e-38
0.0891379573907 -0.100084724088 0.845 1.05277199443e-38
0.091882514451 -0.101387602153 0.856 1.09868974251e-38
