# .PCD v0.7 - Point Cloud Data file format
VERSION 0.7
FIELDS x y z rgb
SIZE 4 4 4 4
TYPE F F F F
COUNT 1 1 1 1
WIDTH 850
HEIGHT 1
VIEWPOINT 0 0 0 1 0 0 0
POINTS 850
DATA ascii
0.0531940684996 -0.0274030049846 0.871 2.34914347183e-38
0.0552464715878 -0.0276232357939 0.878 2.34914319157e-38
0.0570009153459 -0.0276861588823 0.88 2.34960912331e-38
0.0586295129272 -0.0276861588823 0.88 2.349827866e-38
0.0603950607596 -0.0277490819706 0.882 1.74139472266e-38
0.0620273596991 -0.0277490819706 0.882 1.40239259817e-38
0.0640205410571 -0.0279063896916 0.887 1.31956128542e-38
0.0656620933919 -0.0279063896916 0.887 1.05234151554e-38
0.00491355292998 -0.0262056156265 0.885 1.09725481288e-38
0.00818925488329 -0.0262056156265 0.885 8.8599729848e-39
0.0097937936367 -0.0261167830312 0.882 1.3460364377e-38
0.0114260925761 -0.0261167830312 0.882 2.13713388054e-38
0.0130287806505 -0.026057561301 0.88 2.24718681725e-38
0.0145740976737 -0.0259095069754 0.875 2.1827214827e-38
0.0161564282782 -0.0258502852452 0.873 2.25640806179e-38
0.0177313561665 -0.0257910635149 0.871 2.31183067723e-38
0.0192988813385 -0.0257318417847 0.869 2.21938365442e-38
0.0209071214501 -0.0257318417847 0.869 2.3482790108e-38
0.0225153615616 -0.0257318417847 0.869 2.34841801961e-38
0.0241236016732 -0.0257318417847 0.869 2.34834879547e-38
0.0256726200545 -0.0256726200545 0.867 2.34867347632e-38
0.0272771588079 -0.0256726200545 0.867 2.34853026362e-38
0.0288816975613 -0.0256726200545 0.867 2.34863914451e-38
0.0304862363147 -0.0256726200545 0.867 2.34838635027e-38
0.0320907750681 -0.0256726200545 0.867 2.34896438588e-38
0.0336953138215 -0.0256726200545 0.867 2.34881795019e-38
0.0352998525749 -0.0256726200545 0.867 2.34892613043e-38
0.0369895225655 -0.0257318417847 0.869 2.34895864056e-38
0.0385977626771 -0.0257318417847 0.869 2.34906878262e-38
0.0402060027886 -0.0257318417847 0.869 2.34896032212e-38
0.0418142429001 -0.0257318417847 0.869 2.34924926986e-38
0.0435224196815 -0.0257910635149 0.871 2.34896298458e-38
0.0451343611511 -0.0257910635149 0.871 2.34900180055e-38
0.0467463026208 -0.0257910635149 0.871 2.3490348712e-38
0.0483582440905 -0.0257910635149 0.871 2.34925067116e-38
0.0500849276625 -0.0258502852452 0.873 2.34928500297e-38
0.0517005704903 -0.0258502852452 0.873 2.3492865444e-38
0.0537437201832 -0.026057561301 0.88 2.34953695644e-38
0.0553723177646 -0.026057561301 0.88 2.34986191755e-38
0.0571304628807 -0.0261167830312 0.882 2.34936011257e-38
0.0587627618202 -0.0261167830312 0.882 1.68608098811e-38
0.0603950607596 -0.0261167830312 0.882 1.34682494834e-38
0.062238337113 -0.0262056156265 0.885 1.20917932383e-38
0.0640205410571 -0.0262648373568 0.887 1.31970477838e-38
0.0658101477175 -0.026324059087 0.889 9.6954607604e-39
0.00822626846469 -0.0246788053941 0.889 9.7790454112e-39
0.00984931400879 -0.024623285022 0.887 7.75902322813e-39
0.0114908663436 -0.024623285022 0.887 1.32766919833e-38
0.0130583915156 -0.0244844840917 0.882 2.13745001347e-38
0.0146240660085 -0.0243734433476 0.878 2.23815124475e-38
0.0162489622317 -0.0243734433476 0.878 2.32998463896e-38
0.0178127860456 -0.0242901627894 0.875 2.21949253531e-38
0.0193432976362 -0.0241791220453 0.871 2.27463194832e-38
0.0209552391059 -0.0241791220453 0.871 2.34860565348e-38
0.0225671805756 -0.0241791220453 0.871 2.32076325429e-38
0.0241236016732 -0.0241236016732 0.869 2.34856501582e-38
0.0257318417847 -0.0241236016732 0.869 2.3487090693e-38
0.0273400818963 -0.0241236016732 0.869 2.31154593338e-38
0.0289483220078 -0.0241236016732 0.869 2.34885704642e-38
0.0305565621193 -0.0241236016732 0.869 2.34877913423e-38
0.0321648022309 -0.0241236016732 0.869 2.34871061073e-38
0.0337730423424 -0.0241236016732 0.869 2.3484601987e-38
0.035381282454 -0.0241236016732 0.869 2.34889179862e-38
0.0369895225655 -0.0241236016732 0.869 2.34889179862e-38
0.0385977626771 -0.0241236016732 0.869 2.3489649464e-38
0.0402060027886 -0.0241236016732 0.869 2.34903851457e-38
0.0418142429001 -0.0241236016732 0.869 2.34878375851e-38
0.0436223563512 -0.0242346424173 0.873 2.34914319157e-38
0.045237999179 -0.0242346424173 0.873 2.34932157686e-38
0.0469609813929 -0.0242901627894 0.875 2.34914122975e-38
0.0487468866951 -0.0243734433476 0.878 2.34917682273e-38
0.0504865250206 -0.0244289637197 0.88 2.34935646919e-38
0.0521151226019 -0.0244289637197 0.88 2.34939374373e-38
0.0537437201832 -0.0244289637197 0.88 2.34975345705e-38
0.0554981639413 -0.0244844840917 0.882 2.34917906481e-38
0.0573247841831 -0.0245677646499 0.885 1.6495592265e-38
0.0590958840527 -0.024623285022 0.887 1.40239259817e-38
0.0607374363875 -0.024623285022 0.887 1.24602114201e-38
0.0623789887223 -0.024623285022 0.887 1.34732717371e-38
0.0640205410571 -0.024623285022 0.887 1.29201063657e-38
0.0658101477175 -0.0246788053941 0.889 9.04974242804e-39
0.0674554014104 -0.0246788053941 0.889 2.35097889256e-38
0.00827253544143 -0.023163099236 0.894 1.01488985227e-38
0.00989373030646 -0.0230853707151 0.891 1.02421689485e-38
0.0115167758506 -0.0230335517011 0.889 8.86284284406e-39
0.0131324186784 -0.0229817326872 0.887 1.13449123672e-38
0.0147406587899 -0.0229299136732 0.885 1.91689726596e-38
0.0163229893945 -0.0228521851523 0.882 2.20184598375e-38
0.0178738584549 -0.0227485471244 0.878 2.34856641712e-38
0.0194321302315 -0.0226708186035 0.875 2.2839927622e-38
0.0210514744175 -0.0226708186035 0.875 2.29310652715e-38
0.0226189995895 -0.0226189995895 0.873 2.33012532933e-38
0.0242346424173 -0.0226189995895 0.873 2.34870892917e-38
0.0257910635149 -0.0225671805756 0.871 2.27473732597e-38
0.0274030049846 -0.0225671805756 0.871 2.34885396356e-38
0.0290149464543 -0.0225671805756 0.871 2.34871089099e-38
0.030626887924 -0.0225671805756 0.871 2.34874620371e-38
0.0322388293937 -0.0225671805756 0.871 2.34871089099e-38
0.0338507708634 -0.0225671805756 0.871 2.34903641262e-38
0.035462712333 -0.0225671805756 0.871 2.34892556992e-38
0.0370746538027 -0.0225671805756 0.871 2.34921381701e-38
0.0386865952724 -0.0225671805756 0.871 2.34885494447e-38
0.0402985367421 -0.0225671805756 0.871 2.3488550846e-38
0.0419104782118 -0.0225671805756 0.871 2.34917794377e-38
0.0436223563512 -0.0226189995895 0.873 2.34925011064e-38
0.0453416372069 -0.0226708186035 0.875 2.34903375016e-38
0.047121990472 -0.0227485471244 0.878 2.34899927821e-38
0.0487468866951 -0.0227485471244 0.878 2.3496081424e-38
0.0504865250206 -0.0228003661383 0.88 2.34942723477e-38
0.0521151226019 -0.0228003661383 0.88 2.34946422905e-38
0.0538658650018 -0.0228521851523 0.882 2.00869688888e-38
0.0556869332064 -0.0229299136732 0.885 1.49343888303e-38
0.0574543317179 -0.0229817326872 0.887 1.39313730207e-38
0.0592291329458 -0.0230335517011 0.889 1.20921519707e-38
0.0608743866387 -0.0230335517011 0.889 1.30137355239e-38
0.0626602919409 -0.0230853707151 0.891 1.21839874668e-38
0.064309246992 -0.0230853707151 0.891 1.3198123981e-38
0.0659582020431 -0.0230853707151 0.891 9.97096724887e-39
0.00829104223213 -0.0215567098035 0.896 9.59788554573e-39
0.00992704252972 -0.0215085921477 0.894 1.0887169816e-38
0.0115426853575 -0.021436415664 0.891 1.00584979561e-38
0.0131620295435 -0.0213882980082 0.889 9.69187343633e-39
0.0147739710132 -0.0213401803524 0.887 8.31290606433e-39
0.0163785097666 -0.0212920626966 0.885 1.35547053948e-38
0.0179145733944 -0.021171768557 0.88 2.0548688325e-38
0.0194987546781 -0.0211236509012 0.878 2.34925109155e-38
0.0211236509012 -0.0211236509012 0.878 2.27491781321e-38
0.0226708186035 -0.0210514744175 0.875 2.34892248706e-38
0.0242901627894 -0.0210514744175 0.875 2.33930831843e-38
0.0258502852452 -0.0210033567617 0.873 2.34867361645e-38
0.027465928073 -0.0210033567617 0.873 2.34885354317e-38
0.0290815709008 -0.0210033567617 0.873 2.34863984516e-38
0.0306972137286 -0.0210033567617 0.873 2.34878263747e-38
0.0323128565565 -0.0210033567617 0.873 2.34921437753e-38
0.0338507708634 -0.0209552391059 0.871 2.34878235721e-38
0.035462712333 -0.0209552391059 0.871 2.34888955655e-38
0.0371597850399 -0.0210033567617 0.873 2.34896186355e-38
0.0387754278677 -0.0210033567617 0.873 2.34896438588e-38
0.0403910706956 -0.0210033567617 0.873 2.34895906095e-38
0.042102948835 -0.0210514744175 0.875 2.34906906288e-38
0.0438721980256 -0.0211236509012 0.878 2.34889179862e-38
0.0454970942488 -0.0211236509012 0.878 2.34921171506e-38
0.047121990472 -0.0211236509012 0.878 2.34960912331e-38
0.0488579274393 -0.021171768557 0.88 2.34943031762e-38
0.0504865250206 -0.021171768557 0.88 2.2571193609e-38
0.0521151226019 -0.021171768557 0.88 1.63105578093e-38
0.0538658650018 -0.0212198862128 0.882 1.35608024444e-38
0.0556869332064 -0.0212920626966 0.885 1.31073646821e-38
0.0574543317179 -0.0213401803524 0.887 1.20925107031e-38
0.0592291329458 -0.0213882980082 0.889 1.2368375924e-38
0.0610113368898 -0.021436415664 0.891 1.26449586097e-38
0.0626602919409 -0.021436415664 0.891 1.28297057992e-38
0.064309246992 -0.021436415664 0.891 1.33825124382e-38
0.0659582020431 -0.021436415664 0.891 9.69510202799e-39
0.00830954902282 -0.0199429176548 0.898 9.32022666282e-39
0.00992704252972 -0.0198540850594 0.894 1.08875285484e-38
0.0115426853575 -0.0197874606129 0.891 1.0426916138e-38
0.0131620295435 -0.0197430443153 0.889 9.78406766489e-39
0.0147739710132 -0.0196986280176 0.887 1.06148919192e-38
0.0163785097666 -0.0196542117199 0.885 9.78657879174e-39
0.0179552883339 -0.0195875872734 0.882 9.69079723911e-39
0.0195875872734 -0.0195875872734 0.882 1.31830586213e-38
0.021171768557 -0.0195431709757 0.88 2.04585974454e-38
0.0228003661383 -0.0195431709757 0.88 2.25744880616e-38
0.0243734433476 -0.0194987546781 0.878 2.34914263105e-38
0.0259983395707 -0.0194987546781 0.878 2.34903431068e-38
0.0276232357939 -0.0194987546781 0.878 2.34878207695e-38
0.0292481320171 -0.0194987546781 0.878 2.34881766993e-38
0.0307675395333 -0.0194321302315 0.875 2.34903361003e-38
0.0323868837192 -0.0194321302315 0.875 2.34896200368e-38
0.0339284993843 -0.0193877139339 0.873 2.34914375209e-38
0.0355441422121 -0.0193877139339 0.873 2.3486381636e-38
0.0372449162771 -0.0194321302315 0.875 2.3491419304e-38
0.0388642604631 -0.0194321302315 0.875 2.34907060431e-38
0.0406224055793 -0.0194987546781 0.878 2.34939458451e-38
0.0422473018025 -0.0194987546781 0.878 2.34928682466e-38
0.0439721346954 -0.0195431709757 0.88 2.34979129211e-38
0.0456007322767 -0.0195431709757 0.88 2.3494996819e-38
0.047229329858 -0.0195431709757 0.88 2.03606438802e-38
0.0488579274393 -0.0195431709757 0.88 1.61268153507e-38
0.0504865250206 -0.0195431709757 0.88 1.52142001076e-38
0.0522335660624 -0.0195875872734 0.882 1.2736076641e-38
0.0541712270483 -0.0196986280176 0.887 1.23676584592e-38
0.0559386255599 -0.0197430443153 0.889 1.17237337888e-38
0.0577134267877 -0.0197874606129 0.891 1.26467522717e-38
0.0593623818388 -0.0197874606129 0.891 1.23687346564e-38
0.0610113368898 -0.0197874606129 0.891 1.23694521212e-38
0.0628712693549 -0.0198540850594 0.894 1.24616463498e-38
0.0645257764432 -0.0198540850594 0.894 1.3290676942e-38
0.00835581599956 -0.018382795199 0.903 1.02410927512e-38
0.00997145882739 -0.0182810078502 0.898 1.04261986732e-38
0.011607459125 -0.0182402929107 0.896 1.03340044446e-38
0.0132360567063 -0.0181995779711 0.894 1.00606503506e-38
0.0148072832364 -0.0180977906223 0.889 9.78406766489e-39
0.0164525369294 -0.0180977906223 0.889 1.02464737373e-38
0.0180570756828 -0.0180570756828 0.887 1.00617265478e-38
0.0196542117199 -0.0180163607432 0.885 1.01546382412e-38
0.0212198862128 -0.0179552883339 0.882 8.68240044341e-39
0.0228521851523 -0.0179552883339 0.882 1.15296595567e-38
0.0244844840917 -0.0179552883339 0.882 1.58527690152e-38
0.026057561301 -0.0179145733944 0.88 1.90767195765e-38
0.0276861588823 -0.0179145733944 0.88 1.99969186469e-38
0.0293147564636 -0.0179145733944 0.88 2.34970497212e-38
0.0309433540449 -0.0179145733944 0.88 2.23865038727e-38
0.0324979244634 -0.0178738584549 0.878 2.34924884947e-38
0.0341228206866 -0.0178738584549 0.878 2.34942961697e-38
0.0357477169098 -0.0178738584549 0.878 2.34932283803e-38
0.0373726131329 -0.0178738584549 0.878 2.33073867767e-38
0.0389975093561 -0.0178738584549 0.878 2.34932087621e-38
0.0407149395328 -0.0179145733944 0.88 2.08241653862e-38
0.0423435371141 -0.0179145733944 0.88 1.96274130574e-38
0.0439721346954 -0.0179145733944 0.88 1.62180118548e-38
0.0456007322767 -0.0179145733944 0.88 1.46552950177e-38
0.047229329858 -0.0179145733944 0.88 1.34693256806e-38
0.0489689681835 -0.0179552883339 0.882 1.24634400118e-38
0.0506012671229 -0.0179552883339 0.882 1.20928694355e-38
0.0525296747135 -0.0180570756828 0.887 1.35676183601e-38
0.0544155166855 -0.0181385055618 0.891 1.17244512536e-38
0.0560644717366 -0.0181385055618 0.891 1.1908122246e-38
0.05790774809 -0.0181995779711 0.894 1.29222587602e-38
0.0595622551783 -0.0181995779711 0.894 1.27375115706e-38
0.0613537125177 -0.0182402929107 0.896 1.31077234145e-38
0.0630119209642 -0.0182402929107 0.896 1.31988414459e-38
0.0646701294106 -0.0182402929107 0.896 1.13542394098e-38
0.00838357618561 -0.0167671523712 0.906 1.01488985227e-38
0.0100269791995 -0.0167116319991 0.903 1.01506921847e-38
0.011633368632 -0.0166190980456 0.898 1.0149622994e-38
0.0132656675714 -0.0165820844643 0.896 9.32345525448e-39
0.0148905637946 -0.0165450708829 0.894 1.08914746049e-38
0.0164895505108 -0.0164895505108 0.891 9.69366709836e-39
0.0180977906223 -0.0164525369294 0.889 1.01542795088e-38
0.0196986280176 -0.016415523348 0.887 1.03386679659e-38
0.0212920626966 -0.0163785097666 0.885 9.51107230327e-39
0.0229299136732 -0.0163785097666 0.885 1.07095972746e-38
0.0245677646499 -0.0163785097666 0.885 1.03397441631e-38
0.0262056156265 -0.0163785097666 0.885 9.78801372137e-39
0.0277490819706 -0.0163229893945 0.882 1.04315796593e-38
0.0293813809101 -0.0163229893945 0.882 1.20842598577e-38
0.0310136798495 -0.0163229893945 0.882 1.22636260612e-38
0.0325719516262 -0.0162859758131 0.88 1.29071919991e-38
0.0342005492075 -0.0162859758131 0.88 1.33674456771e-38
0.0360327214865 -0.0163785097666 0.885 1.3643310898e-38
0.0376705724632 -0.0163785097666 0.885 1.364510456e-38
0.0393084234398 -0.0163785097666 0.885 1.28178676298e-38
0.0409462744165 -0.0163785097666 0.885 1.31920255301e-38
0.0425841253931 -0.0163785097666 0.885 1.14457161735e-38
0.0442219763698 -0.0163785097666 0.885 1.09876148899e-38
0.0458598273464 -0.0163785097666 0.885 1.35669008953e-38
0.0474976783231 -0.0163785097666 0.885 1.14467923707e-38
0.0491355292998 -0.0163785097666 0.885 1.08972143234e-38
0.0510028644811 -0.0164525369294 0.889 1.14485860328e-38
0.0527665616345 -0.0164895505108 0.891 1.14471567083e-38
0.0545987339134 -0.0165450708829 0.894 1.16336919547e-38
0.0562532410017 -0.0165450708829 0.894 1.16340506871e-38
0.0581668431598 -0.0166190980456 0.898 1.20013926717e-38
0.0598287529643 -0.0166190980456 0.898 1.21847049316e-38
0.0614906627689 -0.0166190980456 0.898 1.25538405783e-38
0.0631525725735 -0.0166190980456 0.898 1.20925107031e-38
0.00675867996244 -0.0152070299155 0.913 1.04183065602e-38
0.00840208297631 -0.0151237493574 0.908 1.07942581226e-38
0.0100602914227 -0.0150904371341 0.906 9.96630372758e-39
0.0116981423994 -0.0150404687992 0.903 1.03357981067e-38
0.0132952784365 -0.0149571882411 0.898 1.0706368683e-38
0.0149238760178 -0.0149238760178 0.896 9.87697935827e-39
0.0165450708829 -0.0148905637946 0.894 1.07088798098e-38
0.0181385055618 -0.0148405954597 0.891 1.0523056423e-38
0.0197430443153 -0.0148072832364 0.889 1.10755043296e-38
0.0213401803524 -0.0147739710132 0.887 1.04315810606e-38
0.0229817326872 -0.0147739710132 0.887 9.60541892627e-39
0.024623285022 -0.0147739710132 0.887 1.06177617785e-38
0.0262648373568 -0.0147739710132 0.887 1.00649551395e-38
0.0279063896916 -0.0147739710132 0.887 9.789448651e-39
0.0295479420264 -0.0147739710132 0.887 1.04337320537e-38
0.0311894943612 -0.0147739710132 0.887 1.17233750564e-38
0.0327570195332 -0.0147406587899 0.885 1.19992402773e-38
0.0343948705098 -0.0147406587899 0.885 1.15389865993e-38
0.0361141513656 -0.0147739710132 0.887 1.15386278669e-38
0.0377557037004 -0.0147739710132 0.887 1.17240925212e-38
0.0393972560352 -0.0147739710132 0.887 1.1908122246e-38
0.0409462744165 -0.0147406587899 0.885 1.12631213784e-38
0.0425841253931 -0.0147406587899 0.885 1.12624039136e-38
0.0443219130396 -0.0147739710132 0.887 1.12638388432e-38
0.0459634653743 -0.0147739710132 0.887 1.13560330718e-38
0.0476050177091 -0.0147739710132 0.887 1.14485860328e-38
0.0492465700439 -0.0147739710132 0.887 1.13574680014e-38
0.0511176065834 -0.0148405954597 0.891 1.26471110041e-38
0.0529442268251 -0.0148905637946 0.894 1.15404215289e-38
0.054720878732 -0.0149238760178 0.896 1.15414977261e-38
0.0565049333552 -0.0149571882411 0.898 1.20021101366e-38
0.0583611644621 -0.015007156576 0.901 1.20925107031e-38
0.0600286263038 -0.015007156576 0.901 1.28297057992e-38
0.0616960881456 -0.015007156576 0.901 1.29222587602e-38
0.0633635499874 -0.015007156576 0.901 1.21843461992e-38
0.00675867996244 -0.0135173599249 0.913 1.09610686918e-38
0.008420589767 -0.0134729436272 0.91 1.02410927512e-38
0.0100824995716 -0.0134433327621 0.908 1.03354393742e-38
0.0117370066599 -0.013413721897 0.906 1.03347219094e-38
0.0133693055993 -0.0133693055993 0.903 1.06113045951e-38
0.015007156576 -0.0133396947342 0.901 9.96881485443e-39
0.0166190980456 -0.0132952784365 0.898 1.00613678154e-38
0.0182402929107 -0.0132656675714 0.896 1.06152506516e-38
0.0197874606129 -0.0131916404086 0.891 1.03386679659e-38
0.0213882980082 -0.0131620295435 0.889 9.51143103568e-39
0.0230335517011 -0.0131620295435 0.889 9.97311964331e-39
0.0246788053941 -0.0131620295435 0.889 1.02486261318e-38
0.026324059087 -0.0131620295435 0.889 1.01567906356e-38
0.0279693127799 -0.0131620295435 0.889 8.95970059391e-39
0.0296145664729 -0.0131620295435 0.889 1.12634801108e-38
0.0312598201658 -0.0131620295435 0.889 1.04326558565e-38
0.0329050738588 -0.0131620295435 0.889 1.08017915032e-38
0.0345503275517 -0.0131620295435 0.889 1.06181205109e-38
0.0361955812446 -0.0131620295435 0.889 1.10794503861e-38
0.0378408349376 -0.0131620295435 0.889 1.05273612119e-38
0.0394860886305 -0.0131620295435 0.889 1.07106734718e-38
0.04103880837 -0.0131324186784 0.887 1.11705684174e-38
0.0426803607048 -0.0131324186784 0.887 1.14478685679e-38
0.0443219130396 -0.0131324186784 0.887 1.14475098355e-38
0.0459634653743 -0.0131324186784 0.887 1.1908122246e-38
0.0477123570952 -0.0131620295435 0.889 1.18159280174e-38
0.0493576107881 -0.0131620295435 0.889 1.14485860328e-38
0.0512897197369 -0.0132360567063 0.894 1.10801678509e-38
0.0529442268251 -0.0132360567063 0.894 1.22790515547e-38
0.054720878732 -0.0132656675714 0.896 1.16354856167e-38
0.0565049333552 -0.0132952784365 0.898 1.2371963248e-38
0.058490711997 -0.0133693055993 0.903 1.20939456327e-38
0.0601618751969 -0.0133693055993 0.903 1.2370169586e-38
0.0628601652804 -0.0135913870877 0.918 1.21847049316e-38
0.0646997402757 -0.0136209979528 0.92 1.04351669834e-38
0.0664023650198 -0.0136209979528 0.92 2.29551101518e-38
0.008420589767 -0.0117888256738 0.91 1.07842136152e-38
0.0101047077204 -0.0117888256738 0.91 1.06098696655e-38
0.0117629161668 -0.0117629161668 0.908 1.03347219094e-38
0.0134433327621 -0.0117629161668 0.908 9.96845612202e-39
0.0150904371341 -0.0117370066599 0.906 1.01532033116e-38
0.0167671523712 -0.0117370066599 0.906 9.96845612202e-39
0.0183420802595 -0.0116722328924 0.901 1.06145331868e-38
0.0199429176548 -0.011633368632 0.898 1.10755043296e-38
0.0215567098035 -0.011607459125 0.896 1.01549969736e-38
0.02321491825 -0.011607459125 0.896 1.18152105526e-38
0.0248731266964 -0.011607459125 0.896 1.05238187294e-38
0.0264721134126 -0.011581549618 0.894 1.0247908667e-38
0.0281266205009 -0.011581549618 0.894 1.1355315607e-38
0.0297811275891 -0.011581549618 0.894 1.08010740384e-38
0.0314356346774 -0.011581549618 0.894 1.08017915032e-38
0.0329791010215 -0.0115426853575 0.891 1.08943444641e-38
0.0346280560726 -0.0115426853575 0.891 1.12631213784e-38
0.0363991559423 -0.011581549618 0.894 1.11709271498e-38
0.0380536630306 -0.011581549618 0.894 1.10787329213e-38
0.0395749212258 -0.0115426853575 0.891 1.1815569285e-38
0.0412238762769 -0.0115426853575 0.891 1.19077635135e-38
0.042872831328 -0.0115426853575 0.891 1.15407802613e-38
0.0445217863791 -0.0115426853575 0.891 1.14485860328e-38
0.0461707414302 -0.0115426853575 0.891 1.16319431342e-38
0.0480880449463 -0.011607459125 0.896 1.18159280174e-38
0.0497462533928 -0.011607459125 0.896 1.12641975756e-38
0.0514044618392 -0.011607459125 0.896 1.26471110041e-38
0.0531811137461 -0.011633368632 0.898 1.24637987442e-38
0.0548430235506 -0.011633368632 0.898 1.12681436321e-38
0.0566937026203 -0.0116722328924 0.901 1.13606965931e-38
0.058490711997 -0.0116981423994 0.903 1.23708870508e-38
0.060961368555 -0.0118535994412 0.915 1.24620050822e-38
0.0628601652804 -0.0118924637017 0.918 1.19091984432e-38
0.0646997402757 -0.0119183732087 0.92 1.50359171079e-38
0.0664023650198 -0.0119183732087 0.92 2.35090280205e-38
0.00844834995305 -0.0101380199437 0.913 1.34453480626e-38
0.0101380199437 -0.0101380199437 0.913 1.0419024025e-38
0.0118276899343 -0.0101380199437 0.913 1.00584979561e-38
0.0134729436272 -0.0101047077204 0.91 9.87590316105e-39
0.0151570615806 -0.0101047077204 0.91 1.12591753219e-38
0.0168041659526 -0.0100824995716 0.908 1.07074448802e-38
0.0184438676083 -0.0100602914227 0.906 1.01539445984e-38
0.0199429176548 -0.00997145882739 0.898 1.03386679659e-38
0.0216048274593 -0.00997145882739 0.898 1.01560731708e-38
0.0232667372639 -0.00997145882739 0.898 1.01564319032e-38
0.0249286470685 -0.00997145882739 0.898 1.06166855812e-38
0.026590556873 -0.00997145882739 0.898 1.08929095345e-38
0.0282524666776 -0.00997145882739 0.898 1.0617403046e-38
0.0299143764822 -0.00997145882739 0.898 1.07103147394e-38
0.0315762862867 -0.00997145882739 0.898 1.09854624955e-38
0.0331641689285 -0.00994925067855 0.896 1.01589430301e-38
0.0348223773749 -0.00994925067855 0.896 1.10783741889e-38
0.0364805858214 -0.00994925067855 0.896 1.13546107538e-38
0.0381387942678 -0.00994925067855 0.896 1.15389865993e-38
0.0397081701189 -0.00992704252972 0.894 1.09854624955e-38
0.0413626772071 -0.00992704252972 0.894 1.14475098355e-38
0.0430171842954 -0.00992704252972 0.894 1.09883323547e-38
0.0447716280535 -0.00994925067855 0.896 1.16336919547e-38
0.0464298364999 -0.00994925067855 0.896 1.18166454822e-38
0.0481953843324 -0.00997145882739 0.898 1.15404215289e-38
0.0498572941369 -0.00997145882739 0.898 1.23698108536e-38
0.0515192039415 -0.00997145882739 0.898 1.20943043651e-38
0.0533587789368 -0.0100047710506 0.901 1.20939456327e-38
0.0551483855971 -0.0100269791995 0.903 1.20943043651e-38
0.0571341642389 -0.0100824995716 0.908 1.20943043651e-38
0.0592679972062 -0.0101602280925 0.915 1.2370169586e-38
0.060961368555 -0.0101602280925 0.915 1.20946630975e-38
0.0628601652804 -0.0101935403157 0.918 1.10780154565e-38
0.0646997402757 -0.0102157484646 0.92 2.35096978412e-38
0.0666188944709 -0.0102490606878 0.923 2.3508391831e-38
0.006773485395 -0.00846685674374 0.915 2.11822251698e-38
0.00846685674374 -0.00846685674374 0.915 2.05368837867e-38
0.0101602280925 -0.00846685674374 0.915 1.39077261091e-38
0.0118535994412 -0.00846685674374 0.915 9.86944597773e-39
0.0135173599249 -0.00844834995305 0.913 1.03357981067e-38
0.0152070299155 -0.00844834995305 0.913 9.78406766489e-39
0.016841179534 -0.008420589767 0.91 1.02471912022e-38
0.0185252974874 -0.008420589767 0.91 1.04322971241e-38
0.0201649991431 -0.00840208297631 0.908 1.04319383917e-38
0.0217251215989 -0.00835581599956 0.903 1.07095972746e-38
0.0233962847988 -0.00835581599956 0.903 1.08921920697e-38
0.0250674479987 -0.00835581599956 0.903 1.06159681164e-38
0.0267386111986 -0.00835581599956 0.903 1.08932682669e-38
0.0283468513102 -0.00833730920887 0.901 1.04340907861e-38
0.0300143131519 -0.00833730920887 0.901 1.10772979917e-38
0.0316817749937 -0.00833730920887 0.901 1.1170209685e-38
0.0332381960913 -0.00830954902282 0.898 1.10783741889e-38
0.0349001058959 -0.00830954902282 0.898 1.1170209685e-38
0.0365620157004 -0.00830954902282 0.898 1.12624039136e-38
0.038223925505 -0.00830954902282 0.898 1.14464336383e-38
0.0398858353096 -0.00830954902282 0.898 1.18159280174e-38
0.0415477451141 -0.00830954902282 0.898 1.18166454822e-38
0.0432096549187 -0.00830954902282 0.898 1.14485860328e-38
0.0448715647232 -0.00830954902282 0.898 1.11730795443e-38
0.0465334745278 -0.00830954902282 0.898 1.20013926717e-38
0.0483563934114 -0.00833730920887 0.901 1.20013926717e-38
0.0500238552532 -0.00833730920887 0.901 1.19088397108e-38
0.051691317095 -0.00833730920887 0.901 1.19088397108e-38
0.0536548875879 -0.00838357618561 0.906 1.1908122246e-38
0.055331602825 -0.00838357618561 0.906 1.20013926717e-38
0.0572600104156 -0.008420589767 0.91 1.18166454822e-38
0.0594623185085 -0.00849461692979 0.918 1.10798091185e-38
0.0611612418945 -0.00849461692979 0.918 9.88415400641e-39
0.0629971155316 -0.00851312372049 0.92 2.30458582404e-38
0.0649107176896 -0.00854088390653 0.923 2.35076309259e-38
0.0666188944709 -0.00854088390653 0.923 2.350583306e-38
0.00849461692979 -0.00679569354383 0.918 2.32994806507e-38
0.0101935403157 -0.00679569354383 0.918 2.04461230865e-38
0.0118924637017 -0.00679569354383 0.918 1.43715587034e-38
0.01354697079 -0.006773485395 0.915 9.68541625301e-39
0.0152403421387 -0.006773485395 0.915 9.87805555549e-39
0.0169337134875 -0.006773485395 0.915 9.78657879174e-39
0.0186270848362 -0.006773485395 0.915 1.02471912022e-38
0.0202094154408 -0.0067364718136 0.91 1.04315796593e-38
0.0218454157384 -0.00672166638105 0.908 1.05252088175e-38
0.0235258323337 -0.00672166638105 0.908 1.08929095345e-38
0.0251507285568 -0.00670686094849 0.906 1.06163268488e-38
0.026827443794 -0.00670686094849 0.906 1.09847450307e-38
0.0284097743985 -0.00668465279965 0.903 1.08932682669e-38
0.0300809375984 -0.00668465279965 0.903 1.1260968984e-38
0.0317521007983 -0.00668465279965 0.903 1.09847450307e-38
0.0334232639983 -0.00668465279965 0.903 1.13535219449e-38
0.0350166986772 -0.00666984736709 0.901 1.14457161735e-38
0.036684160519 -0.00666984736709 0.901 1.15379104021e-38
0.0383516223608 -0.00666984736709 0.901 1.11698509526e-38
0.0400190842026 -0.00666984736709 0.901 1.12631213784e-38
0.0416865460443 -0.00666984736709 0.901 1.23690933888e-38
0.0433540078861 -0.00666984736709 0.901 1.18170308393e-38
0.0450214697279 -0.00666984736709 0.901 1.06202729053e-38
0.0466889315697 -0.00666984736709 0.901 1.17255274509e-38
0.0486247418765 -0.00670686094849 0.906 1.19091984432e-38
0.0503014571137 -0.00670686094849 0.906 1.3383229903e-38
0.0519781723508 -0.00670686094849 0.906 1.22761816954e-38
0.0537733310484 -0.00672166638105 0.908 1.21847049316e-38
0.0554537476436 -0.00672166638105 0.908 1.23708870508e-38
0.0577633951226 -0.00679569354383 0.918 1.21879335233e-38
0.0595918660434 -0.00681049897639 0.92 1.05277199443e-38
0.061494364127 -0.00683270712523 0.923 2.28621480117e-38
0.0633394911595 -0.00684751255778 0.925 2.35047834874e-38
0.0650513692989 -0.00684751255778 0.925 2.35022765645e-38
0.0667632474384 -0.00684751255778 0.925 2.35076351298e-38
0.00701777503219 -0.00526333127414 0.948 2.07198176961e-38
0.00877221879024 -0.00526333127414 0.948 2.10882274701e-38
0.0102490606878 -0.00512453034392 0.923 2.21934862196e-38
0.0119572374691 -0.00512453034392 0.923 2.09074459552e-38
0.0136654142505 -0.00512453034392 0.923 1.59360327687e-38
0.0152903104736 -0.00509677015787 0.918 1.09725481288e-38
0.0169892338596 -0.00509677015787 0.918 1.03361624443e-38
0.0186270848362 -0.00508011404625 0.915 1.0521262761e-38
0.020320456185 -0.00508011404625 0.915 1.02468324698e-38
0.0219657098779 -0.00506900997183 0.913 9.87913175271e-39
0.0235776513476 -0.0050523538602 0.91 9.78873118618e-39
0.0252062489289 -0.00504124978578 0.908 1.08943444641e-38
0.0268866655242 -0.00504124978578 0.908 1.08918333373e-38
0.0285670821194 -0.00504124978578 0.908 1.0800715306e-38
0.0300809375984 -0.00501348959974 0.903 1.06181205109e-38
0.0317521007983 -0.00501348959974 0.903 1.07095972746e-38
0.0335343047424 -0.00503014571137 0.906 1.13531632125e-38
0.0350944271982 -0.00501348959974 0.903 1.12624039136e-38
0.0367655903981 -0.00501348959974 0.903 1.12624039136e-38
0.038436753598 -0.00501348959974 0.903 1.12624039136e-38
0.0401079167979 -0.00501348959974 0.903 1.15386278669e-38
0.0417790799978 -0.00501348959974 0.903 1.16311808279e-38
0.0434502431977 -0.00501348959974 0.903 1.23687346564e-38
0.0452713114023 -0.00503014571137 0.906 1.22776236315e-38
0.0469480266394 -0.00503014571137 0.906 1.17244512536e-38
0.0487320812626 -0.00504124978578 0.908 1.14478685679e-38
0.0504124978578 -0.00504124978578 0.908 1.16329744899e-38
0.0520929144531 -0.00504124978578 0.908 1.22768991602e-38
0.0540694396995 -0.00506900997183 0.913 1.06188379757e-38
0.0558812545087 -0.00508011404625 0.915 1.15414977261e-38
0.0578892412993 -0.00510787423229 0.92 1.09872561575e-38
0.0597861873457 -0.00512453034392 0.923 2.19412552986e-38
0.0618274863596 -0.00515229052996 0.928 2.35033149266e-38
0.0635449165362 -0.00515229052996 0.928 2.35025848501e-38
0.0652623467129 -0.00515229052996 0.928 2.35029842202e-38
0.0669797768895 -0.00515229052996 0.928 2.35072623844e-38
0.00701777503219 -0.0035088875161 0.948 2.05361284869e-38
0.00877221879024 -0.0035088875161 0.948 2.08137733568e-38
0.0105044543995 -0.00350148479982 0.946 2.16421047011e-38
0.0119831469761 -0.00342375627889 0.925 2.26548146935e-38
0.0136654142505 -0.00341635356261 0.923 2.31172375815e-38
0.0153236226969 -0.00340524948819 0.92 1.796041299e-38
0.017026247441 -0.00340524948819 0.92 1.33606297614e-38
0.0186881572455 -0.00339784677192 0.918 1.02414514837e-38
0.0203870806315 -0.00339784677192 0.918 1.05226976906e-38
0.0220138275337 -0.0033867426975 0.915 1.07999978411e-38
0.0236553798685 -0.00337933998122 0.913 1.05252088175e-38
0.025261769301 -0.0033682359068 0.91 9.88128414716e-39
0.0269458872544 -0.0033682359068 0.91 1.0617403046e-38
0.0286300052078 -0.0033682359068 0.91 1.08939857317e-38
0.0303141231612 -0.0033682359068 0.91 1.08017915032e-38
0.03192791531 -0.00336083319052 0.908 1.17237337888e-38
0.0336083319052 -0.00336083319052 0.908 1.12620451812e-38
0.0352110199796 -0.00335343047424 0.906 1.11709271498e-38
0.0368877352167 -0.00335343047424 0.906 1.09883323547e-38
0.038436753598 -0.00334232639983 0.903 1.12635067355e-38
0.0401079167979 -0.00334232639983 0.903 1.14475098355e-38
0.041917880928 -0.00335343047424 0.906 1.16311808279e-38
0.0435945961652 -0.00335343047424 0.906 1.12624039136e-38
0.0453712480721 -0.00336083319052 0.908 1.17251687185e-38
0.0470516646673 -0.00336083319052 0.908 1.17244512536e-38
0.0487320812626 -0.00336083319052 0.908 1.17255274509e-38
0.0504124978578 -0.00336083319052 0.908 1.19095571756e-38
0.0520929144531 -0.00336083319052 0.908 1.11712858823e-38
0.05418788316 -0.0033867426975 0.915 1.09876148899e-38
0.0560644717366 -0.00339784677192 0.918 1.45731452966e-38
0.0580780105644 -0.00341635356261 0.923 2.3503260276e-38
0.0601100561829 -0.00343486035331 0.928 2.35044359654e-38
0.0619607352526 -0.00344226306959 0.93 2.35014988438e-38
0.0635449165362 -0.00343486035331 0.928 2.35072735948e-38
0.0652623467129 -0.00343486035331 0.928 2.35033149266e-38
0.00701777503219 -0.00175444375805 0.948 2.07208714725e-38
0.00877221879024 -0.00175444375805 0.948 2.12758431176e-38
0.0105044543995 -0.00175074239991 0.946 2.01695011645e-38
0.0121515587715 -0.00173593696735 0.938 2.18261456362e-38
0.0137690522784 -0.00172113153479 0.93 2.24700703066e-38
0.015406903255 -0.00171187813945 0.925 2.33923769298e-38
0.017026247441 -0.0017026247441 0.92 2.09092494264e-38
0.0186881572455 -0.00169892338596 0.918 1.62147314151e-38
0.0203870806315 -0.00169892338596 0.918 1.19841735162e-38
0.0220860040175 -0.00169892338596 0.918 1.02436038781e-38
0.0237071988825 -0.00169337134875 0.915 1.02489848642e-38
0.0253450498591 -0.00168966999061 0.913 1.0157149368e-38
0.0269458872544 -0.0016841179534 0.91 1.03415378252e-38
0.0286300052078 -0.0016841179534 0.91 1.00671075339e-38
0.0303141231612 -0.0016841179534 0.91 1.0802508968e-38
0.0319982411146 -0.0016841179534 0.91 1.05270024795e-38
0.0336083319052 -0.00168041659526 0.908 1.10783741889e-38
0.0352887485005 -0.00168041659526 0.908 1.09876148899e-38
0.0369691650957 -0.00168041659526 0.908 1.10798091185e-38
0.0385644504538 -0.00167671523712 0.906 1.10783741889e-38
0.0402411656909 -0.00167671523712 0.906 1.16311808279e-38
0.0420104148815 -0.00168041659526 0.908 1.15389865993e-38
0.0436908314768 -0.00168041659526 0.908 1.21843461992e-38
0.0453712480721 -0.00168041659526 0.908 1.13563918042e-38
0.0470516646673 -0.00168041659526 0.908 1.19088397108e-38
0.0487320812626 -0.00168041659526 0.908 1.08954206614e-38
0.0504124978578 -0.00168041659526 0.908 1.0895061929e-38
0.0526666249647 -0.00169892338596 0.918 1.32842197587e-38
0.0543655483507 -0.00169892338596 0.918 2.1198358319e-38
0.0563698337831 -0.00170817678131 0.923 2.35043785122e-38
0.0583926260063 -0.00171743017665 0.928 2.35018856022e-38
0.0602396037178 -0.00172113153479 0.93 2.3501156927e-38
0.0621606085921 -0.001726683572 0.933 2.35004212453e-38
0.0638872921641 -0.001726683572 0.933 2.35007883855e-38
0.0659656047594 -0.00173593696735 0.938 2.35054519068e-38
0.0684233065639 -0.00175444375805 0.948 2.35069484936e-38
0.00530774757182 0.0 0.956 2.0167362783e-38
0.00703998318103 0.0 0.951 2.16424802491e-38
0.00879997897629 0.0 0.951 2.00776530566e-38
0.0105044543995 0.0 0.946 2.12758431176e-38
0.0122163325389 0.0 0.943 2.16439053697e-38
0.0138430794411 0.0 0.935 2.15495783648e-38
0.0154568715899 0.0 0.928 2.31161431674e-38
0.0171743017665 0.0 0.928 2.30243384999e-38
0.0188917319432 0.0 0.928 2.3488527024e-38
0.0205425376733 0.0 0.925 2.17393197821e-38
0.022206298157 0.0 0.923 1.71370814786e-38
0.0238367464174 0.0 0.92 1.39180999216e-38
0.0254005702312 0.0 0.915 1.10701233435e-38
0.0270347198498 0.0 0.913 9.4188780747e-39
0.0287243898404 0.0 0.913 9.23628327961e-39
0.030414059831 0.0 0.913 1.09876148899e-38
0.0321037298216 0.0 0.913 1.1355315607e-38
0.0337933998122 0.0 0.913 1.09876148899e-38
0.0354830698028 0.0 0.913 1.07117496691e-38
0.0371727397934 0.0 0.913 1.07113909366e-38
0.0389475410212 0.0 0.915 1.0895061929e-38
0.040774161263 0.0 0.918 1.18162867498e-38
0.0423342837187 0.0 0.915 1.14467923707e-38
0.0440276550675 0.0 0.915 1.19077635135e-38
0.0458709314209 0.0 0.918 1.02489848642e-38
0.0471553026952 0.0 0.91 1.18130581581e-38
0.0488394206486 0.0 0.91 1.48461406582e-38
0.0506900997183 0.0 0.913 2.24886164918e-38
0.052781367067 0.0 0.92 2.35021546515e-38
0.0546616570018 0.0 0.923 2.35004380609e-38
0.0566751958296 0.0 0.928 2.35000821311e-38
0.0583926260063 0.0 0.928 2.34975836159e-38
0.0604339250201 0.0 0.933 2.3497541577e-38
0.0622938574851 0.0 0.935 2.35007771751e-38
0.064229667792 0.0 0.938 2.35083399829e-38
0.0665282111965 0.0 0.946 2.35098127476e-38
0.0684233065639 0.0 0.948 2.35098323658e-38
0.00530774757182 0.00176924919061 0.956 2.09967352921e-38
0.00706219132986 0.00176554783247 0.954 2.07201512051e-38
0.00882773916233 0.00176554783247 0.954 2.05375620152e-38
0.0105266625483 0.00175444375805 0.948 2.08134384465e-38
0.0122551967994 0.00175074239991 0.946 2.1366947136e-38
0.0139615229016 0.0017451903627 0.943 2.21945722259e-38
0.0156234327062 0.00173593696735 0.938 2.16410327078e-38
0.01726683572 0.001726683572 0.933 2.24708087909e-38
0.0189324468827 0.00172113153479 0.93 2.30246706076e-38
0.0206091621199 0.00171743017665 0.928 2.34852802154e-38
0.0223265922965 0.00171743017665 0.928 2.34867515788e-38
0.0239662939522 0.00171187813945 0.925 2.34899213159e-38
0.0256226517196 0.00170817678131 0.923 2.0359943231e-38
0.0271827741753 0.00169892338596 0.918 1.86154331416e-38
0.0288816975613 0.00169892338596 0.918 1.5759181896e-38
0.0305806209472 0.00169892338596 0.918 1.37351463941e-38
0.0322795443332 0.00169892338596 0.918 1.30044084813e-38
0.0339784677192 0.00169892338596 0.918 1.19013063302e-38
0.0356773911051 0.00169892338596 0.918 1.13506520857e-38
0.0373763144911 0.00169892338596 0.918 1.19960116856e-38
0.039075237877 0.00169892338596 0.918 1.24559066312e-38
0.0408629938583 0.0017026247441 0.92 1.25463071978e-38
0.0425656186024 0.0017026247441 0.92 1.55801071626e-38
0.0442682433465 0.0017026247441 0.92 1.72327943676e-38
0.0461207730953 0.00170817678131 0.923 2.08258959898e-38
0.0479325879045 0.00171187813945 0.925 2.35024587333e-38
0.049805475123 0.00171743017665 0.928 2.35007379388e-38
0.0516339460438 0.00172113153479 0.93 2.3497917125e-38
0.0535271907321 0.001726683572 0.933 2.34964793927e-38
0.0552538743041 0.001726683572 0.933 2.34943199918e-38
0.0571027026947 0.00173038493014 0.935 2.34968451316e-38
0.0588330876248 0.00173038493014 0.935 2.34968521381e-38
0.0608873413922 0.00173963832549 0.94 2.34989919209e-38
0.0628268530572 0.0017451903627 0.943 2.35011204933e-38
0.0647774687966 0.00175074239991 0.946 2.35065729456e-38
0.0666688628058 0.00175444375805 0.948 2.35043995317e-38
0.0684233065639 0.00175444375805 0.948 2.35098421749e-38
0.00530774757182 0.00353849838121 0.956 2.06247536082e-38
0.00707699676242 0.00353849838121 0.956 2.13651744934e-38
0.00882773916233 0.00353109566493 0.954 2.14588050529e-38
0.0105599747715 0.00351999159051 0.951 2.14591581801e-38
0.0122811063063 0.0035088875161 0.948 2.19194104568e-38
0.0140059391993 0.00350148479982 0.946 2.18265141777e-38
0.0157067132643 0.0034903807254 0.943 2.25633575479e-38
0.0173963832549 0.00347927665098 0.94 2.33001967142e-38
0.0190953066409 0.0034718739347 0.938 2.3485297031e-38
0.020720202864 0.00345336714401 0.933 2.31165187154e-38
0.022446886436 0.00345336714401 0.933 2.34845781649e-38
0.0240958414871 0.00344226306959 0.93 2.34867459736e-38
0.0257614526498 0.00343486035331 0.928 2.34885452408e-38
0.0273900502311 0.00342375627889 0.925 2.34881921136e-38
0.0291019283706 0.00342375627889 0.925 2.34910703807e-38
0.03081380651 0.00342375627889 0.925 2.34921437753e-38
0.0324553588448 0.00341635356261 0.923 2.26645326984e-38
0.0341635356261 0.00341635356261 0.923 2.29418258424e-38
0.035755119626 0.00340524948819 0.92 2.22064117966e-38
0.0374577443701 0.00340524948819 0.92 2.19298193018e-38
0.03928806597 0.00341635356261 0.923 2.26677430731e-38
0.0409962427514 0.00341635356261 0.923 2.34960730162e-38
0.0427044195327 0.00341635356261 0.923 2.34950024242e-38
0.044412596314 0.00341635356261 0.923 2.35007449453e-38
0.0463706147697 0.00343486035331 0.928 2.34982828639e-38
0.0481916829742 0.00344226306959 0.93 2.34968213096e-38
0.049912814509 0.00344226306959 0.93 2.34964471629e-38
0.0518005071601 0.00345336714401 0.933 2.34946380866e-38
0.0536419328344 0.00346076986028 0.935 2.34961150551e-38
0.0553723177646 0.00346076986028 0.935 2.34964779914e-38
0.0571027026947 0.00346076986028 0.935 2.34986331885e-38
0.0588330876248 0.00346076986028 0.935 2.34983066859e-38
0.0610816626945 0.0034903807254 0.943 2.35033177292e-38
0.0630267263967 0.00350148479982 0.946 2.35061581612e-38
0.0649144190478 0.0035088875161 0.948 2.35029870228e-38
0.0668798402198 0.00351999159051 0.951 2.35098001359e-38
0.068639836015 0.00351999159051 0.951 2.35098211554e-38
0.00530774757182 0.00530774757182 0.956 2.01658858144e-38
0.00707699676242 0.00530774757182 0.956 2.06286744414e-38
0.00884624595303 0.00530774757182 0.956 2.08127167778e-38
0.0105932869948 0.0052966434974 0.954 2.08127167778e-38
0.0123199705668 0.00527998738577 0.951 2.20112571634e-38
0.0140355500644 0.00526333127414 0.948 2.19183412661e-38
0.0157566815992 0.00525222719973 0.946 2.21942190987e-38
0.017451903627 0.0052355710881 0.943 2.27459537443e-38
0.0191360215804 0.00521891497647 0.94 2.29292688068e-38
0.0208312436082 0.00520781090205 0.938 2.30221847041e-38
0.0224950040919 0.00519115479043 0.935 2.34860411205e-38
0.024173570008 0.00518005071601 0.933 2.34860116932e-38
0.0258169730219 0.00516339460438 0.93 2.3484587974e-38
0.0275381045567 0.00516339460438 0.93 2.34870920943e-38
0.0291963130031 0.00515229052996 0.928 2.34860172984e-38
0.0309137431798 0.00515229052996 0.928 2.34906878262e-38
0.0325256846495 0.00513563441834 0.925 2.34896214381e-38
0.0342375627889 0.00513563441834 0.925 2.34925067116e-38
0.0358717124074 0.00512453034392 0.923 2.34907046418e-38
0.0375798891887 0.00512453034392 0.923 2.34932353868e-38
0.0393731972073 0.00513563441834 0.925 2.34953919851e-38
0.0410850753467 0.00513563441834 0.925 2.34943171892e-38
0.0427969534861 0.00513563441834 0.925 2.34978905003e-38
0.0445088316256 0.00513563441834 0.925 2.34917864442e-38
0.0466204564441 0.00518005071601 0.933 2.34925151194e-38
0.048450778044 0.00519115479043 0.935 2.34961080486e-38
0.0501811629741 0.00519115479043 0.935 2.34928584375e-38
0.0519115479043 0.00519115479043 0.935 2.34975513861e-38
0.0536419328344 0.00519115479043 0.935 2.34961122525e-38
0.0555499829552 0.00520781090205 0.938 2.34957563227e-38
0.0572859199226 0.00520781090205 0.938 2.34968395264e-38
0.0595252415969 0.00525222719973 0.946 2.35015128568e-38
0.0614055315317 0.00526333127414 0.948 2.3500058309e-38
0.0633598486293 0.00527998738577 0.951 2.35050945757e-38
0.0653252698012 0.0052966434974 0.954 2.35080246908e-38
0.0670908176337 0.0052966434974 0.954 2.35094428048e-38
0.00530774757182 0.00707699676242 0.956 1.86918669663e-38
0.00707699676242 0.00707699676242 0.956 2.09960570636e-38
0.00884624595303 0.00707699676242 0.956 2.1182578297e-38
0.0105932869948 0.00706219132986 0.954 2.15495559441e-38
0.0123199705668 0.00703998318103 0.951 2.18257953116e-38
0.0140355500644 0.00701777503219 0.948 2.21945694233e-38
0.0157566815992 0.00700296959964 0.946 2.2009813826e-38
0.0175074239991 0.00700296959964 0.946 2.3484587974e-38
0.0191970939897 0.0069807614508 0.943 2.27459719612e-38
0.0208756599059 0.00695855330196 0.94 2.29310708767e-38
0.0224950040919 0.00692153972057 0.935 2.34878544007e-38
0.024225389022 0.00692153972057 0.935 2.34874550306e-38
0.0259557739521 0.00692153972057 0.935 2.3487132732e-38
0.0276861588823 0.00692153972057 0.935 2.34871061073e-38
0.0293536207241 0.00690673428801 0.933 2.34881921136e-38
0.0309803676263 0.00688452613918 0.93 2.34921381701e-38
0.0326311733564 0.00686972070662 0.928 2.34867501775e-38
0.0343486035331 0.00686972070662 0.928 2.34907256612e-38
0.0360660337097 0.00686972070662 0.928 2.34914249092e-38
0.0377834638864 0.00686972070662 0.928 2.34921409727e-38
0.0395008940631 0.00686972070662 0.928 2.34910689794e-38
0.0412183242397 0.00686972070662 0.928 2.3493588514e-38
0.0430282883699 0.00688452613918 0.93 2.34928472271e-38
0.0447494199046 0.00688452613918 0.93 2.34939346347e-38
0.0467203931138 0.00692153972057 0.935 2.34946549021e-38
0.048450778044 0.00692153972057 0.935 2.34932325842e-38
0.0501811629741 0.00692153972057 0.935 2.34932339855e-38
0.0520781090205 0.00694374786941 0.938 2.34946717177e-38
0.0538140459879 0.00694374786941 0.938 2.34972360939e-38
0.0556684264157 0.00695855330196 0.94 2.34957563227e-38
0.057774499197 0.00700296959964 0.946 2.34971926537e-38
0.0596510877736 0.00701777503219 0.948 2.34996813597e-38
0.0614055315317 0.00701777503219 0.948 2.35026240865e-38
0.0635597219688 0.00706219132986 0.954 2.35058148431e-38
0.0653252698012 0.00706219132986 0.954 2.35062254236e-38
0.0670908176337 0.00706219132986 0.954 2.35076757675e-38
0.00882773916233 0.00882773916233 0.954 2.10914518579e-38
0.0105932869948 0.00882773916233 0.954 2.09052655348e-38
0.0123199705668 0.00879997897629 0.951 2.16417487713e-38
0.0140355500644 0.00877221879024 0.948 2.19183412661e-38
0.0157899938224 0.00877221879024 0.948 2.20094578962e-38
0.0175074239991 0.00875371199954 0.946 2.28388724442e-38
0.019258166399 0.00875371199954 0.946 2.29314212013e-38
0.0210089087989 0.00875371199954 0.946 2.30236168311e-38
0.0225671805756 0.00867968483676 0.938 2.34874620371e-38
0.0243031175429 0.00867968483676 0.938 2.34870724761e-38
0.0260390545103 0.00867968483676 0.938 2.34852591959e-38
0.0277749914776 0.00867968483676 0.938 2.34895990173e-38
0.0294165438124 0.00865192465071 0.935 2.34838635027e-38
0.0310803042961 0.00863341786002 0.933 2.34881823045e-38
0.0327014991611 0.00860565767397 0.93 2.34903417055e-38
0.0344226306959 0.00860565767397 0.93 2.34907116483e-38
0.0361437622307 0.00860565767397 0.93 2.34935646919e-38
0.0378648937655 0.00860565767397 0.93 2.34903445081e-38
0.0395860253003 0.00860565767397 0.93 2.34943073801e-38
0.0413071568351 0.00860565767397 0.93 2.3493198953e-38
0.0431670893001 0.00863341786002 0.933 2.34932073608e-38
0.0449900081837 0.00865192465071 0.935 2.34953765708e-38
0.0467203931138 0.00865192465071 0.935 2.34956960669e-38
0.048450778044 0.00865192465071 0.935 2.34954003929e-38
0.0501811629741 0.00865192465071 0.935 2.34950150358e-38
0.0520781090205 0.00867968483676 0.938 2.35004156401e-38
0.0538140459879 0.00867968483676 0.938 2.34960870292e-38
0.0560237567971 0.00875371199954 0.946 2.35000709207e-38
0.0578966440156 0.00877221879024 0.948 2.35022191112e-38
0.0596510877736 0.00877221879024 0.948 2.35015100542e-38
0.061599852834 0.00879997897629 0.951 2.35025862514e-38
0.0635597219688 0.00882773916233 0.954 2.35025540216e-38
0.0653252698012 0.00882773916233 0.954 2.35098323658e-38
0.067231469243 0.00884624595303 0.956 2.35098169515e-38
0.00882773916233 0.0105932869948 0.954 2.19205062722e-38
0.0105932869948 0.0105932869948 0.954 2.14588302763e-38
0.0123199705668 0.0105599747715 0.951 2.15495559441e-38
0.0140799663621 0.0105599747715 0.951 2.19179881389e-38
0.0157899938224 0.0105266625483 0.948 2.33001967142e-38
0.0175444375805 0.0105266625483 0.948 2.30243174804e-38
0.019258166399 0.0105044543995 0.946 2.29317743285e-38
0.0210089087989 0.0105044543995 0.946 2.3208379435e-38
0.0226152982314 0.0104378299529 0.94 2.34856683751e-38
0.0243549365569 0.0104378299529 0.94 2.34878053552e-38
0.0260945748824 0.0104378299529 0.94 2.34852914258e-38
0.0278342132079 0.0104378299529 0.94 2.34878207695e-38
0.0295738515333 0.0104378299529 0.94 2.34910409534e-38
0.0312468654123 0.0104156218041 0.938 2.34853040375e-38
0.0328773136727 0.0103823095809 0.935 2.3491029743e-38
0.0345336714401 0.010360101432 0.933 2.34903262912e-38
0.0362603550121 0.010360101432 0.933 2.34892683108e-38
0.0380684684631 0.0103823095809 0.935 2.34929102856e-38
0.0397988533933 0.0103823095809 0.935 2.34917920494e-38
0.0415292383234 0.0103823095809 0.935 2.34950136345e-38
0.0432596232536 0.0103823095809 0.935 2.34928570362e-38
0.0449900081837 0.0103823095809 0.935 2.34939486477e-38
0.0468702981185 0.0104156218041 0.938 2.34946520995e-38
0.0486062350858 0.0104156218041 0.938 2.34960996409e-38
0.0504495114392 0.0104378299529 0.94 2.34924912973e-38
0.0521891497647 0.0104378299529 0.94 2.34961038448e-38
0.0542730143972 0.0105044543995 0.946 2.34997163922e-38
0.0561422002575 0.0105266625483 0.948 2.35000470986e-38
0.0578966440156 0.0105266625483 0.948 2.34993478507e-38
0.0596510877736 0.0105266625483 0.948 2.35029674046e-38
0.061599852834 0.0105599747715 0.951 2.35062058054e-38
0.0636929708618 0.0106154951436 0.956 2.35054981497e-38
0.0654622200524 0.0106154951436 0.956 2.3507654748e-38
0.067231469243 0.0106154951436 0.956 2.3509809945e-38
0.0106154951436 0.0123847443342 0.956 2.07219658866e-38
0.0123588348273 0.0123588348273 0.954 2.2470443052e-38
0.0141243826597 0.0123588348273 0.954 2.31161964168e-38
0.0158399621573 0.0123199705668 0.951 2.24700703066e-38
0.0175444375805 0.0122811063063 0.948 2.34856753816e-38
0.0192988813385 0.0122811063063 0.948 2.28406478894e-38
0.0210533250966 0.0122811063063 0.948 2.31161683908e-38
0.0226874747151 0.0122163325389 0.943 2.33916762806e-38
0.0244326650778 0.0122163325389 0.943 2.34878039539e-38
0.0261778554405 0.0122163325389 0.943 2.34852914258e-38
0.0280118783985 0.0122551967994 0.946 2.34860018841e-38
0.0297626207984 0.0122551967994 0.946 2.34845823688e-38
0.0314134265286 0.0122163325389 0.943 2.34910605716e-38
0.0330531281843 0.0121774682784 0.94 2.34889348018e-38
0.0346076986028 0.012112694511 0.935 2.34914263105e-38
0.036338083533 0.012112694511 0.935 2.34914136988e-38
0.0381906132817 0.0121515587715 0.938 2.34917920494e-38
0.0397988533933 0.012112694511 0.935 2.34953765708e-38
0.0415292383234 0.012112694511 0.935 2.34921353675e-38
0.0433984241838 0.0121515587715 0.938 2.34943101827e-38
0.0451343611511 0.0121515587715 0.938 2.34943087814e-38
0.0468702981185 0.0121515587715 0.938 2.34943298009e-38
