# .PCD v0.7 - Point Cloud Data file format
VERSION 0.7
FIELDS x y z rgb
SIZE 4 4 4 4
TYPE F F F F
COUNT 1 1 1 1
WIDTH 851
HEIGHT 1
VIEWPOINT 0 0 0 1 0 0 0
POINTS 851
DATA ascii
0.00656620933919 -0.0262648373568 0.887 7.93982436119e-39
0.00818925488329 -0.0262056156265 0.885 1.75169370585e-38
0.0097937936367 -0.0261167830312 0.882 2.20177465766e-38
0.0114260925761 -0.0261167830312 0.882 2.2010536896e-38
0.0130287806505 -0.026057561301 0.88 2.19172650689e-38
0.0145740976737 -0.0259095069754 0.875 2.27488222023e-38
0.0161564282782 -0.0258502852452 0.873 2.34885480434e-38
0.0177313561665 -0.0257910635149 0.871 2.34860158971e-38
0.0192988813385 -0.0257318417847 0.869 2.31136768822e-38
0.0209071214501 -0.0257318417847 0.869 2.34845851714e-38
0.0225153615616 -0.0257318417847 0.869 2.33920294078e-38
0.0240680813011 -0.0256726200545 0.867 2.34860257062e-38
0.0256726200545 -0.0256726200545 0.867 2.34838705092e-38
0.0272771588079 -0.0256726200545 0.867 2.3487132732e-38
0.0288816975613 -0.0256726200545 0.867 2.34896158329e-38
0.0304862363147 -0.0256726200545 0.867 2.34856683751e-38
0.0321648022309 -0.0257318417847 0.869 2.34921451766e-38
0.0337730423424 -0.0257318417847 0.869 2.34874718462e-38
0.035381282454 -0.0257318417847 0.869 2.34907032405e-38
0.0369895225655 -0.0257318417847 0.869 2.3488898368e-38
0.0385977626771 -0.0257318417847 0.869 2.34885466421e-38
0.0402985367421 -0.0257910635149 0.871 2.3488912381e-38
0.0419104782118 -0.0257910635149 0.871 2.34888535265e-38
0.0436223563512 -0.0258502852452 0.873 2.3491433317e-38
0.045237999179 -0.0258502852452 0.873 2.34914080936e-38
0.0468536420069 -0.0258502852452 0.873 2.34907060431e-38
0.0485803255789 -0.0259095069754 0.875 2.34921535844e-38
0.0501996697648 -0.0259095069754 0.875 2.3493574501e-38
0.0519966791415 -0.0259983395707 0.878 2.34971912524e-38
0.0536215753646 -0.0259983395707 0.878 2.34921605909e-38
0.0553723177646 -0.026057561301 0.88 1.40085032908e-38
0.0570009153459 -0.026057561301 0.88 1.31941779246e-38
0.0586295129272 -0.026057561301 0.88 1.27371528382e-38
0.0603950607596 -0.0261167830312 0.882 1.41172174269e-38
0.0620273596991 -0.0261167830312 0.882 1.52210286351e-38
0.0636596586385 -0.0261167830312 0.882 1.59546434136e-38
0.00166190980456 -0.0249286470685 0.898 8.94140944506e-39
0.00332381960913 -0.0249286470685 0.898 9.50569131717e-39
0.00496352126486 -0.0248176063243 0.894 9.59752681332e-39
0.00658101477175 -0.0246788053941 0.889 9.87626189346e-39
0.00820776167399 -0.024623285022 0.887 6.92963390345e-39
0.00984931400879 -0.024623285022 0.887 1.47528814428e-38
0.0114649568366 -0.0245677646499 0.885 2.19276542957e-38
0.0130583915156 -0.0244844840917 0.882 2.26573482411e-38
0.014690690455 -0.0244844840917 0.882 2.29332344815e-38
0.0162489622317 -0.0243734433476 0.878 2.23796669374e-38
0.0178127860456 -0.0242901627894 0.875 2.32079884727e-38
0.0193432976362 -0.0241791220453 0.871 2.29296037172e-38
0.0209552391059 -0.0241791220453 0.871 2.34860144958e-38
0.0225671805756 -0.0241791220453 0.871 2.33923769298e-38
0.0241236016732 -0.0241236016732 0.869 2.34881851071e-38
0.0257318417847 -0.0241236016732 0.869 2.34849565155e-38
0.0273400818963 -0.0241236016732 0.869 2.34863858399e-38
0.0289483220078 -0.0241236016732 0.869 2.34903038704e-38
0.0305565621193 -0.0241236016732 0.869 2.34863788334e-38
0.0321648022309 -0.0241236016732 0.869 2.34895948134e-38
0.0338507708634 -0.0241791220453 0.871 2.34849803375e-38
0.035462712333 -0.0241791220453 0.871 2.34906948327e-38
0.0370746538027 -0.0241791220453 0.871 2.34888969667e-38
0.0386865952724 -0.0241791220453 0.871 2.34918130689e-38
0.0402985367421 -0.0241791220453 0.871 2.34910703807e-38
0.0419104782118 -0.0241791220453 0.871 2.34882117318e-38
0.043722293021 -0.0242901627894 0.875 2.34946801255e-38
0.0453416372069 -0.0242901627894 0.875 2.34885480434e-38
0.047121990472 -0.0243734433476 0.878 2.34910661768e-38
0.0488579274393 -0.0244289637197 0.88 2.34961080486e-38
0.0504865250206 -0.0244289637197 0.88 2.34993282325e-38
0.0522335660624 -0.0244844840917 0.882 2.15578250063e-38
0.0540490822297 -0.0245677646499 0.885 1.43812234589e-38
0.0556869332064 -0.0245677646499 0.885 1.35633135712e-38
0.0573247841831 -0.0245677646499 0.885 1.29201063657e-38
0.0587627618202 -0.0244844840917 0.882 1.43937790931e-38
0.0603950607596 -0.0244844840917 0.882 1.31956156568e-38
0.062238337113 -0.0245677646499 0.885 1.46707667541e-38
0.0638761880897 -0.0245677646499 0.885 1.68780514574e-38
0.00168041659526 -0.0235258323337 0.908 8.19703549691e-39
0.00335343047424 -0.0234740133197 0.906 9.22910863147e-39
0.00497462533928 -0.02321491825 0.896 9.32022666282e-39
0.00661802835314 -0.023163099236 0.894 8.58661889077e-39
0.00824477525538 -0.0230853707151 0.891 1.02464737373e-38
0.00987152215763 -0.0230335517011 0.889 8.40366536327e-39
0.0114908663436 -0.0229817326872 0.887 1.09764941853e-38
0.0131324186784 -0.0229817326872 0.887 1.89824780509e-38
0.0147406587899 -0.0229299136732 0.885 2.29386238754e-38
0.0163229893945 -0.0228521851523 0.882 2.34878179669e-38
0.0178738584549 -0.0227485471244 0.878 2.34870556606e-38
0.0194321302315 -0.0226708186035 0.875 2.34874396163e-38
0.0210514744175 -0.0226708186035 0.875 2.34881584825e-38
0.0226189995895 -0.0226189995895 0.873 2.3484587974e-38
0.0242346424173 -0.0226189995895 0.873 2.34867277567e-38
0.0257910635149 -0.0225671805756 0.871 2.34874578332e-38
0.0274030049846 -0.0225671805756 0.871 2.34885466421e-38
0.0290815709008 -0.0226189995895 0.873 2.34881795019e-38
0.0306972137286 -0.0226189995895 0.873 2.34860285088e-38
0.0323128565565 -0.0226189995895 0.873 2.34928486284e-38
0.0338507708634 -0.0225671805756 0.871 2.34910591703e-38
0.035462712333 -0.0225671805756 0.871 2.3486743171e-38
0.0371597850399 -0.0226189995895 0.873 2.34900039925e-38
0.0387754278677 -0.0226189995895 0.873 2.34878347825e-38
0.0403910706956 -0.0226189995895 0.873 2.3489996986e-38
0.0420067135234 -0.0226189995895 0.873 2.34914263105e-38
0.043722293021 -0.0226708186035 0.875 2.3492851431e-38
0.0454970942488 -0.0227485471244 0.878 2.34971744368e-38
0.047121990472 -0.0227485471244 0.878 2.34972080679e-38
0.0488579274393 -0.0228003661383 0.88 2.34928402206e-38
0.0504865250206 -0.0228003661383 0.88 1.65849796927e-38
0.0522335660624 -0.0228521851523 0.882 1.22693657797e-38
0.0540490822297 -0.0229299136732 0.885 1.26467522717e-38
0.0556869332064 -0.0229299136732 0.885 1.21818350724e-38
0.0573247841831 -0.0229299136732 0.885 1.37498544228e-38
0.0589626351597 -0.0229299136732 0.885 1.34729130047e-38
0.0606004861364 -0.0229299136732 0.885 1.56830955933e-38
0.062238337113 -0.0229299136732 0.885 1.37444734367e-38
0.0 -0.0218935333942 0.91 2.30383598923e-38
0.00168041659526 -0.0218454157384 0.908 8.37317310869e-39
0.00336083319052 -0.0218454157384 0.908 1.00581392237e-38
0.00498572941369 -0.0216048274593 0.898 1.00570630265e-38
0.0066328337857 -0.0215567098035 0.896 1.02432451457e-38
0.00827253544143 -0.0215085921477 0.894 9.04830749841e-39
0.00987152215763 -0.0213882980082 0.889 9.32596638133e-39
0.0115167758506 -0.0213882980082 0.889 9.87877302031e-39
0.0131324186784 -0.0213401803524 0.887 8.49514212702e-39
0.0147739710132 -0.0213401803524 0.887 1.40145989391e-38
0.0163785097666 -0.0212920626966 0.885 2.01802575315e-38
0.0179552883339 -0.0212198862128 0.882 2.2570550413e-38
0.0195431709757 -0.021171768557 0.88 2.34892542979e-38
0.021171768557 -0.021171768557 0.88 2.3486367623e-38
0.0227485471244 -0.0211236509012 0.878 2.3488527024e-38
0.0242901627894 -0.0210514744175 0.875 2.34863522087e-38
0.0258502852452 -0.0210033567617 0.873 2.34878095591e-38
0.027465928073 -0.0210033567617 0.873 2.34881710941e-38
0.0291481953473 -0.0210514744175 0.875 2.34885382343e-38
0.0307675395333 -0.0210514744175 0.875 2.34871243242e-38
0.0323868837192 -0.0210514744175 0.875 2.34878263747e-38
0.0339284993843 -0.0210033567617 0.873 2.34889053745e-38
0.0355441422121 -0.0210033567617 0.873 2.34889095784e-38
0.0371597850399 -0.0210033567617 0.873 2.34889277953e-38
0.0387754278677 -0.0210033567617 0.873 2.34935913166e-38
0.0404836046491 -0.0210514744175 0.875 2.34896550692e-38
0.0422473018025 -0.0211236509012 0.878 2.3491794852e-38
0.0438721980256 -0.0211236509012 0.878 2.34957451123e-38
0.0454970942488 -0.0211236509012 0.878 2.3492452061e-38
0.047229329858 -0.021171768557 0.88 1.79664315669e-38
0.0488579274393 -0.021171768557 0.88 1.42890292303e-38
0.0504865250206 -0.021171768557 0.88 1.29193889009e-38
0.0522335660624 -0.0212198862128 0.882 1.20925107031e-38
0.0541712270483 -0.0213401803524 0.887 1.22747467658e-38
0.0558127793831 -0.0213401803524 0.887 1.37491411619e-38
0.0574543317179 -0.0213401803524 0.887 1.34729130047e-38
0.0590958840527 -0.0213401803524 0.887 1.33800055152e-38
0.0607374363875 -0.0213401803524 0.887 1.71560634676e-38
0.0 -0.0202094154408 0.91 2.35043939265e-38
0.00168041659526 -0.0201649991431 0.908 7.44764349897e-39
0.00336083319052 -0.0201649991431 0.908 9.22874989906e-39
0.00498572941369 -0.0199429176548 0.898 9.68900357707e-39
0.00664763921826 -0.0199429176548 0.898 8.86320157647e-39
0.00829104223213 -0.0198985013571 0.896 9.14014299457e-39
0.00989373030646 -0.0197874606129 0.891 9.78550259452e-39
0.0115167758506 -0.0197430443153 0.889 9.50927864123e-39
0.0131620295435 -0.0197430443153 0.889 9.51035483846e-39
0.0147739710132 -0.0196986280176 0.887 1.06166855812e-38
0.016415523348 -0.0196986280176 0.887 9.50605004957e-39
0.0180163607432 -0.0196542117199 0.885 1.4288680307e-38
0.0195875872734 -0.0195875872734 0.882 1.90760161247e-38
0.021171768557 -0.0195431709757 0.88 2.22078369172e-38
0.0228003661383 -0.0195431709757 0.88 2.34925081129e-38
0.0243734433476 -0.0194987546781 0.878 2.34907116483e-38
0.0259983395707 -0.0194987546781 0.878 2.34932297816e-38
0.0276232357939 -0.0194987546781 0.878 2.34903501133e-38
0.0292481320171 -0.0194987546781 0.878 2.3487480254e-38
0.0308730282403 -0.0194987546781 0.878 2.34925025077e-38
0.0324979244634 -0.0194987546781 0.878 2.34899745653e-38
0.0341228206866 -0.0194987546781 0.878 2.34914221066e-38
0.0357477169098 -0.0194987546781 0.878 2.34896242407e-38
0.0373726131329 -0.0194987546781 0.878 2.34946689151e-38
0.0389975093561 -0.0194987546781 0.878 2.34953779721e-38
0.0406224055793 -0.0194987546781 0.878 2.33066104573e-38
0.0423435371141 -0.0195431709757 0.88 2.08234801513e-38
0.0439721346954 -0.0195431709757 0.88 1.62173084029e-38
0.0456007322767 -0.0195431709757 0.88 1.52098953188e-38
0.047229329858 -0.0195431709757 0.88 1.31927429949e-38
0.0488579274393 -0.0195431709757 0.88 1.18159280174e-38
0.0506012671229 -0.0195875872734 0.882 1.27371528382e-38
0.0524112312531 -0.0196542117199 0.885 1.22761816954e-38
0.0542933718669 -0.0197430443153 0.889 1.25516881839e-38
0.0565049333552 -0.0199429176548 0.898 1.33810817124e-38
0.0581668431598 -0.0199429176548 0.898 1.31970477838e-38
0.0598287529643 -0.0199429176548 0.898 1.30119418619e-38
0.0621754140247 -0.0201649991431 0.908 1.46692855816e-38
0.0016841179534 -0.0185252974874 0.91 6.80228389901e-39
0.00336083319052 -0.0184845825479 0.908 9.04042379325e-39
0.00500238552532 -0.0183420802595 0.901 9.8730333018e-39
0.00664763921826 -0.0182810078502 0.898 9.6900797743e-39
0.00829104223213 -0.0182402929107 0.896 9.23126102591e-39
0.00994925067855 -0.0182402929107 0.896 1.02457562725e-38
0.011581549618 -0.0181995779711 0.894 9.78406766489e-39
0.0131620295435 -0.0180977906223 0.889 9.51035483846e-39
0.0148072832364 -0.0180977906223 0.889 9.41816060989e-39
0.016415523348 -0.0180570756828 0.887 1.08914746049e-38
0.0180570756828 -0.0180570756828 0.887 1.07992803763e-38
0.0196542117199 -0.0180163607432 0.885 9.4185193423e-39
0.0212198862128 -0.0179552883339 0.882 1.12548705331e-38
0.0228521851523 -0.0179552883339 0.882 1.36429521656e-38
0.0244289637197 -0.0179145733944 0.88 1.65892326336e-38
0.026057561301 -0.0179145733944 0.88 1.85239535752e-38
0.0276861588823 -0.0179145733944 0.88 1.94462686062e-38
0.0293147564636 -0.0179145733944 0.88 1.99980298766e-38
0.0309433540449 -0.0179145733944 0.88 2.11922542629e-38
0.0325719516262 -0.0179145733944 0.88 2.1468125089e-38
0.0342005492075 -0.0179145733944 0.88 1.99026000499e-38
0.0358291467888 -0.0179145733944 0.88 1.93497737927e-38
0.0374577443701 -0.0179145733944 0.88 1.73254005779e-38
0.0390863419515 -0.0179145733944 0.88 1.50233965061e-38
0.0407149395328 -0.0179145733944 0.88 1.37380162534e-38
0.0424397724257 -0.0179552883339 0.882 1.15353992752e-38
0.0440720713651 -0.0179552883339 0.882 1.20932281679e-38
0.0457043703046 -0.0179552883339 0.882 1.19995990097e-38
0.047336669244 -0.0179552883339 0.882 1.16308220954e-38
0.0489689681835 -0.0179552883339 0.882 1.17233750564e-38
0.0507733802764 -0.0180163607432 0.885 1.15389865993e-38
0.052648118174 -0.0180977906223 0.889 1.3843483581e-38
0.0542933718669 -0.0180977906223 0.889 1.23680171916e-38
0.0565049333552 -0.0182810078502 0.898 1.30126719384e-38
0.0581668431598 -0.0182810078502 0.898 1.4856543898e-38
0.0604949974294 -0.0184845825479 0.908 1.43934203607e-38
0.0621754140247 -0.0184845825479 0.908 1.35640310361e-38
0.0642074596432 -0.0185863698967 0.913 1.45735068316e-38
0.0033682359068 -0.016841179534 0.91 9.85940147034e-39
0.00500238552532 -0.0166746184177 0.901 9.78012160842e-39
0.00666984736709 -0.0166746184177 0.901 9.59752681332e-39
0.00830954902282 -0.0166190980456 0.898 8.67917185174e-39
0.00997145882739 -0.0166190980456 0.898 9.96917358684e-39
0.011607459125 -0.0165820844643 0.896 1.05216214934e-38
0.0132360567063 -0.0165450708829 0.894 9.6014728698e-39
0.0148405954597 -0.0164895505108 0.891 9.78657879174e-39
0.0164525369294 -0.0164525369294 0.889 9.60254906702e-39
0.0180977906223 -0.0164525369294 0.889 9.78801372137e-39
0.0196986280176 -0.016415523348 0.887 9.42031300433e-39
0.0212920626966 -0.0163785097666 0.885 9.97204344609e-39
0.0229299136732 -0.0163785097666 0.885 1.05234151554e-38
0.0244844840917 -0.0163229893945 0.882 1.034225529e-38
0.0261167830312 -0.0163229893945 0.882 9.88128414716e-39
0.0277490819706 -0.0163229893945 0.882 1.05262850147e-38
0.0293813809101 -0.0163229893945 0.882 1.12620451812e-38
0.0310136798495 -0.0163229893945 0.882 1.13528044801e-38
0.032645978789 -0.0163229893945 0.882 1.19030999923e-38
0.0342782777284 -0.0163229893945 0.882 1.17187115351e-38
0.0359105766679 -0.0163229893945 0.882 1.15379104021e-38
0.0375428756073 -0.0163229893945 0.882 1.17240925212e-38
0.0391751745468 -0.0163229893945 0.882 1.17240925212e-38
0.0409462744165 -0.0163785097666 0.885 1.17237337888e-38
0.0425841253931 -0.0163785097666 0.885 1.10798091185e-38
0.0442219763698 -0.0163785097666 0.885 1.10798091185e-38
0.0458598273464 -0.0163785097666 0.885 1.13560330718e-38
0.0474976783231 -0.0163785097666 0.885 1.33828711706e-38
0.0492465700439 -0.016415523348 0.887 1.14485860328e-38
0.0510028644811 -0.0164525369294 0.889 1.19088761445e-38
0.052648118174 -0.0164525369294 0.889 1.21857811289e-38
0.0557591096901 -0.0168966999061 0.913 1.30148117211e-38
0.0572600104156 -0.016841179534 0.91 1.30123005943e-38
0.058944128369 -0.016841179534 0.91 1.31966890514e-38
0.0604949974294 -0.0168041659526 0.908 1.38402549893e-38
0.0621754140247 -0.0168041659526 0.908 1.12613277164e-38
0.0642074596432 -0.0168966999061 0.913 2.35093657334e-38
0.00508011404625 -0.0152403421387 0.915 9.41062722935e-39
0.00668465279965 -0.0150404687992 0.903 1.03336457122e-38
0.00833730920887 -0.015007156576 0.901 1.00581392237e-38
0.00997145882739 -0.0149571882411 0.898 1.04261986732e-38
0.011607459125 -0.0149238760178 0.896 1.06113045951e-38
0.0132656675714 -0.0149238760178 0.896 1.06134569896e-38
0.0148405954597 -0.0148405954597 0.891 9.96991627502e-39
0.0164895505108 -0.0148405954597 0.891 9.97060851647e-39
0.0180977906223 -0.0148072832364 0.889 9.78873118618e-39
0.0197430443153 -0.0148072832364 0.889 9.789448651e-39
0.0212920626966 -0.0147406587899 0.885 1.00663900691e-38
0.0229299136732 -0.0147406587899 0.885 1.05248500851e-38
0.0244844840917 -0.014690690455 0.882 1.07095972746e-38
0.0261167830312 -0.014690690455 0.882 1.02493435966e-38
0.0277490819706 -0.014690690455 0.882 9.88200161197e-39
0.0294813175799 -0.0147406587899 0.885 1.02511372586e-38
0.0311191685565 -0.0147406587899 0.885 1.04344495185e-38
0.0327570195332 -0.0147406587899 0.885 1.12634801108e-38
0.0343948705098 -0.0147406587899 0.885 1.06177617785e-38
0.0361141513656 -0.0147739710132 0.887 1.08957793938e-38
0.0377557037004 -0.0147739710132 0.887 1.0895061929e-38
0.0393972560352 -0.0147739710132 0.887 1.09876148899e-38
0.04103880837 -0.0147739710132 0.887 1.09890498196e-38
0.0426803607048 -0.0147739710132 0.887 1.11730795443e-38
0.0443219130396 -0.0147739710132 0.887 1.13574680014e-38
0.0459634653743 -0.0147739710132 0.887 1.17255274509e-38
0.0476050177091 -0.0147739710132 0.887 1.16333332223e-38
0.0493576107881 -0.0148072832364 0.889 1.20017514041e-38
0.0511176065834 -0.0148405954597 0.891 1.24634400118e-38
0.0538917745088 -0.0151570615806 0.91 1.20946630975e-38
0.0555758924622 -0.0151570615806 0.91 1.23698108536e-38
0.0574487796807 -0.0152070299155 0.913 1.30130180591e-38
0.0591384496713 -0.0152070299155 0.913 1.38420486514e-38
0.0606282463224 -0.0151570615806 0.91 1.24591352229e-38
0.0623123642758 -0.0151570615806 0.91 1.4392712705e-38
0.0642074596432 -0.0152070299155 0.913 2.35097763139e-38
0.00508011404625 -0.01354697079 0.915 1.0970037002e-38
0.0067364718136 -0.0134729436272 0.91 9.68936230948e-39
0.00833730920887 -0.0133396947342 0.901 9.59860301054e-39
0.0100047710506 -0.0133396947342 0.901 9.32309652207e-39
0.011633368632 -0.0132952784365 0.898 1.05184013095e-38
0.0132656675714 -0.0132656675714 0.896 1.04305062647e-38
0.0149238760178 -0.0132656675714 0.896 1.01546382412e-38
0.0165450708829 -0.0132360567063 0.894 1.05226976906e-38
0.0181995779711 -0.0132360567063 0.894 1.10765805268e-38
0.0197430443153 -0.0131620295435 0.889 9.97132598128e-39
0.0213401803524 -0.0131324186784 0.887 1.00681837311e-38
0.0229817326872 -0.0131324186784 0.887 9.69511183708e-39
0.024623285022 -0.0131324186784 0.887 1.06170443136e-38
0.0262648373568 -0.0131324186784 0.887 1.04337320537e-38
0.0279063896916 -0.0131324186784 0.887 9.69868935206e-39
0.0295479420264 -0.0131324186784 0.887 1.05273612119e-38
0.0311894943612 -0.0131324186784 0.887 1.07095972746e-38
0.0329050738588 -0.0131620295435 0.889 1.08046613624e-38
0.0345503275517 -0.0131620295435 0.889 1.01600192273e-38
0.0361955812446 -0.0131620295435 0.889 1.0436601913e-38
0.0378408349376 -0.0131620295435 0.889 1.08943444641e-38
0.0394860886305 -0.0131620295435 0.889 1.10783741889e-38
0.0411313423234 -0.0131620295435 0.889 1.11734382767e-38
0.0427765960164 -0.0131620295435 0.889 1.13574680014e-38
0.0444218497093 -0.0131620295435 0.889 1.18166454822e-38
0.0460671034023 -0.0131620295435 0.889 1.30144529887e-38
0.0478196964812 -0.0131916404086 0.891 1.16333332223e-38
0.0494686515323 -0.0131916404086 0.891 1.21847049316e-38
0.0520929144531 -0.0134433327621 0.908 1.24620050822e-38
0.0537733310484 -0.0134433327621 0.908 1.20935869003e-38
0.0555758924622 -0.0134729436272 0.91 1.27375115706e-38
0.0574487796807 -0.0135173599249 0.913 1.25524056487e-38
0.0591384496713 -0.0135173599249 0.913 1.29211951746e-38
0.0606282463224 -0.0134729436272 0.91 1.16297458982e-38
0.0623123642758 -0.0134729436272 0.91 2.35061273327e-38
0.0642074596432 -0.0135173599249 0.913 2.35097889256e-38
0.00508011404625 -0.0118535994412 0.915 1.31697981339e-38
0.00675867996244 -0.0118276899343 0.913 9.13476200847e-39
0.00840208297631 -0.0117629161668 0.908 9.23126102591e-39
0.0100047710506 -0.0116722328924 0.901 1.0061009083e-38
0.011633368632 -0.011633368632 0.898 1.06120220599e-38
0.0132952784365 -0.011633368632 0.898 1.07992803763e-38
0.0149238760178 -0.011607459125 0.896 9.97096724887e-39
0.0165820844643 -0.011607459125 0.896 1.00638789423e-38
0.0181995779711 -0.011581549618 0.894 1.0523056423e-38
0.0198540850594 -0.011581549618 0.894 1.00645964071e-38
0.0213882980082 -0.0115167758506 0.889 9.78837245378e-39
0.0230335517011 -0.0115167758506 0.889 1.05248500851e-38
0.0246788053941 -0.0115167758506 0.889 1.15379104021e-38
0.026324059087 -0.0115167758506 0.889 1.0895061929e-38
0.0279693127799 -0.0115167758506 0.889 1.0895061929e-38
0.0296145664729 -0.0115167758506 0.889 1.03426140224e-38
0.0312598201658 -0.0115167758506 0.889 1.1357109269e-38
0.0329050738588 -0.0115167758506 0.889 1.04351669834e-38
0.0345503275517 -0.0115167758506 0.889 1.0436601913e-38
0.0362770111237 -0.0115426853575 0.891 1.13560330718e-38
0.0379259661748 -0.0115426853575 0.891 1.13549568746e-38
0.0395749212258 -0.0115426853575 0.891 1.15389865993e-38
0.0412238762769 -0.0115426853575 0.891 1.21843461992e-38
0.042872831328 -0.0115426853575 0.891 1.21839874668e-38
0.0446716913837 -0.011581549618 0.894 1.20914345059e-38
0.046326198472 -0.011581549618 0.894 1.19084809784e-38
0.0480880449463 -0.011607459125 0.896 1.21847049316e-38
0.0498572941369 -0.011633368632 0.898 1.22761816954e-38
0.0519781723508 -0.0117370066599 0.906 1.25534818459e-38
0.0537733310484 -0.0117629161668 0.908 1.21861398613e-38
0.0557591096901 -0.0118276899343 0.913 1.25527643811e-38
0.0575746258575 -0.0118535994412 0.915 1.43026624631e-38
0.0592679972062 -0.0118535994412 0.915 1.18137756229e-38
0.060961368555 -0.0118535994412 0.915 1.87165494374e-38
0.00509677015787 -0.0101935403157 0.918 2.03532183996e-38
0.006773485395 -0.0101602280925 0.915 1.21617460576e-38
0.00846685674374 -0.0101602280925 0.915 9.50497385235e-39
0.0100602914227 -0.0100602914227 0.906 9.23090229351e-39
0.0116722328924 -0.0100047710506 0.901 1.13517394933e-38
0.0132952784365 -0.00997145882739 0.898 1.02443213429e-38
0.0149238760178 -0.00994925067855 0.896 9.6954607604e-39
0.0165820844643 -0.00994925067855 0.896 9.78801372137e-39
0.0182402929107 -0.00994925067855 0.896 1.04315796593e-38
0.0198985013571 -0.00994925067855 0.896 9.97168471369e-39
0.0215085921477 -0.00992704252972 0.894 1.06163268488e-38
0.023163099236 -0.00992704252972 0.894 1.05241326203e-38
0.0247343257662 -0.00989373030646 0.891 1.08929095345e-38
0.0263832808172 -0.00989373030646 0.891 1.0157149368e-38
0.0281266205009 -0.00992704252972 0.894 1.03415378252e-38
0.0297811275891 -0.00992704252972 0.894 1.0617403046e-38
0.0315059604821 -0.00994925067855 0.896 1.080430263e-38
0.0330901417657 -0.00992704252972 0.894 1.06195554405e-38
0.034744648854 -0.00992704252972 0.894 1.08975730558e-38
0.0363991559423 -0.00992704252972 0.894 1.09876148899e-38
0.0380536630306 -0.00992704252972 0.894 1.14475098355e-38
0.0397081701189 -0.00992704252972 0.894 1.21836287344e-38
0.0413626772071 -0.00992704252972 0.894 1.15382691345e-38
0.0431134196071 -0.00994925067855 0.896 1.2274029301e-38
0.0447716280535 -0.00994925067855 0.896 1.19992402773e-38
0.0465334745278 -0.00997145882739 0.898 1.20932281679e-38
0.0484637327975 -0.0100269791995 0.903 1.19088397108e-38
0.0501348959974 -0.0100269791995 0.903 1.19992402773e-38
0.0519781723508 -0.0100602914227 0.906 1.3475097629e-38
0.0538917745088 -0.0101047077204 0.91 1.26453173421e-38
0.0557591096901 -0.0101380199437 0.913 1.29215412954e-38
0.0575746258575 -0.0101602280925 0.915 1.16315395603e-38
0.0592679972062 -0.0101602280925 0.915 1.50366303688e-38
0.060961368555 -0.0101602280925 0.915 2.35082923388e-38
0.00509677015787 -0.00849461692979 0.918 2.27473732597e-38
0.006773485395 -0.00846685674374 0.915 1.8696927055e-38
0.00846685674374 -0.00846685674374 0.915 1.21638984521e-38
0.0101602280925 -0.00846685674374 0.915 8.58446649633e-39
0.0118535994412 -0.00846685674374 0.915 9.23305468795e-39
0.01354697079 -0.00846685674374 0.915 1.0062802745e-38
0.0152070299155 -0.00844834995305 0.913 9.41923680711e-39
0.0168041659526 -0.00840208297631 0.908 1.00642376747e-38
0.0184438676083 -0.00838357618561 0.906 1.04319383917e-38
0.0199429176548 -0.00830954902282 0.898 1.04315796593e-38
0.0216048274593 -0.00830954902282 0.898 1.06163268488e-38
0.0233962847988 -0.00835581599956 0.903 1.05248500851e-38
0.0250674479987 -0.00835581599956 0.903 1.0800715306e-38
0.0267386111986 -0.00835581599956 0.903 1.11694922202e-38
0.0283468513102 -0.00833730920887 0.901 1.03426140224e-38
0.0300143131519 -0.00833730920887 0.901 1.08943444641e-38
0.0316817749937 -0.00833730920887 0.901 1.18159280174e-38
0.0334232639983 -0.00835581599956 0.903 1.0895061929e-38
0.0349001058959 -0.00830954902282 0.898 1.05277199443e-38
0.0365620157004 -0.00830954902282 0.898 1.12631213784e-38
0.038223925505 -0.00830954902282 0.898 1.1355315607e-38
0.0398858353096 -0.00830954902282 0.898 1.1354254824e-38
0.0415477451141 -0.00830954902282 0.898 1.17233750564e-38
0.0433540078861 -0.00833730920887 0.901 1.18159280174e-38
0.0450214697279 -0.00833730920887 0.901 1.1815569285e-38
0.0467925695976 -0.00835581599956 0.903 1.17244694705e-38
0.0486247418765 -0.00838357618561 0.906 1.18166454822e-38
0.0504124978578 -0.00840208297631 0.908 1.18166454822e-38
0.0522076565554 -0.008420589767 0.91 1.31988414459e-38
0.0540694396995 -0.00844834995305 0.913 1.20925107031e-38
0.0557591096901 -0.00844834995305 0.913 1.25538405783e-38
0.0575746258575 -0.00846685674374 0.915 1.42083144388e-38
0.0592679972062 -0.00846685674374 0.915 2.35075846831e-38
0.0611612418945 -0.00849461692979 0.918 2.35051127926e-38
0.0034718739347 -0.00694374786941 0.938 2.08155740253e-38
0.00520781090205 -0.00694374786941 0.938 2.15509880711e-38
0.0069807614508 -0.0069807614508 0.943 2.2470067504e-38
0.0087259518135 -0.0069807614508 0.943 1.95266625004e-38
0.0101935403157 -0.00679569354383 0.918 1.21656921141e-38
0.0118535994412 -0.006773485395 0.915 9.78335020008e-39
0.01354697079 -0.006773485395 0.915 9.41780187748e-39
0.0152070299155 -0.00675867996244 0.913 9.51107230327e-39
0.016841179534 -0.0067364718136 0.91 1.00642376747e-38
0.0185252974874 -0.0067364718136 0.91 1.04319383917e-38
0.0201649991431 -0.00672166638105 0.908 9.97168471369e-39
0.0217972980826 -0.00670686094849 0.906 1.03415378252e-38
0.0234740133197 -0.00670686094849 0.906 1.05248500851e-38
0.0251507285568 -0.00670686094849 0.906 1.07095972746e-38
0.026827443794 -0.00670686094849 0.906 1.12624095188e-38
0.0284097743985 -0.00668465279965 0.903 1.02504197938e-38
0.0300809375984 -0.00668465279965 0.903 1.05270024795e-38
0.0317521007983 -0.00668465279965 0.903 1.08017915032e-38
0.0335343047424 -0.00670686094849 0.906 1.14457161735e-38
0.0350944271982 -0.00668465279965 0.903 1.14457161735e-38
0.0367655903981 -0.00668465279965 0.903 1.08925634138e-38
0.038436753598 -0.00668465279965 0.903 1.14460749059e-38
0.0401079167979 -0.00668465279965 0.903 1.1355315607e-38
0.0417790799978 -0.00668465279965 0.903 1.15389865993e-38
0.0435945961652 -0.00670686094849 0.906 1.23687346564e-38
0.0452713114023 -0.00670686094849 0.906 1.19070460487e-38
0.0469480266394 -0.00670686094849 0.906 1.21836287344e-38
0.0488394206486 -0.0067364718136 0.91 1.2737870303e-38
0.0506900997183 -0.00675867996244 0.913 1.20939456327e-38
0.0524945118112 -0.006773485395 0.915 1.22765404278e-38
0.0540694396995 -0.00675867996244 0.913 1.18184391442e-38
0.0557591096901 -0.00675867996244 0.913 1.43919854311e-38
0.0575746258575 -0.006773485395 0.915 2.35047008108e-38
0.0594623185085 -0.00679569354383 0.918 2.35029968319e-38
0.0611612418945 -0.00679569354383 0.918 2.35072707922e-38
0.0017451903627 -0.0052355710881 0.943 2.02606542283e-38
0.0034718739347 -0.00520781090205 0.938 2.09981674191e-38
0.00520781090205 -0.00520781090205 0.938 2.12726187299e-38
0.0069807614508 -0.0052355710881 0.943 2.17342975284e-38
0.00867968483676 -0.00520781090205 0.938 2.22896194981e-38
0.0103045810599 -0.00515229052996 0.928 1.93458711765e-38
0.0118924637017 -0.00509677015787 0.918 1.33642170854e-38
0.0135913870877 -0.00509677015787 0.918 1.00559868293e-38
0.0152403421387 -0.00508011404625 0.915 9.69366709836e-39
0.0168966999061 -0.00506900997183 0.913 1.04315796593e-38
0.0185863698967 -0.00506900997183 0.913 9.9724021785e-39
0.0202094154408 -0.0050523538602 0.91 1.00660313367e-38
0.0218454157384 -0.00504124978578 0.908 1.04326558565e-38
0.0235258323337 -0.00504124978578 0.908 1.01560731708e-38
0.0251507285568 -0.00503014571137 0.906 1.0249702329e-38
0.026827443794 -0.00503014571137 0.906 1.02504197938e-38
0.0285041590311 -0.00503014571137 0.906 1.08964968586e-38
0.0301808742682 -0.00503014571137 0.906 1.04340907861e-38
0.0318575895053 -0.00503014571137 0.906 1.05270024795e-38
0.0335343047424 -0.00503014571137 0.906 1.12624039136e-38
0.0352110199796 -0.00503014571137 0.906 1.16301046306e-38
0.0368877352167 -0.00503014571137 0.906 1.17240925212e-38
0.0385644504538 -0.00503014571137 0.906 1.11709271498e-38
0.0402411656909 -0.00503014571137 0.906 1.16308220954e-38
0.0420104148815 -0.00504124978578 0.908 1.17233750564e-38
0.0436908314768 -0.00504124978578 0.908 1.19999801629e-38
0.0453712480721 -0.00504124978578 0.908 1.20914345059e-38
0.0471553026952 -0.0050523538602 0.91 1.18159280174e-38
0.0490004297277 -0.00506900997183 0.913 1.17240925212e-38
0.0506900997183 -0.00506900997183 0.913 1.17244512536e-38
0.0524945118112 -0.00508011404625 0.915 1.17237337888e-38
0.05418788316 -0.00508011404625 0.915 1.64138419139e-38
0.0558812545087 -0.00508011404625 0.915 2.35089887841e-38
0.0577633951226 -0.00509677015787 0.918 2.35018842009e-38
0.0608873413922 -0.00521891497647 0.94 2.35007827803e-38
0.0628268530572 -0.0052355710881 0.943 2.3501156927e-38
0.0647774687966 -0.00525222719973 0.946 2.35040239837e-38
0.0017451903627 -0.0034903807254 0.943 2.12719348962e-38
0.00347927665098 -0.00347927665098 0.94 2.12718956598e-38
0.00521891497647 -0.00347927665098 0.94 2.13662590984e-38
0.0069807614508 -0.0034903807254 0.943 2.14587896386e-38
0.00867968483676 -0.0034718739347 0.938 2.10914490553e-38
0.0103267892088 -0.00344226306959 0.93 2.3027560085e-38
0.0119831469761 -0.00342375627889 0.925 2.13716540975e-38
0.0135913870877 -0.00339784677192 0.918 1.71349234789e-38
0.0152903104736 -0.00339784677192 0.918 1.16146791371e-38
0.0169337134875 -0.0033867426975 0.915 9.87805555549e-39
0.0186270848362 -0.0033867426975 0.915 1.00638789423e-38
0.0202760398873 -0.00337933998122 0.913 9.78873118618e-39
0.0218935333942 -0.0033682359068 0.91 1.05248500851e-38
0.0235776513476 -0.0033682359068 0.91 1.07106734718e-38
0.0252062489289 -0.00336083319052 0.908 1.06202729053e-38
0.0268866655242 -0.00336083319052 0.908 1.06195554405e-38
0.0285670821194 -0.00336083319052 0.908 1.07117496691e-38
0.0302474987147 -0.00336083319052 0.908 1.15404215289e-38
0.03192791531 -0.00336083319052 0.908 1.04355257158e-38
0.0336083319052 -0.00336083319052 0.908 1.08017915032e-38
0.0352887485005 -0.00336083319052 0.908 1.10783741889e-38
0.0369691650957 -0.00336083319052 0.908 1.07124671339e-38
0.038649581691 -0.00336083319052 0.908 1.08957793938e-38
0.0403299982863 -0.00336083319052 0.908 1.14485860328e-38
0.0420104148815 -0.00336083319052 0.908 1.1355315607e-38
0.0437870667884 -0.0033682359068 0.91 1.14485860328e-38
0.0454711847418 -0.0033682359068 0.91 1.15407802613e-38
0.0471553026952 -0.0033682359068 0.91 1.09879736223e-38
0.0490004297277 -0.00337933998122 0.913 1.06191967081e-38
0.0508011404625 -0.0033867426975 0.915 1.36522792081e-38
0.0526666249647 -0.00339784677192 0.918 2.19372854201e-38
0.0543655483507 -0.00339784677192 0.918 2.35022050983e-38
0.0560644717366 -0.00339784677192 0.918 2.34989835131e-38
0.0578892412993 -0.00340524948819 0.92 2.35000597103e-38
0.060563472555 -0.00346076986028 0.935 2.35008009972e-38
0.0624937308247 -0.0034718739347 0.938 2.35040464044e-38
0.064229667792 -0.0034718739347 0.938 2.35065505248e-38
0.00175074239991 -0.00175074239991 0.946 2.07216127594e-38
0.00350148479982 -0.00175074239991 0.946 2.07208686699e-38
0.00525222719973 -0.00175074239991 0.946 2.09978170945e-38
0.00700296959964 -0.00175074239991 0.946 2.09977918711e-38
0.0087259518135 -0.0017451903627 0.943 2.11825754944e-38
0.0104711421762 -0.0017451903627 0.943 2.21942050857e-38
0.0120479207436 -0.00172113153479 0.93 2.237966974e-38
0.0137394414132 -0.00171743017665 0.928 2.3209450027e-38
0.0153735910318 -0.00170817678131 0.923 2.04496375431e-38
0.0169892338596 -0.00169892338596 0.918 1.59399157667e-38
0.0186881572455 -0.00169892338596 0.918 1.1156936586e-38
0.020320456185 -0.00169337134875 0.915 9.69366709836e-39
0.0219657098779 -0.00168966999061 0.913 9.78873118618e-39
0.0235776513476 -0.0016841179534 0.91 9.7898073834e-39
0.025261769301 -0.0016841179534 0.91 9.51573582456e-39
0.0268866655242 -0.00168041659526 0.908 1.01589430301e-38
0.0285670821194 -0.00168041659526 0.908 9.97419584053e-39
0.0302474987147 -0.00168041659526 0.908 1.11745144739e-38
0.03192791531 -0.00168041659526 0.908 1.01596604949e-38
0.0336083319052 -0.00168041659526 0.908 1.12638388432e-38
0.0352887485005 -0.00168041659526 0.908 1.06195554405e-38
0.0369691650957 -0.00168041659526 0.908 1.1355315607e-38
0.038649581691 -0.00168041659526 0.908 1.12631213784e-38
0.0404188308816 -0.0016841179534 0.91 1.14482273004e-38
0.042102948835 -0.0016841179534 0.91 1.08947031966e-38
0.0439314197559 -0.00168966999061 0.913 1.15404215289e-38
0.0456210897465 -0.00168966999061 0.913 1.10780154565e-38
0.047414397765 -0.00169337134875 0.915 1.37444734367e-38
0.0492687781928 -0.00169892338596 0.918 2.1016017159e-38
0.0509677015787 -0.00169892338596 0.918 2.35039497149e-38
0.0529534802205 -0.00170817678131 0.923 2.35011527231e-38
0.0546616570018 -0.00170817678131 0.923 2.34986345898e-38
0.0564919786017 -0.00171187813945 0.925 2.3500767366e-38
0.058518472183 -0.00172113153479 0.93 2.3499349252e-38
0.060563472555 -0.00173038493014 0.935 2.35004492713e-38
0.0622938574851 -0.00173038493014 0.935 2.34989863157e-38
0.064229667792 -0.00173593696735 0.938 2.35090798685e-38
0.0663172337826 -0.0017451903627 0.943 2.35083441868e-38
0.00175074239991 0.0 0.946 1.89699210154e-38
0.00350148479982 0.0 0.946 2.07212624348e-38
0.00525222719973 0.0 0.946 2.09978297062e-38
0.00700296959964 0.0 0.946 2.08134328413e-38
0.0087259518135 0.0 0.943 2.12729718571e-38
0.0104711421762 0.0 0.943 2.1641385835e-38
0.0121515587715 0.0 0.938 2.23796669374e-38
0.0137690522784 0.0 0.93 2.25629693883e-38
0.0154568715899 0.0 0.928 2.34831460379e-38
0.0171743017665 0.0 0.928 2.34867585853e-38
0.0188306595339 0.0 0.925 2.10049595128e-38
0.0204981213757 0.0 0.923 1.75998546912e-38
0.022206298157 0.0 0.923 1.48393247425e-38
0.0237849274034 0.0 0.918 1.28200200242e-38
0.0254005702312 0.0 0.915 1.12580991247e-38
0.0270347198498 0.0 0.913 1.00660313367e-38
0.0286300052078 0.0 0.91 9.8834365416e-39
0.0303141231612 0.0 0.91 9.97634823498e-39
0.0321037298216 0.0 0.913 1.01600192273e-38
0.033867426975 0.0 0.915 1.07113909366e-38
0.0355607983237 0.0 0.915 1.10787329213e-38
0.0372541696725 0.0 0.915 1.10776567241e-38
0.039075237877 0.0 0.918 1.0800715306e-38
0.0408629938583 0.0 0.92 1.12598927867e-38
0.042473084649 0.0 0.918 1.36515701511e-38
0.0441720080349 0.0 0.918 1.67772014083e-38
0.0459708680906 0.0 0.92 2.10114615377e-38
0.0475698548068 0.0 0.918 2.35003764038e-38
0.0492687781928 0.0 0.918 2.35007421427e-38
0.0510787423229 0.0 0.92 2.35004086336e-38
0.0530682223228 0.0 0.925 2.34968129018e-38
0.054957765653 0.0 0.928 2.34982730548e-38
0.0567973406482 0.0 0.93 2.34982716535e-38
0.058518472183 0.0 0.93 2.34993646663e-38
0.060563472555 0.0 0.935 2.35044233537e-38
0.0622938574851 0.0 0.935 2.35040576148e-38
0.064229667792 0.0 0.938 2.35094638243e-38
0.0663172337826 0.0 0.943 2.35098155502e-38
0.0035088875161 0.00175444375805 0.948 2.13655402323e-38
0.00526333127414 0.00175444375805 0.948 2.05364788115e-38
0.00700296959964 0.00175074239991 0.946 2.16435494399e-38
0.00875371199954 0.00175074239991 0.946 2.11818874569e-38
0.0104711421762 0.0017451903627 0.943 2.18275973815e-38
0.0121774682784 0.00173963832549 0.94 2.19208593995e-38
0.0138430794411 0.00173038493014 0.935 2.20112571634e-38
0.015540152148 0.001726683572 0.933 2.31165159128e-38
0.0172113153479 0.00172113153479 0.93 2.34878165656e-38
0.0188917319432 0.00171743017665 0.928 2.32111904397e-38
0.0206091621199 0.00171743017665 0.928 2.34896088264e-38
0.0222544158128 0.00171187813945 0.925 2.33970642732e-38
0.0239662939522 0.00171187813945 0.925 2.24801246231e-38
0.0255393711615 0.0017026247441 0.92 2.04560218589e-38
0.0271827741753 0.00169892338596 0.918 1.8615430339e-38
0.0288816975613 0.00169892338596 0.918 1.72339182089e-38
0.0305806209472 0.00169892338596 0.918 1.70498576557e-38
0.0322795443332 0.00169892338596 0.918 1.81562304374e-38
0.0339784677192 0.00169892338596 0.918 1.82476427414e-38
0.0356773911051 0.00169892338596 0.918 1.70476814391e-38
0.0373763144911 0.00169892338596 0.918 1.88916276676e-38
0.0391603691142 0.0017026247441 0.92 2.12879125013e-38
0.0408629938583 0.0017026247441 0.92 2.24836993354e-38
0.0427044195327 0.00170817678131 0.923 2.34981763652e-38
0.044412596314 0.00170817678131 0.923 2.34953877812e-38
0.0463706147697 0.00171743017665 0.928 2.34964709849e-38
0.0483471400161 0.001726683572 0.933 2.34972010614e-38
0.0500738235881 0.001726683572 0.933 2.34939514503e-38
0.0518005071601 0.001726683572 0.933 2.34957353033e-38
0.0535271907321 0.001726683572 0.933 2.34975513861e-38
0.0553723177646 0.00173038493014 0.935 2.34961122525e-38
0.0571027026947 0.00173038493014 0.935 2.34975808133e-38
0.0588330876248 0.00173038493014 0.935 2.34983010807e-38
0.0612759839968 0.00175074239991 0.946 2.35029800163e-38
0.0631599752897 0.00175444375805 0.948 2.35026044683e-38
0.0647774687966 0.00175074239991 0.946 2.35098085437e-38
0.0665282111965 0.00175074239991 0.946 2.35098071424e-38
0.0035088875161 0.0035088875161 0.948 2.09956661014e-38
0.00526333127414 0.0035088875161 0.948 2.07208742751e-38
0.00701777503219 0.0035088875161 0.948 2.12740438504e-38
0.00875371199954 0.00350148479982 0.946 2.13666094231e-38
0.0104711421762 0.0034903807254 0.943 2.27491935464e-38
0.0121774682784 0.00347927665098 0.94 2.14580987985e-38
0.0138874957388 0.0034718739347 0.938 2.27488278075e-38
0.0156234327062 0.0034718739347 0.938 2.24729373632e-38
0.0173593696735 0.0034718739347 0.938 2.34878039539e-38
0.0190342342316 0.00346076986028 0.935 2.33023294905e-38
0.020720202864 0.00345336714401 0.933 2.34867389671e-38
0.022446886436 0.00345336714401 0.933 2.34888941642e-38
0.024173570008 0.00345336714401 0.933 2.34871033047e-38
0.0258169730219 0.00344226306959 0.93 2.34889095784e-38
0.0274788828265 0.00343486035331 0.928 2.34878375851e-38
0.0290390052822 0.00341635356261 0.923 2.34925053103e-38
0.0307471820635 0.00341635356261 0.923 2.34917878455e-38
0.0324553588448 0.00341635356261 0.923 2.34935857114e-38
0.0341635356261 0.00341635356261 0.923 2.34946759216e-38
0.0358717124074 0.00341635356261 0.923 2.34935899153e-38
0.0375798891887 0.00341635356261 0.923 2.3496456972e-38
0.03928806597 0.00341635356261 0.923 2.34946773229e-38
0.0409962427514 0.00341635356261 0.923 2.34961108512e-38
0.0427969534861 0.00342375627889 0.925 2.34914319157e-38
0.0445088316256 0.00342375627889 0.925 2.34928920687e-38
0.0464705514394 0.00344226306959 0.93 2.34950528709e-38
0.0483471400161 0.00345336714401 0.933 2.34903571197e-38
0.0501811629741 0.00346076986028 0.935 2.34957675331e-38
0.0519115479043 0.00346076986028 0.935 2.34950374566e-38
0.0536419328344 0.00346076986028 0.935 2.34961178577e-38
0.0555499829552 0.0034718739347 0.938 2.34971926537e-38
0.0572859199226 0.0034718739347 0.938 2.35040379967e-38
0.0590218568899 0.0034718739347 0.938 2.34993548572e-38
0.0612759839968 0.00350148479982 0.946 2.35065575313e-38
0.0631599752897 0.0035088875161 0.948 2.3505485538e-38
0.0649144190478 0.0035088875161 0.948 2.35062310288e-38
0.00351999159051 0.00527998738577 0.951 2.05339971119e-38
0.00527998738577 0.00527998738577 0.951 2.08144922229e-38
0.00701777503219 0.00526333127414 0.948 2.09978170945e-38
0.00875371199954 0.00525222719973 0.946 2.15495559441e-38
0.0105044543995 0.00525222719973 0.946 2.1087508604e-38
0.0121774682784 0.00521891497647 0.94 2.2285698665e-38
0.0138874957388 0.00520781090205 0.938 2.31154200974e-38
0.0156234327062 0.00520781090205 0.938 2.12740410478e-38
0.0173593696735 0.00520781090205 0.938 2.32090828868e-38
0.0190342342316 0.00519115479043 0.935 2.33920294078e-38
0.0207646191617 0.00519115479043 0.935 2.34842320442e-38
0.022446886436 0.00518005071601 0.933 2.34871201203e-38
0.024173570008 0.00518005071601 0.933 2.34885340304e-38
0.02590025358 0.00518005071601 0.933 2.34903501133e-38
0.027626937152 0.00518005071601 0.933 2.34871033047e-38
0.0291963130031 0.00515229052996 0.928 2.34867557827e-38
0.03081380651 0.00513563441834 0.925 2.34899801705e-38
0.0325256846495 0.00513563441834 0.925 2.34917724312e-38
0.0342375627889 0.00513563441834 0.925 2.3489996986e-38
0.0359494409284 0.00513563441834 0.925 2.3494645093e-38
0.0376613190678 0.00513563441834 0.925 2.34910563677e-38
0.0393731972073 0.00513563441834 0.925 2.34946563034e-38
0.0412183242397 0.00515229052996 0.928 2.3489273916e-38
0.0429357544164 0.00515229052996 0.928 2.34942947684e-38
0.044653184593 0.00515229052996 0.928 2.34921465779e-38
0.0466204564441 0.00518005071601 0.933 2.34946773229e-38
0.048450778044 0.00519115479043 0.935 2.34979087172e-38
0.0501811629741 0.00519115479043 0.935 2.3495020641e-38
0.0519115479043 0.00519115479043 0.935 2.34989947235e-38
0.0536419328344 0.00519115479043 0.935 2.34997009779e-38
0.0555499829552 0.00520781090205 0.938 2.34996659454e-38
0.0572859199226 0.00520781090205 0.938 2.34986429976e-38
0.0590218568899 0.00520781090205 0.938 2.35011751439e-38
0.0614055315317 0.00526333127414 0.948 2.35051169965e-38
0.0631599752897 0.00526333127414 0.948 2.35097791165e-38
0.0052966434974 0.00706219132986 0.954 2.08155740253e-38
0.00703998318103 0.00703998318103 0.951 2.11829440359e-38
0.00877221879024 0.00701777503219 0.948 2.21041772646e-38
0.0105044543995 0.00700296959964 0.946 2.19186971959e-38
0.0122163325389 0.0069807614508 0.943 2.21009346599e-38
0.0139171066039 0.00695855330196 0.94 2.32991275235e-38
0.0156567449294 0.00695855330196 0.94 2.31175907088e-38
0.0173593696735 0.00694374786941 0.938 2.26555573817e-38
0.0190953066409 0.00694374786941 0.938 2.30221847041e-38
0.0208312436082 0.00694374786941 0.938 2.34853040375e-38
0.0224950040919 0.00692153972057 0.935 2.34860285088e-38
0.024225389022 0.00692153972057 0.935 2.34895822017e-38
0.0259557739521 0.00692153972057 0.935 2.34856627699e-38
0.0276861588823 0.00692153972057 0.935 2.34867263554e-38
0.0293536207241 0.00690673428801 0.933 2.34892641069e-38
0.0310803042961 0.00690673428801 0.933 2.3490696234e-38
0.0326311733564 0.00686972070662 0.928 2.3489987177e-38
0.0343486035331 0.00686972070662 0.928 2.34914529351e-38
0.0360660337097 0.00686972070662 0.928 2.34910731833e-38
0.0377834638864 0.00686972070662 0.928 2.34928962726e-38
0.0395008940631 0.00686972070662 0.928 2.34928542336e-38
0.0413071568351 0.00688452613918 0.93 2.34935843101e-38
0.0430282883699 0.00688452613918 0.93 2.34921493805e-38
0.0448937728721 0.00690673428801 0.933 2.34978989081e-38
0.0467203931138 0.00692153972057 0.935 2.34943157879e-38
0.048450778044 0.00692153972057 0.935 2.34950248449e-38
0.0503421720532 0.00694374786941 0.938 2.34939528516e-38
0.0520781090205 0.00694374786941 0.938 2.34957451123e-38
0.0538140459879 0.00694374786941 0.938 2.35007939907e-38
0.0556684264157 0.00695855330196 0.94 2.34993394429e-38
0.0575912819691 0.0069807614508 0.943 2.3500433857e-38
0.0593364723318 0.0069807614508 0.943 2.3502255545e-38
0.0617941741363 0.00706219132986 0.954 2.35058680925e-38
0.0635597219688 0.00706219132986 0.954 2.35083525946e-38
0.00527998738577 0.00879997897629 0.951 2.09978437192e-38
0.00703998318103 0.00879997897629 0.951 2.08148649683e-38
0.00879997897629 0.00879997897629 0.951 2.14588078555e-38
0.0105266625483 0.00877221879024 0.948 2.19194132594e-38
0.0122551967994 0.00875371199954 0.946 2.25625966429e-38
0.0139615229016 0.0087259518135 0.943 2.28395913103e-38
0.0157067132643 0.0087259518135 0.943 2.23789662882e-38
0.0173963832549 0.00869819162745 0.94 2.32998463896e-38
0.0191360215804 0.00869819162745 0.94 2.34860257062e-38
0.0208756599059 0.00869819162745 0.94 2.27473788649e-38
0.0225671805756 0.00867968483676 0.938 2.34849663246e-38
0.0243031175429 0.00867968483676 0.938 2.34896228394e-38
0.0260390545103 0.00867968483676 0.938 2.34907060431e-38
0.0277749914776 0.00867968483676 0.938 2.34885634577e-38
0.0294165438124 0.00865192465071 0.935 2.34924828895e-38
0.0311469287426 0.00865192465071 0.935 2.34907018392e-38
0.0328069878681 0.00863341786002 0.933 2.34903613236e-38
0.0345336714401 0.00863341786002 0.933 2.34946633099e-38
0.0361437622307 0.00860565767397 0.93 2.34907046418e-38
0.0378648937655 0.00860565767397 0.93 2.3494297571e-38
0.0397137221561 0.00863341786002 0.933 2.34953891825e-38
0.0414404057281 0.00863341786002 0.933 2.34921395714e-38
0.0431670893001 0.00863341786002 0.933 2.34950332527e-38
0.0449900081837 0.00865192465071 0.935 2.3496804494e-38
0.0467203931138 0.00865192465071 0.935 2.34942961697e-38
0.0486062350858 0.00867968483676 0.938 2.34943157879e-38
0.0503421720532 0.00867968483676 0.938 2.34997093857e-38
0.0520781090205 0.00867968483676 0.938 2.34989751053e-38
0.0539287880902 0.00869819162745 0.94 2.34982716535e-38
0.0558460916064 0.0087259518135 0.943 2.35015506919e-38
0.0582630784714 0.00882773916233 0.954 2.35068938429e-38
0.0600286263038 0.00882773916233 0.954 2.35036568435e-38
0.0619237216712 0.00884624595303 0.956 2.35069400858e-38
0.0642259664339 0.00892027311581 0.964 2.35043939265e-38
0.066010021057 0.00892027311581 0.964 2.35097889256e-38
0.00703998318103 0.0105599747715 0.951 2.053755641e-38
0.00879997897629 0.0105599747715 0.951 2.14588078555e-38
0.0105266625483 0.0105266625483 0.948 2.19197607815e-38
0.0122811063063 0.0105266625483 0.948 2.23800200647e-38
0.0140059391993 0.0105044543995 0.946 2.2101653526e-38
0.0157566815992 0.0105044543995 0.946 2.3486381636e-38
0.017451903627 0.0104711421762 0.943 2.34863648204e-38
0.0191970939897 0.0104711421762 0.943 2.3209783536e-38
0.0209422843524 0.0104711421762 0.943 2.34892627056e-38
0.0226152982314 0.0104378299529 0.94 2.3489973164e-38
0.0243549365569 0.0104378299529 0.94 2.34903501133e-38
0.0260945748824 0.0104378299529 0.94 2.34888661382e-38
0.0278342132079 0.0104378299529 0.94 2.34921353675e-38
0.029510928445 0.0104156218041 0.938 2.34896158329e-38
0.0312468654123 0.0104156218041 0.938 2.34892641069e-38
0.0328773136727 0.0103823095809 0.935 2.34914221066e-38
0.0346076986028 0.0103823095809 0.935 2.34903234886e-38
0.036338083533 0.0103823095809 0.935 2.34914235079e-38
0.0380684684631 0.0103823095809 0.935 2.34935773036e-38
0.0397988533933 0.0103823095809 0.935 2.34928682466e-38
0.0415292383234 0.0103823095809 0.935 2.34921507818e-38
0.0432596232536 0.0103823095809 0.935 2.34946675138e-38
0.0451343611511 0.0104156218041 0.938 2.34928556349e-38
0.0468702981185 0.0104156218041 0.938 2.34967932836e-38
0.0486062350858 0.0104156218041 0.938 2.34943171892e-38
0.0504495114392 0.0104378299529 0.94 2.34939514503e-38
0.0521891497647 0.0104378299529 0.94 2.34986331885e-38
0.0543877564995 0.0105266625483 0.948 2.35000597103e-38
0.0561422002575 0.0105266625483 0.948 2.35025764424e-38
0.0582630784714 0.0105932869948 0.954 2.35025876527e-38
0.0601544724806 0.0106154951436 0.956 2.35044037356e-38
0.0621180429735 0.0106488073669 0.959 2.3508016283e-38
0.0642259664339 0.010704327739 0.964 2.3509837971e-38
0.066010021057 0.010704327739 0.964 2.32206435991e-38
0.00707699676242 0.0123847443342 0.956 2.07215903386e-38
0.00884624595303 0.0123847443342 0.956 2.12736949271e-38
0.0105599747715 0.0123199705668 0.951 2.15488398805e-38
0.0123199705668 0.0123199705668 0.951 2.28392255714e-38
0.0140355500644 0.0122811063063 0.948 2.26544797832e-38
0.0157899938224 0.0122811063063 0.948 2.22864147285e-38
0.0175074239991 0.0122551967994 0.946 2.34896340497e-38
0.019258166399 0.0122551967994 0.946 2.34867445723e-38
0.0210089087989 0.0122551967994 0.946 2.3483503369e-38
0.0226874747151 0.0122163325389 0.943 2.34863718269e-38
0.0243549365569 0.0121774682784 0.94 2.34899885783e-38
0.0260945748824 0.0121774682784 0.94 2.34881781006e-38
0.0279230458032 0.0122163325389 0.943 2.34867417697e-38
0.0296682361659 0.0122163325389 0.943 2.34903403042e-38
0.0313134898588 0.0121774682784 0.94 2.3492128361e-38
0.0329828023797 0.0121515587715 0.938 2.34914151001e-38
0.034718739347 0.0121515587715 0.938 2.34888787499e-38
