# .PCD v0.7 - Point Cloud Data file format
VERSION 0.7
FIELDS x y z rgb
SIZE 4 4 4 4
TYPE F F F F
COUNT 1 1 1 1
WIDTH 844
HEIGHT 1
VIEWPOINT 0 0 0 1 0 0 0
POINTS 844
DATA ascii
-0.0154901838131 -0.0550762091134 0.93 1.70398832132e-38
-0.0137394414132 -0.054957765653 0.928 1.16911059554e-38
-0.0120220112366 -0.054957765653 0.928 8.95216721337e-39
-0.0102712688367 -0.0547801004623 0.925 7.48351673966e-39
-0.00855939069723 -0.0547801004623 0.925 7.85229365392e-39
-0.00683270712523 -0.0546616570018 0.923 7.39311617313e-39
-0.00510787423229 -0.0544839918111 0.92 8.12887633961e-39
-0.00339784677192 -0.0543655483507 0.918 7.30163940937e-39
-0.00169892338596 -0.0543655483507 0.918 7.57858082748e-39
0.0 -0.0543655483507 0.918 7.39562729997e-39
0.00169337134875 -0.05418788316 0.915 7.58073322192e-39
0.0033867426975 -0.05418788316 0.915 7.2141087021e-39
0.00508011404625 -0.05418788316 0.915 7.21554363173e-39
0.00675867996244 -0.0540694396995 0.913 7.49212631742e-39
0.00844834995305 -0.0540694396995 0.913 7.85982703446e-39
0.0101047077204 -0.0538917745088 0.91 7.85910956965e-39
0.0117888256738 -0.0538917745088 0.91 7.67579730974e-39
0.0134729436272 -0.0538917745088 0.91 7.39957335645e-39
0.0151237493574 -0.0537733310484 0.908 8.50554536682e-39
0.0168041659526 -0.0537733310484 0.908 8.22932141353e-39
0.0185252974874 -0.0538917745088 0.91 8.3218743745e-39
0.0202094154408 -0.0538917745088 0.91 8.138920847e-39
0.0218935333942 -0.0538917745088 0.91 8.32259183932e-39
0.0235776513476 -0.0538917745088 0.91 9.33601088872e-39
0.025261769301 -0.0538917745088 0.91 8.50590409923e-39
0.0270347198498 -0.0540694396995 0.913 9.24238173053e-39
0.0287243898404 -0.0540694396995 0.913 8.23039761075e-39
0.030414059831 -0.0540694396995 0.913 8.6924449508e-39
0.0321037298216 -0.0540694396995 0.913 8.96759270687e-39
0.0337933998122 -0.0540694396995 0.913 9.42748765247e-39
0.0355607983237 -0.05418788316 0.915 9.33421722668e-39
0.0372541696725 -0.05418788316 0.915 9.79626456673e-39
0.0389475410212 -0.05418788316 0.915 9.61151737719e-39
0.040774161263 -0.0543655483507 0.918 1.02550833151e-38
0.0425656186024 -0.0544839918111 0.92 1.09008016475e-38
0.044412596314 -0.0546616570018 0.923 1.09922784112e-38
0.046220709765 -0.0547801004623 0.925 1.10833964426e-38
0.0479325879045 -0.0547801004623 0.925 9.88236034438e-39
0.0496444660439 -0.0547801004623 0.925 2.26827986238e-38
-0.0172113153479 -0.0533550775786 0.93 2.35047848887e-38
-0.0154901838131 -0.0533550775786 0.93 1.84217414639e-38
-0.0137394414132 -0.0532403354763 0.928 1.64806572259e-38
-0.0120220112366 -0.0532403354763 0.928 1.07817136988e-38
-0.0102712688367 -0.0530682223228 0.925 7.66575280234e-39
-0.00855939069723 -0.0530682223228 0.925 7.48423420447e-39
-0.00683270712523 -0.0529534802205 0.923 7.85229365392e-39
-0.00512453034392 -0.0529534802205 0.923 7.76153435498e-39
-0.00340524948819 -0.052781367067 0.92 7.76296928461e-39
-0.00169892338596 -0.0526666249647 0.918 7.67113378845e-39
0.0 -0.0526666249647 0.918 8.22465789224e-39
0.00169892338596 -0.0526666249647 0.918 7.76404548183e-39
0.0033867426975 -0.0524945118112 0.915 8.41012254659e-39
0.00508011404625 -0.0524945118112 0.915 7.39885589164e-39
0.00675867996244 -0.0523797697089 0.913 7.85946830205e-39
0.00844834995305 -0.0523797697089 0.913 7.4910501202e-39
0.0101047077204 -0.0522076565554 0.91 8.13425732571e-39
0.0117888256738 -0.0522076565554 0.91 7.58396181358e-39
0.0134729436272 -0.0522076565554 0.91 8.32043944488e-39
0.0151570615806 -0.0522076565554 0.91 7.76906773552e-39
0.016841179534 -0.0522076565554 0.91 7.8619794289e-39
0.0185252974874 -0.0522076565554 0.91 7.95417365747e-39
0.0202094154408 -0.0522076565554 0.91 8.32259183932e-39
0.0219657098779 -0.0523797697089 0.913 7.95453238987e-39
0.0236553798685 -0.0523797697089 0.913 8.59738086298e-39
0.0253450498591 -0.0523797697089 0.913 8.96615777724e-39
0.02709394158 -0.0524945118112 0.915 9.15090496677e-39
0.0287873129287 -0.0524945118112 0.915 8.87396354867e-39
0.030414059831 -0.0523797697089 0.913 9.51896441622e-39
0.0321037298216 -0.0523797697089 0.913 9.33601088872e-39
0.033867426975 -0.0524945118112 0.915 9.33636962112e-39
0.0355607983237 -0.0524945118112 0.915 9.33636962112e-39
0.0372541696725 -0.0524945118112 0.915 8.96759270687e-39
0.0389475410212 -0.0524945118112 0.915 1.01646827486e-38
0.040774161263 -0.0526666249647 0.918 1.01639652838e-38
0.0425656186024 -0.052781367067 0.92 9.70299414094e-39
0.044412596314 -0.0529534802205 0.923 1.1545802515e-38
0.046220709765 -0.0530682223228 0.925 1.01600192273e-38
0.0479325879045 -0.0530682223228 0.925 1.71546159263e-38
0.0496444660439 -0.0530682223228 0.925 2.35055065574e-38
-0.0154901838131 -0.0516339460438 0.93 1.8605434877e-38
-0.0137690522784 -0.0516339460438 0.93 1.86893852667e-38
-0.0120479207436 -0.0516339460438 0.93 1.66696741719e-38
-0.0103045810599 -0.0515229052996 0.928 1.29021697454e-38
-0.00858715088327 -0.0515229052996 0.928 8.30644888101e-39
-0.00684751255778 -0.0513563441834 0.925 7.94448788248e-39
-0.00512453034392 -0.0512453034392 0.923 7.85408731595e-39
-0.00341635356261 -0.0512453034392 0.923 7.303074339e-39
-0.0017026247441 -0.0510787423229 0.92 7.8569571752e-39
0.0 -0.0509677015787 0.918 7.39598603238e-39
0.00169892338596 -0.0509677015787 0.918 7.39598603238e-39
0.00339784677192 -0.0509677015787 0.918 7.48818026094e-39
0.00508011404625 -0.0508011404625 0.915 7.39670349719e-39
0.006773485395 -0.0508011404625 0.915 8.22645155428e-39
0.00846685674374 -0.0508011404625 0.915 7.95130379821e-39
0.0101380199437 -0.0506900997183 0.913 8.31756958562e-39
0.0117888256738 -0.050523538602 0.91 7.76691534108e-39
0.0134729436272 -0.050523538602 0.91 8.50554536682e-39
0.0151570615806 -0.050523538602 0.91 8.13712718497e-39
0.016841179534 -0.050523538602 0.91 8.3215156421e-39
0.0185863698967 -0.0506900997183 0.913 8.044574224e-39
0.0202760398873 -0.0506900997183 0.913 7.95309746024e-39
0.0219657098779 -0.0506900997183 0.913 8.41478606788e-39
0.0236553798685 -0.0506900997183 0.913 8.59809832779e-39
0.0253450498591 -0.0506900997183 0.913 8.87396354867e-39
0.02709394158 -0.0508011404625 0.915 8.50518663441e-39
0.0287873129287 -0.0508011404625 0.915 8.87468101349e-39
0.0304806842775 -0.0508011404625 0.915 9.33421722668e-39
0.0321740556262 -0.0508011404625 0.915 9.51896441622e-39
0.033867426975 -0.0508011404625 0.915 9.15090496677e-39
0.0355607983237 -0.0508011404625 0.915 9.06050440024e-39
0.0372541696725 -0.0508011404625 0.915 1.0532742198e-38
0.039075237877 -0.0509677015787 0.918 1.01639652838e-38
0.040774161263 -0.0509677015787 0.918 1.00721297876e-38
0.0425656186024 -0.0510787423229 0.92 1.04401892371e-38
0.044412596314 -0.0512453034392 0.923 1.07128258663e-38
0.046220709765 -0.0513563441834 0.925 1.47582512185e-38
0.0479325879045 -0.0513563441834 0.925 2.35068938429e-38
0.0496444660439 -0.0513563441834 0.925 2.35072806013e-38
-0.015540152148 -0.0500738235881 0.933 1.80518799446e-38
-0.0137690522784 -0.049912814509 0.93 2.07198022818e-38
-0.0120479207436 -0.049912814509 0.93 1.81416022827e-38
-0.0103045810599 -0.049805475123 0.928 1.9065984229e-38
-0.00858715088327 -0.049805475123 0.928 1.43719664812e-38
-0.00684751255778 -0.0496444660439 0.925 1.04186652926e-38
-0.00512453034392 -0.0495371266579 0.923 9.41493201823e-39
-0.00341635356261 -0.0495371266579 0.923 7.48459293688e-39
-0.0017026247441 -0.0493761175788 0.92 8.13174619886e-39
0.0 -0.0493761175788 0.92 7.67185125326e-39
0.00169892338596 -0.0492687781928 0.918 8.68455283785e-39
0.00339784677192 -0.0492687781928 0.918 8.68706396469e-39
0.00509677015787 -0.0492687781928 0.918 7.58252688395e-39
0.006773485395 -0.0491077691137 0.915 8.04170436474e-39
0.00846685674374 -0.0491077691137 0.915 7.67436238011e-39
0.0101380199437 -0.0490004297277 0.913 8.87324608386e-39
0.0118276899343 -0.0490004297277 0.913 8.22932141353e-39
0.0135173599249 -0.0490004297277 0.913 7.76906773552e-39
0.0152070299155 -0.0490004297277 0.913 8.50554536682e-39
0.0168966999061 -0.0490004297277 0.913 8.87396354867e-39
0.0185863698967 -0.0490004297277 0.913 8.68957509154e-39
0.0202760398873 -0.0490004297277 0.913 8.3218743745e-39
0.0219657098779 -0.0490004297277 0.913 8.59738086298e-39
0.0237071988825 -0.0491077691137 0.915 9.61223484201e-39
0.0254005702312 -0.0491077691137 0.915 8.59630466576e-39
0.02709394158 -0.0491077691137 0.915 9.05978693543e-39
0.0287873129287 -0.0491077691137 0.915 9.05871073821e-39
0.0304806842775 -0.0491077691137 0.915 9.15018750196e-39
0.0321740556262 -0.0491077691137 0.915 9.79447090469e-39
0.033867426975 -0.0491077691137 0.915 1.01625303541e-38
0.0356773911051 -0.0492687781928 0.918 9.79662329914e-39
0.0373763144911 -0.0492687781928 0.918 9.15054623437e-39
0.039075237877 -0.0492687781928 0.918 9.98101175626e-39
0.0408629938583 -0.0493761175788 0.92 1.13585441986e-38
0.0427044195327 -0.0495371266579 0.923 1.21836287344e-38
0.0445088316256 -0.0496444660439 0.925 1.84399401271e-38
0.046220709765 -0.0496444660439 0.925 2.35068630144e-38
0.0480880449463 -0.049805475123 0.928 2.3501879997e-38
0.049805475123 -0.049805475123 0.928 2.34997205961e-38
-0.0173038493014 -0.048450778044 0.935 2.35044163472e-38
-0.0155734643713 -0.048450778044 0.935 1.85117846993e-38
-0.013813468576 -0.0483471400161 0.933 2.05361256843e-38
-0.012086785004 -0.0483471400161 0.933 1.9986571459e-38
-0.0103045810599 -0.0480880449463 0.928 1.97088901553e-38
-0.00858715088327 -0.0480880449463 0.928 2.12769151109e-38
-0.00684751255778 -0.0479325879045 0.925 1.7961469569e-38
-0.00513563441834 -0.0479325879045 0.925 1.42811595382e-38
-0.00341635356261 -0.0478289498766 0.923 1.15253547678e-38
-0.0017026247441 -0.0476734928347 0.92 8.95575453744e-39
0.0 -0.0476734928347 0.92 8.13102873405e-39
0.0017026247441 -0.0476734928347 0.92 8.77746453123e-39
0.00340524948819 -0.0476734928347 0.92 7.95130379821e-39
0.00509677015787 -0.0475698548068 0.918 7.67579730974e-39
0.00679569354383 -0.0475698548068 0.918 7.58216815154e-39
0.00846685674374 -0.047414397765 0.915 8.04421549159e-39
0.0101380199437 -0.0473107597371 0.913 7.95166253062e-39
0.0118276899343 -0.0473107597371 0.913 8.13748591737e-39
0.0135173599249 -0.0473107597371 0.913 8.3215156421e-39
0.0152070299155 -0.0473107597371 0.913 8.04385675918e-39
0.0168966999061 -0.0473107597371 0.913 8.50554536682e-39
0.0185863698967 -0.0473107597371 0.913 8.41227494103e-39
0.0202760398873 -0.0473107597371 0.913 8.50662156404e-39
0.0220138275337 -0.047414397765 0.915 8.41299240585e-39
0.0237071988825 -0.047414397765 0.915 8.78320424974e-39
0.0254005702312 -0.047414397765 0.915 9.61115864478e-39
0.02709394158 -0.047414397765 0.915 8.96615777724e-39
0.0287873129287 -0.047414397765 0.915 9.6118761096e-39
0.0304806842775 -0.047414397765 0.915 9.33565215631e-39
0.0321740556262 -0.047414397765 0.915 9.70407033816e-39
0.0339784677192 -0.0475698548068 0.918 9.51932314863e-39
0.0356773911051 -0.0475698548068 0.918 9.42569399043e-39
0.0373763144911 -0.0475698548068 0.918 1.0989408552e-38
0.0391603691142 -0.0476734928347 0.92 1.20921519707e-38
0.0409962427514 -0.0478289498766 0.923 1.68726200246e-38
0.0427969534861 -0.0479325879045 0.925 2.34059695249e-38
0.0445088316256 -0.0479325879045 0.925 2.35058064353e-38
0.0463706147697 -0.0480880449463 0.928 2.34993548572e-38
0.0480880449463 -0.0480880449463 0.928 2.35004114362e-38
0.049805475123 -0.0480880449463 0.928 2.35029814176e-38
-0.0173593696735 -0.0468702981185 0.938 2.35065785508e-38
-0.0156234327062 -0.0468702981185 0.938 1.8878779162e-38
-0.0138430794411 -0.0467203931138 0.935 2.02570248652e-38
-0.012112694511 -0.0467203931138 0.935 2.03546281059e-38
-0.0103045810599 -0.0463706147697 0.928 2.06308268358e-38
-0.00858715088327 -0.0463706147697 0.928 2.0813069905e-38
-0.00684751255778 -0.046220709765 0.925 2.06297730593e-38
-0.00513563441834 -0.046220709765 0.925 2.09989255216e-38
-0.00342375627889 -0.046220709765 0.925 1.99901419675e-38
-0.00170817678131 -0.0461207730953 0.923 1.61254238613e-38
0.0 -0.0461207730953 0.923 1.42886704979e-38
0.0017026247441 -0.0459708680906 0.92 1.16229299825e-38
0.00340524948819 -0.0459708680906 0.92 8.95790693188e-39
0.00509677015787 -0.0458709314209 0.918 8.03919323789e-39
0.00679569354383 -0.0458709314209 0.918 9.88236034438e-39
0.00849461692979 -0.0458709314209 0.918 9.14588271308e-39
0.0101602280925 -0.0457210264162 0.915 8.68706396469e-39
0.0118535994412 -0.0457210264162 0.915 8.13497479053e-39
0.01354697079 -0.0457210264162 0.915 8.78069312289e-39
0.0152403421387 -0.0457210264162 0.915 8.87396354867e-39
0.0169337134875 -0.0457210264162 0.915 8.96615777724e-39
0.0186270848362 -0.0457210264162 0.915 9.70227667613e-39
0.020320456185 -0.0457210264162 0.915 7.86162069649e-39
0.0220138275337 -0.0457210264162 0.915 8.78356298214e-39
0.0237071988825 -0.0457210264162 0.915 8.68993382395e-39
0.0254005702312 -0.0457210264162 0.915 9.14982876955e-39
0.02709394158 -0.0457210264162 0.915 9.51681202178e-39
0.0287873129287 -0.0457210264162 0.915 1.05302310712e-38
0.0304806842775 -0.0457210264162 0.915 1.02522134559e-38
0.0321740556262 -0.0457210264162 0.915 1.09890498196e-38
0.0339784677192 -0.0458709314209 0.918 1.16311808279e-38
0.0356773911051 -0.0458709314209 0.918 1.65059997087e-38
0.0374577443701 -0.0459708680906 0.92 2.01859383954e-38
0.0391603691142 -0.0459708680906 0.92 2.27602708107e-38
0.0410850753467 -0.046220709765 0.925 2.35014624101e-38
0.0427969534861 -0.046220709765 0.925 2.3498654208e-38
0.0445088316256 -0.046220709765 0.925 2.34939514503e-38
0.0463706147697 -0.0463706147697 0.928 2.34986387937e-38
0.0480880449463 -0.0463706147697 0.928 2.34975611952e-38
0.049805475123 -0.0463706147697 0.928 2.35001129597e-38
-0.0173593696735 -0.0451343611511 0.938 2.35022597489e-38
-0.0156234327062 -0.0451343611511 0.938 1.87865765256e-38
-0.0138430794411 -0.0449900081837 0.935 2.04413530665e-38
-0.012112694511 -0.0449900081837 0.935 1.99847567775e-38
-0.0103045810599 -0.044653184593 0.928 2.04435741246e-38
-0.00858715088327 -0.044653184593 0.928 2.09056340763e-38
-0.00686972070662 -0.044653184593 0.928 2.0630123384e-38
-0.00513563441834 -0.0445088316256 0.925 2.07205211479e-38
-0.00342375627889 -0.0445088316256 0.925 2.20108647998e-38
-0.00171187813945 -0.0445088316256 0.925 2.22892747787e-38
0.0 -0.044412596314 0.923 2.09103172158e-38
0.00170817678131 -0.044412596314 0.923 1.97164613709e-38
0.00341635356261 -0.044412596314 0.923 1.71402862482e-38
0.00510787423229 -0.0442682433465 0.92 1.69566110519e-38
0.00681049897639 -0.0442682433465 0.92 1.5391772649e-38
0.00849461692979 -0.0441720080349 0.918 1.429046416e-38
0.0101602280925 -0.0440276550675 0.915 1.3373544128e-38
0.0118535994412 -0.0440276550675 0.915 1.1532529416e-38
0.01354697079 -0.0440276550675 0.915 1.06152506516e-38
0.0152403421387 -0.0440276550675 0.915 1.10780154565e-38
0.0169337134875 -0.0440276550675 0.915 1.11698509526e-38
0.0186270848362 -0.0440276550675 0.915 1.1723016324e-38
0.020320456185 -0.0440276550675 0.915 1.14478685679e-38
0.0220138275337 -0.0440276550675 0.915 1.08947031966e-38
0.0237071988825 -0.0440276550675 0.915 1.19084809784e-38
0.0254005702312 -0.0440276550675 0.915 1.18130581581e-38
0.02709394158 -0.0440276550675 0.915 1.46656982575e-38
0.0287873129287 -0.0440276550675 0.915 1.6410931417e-38
0.0304806842775 -0.0440276550675 0.915 1.8617853184e-38
0.0321740556262 -0.0440276550675 0.915 1.97231833997e-38
0.0339784677192 -0.0441720080349 0.918 2.25769459392e-38
0.035755119626 -0.0442682433465 0.92 2.35000274805e-38
0.0374577443701 -0.0442682433465 0.92 2.34961150551e-38
0.03928806597 -0.044412596314 0.923 2.34975345705e-38
0.0410850753467 -0.0445088316256 0.925 2.3495396189e-38
0.0427969534861 -0.0445088316256 0.925 2.34939696672e-38
0.044653184593 -0.044653184593 0.928 2.34968283161e-38
0.0463706147697 -0.044653184593 0.928 2.34968367238e-38
0.0480880449463 -0.044653184593 0.928 2.35022429333e-38
0.049805475123 -0.044653184593 0.928 2.35015072516e-38
-0.017451903627 -0.0436297590675 0.943 2.35058344613e-38
-0.0156234327062 -0.0433984241838 0.938 1.8791249856e-38
-0.0138430794411 -0.0432596232536 0.935 2.0996016426e-38
-0.012112694511 -0.0432596232536 0.935 2.03524630997e-38
-0.0103267892088 -0.0430282883699 0.93 2.06290275686e-38
-0.00860565767397 -0.0430282883699 0.93 1.99844008477e-38
-0.00686972070662 -0.0429357544164 0.928 2.09971234518e-38
-0.00515229052996 -0.0429357544164 0.928 2.15506475556e-38
-0.00343486035331 -0.0429357544164 0.928 2.2196723219e-38
-0.00171187813945 -0.0427969534861 0.925 2.14580833842e-38
0.0 -0.0427969534861 0.925 2.24722156945e-38
0.00171187813945 -0.0427969534861 0.925 2.23811172814e-38
0.00342375627889 -0.0427969534861 0.925 2.30268566332e-38
0.00512453034392 -0.0427044195327 0.923 2.25658784839e-38
0.00683270712523 -0.0427044195327 0.923 2.30290174354e-38
0.00851312372049 -0.0425656186024 0.92 2.17422288777e-38
0.0101935403157 -0.042473084649 0.918 2.30361500446e-38
0.0118924637017 -0.042473084649 0.918 2.08245339277e-38
0.0135913870877 -0.042473084649 0.918 2.10110957988e-38
0.0152403421387 -0.0423342837187 0.915 1.96299311908e-38
0.0169337134875 -0.0423342837187 0.915 2.07341333612e-38
0.0186270848362 -0.0423342837187 0.915 1.96288746117e-38
0.020320456185 -0.0423342837187 0.915 2.01831273907e-38
0.0220138275337 -0.0423342837187 0.915 2.11954618351e-38
0.0237071988825 -0.0423342837187 0.915 2.22085375664e-38
0.0254838507894 -0.042473084649 0.918 2.23925981197e-38
0.0271827741753 -0.042473084649 0.918 2.30365424082e-38
0.0288816975613 -0.042473084649 0.918 2.34967988888e-38
0.0305806209472 -0.042473084649 0.918 2.34968072966e-38
0.0322795443332 -0.042473084649 0.918 2.34942947684e-38
0.0340524948819 -0.0425656186024 0.92 2.35003876142e-38
0.0358717124074 -0.0427044195327 0.923 2.34967974875e-38
0.0375798891887 -0.0427044195327 0.923 2.34960926344e-38
0.0393731972073 -0.0427969534861 0.925 2.34950276475e-38
0.0412183242397 -0.0429357544164 0.928 2.34943129853e-38
0.0429357544164 -0.0429357544164 0.928 2.34972024627e-38
0.044653184593 -0.0429357544164 0.928 2.34957521188e-38
0.0464705514394 -0.0430282883699 0.93 2.34968381251e-38
0.0481916829742 -0.0430282883699 0.93 2.34968367238e-38
0.0501811629741 -0.0432596232536 0.935 2.35011457166e-38
0.0519115479043 -0.0432596232536 0.935 2.35055009523e-38
-0.0192988813385 -0.0421066501932 0.948 2.34989723027e-38
-0.017451903627 -0.0418845687048 0.943 2.3504400933e-38
-0.0156567449294 -0.0417513198118 0.94 1.85135895718e-38
-0.0138874957388 -0.0416624872164 0.938 2.04407098705e-38
-0.012112694511 -0.0415292383234 0.935 2.04443070037e-38
-0.010360101432 -0.0414404057281 0.933 2.09978269036e-38
-0.00860565767397 -0.0413071568351 0.93 2.05382780787e-38
-0.00686972070662 -0.0412183242397 0.928 2.14595113073e-38
-0.00515229052996 -0.0412183242397 0.928 2.13666066205e-38
-0.00343486035331 -0.0412183242397 0.928 2.13662590984e-38
-0.00171743017665 -0.0412183242397 0.928 2.26577209865e-38
0.0 -0.0410850753467 0.925 2.19179909415e-38
0.00171187813945 -0.0410850753467 0.925 2.29317869402e-38
0.00342375627889 -0.0410850753467 0.925 2.22864049195e-38
0.00513563441834 -0.0410850753467 0.925 2.34838747131e-38
0.00683270712523 -0.0409962427514 0.923 2.32090800842e-38
0.00854088390653 -0.0409962427514 0.923 2.28417268892e-38
0.0101935403157 -0.040774161263 0.918 2.34885606551e-38
0.0118924637017 -0.040774161263 0.918 2.34867585853e-38
0.0135913870877 -0.040774161263 0.918 2.34885606551e-38
0.0152903104736 -0.040774161263 0.918 2.34907214573e-38
0.0169892338596 -0.040774161263 0.918 2.34917920494e-38
0.0186881572455 -0.040774161263 0.918 2.34903515146e-38
0.0203870806315 -0.040774161263 0.918 2.34899983873e-38
0.0220860040175 -0.040774161263 0.918 2.34928640427e-38
0.0237849274034 -0.040774161263 0.918 2.34910815911e-38
0.0254838507894 -0.040774161263 0.918 2.34925081129e-38
0.0271827741753 -0.040774161263 0.918 2.34917794377e-38
0.0288816975613 -0.040774161263 0.918 2.34921381701e-38
0.0305806209472 -0.040774161263 0.918 2.34950276475e-38
0.0323498701378 -0.0408629938583 0.92 2.34946436918e-38
0.0341635356261 -0.0409962427514 0.923 2.34935660932e-38
0.0359494409284 -0.0410850753467 0.925 2.34953835773e-38
0.0376613190678 -0.0410850753467 0.925 2.34950360553e-38
0.0395008940631 -0.0412183242397 0.928 2.3495396189e-38
0.0412183242397 -0.0412183242397 0.928 2.34975822146e-38
0.0429357544164 -0.0412183242397 0.928 2.34957521188e-38
0.0447494199046 -0.0413071568351 0.93 2.35000709207e-38
0.0464705514394 -0.0413071568351 0.93 2.34971898511e-38
0.0483471400161 -0.0414404057281 0.933 2.35011625322e-38
0.0501811629741 -0.0415292383234 0.935 2.35004408635e-38
0.0519115479043 -0.0415292383234 0.935 2.35083694102e-38
-0.0192988813385 -0.0403522064351 0.948 2.3502992628e-38
-0.0175074239991 -0.0402670751979 0.946 2.35069330793e-38
-0.0157067132643 -0.0401393783421 0.943 1.88820119575e-38
-0.0138874957388 -0.0399265502491 0.938 2.13651716908e-38
-0.0121515587715 -0.0399265502491 0.938 1.98018270721e-38
-0.010360101432 -0.0397137221561 0.933 2.0631222002e-38
-0.00863341786002 -0.0397137221561 0.933 2.0815253128e-38
-0.00688452613918 -0.0395860253003 0.93 2.11857984809e-38
-0.00515229052996 -0.0395008940631 0.928 2.12758431176e-38
-0.00343486035331 -0.0395008940631 0.928 2.18279603178e-38
-0.00171743017665 -0.0395008940631 0.928 2.23811340969e-38
0.0 -0.0393731972073 0.925 2.24715304596e-38
0.00171187813945 -0.0393731972073 0.925 2.30243384999e-38
0.00342375627889 -0.0393731972073 0.925 2.34853236557e-38
0.00513563441834 -0.0393731972073 0.925 2.28417395009e-38
0.00683270712523 -0.03928806597 0.923 2.33037994526e-38
0.00854088390653 -0.03928806597 0.923 2.34870962982e-38
0.0102157484646 -0.0391603691142 0.92 2.34907060431e-38
0.0118924637017 -0.039075237877 0.918 2.34888913616e-38
0.0135913870877 -0.039075237877 0.918 2.34925025077e-38
0.0152903104736 -0.039075237877 0.918 2.34892697121e-38
0.0169892338596 -0.039075237877 0.918 2.34892795212e-38
0.0186881572455 -0.039075237877 0.918 2.34885522473e-38
0.0203870806315 -0.039075237877 0.918 2.34882019227e-38
0.0220860040175 -0.039075237877 0.918 2.34900095977e-38
0.0237849274034 -0.039075237877 0.918 2.34900320185e-38
0.0255393711615 -0.0391603691142 0.92 2.34885718655e-38
0.0272419959056 -0.0391603691142 0.92 2.34939290295e-38
0.0289446206497 -0.0391603691142 0.92 2.34932045582e-38
0.0306472453938 -0.0391603691142 0.92 2.34921339662e-38
0.0324553588448 -0.03928806597 0.923 2.3493950049e-38
0.0341635356261 -0.03928806597 0.923 2.34928682466e-38
0.0359494409284 -0.0393731972073 0.925 2.34939528516e-38
0.0376613190678 -0.0393731972073 0.925 2.34921465779e-38
0.0395008940631 -0.0395008940631 0.928 2.34939598581e-38
0.0413071568351 -0.0395860253003 0.93 2.34968437303e-38
0.0430282883699 -0.0395860253003 0.93 2.34950262462e-38
0.0447494199046 -0.0395860253003 0.93 2.3495382176e-38
0.0466204564441 -0.0397137221561 0.933 2.34986387937e-38
0.0483471400161 -0.0397137221561 0.933 2.34982772587e-38
0.0501811629741 -0.0397988533933 0.935 2.35019122269e-38
0.0519115479043 -0.0397988533933 0.935 2.35098057411e-38
-0.0192988813385 -0.0385977626771 0.948 2.34997290039e-38
-0.0175074239991 -0.038516332798 0.946 2.35047526589e-38
-0.0157067132643 -0.0383941879794 0.943 2.02649478068e-38
-0.0139171066039 -0.0382720431608 0.94 2.02577451326e-38
-0.0121515587715 -0.0381906132817 0.938 2.02620639345e-38
-0.0104156218041 -0.0381906132817 0.938 2.07219658866e-38
-0.00863341786002 -0.0379870385841 0.933 2.01684417828e-38
-0.00688452613918 -0.0378648937655 0.93 2.09992548267e-38
-0.00515229052996 -0.0377834638864 0.928 2.13669443334e-38
-0.00343486035331 -0.0377834638864 0.928 2.22896251033e-38
-0.00171743017665 -0.0377834638864 0.928 2.18265113751e-38
0.0 -0.0377834638864 0.928 2.25640609998e-38
0.00171187813945 -0.0376613190678 0.925 2.31161655882e-38
0.00342375627889 -0.0376613190678 0.925 2.32087297596e-38
0.00513563441834 -0.0376613190678 0.925 2.34878389864e-38
0.00683270712523 -0.0375798891887 0.923 2.32112605046e-38
0.00854088390653 -0.0375798891887 0.923 2.33019959815e-38
0.0102157484646 -0.0374577443701 0.92 2.34889081771e-38
0.0119183732087 -0.0374577443701 0.92 2.34863788334e-38
0.0136209979528 -0.0374577443701 0.92 2.34874844579e-38
0.0153236226969 -0.0374577443701 0.92 2.34896410562e-38
0.0169892338596 -0.0373763144911 0.918 2.34907158522e-38
0.0186881572455 -0.0373763144911 0.918 2.34878487955e-38
0.0203870806315 -0.0373763144911 0.918 2.3490372534e-38
0.0220860040175 -0.0373763144911 0.918 2.34928766544e-38
0.0238367464174 -0.0374577443701 0.92 2.3491071782e-38
0.0255393711615 -0.0374577443701 0.92 2.34907130496e-38
0.0273308285009 -0.0375798891887 0.923 2.34928444245e-38
0.0290390052822 -0.0375798891887 0.923 2.34932241764e-38
0.0307471820635 -0.0375798891887 0.923 2.34914207053e-38
0.0324553588448 -0.0375798891887 0.923 2.34925151194e-38
0.0342375627889 -0.0376613190678 0.925 2.34910801898e-38
0.0359494409284 -0.0376613190678 0.925 2.34917934507e-38
0.0377834638864 -0.0377834638864 0.928 2.34961248642e-38
0.0395008940631 -0.0377834638864 0.928 2.34961122525e-38
0.0413071568351 -0.0378648937655 0.93 2.34986275833e-38
0.0430282883699 -0.0378648937655 0.93 2.34993338377e-38
0.0447494199046 -0.0378648937655 0.93 2.34961220616e-38
0.0466204564441 -0.0379870385841 0.933 2.34986345898e-38
0.0483471400161 -0.0379870385841 0.933 2.35011583283e-38
0.0501811629741 -0.0380684684631 0.935 2.35015142581e-38
0.0519115479043 -0.0380684684631 0.935 2.35072862065e-38
0.0536419328344 -0.0380684684631 0.935 2.35065771495e-38
-0.0192988813385 -0.036843318919 0.948 2.34982842652e-38
-0.0175074239991 -0.0367655903981 0.946 2.35018771944e-38
-0.0157067132643 -0.0366489976167 0.943 1.93408335085e-38
-0.0139171066039 -0.0365324048353 0.94 2.09938486173e-38
-0.0121515587715 -0.0364546763144 0.938 2.10907315905e-38
-0.0104156218041 -0.0364546763144 0.938 2.09052781465e-38
-0.00863341786002 -0.0362603550121 0.933 2.05375774295e-38
-0.00690673428801 -0.0362603550121 0.933 2.19205118774e-38
-0.00516339460438 -0.0361437622307 0.93 2.18265408024e-38
-0.00343486035331 -0.0360660337097 0.928 2.17335940766e-38
-0.00171743017665 -0.0360660337097 0.928 2.29317841376e-38
0.0 -0.0360660337097 0.928 2.2472584236e-38
0.00171743017665 -0.0360660337097 0.928 2.31154593338e-38
0.00343486035331 -0.0360660337097 0.928 2.34867529801e-38
0.00513563441834 -0.0359494409284 0.925 2.31161810025e-38
0.00684751255778 -0.0359494409284 0.925 2.34860369166e-38
0.00854088390653 -0.0358717124074 0.923 2.34867585853e-38
0.0102490606878 -0.0358717124074 0.923 2.34899843744e-38
0.0119572374691 -0.0358717124074 0.923 2.34889081771e-38
0.0136209979528 -0.035755119626 0.92 2.34885830759e-38
0.0153236226969 -0.035755119626 0.92 2.34896438588e-38
0.017026247441 -0.035755119626 0.92 2.34882005214e-38
0.0187288721851 -0.035755119626 0.92 2.34914417248e-38
0.0204314969292 -0.035755119626 0.92 2.34871089099e-38
0.0221341216733 -0.035755119626 0.92 2.3488898368e-38
0.0239144749383 -0.0358717124074 0.923 2.34932241764e-38
0.0256226517196 -0.0358717124074 0.923 2.34878305786e-38
0.0273308285009 -0.0358717124074 0.923 2.34914347183e-38
0.0290390052822 -0.0358717124074 0.923 2.34946619086e-38
0.0307471820635 -0.0358717124074 0.923 2.34917836416e-38
0.0325256846495 -0.0359494409284 0.925 2.34914375209e-38
0.0342375627889 -0.0359494409284 0.925 2.34950514696e-38
0.0359494409284 -0.0359494409284 0.925 2.34978680795e-38
0.0377834638864 -0.0360660337097 0.928 2.34914683494e-38
0.0395860253003 -0.0361437622307 0.93 2.34975682016e-38
0.0413071568351 -0.0361437622307 0.93 2.34975485835e-38
0.0430282883699 -0.0361437622307 0.93 2.34950682852e-38
0.0448937728721 -0.0362603550121 0.933 2.34972080679e-38
0.0467203931138 -0.036338083533 0.935 2.349755559e-38
0.048450778044 -0.036338083533 0.935 2.35004450674e-38
0.0501811629741 -0.036338083533 0.935 2.35079784479e-38
0.0520781090205 -0.0364546763144 0.938 2.35098001359e-38
-0.0192988813385 -0.035088875161 0.948 2.34964878005e-38
-0.0175444375805 -0.035088875161 0.948 2.35022345255e-38
-0.0157067132643 -0.034903807254 0.943 1.95291834364e-38
-0.0139171066039 -0.0347927665098 0.94 2.099204935e-38
-0.0121774682784 -0.0347927665098 0.94 2.0721587536e-38
-0.0104156218041 -0.034718739347 0.938 2.09978297062e-38
-0.00867968483676 -0.034718739347 0.938 2.10907456035e-38
-0.00692153972057 -0.0346076986028 0.935 2.11833097748e-38
-0.00518005071601 -0.0345336714401 0.933 2.21953135128e-38
-0.00344226306959 -0.0344226306959 0.93 2.17357478723e-38
-0.00172113153479 -0.0344226306959 0.93 2.03524771127e-38
0.0 -0.0343486035331 0.928 2.34849579168e-38
0.00171743017665 -0.0343486035331 0.928 2.33027022359e-38
0.00343486035331 -0.0343486035331 0.928 2.24732876878e-38
0.00513563441834 -0.0342375627889 0.925 2.33009001661e-38
0.00684751255778 -0.0342375627889 0.925 2.3488898368e-38
0.00854088390653 -0.0341635356261 0.923 2.34867613879e-38
0.0102490606878 -0.0341635356261 0.923 2.33013107465e-38
0.0119572374691 -0.0341635356261 0.923 2.34895850043e-38
0.0136209979528 -0.0340524948819 0.92 2.34874704449e-38
0.0153236226969 -0.0340524948819 0.92 2.34896564705e-38
0.017026247441 -0.0340524948819 0.92 2.34889305979e-38
0.0187288721851 -0.0340524948819 0.92 2.34900320185e-38
0.0204314969292 -0.0340524948819 0.92 2.34917892468e-38
0.0221341216733 -0.0340524948819 0.92 2.34936095335e-38
0.0239144749383 -0.0341635356261 0.923 2.34914431261e-38
0.0256226517196 -0.0341635356261 0.923 2.34907284638e-38
0.0273308285009 -0.0341635356261 0.923 2.34932564063e-38
0.0290390052822 -0.0341635356261 0.923 2.34946563034e-38
0.0307471820635 -0.0341635356261 0.923 2.34914305144e-38
0.0325256846495 -0.0342375627889 0.925 2.34939626607e-38
0.0342375627889 -0.0342375627889 0.925 2.34928738518e-38
0.0360660337097 -0.0343486035331 0.928 2.34957395071e-38
0.0377834638864 -0.0343486035331 0.928 2.34986177742e-38
0.0395860253003 -0.0344226306959 0.93 2.34921465779e-38
0.0414404057281 -0.0345336714401 0.933 2.34979143224e-38
0.0431670893001 -0.0345336714401 0.933 2.34953989916e-38
0.0449900081837 -0.0346076986028 0.935 2.34986359911e-38
0.0467203931138 -0.0346076986028 0.935 2.3498987717e-38
0.048450778044 -0.0346076986028 0.935 2.35007883855e-38
0.0503421720532 -0.034718739347 0.938 2.35069246715e-38
0.0520781090205 -0.034718739347 0.938 2.35090770659e-38
-0.0175444375805 -0.0333344314029 0.948 2.35083329764e-38
-0.0157566815992 -0.0332641055983 0.946 1.9067110873e-38
-0.0139171066039 -0.0330531281843 0.94 2.07183533392e-38
-0.0121774682784 -0.0330531281843 0.94 2.07219658866e-38
-0.0104378299529 -0.0330531281843 0.94 2.09059872035e-38
-0.00867968483676 -0.0329828023797 0.938 2.03542357423e-38
-0.00692153972057 -0.0328773136727 0.935 2.08152377137e-38
-0.00518005071601 -0.0328069878681 0.933 2.18283288593e-38
-0.00345336714401 -0.0328069878681 0.933 2.18293644188e-38
-0.00172113153479 -0.0327014991611 0.93 2.19208593995e-38
0.0 -0.0327014991611 0.93 2.32094458231e-38
0.00171743017665 -0.0326311733564 0.928 2.33023617204e-38
0.00343486035331 -0.0326311733564 0.928 2.32112478929e-38
0.00515229052996 -0.0326311733564 0.928 2.33030679748e-38
0.00684751255778 -0.0325256846495 0.925 2.31168872569e-38
0.00855939069723 -0.0325256846495 0.925 2.32087325622e-38
0.0102712688367 -0.0325256846495 0.925 2.34914445274e-38
0.0119572374691 -0.0324553588448 0.923 2.34874606358e-38
0.0136654142505 -0.0324553588448 0.923 2.34874676423e-38
0.0153735910318 -0.0324553588448 0.923 2.34892781199e-38
0.0170817678131 -0.0324553588448 0.923 2.3488217337e-38
0.0187899445944 -0.0324553588448 0.923 2.34921998272e-38
0.0204981213757 -0.0324553588448 0.923 2.34899941834e-38
0.022206298157 -0.0324553588448 0.923 2.34914361196e-38
0.0239144749383 -0.0324553588448 0.923 2.3491109617e-38
0.0256226517196 -0.0324553588448 0.923 2.34910563677e-38
0.0273900502311 -0.0325256846495 0.925 2.3492156387e-38
0.0291019283706 -0.0325256846495 0.925 2.34935688958e-38
0.03081380651 -0.0325256846495 0.925 2.34932325842e-38
0.0325256846495 -0.0325256846495 0.925 2.3493950049e-38
0.0342375627889 -0.0325256846495 0.925 2.34961234629e-38
0.0360660337097 -0.0326311733564 0.928 2.34946773229e-38
0.0378648937655 -0.0327014991611 0.93 2.34954003929e-38
0.0397137221561 -0.0328069878681 0.933 2.34979087172e-38
0.0414404057281 -0.0328069878681 0.933 2.34946759216e-38
0.0432596232536 -0.0328773136727 0.935 2.34982982781e-38
0.0449900081837 -0.0328773136727 0.935 2.34986345898e-38
0.0468702981185 -0.0329828023797 0.938 2.35015352776e-38
0.0486062350858 -0.0329828023797 0.938 2.35000793285e-38
0.0504495114392 -0.0330531281843 0.94 2.35026254878e-38
-0.0192988813385 -0.0315799876449 0.948 2.34953625579e-38
-0.0175444375805 -0.0315799876449 0.948 2.35044065382e-38
-0.0157566815992 -0.0315133631984 0.946 1.96195643847e-38
-0.0139615229016 -0.0314134265286 0.943 2.12708082522e-38
-0.0122163325389 -0.0314134265286 0.943 2.0721240014e-38
-0.0104711421762 -0.0314134265286 0.943 2.13658877543e-38
-0.00867968483676 -0.0312468654123 0.938 2.08145174463e-38
-0.00694374786941 -0.0312468654123 0.938 2.10903952789e-38
-0.00519115479043 -0.0311469287426 0.935 2.18279603178e-38
-0.00345336714401 -0.0310803042961 0.933 2.19208593995e-38
-0.00172113153479 -0.0309803676263 0.93 2.21956512257e-38
0.0 -0.0309803676263 0.93 2.28403199855e-38
0.00171743017665 -0.0309137431798 0.928 2.34867866113e-38
0.00343486035331 -0.0309137431798 0.928 2.30239853726e-38
0.00515229052996 -0.0309137431798 0.928 2.34878501968e-38
0.00684751255778 -0.03081380651 0.925 2.34867375658e-38
0.00855939069723 -0.03081380651 0.925 2.34896368523e-38
0.0102712688367 -0.03081380651 0.925 2.34885592538e-38
0.0119831469761 -0.03081380651 0.925 2.34878263747e-38
0.0136654142505 -0.0307471820635 0.923 2.34899801705e-38
0.0153735910318 -0.0307471820635 0.923 2.34913926793e-38
0.0170817678131 -0.0307471820635 0.923 2.34921493805e-38
0.0187899445944 -0.0307471820635 0.923 2.3488912381e-38
0.0205425376733 -0.03081380651 0.925 2.34932101634e-38
0.0222544158128 -0.03081380651 0.925 2.34899773679e-38
0.0239662939522 -0.03081380651 0.925 2.34918046611e-38
0.0256781720917 -0.03081380651 0.925 2.34935983231e-38
0.0273900502311 -0.03081380651 0.925 2.34932213738e-38
0.0291019283706 -0.03081380651 0.925 2.34924786856e-38
0.03081380651 -0.03081380651 0.925 2.34957226916e-38
0.0326311733564 -0.0309137431798 0.928 2.34964723862e-38
0.0343486035331 -0.0309137431798 0.928 2.34946843294e-38
0.0360660337097 -0.0309137431798 0.928 2.34971982589e-38
0.0378648937655 -0.0309803676263 0.93 2.34961178577e-38
0.0397137221561 -0.0310803042961 0.933 2.3496480794e-38
0.0414404057281 -0.0310803042961 0.933 2.34968311187e-38
0.0432596232536 -0.0311469287426 0.935 2.34964878005e-38
0.0449900081837 -0.0311469287426 0.935 2.34950514696e-38
0.0468702981185 -0.0312468654123 0.938 2.35029870228e-38
0.0486062350858 -0.0312468654123 0.938 2.35057980275e-38
0.0504495114392 -0.0313134898588 0.94 2.35083750154e-38
-0.0192988813385 -0.0298255438868 0.948 2.35018701879e-38
-0.0175444375805 -0.0298255438868 0.948 2.35004786986e-38
-0.0157566815992 -0.0297626207984 0.946 2.02627645837e-38
-0.0140059391993 -0.0297626207984 0.946 2.01658858144e-38
-0.0122163325389 -0.0296682361659 0.943 2.08148243306e-38
-0.0104711421762 -0.0296682361659 0.943 2.07208868868e-38
-0.00869819162745 -0.0295738515333 0.94 2.09985934139e-38
-0.00694374786941 -0.029510928445 0.938 2.1274436214e-38
-0.00520781090205 -0.029510928445 0.938 2.20130578319e-38
-0.00346076986028 -0.0294165438124 0.935 2.21049003346e-38
-0.001726683572 -0.0293536207241 0.933 2.21953009011e-38
0.0 -0.0293536207241 0.933 2.31161781999e-38
0.00172113153479 -0.0292592360915 0.93 2.27477684258e-38
0.00344226306959 -0.0292592360915 0.93 2.22860644039e-38
0.00516339460438 -0.0292592360915 0.93 2.34871145151e-38
0.00686972070662 -0.0291963130031 0.928 2.34881444695e-38
0.00858715088327 -0.0291963130031 0.928 2.34860467257e-38
0.0103045810599 -0.0291963130031 0.928 2.34867655918e-38
0.0120220112366 -0.0291963130031 0.928 2.34917794377e-38
0.0136950251156 -0.0291019283706 0.925 2.34903417055e-38
0.015406903255 -0.0291019283706 0.925 2.34907270625e-38
0.0171187813945 -0.0291019283706 0.925 2.34903529159e-38
0.0188306595339 -0.0291019283706 0.925 2.34889305979e-38
0.0205425376733 -0.0291019283706 0.925 2.3492156387e-38
0.0222544158128 -0.0291019283706 0.925 2.34928710492e-38
0.0239662939522 -0.0291019283706 0.925 2.34903571197e-38
0.0256781720917 -0.0291019283706 0.925 2.34928780557e-38
0.0273900502311 -0.0291019283706 0.925 2.34932353868e-38
0.0291019283706 -0.0291019283706 0.925 2.34910787885e-38
0.03081380651 -0.0291019283706 0.925 2.34921507818e-38
0.0326311733564 -0.0291963130031 0.928 2.34950388579e-38
0.0343486035331 -0.0291963130031 0.928 2.34954031955e-38
0.0360660337097 -0.0291963130031 0.928 2.34935941192e-38
0.0378648937655 -0.0292592360915 0.93 2.35008009972e-38
0.0397137221561 -0.0293536207241 0.933 2.34975625965e-38
0.0414404057281 -0.0293536207241 0.933 2.3496804494e-38
0.0432596232536 -0.0294165438124 0.935 2.3500433857e-38
0.0451343611511 -0.029510928445 0.938 2.34989835131e-38
0.0468702981185 -0.029510928445 0.938 2.35007995959e-38
0.0487098731137 -0.0295738515333 0.94 2.35029870228e-38
0.0504495114392 -0.0295738515333 0.94 2.35054827354e-38
-0.0192988813385 -0.0280711001288 0.948 2.34982772587e-38
-0.0175444375805 -0.0280711001288 0.948 2.35051394172e-38
-0.0157899938224 -0.0280711001288 0.948 1.99887196496e-38
-0.0140059391993 -0.0280118783985 0.946 2.04435643155e-38
-0.0122551967994 -0.0280118783985 0.946 2.15528153643e-38
-0.0105044543995 -0.0280118783985 0.946 2.09988988969e-38
-0.0087259518135 -0.0279230458032 0.943 2.05375746269e-38
-0.00695855330196 -0.0278342132079 0.94 2.21034682075e-38
-0.00520781090205 -0.0277749914776 0.938 2.18268616998e-38
-0.00346076986028 -0.0276861588823 0.935 2.22885685243e-38
-0.001726683572 -0.027626937152 0.933 2.23807655554e-38
0.0 -0.027626937152 0.933 2.24715332622e-38
0.001726683572 -0.027626937152 0.933 2.33016428543e-38
0.00345336714401 -0.027626937152 0.933 2.33037938474e-38
0.00516339460438 -0.0275381045567 0.93 2.34888941642e-38
0.00688452613918 -0.0275381045567 0.93 2.34871075086e-38
0.00858715088327 -0.0274788828265 0.928 2.34889334005e-38
0.0103045810599 -0.0274788828265 0.928 2.34849677259e-38
0.0120220112366 -0.0274788828265 0.928 2.34882075279e-38
0.0137394414132 -0.0274788828265 0.928 2.34896340497e-38
0.0154568715899 -0.0274788828265 0.928 2.34935983231e-38
0.0171187813945 -0.0273900502311 0.925 2.34935857114e-38
0.0188306595339 -0.0273900502311 0.925 2.3493255005e-38
0.0205425376733 -0.0273900502311 0.925 2.34910633742e-38
0.0222544158128 -0.0273900502311 0.925 2.34910689794e-38
0.0239662939522 -0.0273900502311 0.925 2.34889207888e-38
0.0256781720917 -0.0273900502311 0.925 2.34921507818e-38
0.0274788828265 -0.0274788828265 0.928 2.34942793542e-38
0.0291963130031 -0.0274788828265 0.928 2.34928766544e-38
0.0309137431798 -0.0274788828265 0.928 2.34939752724e-38
0.0327014991611 -0.0275381045567 0.93 2.34932493998e-38
0.0344226306959 -0.0275381045567 0.93 2.34950360553e-38
0.0362603550121 -0.027626937152 0.933 2.34950402592e-38
0.0379870385841 -0.027626937152 0.933 2.34968311187e-38
0.0397988533933 -0.0276861588823 0.935 2.34971954563e-38
0.0415292383234 -0.0276861588823 0.935 2.35011471179e-38
0.0433984241838 -0.0277749914776 0.938 2.34982744561e-38
0.0451343611511 -0.0277749914776 0.938 2.35007967933e-38
0.0469702347883 -0.0278342132079 0.94 2.35019024178e-38
0.0488653301556 -0.0279230458032 0.943 2.35036960798e-38
0.0507715295974 -0.0280118783985 0.946 2.35083722128e-38
-0.0192988813385 -0.0263166563707 0.948 2.34975724055e-38
-0.0175444375805 -0.0263166563707 0.948 2.35000905389e-38
-0.0157899938224 -0.0263166563707 0.948 2.10936182653e-38
-0.0140059391993 -0.0262611359986 0.946 2.01662543559e-38
-0.0122551967994 -0.0262611359986 0.946 2.05379403658e-38
-0.0105044543995 -0.0262611359986 0.946 2.07212428166e-38
-0.0087259518135 -0.0261778554405 0.943 2.1275492793e-38
-0.00695855330196 -0.0260945748824 0.94 2.12740886919e-38
-0.00520781090205 -0.0260390545103 0.938 2.1826867305e-38
-0.00346076986028 -0.0259557739521 0.935 2.23814844216e-38
-0.00173038493014 -0.0259557739521 0.935 2.24736800514e-38
0.0 -0.0259557739521 0.935 2.31176271425e-38
0.001726683572 -0.02590025358 0.933 2.26576803489e-38
0.00345336714401 -0.02590025358 0.933 2.3026489493e-38
0.00518005071601 -0.02590025358 0.933 2.34860495283e-38
0.00690673428801 -0.02590025358 0.933 2.34892767186e-38
0.00860565767397 -0.0258169730219 0.93 2.33009576193e-38
0.0103267892088 -0.0258169730219 0.93 2.34892669095e-38
0.0120479207436 -0.0258169730219 0.93 2.34907088457e-38
0.0137394414132 -0.0257614526498 0.928 2.34903501133e-38
0.0154568715899 -0.0257614526498 0.928 2.34910998079e-38
0.0171187813945 -0.0256781720917 0.925 2.34914361196e-38
0.0188306595339 -0.0256781720917 0.925 2.3489987177e-38
0.0206091621199 -0.0257614526498 0.928 2.34928444245e-38
0.0223265922965 -0.0257614526498 0.928 2.34921437753e-38
0.0240440224732 -0.0257614526498 0.928 2.34932353868e-38
0.0257614526498 -0.0257614526498 0.928 2.34932325842e-38
0.0274788828265 -0.0257614526498 0.928 2.34935955205e-38
0.0291963130031 -0.0257614526498 0.928 2.34932465972e-38
0.0309137431798 -0.0257614526498 0.928 2.34961304694e-38
0.0327014991611 -0.0258169730219 0.93 2.34954186098e-38
0.0344226306959 -0.0258169730219 0.93 2.34950402592e-38
0.0362603550121 -0.02590025358 0.933 2.34943143866e-38
0.0380684684631 -0.0259557739521 0.935 2.34943017749e-38
0.0397988533933 -0.0259557739521 0.935 2.34968297174e-38
0.0415292383234 -0.0259557739521 0.935 2.3498292673e-38
0.0433984241838 -0.0260390545103 0.938 2.35004380609e-38
0.0451343611511 -0.0260390545103 0.938 2.34997290039e-38
0.0471201397929 -0.0261778554405 0.943 2.35040800356e-38
0.0490207871974 -0.0262611359986 0.946 2.35054883406e-38
0.0508788689834 -0.0263166563707 0.948 2.35069344806e-38
-0.0192988813385 -0.0245622126127 0.948 2.34961234629e-38
-0.0175444375805 -0.0245622126127 0.948 2.35025932579e-38
-0.0157899938224 -0.0245622126127 0.948 2.00805621522e-38
-0.0140059391993 -0.0245103935987 0.946 2.11775322213e-38
-0.0122551967994 -0.0245103935987 0.946 2.05372214997e-38
-0.0105044543995 -0.0245103935987 0.946 2.08148271332e-38
-0.00875371199954 -0.0245103935987 0.946 2.10910819151e-38
-0.0069807614508 -0.0244326650778 0.943 2.17364653371e-38
-0.00521891497647 -0.0243549365569 0.94 2.24743863058e-38
-0.0034718739347 -0.0243031175429 0.938 2.11836474878e-38
-0.00173038493014 -0.024225389022 0.935 2.21953037037e-38
0.0 -0.024225389022 0.935 2.31169292959e-38
0.00173038493014 -0.024225389022 0.935 2.3026837015e-38
0.00345336714401 -0.024173570008 0.933 2.34903473107e-38
0.00518005071601 -0.024173570008 0.933 2.32094528296e-38
0.00690673428801 -0.024173570008 0.933 2.34867459736e-38
0.00863341786002 -0.024173570008 0.933 2.34896410562e-38
0.0103267892088 -0.0240958414871 0.93 2.34917822403e-38
0.0120479207436 -0.0240958414871 0.93 2.34885676616e-38
0.0137690522784 -0.0240958414871 0.93 2.34881949162e-38
0.0154901838131 -0.0240958414871 0.93 2.34921661961e-38
0.0171743017665 -0.0240440224732 0.928 2.34925011064e-38
0.0188917319432 -0.0240440224732 0.928 2.3490348712e-38
0.0206091621199 -0.0240440224732 0.928 2.34921535844e-38
0.0223265922965 -0.0240440224732 0.928 2.34910745846e-38
0.0240440224732 -0.0240440224732 0.928 2.34928752531e-38
0.0257614526498 -0.0240440224732 0.928 2.34935899153e-38
0.0275381045567 -0.0240958414871 0.93 2.34932367881e-38
0.0292592360915 -0.0240958414871 0.93 2.34946759216e-38
0.0309803676263 -0.0240958414871 0.93 2.34950374566e-38
0.0328069878681 -0.024173570008 0.933 2.34946801255e-38
0.0345336714401 -0.024173570008 0.933 2.34972010614e-38
0.036338083533 -0.024225389022 0.935 2.34993534559e-38
0.0380684684631 -0.024225389022 0.935 2.34982548379e-38
0.0397988533933 -0.024225389022 0.935 2.35011625322e-38
0.0416624872164 -0.0243031175429 0.938 2.3501142914e-38
0.0433984241838 -0.0243031175429 0.938 2.35004576791e-38
0.0452305964628 -0.0243549365569 0.94 2.35022317229e-38
0.0472700447975 -0.0245103935987 0.946 2.3502603067e-38
0.0490207871974 -0.0245103935987 0.946 2.3501879997e-38
0.0508788689834 -0.0245622126127 0.948 2.35076743662e-38
0.0527998738577 -0.0246399411336 0.951 2.35098491814e-38
-0.0212976147338 -0.0230724159616 0.959 2.34986387937e-38
-0.0194617410967 -0.0230002394779 0.956 2.34975920237e-38
-0.0176554783247 -0.0229521218221 0.954 2.35011681374e-38
-0.0158399621573 -0.0228799453383 0.951 1.99869021655e-38
-0.0140355500644 -0.0228077688546 0.948 2.07161855304e-38
-0.0122551967994 -0.0227596511988 0.946 2.05357725571e-38
-0.0105044543995 -0.0227596511988 0.946 2.16431865036e-38
-0.00875371199954 -0.0227596511988 0.946 2.10903756607e-38
-0.0069807614508 -0.0226874747151 0.943 2.14595085047e-38
-0.00521891497647 -0.0226152982314 0.94 2.17339500064e-38
-0.0034718739347 -0.0225671805756 0.938 2.24711773324e-38
-0.00173038493014 -0.0224950040919 0.935 2.32087437726e-38
0.0 -0.0224950040919 0.935 2.27491907438e-38
0.00173038493014 -0.0224950040919 0.935 2.32101520775e-38
0.00346076986028 -0.0224950040919 0.935 2.33009295933e-38
0.00518005071601 -0.022446886436 0.933 2.34860565348e-38
0.00690673428801 -0.022446886436 0.933 2.34878291773e-38
0.00863341786002 -0.022446886436 0.933 2.34860411205e-38
0.010360101432 -0.022446886436 0.933 2.34896382536e-38
0.012086785004 -0.022446886436 0.933 2.34895765965e-38
0.0137690522784 -0.0223747099523 0.93 2.34899885783e-38
0.0154901838131 -0.0223747099523 0.93 2.34917822403e-38
0.0172113153479 -0.0223747099523 0.93 2.34914080936e-38
0.0189324468827 -0.0223747099523 0.93 2.34932227751e-38
0.0206535784175 -0.0223747099523 0.93 2.34928682466e-38
0.0223747099523 -0.0223747099523 0.93 2.34943101827e-38
0.0240958414871 -0.0223747099523 0.93 2.34950164371e-38
0.0258169730219 -0.0223747099523 0.93 2.34896438588e-38
0.0275381045567 -0.0223747099523 0.93 2.34925137181e-38
0.0293536207241 -0.022446886436 0.933 2.34950290488e-38
0.0310803042961 -0.022446886436 0.933 2.34935927179e-38
0.0328773136727 -0.0224950040919 0.935 2.34943227944e-38
0.0346076986028 -0.0224950040919 0.935 2.34986289846e-38
0.036338083533 -0.0224950040919 0.935 2.34964737875e-38
0.0380684684631 -0.0224950040919 0.935 2.34964583733e-38
0.0399265502491 -0.0225671805756 0.938 2.34975780107e-38
0.0416624872164 -0.0225671805756 0.938 2.35000709207e-38
0.0433984241838 -0.0225671805756 0.938 2.34979199276e-38
0.0452305964628 -0.0226152982314 0.94 2.35004184427e-38
0.0472700447975 -0.0227596511988 0.946 2.35025946592e-38
0.0490207871974 -0.0227596511988 0.946 2.35044079395e-38
0.0508788689834 -0.0228077688546 0.948 2.35098225567e-38
0.0526333127414 -0.0228077688546 0.948 2.35098477801e-38
-0.0212976147338 -0.0212976147338 0.959 2.34964443603e-38
-0.0194617410967 -0.0212309902873 0.956 2.34972080679e-38
-0.0176554783247 -0.0211865739896 0.954 2.35008009972e-38
-0.0158899304922 -0.0211865739896 0.954 1.97117768302e-38
-0.0140355500644 -0.0210533250966 0.948 2.13615689525e-38
-0.0122551967994 -0.0210089087989 0.946 2.07205239505e-38
-0.0105044543995 -0.0210089087989 0.946 2.12722431819e-38
-0.00875371199954 -0.0210089087989 0.946 2.15499286895e-38
-0.0069807614508 -0.0209422843524 0.943 2.09978269036e-38
-0.00521891497647 -0.0208756599059 0.94 2.24722311088e-38
-0.0034718739347 -0.0208312436082 0.938 2.19187140115e-38
-0.00173593696735 -0.0208312436082 0.938 2.23804180334e-38
0.0 -0.0207646191617 0.935 2.3302364523e-38
0.00173038493014 -0.0207646191617 0.935 2.34870780813e-38
0.00346076986028 -0.0207646191617 0.935 2.34885480434e-38
0.00519115479043 -0.0207646191617 0.935 2.34856683751e-38
0.00692153972057 -0.0207646191617 0.935 2.34863746295e-38
0.00863341786002 -0.020720202864 0.933 2.34903613236e-38
0.010360101432 -0.020720202864 0.933 2.34928766544e-38
0.012086785004 -0.020720202864 0.933 2.34889305979e-38
0.0137690522784 -0.0206535784175 0.93 2.34910857949e-38
0.0154901838131 -0.0206535784175 0.93 2.34939486477e-38
0.0172113153479 -0.0206535784175 0.93 2.34907074444e-38
0.0189324468827 -0.0206535784175 0.93 2.34939570555e-38
0.0206535784175 -0.0206535784175 0.93 2.34932423933e-38
0.0223747099523 -0.0206535784175 0.93 2.34925207246e-38
