# .PCD v0.7 - Point Cloud Data file format
VERSION 0.7
FIELDS x y z rgb
SIZE 4 4 4 4
TYPE F F F F
COUNT 1 1 1 1
WIDTH 854
HEIGHT 1
VIEWPOINT 0 0 0 1 0 0 0
POINTS 854
DATA ascii
0.0454970942488 -0.0194987546781 0.878 2.3493912214e-38
0.047121990472 -0.0194987546781 0.878 1.81494355411e-38
0.0488579274393 -0.0195431709757 0.88 1.38287755523e-38
0.0504865250206 -0.0195431709757 0.88 1.27367941058e-38
0.0522335660624 -0.0195875872734 0.882 1.07103147394e-38
0.0544155166855 -0.0197874606129 0.891 1.31988414459e-38
0.0563790871785 -0.0198985013571 0.896 1.35651128385e-38
0.0580372956249 -0.0198985013571 0.896 1.35629548388e-38
0.0596955040713 -0.0198985013571 0.896 1.39335254151e-38
0.0618330383968 -0.020053958399 0.903 1.42101081008e-38
0.0635042015967 -0.020053958399 0.903 1.01549969736e-38
-0.00169337134875 -0.0186270848362 0.915 2.35076519454e-38
0.0 -0.0186270848362 0.915 1.233826202e-38
0.00168966999061 -0.0185863698967 0.913 9.4927951674e-39
0.00336083319052 -0.0184845825479 0.908 9.96343386833e-39
0.00498572941369 -0.0182810078502 0.898 9.68864484467e-39
0.0066328337857 -0.0182402929107 0.896 9.22982609628e-39
0.00824477525538 -0.0181385055618 0.891 9.41564948304e-39
0.00987152215763 -0.0180977906223 0.889 9.32309652207e-39
0.0114908663436 -0.0180570756828 0.887 9.60111413739e-39
0.0131028078133 -0.0180163607432 0.885 8.77208354512e-39
0.0147406587899 -0.0180163607432 0.885 8.77208354512e-39
0.0163229893945 -0.0179552883339 0.882 1.09761354529e-38
0.0179145733944 -0.0179145733944 0.88 1.67718288299e-38
0.0194987546781 -0.0178738584549 0.878 2.01806414872e-38
0.0211236509012 -0.0178738584549 0.878 2.25734342852e-38
0.0227485471244 -0.0178738584549 0.878 2.34907228586e-38
0.0243734433476 -0.0178738584549 0.878 2.34885522473e-38
0.0259983395707 -0.0178738584549 0.878 2.34896298458e-38
0.0275288511614 -0.0178127860456 0.875 2.34921339662e-38
0.0291481953473 -0.0178127860456 0.875 2.34896214381e-38
0.0307675395333 -0.0178127860456 0.875 2.34892641069e-38
0.0323868837192 -0.0178127860456 0.875 2.34917962533e-38
0.0340062279052 -0.0178127860456 0.875 2.3492865444e-38
0.0356255720912 -0.0178127860456 0.875 2.34935899153e-38
0.0372449162771 -0.0178127860456 0.875 2.34935829088e-38
0.0388642604631 -0.0178127860456 0.875 2.34964639785e-38
0.0406224055793 -0.0178738584549 0.878 2.34964625772e-38
0.0422473018025 -0.0178738584549 0.878 2.12858399809e-38
0.0439721346954 -0.0179145733944 0.88 1.70477346885e-38
0.0456007322767 -0.0179145733944 0.88 1.38266231579e-38
0.047229329858 -0.0179145733944 0.88 1.23665822619e-38
0.0489689681835 -0.0179552883339 0.882 1.10801678509e-38
0.0506012671229 -0.0179552883339 0.882 1.10790916537e-38
0.0530626702856 -0.0182402929107 0.896 1.29219000278e-38
0.054720878732 -0.0182402929107 0.896 1.19988815449e-38
0.0563790871785 -0.0182402929107 0.896 1.43945133735e-38
0.0581668431598 -0.0182810078502 0.898 1.43012751776e-38
0.0598287529643 -0.0182810078502 0.898 1.36562252646e-38
0.0618330383968 -0.018382795199 0.903 1.37498544228e-38
0.0637151790106 -0.0184438676083 0.906 1.16311808279e-38
0.0653918942478 -0.0184438676083 0.906 2.35098225567e-38
-0.00168966999061 -0.0168966999061 0.913 2.35036806655e-38
0.0 -0.0168966999061 0.913 1.98079381347e-38
0.00168966999061 -0.0168966999061 0.913 8.65119072401e-39
0.00336083319052 -0.0168041659526 0.908 9.41170342657e-39
0.00500238552532 -0.0166746184177 0.901 9.5964506161e-39
0.0066328337857 -0.0165820844643 0.896 9.6900797743e-39
0.00827253544143 -0.0165450708829 0.894 9.50533258476e-39
0.00989373030646 -0.0164895505108 0.891 9.41529075064e-39
0.0115167758506 -0.0164525369294 0.889 9.60219033461e-39
0.0131324186784 -0.016415523348 0.887 9.32560764892e-39
0.0147739710132 -0.016415523348 0.887 9.51035483846e-39
0.0163785097666 -0.0163785097666 0.885 1.03383092335e-38
0.0179552883339 -0.0163229893945 0.882 1.02471912022e-38
0.0195875872734 -0.0163229893945 0.882 8.86463650609e-39
0.021171768557 -0.0162859758131 0.88 1.10676122167e-38
0.0228003661383 -0.0162859758131 0.88 1.59445876958e-38
0.0244289637197 -0.0162859758131 0.88 1.86132387082e-38
0.026057561301 -0.0162859758131 0.88 1.97207045027e-38
0.0276861588823 -0.0162859758131 0.88 2.02735405689e-38
0.0293147564636 -0.0162859758131 0.88 2.18394271431e-38
0.0309433540449 -0.0162859758131 0.88 2.15632073937e-38
0.0325719516262 -0.0162859758131 0.88 2.20220051226e-38
0.0342005492075 -0.0162859758131 0.88 2.10996942955e-38
0.0358291467888 -0.0162859758131 0.88 1.98121966807e-38
0.0374577443701 -0.0162859758131 0.88 1.81533619794e-38
0.0390863419515 -0.0162859758131 0.88 1.47418280005e-38
0.0407149395328 -0.0162859758131 0.88 1.39202523161e-38
0.0423435371141 -0.0162859758131 0.88 1.13506520857e-38
0.0439721346954 -0.0162859758131 0.88 1.09868974251e-38
0.0457043703046 -0.0163229893945 0.882 1.14467923707e-38
0.047336669244 -0.0163229893945 0.882 1.12631213784e-38
0.0491355292998 -0.0163785097666 0.885 1.15400627965e-38
0.0511176065834 -0.0164895505108 0.891 1.17251687185e-38
0.0530626702856 -0.0165820844643 0.896 1.20935869003e-38
0.054720878732 -0.0165820844643 0.896 1.20946630975e-38
0.0565049333552 -0.0166190980456 0.898 1.40282307705e-38
0.058490711997 -0.0167116319991 0.903 1.27353591762e-38
0.0601618751969 -0.0167116319991 0.903 1.43015848646e-38
0.0620384637735 -0.0167671523712 0.906 1.17244512536e-38
0.0637151790106 -0.0167671523712 0.906 1.48544195295e-38
0.0653918942478 -0.0167671523712 0.906 2.35098211554e-38
-0.00168966999061 -0.0152070299155 0.913 2.34986668196e-38
0.0 -0.0152070299155 0.913 2.34961374759e-38
0.00168966999061 -0.0152070299155 0.913 9.65997007419e-39
0.0033682359068 -0.0151570615806 0.91 9.5964506161e-39
0.00501348959974 -0.0150404687992 0.903 9.41277962379e-39
0.00664763921826 -0.0149571882411 0.898 9.96630372758e-39
0.00829104223213 -0.0149238760178 0.896 9.87410949902e-39
0.00992704252972 -0.0148905637946 0.894 1.06131178753e-38
0.011581549618 -0.0148905637946 0.894 9.23126102591e-39
0.0131620295435 -0.0148072832364 0.889 9.4185193423e-39
0.0148072832364 -0.0148072832364 0.889 9.32560764892e-39
0.016415523348 -0.0147739710132 0.887 9.14086045938e-39
0.0180163607432 -0.0147406587899 0.885 9.60290779943e-39
0.0196542117199 -0.0147406587899 0.885 1.06166855812e-38
0.0212198862128 -0.014690690455 0.882 9.97168471369e-39
0.0228003661383 -0.0146573782318 0.88 1.00660313367e-38
0.0244289637197 -0.0146573782318 0.88 9.42031300433e-39
0.026057561301 -0.0146573782318 0.88 8.86750636535e-39
0.0276861588823 -0.0146573782318 0.88 8.95970059391e-39
0.0293147564636 -0.0146573782318 0.88 9.78801372137e-39
0.0309433540449 -0.0146573782318 0.88 1.13495758885e-38
0.032645978789 -0.014690690455 0.882 1.13484996912e-38
0.0342782777284 -0.014690690455 0.882 1.21789652131e-38
0.0359105766679 -0.014690690455 0.882 1.07999978411e-38
0.0376705724632 -0.0147406587899 0.885 1.0709956007e-38
0.0393084234398 -0.0147406587899 0.885 1.20006752069e-38
0.0409462744165 -0.0147406587899 0.885 1.18159280174e-38
0.0425841253931 -0.0147406587899 0.885 1.05255675499e-38
0.0442219763698 -0.0147406587899 0.885 1.08943444641e-38
0.0458598273464 -0.0147406587899 0.885 1.13549568746e-38
0.0474976783231 -0.0147406587899 0.885 1.12638388432e-38
0.0492465700439 -0.0147739710132 0.887 1.15407802613e-38
0.0511176065834 -0.0148405954597 0.891 1.13578267338e-38
0.0530626702856 -0.0149238760178 0.896 1.21857811289e-38
0.0548430235506 -0.0149571882411 0.898 1.23712457832e-38
0.0570083180621 -0.0150904371341 0.906 1.3198123981e-38
0.0586850332993 -0.0150904371341 0.906 1.34729130047e-38
0.0603617485364 -0.0150904371341 0.906 1.31041360905e-38
0.0620384637735 -0.0150904371341 0.906 1.08936269993e-38
0.0638558306199 -0.0151237493574 0.908 2.35072595818e-38
0.0655362472152 -0.0151237493574 0.908 2.35098645957e-38
0.00166190980456 -0.0132952784365 0.898 1.62054968582e-38
0.00332381960913 -0.0132952784365 0.898 9.49528807737e-39
0.00500238552532 -0.0133396947342 0.901 8.58626015837e-39
0.00666984736709 -0.0133396947342 0.901 9.6900797743e-39
0.00830954902282 -0.0132952784365 0.898 9.59788554573e-39
0.00997145882739 -0.0132952784365 0.898 9.32345525448e-39
0.011607459125 -0.0132656675714 0.896 9.32560764892e-39
0.0132360567063 -0.0132360567063 0.894 8.95790693188e-39
0.0148405954597 -0.0131916404086 0.891 9.41959553952e-39
0.0164895505108 -0.0131916404086 0.891 9.78693752415e-39
0.0180977906223 -0.0131620295435 0.889 1.01542795088e-38
0.0196986280176 -0.0131324186784 0.887 9.60254906702e-39
0.0213401803524 -0.0131324186784 0.887 9.97204344609e-39
0.0228521851523 -0.0130583915156 0.882 9.60434272905e-39
0.0244844840917 -0.0130583915156 0.882 9.88200161197e-39
0.0262056156265 -0.0131028078133 0.885 1.01585842977e-38
0.0278434666032 -0.0131028078133 0.885 1.04340907861e-38
0.0294813175799 -0.0131028078133 0.885 1.00660313367e-38
0.0311191685565 -0.0131028078133 0.885 1.0802508968e-38
0.0327570195332 -0.0131028078133 0.885 1.09872561575e-38
0.0343948705098 -0.0131028078133 0.885 1.04326558565e-38
0.0360327214865 -0.0131028078133 0.885 1.07095972746e-38
0.0376705724632 -0.0131028078133 0.885 9.97419584053e-39
0.0393084234398 -0.0131028078133 0.885 1.04340907861e-38
0.04103880837 -0.0131324186784 0.887 9.97598950257e-39
0.0426803607048 -0.0131324186784 0.887 1.1724809986e-38
0.0443219130396 -0.0131324186784 0.887 1.15389865993e-38
0.0459634653743 -0.0131324186784 0.887 1.18162867498e-38
0.0476050177091 -0.0131324186784 0.887 1.10808853157e-38
0.0492465700439 -0.0131324186784 0.887 1.22790515547e-38
0.0514044618392 -0.0132656675714 0.896 1.15418564585e-38
0.0530626702856 -0.0132656675714 0.896 1.22768991602e-38
0.0550262407785 -0.0133396947342 0.901 1.26449586097e-38
0.0570083180621 -0.013413721897 0.906 1.25516881839e-38
0.0588145808341 -0.0134433327621 0.908 1.35658246981e-38
0.0604949974294 -0.0134433327621 0.908 1.2275822963e-38
0.0621754140247 -0.0134433327621 0.908 1.31023424284e-38
0.0638558306199 -0.0134433327621 0.908 2.35097931294e-38
0.0655362472152 -0.0134433327621 0.908 2.35098435762e-38
0.00166190980456 -0.011633368632 0.898 2.15488356767e-38
0.00332381960913 -0.011633368632 0.898 1.15117733831e-38
0.00498572941369 -0.011633368632 0.898 8.76670255902e-39
0.00668465279965 -0.0116981423994 0.903 9.32237905726e-39
0.00833730920887 -0.0116722328924 0.901 9.047948766e-39
0.0100047710506 -0.0116722328924 0.901 8.77244227753e-39
0.011633368632 -0.011633368632 0.898 9.05045989285e-39
0.0132952784365 -0.011633368632 0.898 9.05010116044e-39
0.0149238760178 -0.011607459125 0.896 9.23448961757e-39
0.0165820844643 -0.011607459125 0.896 9.4188780747e-39
0.0181995779711 -0.011581549618 0.894 9.87913175271e-39
0.0197430443153 -0.0115167758506 0.889 9.60254906702e-39
0.0213882980082 -0.0115167758506 0.889 9.69617822521e-39
0.0229817326872 -0.0114908663436 0.887 1.02486261318e-38
0.024623285022 -0.0114908663436 0.887 1.0157149368e-38
0.0262648373568 -0.0114908663436 0.887 9.88128414716e-39
0.0279063896916 -0.0114908663436 0.887 9.88128414716e-39
0.0295479420264 -0.0114908663436 0.887 9.97419584053e-39
0.0311894943612 -0.0114908663436 0.887 9.88307780919e-39
0.032831046696 -0.0114908663436 0.887 1.02511372586e-38
0.0344725990308 -0.0114908663436 0.887 1.01596604949e-38
0.0361141513656 -0.0114908663436 0.887 1.05270024795e-38
0.0377557037004 -0.0114908663436 0.887 1.05270024795e-38
0.0393972560352 -0.0114908663436 0.887 1.0895061929e-38
0.04103880837 -0.0114908663436 0.887 1.09872561575e-38
0.0427765960164 -0.0115167758506 0.889 1.07124671339e-38
0.0444218497093 -0.0115167758506 0.889 1.14485860328e-38
0.0460671034023 -0.0115167758506 0.889 1.17258861833e-38
0.0478196964812 -0.0115426853575 0.891 1.11720033471e-38
0.0494686515323 -0.0115426853575 0.891 1.12631213784e-38
0.0518060591973 -0.0116981423994 0.903 1.22765404278e-38
0.0534772223972 -0.0116981423994 0.903 1.31992001783e-38
0.055331602825 -0.0117370066599 0.906 1.27353591762e-38
0.0571341642389 -0.0117629161668 0.908 1.37505718876e-38
0.058944128369 -0.0117888256738 0.91 1.26445998773e-38
0.0606282463224 -0.0117888256738 0.91 1.1262762646e-38
0.0623123642758 -0.0117888256738 0.91 2.35085529803e-38
0.0639964822292 -0.0117888256738 0.91 2.35080415064e-38
0.0656806001826 -0.0117888256738 0.91 2.35098561879e-38
-0.00332381960913 -0.00997145882739 0.898 2.34928752531e-38
-0.00166190980456 -0.00997145882739 0.898 2.34910647755e-38
0.0 -0.00997145882739 0.898 2.34917710299e-38
0.00165820844643 -0.00994925067855 0.896 2.07183505366e-38
0.00331641689285 -0.00994925067855 0.896 1.91586212679e-38
0.00498572941369 -0.00997145882739 0.898 9.95195443131e-39
0.00666984736709 -0.0100047710506 0.901 1.02425276809e-38
0.00835581599956 -0.0100269791995 0.903 9.23269595554e-39
0.0100269791995 -0.0100269791995 0.903 9.41816060989e-39
0.0116722328924 -0.0100047710506 0.901 9.05081862526e-39
0.0133396947342 -0.0100047710506 0.901 9.51035483846e-39
0.0149571882411 -0.00997145882739 0.898 9.60254906702e-39
0.0166190980456 -0.00997145882739 0.898 9.32632511373e-39
0.0182402929107 -0.00994925067855 0.896 9.78693752415e-39
0.0197874606129 -0.00989373030646 0.891 9.97132598128e-39
0.0213882980082 -0.00987152215763 0.889 1.00635202098e-38
0.0230335517011 -0.00987152215763 0.889 9.69439016837e-39
0.0246788053941 -0.00987152215763 0.889 1.02486261318e-38
0.026324059087 -0.00987152215763 0.889 9.88128414716e-39
0.0279693127799 -0.00987152215763 0.889 1.07110322042e-38
0.0296145664729 -0.00987152215763 0.889 9.60577765868e-39
0.0312598201658 -0.00987152215763 0.889 9.79160104544e-39
0.0329050738588 -0.00987152215763 0.889 1.034225529e-38
0.0345503275517 -0.00987152215763 0.889 1.00667488015e-38
0.0361955812446 -0.00987152215763 0.889 1.12631213784e-38
0.0378408349376 -0.00987152215763 0.889 1.08021502356e-38
0.0394860886305 -0.00987152215763 0.889 1.0802508968e-38
0.0411313423234 -0.00987152215763 0.889 1.21857811289e-38
0.0427765960164 -0.00987152215763 0.889 1.09879736223e-38
0.0444218497093 -0.00987152215763 0.889 1.12638388432e-38
0.0461707414302 -0.00989373030646 0.891 1.11727208119e-38
0.0479807055603 -0.00992704252972 0.894 1.17255274509e-38
0.0498572941369 -0.00997145882739 0.898 1.15389865993e-38
0.0519781723508 -0.0100602914227 0.906 1.23669409943e-38
0.0537733310484 -0.0100824995716 0.908 1.4027167185e-38
0.0554537476436 -0.0100824995716 0.908 1.21825987801e-38
0.0572600104156 -0.0101047077204 0.91 1.26445998773e-38
0.058944128369 -0.0101047077204 0.91 1.19992402773e-38
0.0606282463224 -0.0101047077204 0.91 1.67840411461e-38
0.0625177896526 -0.0101380199437 0.913 2.35097889256e-38
0.0642074596432 -0.0101380199437 0.913 2.35098351684e-38
0.0660414826012 -0.0101602280925 0.915 2.35098589905e-38
-0.00332381960913 -0.00830954902282 0.898 2.34903529159e-38
-0.00166190980456 -0.00830954902282 0.898 2.34878291773e-38
0.0 -0.00829104223213 0.896 2.34896326484e-38
0.00165820844643 -0.00829104223213 0.896 2.02581108715e-38
0.00331641689285 -0.00829104223213 0.896 2.20091047689e-38
0.00498572941369 -0.00830954902282 0.898 1.61161248447e-38
0.00666984736709 -0.00833730920887 0.901 7.74431519945e-39
0.00840208297631 -0.00840208297631 0.908 9.50892271142e-39
0.0100824995716 -0.00840208297631 0.908 8.95718946707e-39
0.0117370066599 -0.00838357618561 0.906 9.41780187748e-39
0.013413721897 -0.00838357618561 0.906 9.51035483846e-39
0.0150404687992 -0.00835581599956 0.903 9.23341342035e-39
0.0166746184177 -0.00833730920887 0.901 1.11694936215e-38
0.0182810078502 -0.00830954902282 0.898 9.97168471369e-39
0.0198985013571 -0.00829104223213 0.896 9.97096724887e-39
0.021436415664 -0.00824477525538 0.891 1.03393854307e-38
0.0230853707151 -0.00824477525538 0.891 1.05248500851e-38
0.0247343257662 -0.00824477525538 0.891 1.04326558565e-38
0.0263832808172 -0.00824477525538 0.891 1.02486261318e-38
0.0281266205009 -0.00827253544143 0.894 1.02511372586e-38
0.0296811909194 -0.00824477525538 0.891 1.01568130564e-38
0.0313301459705 -0.00824477525538 0.891 9.88307780919e-39
0.0329791010215 -0.00824477525538 0.891 1.1357109269e-38
0.0346280560726 -0.00824477525538 0.891 1.08021502356e-38
0.0362770111237 -0.00824477525538 0.891 1.12624039136e-38
0.0378408349376 -0.00822626846469 0.889 1.05270024795e-38
0.0394860886305 -0.00822626846469 0.889 1.07106860835e-38
0.0411313423234 -0.00822626846469 0.889 1.10801678509e-38
0.042872831328 -0.00824477525538 0.891 1.14485860328e-38
0.0445217863791 -0.00824477525538 0.891 1.15400627965e-38
0.0461707414302 -0.00824477525538 0.891 1.15397040641e-38
0.0480880449463 -0.00829104223213 0.896 1.18159280174e-38
0.0501348959974 -0.00835581599956 0.903 1.24612876173e-38
0.0520929144531 -0.00840208297631 0.908 1.27371528382e-38
0.0537733310484 -0.00840208297631 0.908 1.25524056487e-38
0.0555758924622 -0.008420589767 0.91 1.28293470668e-38
0.0574487796807 -0.00844834995305 0.913 1.16315395603e-38
0.0591384496713 -0.00844834995305 0.913 1.37469845636e-38
0.0608281196619 -0.00844834995305 0.913 2.35097076502e-38
0.0626547399037 -0.00846685674374 0.915 2.350478629e-38
0.0643481112525 -0.00846685674374 0.915 2.35076491428e-38
0.0660414826012 -0.00846685674374 0.915 2.35098589905e-38
-0.00166190980456 -0.00664763921826 0.898 2.3488926394e-38
0.0 -0.0066328337857 0.896 2.348606214e-38
0.00165820844643 -0.0066328337857 0.896 2.02588199286e-38
0.00331641689285 -0.0066328337857 0.896 2.09045648856e-38
0.00498572941369 -0.00664763921826 0.898 2.25640834205e-38
0.00690673428801 -0.00690673428801 0.933 1.47357337535e-38
0.00858715088327 -0.00686972070662 0.928 9.22336891296e-39
0.0101602280925 -0.006773485395 0.915 8.86463650609e-39
0.0117888256738 -0.0067364718136 0.91 9.41780187748e-39
0.0134729436272 -0.0067364718136 0.91 9.3248901841e-39
0.0151237493574 -0.00672166638105 0.908 9.51071357086e-39
0.0167671523712 -0.00670686094849 0.906 9.97383710813e-39
0.018382795199 -0.00668465279965 0.903 8.59271734169e-39
0.020053958399 -0.00668465279965 0.903 9.78801372137e-39
0.0216770039431 -0.00666984736709 0.901 9.78801372137e-39
0.0233444657848 -0.00666984736709 0.901 9.9724021785e-39
0.0250119276266 -0.00666984736709 0.901 9.78801372137e-39
0.026590556873 -0.00664763921826 0.898 1.01567906356e-38
0.0282524666776 -0.00664763921826 0.898 1.034225529e-38
0.0298477520357 -0.0066328337857 0.896 9.97419584053e-39
0.0315059604821 -0.0066328337857 0.896 1.0434808251e-38
0.0331641689285 -0.0066328337857 0.896 1.00667488015e-38
0.0348223773749 -0.0066328337857 0.896 1.01589430301e-38
0.0363991559423 -0.00661802835314 0.894 1.034225529e-38
0.0380536630306 -0.00661802835314 0.894 1.11723620795e-38
0.0395749212258 -0.00659582020431 0.891 1.07106734718e-38
0.0412238762769 -0.00659582020431 0.891 1.06199141729e-38
0.0430171842954 -0.00661802835314 0.894 1.09876148899e-38
0.0446716913837 -0.00661802835314 0.894 1.11705684174e-38
0.046326198472 -0.00661802835314 0.894 1.18152105526e-38
0.0486247418765 -0.00670686094849 0.906 1.1908122246e-38
0.0504124978578 -0.00672166638105 0.908 1.19088397108e-38
0.0522076565554 -0.0067364718136 0.91 1.15429326558e-38
0.0538917745088 -0.0067364718136 0.91 1.20943043651e-38
0.0557591096901 -0.00675867996244 0.913 1.13556743394e-38
0.0575746258575 -0.006773485395 0.915 1.27371528382e-38
0.0592679972062 -0.006773485395 0.915 2.35057882184e-38
0.060961368555 -0.006773485395 0.915 2.35037114941e-38
0.0628601652804 -0.00679569354383 0.918 2.35040422006e-38
0.0645590886664 -0.00679569354383 0.918 2.35080190856e-38
-0.00175074239991 -0.00525222719973 0.946 2.34846174012e-38
0.0 -0.00520781090205 0.938 2.33924343831e-38
0.00173593696735 -0.00520781090205 0.938 1.94297851324e-38
0.00346076986028 -0.00519115479043 0.935 2.12736753089e-38
0.00519115479043 -0.00519115479043 0.935 2.16421018985e-38
0.00692153972057 -0.00519115479043 0.935 2.19205118774e-38
0.00858715088327 -0.00515229052996 0.928 1.4736102295e-38
0.0102490606878 -0.00512453034392 0.923 1.07867247421e-38
0.0118535994412 -0.00508011404625 0.915 9.23126102591e-39
0.01354697079 -0.00508011404625 0.915 9.60111413739e-39
0.0152070299155 -0.00506900997183 0.913 1.04319383917e-38
0.016841179534 -0.0050523538602 0.91 9.23664201202e-39
0.0185252974874 -0.0050523538602 0.91 9.42067173674e-39
0.0201649991431 -0.00504124978578 0.908 9.78801372137e-39
0.0217972980826 -0.00503014571137 0.906 9.32740131095e-39
0.0234740133197 -0.00503014571137 0.906 9.69617822521e-39
0.0250674479987 -0.00501348959974 0.903 1.07106734718e-38
0.0267386111986 -0.00501348959974 0.903 1.0617403046e-38
0.0283468513102 -0.00500238552532 0.901 1.06181205109e-38
0.0299143764822 -0.00498572941369 0.898 9.60577765868e-39
0.0315762862867 -0.00498572941369 0.898 1.02511372586e-38
0.0332381960913 -0.00498572941369 0.898 1.06181205109e-38
0.0349001058959 -0.00498572941369 0.898 1.0434808251e-38
0.0365620157004 -0.00498572941369 0.898 1.08947045979e-38
0.0381387942678 -0.00497462533928 0.896 1.0895061929e-38
0.0397970027142 -0.00497462533928 0.896 1.08957793938e-38
0.0415477451141 -0.00498572941369 0.898 1.13564086198e-38
0.0434502431977 -0.00501348959974 0.903 1.1908122246e-38
0.0451214063976 -0.00501348959974 0.903 1.19066873163e-38
0.0469480266394 -0.00503014571137 0.906 1.18162867498e-38
0.0487320812626 -0.00504124978578 0.908 1.1908122246e-38
0.050523538602 -0.0050523538602 0.91 1.21857811289e-38
0.0522076565554 -0.0050523538602 0.91 1.2370169586e-38
0.0538917745088 -0.0050523538602 0.91 1.06188379757e-38
0.0558812545087 -0.00508011404625 0.915 1.41172020126e-38
0.0577633951226 -0.00509677015787 0.918 2.35085319608e-38
0.0594623185085 -0.00509677015787 0.918 2.35025988631e-38
0.0611612418945 -0.00509677015787 0.918 2.34989947235e-38
0.0638872921641 -0.00518005071601 0.933 2.35058078366e-38
0.0656139757361 -0.00518005071601 0.933 2.35098183528e-38
-0.00175074239991 -0.00350148479982 0.946 2.31154747481e-38
0.0 -0.0034718739347 0.938 2.18254043494e-38
0.00173593696735 -0.0034718739347 0.938 2.09974639673e-38
0.00346076986028 -0.00346076986028 0.935 2.13651899077e-38
0.00519115479043 -0.00346076986028 0.935 2.09978297062e-38
0.00692153972057 -0.00346076986028 0.935 2.21949225505e-38
0.00860565767397 -0.00344226306959 0.93 2.21974238683e-38
0.0103045810599 -0.00343486035331 0.928 1.78689180094e-38
0.0118924637017 -0.00339784677192 0.918 1.18898268932e-38
0.01354697079 -0.0033867426975 0.915 9.32560764892e-39
0.0152070299155 -0.00337933998122 0.913 9.87877302031e-39
0.0168041659526 -0.00336083319052 0.908 9.60290779943e-39
0.0184845825479 -0.00336083319052 0.908 1.00635202098e-38
0.0201649991431 -0.00336083319052 0.908 9.69581949281e-39
0.0218454157384 -0.00336083319052 0.908 9.5128659653e-39
0.0235258323337 -0.00336083319052 0.908 1.01589430301e-38
0.0251507285568 -0.00335343047424 0.906 9.23771820924e-39
0.026827443794 -0.00335343047424 0.906 1.0434808251e-38
0.0285041590311 -0.00335343047424 0.906 1.02493435966e-38
0.0301808742682 -0.00335343047424 0.906 1.02511372586e-38
0.0318575895053 -0.00335343047424 0.906 1.09872561575e-38
0.0335343047424 -0.00335343047424 0.906 1.0434808251e-38
0.0350944271982 -0.00334232639983 0.903 1.08017915032e-38
0.0367655903981 -0.00334232639983 0.903 1.08943444641e-38
0.0383516223608 -0.00333492368355 0.901 1.12649150404e-38
0.0400190842026 -0.00333492368355 0.901 1.12638388432e-38
0.0417790799978 -0.00334232639983 0.903 1.12638388432e-38
0.0435945961652 -0.00335343047424 0.906 1.14485860328e-38
0.0452713114023 -0.00335343047424 0.906 1.18159280174e-38
0.0469480266394 -0.00335343047424 0.906 1.19088397108e-38
0.0487320812626 -0.00336083319052 0.908 1.18166454822e-38
0.050523538602 -0.0033682359068 0.91 1.07106734718e-38
0.0522076565554 -0.0033682359068 0.91 1.15386278669e-38
0.0540694396995 -0.00337933998122 0.913 1.73343184413e-38
0.0558812545087 -0.0033867426975 0.915 2.35046699823e-38
0.0577633951226 -0.00339784677192 0.918 2.35015562971e-38
0.0597861873457 -0.00341635356261 0.923 2.35015142581e-38
0.061494364127 -0.00341635356261 0.923 2.35022247164e-38
0.0638872921641 -0.00345336714401 0.933 2.3506570143e-38
0.0 -0.00173963832549 0.94 2.23800228673e-38
0.00173593696735 -0.00173593696735 0.938 2.04457153087e-38
0.0034718739347 -0.00173593696735 0.938 2.11818454179e-38
0.00520781090205 -0.00173593696735 0.938 2.07194645689e-38
0.00694374786941 -0.00173593696735 0.938 2.15506125231e-38
0.00865192465071 -0.00173038493014 0.935 2.18275679542e-38
0.0103823095809 -0.00173038493014 0.935 2.26569796996e-38
0.0120479207436 -0.00172113153479 0.93 1.98046913261e-38
0.0137394414132 -0.00171743017665 0.928 1.47435431898e-38
0.0153735910318 -0.00170817678131 0.923 9.1311746844e-39
0.0168041659526 -0.00168041659526 0.908 8.95790693188e-39
0.0184845825479 -0.00168041659526 0.908 9.51107230327e-39
0.0201649991431 -0.00168041659526 0.908 9.69581949281e-39
0.0218454157384 -0.00168041659526 0.908 9.78765498896e-39
0.0235258323337 -0.00168041659526 0.908 1.02500610614e-38
0.0252062489289 -0.00168041659526 0.908 9.51394216252e-39
0.026827443794 -0.00167671523712 0.906 9.79160104544e-39
0.0285041590311 -0.00167671523712 0.906 9.8834365416e-39
0.0301808742682 -0.00167671523712 0.906 1.05270024795e-38
0.0318575895053 -0.00167671523712 0.906 1.04340907861e-38
0.0335343047424 -0.00167671523712 0.906 1.07095972746e-38
0.0350944271982 -0.00167116319991 0.903 1.12631213784e-38
0.0367655903981 -0.00167116319991 0.903 1.12631213784e-38
0.0385644504538 -0.00167671523712 0.906 1.11723620795e-38
0.0402411656909 -0.00167671523712 0.906 1.14485860328e-38
0.041917880928 -0.00167671523712 0.906 1.13563918042e-38
0.0435945961652 -0.00167671523712 0.906 1.15407802613e-38
0.0453712480721 -0.00168041659526 0.908 1.04344495185e-38
0.0470516646673 -0.00168041659526 0.908 1.18180804118e-38
0.0487320812626 -0.00168041659526 0.908 1.15407802613e-38
0.050523538602 -0.0016841179534 0.91 1.33800013113e-38
0.0523797697089 -0.00168966999061 0.913 2.12007769602e-38
0.05418788316 -0.00169337134875 0.915 2.35011260984e-38
0.0563698337831 -0.00170817678131 0.923 2.35014624101e-38
0.0582038567412 -0.00171187813945 0.925 2.34986906417e-38
0.0601100561829 -0.00171743017665 0.928 2.3501184953e-38
0.0618274863596 -0.00171743017665 0.928 2.35000877363e-38
0.0638872921641 -0.001726683572 0.933 2.35065659391e-38
0.0663172337826 -0.0017451903627 0.943 2.3509086875e-38
0.00173593696735 0.0 0.938 2.07216183646e-38
0.0034718739347 0.0 0.938 1.96141763921e-38
0.00520781090205 0.0 0.938 2.09956787131e-38
0.00694374786941 0.0 0.938 2.12747473022e-38
0.00867968483676 0.0 0.938 2.10903798646e-38
0.0103823095809 0.0 0.935 2.17368212669e-38
0.012086785004 0.0 0.933 2.25651329931e-38
0.0137690522784 0.0 0.93 2.21059891435e-38
0.0154568715899 0.0 0.928 1.8239485783e-38
0.0171187813945 0.0 0.925 1.49297365194e-38
0.0187899445944 0.0 0.923 1.06080760035e-38
0.020320456185 0.0 0.915 9.87913175271e-39
0.0220138275337 0.0 0.915 9.97204344609e-39
0.0237071988825 0.0 0.915 1.01560731708e-38
0.0253450498591 0.0 0.913 1.01567906356e-38
0.0268866655242 0.0 0.908 9.97419584053e-39
0.0285670821194 0.0 0.908 9.69868935206e-39
0.0302474987147 0.0 0.908 1.08947031966e-38
0.03192791531 0.0 0.908 1.08021502356e-38
0.033682359068 0.0 0.91 1.09868974251e-38
0.0354830698028 0.0 0.913 1.07092385422e-38
0.0371727397934 0.0 0.913 1.07121084015e-38
0.0389475410212 0.0 0.915 1.05277199443e-38
0.04064091237 0.0 0.915 1.11709271498e-38
0.0423342837187 0.0 0.915 1.11709271498e-38
0.0440276550675 0.0 0.915 1.01600192273e-38
0.0456210897465 0.0 0.913 1.14475098355e-38
0.0471553026952 0.0 0.91 1.20892821114e-38
0.0488394206486 0.0 0.91 1.84371291224e-38
0.050523538602 0.0 0.91 2.35028819254e-38
0.0523797697089 0.0 0.913 2.35007939907e-38
0.05418788316 0.0 0.915 2.34979017107e-38
0.0564919786017 0.0 0.925 2.34996981753e-38
0.0582038567412 0.0 0.925 2.34989947235e-38
0.0601100561829 0.0 0.928 2.34983010807e-38
0.0618274863596 0.0 0.928 2.35040534109e-38
0.0640242424153 0.0 0.935 2.35091064932e-38
0.0663172337826 0.0 0.943 2.35098561879e-38
0.0034903807254 0.0017451903627 0.943 2.12729914752e-38
0.0052355710881 0.0017451903627 0.943 2.09956632988e-38
0.0069807614508 0.0017451903627 0.943 2.16431808984e-38
0.00869819162745 0.00173963832549 0.94 2.12751368632e-38
0.0104156218041 0.00173593696735 0.938 2.11829412333e-38
0.012112694511 0.00173038493014 0.935 2.1828660967e-38
0.013813468576 0.001726683572 0.933 2.26569825022e-38
0.0154901838131 0.00172113153479 0.93 2.34878221708e-38
0.0171743017665 0.00171743017665 0.928 2.23836326121e-38
0.0188917319432 0.00171743017665 0.928 1.91635860683e-38
0.0205425376733 0.00171187813945 0.925 1.64033980364e-38
0.0222544158128 0.00171187813945 0.925 1.37351463941e-38
0.0238367464174 0.0017026247441 0.92 1.18977190062e-38
0.0254838507894 0.00169892338596 0.918 1.15336056132e-38
0.02709394158 0.00169337134875 0.915 1.07999978411e-38
0.0286300052078 0.0016841179534 0.91 1.01560731708e-38
0.0303141231612 0.0016841179534 0.91 1.02489848642e-38
0.0321037298216 0.00168966999061 0.913 9.69689569003e-39
0.0337933998122 0.00168966999061 0.913 1.08039438976e-38
0.0354830698028 0.00168966999061 0.913 1.0157149368e-38
0.0371727397934 0.00168966999061 0.913 1.07095972746e-38
0.0389475410212 0.00169337134875 0.915 1.12620451812e-38
0.040774161263 0.00169892338596 0.918 1.15353992752e-38
0.042473084649 0.00169892338596 0.918 1.30991138368e-38
0.0441720080349 0.00169892338596 0.918 1.64105726845e-38
0.0458709314209 0.00169892338596 0.918 2.09202412115e-38
0.0480880449463 0.00171743017665 0.928 2.35003427726e-38
0.0500738235881 0.001726683572 0.933 2.35003609895e-38
0.0519115479043 0.00173038493014 0.935 2.34989891183e-38
0.0536419328344 0.00173038493014 0.935 2.34928682466e-38
0.0553723177646 0.00173038493014 0.935 2.34950360553e-38
0.0571027026947 0.00173038493014 0.935 2.34972332913e-38
0.0588330876248 0.00173038493014 0.935 2.34986612144e-38
0.0607577938573 0.00173593696735 0.938 2.35047806848e-38
0.0624937308247 0.00173593696735 0.938 2.35044037356e-38
0.0643666180432 0.00173963832549 0.94 2.35087337478e-38
0.00351999159051 0.00351999159051 0.951 2.05382780787e-38
0.00526333127414 0.0035088875161 0.948 2.12733249843e-38
0.00700296959964 0.00350148479982 0.946 2.13644444169e-38
0.00869819162745 0.00347927665098 0.94 2.09971430699e-38
0.0104156218041 0.0034718739347 0.938 2.24729611853e-38
0.0121515587715 0.0034718739347 0.938 2.16435340256e-38
0.0138430794411 0.00346076986028 0.935 2.26562762478e-38
0.015540152148 0.00345336714401 0.933 2.25655253567e-38
0.01726683572 0.00345336714401 0.933 2.31175879062e-38
0.0189324468827 0.00344226306959 0.93 2.34860215023e-38
0.0206535784175 0.00344226306959 0.93 2.34892571005e-38
0.0223265922965 0.00343486035331 0.928 2.22931970131e-38
0.0239662939522 0.00342375627889 0.925 2.10971719582e-38
0.0256781720917 0.00342375627889 0.925 1.84263559398e-38
0.0273308285009 0.00341635356261 0.923 1.79678959238e-38
0.0288816975613 0.00339784677192 0.918 1.63094241588e-38
0.0305806209472 0.00339784677192 0.918 1.65885039584e-38
0.0322795443332 0.00339784677192 0.918 1.61289677452e-38
0.0339784677192 0.00339784677192 0.918 1.64977446594e-38
0.0356773911051 0.00339784677192 0.918 1.63126387375e-38
0.0373763144911 0.00339784677192 0.918 1.86150253637e-38
0.039075237877 0.00339784677192 0.918 1.99950451108e-38
0.040774161263 0.00339784677192 0.918 2.24847180794e-38
0.0425656186024 0.00340524948819 0.92 2.28492798879e-38
0.0442682433465 0.00340524948819 0.92 2.34964401564e-38
0.046220709765 0.00342375627889 0.925 2.3497152016e-38
0.0480880449463 0.00343486035331 0.928 2.3496456972e-38
0.0500738235881 0.00345336714401 0.933 2.34953779721e-38
0.0519115479043 0.00346076986028 0.935 2.34928766544e-38
0.0536419328344 0.00346076986028 0.935 2.34968353225e-38
0.0555499829552 0.0034718739347 0.938 2.34975527874e-38
0.0572859199226 0.0034718739347 0.938 2.35015170607e-38
0.0590218568899 0.0034718739347 0.938 2.35022135061e-38
0.0608873413922 0.00347927665098 0.94 2.35076295246e-38
0.0626269797177 0.00347927665098 0.94 2.35061833846e-38
0.00351999159051 0.00527998738577 0.951 2.0812732192e-38
0.00526333127414 0.00526333127414 0.948 2.04457125061e-38
0.00701777503219 0.00526333127414 0.948 2.10903378256e-38
0.0087259518135 0.0052355710881 0.943 2.20119788321e-38
0.0104378299529 0.00521891497647 0.94 2.1365848518e-38
0.0121515587715 0.00520781090205 0.938 2.26548273052e-38
0.0138430794411 0.00519115479043 0.935 2.22885503074e-38
0.0155734643713 0.00519115479043 0.935 2.21938491559e-38
0.01726683572 0.00518005071601 0.933 2.30250391491e-38
0.018993519292 0.00518005071601 0.933 2.28399248194e-38
0.020720202864 0.00518005071601 0.933 2.34870752787e-38
0.0223747099523 0.00516339460438 0.93 2.34892627056e-38
0.0240440224732 0.00515229052996 0.928 2.34903290938e-38
0.0257614526498 0.00515229052996 0.928 2.34907060431e-38
0.0274788828265 0.00515229052996 0.928 2.34914389222e-38
0.0291019283706 0.00513563441834 0.925 2.34889109797e-38
0.0307471820635 0.00512453034392 0.923 2.3493936036e-38
0.0323498701378 0.00510787423229 0.92 2.34943101827e-38
0.0340524948819 0.00510787423229 0.92 2.34917766351e-38
0.0356773911051 0.00509677015787 0.918 2.34982057924e-38
0.0373763144911 0.00509677015787 0.918 2.34917486091e-38
0.039075237877 0.00509677015787 0.918 2.34943129853e-38
0.0408629938583 0.00510787423229 0.92 2.3494311584e-38
0.0425656186024 0.00510787423229 0.92 2.34960786214e-38
0.044412596314 0.00512453034392 0.923 2.34953681631e-38
0.0463706147697 0.00515229052996 0.928 2.3496119259e-38
0.0483471400161 0.00518005071601 0.933 2.34975345705e-38
0.0501811629741 0.00519115479043 0.935 2.34953751695e-38
0.0519115479043 0.00519115479043 0.935 2.34986275833e-38
0.0536419328344 0.00519115479043 0.935 2.34950276475e-38
0.0555499829552 0.00520781090205 0.938 2.34986233794e-38
0.0572859199226 0.00520781090205 0.938 2.34986836352e-38
0.0590218568899 0.00520781090205 0.938 2.35011835517e-38
0.0614055315317 0.00526333127414 0.948 2.3502589054e-38
0.0635597219688 0.0052966434974 0.954 2.35072385623e-38
0.00353849838121 0.00707699676242 0.956 2.12733389973e-38
0.0052966434974 0.00706219132986 0.954 2.12743913724e-38
0.00703998318103 0.00703998318103 0.951 2.14605903072e-38
0.00875371199954 0.00700296959964 0.946 2.07216183646e-38
0.0104711421762 0.0069807614508 0.943 2.11800853871e-38
0.0121774682784 0.00695855330196 0.94 2.27466726104e-38
0.0138874957388 0.00694374786941 0.938 2.28406450868e-38
0.0156234327062 0.00694374786941 0.938 2.33930985985e-38
0.0173038493014 0.00692153972057 0.935 2.29317687233e-38
0.018993519292 0.00690673428801 0.933 2.33920420195e-38
0.020720202864 0.00690673428801 0.933 2.34845991844e-38
0.022446886436 0.00690673428801 0.933 2.34878375851e-38
0.024173570008 0.00690673428801 0.933 2.34899717627e-38
0.0258169730219 0.00688452613918 0.93 2.3485311044e-38
0.0275381045567 0.00688452613918 0.93 2.34856809868e-38
0.0292592360915 0.00688452613918 0.93 2.34885410369e-38
0.0309137431798 0.00686972070662 0.928 2.34921451766e-38
0.0324553588448 0.00683270712523 0.923 2.3487466241e-38
0.0341635356261 0.00683270712523 0.923 2.34914221066e-38
0.0358717124074 0.00683270712523 0.923 2.34943031762e-38
0.0375798891887 0.00683270712523 0.923 2.34960772201e-38
0.03928806597 0.00683270712523 0.923 2.34921339662e-38
0.0409962427514 0.00683270712523 0.923 2.3493574501e-38
0.0427044195327 0.00683270712523 0.923 2.34921367688e-38
0.0445088316256 0.00684751255778 0.925 2.34946577047e-38
0.0466204564441 0.00690673428801 0.933 2.34975457809e-38
0.048450778044 0.00692153972057 0.935 2.34950178384e-38
0.0501811629741 0.00692153972057 0.935 2.34946759216e-38
0.0520781090205 0.00694374786941 0.938 2.34971912524e-38
0.0538140459879 0.00694374786941 0.938 2.35000625129e-38
0.0556684264157 0.00695855330196 0.94 2.34997023792e-38
0.0578966440156 0.00701777503219 0.948 2.35015100542e-38
0.0596510877736 0.00701777503219 0.948 2.35015296724e-38
0.0617941741363 0.00706219132986 0.954 2.35072763974e-38
0.0635597219688 0.00706219132986 0.954 2.35086987153e-38
0.00356070653005 0.00890176632512 0.962 2.1365552844e-38
0.00532440368344 0.00887400613907 0.959 2.09045368596e-38
0.00707699676242 0.00884624595303 0.956 2.08134328413e-38
0.00879997897629 0.00879997897629 0.951 2.19187084063e-38
0.0105044543995 0.00875371199954 0.946 2.21038087231e-38
0.0121774682784 0.00869819162745 0.94 2.15498866505e-38
0.0138874957388 0.00867968483676 0.938 2.22867678558e-38
0.0156234327062 0.00867968483676 0.938 2.19172622663e-38
0.0173593696735 0.00867968483676 0.938 2.30232370793e-38
0.0190342342316 0.00865192465071 0.935 2.34856599673e-38
0.0207646191617 0.00865192465071 0.935 2.34860215023e-38
0.0224950040919 0.00865192465071 0.935 2.3487841789e-38
0.024173570008 0.00863341786002 0.933 2.34885326291e-38
0.02590025358 0.00863341786002 0.933 2.34889137823e-38
0.027626937152 0.00863341786002 0.933 2.34903361003e-38
0.0293536207241 0.00863341786002 0.933 2.34878179669e-38
0.0309803676263 0.00860565767397 0.93 2.34885550499e-38
0.0326311733564 0.00858715088327 0.928 2.34896452601e-38
0.0342375627889 0.00855939069723 0.925 2.34914207053e-38
0.0359494409284 0.00855939069723 0.925 2.34907088457e-38
0.0376613190678 0.00855939069723 0.925 2.34921507818e-38
0.0393731972073 0.00855939069723 0.925 2.3493936036e-38
0.0410850753467 0.00855939069723 0.925 2.3491405291e-38
0.0427969534861 0.00855939069723 0.925 2.34939276282e-38
0.044653184593 0.00858715088327 0.928 2.34942961697e-38
0.0467203931138 0.00865192465071 0.935 2.34946689151e-38
0.048450778044 0.00865192465071 0.935 2.34957535201e-38
0.0501811629741 0.00865192465071 0.935 2.34972094692e-38
0.0520781090205 0.00867968483676 0.938 2.34986331885e-38
0.0538140459879 0.00867968483676 0.938 2.34989863157e-38
0.0558460916064 0.0087259518135 0.943 2.350117094e-38
0.0578966440156 0.00877221879024 0.948 2.3507321239e-38
0.0598398570387 0.00879997897629 0.951 2.35029617994e-38
0.0617941741363 0.00882773916233 0.954 2.35054925445e-38
0.0636929708618 0.00884624595303 0.956 2.35054911432e-38
0.00532440368344 0.0106488073669 0.959 2.11797196482e-38
0.00707699676242 0.0106154951436 0.956 2.09978142919e-38
0.00882773916233 0.0105932869948 0.954 2.13651744934e-38
0.0105044543995 0.0105044543995 0.946 2.21945694233e-38
0.0121774682784 0.0104378299529 0.94 2.26569825022e-38
0.0138874957388 0.0104156218041 0.938 2.1548499365e-38
0.0156234327062 0.0104156218041 0.938 2.34863984516e-38
0.0173593696735 0.0104156218041 0.938 2.34852886232e-38
0.0190953066409 0.0104156218041 0.938 2.33001813e-38
0.0208312436082 0.0104156218041 0.938 2.34867557827e-38
0.0224950040919 0.0103823095809 0.935 2.34856613686e-38
0.024225389022 0.0103823095809 0.935 2.3487090693e-38
0.0259557739521 0.0103823095809 0.935 2.34870976995e-38
0.0276861588823 0.0103823095809 0.935 2.34895878069e-38
0.0294165438124 0.0103823095809 0.935 2.34917794377e-38
0.0311469287426 0.0103823095809 0.935 2.3489611629e-38
0.0328069878681 0.010360101432 0.933 2.34921535844e-38
0.0344226306959 0.0103267892088 0.93 2.34914066923e-38
0.0361437622307 0.0103267892088 0.93 2.3489987177e-38
0.0377834638864 0.0103045810599 0.928 2.3490348712e-38
0.0395008940631 0.0103045810599 0.928 2.34946535008e-38
0.0412183242397 0.0103045810599 0.928 2.34946464943e-38
0.0429357544164 0.0103045810599 0.928 2.34953765708e-38
0.0449900081837 0.0103823095809 0.935 2.34957325007e-38
0.0467203931138 0.0103823095809 0.935 2.34968100992e-38
0.048450778044 0.0103823095809 0.935 2.34957535201e-38
0.0503421720532 0.0104156218041 0.938 2.34946675138e-38
0.0521891497647 0.0104378299529 0.94 2.34982716535e-38
0.0541009012437 0.0104711421762 0.943 2.35000456973e-38
0.0561422002575 0.0105266625483 0.948 2.35015226659e-38
0.0578966440156 0.0105266625483 0.948 2.35011555257e-38
0.0600286263038 0.0105932869948 0.954 2.35065547287e-38
0.0619237216712 0.0106154951436 0.956 2.35054953471e-38
0.0638928442013 0.0106488073669 0.959 2.35083890284e-38
0.00532440368344 0.0124236085947 0.959 1.92446834144e-38
0.00709920491126 0.0124236085947 0.959 2.18272022153e-38
0.00884624595303 0.0123847443342 0.956 2.154958397e-38
0.0105932869948 0.0123588348273 0.954 2.19169091391e-38
0.0123588348273 0.0123588348273 0.954 2.20091103741e-38
0.0139171066039 0.0121774682784 0.94 2.34871271268e-38
0.0156567449294 0.0121774682784 0.94 2.23771656197e-38
0.0173963832549 0.0121774682784 0.94 2.34881795019e-38
0.0191360215804 0.0121774682784 0.94 2.33005470389e-38
0.0208756599059 0.0121774682784 0.94 2.31147334612e-38
0.0225671805756 0.0121515587715 0.938 2.34870991008e-38
0.024225389022 0.012112694511 0.935 2.34885424382e-38
0.0259557739521 0.012112694511 0.935 2.34903361003e-38
0.0277749914776 0.0121515587715 0.938 2.3488175298e-38
0.029510928445 0.0121515587715 0.938 2.34871033047e-38
0.0312468654123 0.0121515587715 0.938 2.3492142374e-38
0.0328773136727 0.012112694511 0.935 2.34896550692e-38
0.0346076986028 0.012112694511 0.935 2.34910661768e-38
0.036338083533 0.012112694511 0.935 2.34907032405e-38
0.0380684684631 0.012112694511 0.935 2.34928822596e-38
0.0397137221561 0.012086785004 0.933 2.3493212966e-38
0.0414404057281 0.012086785004 0.933 2.34921479792e-38
0.0432596232536 0.012112694511 0.935 2.34935913166e-38
0.0449900081837 0.012112694511 0.935 2.3494673119e-38
0.0468702981185 0.0121515587715 0.938 2.34946549021e-38
0.0486062350858 0.0121515587715 0.938 2.34968086979e-38
0.0504495114392 0.0121774682784 0.94 2.34946647112e-38
0.052355710881 0.0122163325389 0.943 2.35007757738e-38
0.0543877564995 0.0122811063063 0.948 2.3499696774e-38
0.0561422002575 0.0122811063063 0.948 2.35025946592e-38
0.0580798612435 0.0123199705668 0.951 2.35004324557e-38
0.0600286263038 0.0123588348273 0.954 2.35069190663e-38
0.0619237216712 0.0123847443342 0.956 2.35083806206e-38
0.0638928442013 0.0124236085947 0.959 2.35098155502e-38
0.00712141306009 0.0142428261202 0.962 2.11829314242e-38
0.00887400613907 0.0141984098225 0.959 2.25633575479e-38
0.0106154951436 0.0141539935248 0.956 2.13637381625e-38
0.0123847443342 0.0141539935248 0.956 2.24693892755e-38
0.0139615229016 0.0139615229016 0.943 2.24693640521e-38
0.0157067132643 0.0139615229016 0.943 2.29310232325e-38
0.017451903627 0.0139615229016 0.943 2.25640609998e-38
0.0191970939897 0.0139615229016 0.943 2.34874550306e-38
0.0209422843524 0.0139615229016 0.943 2.30243356973e-38
0.0225671805756 0.0138874957388 0.938 2.34878179669e-38
0.0243031175429 0.0138874957388 0.938 2.34845907766e-38
0.0260390545103 0.0138874957388 0.938 2.34870920943e-38
0.0277749914776 0.0138874957388 0.938 2.34885424382e-38
0.029510928445 0.0138874957388 0.938 2.34907004379e-38
0.0312468654123 0.0138874957388 0.938 2.34914221066e-38
0.0329828023797 0.0138874957388 0.938 2.34896298458e-38
0.034718739347 0.0138874957388 0.938 2.34892613043e-38
0.0364546763144 0.0138874957388 0.938 2.34921101441e-38
0.0381906132817 0.0138874957388 0.938 2.34939724698e-38
0.0397988533933 0.0138430794411 0.935 2.34928500297e-38
0.0415292383234 0.0138430794411 0.935 2.34961080486e-38
0.0433984241838 0.0138874957388 0.938 2.34917920494e-38
0.0451343611511 0.0138874957388 0.938 2.34932437946e-38
0.0468702981185 0.0138874957388 0.938 2.34975289653e-38
0.0487098731137 0.0139171066039 0.94 2.34990227495e-38
0.0506105205183 0.0139615229016 0.943 2.34968297174e-38
0.0525222719973 0.0140059391993 0.946 2.35043743083e-38
0.0543877564995 0.0140355500644 0.948 2.34989933222e-38
0.0563198654482 0.0140799663621 0.951 2.350189401e-38
0.0582630784714 0.0141243826597 0.954 2.35047666719e-38
0.0601544724806 0.0141539935248 0.956 2.35062030028e-38
0.0619237216712 0.0141539935248 0.956 2.35098225567e-38
0.0638928442013 0.0141984098225 0.959 2.35098351684e-38
0.00718063479032 0.0161564282782 0.97 1.80461416274e-38
0.00892027311581 0.0160564916085 0.964 2.13669877736e-38
0.0106821195901 0.0160231793852 0.962 2.17335968792e-38
0.0124236085947 0.0159732110503 0.959 2.20087418326e-38
0.0141539935248 0.0159232427154 0.956 2.27466599988e-38
0.0158899304922 0.0158899304922 0.954 2.28399388323e-38
0.0175444375805 0.0157899938224 0.948 2.29324875894e-38
0.0192988813385 0.0157899938224 0.948 2.34885424382e-38
0.0210089087989 0.0157566815992 0.946 2.34885494447e-38
0.0227596511988 0.0157566815992 0.946 2.34827971145e-38
0.0244326650778 0.0157067132643 0.943 2.34860747516e-38
0.0261778554405 0.0157067132643 0.943 2.34914361196e-38
0.0278342132079 0.0156567449294 0.94 2.34856921972e-38
0.0295738515333 0.0156567449294 0.94 2.34881921136e-38
0.0313134898588 0.0156567449294 0.94 2.34903473107e-38
0.0330531281843 0.0156567449294 0.94 2.34896298458e-38
0.034718739347 0.0156234327062 0.938 2.34907032405e-38
0.0364546763144 0.0156234327062 0.938 2.3490710247e-38
0.0382720431608 0.0156567449294 0.94 2.34953863799e-38
0.0399265502491 0.0156234327062 0.938 2.34942821567e-38
0.0416624872164 0.0156234327062 0.938 2.34921353675e-38
0.0434909581373 0.0156567449294 0.94 2.34953975903e-38
0.0452305964628 0.0156567449294 0.94 2.34961010422e-38
0.0469702347883 0.0156567449294 0.94 2.34968311187e-38
0.0488653301556 0.0157067132643 0.943 2.34990003287e-38
0.0508788689834 0.0157899938224 0.948 2.35032911046e-38
0.0526333127414 0.0157899938224 0.948 2.35007743725e-38
0.054559869653 0.0158399621573 0.951 2.35022289203e-38
0.0564975306389 0.0158899304922 0.954 2.35047526589e-38
0.05838522329 0.0159232427154 0.956 2.35051282069e-38
0.0601544724806 0.0159232427154 0.956 2.35076365311e-38
0.0621180429735 0.0159732110503 0.959 2.35087351491e-38
0.0640927175408 0.0160231793852 0.962 2.35098407736e-38
0.066010021057 0.0160564916085 0.964 2.35098435762e-38
0.00894803330186 0.0178960666037 0.967 1.94312438841e-38
0.010704327739 0.0178405462316 0.964 2.14580833842e-38
0.0124624728552 0.0178035326502 0.962 2.26541084391e-38
0.0141984098225 0.0177480122781 0.959 2.23782600338e-38
0.0159232427154 0.0176924919061 0.956 2.3115812461e-38
0.0176554783247 0.0176554783247 0.954 2.3022883952e-38
0.0193599537478 0.0175999579526 0.951 2.33916762806e-38
0.0210533250966 0.0175444375805 0.948 2.34827887067e-38
0.0228077688546 0.0175444375805 0.948 2.34824145601e-38
0.0245103935987 0.0175074239991 0.946 2.34845991844e-38
0.0262611359986 0.0175074239991 0.946 2.34863970503e-38
0.0280118783985 0.0175074239991 0.946 2.34881823045e-38
0.0296682361659 0.017451903627 0.943 2.34932241764e-38
0.0314134265286 0.017451903627 0.943 2.34924814882e-38
0.0331586168913 0.017451903627 0.943 2.34925067116e-38
0.034903807254 0.017451903627 0.943 2.34928542336e-38
0.0366489976167 0.017451903627 0.943 2.34946647112e-38
0.0383941879794 0.017451903627 0.943 2.34939318321e-38
0.0401393783421 0.017451903627 0.943 2.34928486284e-38
0.0418845687048 0.017451903627 0.943 2.34971548186e-38
0.0436297590675 0.017451903627 0.943 2.34968157044e-38
0.0455193023976 0.0175074239991 0.946 2.34946577047e-38
0.0473699814673 0.0175444375805 0.948 2.34971884498e-38
0.0492798822672 0.0175999579526 0.951 2.34989723027e-38
0.0512008871415 0.0176554783247 0.954 2.34997051818e-38
0.052966434974 0.0176554783247 0.954 2.35004100349e-38
0.0548467249088 0.0176924919061 0.956 2.35032953085e-38
0.0566159740994 0.0176924919061 0.956 2.35040085694e-38
0.0585684405179 0.0177480122781 0.959 2.35091036906e-38
0.0603432417457 0.0177480122781 0.959 2.35080008687e-38
0.0621180429735 0.0177480122781 0.959 2.35098323658e-38
0.0642259664339 0.0178405462316 0.964 2.35098309645e-38
0.066010021057 0.0178405462316 0.964 2.35098673983e-38
0.0089757934879 0.0197467456734 0.97 1.89716908553e-38
0.0107376399622 0.0196856732641 0.967 1.82348572942e-38
0.0124883823621 0.0196246008548 0.964 2.25630268415e-38
0.0142428261202 0.0195838859153 0.962 2.28399220168e-38
0.0160231793852 0.0195838859153 0.962 2.26555335596e-38
0.0177480122781 0.019522813506 0.959 2.3485658566e-38
0.0194210261571 0.0194210261571 0.954 2.2838505304e-38
0.0211199495431 0.0193599537478 0.951 2.34838761144e-38
0.0228799453383 0.0193599537478 0.951 2.3486381636e-38
0.0246399411336 0.0193599537478 0.951 2.34881963175e-38
0.0263999369289 0.0193599537478 0.951 2.34878193682e-38
0.0280711001288 0.0192988813385 0.948 2.34910647755e-38
0.0297626207984 0.019258166399 0.946 2.34888969667e-38
0.0315133631984 0.019258166399 0.946 2.34917836416e-38
0.0332641055983 0.019258166399 0.946 2.34896312471e-38
0.0350148479982 0.019258166399 0.946 2.34921311636e-38
0.0367655903981 0.019258166399 0.946 2.34914249092e-38
0.038516332798 0.019258166399 0.946 2.34946745203e-38
