# .PCD v0.7 - Point Cloud Data file format
VERSION 0.7
FIELDS x y z rgb
SIZE 4 4 4 4
TYPE F F F F
COUNT 1 1 1 1
WIDTH 842
HEIGHT 1
VIEWPOINT 0 0 0 1 0 0 0
POINTS 842
DATA ascii
0.013413721897 -0.0620384637735 0.906 8.32115690969e-39
0.0150904371341 -0.0620384637735 0.906 7.21554363173e-39
0.0167671523712 -0.0620384637735 0.906 8.68921635914e-39
0.0184438676083 -0.0620384637735 0.906 8.5044691696e-39
0.0201649991431 -0.0621754140247 0.908 8.3215156421e-39
0.0218454157384 -0.0621754140247 0.908 8.32043944488e-39
0.0235258323337 -0.0621754140247 0.908 8.96687524205e-39
0.0252062489289 -0.0621754140247 0.908 8.87252861905e-39
0.0269458872544 -0.0623123642758 0.91 9.42569399043e-39
0.0286300052078 -0.0623123642758 0.91 8.96544031242e-39
0.030414059831 -0.0625177896526 0.913 9.70227667613e-39
0.0321037298216 -0.0625177896526 0.913 1.0529154874e-38
0.033867426975 -0.0626547399037 0.915 1.08961381262e-38
0.0356773911051 -0.0628601652804 0.918 1.11727208119e-38
0.0373763144911 -0.0628601652804 0.918 1.17233750564e-38
0.039075237877 -0.0628601652804 0.918 1.14496748417e-38
0.040774161263 -0.0628601652804 0.918 1.07113909366e-38
0.042473084649 -0.0628601652804 0.918 2.35061707729e-38
-0.0310803042961 -0.0621606085921 0.933 2.34946787242e-38
-0.0292592360915 -0.0619607352526 0.93 2.3493255005e-38
-0.0275381045567 -0.0619607352526 0.93 2.35026268891e-38
-0.0256781720917 -0.06162761302 0.925 9.47914511906e-39
-0.0239662939522 -0.06162761302 0.925 7.4713380547e-39
-0.0222544158128 -0.06162761302 0.925 7.20227193397e-39
-0.0204981213757 -0.061494364127 0.923 6.92784024142e-39
-0.0187288721851 -0.0612944907875 0.92 6.65412741498e-39
-0.0169892338596 -0.0611612418945 0.918 6.65484487979e-39
-0.0152403421387 -0.060961368555 0.915 7.20801025118e-39
-0.0135173599249 -0.0608281196619 0.913 6.83959206933e-39
-0.0118276899343 -0.0608281196619 0.913 7.11617475502e-39
-0.0101047077204 -0.0606282463224 0.91 7.30128067697e-39
-0.008420589767 -0.0606282463224 0.91 6.93357995993e-39
-0.00672166638105 -0.0604949974294 0.908 7.4860278665e-39
-0.00504124978578 -0.0604949974294 0.908 6.93465615715e-39
-0.00336083319052 -0.0604949974294 0.908 6.9375260164e-39
-0.00168041659526 -0.0604949974294 0.908 7.58145068673e-39
0.0 -0.0603617485364 0.906 7.76476294664e-39
0.00167671523712 -0.0603617485364 0.906 7.76476294664e-39
0.00335343047424 -0.0603617485364 0.906 7.6736449153e-39
0.00503014571137 -0.0603617485364 0.906 8.13389859331e-39
0.00670686094849 -0.0603617485364 0.906 7.85731590761e-39
0.00838357618561 -0.0603617485364 0.906 8.22465789224e-39
0.0100602914227 -0.0603617485364 0.906 8.8700174922e-39
0.0117370066599 -0.0603617485364 0.906 8.5934348065e-39
0.013413721897 -0.0603617485364 0.906 8.59451100372e-39
0.0151237493574 -0.0604949974294 0.908 8.04385675918e-39
0.0168041659526 -0.0604949974294 0.908 9.23987060368e-39
0.0184845825479 -0.0604949974294 0.908 8.68849889432e-39
0.0201649991431 -0.0604949974294 0.908 8.13748591737e-39
0.0218454157384 -0.0604949974294 0.908 8.3218743745e-39
0.0235258323337 -0.0604949974294 0.908 8.3215156421e-39
0.025261769301 -0.0606282463224 0.91 8.78069312289e-39
0.0269458872544 -0.0606282463224 0.91 9.24274046293e-39
0.0287243898404 -0.0608281196619 0.913 9.14767637511e-39
0.030414059831 -0.0608281196619 0.913 9.97921809423e-39
0.0321740556262 -0.060961368555 0.915 1.04373193778e-38
0.033867426975 -0.060961368555 0.915 1.05280786767e-38
0.0356773911051 -0.0611612418945 0.918 9.88630640085e-39
0.0373763144911 -0.0611612418945 0.918 1.09890498196e-38
0.039075237877 -0.0611612418945 0.918 1.17255274509e-38
0.040774161263 -0.0611612418945 0.918 1.05237738879e-38
0.042473084649 -0.0611612418945 0.918 2.35097777152e-38
-0.0293536207241 -0.0604339250201 0.933 2.34957913552e-38
-0.0275381045567 -0.0602396037178 0.93 2.35011877556e-38
-0.0256781720917 -0.0599157348806 0.925 1.2334336983e-38
-0.0239662939522 -0.0599157348806 0.925 7.92907500067e-39
-0.0222544158128 -0.0599157348806 0.925 6.83456981563e-39
-0.0205425376733 -0.0599157348806 0.925 7.29589969086e-39
-0.0187899445944 -0.0597861873457 0.923 6.46973895785e-39
-0.0170817678131 -0.0597861873457 0.923 7.02326306165e-39
-0.0152903104736 -0.0594623185085 0.918 6.83851587211e-39
-0.01354697079 -0.0592679972062 0.915 6.84138573136e-39
-0.0118276899343 -0.0591384496713 0.913 6.38256698298e-39
-0.0101380199437 -0.0591384496713 0.913 6.93357995993e-39
-0.00844834995305 -0.0591384496713 0.913 7.02577418849e-39
-0.0067364718136 -0.058944128369 0.91 7.21052137803e-39
-0.00504124978578 -0.0588145808341 0.908 6.84138573136e-39
-0.00336083319052 -0.0588145808341 0.908 7.21123884284e-39
-0.00168041659526 -0.0588145808341 0.908 7.76296928461e-39
0.0 -0.0588145808341 0.908 7.67185125326e-39
0.00168041659526 -0.0588145808341 0.908 7.58145068673e-39
0.00336083319052 -0.0588145808341 0.908 7.2141087021e-39
0.00504124978578 -0.0588145808341 0.908 7.39885589164e-39
0.00672166638105 -0.0588145808341 0.908 8.41227494103e-39
0.00840208297631 -0.0588145808341 0.908 7.67472111252e-39
0.0100824995716 -0.0588145808341 0.908 8.77746453123e-39
0.0117629161668 -0.0588145808341 0.908 8.87073495701e-39
0.0134433327621 -0.0588145808341 0.908 7.95166253062e-39
0.0151237493574 -0.0588145808341 0.908 8.59451100372e-39
0.0168041659526 -0.0588145808341 0.908 9.33206483224e-39
0.0184845825479 -0.0588145808341 0.908 8.41191620863e-39
0.0202094154408 -0.058944128369 0.91 8.78069312289e-39
0.0218935333942 -0.058944128369 0.91 8.32043944488e-39
0.0235776513476 -0.058944128369 0.91 9.97921809423e-39
0.0253450498591 -0.0591384496713 0.913 9.05512341414e-39
0.0270347198498 -0.0591384496713 0.913 9.42533525803e-39
0.0287873129287 -0.0592679972062 0.915 9.79195977785e-39
0.0304806842775 -0.0592679972062 0.915 8.96579904483e-39
0.0321740556262 -0.0592679972062 0.915 9.79554710191e-39
0.0339784677192 -0.0594623185085 0.918 9.51824695141e-39
0.035755119626 -0.0595918660434 0.92 1.09004429151e-38
0.0374577443701 -0.0595918660434 0.92 1.14503796948e-38
0.0391603691142 -0.0595918660434 0.92 1.08943444641e-38
0.0408629938583 -0.0595918660434 0.92 1.1170209685e-38
0.0425656186024 -0.0595918660434 0.92 2.35097651035e-38
-0.0293536207241 -0.0587072414481 0.933 2.34936151387e-38
-0.027626937152 -0.0587072414481 0.933 2.34979297366e-38
-0.0257614526498 -0.0583926260063 0.928 1.87891002641e-38
-0.0240440224732 -0.0583926260063 0.928 8.37819536238e-39
-0.0223265922965 -0.0583926260063 0.928 7.93838943156e-39
-0.0206091621199 -0.0583926260063 0.928 7.11258743096e-39
-0.0188917319432 -0.0583926260063 0.928 6.74488671392e-39
-0.0171187813945 -0.0582038567412 0.925 6.65484487979e-39
-0.015406903255 -0.0582038567412 0.925 6.8381571397e-39
-0.0135913870877 -0.0577633951226 0.918 6.93286249511e-39
-0.0118535994412 -0.0575746258575 0.915 6.84246192858e-39
-0.0101602280925 -0.0575746258575 0.915 7.11760968465e-39
-0.00844834995305 -0.0574487796807 0.913 7.11796841706e-39
-0.00675867996244 -0.0574487796807 0.913 7.76368674942e-39
-0.0050523538602 -0.0572600104156 0.91 8.22394042743e-39
-0.0033682359068 -0.0572600104156 0.91 7.76117562257e-39
-0.0016841179534 -0.0572600104156 0.91 8.31434099396e-39
0.0 -0.0572600104156 0.91 7.94735774173e-39
0.00168041659526 -0.0571341642389 0.908 7.58182203082e-39
0.00336083319052 -0.0571341642389 0.908 7.85982703446e-39
0.00504124978578 -0.0571341642389 0.908 7.76691534108e-39
0.00672166638105 -0.0571341642389 0.908 7.85910956965e-39
0.00840208297631 -0.0571341642389 0.908 7.95202126302e-39
0.0100824995716 -0.0571341642389 0.908 8.04385675918e-39
0.0117629161668 -0.0571341642389 0.908 8.22788648391e-39
0.0134433327621 -0.0571341642389 0.908 8.22788648391e-39
0.0151237493574 -0.0571341642389 0.908 9.33099844411e-39
0.0168041659526 -0.0571341642389 0.908 9.51645328937e-39
0.0185252974874 -0.0572600104156 0.91 8.78069312289e-39
0.0202094154408 -0.0572600104156 0.91 8.69029255636e-39
0.0218935333942 -0.0572600104156 0.91 8.13784464978e-39
0.0235776513476 -0.0572600104156 0.91 8.78248678492e-39
0.0253450498591 -0.0574487796807 0.913 9.15018750196e-39
0.02709394158 -0.0575746258575 0.915 9.33349976187e-39
0.0287873129287 -0.0575746258575 0.915 9.51824695141e-39
0.0305806209472 -0.0577633951226 0.918 9.33349976187e-39
0.0322795443332 -0.0577633951226 0.918 9.97957682664e-39
0.0339784677192 -0.0577633951226 0.918 1.00696186608e-38
0.035755119626 -0.0578892412993 0.92 1.03487124733e-38
0.0375798891887 -0.0580780105644 0.923 1.14485860328e-38
0.03928806597 -0.0580780105644 0.923 1.19999801629e-38
0.0409962427514 -0.0580780105644 0.923 1.20910799774e-38
0.0427044195327 -0.0580780105644 0.923 2.35079770466e-38
-0.0294165438124 -0.0571027026947 0.935 2.34950556735e-38
-0.027626937152 -0.0569805578761 0.933 2.34993730741e-38
-0.0258169730219 -0.0567973406482 0.93 2.03557239213e-38
-0.0240958414871 -0.0567973406482 0.93 9.66173991415e-39
-0.0223747099523 -0.0567973406482 0.93 7.84332534374e-39
-0.0206535784175 -0.0567973406482 0.93 7.84655393541e-39
-0.0188917319432 -0.0566751958296 0.928 7.11330489577e-39
-0.0171743017665 -0.0566751958296 0.928 7.20621658915e-39
-0.015406903255 -0.0564919786017 0.925 6.93071010067e-39
-0.0135913870877 -0.0560644717366 0.918 6.65699727423e-39
-0.0118535994412 -0.0558812545087 0.915 6.93357995993e-39
-0.0101602280925 -0.0558812545087 0.915 7.11725095224e-39
-0.00846685674374 -0.0558812545087 0.915 6.84246192858e-39
-0.006773485395 -0.0558812545087 0.915 7.30271560659e-39
-0.00508011404625 -0.0558812545087 0.915 7.30271560659e-39
-0.00337933998122 -0.0557591096901 0.913 7.48710406372e-39
-0.00168966999061 -0.0557591096901 0.913 8.68598776747e-39
0.0 -0.0557591096901 0.913 8.13210493127e-39
0.00168966999061 -0.0557591096901 0.913 7.58073322192e-39
0.00337933998122 -0.0557591096901 0.913 7.94951013618e-39
0.00506900997183 -0.0557591096901 0.913 8.04170436474e-39
0.00675867996244 -0.0557591096901 0.913 8.68562903507e-39
0.008420589767 -0.0555758924622 0.91 8.5930760741e-39
0.0101047077204 -0.0555758924622 0.91 8.13676845256e-39
0.0117888256738 -0.0555758924622 0.91 8.04385675918e-39
0.0134729436272 -0.0555758924622 0.91 8.22788648391e-39
0.0151570615806 -0.0555758924622 0.91 8.78069312289e-39
0.0168966999061 -0.0557591096901 0.913 9.05548214655e-39
0.0185863698967 -0.0557591096901 0.913 7.67615604214e-39
0.0202760398873 -0.0557591096901 0.913 8.23003887835e-39
0.0219657098779 -0.0557591096901 0.913 8.50590409923e-39
0.0236553798685 -0.0557591096901 0.913 9.42605272284e-39
0.0254005702312 -0.0558812545087 0.915 9.0583520058e-39
0.02709394158 -0.0558812545087 0.915 9.33421722668e-39
0.0288816975613 -0.0560644717366 0.918 9.42677018766e-39
0.0305806209472 -0.0560644717366 0.918 9.88666513326e-39
0.0323498701378 -0.0561866165552 0.92 9.97850062942e-39
0.0341635356261 -0.0563698337831 0.923 1.02540071179e-38
0.0358717124074 -0.0563698337831 0.923 1.06227840322e-38
0.0375798891887 -0.0563698337831 0.923 1.18166454822e-38
0.03928806597 -0.0563698337831 0.923 1.02486261318e-38
0.0409962427514 -0.0563698337831 0.923 2.01899825428e-38
0.0427044195327 -0.0563698337831 0.923 2.35040337928e-38
-0.0294165438124 -0.0553723177646 0.935 2.34950738904e-38
-0.027626937152 -0.0552538743041 0.933 2.35004506726e-38
-0.02590025358 -0.0552538743041 0.933 2.0631231811e-38
-0.0240958414871 -0.0550762091134 0.93 1.25141137669e-38
-0.0223747099523 -0.0550762091134 0.93 9.58712357352e-39
-0.020720202864 -0.0552538743041 0.933 8.21353718763e-39
-0.0189324468827 -0.0550762091134 0.93 7.85014125947e-39
-0.0171743017665 -0.054957765653 0.928 7.20621658915e-39
-0.015406903255 -0.0547801004623 0.925 6.93071010067e-39
-0.0135913870877 -0.0543655483507 0.918 6.83959206933e-39
-0.0118535994412 -0.05418788316 0.915 7.94592281211e-39
-0.0101602280925 -0.05418788316 0.915 6.93286249511e-39
-0.00846685674374 -0.05418788316 0.915 7.30271560659e-39
-0.006773485395 -0.05418788316 0.915 7.30271560659e-39
-0.00508011404625 -0.05418788316 0.915 7.57929829229e-39
-0.0033867426975 -0.05418788316 0.915 7.57929829229e-39
-0.00169337134875 -0.05418788316 0.915 7.39634476479e-39
0.0 -0.0540694396995 0.913 7.58145068673e-39
0.00168966999061 -0.0540694396995 0.913 8.13461605812e-39
0.00337933998122 -0.0540694396995 0.913 8.04098689993e-39
0.00506900997183 -0.0540694396995 0.913 8.13425732571e-39
0.00675867996244 -0.0540694396995 0.913 8.68527030266e-39
0.00844834995305 -0.0540694396995 0.913 8.68562903507e-39
0.0101380199437 -0.0540694396995 0.913 8.96328791798e-39
0.0118276899343 -0.0540694396995 0.913 7.95130379821e-39
0.0135173599249 -0.0540694396995 0.913 8.32043944488e-39
0.0152070299155 -0.0540694396995 0.913 8.59738086298e-39
0.0168966999061 -0.0540694396995 0.913 8.41299240585e-39
0.0185863698967 -0.0540694396995 0.913 8.50482790201e-39
0.020320456185 -0.05418788316 0.915 8.96508158002e-39
0.0220138275337 -0.05418788316 0.915 9.33385849428e-39
0.0237071988825 -0.05418788316 0.915 9.79375343988e-39
0.0254005702312 -0.05418788316 0.915 8.87396354867e-39
0.0271827741753 -0.0543655483507 0.918 9.61044117997e-39
0.0288816975613 -0.0543655483507 0.918 8.96795143927e-39
0.0306472453938 -0.0544839918111 0.92 9.24309919534e-39
0.0323498701378 -0.0544839918111 0.92 9.70371160576e-39
0.0342375627889 -0.0547801004623 0.925 1.07167719227e-38
0.0359494409284 -0.0547801004623 0.925 1.00696186608e-38
0.0376613190678 -0.0547801004623 0.925 1.06199141729e-38
0.0393731972073 -0.0547801004623 0.925 1.12606102516e-38
0.0410850753467 -0.0547801004623 0.925 2.35065112884e-38
0.0427969534861 -0.0547801004623 0.925 2.35040786343e-38
-0.0294165438124 -0.0536419328344 0.935 2.34943241957e-38
-0.0276861588823 -0.0536419328344 0.935 2.349900173e-38
-0.02590025358 -0.0535271907321 0.933 2.05408340471e-38
-0.024173570008 -0.0535271907321 0.933 1.67517706437e-38
-0.022446886436 -0.0535271907321 0.933 1.36319225454e-38
-0.020720202864 -0.0535271907321 0.933 8.7606041081e-39
-0.0189324468827 -0.0533550775786 0.93 8.03309478698e-39
-0.0171743017665 -0.0532403354763 0.928 7.48136434521e-39
-0.015406903255 -0.0530682223228 0.925 7.66575280234e-39
-0.0136654142505 -0.0529534802205 0.923 7.1150985578e-39
-0.0118924637017 -0.0526666249647 0.918 7.39275744072e-39
-0.0101935403157 -0.0526666249647 0.918 6.93357995993e-39
-0.00849461692979 -0.0526666249647 0.918 6.93465615715e-39
-0.00679569354383 -0.0526666249647 0.918 7.39598603238e-39
-0.00508011404625 -0.0524945118112 0.915 7.48818026094e-39
-0.0033867426975 -0.0524945118112 0.915 7.94843393896e-39
-0.00169337134875 -0.0524945118112 0.915 7.85731590761e-39
0.0 -0.0524945118112 0.915 7.8569571752e-39
0.00169337134875 -0.0524945118112 0.915 7.94951013618e-39
0.0033867426975 -0.0524945118112 0.915 8.59451100372e-39
0.00506900997183 -0.0523797697089 0.913 7.85982703446e-39
0.00675867996244 -0.0523797697089 0.913 7.58252688395e-39
0.00844834995305 -0.0523797697089 0.913 8.5044691696e-39
0.0101380199437 -0.0523797697089 0.913 8.31792831803e-39
0.0118276899343 -0.0523797697089 0.913 8.50195804275e-39
0.0135173599249 -0.0523797697089 0.913 8.22788648391e-39
0.0152070299155 -0.0523797697089 0.913 8.41263367344e-39
0.0168966999061 -0.0523797697089 0.913 8.87073495701e-39
0.0186270848362 -0.0524945118112 0.915 9.33242356465e-39
0.020320456185 -0.0524945118112 0.915 8.87360481627e-39
0.0220138275337 -0.0524945118112 0.915 9.05655834377e-39
0.0237071988825 -0.0524945118112 0.915 9.33314102946e-39
0.0254838507894 -0.0526666249647 0.918 9.33349976187e-39
0.0271827741753 -0.0526666249647 0.918 9.51896441622e-39
0.0289446206497 -0.052781367067 0.92 9.51896441622e-39
0.0306472453938 -0.052781367067 0.92 1.00714123228e-38
0.0325256846495 -0.0530682223228 0.925 9.51896441622e-39
0.0342375627889 -0.0530682223228 0.925 1.12695785617e-38
0.0360660337097 -0.0532403354763 0.928 1.01614541569e-38
0.0376613190678 -0.0530682223228 0.925 1.08028677004e-38
0.0393731972073 -0.0530682223228 0.925 2.18443835358e-38
0.0410850753467 -0.0530682223228 0.925 2.35004674882e-38
-0.0276861588823 -0.0519115479043 0.935 2.35000611116e-38
-0.02590025358 -0.0518005071601 0.933 2.04482754809e-38
-0.024173570008 -0.0518005071601 0.933 1.87789983035e-38
-0.022446886436 -0.0518005071601 0.933 1.62040465143e-38
-0.0207646191617 -0.0519115479043 0.935 1.36315750233e-38
-0.018993519292 -0.0518005071601 0.933 1.13370202542e-38
-0.0172113153479 -0.0516339460438 0.93 9.13547947328e-39
-0.0154568715899 -0.0515229052996 0.928 7.94377041767e-39
-0.0136950251156 -0.0513563441834 0.925 7.57571096822e-39
-0.0119572374691 -0.0512453034392 0.923 7.57571096822e-39
-0.0102157484646 -0.0510787423229 0.92 7.02577418849e-39
-0.00849461692979 -0.0509677015787 0.918 7.30271560659e-39
-0.00679569354383 -0.0509677015787 0.918 7.21123884284e-39
-0.00509677015787 -0.0509677015787 0.918 7.67185125326e-39
-0.00339784677192 -0.0509677015787 0.918 7.85623971039e-39
-0.00169337134875 -0.0508011404625 0.915 7.94951013618e-39
0.0 -0.0508011404625 0.915 7.58073322192e-39
0.00169337134875 -0.0508011404625 0.915 8.41012254659e-39
0.0033867426975 -0.0508011404625 0.915 7.48853899335e-39
0.00508011404625 -0.0508011404625 0.915 8.04421549159e-39
0.006773485395 -0.0508011404625 0.915 7.95166253062e-39
0.00846685674374 -0.0508011404625 0.915 8.68670523229e-39
0.0101380199437 -0.0506900997183 0.913 7.76583914386e-39
0.0118276899343 -0.0506900997183 0.913 9.70227667613e-39
0.0135173599249 -0.0506900997183 0.913 8.41299240585e-39
0.0152403421387 -0.0508011404625 0.915 8.5044691696e-39
0.0169337134875 -0.0508011404625 0.915 8.96508158002e-39
0.0186270848362 -0.0508011404625 0.915 8.5044691696e-39
0.020320456185 -0.0508011404625 0.915 8.87288735145e-39
0.0220138275337 -0.0508011404625 0.915 8.87324608386e-39
0.0237071988825 -0.0508011404625 0.915 9.33349976187e-39
0.0254838507894 -0.0509677015787 0.918 9.79411217229e-39
0.0271827741753 -0.0509677015787 0.918 9.2413055333e-39
0.0289446206497 -0.0510787423229 0.92 9.88594766845e-39
0.0307471820635 -0.0512453034392 0.923 1.01625303541e-38
0.0325256846495 -0.0513563441834 0.925 9.51717075419e-39
0.0343486035331 -0.0515229052996 0.928 9.61115864478e-39
0.0360660337097 -0.0515229052996 0.928 1.04355257158e-38
0.0377834638864 -0.0515229052996 0.928 1.98203606456e-38
0.0395860253003 -0.0516339460438 0.93 2.349683252e-38
0.0413071568351 -0.0516339460438 0.93 2.34968479342e-38
-0.0276861588823 -0.0501811629741 0.935 2.34961262655e-38
-0.02590025358 -0.0500738235881 0.933 2.08148971982e-38
-0.024173570008 -0.0500738235881 0.933 1.84106137528e-38
-0.022446886436 -0.0500738235881 0.933 1.80500918878e-38
-0.0207646191617 -0.0501811629741 0.935 1.84178136243e-38
-0.018993519292 -0.0500738235881 0.933 1.70380867486e-38
-0.0172113153479 -0.049912814509 0.93 1.30829708784e-38
-0.0154568715899 -0.049805475123 0.928 8.94750369208e-39
-0.0136950251156 -0.0496444660439 0.925 8.49478339461e-39
-0.0119572374691 -0.0495371266579 0.923 8.12672394517e-39
-0.0102157484646 -0.0493761175788 0.92 7.94448788248e-39
-0.00849461692979 -0.0492687781928 0.918 7.76117562257e-39
-0.00679569354383 -0.0492687781928 0.918 7.94592281211e-39
-0.00509677015787 -0.0492687781928 0.918 7.94735774173e-39
-0.00339784677192 -0.0492687781928 0.918 7.58073322192e-39
-0.00169892338596 -0.0492687781928 0.918 7.4910501202e-39
0.0 -0.0491077691137 0.915 8.04170436474e-39
0.00169337134875 -0.0491077691137 0.915 8.96292918558e-39
0.0033867426975 -0.0491077691137 0.915 8.68527030266e-39
0.00508011404625 -0.0491077691137 0.915 7.94951013618e-39
0.006773485395 -0.0491077691137 0.915 8.40976381419e-39
0.00846685674374 -0.0491077691137 0.915 9.79303597507e-39
0.0101380199437 -0.0490004297277 0.913 9.33062990261e-39
0.0118276899343 -0.0490004297277 0.913 8.96257045317e-39
0.0135173599249 -0.0490004297277 0.913 8.22681168798e-39
0.0152403421387 -0.0491077691137 0.915 8.50411043719e-39
0.0169337134875 -0.0491077691137 0.915 8.59702213057e-39
0.0186270848362 -0.0491077691137 0.915 8.68849889432e-39
0.020320456185 -0.0491077691137 0.915 9.0583520058e-39
0.0220138275337 -0.0491077691137 0.915 9.14911130474e-39
0.0237071988825 -0.0491077691137 0.915 9.33349976187e-39
0.0254838507894 -0.0492687781928 0.918 9.70048301409e-39
0.0271827741753 -0.0492687781928 0.918 1.00689011959e-38
0.0289446206497 -0.0493761175788 0.92 1.03469188113e-38
0.0307471820635 -0.0495371266579 0.923 1.04358844482e-38
0.0325256846495 -0.0496444660439 0.925 1.09879736223e-38
0.0343486035331 -0.049805475123 0.928 1.4115044013e-38
0.0360660337097 -0.049805475123 0.928 2.21219919719e-38
0.0378648937655 -0.049912814509 0.93 2.3501198966e-38
0.0397137221561 -0.0500738235881 0.933 2.34968759602e-38
0.0414404057281 -0.0500738235881 0.933 2.34954312215e-38
-0.0276861588823 -0.048450778044 0.935 2.34979395457e-38
-0.0259557739521 -0.048450778044 0.935 2.13691499772e-38
-0.024173570008 -0.0483471400161 0.933 1.90549013594e-38
-0.022446886436 -0.0483471400161 0.933 1.86014790114e-38
-0.0207646191617 -0.048450778044 0.935 1.90595704859e-38
-0.0190342342316 -0.048450778044 0.935 1.96145449336e-38
-0.01726683572 -0.0483471400161 0.933 1.86933243167e-38
-0.0154901838131 -0.0481916829742 0.93 1.61190241313e-38
-0.0137394414132 -0.0480880449463 0.928 1.40981835899e-38
-0.0119831469761 -0.0479325879045 0.925 1.00516820404e-38
-0.0102157484646 -0.0476734928347 0.92 8.58733635559e-39
-0.00851312372049 -0.0476734928347 0.92 9.14265412142e-39
-0.00679569354383 -0.0475698548068 0.918 8.49765325387e-39
-0.00509677015787 -0.0475698548068 0.918 8.31469972637e-39
-0.00339784677192 -0.0475698548068 0.918 7.58145068673e-39
-0.00169892338596 -0.0475698548068 0.918 7.94951013618e-39
0.0 -0.0475698548068 0.918 7.85731590761e-39
0.00169337134875 -0.047414397765 0.915 8.13425732571e-39
0.0033867426975 -0.047414397765 0.915 8.40904634937e-39
0.00508011404625 -0.047414397765 0.915 8.8700174922e-39
0.006773485395 -0.047414397765 0.915 8.77710579882e-39
0.00846685674374 -0.047414397765 0.915 8.410481279e-39
0.0101602280925 -0.047414397765 0.915 8.77782326363e-39
0.0118535994412 -0.047414397765 0.915 8.59451100372e-39
0.01354697079 -0.047414397765 0.915 8.40976381419e-39
0.0152403421387 -0.047414397765 0.915 9.70048301409e-39
0.0169337134875 -0.047414397765 0.915 9.23915313886e-39
0.0186270848362 -0.047414397765 0.915 9.33134736743e-39
0.020320456185 -0.047414397765 0.915 8.87360481627e-39
0.0220138275337 -0.047414397765 0.915 9.88630640085e-39
0.0237849274034 -0.0475698548068 0.918 9.79447090469e-39
0.0254838507894 -0.0475698548068 0.918 1.01593017625e-38
0.0271827741753 -0.0475698548068 0.918 1.05287961416e-38
0.0289446206497 -0.0476734928347 0.92 1.07106734718e-38
0.0307471820635 -0.0478289498766 0.923 1.3009430735e-38
0.0325256846495 -0.0479325879045 0.925 1.95408828773e-38
0.0343486035331 -0.0480880449463 0.928 2.35010868621e-38
0.0360660337097 -0.0480880449463 0.928 2.34986387937e-38
0.0378648937655 -0.0481916829742 0.93 2.34935871127e-38
0.0397988533933 -0.048450778044 0.935 2.34961570941e-38
0.0415292383234 -0.048450778044 0.935 2.34979493548e-38
-0.0276861588823 -0.0467203931138 0.935 2.34925375402e-38
-0.0259557739521 -0.0467203931138 0.935 2.31205138174e-38
-0.024225389022 -0.0467203931138 0.935 1.79492628581e-38
-0.0224950040919 -0.0467203931138 0.935 1.92450603636e-38
-0.0207646191617 -0.0467203931138 0.935 1.91517815301e-38
-0.0190342342316 -0.0467203931138 0.935 1.97975012637e-38
-0.01726683572 -0.0466204564441 0.933 1.99815295872e-38
-0.0154901838131 -0.0464705514394 0.93 2.04443070037e-38
-0.0137394414132 -0.0463706147697 0.928 1.97124830846e-38
-0.0119831469761 -0.046220709765 0.925 1.73207692865e-38
-0.0102157484646 -0.0459708680906 0.92 1.53892615222e-38
-0.00851312372049 -0.0459708680906 0.92 1.24437097294e-38
-0.00681049897639 -0.0459708680906 0.92 1.05162405073e-38
-0.00509677015787 -0.0458709314209 0.918 9.41421455341e-39
-0.00339784677192 -0.0458709314209 0.918 9.51071357086e-39
-0.00169892338596 -0.0458709314209 0.918 8.31398226155e-39
0.0 -0.0458709314209 0.918 8.8700174922e-39
0.00169892338596 -0.0458709314209 0.918 8.40940508178e-39
0.00339784677192 -0.0458709314209 0.918 8.77782326363e-39
0.00508011404625 -0.0457210264162 0.915 8.68562903507e-39
0.006773485395 -0.0457210264162 0.915 9.33027117021e-39
0.00846685674374 -0.0457210264162 0.915 9.23879440646e-39
0.0101602280925 -0.0457210264162 0.915 9.51537709215e-39
0.0118535994412 -0.0457210264162 0.915 8.77746453123e-39
0.01354697079 -0.0457210264162 0.915 9.51609455696e-39
0.0152403421387 -0.0457210264162 0.915 1.00674662663e-38
0.0169337134875 -0.0457210264162 0.915 1.03447664168e-38
0.0186270848362 -0.0457210264162 0.915 8.7760296016e-39
0.020320456185 -0.0457210264162 0.915 9.79088358063e-39
0.0220860040175 -0.0458709314209 0.918 1.00660313367e-38
0.0237849274034 -0.0458709314209 0.918 1.10794503861e-38
0.0255393711615 -0.0459708680906 0.92 1.27321305845e-38
0.0272419959056 -0.0459708680906 0.92 1.51209296819e-38
0.0290390052822 -0.0461207730953 0.923 2.18425464335e-38
0.03081380651 -0.046220709765 0.925 2.34963925122e-38
0.0326311733564 -0.0463706147697 0.928 2.35007995959e-38
0.0344226306959 -0.0464705514394 0.93 2.3493240992e-38
0.0361437622307 -0.0464705514394 0.93 2.34917878455e-38
0.0379870385841 -0.0466204564441 0.933 2.34943171892e-38
0.0399265502491 -0.0468702981185 0.938 2.34921732026e-38
0.0416624872164 -0.0468702981185 0.938 2.35004702908e-38
0.0433984241838 -0.0468702981185 0.938 2.3496856342e-38
-0.0276861588823 -0.0449900081837 0.935 2.34954073994e-38
-0.0259557739521 -0.0449900081837 0.935 2.24744269435e-38
-0.024225389022 -0.0449900081837 0.935 1.90545384231e-38
-0.0224950040919 -0.0449900081837 0.935 1.76777472677e-38
-0.0207646191617 -0.0449900081837 0.935 1.99836973959e-38
-0.0190342342316 -0.0449900081837 0.935 1.89698915881e-38
-0.01726683572 -0.0448937728721 0.933 2.00762433504e-38
-0.0154901838131 -0.0447494199046 0.93 2.00758930257e-38
-0.0137394414132 -0.044653184593 0.928 2.06301205814e-38
-0.0119831469761 -0.0445088316256 0.925 1.98011068047e-38
-0.0102490606878 -0.044412596314 0.923 2.13683918747e-38
-0.00851312372049 -0.0442682433465 0.92 2.0264577864e-38
-0.00681049897639 -0.0442682433465 0.92 1.92547699607e-38
-0.00510787423229 -0.0442682433465 0.92 1.79678510822e-38
-0.00340524948819 -0.0442682433465 0.92 1.6401607177e-38
-0.00169892338596 -0.0441720080349 0.918 1.51130375689e-38
0.0 -0.0441720080349 0.918 1.44709065606e-38
0.00169892338596 -0.0441720080349 0.918 1.35521928666e-38
0.00339784677192 -0.0441720080349 0.918 1.0700270232e-38
0.00509677015787 -0.0441720080349 0.918 1.05198278314e-38
0.00679569354383 -0.0441720080349 0.918 1.09818751714e-38
0.00849461692979 -0.0441720080349 0.918 1.05223389582e-38
0.0101602280925 -0.0440276550675 0.915 1.09840275659e-38
0.0118535994412 -0.0440276550675 0.915 1.12584578571e-38
0.01354697079 -0.0440276550675 0.915 1.13488584236e-38
0.0152403421387 -0.0440276550675 0.915 1.19931418264e-38
0.0169337134875 -0.0440276550675 0.915 1.25448722681e-38
0.0186881572455 -0.0441720080349 0.918 1.49365412247e-38
0.0203870806315 -0.0441720080349 0.918 1.74207631423e-38
0.0220860040175 -0.0441720080349 0.918 1.75097287792e-38
0.0237849274034 -0.0441720080349 0.918 2.11950358404e-38
0.0255393711615 -0.0442682433465 0.92 2.29425292942e-38
0.0272419959056 -0.0442682433465 0.92 2.34971884498e-38
0.0290390052822 -0.044412596314 0.923 2.34953975903e-38
0.03081380651 -0.0445088316256 0.925 2.34918018585e-38
0.0326311733564 -0.044653184593 0.928 2.34939584568e-38
0.0344226306959 -0.0447494199046 0.93 2.34921675974e-38
0.0361437622307 -0.0447494199046 0.93 2.34929144894e-38
0.0379870385841 -0.0448937728721 0.933 2.34921704e-38
0.0399265502491 -0.0451343611511 0.938 2.34950416605e-38
0.0416624872164 -0.0451343611511 0.938 2.34957689344e-38
0.0433984241838 -0.0451343611511 0.938 2.35019024178e-38
-0.0260390545103 -0.0433984241838 0.938 2.30272503981e-38
-0.024225389022 -0.0432596232536 0.935 1.92389422946e-38
-0.0224950040919 -0.0432596232536 0.935 1.91542898543e-38
-0.0208312436082 -0.0433984241838 0.938 1.98918548932e-38
-0.0190342342316 -0.0432596232536 0.935 1.92482833501e-38
-0.01726683572 -0.0431670893001 0.933 2.00769622165e-38
-0.0154901838131 -0.0430282883699 0.93 2.05357991817e-38
-0.0137394414132 -0.0429357544164 0.928 2.06297702567e-38
-0.0120220112366 -0.0429357544164 0.928 2.06297674542e-38
-0.0102712688367 -0.0427969534861 0.925 2.05375746269e-38
-0.00854088390653 -0.0427044195327 0.923 2.04443098063e-38
-0.00683270712523 -0.0427044195327 0.923 2.20101879727e-38
-0.00512453034392 -0.0427044195327 0.923 2.20105537116e-38
-0.00341635356261 -0.0427044195327 0.923 2.25637302933e-38
-0.0017026247441 -0.0425656186024 0.92 2.27509956162e-38
0.0 -0.0425656186024 0.92 2.22917901095e-38
0.0017026247441 -0.0425656186024 0.92 2.21109931803e-38
0.00339784677192 -0.042473084649 0.918 2.16536233745e-38
0.00509677015787 -0.042473084649 0.918 1.99036510237e-38
0.00679569354383 -0.042473084649 0.918 2.07312663045e-38
0.00849461692979 -0.042473084649 0.918 2.06394209993e-38
0.0101935403157 -0.042473084649 0.918 2.10089251874e-38
0.0118924637017 -0.042473084649 0.918 1.98107701589e-38
0.0135913870877 -0.042473084649 0.918 2.21156202678e-38
0.0152903104736 -0.042473084649 0.918 2.1466692962e-38
0.0169892338596 -0.042473084649 0.918 2.31247905803e-38
0.0186881572455 -0.042473084649 0.918 2.33070154326e-38
0.0203870806315 -0.042473084649 0.918 2.3493588514e-38
0.0220860040175 -0.042473084649 0.918 2.34975611952e-38
0.0238367464174 -0.0425656186024 0.92 2.34928976739e-38
0.0256226517196 -0.0427044195327 0.923 2.34910984066e-38
0.0273308285009 -0.0427044195327 0.923 2.3489996986e-38
0.0291019283706 -0.0427969534861 0.925 2.34943241957e-38
0.03081380651 -0.0427969534861 0.925 2.34896480627e-38
0.0326311733564 -0.0429357544164 0.928 2.34911054131e-38
0.0345336714401 -0.0431670893001 0.933 2.3496133272e-38
0.0362603550121 -0.0431670893001 0.933 2.34939430425e-38
0.0380684684631 -0.0432596232536 0.935 2.34932381894e-38
0.0399265502491 -0.0433984241838 0.938 2.34928976739e-38
0.0416624872164 -0.0433984241838 0.938 2.35001115584e-38
0.0433984241838 -0.0433984241838 0.938 2.35044023343e-38
-0.0260390545103 -0.0416624872164 0.938 2.26595384706e-38
-0.0243031175429 -0.0416624872164 0.938 1.80432549526e-38
-0.0225671805756 -0.0416624872164 0.938 1.91528381091e-38
-0.0208312436082 -0.0416624872164 0.938 1.9153217861e-38
-0.0190953066409 -0.0416624872164 0.938 1.94319459346e-38
-0.0173038493014 -0.0415292383234 0.935 1.99833092362e-38
-0.015540152148 -0.0414404057281 0.933 2.02584892221e-38
-0.0137690522784 -0.0413071568351 0.93 2.03517568453e-38
-0.0120220112366 -0.0412183242397 0.928 2.19172874897e-38
-0.0102712688367 -0.0410850753467 0.925 2.18261484388e-38
-0.00854088390653 -0.0409962427514 0.923 2.14595309255e-38
-0.00683270712523 -0.0409962427514 0.923 2.2011259966e-38
-0.00512453034392 -0.0409962427514 0.923 2.2009837648e-38
-0.00341635356261 -0.0409962427514 0.923 2.21942247039e-38
-0.0017026247441 -0.0408629938583 0.92 2.26548567325e-38
0.0 -0.0408629938583 0.92 2.29325156154e-38
0.0017026247441 -0.0408629938583 0.92 2.24729794022e-38
0.00340524948819 -0.0408629938583 0.92 2.29332162646e-38
0.00510787423229 -0.0408629938583 0.92 2.34874718462e-38
0.00681049897639 -0.0408629938583 0.92 2.34885634577e-38
0.00851312372049 -0.0408629938583 0.92 2.34885676616e-38
0.0101935403157 -0.040774161263 0.918 2.34871173177e-38
0.0118924637017 -0.040774161263 0.918 2.34867599866e-38
0.0135913870877 -0.040774161263 0.918 2.34910633742e-38
0.0152903104736 -0.040774161263 0.918 2.34900095977e-38
0.0169892338596 -0.040774161263 0.918 2.34892767186e-38
0.0186881572455 -0.040774161263 0.918 2.34903599223e-38
0.0203870806315 -0.040774161263 0.918 2.34896522666e-38
0.0220860040175 -0.040774161263 0.918 2.34921507818e-38
0.0238367464174 -0.0408629938583 0.92 2.34878544007e-38
0.0256226517196 -0.0409962427514 0.923 2.34882299487e-38
0.0273308285009 -0.0409962427514 0.923 2.34896620757e-38
0.0291019283706 -0.0410850753467 0.925 2.34900067951e-38
0.0309137431798 -0.0412183242397 0.928 2.34921760052e-38
0.0327014991611 -0.0413071568351 0.93 2.34935955205e-38
0.0345336714401 -0.0414404057281 0.933 2.34918004572e-38
0.036338083533 -0.0415292383234 0.935 2.34946885333e-38
0.0380684684631 -0.0415292383234 0.935 2.34950430618e-38
0.0399265502491 -0.0416624872164 0.938 2.34954172085e-38
0.0416624872164 -0.0416624872164 0.938 2.35011863543e-38
0.0433984241838 -0.0416624872164 0.938 2.35007911881e-38
-0.0279230458032 -0.0401393783421 0.943 2.34943564256e-38
-0.0260945748824 -0.0400116814863 0.94 2.34921844129e-38
-0.0243549365569 -0.0400116814863 0.94 1.78589015279e-38
-0.0226152982314 -0.0400116814863 0.94 1.95216276351e-38
-0.0208756599059 -0.0400116814863 0.94 1.9890055626e-38
-0.0190953066409 -0.0399265502491 0.938 1.99840505231e-38
-0.0173038493014 -0.0397988533933 0.935 1.97063916402e-38
-0.015540152148 -0.0397137221561 0.933 2.10889729609e-38
-0.0137690522784 -0.0395860253003 0.93 2.09974961972e-38
-0.0120220112366 -0.0395008940631 0.928 2.17335996818e-38
-0.0102712688367 -0.0393731972073 0.925 2.18254421844e-38
-0.00855939069723 -0.0393731972073 0.925 2.1458481353e-38
-0.00683270712523 -0.03928806597 0.923 2.23811312943e-38
-0.00512453034392 -0.03928806597 0.923 2.1826867305e-38
-0.00341635356261 -0.03928806597 0.923 2.24718835868e-38
-0.00170817678131 -0.03928806597 0.923 2.27481215531e-38
0.0 -0.0391603691142 0.92 2.27481243557e-38
0.0017026247441 -0.0391603691142 0.92 2.34871425411e-38
0.00340524948819 -0.0391603691142 0.92 2.31172529958e-38
0.00510787423229 -0.0391603691142 0.92 2.34874844579e-38
0.00681049897639 -0.0391603691142 0.92 2.32087437726e-38
0.00851312372049 -0.0391603691142 0.92 2.28392381831e-38
0.0101935403157 -0.039075237877 0.918 2.34888913616e-38
0.0118924637017 -0.039075237877 0.918 2.34874536293e-38
0.0135913870877 -0.039075237877 0.918 2.34881991201e-38
0.0152903104736 -0.039075237877 0.918 2.34878319799e-38
0.017026247441 -0.0391603691142 0.92 2.34885480434e-38
0.0187288721851 -0.0391603691142 0.92 2.34878333812e-38
0.0204314969292 -0.0391603691142 0.92 2.34871369359e-38
0.0221341216733 -0.0391603691142 0.92 2.34892613043e-38
0.0239144749383 -0.03928806597 0.923 2.34896368523e-38
0.0256781720917 -0.0393731972073 0.925 2.3491860713e-38
0.0273900502311 -0.0393731972073 0.925 2.34907242599e-38
0.0291963130031 -0.0395008940631 0.928 2.34953863799e-38
0.0309137431798 -0.0395008940631 0.928 2.34928822596e-38
0.0328069878681 -0.0397137221561 0.933 2.34928850622e-38
0.0346076986028 -0.0397988533933 0.935 2.34928696479e-38
0.036338083533 -0.0397988533933 0.935 2.34946885333e-38
0.0381906132817 -0.0399265502491 0.938 2.34957661318e-38
0.0399265502491 -0.0399265502491 0.938 2.34975668003e-38
0.0416624872164 -0.0399265502491 0.938 2.35022625515e-38
0.0433984241838 -0.0399265502491 0.938 2.350117094e-38
-0.0297626207984 -0.038516332798 0.946 2.34935969218e-38
-0.0279230458032 -0.0383941879794 0.943 2.34961220616e-38
-0.0261778554405 -0.0383941879794 0.943 2.3491095604e-38
-0.0243549365569 -0.0382720431608 0.94 1.86886607954e-38
-0.0226152982314 -0.0382720431608 0.94 1.94301901077e-38
-0.0208756599059 -0.0382720431608 0.94 1.98893479703e-38
-0.0190953066409 -0.0381906132817 0.938 1.95212927247e-38
-0.0173038493014 -0.0380684684631 0.935 2.04443252206e-38
-0.015540152148 -0.0379870385841 0.933 2.09978465218e-38
-0.0137690522784 -0.0378648937655 0.93 2.07205211479e-38
-0.0120220112366 -0.0377834638864 0.928 2.08120161285e-38
-0.0102712688367 -0.0376613190678 0.925 2.09967731272e-38
-0.00855939069723 -0.0376613190678 0.925 2.20108928258e-38
-0.00684751255778 -0.0376613190678 0.925 2.12729886727e-38
-0.00513563441834 -0.0376613190678 0.925 2.21942471246e-38
-0.00341635356261 -0.0375798891887 0.923 2.34867501775e-38
-0.00170817678131 -0.0375798891887 0.923 2.25626709117e-38
0.0 -0.0375798891887 0.923 2.24704612688e-38
0.00170817678131 -0.0375798891887 0.923 2.33931378349e-38
0.00341635356261 -0.0375798891887 0.923 2.32098017529e-38
0.00512453034392 -0.0375798891887 0.923 2.34849705285e-38
0.00683270712523 -0.0375798891887 0.923 2.32098409893e-38
0.00854088390653 -0.0375798891887 0.923 2.34882075279e-38
0.0102490606878 -0.0375798891887 0.923 2.34860243049e-38
0.0119572374691 -0.0375798891887 0.923 2.34867445723e-38
0.0136654142505 -0.0375798891887 0.923 2.34857118153e-38
0.0153735910318 -0.0375798891887 0.923 2.3486048127e-38
0.0170817678131 -0.0375798891887 0.923 2.34903837444e-38
0.0187899445944 -0.0375798891887 0.923 2.34864110633e-38
0.0204981213757 -0.0375798891887 0.923 2.34892851264e-38
0.0222544158128 -0.0376613190678 0.925 2.3490358521e-38
0.0239662939522 -0.0376613190678 0.925 2.3490358521e-38
0.0256781720917 -0.0376613190678 0.925 2.34878572033e-38
0.0273900502311 -0.0376613190678 0.925 2.34914557377e-38
0.0291963130031 -0.0377834638864 0.928 2.34899955847e-38
0.0309803676263 -0.0378648937655 0.93 2.34910970053e-38
0.0328069878681 -0.0379870385841 0.933 2.34921704e-38
0.0346076986028 -0.0380684684631 0.935 2.34936053296e-38
0.036338083533 -0.0380684684631 0.935 2.34943452152e-38
0.0381906132817 -0.0381906132817 0.938 2.34961290681e-38
0.0399265502491 -0.0381906132817 0.938 2.34971996601e-38
0.0416624872164 -0.0381906132817 0.938 2.35015562971e-38
0.0433984241838 -0.0381906132817 0.938 2.35022569463e-38
-0.0297626207984 -0.0367655903981 0.946 2.34896704835e-38
-0.0279230458032 -0.0366489976167 0.943 2.34964835966e-38
-0.0261778554405 -0.0366489976167 0.943 2.34907368716e-38
-0.0244326650778 -0.0366489976167 0.943 1.81354842136e-38
-0.0226874747151 -0.0366489976167 0.943 1.94297949415e-38
-0.0209422843524 -0.0366489976167 0.943 1.98911094024e-38
-0.0191360215804 -0.0365324048353 0.94 2.04436007493e-38
-0.0173593696735 -0.0364546763144 0.938 1.97071105063e-38
-0.015540152148 -0.0362603550121 0.933 2.07198204987e-38
-0.0137690522784 -0.0361437622307 0.93 2.07208518543e-38
-0.0120220112366 -0.0360660337097 0.928 2.16413984467e-38
-0.0103045810599 -0.0360660337097 0.928 2.19169343625e-38
-0.00855939069723 -0.0359494409284 0.925 2.17328906247e-38
-0.00684751255778 -0.0359494409284 0.925 2.26552196688e-38
-0.00513563441834 -0.0359494409284 0.925 2.21027493414e-38
-0.00342375627889 -0.0359494409284 0.925 2.17335968792e-38
-0.00171187813945 -0.0359494409284 0.925 2.28388878585e-38
0.0 -0.0359494409284 0.925 2.33009267907e-38
0.00171187813945 -0.0359494409284 0.925 2.28399248194e-38
0.00342375627889 -0.0359494409284 0.925 2.34866955269e-38
0.00512453034392 -0.0358717124074 0.923 2.34842390507e-38
0.00683270712523 -0.0358717124074 0.923 2.34842544649e-38
0.00854088390653 -0.0358717124074 0.923 2.34853236557e-38
0.0102490606878 -0.0358717124074 0.923 2.34910871962e-38
0.0119572374691 -0.0358717124074 0.923 2.34853222544e-38
0.0136654142505 -0.0358717124074 0.923 2.34867725983e-38
0.015406903255 -0.0359494409284 0.925 2.34874746488e-38
0.0171187813945 -0.0359494409284 0.925 2.34856893946e-38
0.0188306595339 -0.0359494409284 0.925 2.34878544007e-38
0.0205425376733 -0.0359494409284 0.925 2.3488203324e-38
0.0222544158128 -0.0359494409284 0.925 2.34907396742e-38
0.0239662939522 -0.0359494409284 0.925 2.34928822596e-38
0.0257614526498 -0.0360660337097 0.928 2.34903613236e-38
0.0274788828265 -0.0360660337097 0.928 2.34910745846e-38
0.0291963130031 -0.0360660337097 0.928 2.34910843937e-38
0.0309803676263 -0.0361437622307 0.93 2.34914585403e-38
0.0328069878681 -0.0362603550121 0.933 2.34925431454e-38
0.0346076986028 -0.036338083533 0.935 2.34939556542e-38
0.036338083533 -0.036338083533 0.935 2.34935997244e-38
0.0381906132817 -0.0364546763144 0.938 2.34936123361e-38
0.0399265502491 -0.0364546763144 0.938 2.35011807491e-38
0.0416624872164 -0.0364546763144 0.938 2.35015254685e-38
0.0433984241838 -0.0364546763144 0.938 2.35022625515e-38
-0.0315133631984 -0.0350148479982 0.946 2.34914641455e-38
-0.0297626207984 -0.0350148479982 0.946 2.34964962083e-38
-0.0279230458032 -0.034903807254 0.943 2.34975864185e-38
-0.0261778554405 -0.034903807254 0.943 2.34939724698e-38
-0.0244326650778 -0.034903807254 0.943 1.84113298163e-38
-0.0226874747151 -0.034903807254 0.943 1.99826001792e-38
-0.0209422843524 -0.034903807254 0.943 1.96141890038e-38
-0.0191970939897 -0.034903807254 0.943 2.02581388975e-38
-0.0173593696735 -0.034718739347 0.938 1.95216724766e-38
-0.015540152148 -0.0345336714401 0.933 2.12722852208e-38
-0.0137690522784 -0.0344226306959 0.93 2.0997129057e-38
-0.0120220112366 -0.0343486035331 0.928 2.19179881389e-38
-0.0103045810599 -0.0343486035331 0.928 2.18254421844e-38
-0.00858715088327 -0.0343486035331 0.928 2.15495811674e-38
-0.00684751255778 -0.0342375627889 0.925 2.19169385663e-38
-0.00513563441834 -0.0342375627889 0.925 2.26555601843e-38
-0.00342375627889 -0.0342375627889 0.925 2.22864203337e-38
-0.00171187813945 -0.0342375627889 0.925 2.11808154636e-38
0.0 -0.0342375627889 0.925 2.34860313114e-38
0.00171187813945 -0.0342375627889 0.925 2.30243328947e-38
0.00342375627889 -0.0342375627889 0.925 2.32087297596e-38
0.00513563441834 -0.0342375627889 0.925 2.34842460571e-38
0.00684751255778 -0.0342375627889 0.925 2.34867922165e-38
0.00854088390653 -0.0341635356261 0.923 2.34863914451e-38
0.0102490606878 -0.0341635356261 0.923 2.34835173819e-38
0.0119831469761 -0.0342375627889 0.925 2.34860285088e-38
0.0136950251156 -0.0342375627889 0.925 2.34871229229e-38
0.015406903255 -0.0342375627889 0.925 2.3487494267e-38
0.0171187813945 -0.0342375627889 0.925 2.34878684137e-38
0.0188306595339 -0.0342375627889 0.925 2.34885858785e-38
0.0205425376733 -0.0342375627889 0.925 2.3491818674e-38
0.0222544158128 -0.0342375627889 0.925 2.34911138209e-38
0.0239662939522 -0.0342375627889 0.925 2.34907284638e-38
0.0257614526498 -0.0343486035331 0.928 2.34921661961e-38
0.0274788828265 -0.0343486035331 0.928 2.34928696479e-38
0.0291963130031 -0.0343486035331 0.928 2.34928738518e-38
0.0309803676263 -0.0344226306959 0.93 2.349144733e-38
0.0328069878681 -0.0345336714401 0.933 2.34900166042e-38
0.0346076986028 -0.0346076986028 0.935 2.34939332334e-38
0.036338083533 -0.0346076986028 0.935 2.34950388579e-38
0.0381906132817 -0.034718739347 0.938 2.34968437303e-38
0.0399265502491 -0.034718739347 0.938 2.34950514696e-38
0.0416624872164 -0.034718739347 0.938 2.35026395008e-38
0.0433984241838 -0.034718739347 0.938 2.35004492713e-38
-0.0315133631984 -0.0332641055983 0.946 2.34954494384e-38
-0.0297626207984 -0.0332641055983 0.946 2.34936151387e-38
-0.0280118783985 -0.0332641055983 0.946 2.34936095335e-38
-0.0262611359986 -0.0332641055983 0.946 2.3495048667e-38
-0.0244326650778 -0.0331586168913 0.943 1.81318716662e-38
-0.0226874747151 -0.0331586168913 0.943 2.02598961258e-38
-0.0209422843524 -0.0331586168913 0.943 1.94294320052e-38
-0.0191970939897 -0.0331586168913 0.943 2.00733790963e-38
-0.0173593696735 -0.0329828023797 0.938 2.05343698573e-38
-0.0155734643713 -0.0328773136727 0.935 2.12729886727e-38
-0.013813468576 -0.0328069878681 0.933 2.07194491546e-38
-0.0120479207436 -0.0327014991611 0.93 2.17335996818e-38
-0.0103045810599 -0.0326311733564 0.928 2.17335996818e-38
-0.00858715088327 -0.0326311733564 0.928 2.10896946296e-38
-0.00686972070662 -0.0326311733564 0.928 2.19180105597e-38
-0.00515229052996 -0.0326311733564 0.928 2.31165159128e-38
-0.00342375627889 -0.0325256846495 0.925 2.22878496582e-38
-0.00171187813945 -0.0325256846495 0.925 2.28413891762e-38
0.0 -0.0325256846495 0.925 2.33927426687e-38
0.00171187813945 -0.0325256846495 0.925 2.32083766324e-38
0.00342375627889 -0.0325256846495 0.925 2.31158278753e-38
0.00513563441834 -0.0325256846495 0.925 2.34889291966e-38
0.00684751255778 -0.0325256846495 0.925 2.33909756314e-38
0.00855939069723 -0.0325256846495 0.925 2.3483888726e-38
0.0102712688367 -0.0325256846495 0.925 2.34874858592e-38
0.0119831469761 -0.0325256846495 0.925 2.34899913808e-38
0.0136950251156 -0.0325256846495 0.925 2.34874704449e-38
0.015406903255 -0.0325256846495 0.925 2.34892949355e-38
0.0171187813945 -0.0325256846495 0.925 2.3483888726e-38
0.0188306595339 -0.0325256846495 0.925 2.34896620757e-38
0.0205425376733 -0.0325256846495 0.925 2.3487841789e-38
0.0222544158128 -0.0325256846495 0.925 2.34903809418e-38
0.0239662939522 -0.0325256846495 0.925 2.34914375209e-38
0.0257614526498 -0.0326311733564 0.928 2.34907438781e-38
0.0274788828265 -0.0326311733564 0.928 2.34917906481e-38
0.0291963130031 -0.0326311733564 0.928 2.34935899153e-38
0.0309803676263 -0.0327014991611 0.93 2.34939556542e-38
0.0328069878681 -0.0328069878681 0.933 2.34950500683e-38
0.0346076986028 -0.0328773136727 0.935 2.34968591446e-38
0.0364546763144 -0.0329828023797 0.938 2.349361654e-38
0.0381906132817 -0.0329828023797 0.938 2.34982996794e-38
0.0399265502491 -0.0329828023797 0.938 2.34993590611e-38
0.0416624872164 -0.0329828023797 0.938 2.34997416156e-38
0.0433984241838 -0.0329828023797 0.938 2.35008276219e-38
-0.0297626207984 -0.0315133631984 0.946 2.34928976739e-38
-0.0280118783985 -0.0315133631984 0.946 2.34946773229e-38
-0.0262611359986 -0.0315133631984 0.946 2.34971968576e-38
-0.0245103935987 -0.0315133631984 0.946 1.80407718517e-38
-0.0227596511988 -0.0315133631984 0.946 1.89684566585e-38
-0.0210089087989 -0.0315133631984 0.946 2.02588003104e-38
-0.0191970939897 -0.0314134265286 0.943 1.97978571935e-38
-0.0173593696735 -0.0312468654123 0.938 2.07198303078e-38
-0.0155734643713 -0.0311469287426 0.935 2.09960710766e-38
-0.0138430794411 -0.0311469287426 0.935 2.06287136777e-38
-0.012086785004 -0.0310803042961 0.933 2.13651871051e-38
-0.0103267892088 -0.0309803676263 0.93 2.16431963126e-38
-0.00858715088327 -0.0309137431798 0.928 2.21945974493e-38
-0.00686972070662 -0.0309137431798 0.928 2.1827214827e-38
-0.00515229052996 -0.0309137431798 0.928 2.31168844543e-38
-0.00343486035331 -0.0309137431798 0.928 2.21016591312e-38
-0.00171187813945 -0.03081380651 0.925 2.28396137311e-38
0.0 -0.03081380651 0.925 2.32991401352e-38
0.00171187813945 -0.03081380651 0.925 2.34889277953e-38
0.00342375627889 -0.03081380651 0.925 2.3299496065e-38
0.00513563441834 -0.03081380651 0.925 2.34856949998e-38
0.00684751255778 -0.03081380651 0.925 2.34846103947e-38
0.00855939069723 -0.03081380651 0.925 2.34875166878e-38
0.0102712688367 -0.03081380651 0.925 2.34874606358e-38
0.0119831469761 -0.03081380651 0.925 2.34853474777e-38
0.0136950251156 -0.03081380651 0.925 2.34860579361e-38
0.015406903255 -0.03081380651 0.925 2.34900124003e-38
0.0171187813945 -0.03081380651 0.925 2.34893075472e-38
0.0188306595339 -0.03081380651 0.925 2.34889390057e-38
0.0205425376733 -0.03081380651 0.925 2.34900081964e-38
0.0223265922965 -0.0309137431798 0.928 2.34896382536e-38
0.0240440224732 -0.0309137431798 0.928 2.34910633742e-38
0.0257614526498 -0.0309137431798 0.928 2.34896788913e-38
0.0274788828265 -0.0309137431798 0.928 2.34914529351e-38
0.0292592360915 -0.0309803676263 0.93 2.3492156387e-38
0.0310803042961 -0.0310803042961 0.933 2.34925207246e-38
0.0328773136727 -0.0311469287426 0.935 2.34925193233e-38
0.0346076986028 -0.0311469287426 0.935 2.34958235851e-38
0.0364546763144 -0.0312468654123 0.938 2.34954228137e-38
0.0381906132817 -0.0312468654123 0.938 2.34975850172e-38
0.0399265502491 -0.0312468654123 0.938 2.34979269341e-38
0.0416624872164 -0.0312468654123 0.938 2.3502269558e-38
-0.0280118783985 -0.0297626207984 0.946 2.3495757724e-38
-0.0262611359986 -0.0297626207984 0.946 2.3495076693e-38
-0.0245103935987 -0.0297626207984 0.946 1.91481928047e-38
-0.0227596511988 -0.0297626207984 0.946 1.97989403973e-38
-0.0210089087989 -0.0297626207984 0.946 2.04432266026e-38
-0.0191970939897 -0.0296682361659 0.943 2.04446573283e-38
-0.0173963832549 -0.0295738515333 0.94 2.0076246153e-38
-0.0156234327062 -0.029510928445 0.938 2.04436035519e-38
-0.0138430794411 -0.0294165438124 0.935 2.14573855376e-38
-0.012112694511 -0.0294165438124 0.935 2.19205118774e-38
-0.010360101432 -0.0293536207241 0.933 2.16442711086e-38
-0.00860565767397 -0.0292592360915 0.93 2.19183608843e-38
-0.00688452613918 -0.0292592360915 0.93 2.25633799687e-38
-0.00516339460438 -0.0292592360915 0.93 2.22871462063e-38
-0.00343486035331 -0.0291963130031 0.928 2.24704612688e-38
-0.00171743017665 -0.0291963130031 0.928 2.29317869402e-38
0.0 -0.0291963130031 0.928 2.32991275235e-38
0.00171743017665 -0.0291963130031 0.928 2.34838859234e-38
0.00343486035331 -0.0291963130031 0.928 2.33916888923e-38
