# .PCD v0.7 - Point Cloud Data file format
VERSION 0.7
FIELDS x y z rgb
SIZE 4 4 4 4
TYPE F F F F
COUNT 1 1 1 1
WIDTH 858
HEIGHT 1
VIEWPOINT 0 0 0 1 0 0 0
POINTS 858
DATA ascii
0.0735441355497 -0.135081065295 0.811 2.34914613429e-38
0.0750450362752 -0.135081065295 0.811 2.34961234629e-38
0.0765459370007 -0.135081065295 0.811 2.3492156387e-38
0.0780468377262 -0.135081065295 0.811 2.34939682659e-38
0.0795477384517 -0.135081065295 0.811 2.34918018585e-38
0.0812485125167 -0.135414187528 0.813 2.34929004765e-38
0.0827531146003 -0.135414187528 0.813 2.34943157879e-38
0.084257716684 -0.135414187528 0.813 2.34954031955e-38
0.0857623187676 -0.135414187528 0.813 2.34946773229e-38
0.0874815996233 -0.13574730976 0.815 2.3494325597e-38
0.0889899030651 -0.13574730976 0.815 2.34918032598e-38
0.0909423694836 -0.136413554225 0.819 2.34917962533e-38
0.0924580756417 -0.136413554225 0.819 2.34889418083e-38
0.0939737817998 -0.136413554225 0.819 2.3490025012e-38
0.0957226735206 -0.136746676458 0.821 2.34820936627e-38
0.0972420810368 -0.136746676458 0.821 2.34853474777e-38
0.098761488553 -0.136746676458 0.821 2.35058638886e-38
0.0260816201289 -0.136544952439 0.829 2.34939864828e-38
0.0276158330776 -0.136544952439 0.829 2.34950584761e-38
0.0291500460264 -0.136544952439 0.829 2.35015520932e-38
0.0306842589751 -0.136544952439 0.829 1.28824857059e-38
0.032140743403 -0.136215531565 0.827 1.75848131535e-38
0.0334269653564 -0.135227268942 0.821 1.73100367415e-38
0.0349463728726 -0.135227268942 0.821 1.79554089532e-38
0.0364657803888 -0.135227268942 0.821 1.72192760413e-38
0.037985187905 -0.135227268942 0.821 1.75869837648e-38
0.039312124798 -0.134568427193 0.817 1.79554061506e-38
0.0408241295979 -0.134568427193 0.817 1.83223837976e-38
0.0422324963699 -0.134239006319 0.815 1.98904325753e-38
0.0437407998117 -0.134239006319 0.815 1.88762736403e-38
0.0451380625093 -0.133909585444 0.813 2.0903505504e-38
0.0466426645929 -0.133909585444 0.813 1.95216430493e-38
0.0481472666766 -0.133909585444 0.813 2.03507072728e-38
0.0496518687602 -0.133909585444 0.813 2.05361649206e-38
0.0510306246671 -0.13358016457 0.811 2.14598868553e-38
0.0525315253926 -0.13358016457 0.811 2.13662590984e-38
0.0540324261181 -0.13358016457 0.811 2.20080537951e-38
0.0555333268436 -0.13358016457 0.811 2.27463250884e-38
0.0570342275691 -0.13358016457 0.811 2.3023635048e-38
0.0585351282946 -0.13358016457 0.811 2.31154775507e-38
0.0598879746946 -0.133250743695 0.809 2.34846047896e-38
0.0613851740619 -0.133250743695 0.809 2.34856683751e-38
0.0628823734293 -0.133250743695 0.809 2.34853208531e-38
0.0643795727966 -0.133250743695 0.809 2.34874858592e-38
0.065876772164 -0.133250743695 0.809 2.34892711134e-38
0.0673739715314 -0.133250743695 0.809 2.34878291773e-38
0.0688711708987 -0.133250743695 0.809 2.34907144509e-38
0.0703683702661 -0.133250743695 0.809 2.34932339855e-38
0.0718655696335 -0.133250743695 0.809 2.34900025912e-38
0.0733627690008 -0.133250743695 0.809 2.34921956233e-38
0.0748599683682 -0.133250743695 0.809 2.34899983873e-38
0.0763571677356 -0.133250743695 0.809 2.34935983231e-38
0.0780468377262 -0.13358016457 0.811 2.34910745846e-38
0.0795477384517 -0.13358016457 0.811 2.34954116033e-38
0.0810486391772 -0.13358016457 0.811 2.34914767572e-38
0.0827531146003 -0.133909585444 0.813 2.3491794852e-38
0.084257716684 -0.133909585444 0.813 2.34914431261e-38
0.0857623187676 -0.133909585444 0.813 2.34943298009e-38
0.0874815996233 -0.134239006319 0.815 2.34928836609e-38
0.0889899030651 -0.134239006319 0.815 2.3489649464e-38
0.0909423694836 -0.134897848067 0.819 2.34900081964e-38
0.0924580756417 -0.134897848067 0.819 2.34882089292e-38
0.0939737817998 -0.134897848067 0.819 2.34842586688e-38
0.0957226735206 -0.135227268942 0.821 2.34838929299e-38
0.0972420810368 -0.135227268942 0.821 2.34929102856e-38
0.098761488553 -0.135227268942 0.821 2.35012031699e-38
0.0260816201289 -0.135010739491 0.829 2.34911222287e-38
0.0276158330776 -0.135010739491 0.829 2.34929214959e-38
0.0291500460264 -0.135010739491 0.829 2.35026268891e-38
0.0306842589751 -0.135010739491 0.829 1.33431135306e-38
0.0322184719239 -0.135010739491 0.829 1.75844628289e-38
0.0336712549936 -0.134685019974 0.827 1.80479605128e-38
0.0349463728726 -0.133707861426 0.821 1.73111199452e-38
0.0364657803888 -0.133707861426 0.821 1.79568452841e-38
0.037985187905 -0.133707861426 0.821 1.77717407634e-38
0.039312124798 -0.133056422393 0.817 1.77713806297e-38
0.0408241295979 -0.133056422393 0.817 1.90606873208e-38
0.0422324963699 -0.132730702877 0.815 1.89684720728e-38
0.0437407998117 -0.132730702877 0.815 1.93361797963e-38
0.0451380625093 -0.132404983361 0.813 1.96127694885e-38
0.0466426645929 -0.132404983361 0.813 2.02588451519e-38
0.0481472666766 -0.132404983361 0.813 2.01677425349e-38
0.0496518687602 -0.132404983361 0.813 2.06311897721e-38
0.0510306246671 -0.132079263844 0.811 2.03524743101e-38
0.0525315253926 -0.132079263844 0.811 2.19194552984e-38
0.0540324261181 -0.132079263844 0.811 2.2378613161e-38
0.0555333268436 -0.132079263844 0.811 2.14541611498e-38
0.0570342275691 -0.132079263844 0.811 2.28378018522e-38
0.0585351282946 -0.132079263844 0.811 2.34853278596e-38
0.0600360290201 -0.132079263844 0.811 2.3208726957e-38
0.0615369297456 -0.132079263844 0.811 2.33005736635e-38
0.0628823734293 -0.131753544328 0.809 2.34856921972e-38
0.0643795727966 -0.131753544328 0.809 2.34863998529e-38
0.065876772164 -0.131753544328 0.809 2.34864054581e-38
0.0673739715314 -0.131753544328 0.809 2.34849859427e-38
0.0688711708987 -0.131753544328 0.809 2.3489663477e-38
0.0703683702661 -0.131753544328 0.809 2.34824537964e-38
0.0718655696335 -0.131753544328 0.809 2.34864418918e-38
0.0733627690008 -0.131753544328 0.809 2.34903599223e-38
0.0748599683682 -0.131753544328 0.809 2.349144733e-38
0.0763571677356 -0.131753544328 0.809 2.34914417248e-38
0.0780468377262 -0.132079263844 0.811 2.3490358521e-38
0.0795477384517 -0.132079263844 0.811 2.34900053938e-38
0.0810486391772 -0.132079263844 0.811 2.34914361196e-38
0.0827531146003 -0.132404983361 0.813 2.3490358521e-38
0.084257716684 -0.132404983361 0.813 2.34900081964e-38
0.0857623187676 -0.132404983361 0.813 2.3487869815e-38
0.0874815996233 -0.132730702877 0.815 2.34900166042e-38
0.0889899030651 -0.132730702877 0.815 2.34889207888e-38
0.0909423694836 -0.133382141909 0.819 2.3489996986e-38
0.0924580756417 -0.133382141909 0.819 2.34864138659e-38
0.0939737817998 -0.133382141909 0.819 2.34838761144e-38
0.0957226735206 -0.133707861426 0.821 2.34849481077e-38
0.0972420810368 -0.133707861426 0.821 2.34946941385e-38
0.098761488553 -0.133707861426 0.821 2.35030052397e-38
0.0262074663056 -0.134120562858 0.833 2.34928990752e-38
0.0277490819706 -0.134120562858 0.833 2.3495771737e-38
0.0291500460264 -0.133476526542 0.829 2.34986359911e-38
0.0306842589751 -0.133476526542 0.829 1.50886970146e-38
0.0322184719239 -0.133476526542 0.829 1.72171250481e-38
0.0335898251145 -0.132832490226 0.825 1.76791821973e-38
0.0349463728726 -0.132188453909 0.821 1.83245488037e-38
0.0364657803888 -0.132188453909 0.821 1.80493912386e-38
0.037985187905 -0.132188453909 0.821 1.83256179945e-38
0.039312124798 -0.131544417593 0.817 1.83231166767e-38
0.0408241295979 -0.131544417593 0.817 1.8597908503e-38
0.0422324963699 -0.131222399435 0.815 1.87819494381e-38
0.0437407998117 -0.131222399435 0.815 1.9428393643e-38
0.0451380625093 -0.130900381277 0.813 2.00758986309e-38
0.0466426645929 -0.130900381277 0.813 1.97982341428e-38
0.0481472666766 -0.130900381277 0.813 1.97971957807e-38
0.0496518687602 -0.130900381277 0.813 2.04446727426e-38
0.0510306246671 -0.130578363119 0.811 2.09067298917e-38
0.0525315253926 -0.130578363119 0.811 2.13659087738e-38
0.0540324261181 -0.130578363119 0.811 2.16406977975e-38
0.0555333268436 -0.130578363119 0.811 2.25623037715e-38
0.0570342275691 -0.130578363119 0.811 2.2193521252e-38
0.0585351282946 -0.130578363119 0.811 2.23775439703e-38
0.0600360290201 -0.130578363119 0.811 2.34831754651e-38
0.0615369297456 -0.130578363119 0.811 2.29289184822e-38
0.0628823734293 -0.130256344961 0.809 2.3485700605e-38
0.0643795727966 -0.130256344961 0.809 2.34881823045e-38
0.065876772164 -0.130256344961 0.809 2.34856739803e-38
0.0673739715314 -0.130256344961 0.809 2.34849719298e-38
0.0688711708987 -0.130256344961 0.809 2.34849663246e-38
0.0703683702661 -0.130256344961 0.809 2.34885732668e-38
0.0718655696335 -0.130256344961 0.809 2.34871285281e-38
0.0733627690008 -0.130256344961 0.809 2.34878600059e-38
0.0748599683682 -0.130256344961 0.809 2.34860901659e-38
0.0763571677356 -0.130256344961 0.809 2.34899801705e-38
0.0780468377262 -0.130578363119 0.811 2.34910661768e-38
0.0795477384517 -0.130578363119 0.811 2.34882131331e-38
0.0810486391772 -0.130578363119 0.811 2.34878544007e-38
0.0827531146003 -0.130900381277 0.813 2.34914445274e-38
0.084257716684 -0.130900381277 0.813 2.34921521831e-38
0.0857623187676 -0.130900381277 0.813 2.34903627249e-38
0.0874815996233 -0.131222399435 0.815 2.34889362031e-38
0.0889899030651 -0.131222399435 0.815 2.34885578525e-38
0.0909423694836 -0.131866435751 0.819 2.34903711327e-38
0.0924580756417 -0.131866435751 0.819 2.34878544007e-38
0.0939737817998 -0.131866435751 0.819 2.3486771197e-38
0.0957226735206 -0.132188453909 0.821 2.34835355988e-38
0.0972420810368 -0.132188453909 0.821 2.35001423869e-38
0.098761488553 -0.132188453909 0.821 2.35030024371e-38
0.0262074663056 -0.132578947193 0.833 2.34968493355e-38
0.0277490819706 -0.132578947193 0.833 2.34979185263e-38
0.029220371831 -0.132260630393 0.831 1.89727894733e-38
0.0307582861379 -0.132260630393 0.831 1.75757579628e-38
0.0322184719239 -0.131942313593 0.829 1.6666453988e-38
0.0335898251145 -0.131305679993 0.825 1.83234529883e-38
0.0350315041098 -0.130987363193 0.823 1.7402235174e-38
0.0364657803888 -0.130669046393 0.821 1.84163913064e-38
0.037985187905 -0.130669046393 0.821 1.8233419562e-38
0.039312124798 -0.130032412793 0.817 1.86004098207e-38
0.0408241295979 -0.130032412793 0.817 1.91517871353e-38
0.0422324963699 -0.129714095993 0.815 1.96109842342e-38
0.0436334604256 -0.129395779193 0.813 1.9152161282e-38
0.0451380625093 -0.129395779193 0.813 1.92443569118e-38
0.0466426645929 -0.129395779193 0.813 2.05354222324e-38
0.0481472666766 -0.129395779193 0.813 2.01673655856e-38
0.0496518687602 -0.129395779193 0.813 2.02592080882e-38
0.0510306246671 -0.129077462393 0.811 2.08138280074e-38
0.0525315253926 -0.129077462393 0.811 2.06290668049e-38
0.0540324261181 -0.129077462393 0.811 2.16421271219e-38
0.0555333268436 -0.129077462393 0.811 2.1272638348e-38
0.0570342275691 -0.129077462393 0.811 2.21942471246e-38
0.0585351282946 -0.129077462393 0.811 2.24700927274e-38
0.0600360290201 -0.129077462393 0.811 2.25604932939e-38
0.0615369297456 -0.129077462393 0.811 2.34835454079e-38
0.0628823734293 -0.128759145593 0.809 2.32080235052e-38
0.0643795727966 -0.128759145593 0.809 2.27459691586e-38
0.065876772164 -0.128759145593 0.809 2.34874984709e-38
0.0673739715314 -0.128759145593 0.809 2.32991401352e-38
0.0688711708987 -0.128759145593 0.809 2.3486048127e-38
0.0703683702661 -0.128759145593 0.809 2.34867613879e-38
0.0720432348242 -0.129077462393 0.811 2.34863998529e-38
0.0735441355497 -0.129077462393 0.811 2.34889179862e-38
0.0750450362752 -0.129077462393 0.811 2.3487146745e-38
0.0765459370007 -0.129077462393 0.811 2.34899997886e-38
0.0780468377262 -0.129077462393 0.811 2.34914347183e-38
0.0795477384517 -0.129077462393 0.811 2.34885522473e-38
0.0810486391772 -0.129077462393 0.811 2.34839083442e-38
0.0827531146003 -0.129395779193 0.813 2.34878642098e-38
0.084257716684 -0.129395779193 0.813 2.34889235914e-38
0.0857623187676 -0.129395779193 0.813 2.34871257255e-38
0.0874815996233 -0.129714095993 0.815 2.34864152672e-38
0.0889899030651 -0.129714095993 0.815 2.34864152672e-38
0.0909423694836 -0.130350729593 0.819 2.34867683944e-38
0.0924580756417 -0.130350729593 0.819 2.34860537322e-38
0.0939737817998 -0.130350729593 0.819 2.34871369359e-38
0.0957226735206 -0.130669046393 0.821 2.34842740831e-38
0.0972420810368 -0.130669046393 0.821 2.34997612337e-38
0.098761488553 -0.130669046393 0.821 2.35008304245e-38
0.026270389394 -0.13135194697 0.835 2.34921774065e-38
0.0276824575241 -0.130722716086 0.831 2.34994039026e-38
0.029220371831 -0.130722716086 0.831 1.59288847452e-38
0.0307582861379 -0.130722716086 0.831 1.82200834045e-38
0.0322184719239 -0.130408100644 0.829 1.77727973425e-38
0.0336712549936 -0.130093485203 0.827 1.80486639647e-38
0.035116635347 -0.129778869761 0.825 1.79554117558e-38
0.0365546129841 -0.129464254319 0.823 1.81398044168e-38
0.037985187905 -0.129149638877 0.821 1.83249019309e-38
0.039312124798 -0.128520407993 0.817 1.87855073349e-38
0.0408241295979 -0.128520407993 0.817 1.94287285534e-38
0.0422324963699 -0.128205792551 0.815 1.93354791471e-38
0.0436334604256 -0.12789117711 0.813 1.92439841664e-38
0.0451380625093 -0.12789117711 0.813 1.98897039001e-38
0.0466426645929 -0.12789117711 0.813 2.02588423493e-38
0.0481472666766 -0.12789117711 0.813 2.03517568453e-38
0.0496518687602 -0.12789117711 0.813 2.02592080882e-38
0.0510306246671 -0.127576561668 0.811 2.02606542283e-38
0.0525315253926 -0.127576561668 0.811 2.04443252206e-38
0.0540324261181 -0.127576561668 0.811 2.13652025194e-38
0.0555333268436 -0.127576561668 0.811 2.14577484739e-38
0.0570342275691 -0.127576561668 0.811 2.1457035213e-38
0.0585351282946 -0.127576561668 0.811 2.2102404622e-38
0.0600360290201 -0.127576561668 0.811 2.22885713269e-38
0.0615369297456 -0.127576561668 0.811 2.2931086291e-38
0.0628823734293 -0.127261946226 0.809 2.31144209716e-38
0.0643795727966 -0.127261946226 0.809 2.29307149469e-38
0.065876772164 -0.127261946226 0.809 2.34838915286e-38
0.0675405326476 -0.127576561668 0.811 2.29332218698e-38
0.0690414333731 -0.127576561668 0.811 2.34860467257e-38
0.0705423340987 -0.127576561668 0.811 2.34853320635e-38
0.0720432348242 -0.127576561668 0.811 2.34856837894e-38
0.0735441355497 -0.127576561668 0.811 2.34867655918e-38
0.0750450362752 -0.127576561668 0.811 2.3484226439e-38
0.0765459370007 -0.127576561668 0.811 2.34856949998e-38
0.0780468377262 -0.127576561668 0.811 2.3485001357e-38
0.0795477384517 -0.127576561668 0.811 2.34885760694e-38
0.0810486391772 -0.127576561668 0.811 2.34846103947e-38
0.0827531146003 -0.12789117711 0.813 2.34853306622e-38
0.084257716684 -0.12789117711 0.813 2.34821006692e-38
0.0857623187676 -0.12789117711 0.813 2.34835454079e-38
0.0874815996233 -0.128205792551 0.815 2.34857146179e-38
0.0889899030651 -0.128205792551 0.815 2.34867950191e-38
0.0909423694836 -0.128835023435 0.819 2.34885718655e-38
0.0924580756417 -0.128835023435 0.819 2.34867950191e-38
0.0942032660044 -0.129149638877 0.821 2.34871271268e-38
0.0957226735206 -0.129149638877 0.821 2.34838985351e-38
0.0972420810368 -0.129149638877 0.821 2.35011793478e-38
0.098761488553 -0.129149638877 0.821 2.35012115777e-38
0.026270389394 -0.129806629947 0.835 2.34925291324e-38
0.0278157064172 -0.129806629947 0.835 2.34997416156e-38
0.0293610234403 -0.129806629947 0.835 1.39938527153e-38
0.0307582861379 -0.129184801779 0.831 1.69279558996e-38
0.0322962004448 -0.129184801779 0.831 1.74984006824e-38
0.0337526848727 -0.128873887696 0.829 1.77713750245e-38
0.0352017665842 -0.128562973612 0.827 1.75884341087e-38
0.0365546129841 -0.127941145444 0.823 1.86940543932e-38
0.037985187905 -0.127630231361 0.821 1.84181695541e-38
0.0394083601096 -0.127319317277 0.819 1.89695454674e-38
0.0408241295979 -0.127008403193 0.817 1.97971537417e-38
0.0422324963699 -0.12669748911 0.815 1.87840752078e-38
0.0437407998117 -0.12669748911 0.815 1.99836553569e-38
0.0451380625093 -0.126386575026 0.813 1.92468386114e-38
0.0466426645929 -0.126386575026 0.813 1.98915045686e-38
0.0481472666766 -0.126386575026 0.813 2.0535467074e-38
0.0496518687602 -0.126386575026 0.813 1.98918703075e-38
0.0511564708438 -0.126386575026 0.813 1.98936723773e-38
0.0525315253926 -0.126075660942 0.811 2.03532057879e-38
0.0540324261181 -0.126075660942 0.811 2.12740858893e-38
0.0555333268436 -0.126075660942 0.811 2.11822405841e-38
0.0570342275691 -0.126075660942 0.811 2.17343451726e-38
0.0585351282946 -0.126075660942 0.811 2.1366984971e-38
0.0600360290201 -0.126075660942 0.811 2.16428628036e-38
0.0613851740619 -0.125764746859 0.809 2.21931653222e-38
0.0628823734293 -0.125764746859 0.809 2.33924371857e-38
0.0643795727966 -0.125764746859 0.809 2.19180049545e-38
0.065876772164 -0.125764746859 0.809 2.26530672743e-38
0.0673739715314 -0.125764746859 0.809 2.3485311044e-38
0.0688711708987 -0.125764746859 0.809 2.23811312943e-38
0.0705423340987 -0.126075660942 0.811 2.3116549544e-38
0.0720432348242 -0.126075660942 0.811 2.34860509296e-38
0.0735441355497 -0.126075660942 0.811 2.3481733529e-38
0.0750450362752 -0.126075660942 0.811 2.34828153314e-38
0.0765459370007 -0.126075660942 0.811 2.34845991844e-38
0.0780468377262 -0.126075660942 0.811 2.34860453244e-38
0.0795477384517 -0.126075660942 0.811 2.34863970503e-38
0.0810486391772 -0.126075660942 0.811 2.34863886425e-38
0.0827531146003 -0.126386575026 0.813 2.34878445916e-38
0.084257716684 -0.126386575026 0.813 2.34842684779e-38
0.0857623187676 -0.126386575026 0.813 2.34838943312e-38
0.0874815996233 -0.12669748911 0.815 2.34878544007e-38
0.0889899030651 -0.12669748911 0.815 2.34889249927e-38
0.0909423694836 -0.127319317277 0.819 2.34860537322e-38
0.0924580756417 -0.127319317277 0.819 2.34875012735e-38
0.0942032660044 -0.127630231361 0.821 2.3487494267e-38
0.0957226735206 -0.127630231361 0.821 2.34867697957e-38
0.0972420810368 -0.127630231361 0.821 2.35022457359e-38
0.098761488553 -0.127630231361 0.821 2.35022625515e-38
0.026270389394 -0.128261312924 0.835 2.34932634128e-38
0.0278157064172 -0.128261312924 0.835 2.34986458002e-38
0.0293610234403 -0.128261312924 0.835 1.67582726686e-38
0.0309063404635 -0.128261312924 0.835 9.10141390761e-39
0.0323739289658 -0.127954100198 0.833 1.63073978812e-38
0.0338341147517 -0.127646887472 0.831 1.79539459976e-38
0.0352868978214 -0.127339674747 0.829 1.88761727468e-38
0.0366434455795 -0.126725249296 0.825 1.83241732557e-38
0.037985187905 -0.126110823845 0.821 1.89713433333e-38
0.0395045954212 -0.126110823845 0.821 1.86926054506e-38
0.0408241295979 -0.125496398393 0.817 1.97964530925e-38
0.0423361343978 -0.125496398393 0.817 1.92450911922e-38
0.0437407998117 -0.125189185668 0.815 1.99847693892e-38
0.0452491032535 -0.125189185668 0.815 1.93386937257e-38
0.0466426645929 -0.124881972942 0.813 2.00751643505e-38
0.0481472666766 -0.124881972942 0.813 2.01666621338e-38
0.0496518687602 -0.124881972942 0.813 2.07212652374e-38
0.0511564708438 -0.124881972942 0.813 2.01666593312e-38
0.0525315253926 -0.124574760217 0.811 2.0811675613e-38
0.0540324261181 -0.124574760217 0.811 1.9982993944e-38
0.0555333268436 -0.124574760217 0.811 2.13662815192e-38
0.0570342275691 -0.124574760217 0.811 2.04436035519e-38
0.0585351282946 -0.124574760217 0.811 2.15492000143e-38
0.0600360290201 -0.124574760217 0.811 2.15492280402e-38
0.0613851740619 -0.124267547491 0.809 2.16399943457e-38
0.0628823734293 -0.124267547491 0.809 2.31151272261e-38
0.0643795727966 -0.124267547491 0.809 2.24711773324e-38
0.065876772164 -0.124267547491 0.809 2.29325478452e-38
0.0673739715314 -0.124267547491 0.809 2.20094999351e-38
0.0688711708987 -0.124267547491 0.809 2.27481369673e-38
0.0705423340987 -0.124574760217 0.811 2.27488376166e-38
0.0720432348242 -0.124574760217 0.811 2.22857168819e-38
0.0735441355497 -0.124574760217 0.811 2.34856949998e-38
0.0750450362752 -0.124574760217 0.811 2.31161810025e-38
0.0765459370007 -0.124574760217 0.811 2.33009295933e-38
0.0782393083494 -0.124881972942 0.813 2.32090968998e-38
0.0797439104331 -0.124881972942 0.813 2.31158278753e-38
0.0812485125167 -0.124881972942 0.813 2.32076325429e-38
0.0827531146003 -0.124881972942 0.813 2.3486771197e-38
0.084257716684 -0.124881972942 0.813 2.34853432738e-38
0.0859732961816 -0.125189185668 0.815 2.3486381636e-38
0.0874815996233 -0.125189185668 0.815 2.34885620564e-38
0.0889899030651 -0.125189185668 0.815 2.34871033047e-38
0.0909423694836 -0.125803611119 0.819 2.34871481463e-38
0.0924580756417 -0.125803611119 0.819 2.34864362866e-38
0.0942032660044 -0.126110823845 0.821 2.3490025012e-38
0.0959558590834 -0.12641803657 0.823 2.24704584662e-38
0.0263333124823 -0.127019507268 0.837 2.34922068337e-38
0.0278823308637 -0.127019507268 0.837 2.35004660869e-38
0.0293610234403 -0.1267159959 0.835 1.46392221244e-38
0.0309063404635 -0.1267159959 0.835 2.75506488474e-39
0.0324516574867 -0.1267159959 0.835 1.77850516976e-38
0.0339155446308 -0.126412484533 0.833 1.74944153896e-38
0.0353720290586 -0.126108973166 0.831 1.9244710039e-38
0.0367322781748 -0.125501950431 0.827 1.77724498205e-38
0.0380777218585 -0.124894927696 0.823 1.93376273376e-38
0.0395045954212 -0.124591416328 0.821 2.00751671531e-38
0.0409240662676 -0.124287904961 0.819 1.90617242817e-38
0.0423361343978 -0.123984393594 0.817 1.96141918064e-38
0.0438481391977 -0.123984393594 0.817 1.98911332245e-38
0.0452491032535 -0.123680882226 0.815 1.97993061362e-38
0.0466426645929 -0.123377370859 0.813 2.04436007493e-38
0.0481472666766 -0.123377370859 0.813 2.03510730117e-38
0.0496518687602 -0.123377370859 0.813 2.02584920247e-38
0.0511564708438 -0.123377370859 0.813 2.21002466224e-38
0.0525315253926 -0.123073859491 0.811 2.03506652338e-38
0.0540324261181 -0.123073859491 0.811 2.09957039364e-38
0.0555333268436 -0.123073859491 0.811 2.14588302763e-38
0.0570342275691 -0.123073859491 0.811 2.09967731272e-38
0.0585351282946 -0.123073859491 0.811 2.20080509925e-38
0.0600360290201 -0.123073859491 0.811 2.15477987158e-38
0.0615369297456 -0.123073859491 0.811 2.19165826365e-38
0.0628823734293 -0.122770348124 0.809 2.19158581652e-38
0.0643795727966 -0.122770348124 0.809 2.17325459053e-38
0.065876772164 -0.122770348124 0.809 2.18251086754e-38
0.0673739715314 -0.122770348124 0.809 2.21020514948e-38
0.0688711708987 -0.122770348124 0.809 2.20091313936e-38
0.0705423340987 -0.123073859491 0.811 2.24711773324e-38
0.0720432348242 -0.123073859491 0.811 2.24715304596e-38
0.0735441355497 -0.123073859491 0.811 2.30239699584e-38
0.0750450362752 -0.123073859491 0.811 2.24708087909e-38
0.0767347062658 -0.123377370859 0.813 2.2655572796e-38
0.0782393083494 -0.123377370859 0.813 2.32991429378e-38
0.0797439104331 -0.123377370859 0.813 2.28378312794e-38
0.0814483858562 -0.123680882226 0.815 2.34874970696e-38
0.082956689298 -0.123680882226 0.815 2.34839013377e-38
0.0844649927398 -0.123680882226 0.815 2.34853474777e-38
0.0859732961816 -0.123680882226 0.815 2.34878600059e-38
0.0876962783954 -0.123984393594 0.817 2.33931378349e-38
0.0892082831954 -0.123984393594 0.817 2.34871397385e-38
0.0909423694836 -0.124287904961 0.819 2.34896508653e-38
0.0926838584882 -0.124591416328 0.821 2.34871369359e-38
0.0942032660044 -0.124591416328 0.821 2.34910970053e-38
0.0263962355707 -0.125770298896 0.839 2.34932620115e-38
0.0279489553102 -0.125770298896 0.839 2.35022723606e-38
0.029431349245 -0.125470488886 0.837 1.2979678366e-38
0.0309803676263 -0.125470488886 0.837 6.16661007405e-39
0.0325293860076 -0.125470488886 0.837 1.52049361235e-38
0.0339969745099 -0.125170678877 0.835 1.78689390288e-38
0.0354571602958 -0.124870868868 0.833 1.83256053828e-38
0.0368211107702 -0.124271248849 0.829 1.83259739243e-38
0.038170255812 -0.123671628831 0.825 1.86922579286e-38
0.0396008307328 -0.123371818821 0.823 1.89666531874e-38
0.0410240029374 -0.123072008812 0.821 1.95209241832e-38
0.0425434104536 -0.123072008812 0.821 1.92457666181e-38
0.0438481391977 -0.122472388794 0.817 1.97060413156e-38
0.0453601439976 -0.122472388794 0.817 1.99833442687e-38
0.0467574066952 -0.122172578784 0.815 2.0258854961e-38
0.048265710137 -0.122172578784 0.815 2.04421700235e-38
0.0496518687602 -0.121872768775 0.813 2.02581360949e-38
0.0511564708438 -0.121872768775 0.813 2.09031551793e-38
0.0526610729275 -0.121872768775 0.813 2.14573981493e-38
0.0541656750111 -0.121872768775 0.813 2.02581417001e-38
0.0556702770948 -0.121872768775 0.813 2.1181521718e-38
0.0570342275691 -0.121572958766 0.811 2.15499314921e-38
0.0585351282946 -0.121572958766 0.811 2.16410705429e-38
0.0600360290201 -0.121572958766 0.811 2.09978717451e-38
0.0615369297456 -0.121572958766 0.811 2.1733243752e-38
0.0630378304711 -0.121572958766 0.811 2.33909700262e-38
0.0643795727966 -0.121273148756 0.809 2.2007682451e-38
0.065876772164 -0.121273148756 0.809 2.23779153144e-38
0.0673739715314 -0.121273148756 0.809 2.25637274907e-38
0.0688711708987 -0.121273148756 0.809 2.28388850559e-38
0.0705423340987 -0.121572958766 0.811 2.21938687741e-38
0.0720432348242 -0.121572958766 0.811 2.24704612688e-38
0.0735441355497 -0.121572958766 0.811 2.29307205521e-38
0.0752301041821 -0.121872768775 0.813 2.3022925991e-38
0.0767347062658 -0.121872768775 0.813 2.28381844067e-38
0.0782393083494 -0.121872768775 0.813 2.32062256392e-38
0.0799400824144 -0.122172578784 0.815 2.28396137311e-38
0.0814483858562 -0.122172578784 0.815 2.34835243884e-38
0.082956689298 -0.122172578784 0.815 2.34828503639e-38
0.0846722687956 -0.122472388794 0.817 2.32080263078e-38
0.0861842735955 -0.122472388794 0.817 2.34878375851e-38
0.0879109571675 -0.122772198803 0.819 2.29307205521e-38
0.0894266633256 -0.122772198803 0.819 2.34875012735e-38
0.091164450972 -0.123072008812 0.821 2.34864348853e-38
0.0926838584882 -0.123072008812 0.821 2.3488578872e-38
0.0942032660044 -0.123072008812 0.821 2.34893005407e-38
0.0280155797567 -0.124513687807 0.841 2.35008416349e-38
0.0295016750496 -0.124217579156 0.839 9.93939879707e-39
0.0309803676263 -0.123921470505 0.837 8.84241611635e-39
0.0325293860076 -0.123921470505 0.837 5.62887019615e-39
0.0340784043889 -0.123921470505 0.837 1.89828339807e-38
0.0354571602958 -0.123329253203 0.833 1.75891319554e-38
0.0369099433655 -0.123033144552 0.831 1.87851542077e-38
0.0382627897654 -0.122440927249 0.827 1.90621348621e-38
0.0396970660444 -0.122144818598 0.825 1.89688223974e-38
0.0411239396072 -0.121848709947 0.823 2.02592080882e-38
0.0425434104536 -0.121552601296 0.821 1.94287285534e-38
0.0439554785838 -0.121256492645 0.819 2.04421700235e-38
0.0454711847418 -0.121256492645 0.819 2.04436007493e-38
0.0469868908999 -0.121256492645 0.819 2.00748168285e-38
0.0483841535975 -0.120960383994 0.817 2.06265528755e-38
0.0498961583974 -0.120960383994 0.817 2.04410601952e-38
0.0512823170206 -0.120664275343 0.815 2.09971136427e-38
0.0526610729275 -0.120368166691 0.813 2.11807888389e-38
0.0541656750111 -0.120368166691 0.813 2.09978493244e-38
0.0556702770948 -0.120368166691 0.813 2.11811685908e-38
0.0571748791784 -0.120368166691 0.813 2.13641179144e-38
0.0586794812621 -0.120368166691 0.813 2.20091369988e-38
0.0600360290201 -0.12007205804 0.811 2.15492280402e-38
0.0615369297456 -0.12007205804 0.811 2.24711773324e-38
0.0630378304711 -0.12007205804 0.811 2.24683074731e-38
0.0645387311966 -0.12007205804 0.811 2.20087838716e-38
0.0660396319221 -0.12007205804 0.811 2.21935184494e-38
0.0675405326476 -0.12007205804 0.811 2.25612065548e-38
0.0692116958476 -0.120368166691 0.813 2.31147740988e-38
0.0707162979312 -0.120368166691 0.813 2.1548499365e-38
0.0722209000148 -0.120368166691 0.813 2.34867403684e-38
0.0737255020985 -0.120368166691 0.813 2.26552098597e-38
0.0752301041821 -0.120368166691 0.813 2.20073321264e-38
0.0769234755309 -0.120664275343 0.815 2.32048089265e-38
0.0784317789727 -0.120664275343 0.815 2.34835355988e-38
0.0799400824144 -0.120664275343 0.815 2.26559231206e-38
0.0816482591957 -0.120960383994 0.817 2.34849747323e-38
0.0831602639957 -0.120960383994 0.817 2.3484611796e-38
0.0846722687956 -0.120960383994 0.817 2.34860411205e-38
0.0863952510095 -0.121256492645 0.819 2.34860397192e-38
0.0879109571675 -0.121256492645 0.819 2.34896620757e-38
0.0896450434558 -0.121552601296 0.821 2.34889151836e-38
0.091164450972 -0.121552601296 0.821 2.34889376044e-38
0.0931354241812 -0.122144818598 0.825 2.34911166235e-38
0.0946622344137 -0.122144818598 0.825 1.91561045358e-38
0.0281488286497 -0.123542081296 0.845 2.35026423034e-38
0.0295720008543 -0.12295726671 0.841 6.98990094781e-39
0.0310543947891 -0.122664859417 0.839 8.57052077401e-39
0.0326071145285 -0.122664859417 0.839 6.82990629434e-39
0.0340784043889 -0.122372452124 0.837 1.20756727007e-38
0.035542291533 -0.122080044831 0.835 1.87916982715e-38
0.0369099433655 -0.121495230245 0.831 1.92475518723e-38
0.0383553237189 -0.121202822952 0.829 1.89695384609e-38
0.0397933013561 -0.120910415659 0.827 1.90617214791e-38
0.0411239396072 -0.120325601073 0.823 1.96134757429e-38
0.0426470484815 -0.120325601073 0.823 1.94283726236e-38
0.0440628179698 -0.12003319378 0.821 1.98900794481e-38
0.0454711847418 -0.119740786487 0.819 1.95230793803e-38
0.0469868908999 -0.119740786487 0.819 2.09960598662e-38
0.0485025970579 -0.119740786487 0.819 2.05354516597e-38
0.0498961583974 -0.119448379194 0.817 2.14573855376e-38
0.0514081631973 -0.119448379194 0.817 2.0997476579e-38
0.0527906204624 -0.119155971901 0.815 2.10889701583e-38
0.0542989239041 -0.119155971901 0.815 2.19194552984e-38
0.0556702770948 -0.118863564608 0.813 2.10893386998e-38
0.0571748791784 -0.118863564608 0.813 2.1825792509e-38
0.0586794812621 -0.118863564608 0.813 2.21002508263e-38
0.0601840833457 -0.118863564608 0.813 2.18261638531e-38
0.0616886854293 -0.118863564608 0.813 2.19172846871e-38
0.063193287513 -0.118863564608 0.813 2.24700927274e-38
0.0646978895966 -0.118863564608 0.813 2.18247415352e-38
0.0662024916803 -0.118863564608 0.813 2.33909854404e-38
0.0677070937639 -0.118863564608 0.813 2.20995277563e-38
0.0692116958476 -0.118863564608 0.813 2.32058781172e-38
0.0707162979312 -0.118863564608 0.813 2.22871490089e-38
0.0723985652055 -0.119155971901 0.815 2.24704584662e-38
0.0739068686473 -0.119155971901 0.815 2.31144111625e-38
0.0754151720891 -0.119155971901 0.815 2.32984240717e-38
0.077112244796 -0.119448379194 0.817 2.33899162497e-38
0.0786242495959 -0.119448379194 0.817 2.31158306779e-38
0.0803324263772 -0.119740786487 0.819 2.34863942477e-38
0.0818481325353 -0.119740786487 0.819 2.34856879933e-38
0.0833638386933 -0.119740786487 0.819 2.26537707262e-38
0.0848795448514 -0.119740786487 0.819 2.34842390507e-38
0.0866062284234 -0.12003319378 0.821 2.3486034114e-38
0.0883403147117 -0.120325601073 0.823 2.34882103305e-38
0.0900818037162 -0.120618008366 0.825 2.34842362481e-38
0.0918306954371 -0.120910415659 0.827 2.34900124003e-38
0.0938127727207 -0.121495230245 0.831 2.34907410755e-38
0.0953506870276 -0.121495230245 0.831 1.04965144288e-38
0.0266479279242 -0.122266963417 0.847 2.34911026105e-38
0.0281488286497 -0.121978257482 0.845 2.35055163665e-38
0.0295720008543 -0.121400845612 0.841 3.76525534248e-39
0.0311284219519 -0.121400845612 0.841 7.37809145099e-39
0.0326071145285 -0.121112139677 0.839 9.22518919967e-39
0.034159834268 -0.121112139677 0.839 5.81218245606e-39
0.0356274227702 -0.120823433743 0.837 1.61261819638e-38
0.0369987759609 -0.120246021873 0.833 1.84217961146e-38
0.0383553237189 -0.119668610003 0.829 1.89702447153e-38
0.0397933013561 -0.119379904068 0.827 1.90620886193e-38
0.0411239396072 -0.118802492198 0.823 2.04432266026e-38
0.0426470484815 -0.118802492198 0.823 1.98922080204e-38
0.0440628179698 -0.118513786264 0.821 1.84160157584e-38
0.045582225486 -0.118513786264 0.821 2.00737448352e-38
0.0469868908999 -0.118225080329 0.819 2.0349252725e-38
0.0485025970579 -0.118225080329 0.819 2.03506652338e-38
0.050018303216 -0.118225080329 0.819 2.11815189154e-38
0.0514081631973 -0.117936374394 0.817 2.08127616193e-38
0.0529201679972 -0.117936374394 0.817 2.09042243701e-38
0.0542989239041 -0.117647668459 0.815 2.1457045022e-38
0.0558072273459 -0.117647668459 0.815 2.10893260881e-38
0.0573155307877 -0.117647668459 0.815 2.2009837648e-38
0.0588238342295 -0.117647668459 0.815 2.23771964483e-38
0.0601840833457 -0.117358962524 0.813 2.19172902923e-38
0.0616886854293 -0.117358962524 0.813 2.15495783648e-38
0.063193287513 -0.117358962524 0.813 2.28381241508e-38
0.0646978895966 -0.117358962524 0.813 2.22846603029e-38
0.0662024916803 -0.117358962524 0.813 2.26537735288e-38
0.0677070937639 -0.117358962524 0.813 2.2560503103e-38
0.069381958322 -0.117647668459 0.815 2.2931086291e-38
0.0708902617637 -0.117647668459 0.815 2.22860924299e-38
0.0723985652055 -0.117647668459 0.815 2.22864203337e-38
0.0740882351961 -0.117936374394 0.817 2.32087297596e-38
0.0756002399961 -0.117936374394 0.817 2.26548301078e-38
0.077112244796 -0.117936374394 0.817 2.33005764661e-38
0.0788167202191 -0.118225080329 0.819 2.33005792687e-38
0.0803324263772 -0.118225080329 0.819 2.31172529958e-38
0.0818481325353 -0.118225080329 0.819 2.34849677259e-38
0.083567413391 -0.118513786264 0.821 2.34853236557e-38
0.0850868209072 -0.118513786264 0.821 2.34871257255e-38
0.0868172058373 -0.118802492198 0.823 2.34863942477e-38
0.0883403147117 -0.118802492198 0.823 2.34860453244e-38
0.0905185639767 -0.119668610003 0.829 2.34900067951e-38
0.0920527769254 -0.119668610003 0.829 2.34932325842e-38
0.0938127727207 -0.119957315938 0.831 1.91582919627e-38
0.0955801712322 -0.120246021873 0.833 1.10636661602e-38
0.09735497246 -0.120534727808 0.835 2.3509795932e-38
0.0266479279242 -0.120699438245 0.847 2.34968633485e-38
0.0282154530962 -0.120699438245 0.847 2.35055149652e-38
0.0297126524636 -0.120414433668 0.845 3.85709083864e-39
0.0312024491147 -0.120129429091 0.843 6.91748184317e-39
0.0326848430495 -0.119844424515 0.841 8.117755635e-39
0.0342412641471 -0.119844424515 0.841 9.59287870632e-39
0.0356274227702 -0.119274415361 0.837 7.10254292356e-39
0.0370876085562 -0.118989410784 0.835 1.71417632167e-38
0.0384478576724 -0.118419401631 0.831 1.8977811727e-38
0.0397933013561 -0.117849392478 0.827 1.94319459346e-38
0.0412238762769 -0.117564387901 0.825 1.89688195948e-38
0.0427506865094 -0.117564387901 0.825 1.99833498739e-38
0.0441701573558 -0.117279383324 0.823 1.96167127424e-38
0.045582225486 -0.116994378747 0.821 2.09971402674e-38
0.0471016330022 -0.116994378747 0.821 2.08120133259e-38
0.0486210405184 -0.116994378747 0.821 2.05361495063e-38
0.050018303216 -0.116709374171 0.819 2.0167362783e-38
0.0515340093741 -0.116709374171 0.819 2.12729718571e-38
0.0529201679972 -0.116424369594 0.817 2.09045802999e-38
0.0544321727972 -0.116424369594 0.817 2.13655780674e-38
0.0559441775971 -0.116424369594 0.817 2.2101695565e-38
0.057456182397 -0.116424369594 0.817 2.14566792831e-38
0.0589681871969 -0.116424369594 0.817 2.22850134301e-38
0.0603321376713 -0.116139365017 0.815 2.13644864559e-38
0.0618404411131 -0.116139365017 0.815 2.19201713619e-38
0.0633487445548 -0.116139365017 0.815 2.2378613161e-38
0.0648570479966 -0.116139365017 0.815 2.32987898106e-38
0.0663653514384 -0.116139365017 0.815 2.18236415159e-38
0.0678736548802 -0.116139365017 0.815 2.32062102249e-38
0.069381958322 -0.116139365017 0.815 2.33009267907e-38
0.0708902617637 -0.116139365017 0.815 2.22860672065e-38
0.0725762303962 -0.116424369594 0.817 2.33934937647e-38
0.0740882351961 -0.116424369594 0.817 2.27491935464e-38
0.0756002399961 -0.116424369594 0.817 2.28392381831e-38
0.0773010140611 -0.116709374171 0.819 2.34867782035e-38
0.0788167202191 -0.116709374171 0.819 2.30214812523e-38
0.0803324263772 -0.116709374171 0.819 2.34860593374e-38
0.0820480058748 -0.116994378747 0.821 2.34846047896e-38
0.083567413391 -0.116994378747 0.821 2.34846145986e-38
0.0850868209072 -0.116994378747 0.821 2.34849747323e-38
0.0868172058373 -0.117279383324 0.823 2.34853334648e-38
0.0885549934838 -0.117564387901 0.825 2.34864110633e-38
0.0905185639767 -0.118134397054 0.829 2.34928892661e-38
0.0922748584138 -0.118419401631 0.831 2.20148907303e-38
0.0938127727207 -0.118419401631 0.831 1.37333527321e-38
0.0953506870276 -0.118419401631 0.831 1.06120220599e-38
0.09735497246 -0.118989410784 0.835 2.35094259893e-38
0.0989002894832 -0.118989410784 0.835 2.35022723606e-38
0.0282820775427 -0.119413216291 0.849 2.35080555194e-38
0.0297829782682 -0.119131913073 0.847 2.8469003809e-39
0.0312764762774 -0.118850609854 0.845 6.46080708144e-39
0.0327625715704 -0.118569306636 0.843 7.65786068939e-39
0.0343226940261 -0.118569306636 0.843 7.66073054865e-39
0.0357976852446 -0.118288003417 0.841 8.67559013287e-39
0.0371764411516 -0.11772539698 0.837 7.47383096467e-39
0.0384478576724 -0.116881487324 0.831 1.51127811313e-38
0.0398895366677 -0.116600184106 0.829 1.98958598042e-38
0.0413238129467 -0.116318880887 0.827 1.96159938762e-38
0.0427506865094 -0.116037577668 0.825 2.08123790648e-38
0.0441701573558 -0.11575627445 0.823 2.09978297062e-38
0.0456932662302 -0.11575627445 0.823 1.97989403973e-38
0.0471016330022 -0.115474971231 0.821 2.13641151118e-38
0.0486210405184 -0.115474971231 0.821 2.04428972974e-38
0.0501404480346 -0.115474971231 0.821 2.10893232855e-38
0.0516598555508 -0.115474971231 0.821 2.13673380983e-38
0.0530497155321 -0.115193668013 0.819 2.06290668049e-38
0.0545654216902 -0.115193668013 0.819 2.26555882103e-38
0.0560811278482 -0.115193668013 0.819 2.09013727277e-38
0.057456182397 -0.114912364794 0.817 2.11815245206e-38
0.0589681871969 -0.114912364794 0.817 2.18251086754e-38
0.0604801919968 -0.114912364794 0.817 2.26552224714e-38
0.0619921967968 -0.114912364794 0.817 2.22875147478e-38
0.0635042015967 -0.114912364794 0.817 2.21045500099e-38
0.0650162063966 -0.114912364794 0.817 2.26555601843e-38
0.0665282111965 -0.114912364794 0.817 2.21920821185e-38
0.0680402159965 -0.114912364794 0.817 2.23779153144e-38
0.0695522207964 -0.114912364794 0.817 2.26562916621e-38
0.0710642255963 -0.114912364794 0.817 2.30246706076e-38
0.0725762303962 -0.114912364794 0.817 2.23782628364e-38
0.074269601745 -0.115193668013 0.819 2.31147712963e-38
0.075785307903 -0.115193668013 0.819 2.34860467257e-38
0.0773010140611 -0.115193668013 0.819 2.34842488597e-38
0.0790091908424 -0.115474971231 0.821 2.34835299936e-38
0.0805285983586 -0.115474971231 0.821 2.3115464939e-38
0.0820480058748 -0.115474971231 0.821 2.34838999364e-38
0.0837709880887 -0.11575627445 0.823 2.34842446558e-38
0.085294096963 -0.11575627445 0.823 2.34867739996e-38
0.0870281832513 -0.116037577668 0.825 2.34914459287e-38
0.0887696722558 -0.116318880887 0.827 2.3491818674e-38
0.0905185639767 -0.116600184106 0.829 2.25669476746e-38
0.0922748584138 -0.116881487324 0.831 1.52066667271e-38
0.0938127727207 -0.116881487324 0.831 1.30058686343e-38
0.0953506870276 -0.116881487324 0.831 1.29122142528e-38
0.0968886013345 -0.116881487324 0.831 2.35098029385e-38
0.0267737741009 -0.118119591622 0.851 2.34939612594e-38
0.0282820775427 -0.117841989761 0.849 2.35051716471e-38
0.0297829782682 -0.117564387901 0.847 2.8469003809e-39
0.0312764762774 -0.11728678604 0.845 7.10829945765e-39
0.0328403000913 -0.11728678604 0.845 7.2926710992e-39
0.0343226940261 -0.11700918418 0.843 7.29482349364e-39
0.0358828164819 -0.11700918418 0.843 7.20227053267e-39
0.0373541063422 -0.11673158232 0.841 8.40116404551e-39
0.0389105274398 -0.11673158232 0.841 7.75113111518e-39
0.0399857719793 -0.115343573017 0.831 1.46538909167e-38
0.0414237496164 -0.115065971157 0.829 1.81484392179e-38
0.0428543245373 -0.114788369296 0.827 2.04457867749e-38
0.0442774967419 -0.114510767436 0.825 1.96138260675e-38
0.0458043069744 -0.114510767436 0.825 2.01695151774e-38
0.0472163751045 -0.114233165575 0.823 2.05350719078e-38
0.0487394839789 -0.114233165575 0.823 2.09939060705e-38
0.0502625928532 -0.114233165575 0.823 2.07216183646e-38
0.0516598555508 -0.113955563715 0.821 2.0538669041e-38
0.053179263067 -0.113955563715 0.821 2.05372397166e-38
0.0545654216902 -0.113677961855 0.819 2.12737327621e-38
0.0560811278482 -0.113677961855 0.819 2.21020486922e-38
0.0575968340063 -0.113677961855 0.819 2.19198084256e-38
0.0591125401644 -0.113677961855 0.819 2.17336361155e-38
0.0606282463224 -0.113677961855 0.819 2.23779153144e-38
0.0621439524805 -0.113677961855 0.819 2.1548874913e-38
0.0636596586385 -0.113677961855 0.819 2.18272568659e-38
0.0651753647966 -0.113677961855 0.819 2.24715178479e-38
0.0666910709547 -0.113677961855 0.819 2.28385221196e-38
0.0682067771127 -0.113677961855 0.819 2.30247280608e-38
0.0697224832708 -0.113677961855 0.819 2.19194524958e-38
0.0712381894288 -0.113677961855 0.819 2.30229133793e-38
0.0727538955869 -0.113677961855 0.819 2.34842432545e-38
0.0744509682938 -0.113955563715 0.821 2.24690571678e-38
0.07597037581 -0.113955563715 0.821 2.32087297596e-38
0.0774897833262 -0.113955563715 0.821 2.33016456569e-38
0.0790091908424 -0.113955563715 0.821 2.29317841376e-38
0.08072477034 -0.114233165575 0.823 2.34878179669e-38
0.0824477525538 -0.114510767436 0.825 2.34853334648e-38
0.0839745627863 -0.114510767436 0.825 2.34856851907e-38
0.0855013730188 -0.114510767436 0.825 2.34910857949e-38
0.0872391606652 -0.114788369296 0.827 2.34882145344e-38
0.0889843510279 -0.115065971157 0.829 1.97128712443e-38
0.0907369441069 -0.115343573017 0.831 1.51119950028e-38
0.0924969399022 -0.115621174878 0.833 1.34675320186e-38
0.0940385555672 -0.115621174878 0.833 1.08903984077e-38
0.0955801712322 -0.115621174878 0.833 1.82555909063e-38
0.0267737741009 -0.116544663733 0.851 2.3493630553e-38
0.0283487019892 -0.116544663733 0.851 2.35091078945e-38
0.0298533040729 -0.116270763231 0.849 2.75506488474e-39
0.0312764762774 -0.115722962227 0.845 6.92318933182e-39
0.0328403000913 -0.115722962227 0.845 7.65786068939e-39
0.0344041239052 -0.115722962227 0.845 6.92281798772e-39
0.0358828164819 -0.115449061724 0.843 7.11079376892e-39
0.0374429389376 -0.115449061724 0.843 6.83564601285e-39
0.0389105274398 -0.115175161222 0.841 8.58590703115e-39
0.0402744779142 -0.114627360217 0.837 7.38307166573e-39
0.0415236862862 -0.11380565871 0.831 1.1709743225e-38
0.0428543245373 -0.113257857706 0.827 1.70463726264e-38
0.0443848361279 -0.113257857706 0.827 2.01752983362e-38
0.0458043069744 -0.112983957203 0.825 2.01713130434e-38
0.0473311172068 -0.112983957203 0.825 2.04450132581e-38
0.0488579274393 -0.112983957203 0.825 2.12708390808e-38
0.0503847376718 -0.112983957203 0.825 2.0997129057e-38
0.0517857017275 -0.112710056701 0.823 2.09978465218e-38
0.0533088106019 -0.112710056701 0.823 2.08134650711e-38
0.0546986705832 -0.112436156199 0.821 2.1365552844e-38
0.0562180780994 -0.112436156199 0.821 2.18268939296e-38
0.0577374856156 -0.112436156199 0.821 2.15488496896e-38
0.0592568931318 -0.112436156199 0.821 2.21006025522e-38
0.0606282463224 -0.112162255696 0.819 2.17325431027e-38
0.0621439524805 -0.112162255696 0.819 2.25623205871e-38
0.0636596586385 -0.112162255696 0.819 2.21953037037e-38
0.0651753647966 -0.112162255696 0.819 2.2378613161e-38
0.0666910709547 -0.112162255696 0.819 2.31161838051e-38
0.0682067771127 -0.112162255696 0.819 2.21023990168e-38
0.0697224832708 -0.112162255696 0.819 2.34846047896e-38
0.0712381894288 -0.112162255696 0.819 2.26527015354e-38
0.0729315607776 -0.112436156199 0.821 2.31126076914e-38
0.0744509682938 -0.112436156199 0.821 2.32073242572e-38
0.07597037581 -0.112436156199 0.821 2.33941972165e-38
0.0774897833262 -0.112436156199 0.821 2.3209450027e-38
0.0792016614656 -0.112710056701 0.823 2.34860565348e-38
0.08072477034 -0.112710056701 0.823 2.34845991844e-38
0.0824477525538 -0.112983957203 0.825 2.34889235914e-38
0.0839745627863 -0.112983957203 0.825 2.34878544007e-38
0.0855013730188 -0.112983957203 0.825 2.33031058099e-38
0.0872391606652 -0.113257857706 0.827 1.70460166966e-38
0.0889843510279 -0.113531758208 0.829 1.39267094994e-38
0.0907369441069 -0.11380565871 0.831 1.35636723036e-38
0.0924969399022 -0.114079559213 0.833 1.23651473323e-38
0.0940385555672 -0.114079559213 0.833 9.69223216874e-39
0.0955801712322 -0.114079559213 0.833 2.35049698601e-38
0.0268681587335 -0.115375034561 0.854 2.34932718206e-38
0.0283487019892 -0.114969735845 0.851 2.35065869586e-38
0.0298533040729 -0.114699536701 0.849 3.03057137321e-39
0.0313505034402 -0.114429337557 0.847 7.56675386844e-39
0.0329180286122 -0.114429337557 0.847 8.02663760365e-39
0.0344041239052 -0.114159138413 0.845 7.75292477721e-39
0.0359679477191 -0.114159138413 0.845 7.11115250133e-39
0.0374429389376 -0.113888939268 0.843 7.02039320239e-39
0.0390030613933 -0.113888939268 0.843 7.11222869855e-39
0.0404669485374 -0.113618740124 0.841 8.86212537925e-39
0.0418234962955 -0.113078341836 0.837 7.66467660512e-39
0.0429579625652 -0.111997545259 0.829 8.85710312555e-39
0.044492175514 -0.111997545259 0.829 1.28124964528e-38
0.0459153477185 -0.111727346115 0.827 1.82442095602e-38
0.0474458593092 -0.111727346115 0.827 1.94369653857e-38
0.0489763708998 -0.111727346115 0.827 2.12773228888e-38
0.0503847376718 -0.111457146971 0.825 2.07219813009e-38
0.0519115479043 -0.111457146971 0.825 2.05365054362e-38
0.0533088106019 -0.111186947827 0.823 2.20091313936e-38
0.0548319194762 -0.111186947827 0.823 2.09027768288e-38
0.0563550283506 -0.111186947827 0.823 2.22871630219e-38
0.0578781372249 -0.111186947827 0.823 2.14574247739e-38
0.0592568931318 -0.110916748683 0.821 2.18247387326e-38
0.060776300648 -0.110916748683 0.821 2.25637274907e-38
0.0622957081642 -0.110916748683 0.821 2.23800649062e-38
0.0638151156804 -0.110916748683 0.821 2.19187140115e-38
0.0653345231966 -0.110916748683 0.821 2.24718835868e-38
0.0668539307128 -0.110916748683 0.821 2.23789634856e-38
0.068373338229 -0.110916748683 0.821 2.22860644039e-38
0.0698927457452 -0.110916748683 0.821 2.33931434401e-38
0.0714121532614 -0.110916748683 0.821 2.29317869402e-38
0.0729315607776 -0.110916748683 0.821 2.29307177495e-38
0.0746323348426 -0.111186947827 0.823 2.28392381831e-38
0.076155443717 -0.111186947827 0.823 2.32072850209e-38
0.0776785525913 -0.111186947827 0.823 2.34856893946e-38
0.0793941320889 -0.111457146971 0.825 2.3482832147e-38
0.0809209423214 -0.111457146971 0.825 2.34896564705e-38
0.0826476258934 -0.111727346115 0.827 2.25655281593e-38
0.084178137484 -0.111727346115 0.827 1.93458655713e-38
0.0857086490746 -0.111727346115 0.827 1.6127178287e-38
0.0874501380792 -0.111997545259 0.829 1.19009475978e-38
0.0891990298 -0.112267744403 0.831 1.13560330718e-38
0.0909553242371 -0.112537943548 0.833 1.12624039136e-38
0.0927190213905 -0.112808142692 0.835 1.17219401268e-38
0.0942643384137 -0.112808142692 0.835 9.78478512971e-39
0.0254653439987 -0.114594047994 0.86 2.34947081515e-38
0.0270569279986 -0.114594047994 0.86 2.34979353418e-38
0.0285152631055 -0.114061052422 0.856 2.35026296917e-38
0.0299236298775 -0.113394807957 0.851 3.67341984632e-39
0.0313505034402 -0.112861812385 0.847 8.20815760283e-39
0.0329180286122 -0.112861812385 0.847 7.93587830472e-39
0.0344041239052 -0.112595314599 0.845 7.38522406017e-39
0.0359679477191 -0.112595314599 0.845 6.74129938985e-39
0.0375317715329 -0.112595314599 0.845 7.11294616336e-39
0.0390030613933 -0.112328816813 0.843 7.11258743096e-39
0.0404669485374 -0.112062319027 0.841 7.48136434521e-39
0.0418234962955 -0.111529323455 0.837 7.02039320239e-39
0.043165238621 -0.110996327883 0.833 8.40330663086e-39
0.044492175514 -0.110463332311 0.829 8.21927690614e-39
0.0460263884627 -0.110463332311 0.829 9.87123963976e-39
0.0475606014115 -0.110463332311 0.829 1.3458566511e-38
0.0490948143602 -0.110463332311 0.829 1.64013661536e-38
0.0505068824904 -0.110196834524 0.827 1.89789187528e-38
0.052037394081 -0.110196834524 0.827 2.08199222545e-38
0.0535679056716 -0.110196834524 0.827 2.08166978667e-38
0.0549651683692 -0.109930336738 0.825 2.13666346464e-38
0.0564919786017 -0.109930336738 0.825 2.19180077571e-38
0.0580187888342 -0.109930336738 0.825 2.21027493414e-38
0.0594012460992 -0.109663838952 0.823 2.31165313271e-38
0.0609243549736 -0.109663838952 0.823 2.20101907753e-38
0.0624474638479 -0.109663838952 0.823 2.29314646415e-38
0.0639705727222 -0.109663838952 0.823 2.20116257049e-38
0.0654936815966 -0.109663838952 0.823 2.25640834205e-38
0.0668539307128 -0.109397341166 0.821 2.33020394217e-38
0.068373338229 -0.109397341166 0.821 2.26559231206e-38
0.0698927457452 -0.109397341166 0.821 2.30236294428e-38
0.0715861170939 -0.109663838952 0.823 2.3023635048e-38
0.0731092259683 -0.109663838952 0.823 2.30232637039e-38
0.0748137013915 -0.109930336738 0.825 2.33016582685e-38
0.0763405116239 -0.109930336738 0.825 2.34874900631e-38
0.0778673218564 -0.109930336738 0.825 2.25669742993e-38
0.0795866027121 -0.110196834524 0.827 2.17404338144e-38
0.0811171143028 -0.110196834524 0.827 1.77813943086e-38
0.0828474992329 -0.110463332311 0.829 1.50237468308e-38
0.0843817121817 -0.110463332311 0.829 1.33746203252e-38
