# .PCD v0.7 - Point Cloud Data file format
VERSION 0.7
FIELDS x y z rgb
SIZE 4 4 4 4
TYPE F F F F
COUNT 1 1 1 1
WIDTH 844
HEIGHT 1
VIEWPOINT 0 0 0 1 0 0 0
POINTS 844
DATA ascii
-0.00167116319991 -0.076873507196 0.903 7.57606970063e-39
0.0 -0.0767032447216 0.901 7.21123884284e-39
0.00166746184177 -0.0767032447216 0.901 7.21123884284e-39
0.00332381960913 -0.07644785101 0.898 6.8431793934e-39
0.00498572941369 -0.07644785101 0.898 7.39670349719e-39
0.00664763921826 -0.07644785101 0.898 7.39670349719e-39
0.00829104223213 -0.0762775885356 0.896 7.58360308117e-39
0.00994925067855 -0.0762775885356 0.896 7.4910501202e-39
0.011607459125 -0.0762775885356 0.896 8.04170436474e-39
0.0132656675714 -0.0762775885356 0.896 7.4910501202e-39
0.0148905637946 -0.0761073260612 0.894 7.3084553251e-39
0.0165450708829 -0.0761073260612 0.894 7.12370813557e-39
0.0181995779711 -0.0761073260612 0.894 7.21554363173e-39
0.0198540850594 -0.0761073260612 0.894 7.58611420802e-39
0.0215085921477 -0.0761073260612 0.894 8.13748591737e-39
0.023163099236 -0.0761073260612 0.894 8.50518663441e-39
0.0248731266964 -0.0762775885356 0.896 7.95381492506e-39
0.0265313351428 -0.0762775885356 0.896 8.87396354867e-39
0.0281895435892 -0.0762775885356 0.896 9.3352934239e-39
0.0298477520357 -0.0762775885356 0.896 7.95381492506e-39
0.0315059604821 -0.0762775885356 0.896 8.41478606788e-39
0.0332381960913 -0.07644785101 0.898 8.41478606788e-39
0.0349001058959 -0.07644785101 0.898 8.32295057172e-39
0.0365620157004 -0.07644785101 0.898 8.41478606788e-39
0.0383516223608 -0.0767032447216 0.901 9.42641145525e-39
0.0400190842026 -0.0767032447216 0.901 9.79518836951e-39
0.0416865460443 -0.0767032447216 0.901 9.70192915411e-39
0.0433540078861 -0.0767032447216 0.901 8.96651650964e-39
0.0451214063976 -0.076873507196 0.903 9.98065302386e-39
0.0467925695976 -0.076873507196 0.903 1.11755906711e-38
0.0481953843324 -0.07644785101 0.898 1.07103147394e-38
0.0498572941369 -0.07644785101 0.898 1.92624981217e-38
-0.0222544158128 -0.0770345162751 0.925 2.34961304694e-38
-0.0205425376733 -0.0770345162751 0.925 2.34986387937e-38
-0.0187899445944 -0.0768679551588 0.923 2.34990003287e-38
-0.017026247441 -0.0766181134844 0.92 2.35062254236e-38
-0.0152403421387 -0.0762017106937 0.915 4.22443282327e-39
-0.0134729436272 -0.075785307903 0.91 7.0157296811e-39
-0.0117888256738 -0.075785307903 0.91 8.49371140129e-39
-0.0101047077204 -0.075785307903 0.91 6.65305121776e-39
-0.00840208297631 -0.0756187467868 0.908 6.83851587211e-39
-0.00672166638105 -0.0756187467868 0.908 7.02362179405e-39
-0.00503014571137 -0.0754521856705 0.906 7.11617475502e-39
-0.00335343047424 -0.0754521856705 0.906 7.29984574734e-39
-0.00167116319991 -0.0752023439961 0.903 7.39311617313e-39
0.0 -0.0752023439961 0.903 6.8431793934e-39
0.00166746184177 -0.0750357828798 0.901 7.21123884284e-39
0.00332381960913 -0.0747859412054 0.898 7.48710406372e-39
0.00498572941369 -0.0747859412054 0.898 7.85623971039e-39
0.00664763921826 -0.0747859412054 0.898 7.48818026094e-39
0.00829104223213 -0.0746193800891 0.896 7.4910501202e-39
0.00994925067855 -0.0746193800891 0.896 7.39885589164e-39
0.011607459125 -0.0746193800891 0.896 7.67436238011e-39
0.0132656675714 -0.0746193800891 0.896 7.67651477455e-39
0.0149238760178 -0.0746193800891 0.896 7.95417365747e-39
0.0165820844643 -0.0746193800891 0.896 8.138920847e-39
0.0181995779711 -0.0744528189729 0.894 7.95381492506e-39
0.0198540850594 -0.0744528189729 0.894 7.76978520034e-39
0.0215085921477 -0.0744528189729 0.894 7.76978520034e-39
0.02321491825 -0.0746193800891 0.896 8.50590409923e-39
0.0248731266964 -0.0746193800891 0.896 7.8619794289e-39
0.0265313351428 -0.0746193800891 0.896 9.33421722668e-39
0.0281895435892 -0.0746193800891 0.896 9.0583520058e-39
0.0298477520357 -0.0746193800891 0.896 8.50590409923e-39
0.0315059604821 -0.0746193800891 0.896 7.95381492506e-39
0.0332381960913 -0.0747859412054 0.898 8.59917452501e-39
0.0349001058959 -0.0747859412054 0.898 9.24309919534e-39
0.0365620157004 -0.0747859412054 0.898 8.78463917936e-39
0.038436753598 -0.0752023439961 0.903 9.61115864478e-39
0.0401079167979 -0.0752023439961 0.903 9.517888219e-39
0.0417790799978 -0.0752023439961 0.903 1.03483537409e-38
0.0434502431977 -0.0752023439961 0.903 9.42784638488e-39
0.0451214063976 -0.0752023439961 0.903 1.04401892371e-38
0.0469480266394 -0.0754521856705 0.906 1.09000841827e-38
0.0481953843324 -0.0747859412054 0.898 1.0434808251e-38
0.0498572941369 -0.0747859412054 0.898 2.35097623009e-38
-0.0205425376733 -0.0753226381356 0.925 2.3497203864e-38
-0.0188306595339 -0.0753226381356 0.925 2.34989919209e-38
-0.0170817678131 -0.0751597783775 0.923 2.35040562135e-38
-0.0152403421387 -0.074508339345 0.915 4.68361030406e-39
-0.0135173599249 -0.0743454795868 0.913 7.75256604481e-39
-0.0117888256738 -0.0741011899496 0.91 7.75292477721e-39
-0.0101047077204 -0.0741011899496 0.91 6.92963390345e-39
-0.00840208297631 -0.0739383301915 0.908 7.57499350341e-39
-0.00672166638105 -0.0739383301915 0.908 7.02290432924e-39
-0.00503014571137 -0.0737754704334 0.906 7.20765151877e-39
-0.00335343047424 -0.0737754704334 0.906 6.93322122752e-39
-0.00167671523712 -0.0737754704334 0.906 6.84246192858e-39
0.0 -0.0735311807962 0.903 7.57822209507e-39
0.00167116319991 -0.0735311807962 0.903 7.48710406372e-39
0.00333492368355 -0.073368321038 0.901 7.39562729997e-39
0.00498572941369 -0.0731240314008 0.898 7.39562729997e-39
0.00664763921826 -0.0731240314008 0.898 7.58073322192e-39
0.00830954902282 -0.0731240314008 0.898 7.4910501202e-39
0.00994925067855 -0.0729611716427 0.896 7.76691534108e-39
0.011607459125 -0.0729611716427 0.896 7.76691534108e-39
0.0132656675714 -0.0729611716427 0.896 7.76835027071e-39
0.0149238760178 -0.0729611716427 0.896 7.86018576687e-39
0.0165820844643 -0.0729611716427 0.896 7.76978520034e-39
0.0182402929107 -0.0729611716427 0.896 7.8619794289e-39
0.0198985013571 -0.0729611716427 0.896 7.76978520034e-39
0.0215567098035 -0.0729611716427 0.896 8.3215156421e-39
0.02321491825 -0.0729611716427 0.896 7.86126196409e-39
0.0248731266964 -0.0729611716427 0.896 8.23003887835e-39
0.0265313351428 -0.0729611716427 0.896 7.86126196409e-39
0.0281895435892 -0.0729611716427 0.896 8.3215156421e-39
0.0298477520357 -0.0729611716427 0.896 8.23003887835e-39
0.0315762862867 -0.0731240314008 0.898 8.69029255636e-39
0.0332381960913 -0.0731240314008 0.898 8.23003887835e-39
0.0349001058959 -0.0731240314008 0.898 9.15018750196e-39
0.036684160519 -0.073368321038 0.901 9.15126369918e-39
0.038436753598 -0.0735311807962 0.903 9.7948296371e-39
0.0402411656909 -0.0737754704334 0.906 9.79554710191e-39
0.0417790799978 -0.0735311807962 0.903 9.42820511728e-39
0.0434502431977 -0.0735311807962 0.903 9.42856384969e-39
0.0452713114023 -0.0737754704334 0.906 1.03476362761e-38
0.0470516646673 -0.0739383301915 0.908 1.12688610969e-38
0.0487320812626 -0.0739383301915 0.908 9.79016611581e-39
-0.0205425376733 -0.0736107599962 0.925 2.35011737426e-38
-0.0188306595339 -0.0736107599962 0.925 2.34968451316e-38
-0.0170817678131 -0.0734516015962 0.923 2.35069400858e-38
-0.0152903104736 -0.0730537055962 0.918 4.68361030406e-39
-0.0135173599249 -0.0726558095962 0.913 8.21281972282e-39
-0.0118276899343 -0.0726558095962 0.913 7.75651210128e-39
-0.0101047077204 -0.0724170719962 0.91 7.02218686442e-39
-0.008420589767 -0.0724170719962 0.91 7.57427603859e-39
-0.00672166638105 -0.0722579135962 0.908 7.02326306165e-39
-0.00504124978578 -0.0722579135962 0.908 6.93250376271e-39
-0.00335343047424 -0.0720987551962 0.906 7.30128067697e-39
-0.00167671523712 -0.0720987551962 0.906 7.39383363794e-39
0.0 -0.0720987551962 0.906 7.11904461428e-39
0.00167116319991 -0.0718600175963 0.903 8.40940508178e-39
0.00333492368355 -0.0717008591963 0.901 7.02828531534e-39
0.00500238552532 -0.0717008591963 0.901 7.12083827631e-39
0.00664763921826 -0.0714621215963 0.898 7.39598603238e-39
0.00830954902282 -0.0714621215963 0.898 7.76512167905e-39
0.00997145882739 -0.0714621215963 0.898 7.2141087021e-39
0.011633368632 -0.0714621215963 0.898 7.21518489932e-39
0.0132656675714 -0.0713029631963 0.896 7.4910501202e-39
0.0149238760178 -0.0713029631963 0.896 6.84640798506e-39
0.0166190980456 -0.0714621215963 0.898 7.76906773552e-39
0.0182402929107 -0.0713029631963 0.896 7.76906773552e-39
0.0198985013571 -0.0713029631963 0.896 8.044574224e-39
0.0215567098035 -0.0713029631963 0.896 8.04385675918e-39
0.0232667372639 -0.0714621215963 0.898 8.96687524205e-39
0.0249286470685 -0.0714621215963 0.898 7.67687350696e-39
0.026590556873 -0.0714621215963 0.898 8.50698029645e-39
0.0282524666776 -0.0714621215963 0.898 8.32115690969e-39
0.0299143764822 -0.0714621215963 0.898 8.59773959539e-39
0.0315762862867 -0.0714621215963 0.898 8.87575721071e-39
0.0333492368355 -0.0717008591963 0.901 8.59953325742e-39
0.0350166986772 -0.0717008591963 0.901 9.51860568381e-39
0.0367655903981 -0.0718600175963 0.903 9.15018750196e-39
0.0385644504538 -0.0720987551962 0.906 9.33421722668e-39
0.0402411656909 -0.0720987551962 0.906 9.52075807825e-39
0.041917880928 -0.0720987551962 0.906 9.79662329914e-39
0.0435945961652 -0.0720987551962 0.906 9.97957682664e-39
0.0453712480721 -0.0722579135962 0.908 1.08093248837e-38
0.0471553026952 -0.0724170719962 0.91 1.08071724893e-38
0.0488394206486 -0.0724170719962 0.91 9.5125072329e-39
-0.0187899445944 -0.0717434248149 0.923 2.35004548765e-38
-0.0170817678131 -0.0717434248149 0.923 2.35087379517e-38
-0.0152903104736 -0.0713547822102 0.918 3.58158435016e-39
-0.0135173599249 -0.0709661396056 0.913 7.19975940582e-39
-0.0118276899343 -0.0709661396056 0.913 7.11222869855e-39
-0.0101380199437 -0.0709661396056 0.913 7.38881138424e-39
-0.008420589767 -0.0707329540428 0.91 7.48315800725e-39
-0.00672166638105 -0.070577497001 0.908 7.11617475502e-39
-0.00504124978578 -0.070577497001 0.908 7.11725095224e-39
-0.00335343047424 -0.0704220399591 0.906 7.39311617313e-39
-0.00167671523712 -0.0704220399591 0.906 7.20836898359e-39
0.0 -0.0704220399591 0.906 7.02756785053e-39
0.00167671523712 -0.0704220399591 0.906 7.12047954391e-39
0.00334232639983 -0.0701888543963 0.903 7.1201208115e-39
0.00500238552532 -0.0700333973545 0.901 7.21267377247e-39
0.00666984736709 -0.0700333973545 0.901 7.48889772576e-39
0.00830954902282 -0.0698002117917 0.898 7.48818026094e-39
0.00997145882739 -0.0698002117917 0.898 9.33242356465e-39
0.011633368632 -0.0698002117917 0.898 8.04098689993e-39
0.0132952784365 -0.0698002117917 0.898 8.50482790201e-39
0.0149571882411 -0.0698002117917 0.898 7.58432054599e-39
0.0166190980456 -0.0698002117917 0.898 7.67651477455e-39
0.0182810078502 -0.0698002117917 0.898 7.95166253062e-39
0.0199429176548 -0.0698002117917 0.898 8.22716901909e-39
0.0216048274593 -0.0698002117917 0.898 8.13676845256e-39
0.0232667372639 -0.0698002117917 0.898 8.0452986953e-39
0.0249286470685 -0.0698002117917 0.898 8.23003887835e-39
0.026590556873 -0.0698002117917 0.898 8.87396354867e-39
0.0282524666776 -0.0698002117917 0.898 8.68957509154e-39
0.0300143131519 -0.0700333973545 0.901 8.87396354867e-39
0.0316817749937 -0.0700333973545 0.901 8.13784464978e-39
0.0333492368355 -0.0700333973545 0.901 8.04672661844e-39
0.0350944271982 -0.0701888543963 0.903 8.41622099751e-39
0.0368877352167 -0.0704220399591 0.906 9.33565215631e-39
0.0385644504538 -0.0704220399591 0.906 9.33565215631e-39
0.0403299982863 -0.070577497001 0.908 9.0579932734e-39
0.0420104148815 -0.070577497001 0.908 9.79626456673e-39
0.0436908314768 -0.070577497001 0.908 9.61223484201e-39
0.0453712480721 -0.070577497001 0.908 1.08082486865e-38
0.0471553026952 -0.0707329540428 0.91 1.14525320892e-38
0.0490004297277 -0.0709661396056 0.913 9.69725442243e-39
0.0506900997183 -0.0709661396056 0.913 2.35097552944e-38
-0.0187899445944 -0.0700352480336 0.923 2.35025904553e-38
-0.0170817678131 -0.0700352480336 0.923 2.35062282262e-38
-0.0152903104736 -0.0696558588243 0.918 4.40810381558e-39
-0.01354697079 -0.0694282252987 0.915 6.7438105167e-39
-0.0118276899343 -0.069276469615 0.913 6.92999263586e-39
-0.0101380199437 -0.069276469615 0.913 7.29841081771e-39
-0.008420589767 -0.0690488360894 0.91 7.02290432924e-39
-0.0067364718136 -0.0690488360894 0.91 6.65592107701e-39
-0.00504124978578 -0.0688970804057 0.908 7.02541545609e-39
-0.00336083319052 -0.0688970804057 0.908 7.30128067697e-39
-0.00167671523712 -0.068745324722 0.906 7.39383363794e-39
0.0 -0.068745324722 0.906 7.57893955988e-39
0.00167671523712 -0.068745324722 0.906 7.76332801701e-39
0.00334232639983 -0.0685176911964 0.903 7.67185125326e-39
0.00501348959974 -0.0685176911964 0.903 7.39562729997e-39
0.00666984736709 -0.0683659355127 0.901 7.48818026094e-39
0.00833730920887 -0.0683659355127 0.901 7.76548041145e-39
0.0100047710506 -0.0683659355127 0.901 7.94951013618e-39
0.011633368632 -0.0681383019871 0.898 8.04170436474e-39
0.0132952784365 -0.0681383019871 0.898 7.95130379821e-39
0.0149571882411 -0.0681383019871 0.898 7.49140885261e-39
0.0166190980456 -0.0681383019871 0.898 7.86126196409e-39
0.0182810078502 -0.0681383019871 0.898 8.3215156421e-39
0.0199429176548 -0.0681383019871 0.898 7.86126196409e-39
0.0216048274593 -0.0681383019871 0.898 8.044574224e-39
0.0232667372639 -0.0681383019871 0.898 7.58467927839e-39
0.0249286470685 -0.0681383019871 0.898 8.41442733548e-39
0.0266793894684 -0.0683659355127 0.901 8.3215156421e-39
0.0283468513102 -0.0683659355127 0.901 8.50518663441e-39
0.0300809375984 -0.0685176911964 0.903 9.79590583432e-39
0.0317521007983 -0.0685176911964 0.903 8.23039761075e-39
0.0334232639983 -0.0685176911964 0.903 9.15305736122e-39
0.0350944271982 -0.0685176911964 0.903 9.79662329914e-39
0.0368877352167 -0.068745324722 0.906 8.3218743745e-39
0.0385644504538 -0.068745324722 0.906 8.96723397446e-39
0.0403299982863 -0.0688970804057 0.908 9.42569399043e-39
0.0420104148815 -0.0688970804057 0.908 9.79626456673e-39
0.0437870667884 -0.0690488360894 0.91 1.00717710552e-38
0.0454711847418 -0.0690488360894 0.91 1.04394717722e-38
0.0473107597371 -0.069276469615 0.913 1.10841223152e-38
0.0491077691137 -0.0694282252987 0.915 8.96005932632e-39
0.0508011404625 -0.0694282252987 0.915 2.35097665048e-38
-0.0190342342316 -0.0692153972057 0.935 2.35022219138e-38
-0.01726683572 -0.0690673428801 0.933 2.35069470923e-38
-0.0152903104736 -0.0679569354383 0.918 3.85709083864e-39
-0.01354697079 -0.06773485395 0.915 7.66108928105e-39
-0.0118535994412 -0.06773485395 0.915 7.1150985578e-39
-0.0101380199437 -0.0675867996244 0.913 7.02290432924e-39
-0.00844834995305 -0.0675867996244 0.913 6.83851587211e-39
-0.0067364718136 -0.067364718136 0.91 7.30056321215e-39
-0.00504124978578 -0.0672166638105 0.908 7.39275744072e-39
-0.00336083319052 -0.0672166638105 0.908 7.4856691341e-39
-0.00168041659526 -0.0672166638105 0.908 7.48638659891e-39
0.0 -0.0672166638105 0.908 7.48638659891e-39
0.00167671523712 -0.0670686094849 0.906 7.57858082748e-39
0.00335343047424 -0.0670686094849 0.906 7.48710406372e-39
0.00501348959974 -0.0668465279965 0.903 7.67185125326e-39
0.00668465279965 -0.0668465279965 0.903 7.76476294664e-39
0.00835581599956 -0.0668465279965 0.903 7.6736449153e-39
0.0100047710506 -0.0666984736709 0.901 8.04170436474e-39
0.0116722328924 -0.0666984736709 0.901 7.58073322192e-39
0.0132952784365 -0.0664763921826 0.898 7.76870900312e-39
0.0149571882411 -0.0664763921826 0.898 7.67579730974e-39
0.0166190980456 -0.0664763921826 0.898 7.95345619265e-39
0.0182810078502 -0.0664763921826 0.898 8.22932141353e-39
0.0199429176548 -0.0664763921826 0.898 7.86090323168e-39
0.0216770039431 -0.0666984736709 0.901 9.42748765247e-39
0.0233444657848 -0.0666984736709 0.901 8.50518663441e-39
0.0250119276266 -0.0666984736709 0.901 8.50554536682e-39
0.0266793894684 -0.0666984736709 0.901 8.96579904483e-39
0.0283468513102 -0.0666984736709 0.901 9.05763454099e-39
0.0300809375984 -0.0668465279965 0.903 8.23003887835e-39
0.0317521007983 -0.0668465279965 0.903 8.41478606788e-39
0.0335343047424 -0.0670686094849 0.906 8.96866890409e-39
0.0352110199796 -0.0670686094849 0.906 9.33565215631e-39
0.0368877352167 -0.0670686094849 0.906 9.15126369918e-39
0.038649581691 -0.0672166638105 0.908 9.61044117997e-39
0.0403299982863 -0.0672166638105 0.908 9.70407033816e-39
0.042102948835 -0.067364718136 0.91 9.61295230682e-39
0.0439314197559 -0.0675867996244 0.913 9.42820511728e-39
0.0456210897465 -0.0675867996244 0.913 1.12685023645e-38
0.047414397765 -0.06773485395 0.915 1.11759494035e-38
0.0492687781928 -0.0679569354383 0.918 1.0802508968e-38
0.0509677015787 -0.0679569354383 0.918 2.3509744084e-38
-0.018993519292 -0.0673406593081 0.933 2.34975864185e-38
-0.0172113153479 -0.067124129857 0.93 2.35069288754e-38
-0.0153236226969 -0.0664023650198 0.92 4.86728129637e-39
-0.0135913870877 -0.0662580120524 0.918 7.38522406017e-39
-0.0118535994412 -0.0660414826012 0.915 7.29876955012e-39
-0.0101602280925 -0.0660414826012 0.915 6.83851587211e-39
-0.00844834995305 -0.0658971296338 0.913 6.83959206933e-39
-0.00675867996244 -0.0658971296338 0.913 6.84030953414e-39
-0.0050523538602 -0.0656806001826 0.91 7.11760968465e-39
-0.00336083319052 -0.0655362472152 0.908 7.39383363794e-39
-0.00168041659526 -0.0655362472152 0.908 8.31685212081e-39
0.0 -0.0655362472152 0.908 7.303074339e-39
0.00168041659526 -0.0655362472152 0.908 7.67077505604e-39
0.00335343047424 -0.0653918942478 0.906 8.22394042743e-39
0.00501348959974 -0.0651753647966 0.903 7.11868588187e-39
0.00668465279965 -0.0651753647966 0.903 7.8569571752e-39
0.00835581599956 -0.0651753647966 0.903 7.30666166307e-39
0.0100047710506 -0.0650310118292 0.901 8.04421549159e-39
0.0116722328924 -0.0650310118292 0.901 7.4910501202e-39
0.0132952784365 -0.064814482378 0.898 7.86090323168e-39
0.0149571882411 -0.064814482378 0.898 8.04385675918e-39
0.0166746184177 -0.0650310118292 0.901 7.86126196409e-39
0.0183420802595 -0.0650310118292 0.901 8.50554536682e-39
0.0200095421013 -0.0650310118292 0.901 7.76906773552e-39
0.0216770039431 -0.0650310118292 0.901 8.04385675918e-39
0.0233444657848 -0.0650310118292 0.901 8.50554536682e-39
0.0250119276266 -0.0650310118292 0.901 8.23003887835e-39
0.0267386111986 -0.0651753647966 0.903 8.41478606788e-39
0.0284097743985 -0.0651753647966 0.903 8.59738086298e-39
0.0301808742682 -0.0653918942478 0.906 8.96723397446e-39
0.0318575895053 -0.0653918942478 0.906 8.78284551733e-39
0.0335343047424 -0.0653918942478 0.906 9.70407033816e-39
0.0352110199796 -0.0653918942478 0.906 9.33421722668e-39
0.0368877352167 -0.0653918942478 0.906 9.51896441622e-39
0.038649581691 -0.0655362472152 0.908 9.05871073821e-39
0.0404188308816 -0.0656806001826 0.91 9.52111681066e-39
0.042102948835 -0.0656806001826 0.91 9.79662329914e-39
0.0439314197559 -0.0658971296338 0.913 1.04405479695e-38
0.0457210264162 -0.0660414826012 0.915 1.05320247332e-38
0.047414397765 -0.0660414826012 0.915 1.09922784112e-38
0.0492687781928 -0.0662580120524 0.918 9.41959553952e-39
0.0509677015787 -0.0662580120524 0.918 2.35097510905e-38
-0.018993519292 -0.0656139757361 0.933 2.34957759409e-38
-0.0172113153479 -0.0654029983222 0.93 2.35090994867e-38
-0.0154568715899 -0.0652623467129 0.928 3.489748854e-39
-0.0135913870877 -0.0645590886664 0.918 7.1097175717e-39
-0.0118924637017 -0.0645590886664 0.918 7.20621658915e-39
-0.0101935403157 -0.0645590886664 0.918 7.20621658915e-39
-0.00846685674374 -0.0643481112525 0.915 7.57499350341e-39
-0.00675867996244 -0.0642074596432 0.913 7.48387547206e-39
-0.0050523538602 -0.0639964822292 0.91 7.30020447975e-39
-0.0033682359068 -0.0639964822292 0.91 6.65807347145e-39
-0.00168041659526 -0.0638558306199 0.908 7.11904461428e-39
0.0 -0.0638558306199 0.908 7.39598603238e-39
0.00168041659526 -0.0638558306199 0.908 7.21088011044e-39
0.00335343047424 -0.0637151790106 0.906 8.96257045317e-39
0.00503014571137 -0.0637151790106 0.906 7.5796570247e-39
0.00670686094849 -0.0637151790106 0.906 7.95202126302e-39
0.00838357618561 -0.0637151790106 0.906 7.39885589164e-39
0.0100269791995 -0.0635042015967 0.903 7.76835027071e-39
0.0116981423994 -0.0635042015967 0.903 7.67651477455e-39
0.0133396947342 -0.0633635499874 0.901 7.76870900312e-39
0.015007156576 -0.0633635499874 0.901 8.32295057172e-39
0.0166746184177 -0.0633635499874 0.901 7.8619794289e-39
0.0183420802595 -0.0633635499874 0.901 7.95381492506e-39
0.0200095421013 -0.0633635499874 0.901 9.24345792775e-39
0.0217251215989 -0.0635042015967 0.903 7.95273872784e-39
0.0233962847988 -0.0635042015967 0.903 1.03480174293e-38
0.0250674479987 -0.0635042015967 0.903 8.13712718497e-39
0.026827443794 -0.0637151790106 0.906 8.78248678492e-39
0.0285041590311 -0.0637151790106 0.906 8.68957509154e-39
0.0301808742682 -0.0637151790106 0.906 8.87503974589e-39
0.0318575895053 -0.0637151790106 0.906 8.87396354867e-39
0.0335343047424 -0.0637151790106 0.906 8.69065128876e-39
0.0352887485005 -0.0638558306199 0.908 8.87468101349e-39
0.0369691650957 -0.0638558306199 0.908 8.96831017168e-39
0.038649581691 -0.0638558306199 0.908 7.58683167283e-39
0.0404188308816 -0.0639964822292 0.91 9.52147554307e-39
0.042102948835 -0.0639964822292 0.91 9.52075807825e-39
0.0439314197559 -0.0642074596432 0.913 9.97921809423e-39
0.0457210264162 -0.0643481112525 0.915 1.04398305046e-38
0.0475698548068 -0.0645590886664 0.918 1.12695785617e-38
0.0492687781928 -0.0645590886664 0.918 1.08929095345e-38
0.0509677015787 -0.0645590886664 0.918 2.35097749126e-38
-0.0189324468827 -0.0636818667874 0.93 2.34961262655e-38
-0.0172113153479 -0.0636818667874 0.93 2.35094428048e-38
-0.0154568715899 -0.0635449165362 0.928 4.68396903646e-39
-0.0136950251156 -0.0633394911595 0.925 7.38809391943e-39
-0.0118924637017 -0.0628601652804 0.918 6.92999263586e-39
-0.0101935403157 -0.0628601652804 0.918 7.1150985578e-39
-0.00846685674374 -0.0626547399037 0.915 7.11545729021e-39
-0.006773485395 -0.0626547399037 0.915 8.22178803299e-39
-0.00506900997183 -0.0625177896526 0.913 7.76153435498e-39
-0.0033682359068 -0.0623123642758 0.91 6.84102699896e-39
-0.0016841179534 -0.0623123642758 0.91 7.48638659891e-39
0.0 -0.0623123642758 0.91 7.39562729997e-39
0.00168041659526 -0.0621754140247 0.908 7.76440421423e-39
0.00335343047424 -0.0620384637735 0.906 7.48925645817e-39
0.00503014571137 -0.0620384637735 0.906 8.04098689993e-39
0.00670686094849 -0.0620384637735 0.906 7.76404548183e-39
0.00838357618561 -0.0620384637735 0.906 7.85731590761e-39
0.0100602914227 -0.0620384637735 0.906 7.85910956965e-39
0.0116981423994 -0.0618330383968 0.903 8.41084001141e-39
0.0133693055993 -0.0618330383968 0.903 8.22896268113e-39
0.0150404687992 -0.0618330383968 0.903 8.22932141353e-39
0.0167116319991 -0.0618330383968 0.903 8.13784464978e-39
0.018382795199 -0.0618330383968 0.903 8.3215156421e-39
0.020053958399 -0.0618330383968 0.903 7.95345619265e-39
0.0217251215989 -0.0618330383968 0.903 8.50590409923e-39
0.0233962847988 -0.0618330383968 0.903 8.044574224e-39
0.0251507285568 -0.0620384637735 0.906 8.3218743745e-39
0.026827443794 -0.0620384637735 0.906 8.87468101349e-39
0.0285041590311 -0.0620384637735 0.906 8.50698029645e-39
0.0301808742682 -0.0620384637735 0.906 8.8753984783e-39
0.0318575895053 -0.0620384637735 0.906 9.15090496677e-39
0.0335343047424 -0.0620384637735 0.906 9.6118761096e-39
0.0352887485005 -0.0621754140247 0.908 9.52147554307e-39
0.0369691650957 -0.0621754140247 0.908 9.33565215631e-39
0.038649581691 -0.0621754140247 0.908 9.7062227326e-39
0.0404188308816 -0.0623123642758 0.91 9.70442907057e-39
0.0422417497652 -0.0625177896526 0.913 1.02583119068e-38
0.0440276550675 -0.0626547399037 0.915 1.00717710552e-38
0.0457210264162 -0.0626547399037 0.915 1.05323834656e-38
0.0475698548068 -0.0628601652804 0.918 1.30191319243e-38
0.0493761175788 -0.0629971155316 0.92 1.0155355706e-38
0.0510787423229 -0.0629971155316 0.92 2.35097637022e-38
-0.0206535784175 -0.0619607352526 0.93 2.3497565399e-38
-0.0189324468827 -0.0619607352526 0.93 2.34993506533e-38
-0.0172113153479 -0.0619607352526 0.93 2.35083708115e-38
-0.0154568715899 -0.0618274863596 0.928 5.14637510892e-39
-0.0136950251156 -0.06162761302 0.925 6.7438105167e-39
-0.0119572374691 -0.061494364127 0.923 7.66575280234e-39
-0.0101935403157 -0.0611612418945 0.918 7.29876955012e-39
-0.00849461692979 -0.0611612418945 0.918 7.20765151877e-39
-0.006773485395 -0.060961368555 0.915 7.48531040169e-39
-0.00506900997183 -0.0608281196619 0.913 7.02541545609e-39
-0.0033682359068 -0.0606282463224 0.91 7.48531040169e-39
-0.0016841179534 -0.0606282463224 0.91 7.57858082748e-39
0.0 -0.0606282463224 0.91 7.02756785053e-39
0.00168041659526 -0.0604949974294 0.908 7.67328618289e-39
0.00335343047424 -0.0603617485364 0.906 7.3970622296e-39
0.00503014571137 -0.0603617485364 0.906 7.76404548183e-39
0.00670686094849 -0.0603617485364 0.906 7.94843393896e-39
0.00838357618561 -0.0603617485364 0.906 7.58073322192e-39
0.0100602914227 -0.0603617485364 0.906 8.59451100372e-39
0.0117370066599 -0.0603617485364 0.906 7.85946830205e-39
0.013413721897 -0.0603617485364 0.906 7.95202126302e-39
0.0150904371341 -0.0603617485364 0.906 7.76906773552e-39
0.0167671523712 -0.0603617485364 0.906 8.13676845256e-39
0.0184438676083 -0.0603617485364 0.906 8.50590409923e-39
0.0201205828455 -0.0603617485364 0.906 8.22932141353e-39
0.0217972980826 -0.0603617485364 0.906 8.13784464978e-39
0.0234740133197 -0.0603617485364 0.906 8.41263367344e-39
0.0251507285568 -0.0603617485364 0.906 9.3349346915e-39
0.026827443794 -0.0603617485364 0.906 8.78356298214e-39
0.0285041590311 -0.0603617485364 0.906 8.41442733548e-39
0.0301808742682 -0.0603617485364 0.906 9.0583520058e-39
0.0318575895053 -0.0603617485364 0.906 8.78284551733e-39
0.0336083319052 -0.0604949974294 0.908 9.88845879529e-39
0.0352887485005 -0.0604949974294 0.908 8.59953325742e-39
0.0369691650957 -0.0604949974294 0.908 8.87611594311e-39
0.038649581691 -0.0604949974294 0.908 9.24309919534e-39
0.0404188308816 -0.0606282463224 0.91 9.15269862881e-39
0.0422417497652 -0.0608281196619 0.913 1.00746409145e-38
0.0440276550675 -0.060961368555 0.915 1.007248852e-38
0.0458709314209 -0.0611612418945 0.918 1.10851901046e-38
0.0475698548068 -0.0611612418945 0.918 1.18213090035e-38
0.0493761175788 -0.0612944907875 0.92 1.16311808279e-38
0.0510787423229 -0.0612944907875 0.92 2.3509730071e-38
-0.0206535784175 -0.0602396037178 0.93 2.34986429976e-38
-0.0189324468827 -0.0602396037178 0.93 2.35022359268e-38
-0.0172113153479 -0.0602396037178 0.93 2.35080288947e-38
-0.0154568715899 -0.0601100561829 0.928 4.95947552494e-39
-0.0137394414132 -0.0601100561829 0.928 8.1231366211e-39
-0.0119572374691 -0.0597861873457 0.923 7.57355857378e-39
-0.0102157484646 -0.0595918660434 0.92 7.29876955012e-39
-0.00849461692979 -0.0594623185085 0.918 7.5749977073e-39
-0.00679569354383 -0.0594623185085 0.918 7.208727716e-39
-0.00508011404625 -0.0592679972062 0.915 7.11725095224e-39
-0.00337933998122 -0.0591384496713 0.913 7.66791500587e-39
-0.00168966999061 -0.0591384496713 0.913 8.4990881835e-39
0.0 -0.058944128369 0.91 7.30235687419e-39
0.00168041659526 -0.0588145808341 0.908 7.76368674942e-39
0.00336083319052 -0.0588145808341 0.908 7.21267377247e-39
0.00504124978578 -0.0588145808341 0.908 7.76512167905e-39
0.00670686094849 -0.0586850332993 0.906 8.68706396469e-39
0.00838357618561 -0.0586850332993 0.906 7.21446743451e-39
0.0100602914227 -0.0586850332993 0.906 7.86090323168e-39
0.0117370066599 -0.0586850332993 0.906 7.49356124705e-39
0.013413721897 -0.0586850332993 0.906 7.67723223936e-39
0.0150904371341 -0.0586850332993 0.906 7.86126196409e-39
0.0167671523712 -0.0586850332993 0.906 8.0449329564e-39
0.0184438676083 -0.0586850332993 0.906 8.13748591737e-39
0.0201205828455 -0.0586850332993 0.906 7.67687350696e-39
0.0217972980826 -0.0586850332993 0.906 8.13748591737e-39
0.0234740133197 -0.0586850332993 0.906 9.33565215631e-39
0.0251507285568 -0.0586850332993 0.906 7.86162069649e-39
0.026827443794 -0.0586850332993 0.906 7.95453238987e-39
0.0285670821194 -0.0588145808341 0.908 8.87468101349e-39
0.0302474987147 -0.0588145808341 0.908 8.87396354867e-39
0.03192791531 -0.0588145808341 0.908 9.6118761096e-39
0.0336083319052 -0.0588145808341 0.908 1.00717710552e-38
0.0352887485005 -0.0588145808341 0.908 9.24345792775e-39
0.0369691650957 -0.0588145808341 0.908 8.78284551733e-39
0.0387347129282 -0.058944128369 0.91 1.0625295159e-38
0.0405520797746 -0.0591384496713 0.913 9.61331103923e-39
0.0422417497652 -0.0591384496713 0.913 1.01664764106e-38
0.0440276550675 -0.0592679972062 0.915 1.06249364266e-38
0.0458709314209 -0.0594623185085 0.918 1.12681436321e-38
0.0475698548068 -0.0594623185085 0.918 1.13596203959e-38
0.0493761175788 -0.0595918660434 0.92 1.09872561575e-38
0.0510787423229 -0.0595918660434 0.92 2.35097805178e-38
-0.0189324468827 -0.058518472183 0.93 2.34993828832e-38
-0.0172113153479 -0.058518472183 0.93 2.35047918952e-38
-0.0154901838131 -0.058518472183 0.93 5.69631188864e-39
-0.0137394414132 -0.0583926260063 0.928 7.66397315329e-39
-0.0120220112366 -0.0583926260063 0.928 7.20406419471e-39
-0.0102712688367 -0.0582038567412 0.925 7.8515761891e-39
-0.00851312372049 -0.0578892412993 0.92 6.46973895785e-39
-0.00681049897639 -0.0578892412993 0.92 7.39275744072e-39
-0.00509677015787 -0.0577633951226 0.918 7.48531040169e-39
-0.0033867426975 -0.0575746258575 0.915 7.39311617313e-39
-0.00169337134875 -0.0575746258575 0.915 8.12959380442e-39
0.0 -0.0574487796807 0.913 7.57858082748e-39
0.0016841179534 -0.0572600104156 0.91 7.85803337242e-39
0.00336083319052 -0.0571341642389 0.908 8.04170436474e-39
0.00504124978578 -0.0571341642389 0.908 6.93788474881e-39
0.00672166638105 -0.0571341642389 0.908 7.39921462404e-39
0.00840208297631 -0.0571341642389 0.908 7.39957335645e-39
0.0100824995716 -0.0571341642389 0.908 7.86090323168e-39
0.0117370066599 -0.0570083180621 0.906 7.49212771872e-39
0.013413721897 -0.0570083180621 0.906 7.67579730974e-39
0.0150904371341 -0.0570083180621 0.906 8.04636788603e-39
0.0168041659526 -0.0571341642389 0.908 8.41299240585e-39
0.0184845825479 -0.0571341642389 0.908 9.42748765247e-39
0.0201649991431 -0.0571341642389 0.908 8.13712718497e-39
0.0218454157384 -0.0571341642389 0.908 8.8753984783e-39
0.0235258323337 -0.0571341642389 0.908 8.04672661844e-39
0.0252062489289 -0.0571341642389 0.908 8.96795143927e-39
0.0268866655242 -0.0571341642389 0.908 9.42820511728e-39
0.0285670821194 -0.0571341642389 0.908 8.96687524205e-39
0.0302474987147 -0.0571341642389 0.908 8.59953325742e-39
0.03192791531 -0.0571341642389 0.908 8.69065128876e-39
0.0336083319052 -0.0571341642389 0.908 9.70371160576e-39
0.0352887485005 -0.0571341642389 0.908 8.87432228108e-39
0.0370505949748 -0.0572600104156 0.91 1.02565182447e-38
0.0387347129282 -0.0572600104156 0.91 9.42677018766e-39
0.0405520797746 -0.0574487796807 0.913 9.6118761096e-39
0.0423342837187 -0.0575746258575 0.915 9.6118761096e-39
0.0441720080349 -0.0577633951226 0.918 1.12702960265e-38
0.0458709314209 -0.0577633951226 0.918 1.12681436321e-38
0.0476734928347 -0.0578892412993 0.92 1.19127885698e-38
0.0493761175788 -0.0578892412993 0.92 1.15379104021e-38
0.0510787423229 -0.0578892412993 0.92 2.35097468866e-38
-0.0172113153479 -0.0567973406482 0.93 2.35098071424e-38
-0.0154568715899 -0.0566751958296 0.928 9.20327989818e-39
-0.0137394414132 -0.0566751958296 0.928 7.84260787893e-39
-0.0120220112366 -0.0566751958296 0.928 7.57284110897e-39
-0.0102712688367 -0.0564919786017 0.925 7.66826392919e-39
-0.00854088390653 -0.0563698337831 0.923 7.48387547206e-39
-0.00683270712523 -0.0563698337831 0.923 7.57642843303e-39
-0.00510787423229 -0.0561866165552 0.92 7.94448788248e-39
-0.00339784677192 -0.0560644717366 0.918 7.39311617313e-39
-0.00169892338596 -0.0560644717366 0.918 7.85408731595e-39
0.0 -0.0558812545087 0.915 7.21159757525e-39
0.00168966999061 -0.0557591096901 0.913 7.21231504006e-39
0.00337933998122 -0.0557591096901 0.913 7.48818026094e-39
0.0050523538602 -0.0555758924622 0.91 8.68670523229e-39
0.0067364718136 -0.0555758924622 0.91 7.76691534108e-39
0.00840208297631 -0.0554537476436 0.908 8.50267550757e-39
0.0100824995716 -0.0554537476436 0.908 8.22788648391e-39
0.0117629161668 -0.0554537476436 0.908 7.95237999543e-39
0.0134433327621 -0.0554537476436 0.908 8.22788648391e-39
0.0151237493574 -0.0554537476436 0.908 8.41263367344e-39
0.0168041659526 -0.0554537476436 0.908 8.68778142951e-39
0.0184845825479 -0.0554537476436 0.908 8.41227494103e-39
0.0201649991431 -0.0554537476436 0.908 8.50662156404e-39
0.0218454157384 -0.0554537476436 0.908 8.5984570602e-39
0.0235258323337 -0.0554537476436 0.908 8.4155035327e-39
0.0252062489289 -0.0554537476436 0.908 8.78284551733e-39
0.0268866655242 -0.0554537476436 0.908 7.95453238987e-39
0.0285670821194 -0.0554537476436 0.908 8.4155035327e-39
0.0303141231612 -0.0555758924622 0.91 8.59917452501e-39
0.0319982411146 -0.0555758924622 0.91 8.96723397446e-39
0.033682359068 -0.0555758924622 0.91 9.05763454099e-39
0.0353664770214 -0.0555758924622 0.91 9.88917626011e-39
0.0371727397934 -0.0557591096901 0.913 9.61115864478e-39
0.038862409784 -0.0557591096901 0.913 9.7948296371e-39
0.0405520797746 -0.0557591096901 0.913 9.97921809423e-39
0.042473084649 -0.0560644717366 0.918 1.07167719227e-38
0.0442682433465 -0.0561866165552 0.92 1.09922784112e-38
0.0459708680906 -0.0561866165552 0.92 1.09008016475e-38
0.0478289498766 -0.0563698337831 0.923 1.15418564585e-38
0.0495371266579 -0.0563698337831 0.923 1.83524556626e-38
0.0512453034392 -0.0563698337831 0.923 2.35087225374e-38
-0.0172113153479 -0.0550762091134 0.93 2.35097931294e-38
-0.0154568715899 -0.054957765653 0.928 1.38080349338e-38
-0.0137394414132 -0.054957765653 0.928 1.0321090078e-38
-0.0120220112366 -0.054957765653 0.928 8.03381225179e-39
-0.0102712688367 -0.0547801004623 0.925 7.84978252707e-39
-0.00854088390653 -0.0546616570018 0.923 8.1285176072e-39
-0.00683270712523 -0.0546616570018 0.923 7.85301111873e-39
-0.00510787423229 -0.0544839918111 0.92 7.94448788248e-39
-0.00339784677192 -0.0543655483507 0.918 7.94448788248e-39
-0.00169892338596 -0.0543655483507 0.918 7.66934012641e-39
0.0 -0.05418788316 0.915 7.76332801701e-39
0.00168966999061 -0.0540694396995 0.913 7.76368674942e-39
0.00337933998122 -0.0540694396995 0.913 8.3164933884e-39
0.0050523538602 -0.0538917745088 0.91 7.85731590761e-39
0.0067364718136 -0.0538917745088 0.91 7.76691534108e-39
0.008420589767 -0.0538917745088 0.91 7.30666166307e-39
0.0101047077204 -0.0538917745088 0.91 7.95381492506e-39
0.0117629161668 -0.0537733310484 0.908 7.85946830205e-39
0.0134433327621 -0.0537733310484 0.908 7.67579730974e-39
0.0151237493574 -0.0537733310484 0.908 8.50482790201e-39
0.0168041659526 -0.0537733310484 0.908 8.50411043719e-39
0.0185252974874 -0.0538917745088 0.91 7.95273872784e-39
0.0202094154408 -0.0538917745088 0.91 8.13748591737e-39
0.0218935333942 -0.0538917745088 0.91 8.138920847e-39
0.0235776513476 -0.0538917745088 0.91 8.3218743745e-39
0.0253450498591 -0.0540694396995 0.913 8.59917452501e-39
0.0270347198498 -0.0540694396995 0.913 9.24345792775e-39
0.0287243898404 -0.0540694396995 0.913 8.50769776126e-39
0.030414059831 -0.0540694396995 0.913 9.15090496677e-39
0.0321037298216 -0.0540694396995 0.913 8.87396354867e-39
0.033867426975 -0.05418788316 0.915 9.15305736122e-39
0.0355607983237 -0.05418788316 0.915 8.8753984783e-39
0.0372541696725 -0.05418788316 0.915 9.42820511728e-39
0.0389475410212 -0.05418788316 0.915 1.00735647172e-38
0.040774161263 -0.0543655483507 0.918 9.97957682664e-39
0.0427044195327 -0.0546616570018 0.923 9.97921809423e-39
0.044412596314 -0.0546616570018 0.923 1.0623501497e-38
0.0461207730953 -0.0546616570018 0.923 1.0900456928e-38
0.0479325879045 -0.0547801004623 0.925 9.79016611581e-39
0.0496444660439 -0.0547801004623 0.925 2.35097244658e-38
0.0513563441834 -0.0547801004623 0.925 2.35051450224e-38
-0.0172113153479 -0.0533550775786 0.93 2.35073044234e-38
-0.0154901838131 -0.0533550775786 0.93 1.59234967526e-38
-0.0137394414132 -0.0532403354763 0.928 1.54693359203e-38
-0.0120220112366 -0.0532403354763 0.928 9.77294696028e-39
-0.0102712688367 -0.0530682223228 0.925 8.21748324411e-39
-0.00855939069723 -0.0530682223228 0.925 7.39060504628e-39
-0.00684751255778 -0.0530682223228 0.925 7.57606970063e-39
-0.00512453034392 -0.0529534802205 0.923 7.85408731595e-39
-0.00340524948819 -0.052781367067 0.92 7.48531040169e-39
-0.00169892338596 -0.0526666249647 0.918 8.12995253683e-39
0.0 -0.0524945118112 0.915 7.94735774173e-39
0.00169337134875 -0.0524945118112 0.915 7.67185125326e-39
0.0033867426975 -0.0524945118112 0.915 7.6736449153e-39
0.00506900997183 -0.0523797697089 0.913 7.67185125326e-39
0.00675867996244 -0.0523797697089 0.913 8.410481279e-39
0.008420589767 -0.0522076565554 0.91 6.93860221362e-39
0.0101047077204 -0.0522076565554 0.91 7.67579730974e-39
0.0117888256738 -0.0522076565554 0.91 7.95309746024e-39
0.0134729436272 -0.0522076565554 0.91 7.95166253062e-39
0.0151570615806 -0.0522076565554 0.91 8.13748591737e-39
0.016841179534 -0.0522076565554 0.91 7.86126196409e-39
0.0185252974874 -0.0522076565554 0.91 7.95345619265e-39
0.0202094154408 -0.0522076565554 0.91 8.32259183932e-39
0.0219657098779 -0.0523797697089 0.913 8.138920847e-39
0.0236553798685 -0.0523797697089 0.913 7.77086139756e-39
0.0253450498591 -0.0523797697089 0.913 8.50698029645e-39
0.02709394158 -0.0524945118112 0.915 9.15090496677e-39
0.0287873129287 -0.0524945118112 0.915 8.6924449508e-39
0.0304806842775 -0.0524945118112 0.915 9.98029429145e-39
0.0321740556262 -0.0524945118112 0.915 8.87611594311e-39
0.033867426975 -0.0524945118112 0.915 9.06158059746e-39
0.0355607983237 -0.0524945118112 0.915 9.33636962112e-39
0.0372541696725 -0.0524945118112 0.915 9.6118761096e-39
0.039075237877 -0.0526666249647 0.918 9.79590583432e-39
0.040774161263 -0.0526666249647 0.918 1.00721297876e-38
0.0425656186024 -0.052781367067 0.92 1.03472775437e-38
0.044412596314 -0.0529534802205 0.923 1.06245790955e-38
0.046220709765 -0.0530682223228 0.925 1.05305898036e-38
0.0479325879045 -0.0530682223228 0.925 1.94534110245e-38
0.0496444660439 -0.0530682223228 0.925 2.3505485538e-38
-0.015540152148 -0.0518005071601 0.933 1.85056834458e-38
-0.0137690522784 -0.0516339460438 0.93 1.82291343913e-38
-0.0120220112366 -0.0515229052996 0.928 1.5751665331e-38
-0.0103045810599 -0.0515229052996 0.928 1.06026950174e-38
-0.00858715088327 -0.0515229052996 0.928 8.21748324411e-39
-0.00684751255778 -0.0513563441834 0.925 7.85229365392e-39
-0.00512453034392 -0.0512453034392 0.923 7.94628154451e-39
-0.00341635356261 -0.0512453034392 0.923 7.303074339e-39
-0.0017026247441 -0.0510787423229 0.92 7.48818026094e-39
0.0 -0.0509677015787 0.918 7.85444604836e-39
0.00169337134875 -0.0508011404625 0.915 7.94843393896e-39
0.0033867426975 -0.0508011404625 0.915 7.85731590761e-39
0.00508011404625 -0.0508011404625 0.915 7.58145068673e-39
0.00675867996244 -0.0506900997183 0.913 8.04206309715e-39
0.00844834995305 -0.0506900997183 0.913 7.4910501202e-39
0.0101380199437 -0.0506900997183 0.913 8.22788648391e-39
0.0118276899343 -0.0506900997183 0.913 8.59773959539e-39
0.0135173599249 -0.0506900997183 0.913 8.50518663441e-39
0.0151570615806 -0.050523538602 0.91 7.76906773552e-39
0.016841179534 -0.050523538602 0.91 8.87468101349e-39
0.0185863698967 -0.0506900997183 0.913 7.86126196409e-39
0.0202760398873 -0.0506900997183 0.913 8.59666339816e-39
0.0219657098779 -0.0506900997183 0.913 8.8753984783e-39
0.0236553798685 -0.0506900997183 0.913 8.59953325742e-39
0.0254005702312 -0.0508011404625 0.915 9.24381666015e-39
0.02709394158 -0.0508011404625 0.915 8.68993382395e-39
0.0287873129287 -0.0508011404625 0.915 8.59809832779e-39
0.0304806842775 -0.0508011404625 0.915 8.96615777724e-39
0.0321740556262 -0.0508011404625 0.915 9.15126369918e-39
0.033867426975 -0.0508011404625 0.915 9.42677018766e-39
0.0356773911051 -0.0509677015787 0.918 9.70407033816e-39
0.0373763144911 -0.0509677015787 0.918 9.97850062942e-39
0.039075237877 -0.0509677015787 0.918 9.97921809423e-39
0.0408629938583 -0.0510787423229 0.92 1.09015191123e-38
0.0425656186024 -0.0510787423229 0.92 1.11759494035e-38
0.044412596314 -0.0512453034392 0.923 1.0989408552e-38
0.046220709765 -0.0513563441834 0.925 1.82566432814e-38
0.0479325879045 -0.0513563441834 0.925 2.3506208608e-38
0.0496444660439 -0.0513563441834 0.925 2.35051464237e-38
0.0519115479043 -0.0519115479043 0.935 2.35043925252e-38
-0.0155734643713 -0.0501811629741 0.935 1.80439920356e-38
-0.013813468576 -0.0500738235881 0.933 2.01669942415e-38
-0.012086785004 -0.0500738235881 0.933 1.88787735568e-38
-0.0103045810599 -0.049805475123 0.928 1.71324529897e-38
-0.00858715088327 -0.049805475123 0.928 1.32702291948e-38
-0.00684751255778 -0.0496444660439 0.925 9.77940414361e-39
-0.00513563441834 -0.0496444660439 0.925 8.4051002929e-39
-0.00341635356261 -0.0495371266579 0.923 8.13138746646e-39
-0.0017026247441 -0.0493761175788 0.92 8.40940508178e-39
0.0 -0.0492687781928 0.918 7.30415053622e-39
0.00169892338596 -0.0492687781928 0.918 8.04134563233e-39
0.00339784677192 -0.0492687781928 0.918 7.8565984428e-39
0.00508011404625 -0.0491077691137 0.915 7.94915140377e-39
0.006773485395 -0.0491077691137 0.915 8.68921635914e-39
0.00844834995305 -0.0490004297277 0.913 8.68957509154e-39
0.0101380199437 -0.0490004297277 0.913 8.13533352293e-39
0.0118276899343 -0.0490004297277 0.913 7.86126196409e-39
0.0135173599249 -0.0490004297277 0.913 8.044574224e-39
0.0152070299155 -0.0490004297277 0.913 8.32043944488e-39
0.0168966999061 -0.0490004297277 0.913 8.32223310691e-39
0.0185863698967 -0.0490004297277 0.913 8.59738086298e-39
0.0202760398873 -0.0490004297277 0.913 8.87288735145e-39
0.0220138275337 -0.0491077691137 0.915 8.50590409923e-39
0.0237071988825 -0.0491077691137 0.915 8.5984570602e-39
0.0254005702312 -0.0491077691137 0.915 8.78284551733e-39
0.02709394158 -0.0491077691137 0.915 8.32330930413e-39
0.0287873129287 -0.0491077691137 0.915 9.42856384969e-39
0.0304806842775 -0.0491077691137 0.915 8.96723397446e-39
0.0321740556262 -0.0491077691137 0.915 9.88666513326e-39
0.0339784677192 -0.0492687781928 0.918 9.79590583432e-39
0.0356773911051 -0.0492687781928 0.918 1.01639652838e-38
0.0373763144911 -0.0492687781928 0.918 1.03472775437e-38
0.0391603691142 -0.0493761175788 0.92 1.0992995876e-38
0.0409962427514 -0.0495371266579 0.923 9.79447090469e-39
0.0427044195327 -0.0495371266579 0.923 1.23694521212e-38
0.0445088316256 -0.0496444660439 0.925 1.98210584922e-38
0.0463706147697 -0.049805475123 0.928 2.35054364925e-38
0.0480880449463 -0.049805475123 0.928 2.35026254878e-38
0.0501811629741 -0.0501811629741 0.935 2.35026142774e-38
0.0519115479043 -0.0501811629741 0.935 2.35090980854e-38
-0.017451903627 -0.0488653301556 0.943 2.35087421556e-38
-0.0156234327062 -0.0486062350858 0.938 1.74000589575e-38
-0.0138430794411 -0.048450778044 0.935 2.11811419661e-38
-0.012112694511 -0.048450778044 0.935 1.98003627152e-38
-0.0103267892088 -0.0481916829742 0.93 2.0722672141e-38
-0.00858715088327 -0.0480880449463 0.928 1.97103096707e-38
-0.00684751255778 -0.0479325879045 0.925 1.55694376761e-38
-0.00513563441834 -0.0479325879045 0.925 1.25344830413e-38
-0.00341635356261 -0.0478289498766 0.923 9.68792737985e-39
-0.0017026247441 -0.0476734928347 0.92 8.68275917581e-39
0.0 -0.0475698548068 0.918 8.31756958562e-39
0.00169892338596 -0.0475698548068 0.918 8.04170436474e-39
0.00339784677192 -0.0475698548068 0.918 8.40904634937e-39
0.00508011404625 -0.047414397765 0.915 8.410481279e-39
0.006773485395 -0.047414397765 0.915 7.21554363173e-39
0.00846685674374 -0.047414397765 0.915 6.75600741853e-39
0.0101602280925 -0.047414397765 0.915 6.75564868612e-39
0.0118535994412 -0.047414397765 0.915 7.95345619265e-39
0.01354697079 -0.047414397765 0.915 8.22788648391e-39
0.0152403421387 -0.047414397765 0.915 8.22932141353e-39
0.0169337134875 -0.047414397765 0.915 8.59773959539e-39
0.0186270848362 -0.047414397765 0.915 8.50590409923e-39
0.020320456185 -0.047414397765 0.915 8.41442733548e-39
0.0220138275337 -0.047414397765 0.915 8.96615777724e-39
0.0237071988825 -0.047414397765 0.915 8.59809832779e-39
0.0254005702312 -0.047414397765 0.915 8.87503974589e-39
0.02709394158 -0.047414397765 0.915 8.78356298214e-39
0.0287873129287 -0.047414397765 0.915 9.15198116399e-39
0.0304806842775 -0.047414397765 0.915 9.70407033816e-39
0.0322795443332 -0.0475698548068 0.918 9.97993555904e-39
0.0339784677192 -0.0475698548068 0.918 1.01639652838e-38
0.0356773911051 -0.0475698548068 0.918 9.42677018766e-39
0.0373763144911 -0.0475698548068 0.918 1.03469188113e-38
0.03928806597 -0.0478289498766 0.923 1.13567505366e-38
0.0410850753467 -0.0479325879045 0.925 1.73350625308e-38
0.0427969534861 -0.0479325879045 0.925 2.3500701505e-38
0.044653184593 -0.0480880449463 0.928 2.35054238808e-38
0.0463706147697 -0.0480880449463 0.928 2.3498987717e-38
0.0481916829742 -0.0481916829742 0.93 2.34989835131e-38
0.0501811629741 -0.048450778044 0.935 2.35015338763e-38
0.0519115479043 -0.048450778044 0.935 2.35098281619e-38
-0.017451903627 -0.0471201397929 0.943 2.3508044309e-38
-0.0156567449294 -0.0469702347883 0.94 1.82287378238e-38
-0.0138874957388 -0.0468702981185 0.938 2.03499561768e-38
-0.012112694511 -0.0467203931138 0.935 2.016879491e-38
-0.010360101432 -0.0466204564441 0.933 2.00773181463e-38
-0.00860565767397 -0.0464705514394 0.93 2.0538641015e-38
-0.00686972070662 -0.0463706147697 0.928 2.02631331252e-38
-0.00513563441834 -0.046220709765 0.925 2.01738311767e-38
-0.00341635356261 -0.0461207730953 0.923 1.76891986787e-38
-0.00170817678131 -0.0461207730953 0.923 1.52070254595e-38
0.0 -0.0459708680906 0.92 1.15278658947e-38
0.00169892338596 -0.0458709314209 0.918 1.01539207764e-38
0.00339784677192 -0.0458709314209 0.918 9.60326653183e-39
0.00509677015787 -0.0458709314209 0.918 7.94664027692e-39
0.00679569354383 -0.0458709314209 0.918 8.77961692567e-39
0.00846685674374 -0.0457210264162 0.915 8.41263367344e-39
0.0101602280925 -0.0457210264162 0.915 9.51609455696e-39
0.0118535994412 -0.0457210264162 0.915 8.96544031242e-39
0.01354697079 -0.0457210264162 0.915 9.33134736743e-39
0.0152403421387 -0.0457210264162 0.915 9.14982876955e-39
0.0169337134875 -0.0457210264162 0.915 8.87396354867e-39
0.0186270848362 -0.0457210264162 0.915 8.78284551733e-39
0.020320456185 -0.0457210264162 0.915 8.78320424974e-39
0.0220138275337 -0.0457210264162 0.915 8.59773959539e-39
0.0237071988825 -0.0457210264162 0.915 8.78320424974e-39
0.0254005702312 -0.0457210264162 0.915 9.70442907057e-39
0.02709394158 -0.0457210264162 0.915 8.68849889432e-39
0.0287873129287 -0.0457210264162 0.915 1.07164131903e-38
0.0305806209472 -0.0458709314209 0.918 9.79231851025e-39
0.0322795443332 -0.0458709314209 0.918 1.08053788272e-38
0.0339784677192 -0.0458709314209 0.918 1.30123005943e-38
0.035755119626 -0.0459708680906 0.92 1.48493692499e-38
0.0374577443701 -0.0459708680906 0.92 1.96334316343e-38
0.0393731972073 -0.046220709765 0.925 2.2946087191e-38
0.0412183242397 -0.0463706147697 0.928 2.35043616966e-38
0.0429357544164 -0.0463706147697 0.928 2.35000527038e-38
0.044653184593 -0.0463706147697 0.928 2.34996981753e-38
0.0466204564441 -0.0466204564441 0.933 2.34968269148e-38
0.048450778044 -0.0467203931138 0.935 2.34993618637e-38
0.0501811629741 -0.0467203931138 0.935 2.35040323915e-38
0.0519115479043 -0.0467203931138 0.935 2.35073114299e-38
-0.017451903627 -0.0453749494302 0.943 2.35065799521e-38
-0.0156567449294 -0.0452305964628 0.94 1.75840872809e-38
-0.0138874957388 -0.0451343611511 0.938 2.05364760089e-38
-0.0121515587715 -0.0451343611511 0.938 2.09988834826e-38
-0.010360101432 -0.0448937728721 0.933 2.02599143427e-38
-0.00860565767397 -0.0447494199046 0.93 2.04453761944e-38
-0.00686972070662 -0.044653184593 0.928 2.09081367954e-38
-0.00513563441834 -0.0445088316256 0.925 2.08155740253e-38
-0.00342375627889 -0.0445088316256 0.925 2.17364681397e-38
-0.00170817678131 -0.044412596314 0.923 2.12772878563e-38
0.0 -0.0442682433465 0.92 2.0175588405e-38
0.0017026247441 -0.0442682433465 0.92 1.84271168448e-38
0.00340524948819 -0.0442682433465 0.92 1.71395253431e-38
0.00509677015787 -0.0441720080349 0.918 1.61279265804e-38
0.00679569354383 -0.0441720080349 0.918 1.28142803057e-38
0.00849461692979 -0.0441720080349 0.918 1.28214549538e-38
0.0101935403157 -0.0441720080349 0.918 1.19935005588e-38
0.0118924637017 -0.0441720080349 0.918 1.17176353379e-38
0.0135913870877 -0.0441720080349 0.918 1.00620852802e-38
0.0152403421387 -0.0440276550675 0.915 1.08021502356e-38
