# .PCD v0.7 - Point Cloud Data file format
VERSION 0.7
FIELDS x y z rgb
SIZE 4 4 4 4
TYPE F F F F
COUNT 1 1 1 1
WIDTH 853
HEIGHT 1
VIEWPOINT 0 0 0 1 0 0 0
POINTS 853
DATA ascii
0.0418234962955 -0.116176378599 0.837 8.12277788869e-39
0.0432688766489 -0.115898776738 0.835 7.29518222605e-39
0.0448141936721 -0.115898776738 0.835 7.20514039193e-39
0.0462484699511 -0.115621174878 0.833 8.67379086564e-39
0.0476753435138 -0.115343573017 0.831 1.72300352109e-38
0.0490948143602 -0.115065971157 0.829 1.98958359822e-38
0.0505068824904 -0.114788369296 0.827 2.04446727426e-38
0.052037394081 -0.114788369296 0.827 2.02595640181e-38
0.0534383581368 -0.114510767436 0.825 2.08124112947e-38
0.0548319194762 -0.114233165575 0.823 2.01666621338e-38
0.0563550283506 -0.114233165575 0.823 2.16421425362e-38
0.0577374856156 -0.113955563715 0.821 2.13659031686e-38
0.0592568931318 -0.113955563715 0.821 2.16417795999e-38
0.0606282463224 -0.113677961855 0.819 2.11800853871e-38
0.0619921967968 -0.113400359994 0.817 2.11804231e-38
0.0635042015967 -0.113400359994 0.817 2.16417739947e-38
0.0650162063966 -0.113400359994 0.817 2.26559091076e-38
0.0665282111965 -0.113400359994 0.817 2.20102216038e-38
0.0680402159965 -0.113400359994 0.817 2.17346954972e-38
0.0695522207964 -0.113400359994 0.817 2.19194552984e-38
0.0710642255963 -0.113400359994 0.817 2.23797145816e-38
0.0725762303962 -0.113400359994 0.817 2.28392381831e-38
0.074269601745 -0.113677961855 0.819 2.21020486922e-38
0.075785307903 -0.113677961855 0.819 2.2931086291e-38
0.0773010140611 -0.113677961855 0.819 2.32080431233e-38
0.0788167202191 -0.113677961855 0.819 2.23804180334e-38
0.0805285983586 -0.113955563715 0.821 2.34885620564e-38
0.0820480058748 -0.113955563715 0.821 2.3302364523e-38
0.083567413391 -0.113955563715 0.821 2.33016582685e-38
0.0850868209072 -0.113955563715 0.821 2.34864026555e-38
0.0866062284234 -0.113955563715 0.821 2.34863998529e-38
0.0883403147117 -0.114233165575 0.823 2.3484611796e-38
0.089863423586 -0.114233165575 0.823 2.34875012735e-38
0.0916086139487 -0.114510767436 0.825 2.34889376044e-38
0.0931354241812 -0.114510767436 0.825 2.34918354896e-38
0.0946622344137 -0.114510767436 0.825 2.24747772681e-38
0.0964222302089 -0.114788369296 0.827 1.52949835628e-38
0.0981896287205 -0.115065971157 0.829 1.30994725692e-38
0.100445606506 -0.115898776738 0.835 1.1534323078e-38
0.10199092353 -0.115898776738 0.835 1.96360646741e-38
0.103536240553 -0.115898776738 0.835 2.35033485578e-38
0.037798269319 -0.116544663733 0.851 8.10629581616e-39
0.0393731972073 -0.116544663733 0.851 7.93409585307e-39
0.0404669485374 -0.115175161222 0.841 7.84368407615e-39
0.0419234329653 -0.11490126072 0.839 7.75292477721e-39
0.0433725146768 -0.114627360217 0.837 6.9267640442e-39
0.0448141936721 -0.114353459715 0.835 7.7575882985e-39
0.0462484699511 -0.114079559213 0.833 8.03345351938e-39
0.0477900856161 -0.114079559213 0.833 8.58231410189e-39
0.0492132578207 -0.11380565871 0.831 1.33663708812e-38
0.050629027309 -0.113531758208 0.829 1.91643441708e-38
0.052037394081 -0.113257857706 0.827 2.10018121964e-38
0.0535679056716 -0.113257857706 0.827 1.97986026843e-38
0.0549651683692 -0.112983957203 0.825 2.16424802491e-38
0.0563550283506 -0.112710056701 0.823 2.16414012493e-38
0.0578781372249 -0.112710056701 0.823 2.09949752612e-38
0.0592568931318 -0.112436156199 0.821 2.16399915431e-38
0.060776300648 -0.112436156199 0.821 2.13644836533e-38
0.0622957081642 -0.112436156199 0.821 2.20105719284e-38
0.0636596586385 -0.112162255696 0.819 2.25637274907e-38
0.0651753647966 -0.112162255696 0.819 2.16428305737e-38
0.0666910709547 -0.112162255696 0.819 2.22867930791e-38
0.0682067771127 -0.112162255696 0.819 2.21031206855e-38
0.0697224832708 -0.112162255696 0.819 2.2009865674e-38
0.0712381894288 -0.112162255696 0.819 2.28396193363e-38
0.0727538955869 -0.112162255696 0.819 2.29310806858e-38
0.0744509682938 -0.112436156199 0.821 2.34857132166e-38
0.07597037581 -0.112436156199 0.821 2.26559287258e-38
0.0774897833262 -0.112436156199 0.821 2.34842544649e-38
0.0790091908424 -0.112436156199 0.821 2.34871215216e-38
0.0805285983586 -0.112436156199 0.821 2.26577237891e-38
0.0820480058748 -0.112436156199 0.821 2.34856893946e-38
0.083567413391 -0.112436156199 0.821 2.34860831594e-38
0.0850868209072 -0.112436156199 0.821 2.34864026555e-38
0.0866062284234 -0.112436156199 0.821 2.34867585853e-38
0.0883403147117 -0.112710056701 0.823 2.34860509296e-38
0.0900818037162 -0.112983957203 0.825 2.34918200753e-38
0.0916086139487 -0.112983957203 0.825 2.34885718655e-38
0.0933612070277 -0.113257857706 0.827 1.9252278452e-38
0.0948917186183 -0.113257857706 0.827 1.61278915479e-38
0.0966554157717 -0.113531758208 0.829 1.42958451461e-38
0.0989002894832 -0.114353459715 0.835 1.26428062152e-38
0.100445606506 -0.114353459715 0.835 1.0706368683e-38
0.10199092353 -0.114353459715 0.835 2.27643121555e-38
0.103536240553 -0.114353459715 0.835 2.3505147825e-38
0.037798269319 -0.114969735845 0.851 8.29537582054e-39
0.0393731972073 -0.114969735845 0.851 8.21138479319e-39
0.0406594191607 -0.114159138413 0.845 7.84404280856e-39
0.0421233063048 -0.113888939268 0.843 7.38522406017e-39
0.0434761527047 -0.11334854098 0.839 6.83492854804e-39
0.0449215330581 -0.113078341836 0.837 6.92819897383e-39
0.0463595106953 -0.112808142692 0.835 7.38917011665e-39
0.0477900856161 -0.112537943548 0.833 8.03560591382e-39
0.0493317012812 -0.112537943548 0.833 7.29661715568e-39
0.050629027309 -0.111997545259 0.829 9.5024627255e-39
0.052037394081 -0.111727346115 0.827 1.37323648167e-38
0.0535679056716 -0.111727346115 0.827 1.87966924992e-38
0.0550984172622 -0.111727346115 0.827 2.04507669896e-38
0.0564919786017 -0.111457146971 0.825 2.11829594502e-38
0.0580187888342 -0.111457146971 0.825 2.10903826672e-38
0.0594012460992 -0.111186947827 0.823 2.11804259026e-38
0.0609243549736 -0.111186947827 0.823 2.1642498466e-38
0.0624474638479 -0.111186947827 0.823 2.18283526813e-38
0.0639705727222 -0.111186947827 0.823 2.15499342946e-38
0.0653345231966 -0.110916748683 0.821 2.21027493414e-38
0.0668539307128 -0.110916748683 0.821 2.20123571827e-38
0.068373338229 -0.110916748683 0.821 2.20105719284e-38
0.0698927457452 -0.110916748683 0.821 2.22864399519e-38
0.0714121532614 -0.110916748683 0.821 2.2378265639e-38
0.0729315607776 -0.110916748683 0.821 2.26537707262e-38
0.0744509682938 -0.110916748683 0.821 2.2931433813e-38
0.07597037581 -0.110916748683 0.821 2.26552098597e-38
0.0774897833262 -0.110916748683 0.821 2.25619520456e-38
0.0790091908424 -0.110916748683 0.821 2.34831712612e-38
0.0805285983586 -0.110916748683 0.821 2.3484601987e-38
0.0820480058748 -0.110916748683 0.821 2.34828265418e-38
0.0837709880887 -0.111186947827 0.823 2.34838901273e-38
0.085294096963 -0.111186947827 0.823 2.34882145344e-38
0.0868172058373 -0.111186947827 0.823 2.34878501968e-38
0.0885549934838 -0.111457146971 0.825 2.30275951175e-38
0.0900818037162 -0.111457146971 0.825 2.04497496469e-38
0.0918306954371 -0.111727346115 0.827 1.66789900041e-38
0.0933612070277 -0.111727346115 0.827 1.38341565384e-38
0.095121202823 -0.111997545259 0.829 1.32852959559e-38
0.09735497246 -0.112808142692 0.835 1.16275935038e-38
0.0989002894832 -0.112808142692 0.835 1.25502798789e-38
0.100686194785 -0.113078341836 0.837 1.13481409588e-38
0.102235213167 -0.113078341836 0.837 2.35072105364e-38
0.037798269319 -0.113394807957 0.851 7.47028427826e-39
0.0393731972073 -0.113394807957 0.851 8.12098422666e-39
0.0407556544723 -0.112861812385 0.847 7.93659576953e-39
0.0421233063048 -0.112328816813 0.843 7.66073054865e-39
0.0435797907326 -0.112062319027 0.841 7.38809391943e-39
0.0449215330581 -0.111529323455 0.837 6.83564601285e-39
0.0463595106953 -0.111262825669 0.835 8.0341709842e-39
0.0479048277184 -0.111262825669 0.835 6.74345178429e-39
0.0494501447416 -0.111262825669 0.835 8.03561011772e-39
0.0507511721276 -0.110729830097 0.831 8.03488844901e-39
0.0521632402577 -0.110463332311 0.829 7.75902322813e-39
0.0536974532065 -0.110463332311 0.829 9.4134970886e-39
0.0550984172622 -0.110196834524 0.827 1.4011800546e-38
0.0566289288529 -0.110196834524 0.827 1.74155138782e-38
0.0581594404435 -0.110196834524 0.827 1.99008582359e-38
0.0596899520341 -0.110196834524 0.827 2.14638273066e-38
0.0610724092991 -0.109930336738 0.825 2.12769697616e-38
0.0625992195316 -0.109930336738 0.825 2.192196082e-38
0.0641260297641 -0.109930336738 0.825 2.11847447045e-38
0.0654936815966 -0.109663838952 0.823 2.21052562644e-38
0.0670167904709 -0.109663838952 0.823 2.26562790504e-38
0.068373338229 -0.109397341166 0.821 2.24718835868e-38
0.0698927457452 -0.109397341166 0.821 2.23786159636e-38
0.0715861170939 -0.109663838952 0.823 2.2654474178e-38
0.0729315607776 -0.109397341166 0.821 2.34842488597e-38
0.0744509682938 -0.109397341166 0.821 2.28392381831e-38
0.07597037581 -0.109397341166 0.821 2.33916916949e-38
0.0774897833262 -0.109397341166 0.821 2.29318317817e-38
0.0792016614656 -0.109663838952 0.823 2.34893089485e-38
0.08072477034 -0.109663838952 0.823 2.34835538157e-38
0.0822478792143 -0.109663838952 0.823 2.34875194904e-38
0.0837709880887 -0.109663838952 0.823 2.34882061266e-38
0.085294096963 -0.109663838952 0.823 2.22899908422e-38
0.0870281832513 -0.109930336738 0.825 1.99915334569e-38
0.0887696722558 -0.110196834524 0.827 1.65875328585e-38
0.0903001838465 -0.110196834524 0.827 1.45684817753e-38
0.0920527769254 -0.110463332311 0.829 1.32856546883e-38
0.0938127727207 -0.110729830097 0.831 1.10765819281e-38
0.0953506870276 -0.110729830097 0.831 1.11687901697e-38
0.09735497246 -0.111262825669 0.835 1.19066929215e-38
0.0989002894832 -0.111262825669 0.835 1.1168416023e-38
0.100686194785 -0.111529323455 0.837 1.0792823193e-38
0.102235213167 -0.111529323455 0.837 2.35098281619e-38
0.0395119981375 -0.11221407471 0.854 7.7522087137e-39
0.0408518897839 -0.111557083641 0.849 7.84547773818e-39
0.0423231796443 -0.111294287213 0.847 7.75328350962e-39
0.0435797907326 -0.110505897929 0.841 7.20262926508e-39
0.0450288724442 -0.110243101501 0.839 7.02003446998e-39
0.0464705514394 -0.109980305073 0.837 7.20334672989e-39
0.0479048277184 -0.109717508645 0.835 7.75615336887e-39
0.0494501447416 -0.109717508645 0.835 6.83743967489e-39
0.0508733169462 -0.109454712218 0.833 6.74739784076e-39
0.0522890864345 -0.10919191579 0.831 7.11617475502e-39
0.0536974532065 -0.108929119362 0.829 8.40474156049e-39
0.0552316661553 -0.108929119362 0.829 7.94377041767e-39
0.056765879104 -0.108929119362 0.829 8.40294789846e-39
0.0583000920528 -0.108929119362 0.829 1.08839412243e-38
0.0598343050015 -0.108929119362 0.829 1.42870029528e-38
0.0612204636247 -0.108666322934 0.827 1.72329078728e-38
0.0627509752153 -0.108666322934 0.827 1.87037233526e-38
0.064281486806 -0.108666322934 0.827 1.96242475242e-38
0.0656528399966 -0.108403526506 0.825 2.08210012543e-38
0.0671796502291 -0.108403526506 0.825 2.2108846391e-38
0.0685398993453 -0.108140730078 0.823 2.17404338144e-38
0.0700630082196 -0.108140730078 0.823 2.2107789812e-38
0.0715861170939 -0.108140730078 0.823 2.23836536316e-38
0.0731092259683 -0.108140730078 0.823 2.24758478601e-38
0.0746323348426 -0.108140730078 0.823 2.25687469418e-38
0.076155443717 -0.108140730078 0.823 2.22929013391e-38
0.0776785525913 -0.108140730078 0.823 2.16478878599e-38
0.0792016614656 -0.108140730078 0.823 2.17400806872e-38
0.08072477034 -0.108140730078 0.823 1.97146312751e-38
0.0822478792143 -0.108140730078 0.823 1.87951917086e-38
0.0839745627863 -0.108403526506 0.825 1.70466963263e-38
0.0857086490746 -0.108666322934 0.827 1.55772373034e-38
0.0872391606652 -0.108666322934 0.827 1.38341565384e-38
0.0889843510279 -0.108929119362 0.829 1.25509707191e-38
0.0905185639767 -0.108929119362 0.829 1.10790916537e-38
0.0922748584138 -0.10919191579 0.831 1.05266437471e-38
0.0940385555672 -0.109454712218 0.833 1.0895061929e-38
0.0958096554369 -0.109717508645 0.835 1.10776567241e-38
0.09735497246 -0.109717508645 0.835 1.19088635328e-38
0.0989002894832 -0.109717508645 0.835 1.24613184459e-38
0.101167371344 -0.110505897929 0.841 1.14403351874e-38
0.102723792441 -0.110505897929 0.841 2.35098141489e-38
0.0393731972073 -0.11024495218 0.851 7.75292477721e-39
0.0409481250955 -0.11024495218 0.851 7.75328350962e-39
0.0423231796443 -0.109726762041 0.847 7.20227053267e-39
0.0437870667884 -0.109467666971 0.845 6.74165812225e-39
0.0451362118302 -0.108949476832 0.841 8.67773972471e-39
0.0465815921836 -0.108690381762 0.839 7.11115250133e-39
0.0480195698208 -0.108431286692 0.837 7.02075473739e-39
0.0494501447416 -0.108172191622 0.835 7.20621658915e-39
0.0509954617648 -0.108172191622 0.835 7.02398052646e-39
0.0524149326112 -0.107913096553 0.833 7.20765151877e-39
0.0538270007414 -0.107654001483 0.831 7.29984574734e-39
0.0552316661553 -0.107394906413 0.829 7.48423420447e-39
0.056765879104 -0.107394906413 0.829 7.30056321215e-39
0.0584407436621 -0.107654001483 0.831 7.67041632363e-39
0.059978657969 -0.107654001483 0.831 7.85336985114e-39
0.0613685179503 -0.107394906413 0.829 8.68024804896e-39
0.0627509752153 -0.107135811343 0.827 9.96379260074e-39
0.064281486806 -0.107135811343 0.827 1.15278883155e-38
0.0658119983966 -0.107135811343 0.827 1.34599986381e-38
0.0673425099872 -0.107135811343 0.827 1.44709065606e-38
0.0687064604615 -0.106876716274 0.825 1.56694875839e-38
0.070233270694 -0.106876716274 0.825 1.55769332216e-38
0.0717600809265 -0.106876716274 0.825 1.58531922074e-38
0.073286891159 -0.106876716274 0.825 1.68669559762e-38
0.0748137013915 -0.106876716274 0.825 1.58535299203e-38
0.0763405116239 -0.106876716274 0.825 1.46549993438e-38
0.0778673218564 -0.106876716274 0.825 1.50251719513e-38
0.0795866027121 -0.107135811343 0.827 1.43812486823e-38
0.0811171143028 -0.107135811343 0.827 1.3186644544e-38
0.0826476258934 -0.107135811343 0.827 1.20856947874e-38
0.0843817121817 -0.107394906413 0.829 1.17222988592e-38
0.086330477242 -0.107913096553 0.833 1.0617403046e-38
0.0876611154931 -0.107654001483 0.831 1.12638388432e-38
0.0891990298 -0.107654001483 0.831 9.51430089493e-39
0.0909553242371 -0.107913096553 0.833 1.0251495991e-38
0.0924969399022 -0.107913096553 0.833 9.97419584053e-39
0.0942643384137 -0.108172191622 0.835 1.10794503861e-38
0.0960391396415 -0.108431286692 0.837 1.13549568746e-38
0.0975881580228 -0.108431286692 0.837 1.30134034162e-38
0.099610950246 -0.108949476832 0.841 1.21839874668e-38
0.101407959623 -0.109208571901 0.843 1.24573681855e-38
0.102968082078 -0.109208571901 0.843 2.35097594983e-38
0.0393731972073 -0.108670024292 0.851 7.93587830472e-39
0.0409481250955 -0.108670024292 0.851 8.0291487305e-39
0.0424231163141 -0.10841463058 0.849 7.84547773818e-39
0.0437870667884 -0.107903843157 0.845 7.20264748196e-39
0.0452435512162 -0.107648449446 0.843 7.75400097443e-39
0.0466926329278 -0.107393055734 0.841 7.66073054865e-39
0.0481343119231 -0.107137662022 0.839 7.4806468804e-39
0.0495685882021 -0.106882268311 0.837 7.02218686442e-39
0.0509954617648 -0.106626874599 0.835 6.83851587211e-39
0.052540778788 -0.106626874599 0.835 6.93035136827e-39
0.0539565482763 -0.106371480887 0.833 7.29984574734e-39
0.0553649150483 -0.106116087176 0.831 7.20836898359e-39
0.0569028293552 -0.106116087176 0.831 7.94412915007e-39
0.0584407436621 -0.106116087176 0.831 7.30056321215e-39
0.059978657969 -0.106116087176 0.831 7.67077505604e-39
0.0613685179503 -0.105860693464 0.829 7.67077505604e-39
0.062902730899 -0.105860693464 0.829 8.68275917581e-39
0.0644369438478 -0.105860693464 0.829 7.76189308738e-39
0.0659711567966 -0.105860693464 0.829 8.31505845877e-39
0.0675053697453 -0.105860693464 0.829 8.68275917581e-39
0.0688730215778 -0.105605299753 0.827 9.78873118618e-39
0.0704035331684 -0.105605299753 0.827 9.05010116044e-39
0.0717600809265 -0.105349906041 0.825 9.78765498896e-39
0.073286891159 -0.105349906041 0.825 1.04315796593e-38
0.0748137013915 -0.105349906041 0.825 9.60362526424e-39
0.0765255795309 -0.105605299753 0.827 1.08017915032e-38
0.0780560911215 -0.105605299753 0.827 1.0617403046e-38
0.0797790733354 -0.105860693464 0.829 1.05252088175e-38
0.0813132862841 -0.105860693464 0.829 1.00667488015e-38
0.0828474992329 -0.105860693464 0.829 9.33062990261e-39
0.084788861577 -0.106371480887 0.833 9.14624144548e-39
0.0865377532978 -0.106626874599 0.835 8.77782326363e-39
0.088083070321 -0.106626874599 0.835 8.77710579882e-39
0.0896283873442 -0.106626874599 0.835 9.51537709215e-39
0.0911737043673 -0.106626874599 0.835 9.97419584053e-39
0.0927190213905 -0.106626874599 0.835 1.02507785262e-38
0.0944901212602 -0.106882268311 0.837 1.11705684174e-38
0.0964981080508 -0.107393055734 0.841 1.08943444641e-38
0.0980545291484 -0.107393055734 0.841 1.23680368097e-38
0.0998478371669 -0.107648449446 0.843 1.13531632125e-38
0.101648547902 -0.107903843157 0.845 1.75216244018e-38
0.103212371716 -0.107903843157 0.845 2.35098407736e-38
0.0395119981375 -0.107472634934 0.854 7.84404280856e-39
0.041092478063 -0.107472634934 0.854 7.846195203e-39
0.0424231163141 -0.10684340405 0.849 7.66180674587e-39
0.0438907048163 -0.106591711697 0.847 7.38809391943e-39
0.0453508906023 -0.106340019343 0.845 6.65054009091e-39
0.046803673672 -0.10608832699 0.843 7.38701772221e-39
0.0482490540254 -0.105836634636 0.841 7.48100561281e-39
0.0496870316625 -0.105584942283 0.839 7.29841081771e-39
0.0511176065834 -0.105333249929 0.837 7.20657532155e-39
0.052540778788 -0.105081557576 0.835 7.57535223581e-39
0.0540860958111 -0.105081557576 0.835 7.8515761891e-39
0.0554981639413 -0.104829865222 0.833 7.66934012641e-39
0.0570397796063 -0.104829865222 0.833 7.94448788248e-39
0.0585813952714 -0.104829865222 0.833 7.76117562257e-39
0.059978657969 -0.104578172869 0.831 7.76296928461e-39
0.0615165722759 -0.104578172869 0.831 7.48710406372e-39
0.0630544865828 -0.104578172869 0.831 7.21088011044e-39
0.0645924008897 -0.104578172869 0.831 8.22394042743e-39
0.0661303151966 -0.104578172869 0.831 8.22429915984e-39
0.0676682295035 -0.104578172869 0.831 7.21159757525e-39
0.0690395826941 -0.104326480515 0.829 8.0395519703e-39
0.0705737956428 -0.104326480515 0.829 8.31541719118e-39
0.071934044759 -0.104074788162 0.827 9.05261228729e-39
0.0734645563497 -0.104074788162 0.827 8.59235860928e-39
0.0751764344891 -0.104326480515 0.829 8.77567086919e-39
0.0767106474379 -0.104326480515 0.829 8.31685212081e-39
0.0782448603866 -0.104326480515 0.829 9.05261228729e-39
0.0799715439586 -0.104578172869 0.831 9.0529710197e-39
0.0815094582655 -0.104578172869 0.831 9.23807694164e-39
0.0832472459119 -0.104829865222 0.833 9.42354159599e-39
0.0849924362746 -0.105081557576 0.835 9.23915313886e-39
0.0865377532978 -0.105081557576 0.835 9.69904808447e-39
0.088083070321 -0.105081557576 0.835 9.69761315484e-39
0.0898430661163 -0.105333249929 0.837 9.79160104544e-39
0.0913920844976 -0.105333249929 0.837 1.00667488015e-38
0.0929411028789 -0.105333249929 0.837 1.05284374091e-38
0.0947159041067 -0.105584942283 0.839 1.10794503861e-38
0.0967275922554 -0.10608832699 0.843 1.13549568746e-38
0.0982877147112 -0.10608832699 0.843 1.30126873527e-38
0.0998478371669 -0.10608832699 0.843 1.04301447297e-38
0.101407959623 -0.10608832699 0.843 2.14771480498e-38
0.102968082078 -0.10608832699 0.843 2.35098253593e-38
0.0395119981375 -0.105892155008 0.854 7.84404280856e-39
0.041092478063 -0.105892155008 0.854 7.38809391943e-39
0.0425230529838 -0.105520168515 0.851 7.29589969086e-39
0.0439943428442 -0.10527217752 0.849 7.29518222605e-39
0.0454582299883 -0.105024186525 0.847 6.83743967489e-39
0.046803673672 -0.104528204534 0.843 7.48100561281e-39
0.0482490540254 -0.104280213539 0.841 7.11330489577e-39
0.049805475123 -0.104280213539 0.841 7.02290432924e-39
0.0513618962206 -0.104280213539 0.841 7.02326306165e-39
0.0526666249647 -0.103784231548 0.837 7.29984574734e-39
0.054215643346 -0.103784231548 0.837 7.29984574734e-39
0.0556314128343 -0.103536240553 0.835 7.48351673966e-39
0.0571767298575 -0.103536240553 0.835 7.11617475502e-39
0.0587220468807 -0.103536240553 0.835 7.39275744072e-39
0.0602673639038 -0.103536240553 0.835 7.57858082748e-39
0.0616646266014 -0.103288249557 0.833 7.67185125326e-39
0.0630544865828 -0.103040258562 0.831 7.39598603238e-39
0.0645924008897 -0.103040258562 0.831 8.22394042743e-39
0.0661303151966 -0.103040258562 0.831 8.03919323789e-39
0.0676682295035 -0.103040258562 0.831 8.31541719118e-39
0.0690395826941 -0.102792267567 0.829 8.31398226155e-39
0.0705737956428 -0.102792267567 0.829 8.3164933884e-39
0.0721080085916 -0.102792267567 0.829 8.49873365499e-39
0.0736422215403 -0.102792267567 0.829 8.22429915984e-39
0.0751764344891 -0.102792267567 0.829 9.05332975211e-39
0.0770807832518 -0.103288249557 0.833 8.77710579882e-39
0.0786223989168 -0.103288249557 0.833 8.68562903507e-39
0.0801640145819 -0.103288249557 0.833 8.86822383016e-39
0.0819018022283 -0.103536240553 0.835 9.33062990261e-39
0.0834471192515 -0.103536240553 0.835 9.05440594933e-39
0.0851960109723 -0.103784231548 0.837 9.23915313886e-39
0.0867450293536 -0.103784231548 0.837 9.7898073834e-39
0.0882940477349 -0.103784231548 0.837 9.79088358063e-39
0.0900577448883 -0.104032222543 0.839 1.00674662663e-38
0.091828844758 -0.104280213539 0.841 1.04355257158e-38
0.0933852658556 -0.104280213539 0.841 1.05270024795e-38
0.0949416869532 -0.104280213539 0.841 1.07113923379e-38
0.0967275922554 -0.104528204534 0.843 1.17244694705e-38
0.0982877147112 -0.104528204534 0.843 1.08936354071e-38
0.0998478371669 -0.104528204534 0.843 1.07985629115e-38
0.101407959623 -0.104528204534 0.843 2.35097412814e-38
0.102968082078 -0.104528204534 0.843 2.35069470923e-38
0.039604532091 -0.10455596472 0.856 8.0291487305e-39
0.041092478063 -0.104311675083 0.854 7.93874816397e-39
0.0425230529838 -0.103945240627 0.851 7.11115250133e-39
0.0439943428442 -0.10370095099 0.849 8.77104938686e-39
0.0454582299883 -0.103456661353 0.847 6.74524544632e-39
0.0469147144162 -0.103212371716 0.845 7.29876955012e-39
0.0483637961277 -0.102968082078 0.843 7.57427603859e-39
0.0499239185834 -0.102968082078 0.843 7.02290432924e-39
0.0513618962206 -0.102723792441 0.841 6.74811530558e-39
0.0527924711414 -0.102479502804 0.839 7.02505672368e-39
0.0543451908809 -0.102479502804 0.839 7.57642843303e-39
0.0557646617273 -0.102235213167 0.837 7.66826392919e-39
0.0573136801086 -0.102235213167 0.837 7.39311617313e-39
0.05886269849 -0.102235213167 0.837 7.39311617313e-39
0.0602673639038 -0.10199092353 0.835 7.48638659891e-39
0.061812680927 -0.10199092353 0.835 7.67077505604e-39
0.0632062422665 -0.101746633892 0.833 7.67185125326e-39
0.0647478579315 -0.101746633892 0.833 7.76332801701e-39
0.0662894735965 -0.101746633892 0.833 7.57929829229e-39
0.0678310892616 -0.101746633892 0.833 7.94843393896e-39
0.0693727049266 -0.101746633892 0.833 8.31541719118e-39
0.0705737956428 -0.101258054618 0.829 8.40761141975e-39
0.0721080085916 -0.101258054618 0.829 8.13174619886e-39
0.0736422215403 -0.101258054618 0.829 8.77746453123e-39
0.0755391675868 -0.101746633892 0.833 8.40904634937e-39
0.0770807832518 -0.101746633892 0.833 8.96113552354e-39
0.0788111681819 -0.10199092353 0.835 8.22537535706e-39
0.0803564852051 -0.10199092353 0.835 8.40976381419e-39
0.0819018022283 -0.10199092353 0.835 9.69868935206e-39
0.083646992591 -0.102235213167 0.837 9.05404721692e-39
0.0851960109723 -0.102235213167 0.837 9.79124231303e-39
0.0867450293536 -0.102235213167 0.837 9.78912214846e-39
0.0882940477349 -0.102235213167 0.837 1.04351669834e-38
0.0900577448883 -0.102479502804 0.839 9.79124231303e-39
0.0920472248882 -0.102968082078 0.843 1.04362431806e-38
0.093607347344 -0.102968082078 0.843 1.0802508968e-38
0.0951674697997 -0.102968082078 0.843 1.11698509526e-38
0.0967275922554 -0.102968082078 0.843 1.17237506044e-38
0.0985209002739 -0.103212371716 0.845 1.19067251514e-38
0.100084724088 -0.103212371716 0.845 9.78406766489e-39
0.101648547902 -0.103212371716 0.845 2.35098071424e-38
0.0398821339514 -0.103693548274 0.862 7.93803069916e-39
0.0412849486862 -0.103212371716 0.858 7.75292477721e-39
0.0425230529838 -0.102370312739 0.851 7.75579463647e-39
0.0439943428442 -0.10212972446 0.849 7.11258743096e-39
0.0455655693744 -0.10212972446 0.849 7.11222869855e-39
0.0470257551603 -0.101889136181 0.847 6.65197502054e-39
0.04847853823 -0.101648547902 0.845 6.92999263586e-39
0.0499239185834 -0.101407959623 0.843 7.29948701493e-39
0.0514840410392 -0.101407959623 0.843 7.6686226616e-39
0.0529183173182 -0.101167371344 0.841 7.20801025118e-39
0.0544747384158 -0.101167371344 0.841 7.29984574734e-39
0.0558979106203 -0.100926783065 0.839 7.39275744072e-39
0.0573136801086 -0.100686194785 0.837 7.57822209507e-39
0.05886269849 -0.100686194785 0.837 7.76296928461e-39
0.0604117168713 -0.100686194785 0.837 7.39311617313e-39
0.0619607352526 -0.100686194785 0.837 7.4856691341e-39
0.0633579979502 -0.100445606506 0.835 7.76296928461e-39
0.0649033149734 -0.100445606506 0.835 8.0395519703e-39
0.0664486319965 -0.100445606506 0.835 7.76296928461e-39
0.0679939490197 -0.100445606506 0.835 8.04062816752e-39
0.0693727049266 -0.100205018227 0.833 7.94700741712e-39
0.0709143205917 -0.100205018227 0.833 8.68491157025e-39
0.0724559362567 -0.100205018227 0.833 8.40904634937e-39
0.0739975519217 -0.100205018227 0.833 8.5934348065e-39
0.0755391675868 -0.100205018227 0.833 8.96113552354e-39
0.0772658511588 -0.100445606506 0.835 9.60398399665e-39
0.0788111681819 -0.100445606506 0.835 8.5934348065e-39
0.0803564852051 -0.100445606506 0.835 9.05727580858e-39
0.0819018022283 -0.100445606506 0.835 9.05405562471e-39
0.083646992591 -0.100686194785 0.837 9.23843567405e-39
0.0851960109723 -0.100686194785 0.837 9.69904808447e-39
0.0867450293536 -0.100686194785 0.837 9.51537709215e-39
0.0885050251489 -0.100926783065 0.839 9.97419584053e-39
0.0902724236604 -0.101167371344 0.841 1.00667488015e-38
0.0920472248882 -0.101407959623 0.843 9.97419584053e-39
0.0938294288323 -0.101648547902 0.845 1.15404243315e-38
0.0953932526462 -0.101648547902 0.845 1.10780154565e-38
0.0969570764601 -0.101648547902 0.845 1.21825595437e-38
0.0985209002739 -0.101648547902 0.845 1.20914345059e-38
0.100084724088 -0.101648547902 0.845 9.96739814168e-39
0.101648547902 -0.101648547902 0.845 2.35098085437e-38
0.0382868485934 -0.102098262916 0.862 7.93587830472e-39
0.0398821339514 -0.102098262916 0.862 7.38737645462e-39
0.0413811839978 -0.101861375995 0.86 7.84547773818e-39
0.042872831328 -0.101624489074 0.858 7.29482349364e-39
0.044253437914 -0.101150715232 0.854 6.92855770623e-39
0.0458339178395 -0.101150715232 0.854 7.11222869855e-39
0.0471367959045 -0.10055849793 0.849 7.85014125947e-39
0.0485932803324 -0.100321611009 0.847 7.20657532155e-39
0.0500423620439 -0.100084724088 0.845 7.20765151877e-39
0.0516061858578 -0.100084724088 0.845 7.02290432924e-39
0.0530441634949 -0.0998478371669 0.843 8.22107056817e-39
0.0546042859506 -0.0998478371669 0.843 8.31254733193e-39
0.0561644084064 -0.0998478371669 0.843 7.48423420447e-39
0.0577245308621 -0.0998478371669 0.843 7.21016264562e-39
0.0591440017085 -0.099610950246 0.841 7.39383363794e-39
0.0607004228061 -0.099610950246 0.841 7.39383363794e-39
0.0619607352526 -0.0991371764041 0.837 7.48638659891e-39
0.0633579979502 -0.0989002894832 0.835 7.94699900933e-39
0.0649033149734 -0.0989002894832 0.835 7.48638659891e-39
0.0664486319965 -0.0989002894832 0.835 8.0395519703e-39
0.0679939490197 -0.0989002894832 0.835 8.22429915984e-39
0.0695392660429 -0.0989002894832 0.835 7.8569571752e-39
0.0709143205917 -0.0986634025623 0.833 7.94951013618e-39
0.0724559362567 -0.0986634025623 0.833 8.3164933884e-39
0.0739975519217 -0.0986634025623 0.833 8.59235860928e-39
0.0757205341356 -0.0989002894832 0.835 8.68455283785e-39
0.0772658511588 -0.0989002894832 0.835 8.50016438072e-39
0.078999937447 -0.0991371764041 0.837 9.33062990261e-39
0.0805489558284 -0.0991371764041 0.837 8.59451100372e-39
0.0822941461911 -0.0993740633251 0.839 9.05368848451e-39
0.0838468659305 -0.0993740633251 0.839 9.33027117021e-39
0.08539958567 -0.0993740633251 0.839 8.96257045317e-39
0.0869523054094 -0.0993740633251 0.839 9.883795274e-39
0.0887160025628 -0.099610950246 0.841 1.00674662663e-38
0.0904871024325 -0.0998478371669 0.843 9.88307780919e-39
0.0922656050184 -0.100084724088 0.845 1.13556743394e-38
0.0940515103207 -0.100321611009 0.847 1.08021502356e-38
0.0956190354927 -0.100321611009 0.847 1.12624039136e-38
0.0971865606647 -0.100321611009 0.847 1.23676836825e-38
0.0987540858367 -0.100321611009 0.847 1.27371528382e-38
0.100321611009 -0.100321611009 0.847 1.29197728567e-38
0.101889136181 -0.100321611009 0.847 2.35097945307e-38
0.0382868485934 -0.100502977558 0.862 8.20994986356e-39
0.0398821339514 -0.100502977558 0.862 8.03058366013e-39
0.0413811839978 -0.100269791995 0.86 7.2037054623e-39
0.042872831328 -0.100036606432 0.858 7.20478165952e-39
0.044253437914 -0.0995702353064 0.854 7.66575280234e-39
0.0458339178395 -0.0995702353064 0.854 7.66575280234e-39
0.0472478366487 -0.0992204569623 0.851 7.02218686442e-39
0.0487080224347 -0.0989872713995 0.849 7.57535223581e-39
0.0501608055044 -0.0987540858367 0.847 7.66790519679e-39
0.0516061858578 -0.0985209002739 0.845 7.94412915007e-39
0.0531700096716 -0.0985209002739 0.845 7.48351673966e-39
0.0547338334855 -0.0985209002739 0.845 7.57642843303e-39
0.0561644084064 -0.0982877147112 0.843 7.66790519679e-39
0.0577245308621 -0.0982877147112 0.843 7.48638659891e-39
0.0592846533178 -0.0982877147112 0.843 7.85623971039e-39
0.0607004228061 -0.0980545291484 0.841 8.03812404716e-39
0.0622568439037 -0.0980545291484 0.841 7.48638659891e-39
0.0638132650013 -0.0980545291484 0.841 7.76404548183e-39
0.0652142290571 -0.0978213435856 0.839 8.13102873405e-39
0.0667669487965 -0.0978213435856 0.839 8.03991070271e-39
0.068319668536 -0.0978213435856 0.839 8.31721085321e-39
0.0698723882754 -0.0978213435856 0.839 7.94879267136e-39
0.0712548455405 -0.0975881580228 0.837 8.22429915984e-39
0.0728038639218 -0.0975881580228 0.837 9.883795274e-39
0.0745305474938 -0.0978213435856 0.839 9.32883624058e-39
0.0760832672332 -0.0978213435856 0.839 8.96257045317e-39
0.0776359869727 -0.0978213435856 0.839 8.96257045317e-39
0.0793774759773 -0.0980545291484 0.841 8.87073495701e-39
0.0809338970749 -0.0980545291484 0.841 8.8703762246e-39
0.0826864901538 -0.0982877147112 0.843 9.23735947683e-39
0.0842466126096 -0.0982877147112 0.843 9.14588271308e-39
0.0858067350653 -0.0982877147112 0.843 9.23807694164e-39
0.087366857521 -0.0982877147112 0.843 9.69833061965e-39
0.0891379573907 -0.0985209002739 0.845 9.70012428169e-39
0.0907017812046 -0.0985209002739 0.845 1.00685424635e-38
0.0924839851487 -0.0987540858367 0.847 1.0436601913e-38
0.0940515103207 -0.0987540858367 0.847 1.07113909366e-38
0.0958448183392 -0.0989872713995 0.849 1.20006780095e-38
0.0971865606647 -0.0987540858367 0.847 1.29208238305e-38
0.0987540858367 -0.0987540858367 0.847 1.16293871658e-38
0.100321611009 -0.0987540858367 0.847 1.60486845535e-38
0.0382868485934 -0.0989076921995 0.862 8.01802802589e-39
0.0398821339514 -0.0989076921995 0.862 8.30286155694e-39
0.0413811839978 -0.0986782079949 0.86 7.66180674587e-39
0.0427728946582 -0.0982192395856 0.856 7.38809391943e-39
0.0443570759419 -0.0982192395856 0.856 7.20478165952e-39
0.0458339178395 -0.0979897553809 0.854 7.38917011665e-39
0.047414397765 -0.0979897553809 0.854 6.92999263586e-39
0.048822764537 -0.097645529074 0.851 7.20621658915e-39
0.0502792489648 -0.0974160448693 0.849 7.20729278637e-39
0.0517283306764 -0.0971865606647 0.847 6.84030953414e-39
0.0532958558484 -0.0971865606647 0.847 7.39347490553e-39
0.0547338334855 -0.0969570764601 0.845 7.85229365392e-39
0.0562976572994 -0.0969570764601 0.845 7.57642843303e-39
0.0578614811133 -0.0969570764601 0.845 7.48638659891e-39
0.0594253049271 -0.0969570764601 0.845 7.21052137803e-39
0.0608447757736 -0.0967275922554 0.843 8.03847577308e-39
0.0624048982293 -0.0967275922554 0.843 8.31469972637e-39
0.063965020685 -0.0967275922554 0.843 7.94735774173e-39
0.0653696860989 -0.0964981080508 0.841 8.31541719118e-39
0.0669261071965 -0.0964981080508 0.841 8.50016438072e-39
0.0684825282941 -0.0964981080508 0.841 8.22501662465e-39
0.0700389493917 -0.0964981080508 0.841 8.59235860928e-39
0.0715953704893 -0.0964981080508 0.841 8.7760296016e-39
0.0731517915869 -0.0964981080508 0.841 8.31541719118e-39
0.0747082126845 -0.0964981080508 0.841 8.40868761697e-39
0.0762646337821 -0.0964981080508 0.841 8.77674706641e-39
0.0780061227866 -0.0967275922554 0.843 9.14588271308e-39
0.0795662452424 -0.0967275922554 0.843 8.77710579882e-39
0.0811263676981 -0.0967275922554 0.843 9.14588271308e-39
0.0826864901538 -0.0967275922554 0.843 9.79088358063e-39
0.0842466126096 -0.0967275922554 0.843 9.23807694164e-39
0.086010309763 -0.0969570764601 0.845 1.0434808251e-38
0.0875741335768 -0.0969570764601 0.845 9.79088358063e-39
0.0891379573907 -0.0969570764601 0.845 9.8834365416e-39
0.0909164599767 -0.0971865606647 0.847 9.883795274e-39
0.0927023652789 -0.0974160448693 0.849 1.20021101366e-38
0.094273591809 -0.0974160448693 0.849 1.0895061929e-38
0.0958448183392 -0.0974160448693 0.849 1.07117496691e-38
0.0974160448693 -0.0974160448693 0.849 1.17222988592e-38
0.0989872713995 -0.0974160448693 0.849 1.18126994257e-38
0.035462712333 -0.0983284296507 0.871 2.08163321278e-38
0.0370746538027 -0.0983284296507 0.871 1.73032054115e-38
0.0382868485934 -0.0973124068414 0.862 1.03124805002e-38
0.0398821339514 -0.0973124068414 0.862 8.67235593601e-39
0.0413811839978 -0.0970866239949 0.86 7.93803069916e-39
0.0427728946582 -0.0966350583019 0.856 7.75615336887e-39
0.0443570759419 -0.0966350583019 0.856 7.38881138424e-39
0.0458339178395 -0.0964092754554 0.854 7.66575280234e-39
0.047414397765 -0.0964092754554 0.854 7.57391730619e-39
0.048822764537 -0.0960706011857 0.851 7.29876955012e-39
0.0502792489648 -0.0958448183392 0.849 7.20765151877e-39
0.051850475495 -0.0958448183392 0.849 7.48423420447e-39
0.0532958558484 -0.0956190354927 0.847 7.11725095224e-39
0.0548633810204 -0.0956190354927 0.847 7.39383363794e-39
0.0562976572994 -0.0953932526462 0.845 7.4856691341e-39
0.0578614811133 -0.0953932526462 0.845 7.57858082748e-39
0.0594253049271 -0.0953932526462 0.845 7.39419237035e-39
0.0608447757736 -0.0951674697997 0.843 8.03919323789e-39
0.0624048982293 -0.0951674697997 0.843 7.11796841706e-39
0.063965020685 -0.0951674697997 0.843 7.85623971039e-39
0.0655251431408 -0.0951674697997 0.843 8.0395519703e-39
0.0670852655965 -0.0951674697997 0.843 8.3164933884e-39
0.0686453880522 -0.0951674697997 0.843 7.76368674942e-39
0.070205510508 -0.0951674697997 0.843 8.77674706641e-39
0.0717656329637 -0.0951674697997 0.843 8.77531213678e-39
0.0733257554194 -0.0951674697997 0.843 8.86750636535e-39
0.0748858778752 -0.0951674697997 0.843 8.68455283785e-39
0.0764460003309 -0.0951674697997 0.843 8.68562903507e-39
0.0780061227866 -0.0951674697997 0.843 9.05261228729e-39
0.0795662452424 -0.0951674697997 0.843 9.42138920155e-39
0.0811263676981 -0.0951674697997 0.843 9.883795274e-39
0.0828826621352 -0.0953932526462 0.845 9.32992224689e-39
0.0844464859491 -0.0953932526462 0.845 9.05476468173e-39
0.086010309763 -0.0953932526462 0.845 9.88164287956e-39
0.0875741335768 -0.0953932526462 0.845 1.00667488015e-38
0.0891379573907 -0.0953932526462 0.845 9.24058806849e-39
0.0909164599767 -0.0956190354927 0.847 9.97634823498e-39
0.0927023652789 -0.0958448183392 0.849 1.04355257158e-38
0.094273591809 -0.0958448183392 0.849 1.08954206614e-38
0.0960706011857 -0.0960706011857 0.851 1.19077789278e-38
0.097645529074 -0.0960706011857 0.851 1.21829238813e-38
0.035462712333 -0.096716488181 0.871 1.84192359423e-38
0.0370746538027 -0.096716488181 0.871 2.07137024296e-38
0.0386865952724 -0.096716488181 0.871 1.24298242629e-38
0.0399746679049 -0.0959392029717 0.864 8.9431989032e-39
0.0414774193095 -0.0957171214834 0.862 8.03022492772e-39
0.0429727679978 -0.095495039995 0.86 7.75687083369e-39
0.0444607139698 -0.0952729585067 0.858 7.20478165952e-39
0.0459412572255 -0.0950508770183 0.856 7.1150985578e-39
0.0475254385092 -0.0950508770183 0.856 7.20621658915e-39
0.0489948776905 -0.0948287955299 0.854 7.39096377868e-39
0.0503976924253 -0.0944956732974 0.851 7.30056321215e-39
0.0519726203136 -0.0944956732974 0.851 7.57571096822e-39
0.0534217020251 -0.094273591809 0.849 7.66790519679e-39
0.0549929285553 -0.094273591809 0.849 7.39311617313e-39
0.0562976572994 -0.0938294288323 0.845 7.57822209507e-39
0.0578614811133 -0.0938294288323 0.845 7.57858082748e-39
0.0594253049271 -0.0938294288323 0.845 7.57858082748e-39
0.060989128741 -0.0938294288323 0.845 8.12959380442e-39
0.0625529525549 -0.0938294288323 0.845 7.94735774173e-39
0.063965020685 -0.093607347344 0.843 8.03919323789e-39
0.0655251431408 -0.093607347344 0.843 8.0395519703e-39
0.0670852655965 -0.093607347344 0.843 8.40761141975e-39
0.0686453880522 -0.093607347344 0.843 8.04098689993e-39
0.070205510508 -0.093607347344 0.843 8.96041805873e-39
0.0717656329637 -0.093607347344 0.843 8.86750636535e-39
0.073499719252 -0.0938294288323 0.845 8.59164114447e-39
0.0750635430659 -0.0938294288323 0.845 8.68455283785e-39
0.0766273668797 -0.0938294288323 0.845 8.77710579882e-39
0.0781911906936 -0.0938294288323 0.845 9.79052484822e-39
0.0797550145075 -0.0938294288323 0.845 9.42174793396e-39
0.0813188383213 -0.0938294288323 0.845 9.42282413118e-39
0.0828826621352 -0.0938294288323 0.845 9.33134736743e-39
0.0844464859491 -0.0938294288323 0.845 1.01614541569e-38
0.086010309763 -0.0938294288323 0.845 1.06195554405e-38
0.0875741335768 -0.0938294288323 0.845 9.69868935206e-39
0.0893489348046 -0.0940515103207 0.847 9.79052765082e-39
0.0913458175208 -0.0944956732974 0.851 9.97634823498e-39
0.0932483156044 -0.0948287955299 0.854 1.08964968586e-38
0.0944956732974 -0.0944956732974 0.851 1.10798091185e-38
0.0960706011857 -0.0944956732974 0.851 1.21836287344e-38
0.097645529074 -0.0944956732974 0.851 1.14450309386e-38
0.0370746538027 -0.0951045467113 0.871 1.96091541384e-38
0.0385977626771 -0.0948861665811 0.869 1.83241984791e-38
0.0399746679049 -0.0943402162556 0.864 1.12354989831e-38
0.0414774193095 -0.0941218361253 0.862 8.39397958828e-39
0.0429727679978 -0.0939034559951 0.86 7.93731323434e-39
0.0444607139698 -0.0936850758649 0.858 7.48136434521e-39
0.0460485966116 -0.0936850758649 0.858 7.02254559683e-39
0.0475254385092 -0.0934666957347 0.856 8.40330663086e-39
0.0491096197928 -0.0934666957347 0.856 7.75902322813e-39
0.050575357616 -0.0932483156044 0.854 7.208727716e-39
0.0521558375415 -0.0932483156044 0.854 7.20836898359e-39
0.0535475482019 -0.0929207454091 0.851 7.39275744072e-39
0.0551224760902 -0.0929207454091 0.851 7.30092194456e-39
0.0565641550854 -0.0927023652789 0.849 7.85408731595e-39
0.0579984313644 -0.0924839851487 0.847 7.85336985114e-39
0.0595659565364 -0.0924839851487 0.847 8.31362352915e-39
0.060989128741 -0.0922656050184 0.845 7.94592281211e-39
0.0625529525549 -0.0922656050184 0.845 8.22394042743e-39
0.0641167763688 -0.0922656050184 0.845 7.58073322192e-39
0.0656806001826 -0.0922656050184 0.845 7.8569571752e-39
0.0672444239965 -0.0922656050184 0.845 8.59235860928e-39
0.0688082478104 -0.0922656050184 0.845 8.68455283785e-39
0.0703720716242 -0.0922656050184 0.845 8.59235860928e-39
0.0719358954381 -0.0922656050184 0.845 8.22465789224e-39
0.0736736830845 -0.0924839851487 0.847 8.77782326363e-39
0.0752412082565 -0.0924839851487 0.847 8.77782326363e-39
0.0768087334286 -0.0924839851487 0.847 9.05368848451e-39
0.0781911906936 -0.0922656050184 0.845 9.23807694164e-39
0.0797550145075 -0.0922656050184 0.845 8.96257045317e-39
0.0813188383213 -0.0922656050184 0.845 8.96328791798e-39
0.0830788341166 -0.0924839851487 0.847 9.33062990261e-39
0.0846463592886 -0.0924839851487 0.847 9.23915313886e-39
0.0862138844606 -0.0924839851487 0.847 9.69904808447e-39
0.0877814096326 -0.0924839851487 0.847 9.32847750817e-39
0.0893489348046 -0.0924839851487 0.847 1.00660313367e-38
0.0916678356789 -0.0932483156044 0.854 1.09868974251e-38
0.0932483156044 -0.0932483156044 0.854 1.14468610343e-38
0.0950508770183 -0.0934666957347 0.856 1.13560330718e-38
0.0966350583019 -0.0934666957347 0.856 1.21832742059e-38
0.0982192395856 -0.0934666957347 0.856 9.87949048512e-39
0.0370746538027 -0.0934926052416 0.871 2.07169492381e-38
0.0385977626771 -0.0932779264696 0.869 1.8413150103e-38
0.0399746679049 -0.0927412295394 0.864 1.64838633968e-38
0.0414774193095 -0.0925265507673 0.862 1.04122081093e-38
0.0429727679978 -0.0923118719952 0.86 8.21389592004e-39
0.0444607139698 -0.0920971932231 0.858 7.48136434521e-39
0.0460485966116 -0.0920971932231 0.858 7.39096377868e-39
0.0475254385092 -0.091882514451 0.856 7.57355857378e-39
0.0491096197928 -0.091882514451 0.856 7.38953445425e-39
0.050575357616 -0.0916678356789 0.854 7.57606970063e-39
0.0521558375415 -0.0916678356789 0.854 7.94448788248e-39
0.053736317467 -0.0916678356789 0.854 7.48531040169e-39
0.0553167973925 -0.0916678356789 0.854 7.30163940937e-39
0.0566974039784 -0.0913458175208 0.851 7.30128067697e-39
0.0581353816156 -0.0911311387487 0.849 7.76189308738e-39
0.0595659565364 -0.0909164599767 0.847 8.12995253683e-39
0.0611334817084 -0.0909164599767 0.847 7.94592281211e-39
0.0627010068805 -0.0909164599767 0.847 7.94735774173e-39
0.0642685320525 -0.0909164599767 0.847 7.76332801701e-39
0.0658360572245 -0.0909164599767 0.847 8.3164933884e-39
0.0674035823965 -0.0909164599767 0.847 8.59271734169e-39
0.0689711075685 -0.0909164599767 0.847 8.86786509776e-39
0.0705386327405 -0.0909164599767 0.847 8.77567086919e-39
0.0721061579125 -0.0909164599767 0.847 8.77710579882e-39
0.0736736830845 -0.0909164599767 0.847 8.8700174922e-39
0.0752412082565 -0.0909164599767 0.847 8.8700174922e-39
0.0768087334286 -0.0909164599767 0.847 8.68670523229e-39
0.0783762586006 -0.0909164599767 0.847 9.14552398067e-39
0.0799437837726 -0.0909164599767 0.847 8.8700174922e-39
0.0815113089446 -0.0909164599767 0.847 9.23807694164e-39
0.0830788341166 -0.0909164599767 0.847 8.68562903507e-39
0.0846463592886 -0.0909164599767 0.847 9.23915313886e-39
0.0862138844606 -0.0909164599767 0.847 9.33098863502e-39
0.0877814096326 -0.0909164599767 0.847 1.09879736223e-38
0.0893489348046 -0.0909164599767 0.847 1.08957793938e-38
0.091882514451 -0.091882514451 0.856 1.1170209685e-38
0.0934666957347 -0.091882514451 0.856 1.11698509526e-38
0.0952729585067 -0.0920971932231 0.858 1.1815569285e-38
0.0968608411484 -0.0920971932231 0.858 1.05241326203e-38
0.0374577443701 -0.0928300621347 0.88 1.92418135551e-38
0.0386865952724 -0.091880663772 0.871 1.97978571935e-38
0.0402060027886 -0.091669686358 0.869 1.94290760754e-38
0.0417180075885 -0.0914587089441 0.867 1.54711534044e-38
0.0430727046675 -0.0909312654092 0.862 1.08749729142e-38
0.0445643519977 -0.0907202879953 0.86 7.47813575355e-39
0.0460485966116 -0.0905093105813 0.858 7.38988758146e-39
0.0476364792533 -0.0905093105813 0.858 7.75794703091e-39
0.0491096197928 -0.0902983331674 0.856 7.75830576332e-39
0.050575357616 -0.0900873557534 0.854 7.94341168526e-39
0.0521558375415 -0.0900873557534 0.854 7.57499350341e-39
0.0538621636437 -0.0902983331674 0.856 8.2221467654e-39
0.0553167973925 -0.0900873557534 0.854 7.48531040169e-39
0.056897277318 -0.0900873557534 0.854 8.13174619886e-39
0.0582723318667 -0.0897708896325 0.851 7.85444604836e-39
0.059847259755 -0.0897708896325 0.851 7.48710406372e-39
0.0612778346759 -0.0895599122186 0.849 7.48674533132e-39
0.062849061206 -0.0895599122186 0.849 7.94736054433e-39
0.0642685320525 -0.0893489348046 0.847 8.03919323789e-39
0.0658360572245 -0.0893489348046 0.847 8.59128241206e-39
0.0674035823965 -0.0893489348046 0.847 8.31541719118e-39
0.0691339673266 -0.0895599122186 0.849 8.68455283785e-39
0.0705386327405 -0.0893489348046 0.847 8.95934186151e-39
0.0721061579125 -0.0893489348046 0.847 8.95970059391e-39
0.0736736830845 -0.0893489348046 0.847 8.68455283785e-39
0.0752412082565 -0.0893489348046 0.847 8.77782326363e-39
0.0768087334286 -0.0893489348046 0.847 8.96113552354e-39
0.0783762586006 -0.0893489348046 0.847 9.51465962734e-39
0.0799437837726 -0.0893489348046 0.847 9.69940681687e-39
0.0815113089446 -0.0893489348046 0.847 1.02518547234e-38
0.0830788341166 -0.0893489348046 0.847 9.88307780919e-39
0.0848462326281 -0.0895599122186 0.849 9.23915313886e-39
0.086621033856 -0.0897708896325 0.851 9.05763454099e-39
0.0881959617442 -0.0897708896325 0.851 1.01600192273e-38
0.0900873557534 -0.0900873557534 0.854 9.883795274e-39
0.091882514451 -0.0902983331674 0.856 1.04355257158e-38
0.0936850758649 -0.0905093105813 0.858 1.1355315607e-38
0.095495039995 -0.0907202879953 0.86 1.11694922202e-38
0.0970866239949 -0.0907202879953 0.86 9.88128414716e-39
0.0345503275517 -0.0921342068045 0.889 2.34986710235e-38
0.0361141513656 -0.0919269307487 0.887 1.92410708669e-38
0.0375428756073 -0.0914087406092 0.882 2.06258171938e-38
0.0391751745468 -0.0914087406092 0.882 1.91517815301e-38
0.0402985367421 -0.0902687223023 0.871 2.04443042011e-38
0.0419104782118 -0.0902687223023 0.871 1.85096757451e-38
0.0434224830117 -0.0900614462465 0.869 1.64842109188e-38
0.0447716280535 -0.089543256107 0.864 1.05973140313e-38
0.0461559359976 -0.0891287039954 0.86 7.47849448596e-39
0.0476364792533 -0.0889214279396 0.858 8.30931874026e-39
0.0492243618951 -0.0889214279396 0.858 7.11330489577e-39
0.0506938010764 -0.0887141518838 0.856 7.94448788248e-39
0.0522779823601 -0.0887141518838 0.856 6.74739784076e-39
0.0538621636437 -0.0887141518838 0.856 7.66934012641e-39
0.0554463449273 -0.0887141518838 0.856 6.74847403798e-39
0.057030526211 -0.0887141518838 0.856 7.21088011044e-39
0.0584777572435 -0.0885068758279 0.854 7.57858082748e-39
0.060058237169 -0.0885068758279 0.854 7.57929829229e-39
0.0616387170945 -0.0885068758279 0.854 7.76368674942e-39
0.06321919702 -0.0885068758279 0.854 7.39598603238e-39
0.0645720434199 -0.0881959617442 0.851 7.76404548183e-39
0.0661469713082 -0.0881959617442 0.851 8.4990881835e-39
0.0677218991965 -0.0881959617442 0.851 8.59056494725e-39
0.0692968270848 -0.0881959617442 0.851 8.5930760741e-39
0.0708717549731 -0.0881959617442 0.851 8.8700174922e-39
0.0724466828613 -0.0881959617442 0.851 8.77710579882e-39
0.0740216107496 -0.0881959617442 0.851 8.5934348065e-39
0.0754188734472 -0.0879886856884 0.849 8.96113552354e-39
0.0769900999774 -0.0879886856884 0.849 8.77782326363e-39
0.0785613265075 -0.0879886856884 0.849 9.14445338864e-39
0.0801325530377 -0.0879886856884 0.849 8.22788648391e-39
0.0817037795678 -0.0879886856884 0.849 9.14982876955e-39
0.083275006098 -0.0879886856884 0.849 9.05763454099e-39
0.0848462326281 -0.0879886856884 0.849 9.2413055333e-39
0.086621033856 -0.0881959617442 0.851 9.2413055333e-39
0.0881959617442 -0.0881959617442 0.851 9.79088358063e-39
0.0905093105813 -0.0889214279396 0.858 1.05270024795e-38
0.0920971932231 -0.0889214279396 0.858 1.14485860328e-38
0.0939034559951 -0.0891287039954 0.86 1.03393854307e-38
0.0957171214834 -0.0893359800512 0.862 1.10765805268e-38
0.0973124068414 -0.0893359800512 0.862 2.15703372003e-38
0.0330901417657 -0.0909978898557 0.894 2.34950612787e-38
0.0345503275517 -0.0904889531116 0.889 2.35000989467e-38
0.0361141513656 -0.0902853784139 0.887 1.84106291671e-38
0.0377557037004 -0.0902853784139 0.887 1.95194794445e-38
0.0393972560352 -0.0902853784139 0.887 1.97975012637e-38
0.0403910706956 -0.0888603555303 0.873 1.92457666181e-38
0.0419104782118 -0.0886567808326 0.871 1.95227262531e-38
0.0434224830117 -0.0884532061349 0.869 2.04436035519e-38
0.0449270850953 -0.0882496314373 0.867 1.64842263331e-38
0.0462632753836 -0.0877406946931 0.862 1.36386473767e-38
0.0477475199975 -0.0875371199954 0.86 9.13368581124e-39
0.0492243618951 -0.0873335452978 0.858 7.85121745669e-39
0.0506938010764 -0.0871299706001 0.856 7.57606970063e-39
0.0522779823601 -0.0871299706001 0.856 7.66934012641e-39
0.0538621636437 -0.0871299706001 0.856 7.4860278665e-39
0.0555758924622 -0.0873335452978 0.858 7.39419237035e-39
0.057030526211 -0.0871299706001 0.856 8.86930002738e-39
0.0586147074946 -0.0871299706001 0.856 7.39455110275e-39
0.0601988887783 -0.0871299706001 0.856 7.94843393896e-39
0.0617830700619 -0.0871299706001 0.856 8.03991070271e-39
0.06321919702 -0.0869263959024 0.854 7.94843393896e-39
0.0647996769455 -0.0869263959024 0.854 8.22501662465e-39
0.066380156871 -0.0869263959024 0.854 8.31541719118e-39
0.0679606367965 -0.0869263959024 0.854 8.77567086919e-39
0.069541116722 -0.0869263959024 0.854 8.22465789224e-39
0.0708717549731 -0.086621033856 0.851 8.50267550757e-39
