# .PCD v0.7 - Point Cloud Data file format
VERSION 0.7
FIELDS x y z rgb
SIZE 4 4 4 4
TYPE F F F F
COUNT 1 1 1 1
WIDTH 858
HEIGHT 1
VIEWPOINT 0 0 0 1 0 0 0
POINTS 858
DATA ascii
0.0759796292053 -0.151959258411 0.805 2.34856613686e-38
0.0776618964797 -0.152336796941 0.807 2.34918396935e-38
0.0791553944889 -0.152336796941 0.807 2.35058975197e-38
0.0812485125167 -0.153469412532 0.813 2.35065869586e-38
0.0831602639957 -0.154224489592 0.817 2.35098477801e-38
0.0848795448514 -0.154602028122 0.819 2.35098505827e-38
0.0866062284234 -0.154979566652 0.821 2.35098351684e-38
0.0885549934838 -0.155734643713 0.825 2.35098267606e-38
0.0903001838465 -0.156112182243 0.827 2.35055219717e-38
0.0290797202217 -0.154581670652 0.827 2.34975752081e-38
0.0306102318124 -0.154581670652 0.827 1.95248674371e-38
0.032140743403 -0.154581670652 0.827 1.65580271181e-38
0.0336712549936 -0.154581670652 0.827 1.65749800269e-38
0.0352017665842 -0.154581670652 0.827 1.73121737217e-38
0.0366434455795 -0.15420783348 0.825 1.75880809815e-38
0.038170255812 -0.15420783348 0.825 1.84178136243e-38
0.0396008307328 -0.153833996308 0.823 1.84163913064e-38
0.0411239396072 -0.153833996308 0.823 1.86911607119e-38
0.0425434104536 -0.153460159136 0.821 1.85989622794e-38
0.0440628179698 -0.153460159136 0.821 1.87844311376e-38
0.0453601439976 -0.152712484792 0.817 1.82305356898e-38
0.0467574066952 -0.15233864762 0.815 1.72171124365e-38
0.0481472666766 -0.151964810448 0.813 1.80472416467e-38
0.0495297239416 -0.151590973276 0.811 1.76798856491e-38
0.0507789323136 -0.150843298932 0.807 1.8139058926e-38
0.0522724303229 -0.150843298932 0.807 1.82312573585e-38
0.0536326794391 -0.15046946176 0.805 1.85082015792e-38
0.0551224760902 -0.15046946176 0.805 1.93358294717e-38
0.0564716211319 -0.150095624588 0.803 1.90620914219e-38
0.0578855399412 -0.149908706001 0.802 2.03524799153e-38
0.059369784555 -0.149908706001 0.802 1.9617063067e-38
0.0607022734852 -0.149534868829 0.8 2.05372243023e-38
0.0621828167409 -0.149534868829 0.8 2.06287136777e-38
0.0638225183967 -0.149908706001 0.802 2.09974961972e-38
0.0653067630106 -0.149908706001 0.802 2.14574009519e-38
0.0667910076244 -0.149908706001 0.802 2.22864455571e-38
0.0683603834755 -0.150095624588 0.803 2.16403726962e-38
0.0698464787685 -0.150095624588 0.803 2.21031234881e-38
0.0713325740614 -0.150095624588 0.803 2.23764873912e-38
0.0730000359032 -0.15046946176 0.805 2.34871691657e-38
0.0744898325543 -0.15046946176 0.805 2.3021799347e-38
0.0761683984705 -0.150843298932 0.807 2.34910998079e-38
0.0778543671029 -0.151217136104 0.809 2.35029912267e-38
0.0795477384517 -0.151590973276 0.811 2.35098533853e-38
0.0812485125167 -0.151964810448 0.813 2.35098631944e-38
0.0831602639957 -0.152712484792 0.817 2.35098351684e-38
0.0848795448514 -0.153086321964 0.819 2.35098323658e-38
0.0866062284234 -0.153460159136 0.821 2.35098309645e-38
0.0881256359396 -0.153460159136 0.821 2.35080092765e-38
0.089863423586 -0.153833996308 0.823 2.35083764167e-38
0.0913865324604 -0.153833996308 0.823 2.35076701623e-38
0.0275492086311 -0.153051159062 0.827 2.34939752724e-38
0.0290797202217 -0.153051159062 0.827 2.35012017686e-38
0.0306102318124 -0.153051159062 0.827 1.1963725769e-38
0.032140743403 -0.153051159062 0.827 1.68411202364e-38
0.0336712549936 -0.153051159062 0.827 1.68487152741e-38
0.035116635347 -0.152681023248 0.825 1.72189201115e-38
0.0366434455795 -0.152681023248 0.825 1.82330692374e-38
0.0380777218585 -0.152310887434 0.823 1.8418873006e-38
0.0396008307328 -0.152310887434 0.823 1.84160059493e-38
0.0410240029374 -0.15194075162 0.821 2.0074448287e-38
0.0424397724257 -0.151570615806 0.819 1.8507848452e-38
0.0438481391977 -0.151200479992 0.817 1.8784428335e-38
0.0453601439976 -0.151200479992 0.817 1.91528044779e-38
0.0467574066952 -0.150830344178 0.815 1.79560997933e-38
0.0481472666766 -0.150460208364 0.813 1.83238229311e-38
0.0495297239416 -0.15009007255 0.811 1.85082141909e-38
0.0509047784904 -0.149719936736 0.809 1.83241984791e-38
0.0524019778577 -0.149719936736 0.809 1.83227467339e-38
0.0537659283321 -0.149349800922 0.807 1.96131352274e-38
0.0551224760902 -0.148979665109 0.805 1.96138260675e-38
0.0566122727412 -0.148979665109 0.805 1.97975040663e-38
0.0579577164249 -0.148609529295 0.803 2.03514107246e-38
0.0594438117178 -0.148609529295 0.803 2.00758930257e-38
0.0608540291689 -0.148424461388 0.802 2.09985779996e-38
0.0623382737828 -0.148424461388 0.802 2.16432187334e-38
0.0639020975967 -0.148609529295 0.803 2.2102404622e-38
0.0653881928896 -0.148609529295 0.803 2.09017230523e-38
0.0668742881826 -0.148609529295 0.803 2.23772090599e-38
0.0683603834755 -0.148609529295 0.803 2.2471527657e-38
0.070020442601 -0.148979665109 0.805 2.31165187154e-38
0.0715102392521 -0.148979665109 0.805 2.34824439873e-38
0.0730000359032 -0.148979665109 0.805 2.34856949998e-38
0.0746749004612 -0.149349800922 0.807 2.34972094692e-38
0.0763571677356 -0.149719936736 0.809 2.35047960991e-38
0.0780468377262 -0.15009007255 0.811 2.35098575892e-38
0.0795477384517 -0.15009007255 0.811 2.35065953664e-38
0.0812485125167 -0.150460208364 0.813 2.35098393723e-38
0.0831602639957 -0.151200479992 0.817 2.35098421749e-38
0.0848795448514 -0.151570615806 0.819 2.35073086273e-38
0.0863952510095 -0.151570615806 0.819 2.35098295632e-38
0.0881256359396 -0.15194075162 0.821 2.35094792386e-38
0.0896450434558 -0.15194075162 0.821 2.35076785701e-38
0.091164450972 -0.15194075162 0.821 2.35098533853e-38
0.0926838584882 -0.15194075162 0.821 2.35037269084e-38
0.0275492086311 -0.151520647471 0.827 2.34946815268e-38
0.0290797202217 -0.151520647471 0.827 2.35026058696e-38
0.0306102318124 -0.151520647471 0.827 8.73048319761e-39
0.032140743403 -0.151520647471 0.827 1.69372815409e-38
0.0336712549936 -0.151520647471 0.827 1.64792040794e-38
0.035116635347 -0.151154213015 0.825 1.77710275025e-38
0.0365546129841 -0.15078777856 0.823 1.88787917736e-38
0.0380777218585 -0.15078777856 0.823 1.84160059493e-38
0.0395045954212 -0.150421344104 0.821 1.85982448146e-38
0.0408241295979 -0.149688475192 0.817 1.89666742068e-38
0.0423361343978 -0.149688475192 0.817 1.91517843327e-38
0.0437407998117 -0.149322040736 0.815 1.93350811783e-38
0.0451380625093 -0.148955606281 0.813 1.8690794973e-38
0.0466426645929 -0.148955606281 0.813 1.89681035313e-38
0.0481472666766 -0.148955606281 0.813 1.87844255325e-38
0.0495297239416 -0.148589171825 0.811 1.85082113883e-38
0.0510306246671 -0.148589171825 0.811 1.91521374599e-38
0.0525315253926 -0.148589171825 0.811 1.90592201613e-38
0.0538991772251 -0.148222737369 0.809 1.97971537417e-38
0.0552594263413 -0.147856302913 0.807 1.93358112548e-38
0.0566122727412 -0.147489868457 0.805 1.99819023325e-38
0.0581020693923 -0.147489868457 0.805 2.0903505504e-38
0.0595918660434 -0.147489868457 0.805 2.13644808507e-38
0.0609299070108 -0.147123434002 0.803 2.11818874569e-38
0.0624160023037 -0.147123434002 0.803 2.18265379998e-38
0.0639020975967 -0.147123434002 0.803 2.24729822048e-38
0.0655510526477 -0.147489868457 0.805 2.31158278753e-38
0.0670408492988 -0.147489868457 0.805 2.31140272068e-38
0.0685306459499 -0.147489868457 0.805 2.34835187832e-38
0.070020442601 -0.147489868457 0.805 2.34892809225e-38
0.0716879044428 -0.147856302913 0.807 2.34953555514e-38
0.073181402452 -0.147856302913 0.807 2.34997374117e-38
0.0748599683682 -0.148222737369 0.809 2.35019150295e-38
0.0765459370007 -0.148589171825 0.811 2.35087547673e-38
0.0780468377262 -0.148589171825 0.811 2.35080064739e-38
0.0797439104331 -0.148955606281 0.813 2.35098337671e-38
0.0814483858562 -0.149322040736 0.815 2.3509809945e-38
0.0831602639957 -0.149688475192 0.817 2.35098407736e-38
0.0846722687956 -0.149688475192 0.817 2.35098449775e-38
0.0863952510095 -0.150054909648 0.819 2.35098337671e-38
0.0879109571675 -0.150054909648 0.819 2.35069386845e-38
0.0894266633256 -0.150054909648 0.819 2.35058596847e-38
0.0909423694836 -0.150054909648 0.819 2.35058484743e-38
0.0924580756417 -0.150054909648 0.819 2.3506222621e-38
0.0939737817998 -0.150054909648 0.819 2.35011835517e-38
0.0275492086311 -0.149990135881 0.827 2.34968661511e-38
0.0290797202217 -0.149990135881 0.827 2.3503715698e-38
0.0306102318124 -0.149990135881 0.827 9.09711332262e-39
0.032140743403 -0.149990135881 0.827 1.72156999276e-38
0.0335898251145 -0.149627402783 0.825 1.71270804114e-38
0.035116635347 -0.149627402783 0.825 1.77731476671e-38
0.0365546129841 -0.149264669685 0.823 1.7403291753e-38
0.037985187905 -0.148901936588 0.821 1.85989622794e-38
0.0394083601096 -0.14853920349 0.819 1.92446806118e-38
0.0408241295979 -0.148176470392 0.817 1.88755519716e-38
0.0423361343978 -0.148176470392 0.817 1.92450603636e-38
0.0437407998117 -0.147813737295 0.815 1.95216276351e-38
0.0451380625093 -0.147451004197 0.813 1.97042238315e-38
0.0466426645929 -0.147451004197 0.813 1.89666714042e-38
0.0481472666766 -0.147451004197 0.813 1.96138386792e-38
0.0495297239416 -0.147088271099 0.811 1.92450603636e-38
0.0510306246671 -0.147088271099 0.811 1.96131198131e-38
0.0525315253926 -0.147088271099 0.811 1.96134729403e-38
0.0538991772251 -0.146725538002 0.809 2.01673655856e-38
0.0553963765925 -0.146725538002 0.809 2.01662907897e-38
0.0567529243505 -0.146362804904 0.807 2.04425231508e-38
0.0582464223598 -0.146362804904 0.807 2.14563261559e-38
0.059739920369 -0.146362804904 0.807 2.12726187299e-38
0.0610816626945 -0.146000071806 0.805 2.16421271219e-38
0.0625714593456 -0.146000071806 0.805 2.31158278753e-38
0.0640612559967 -0.146000071806 0.805 2.3299843587e-38
0.0655510526477 -0.146000071806 0.805 2.34839153507e-38
0.0670408492988 -0.146000071806 0.805 2.34899885783e-38
0.0685306459499 -0.146000071806 0.805 2.34943410113e-38
0.0701944064336 -0.146362804904 0.807 2.34932620115e-38
0.0718655696335 -0.146725538002 0.809 2.34943508204e-38
0.0733627690008 -0.146725538002 0.809 2.34997514247e-38
0.0750450362752 -0.147088271099 0.811 2.35044219524e-38
0.0765459370007 -0.147088271099 0.811 2.35029688059e-38
0.0782393083494 -0.147451004197 0.813 2.35062296275e-38
0.0797439104331 -0.147451004197 0.813 2.35098183528e-38
0.0814483858562 -0.147813737295 0.815 2.35083862258e-38
0.0831602639957 -0.148176470392 0.817 2.35098225567e-38
0.0846722687956 -0.148176470392 0.817 2.35091191049e-38
0.0861842735955 -0.148176470392 0.817 2.35098141489e-38
0.0879109571675 -0.14853920349 0.819 2.35098421749e-38
0.0894266633256 -0.14853920349 0.819 2.35083652063e-38
0.0909423694836 -0.14853920349 0.819 2.3504410742e-38
0.0924580756417 -0.14853920349 0.819 2.35065715443e-38
0.0939737817998 -0.14853920349 0.819 2.35004772973e-38
0.0957226735206 -0.148901936588 0.821 2.34907032405e-38
0.0275492086311 -0.14845962429 0.827 2.3490386547e-38
0.0290797202217 -0.14845962429 0.827 2.34975724055e-38
0.0306102318124 -0.14845962429 0.827 9.64774935029e-39
0.032140743403 -0.14845962429 0.827 1.63876796715e-38
0.0335898251145 -0.14810059255 0.825 1.65739066322e-38
0.0350315041098 -0.147741560811 0.823 1.69444688008e-38
0.0364657803888 -0.147382529071 0.821 1.78631951064e-38
0.037985187905 -0.147382529071 0.821 1.88752044496e-38
0.039312124798 -0.146664465592 0.817 1.87840597936e-38
0.0408241295979 -0.146664465592 0.817 1.96134729403e-38
0.0422324963699 -0.146305433853 0.815 1.93379804648e-38
0.0437407998117 -0.146305433853 0.815 1.95216304377e-38
0.0451380625093 -0.145946402113 0.813 1.99818967274e-38
0.0466426645929 -0.145946402113 0.813 2.0997476579e-38
0.0481472666766 -0.145946402113 0.813 1.9614194609e-38
0.0495297239416 -0.145587370374 0.811 1.97056853857e-38
0.0510306246671 -0.145587370374 0.811 1.98900766455e-38
0.0525315253926 -0.145587370374 0.811 2.11825937113e-38
0.0540324261181 -0.145587370374 0.811 1.97071105063e-38
0.0555333268436 -0.145587370374 0.811 2.09031327586e-38
0.0568935759598 -0.145228338634 0.809 2.15452777799e-38
0.0582464223598 -0.144869306895 0.807 2.18222248031e-38
0.059739920369 -0.144869306895 0.807 2.22849980158e-38
0.0612334183782 -0.144869306895 0.807 2.2838519317e-38
0.0627269163874 -0.144869306895 0.807 2.34871355346e-38
0.0642204143967 -0.144869306895 0.807 2.34896340497e-38
0.0657139124059 -0.144869306895 0.807 2.34889179862e-38
0.0672074104151 -0.144869306895 0.807 2.34903543172e-38
0.0687009084243 -0.144869306895 0.807 2.3492865444e-38
0.0701944064336 -0.144869306895 0.807 2.34961514889e-38
0.0718655696335 -0.145228338634 0.809 2.34997149909e-38
0.0733627690008 -0.145228338634 0.809 2.35000905389e-38
0.0750450362752 -0.145587370374 0.811 2.35037002837e-38
0.0767347062658 -0.145946402113 0.813 2.3508016283e-38
0.0782393083494 -0.145946402113 0.813 2.35058512769e-38
0.0797439104331 -0.145946402113 0.813 2.35087687803e-38
0.0812485125167 -0.145946402113 0.813 2.3509795932e-38
0.082956689298 -0.146305433853 0.815 2.35097931294e-38
0.0844649927398 -0.146305433853 0.815 2.3509795932e-38
0.0861842735955 -0.146664465592 0.817 2.35076028999e-38
0.0876962783954 -0.146664465592 0.817 2.35044177485e-38
0.0894266633256 -0.147023497332 0.819 2.35047708758e-38
0.0909423694836 -0.147023497332 0.819 2.3505485538e-38
0.0924580756417 -0.147023497332 0.819 2.34997430169e-38
0.0939737817998 -0.147023497332 0.819 2.34978848951e-38
0.0954894879578 -0.147023497332 0.819 2.34921928207e-38
0.0970051941159 -0.147023497332 0.819 2.35000667168e-38
0.0260186970405 -0.146929112699 0.827 2.34954116033e-38
0.0275492086311 -0.146929112699 0.827 2.34979563613e-38
0.0290797202217 -0.146929112699 0.827 2.3493992088e-38
0.0306102318124 -0.146929112699 0.827 1.25054271177e-38
0.0320630148821 -0.146573782318 0.825 1.60210873816e-38
0.0335898251145 -0.146573782318 0.825 1.65742597595e-38
0.0350315041098 -0.146218451937 0.823 1.79575641502e-38
0.0364657803888 -0.145863121555 0.821 1.81408581932e-38
0.0378926539515 -0.145507791174 0.819 1.99837001985e-38
0.039312124798 -0.145152460792 0.817 1.81379869327e-38
0.0407241929281 -0.144797130411 0.815 1.93365161079e-38
0.0422324963699 -0.144797130411 0.815 1.96127470677e-38
0.0437407998117 -0.144797130411 0.815 1.97045867678e-38
0.0451380625093 -0.14444180003 0.813 2.00733790963e-38
0.0466426645929 -0.14444180003 0.813 2.11822223672e-38
0.0481472666766 -0.14444180003 0.813 1.98907857025e-38
0.0495297239416 -0.144086469648 0.811 2.05361495063e-38
0.0510306246671 -0.144086469648 0.811 2.10903980815e-38
0.0525315253926 -0.144086469648 0.811 1.99822526572e-38
0.0540324261181 -0.144086469648 0.811 2.20077006679e-38
0.0553963765925 -0.143731139267 0.809 2.23789536765e-38
0.0568935759598 -0.143731139267 0.809 2.25619156118e-38
0.0583907753272 -0.143731139267 0.809 2.34846061909e-38
0.059739920369 -0.143375808886 0.807 2.32058360783e-38
0.0612334183782 -0.143375808886 0.807 2.34846061909e-38
0.0627269163874 -0.143375808886 0.807 2.3484963522e-38
0.0642204143967 -0.143375808886 0.807 2.34896480627e-38
0.0657139124059 -0.143375808886 0.807 2.34918004572e-38
0.0672074104151 -0.143375808886 0.807 2.34921704e-38
0.0687009084243 -0.143375808886 0.807 2.34961220616e-38
0.0701944064336 -0.143375808886 0.807 2.34968605459e-38
0.0718655696335 -0.143731139267 0.809 2.35000821311e-38
0.0735441355497 -0.144086469648 0.811 2.35040464044e-38
0.0750450362752 -0.144086469648 0.811 2.35054841367e-38
0.0767347062658 -0.14444180003 0.813 2.35062212197e-38
0.0782393083494 -0.14444180003 0.813 2.35076645571e-38
0.0797439104331 -0.14444180003 0.813 2.35062310288e-38
0.0812485125167 -0.14444180003 0.813 2.35062184171e-38
0.082956689298 -0.144797130411 0.815 2.35094722321e-38
0.0844649927398 -0.144797130411 0.815 2.35094400022e-38
0.0859732961816 -0.144797130411 0.815 2.35080078752e-38
0.0874815996233 -0.144797130411 0.815 2.35072918117e-38
0.0892082831954 -0.145152460792 0.817 2.34993856858e-38
0.0909423694836 -0.145507791174 0.819 2.35033219331e-38
0.0924580756417 -0.145507791174 0.819 2.35008023985e-38
0.0939737817998 -0.145507791174 0.819 2.34975808133e-38
0.0954894879578 -0.145507791174 0.819 2.34932844322e-38
0.0970051941159 -0.145507791174 0.819 2.34943662347e-38
0.0260186970405 -0.145398601109 0.827 2.34932634128e-38
0.0275492086311 -0.145398601109 0.827 2.34936249478e-38
0.0290797202217 -0.145398601109 0.827 2.26602573368e-38
0.0305362046496 -0.145046972085 0.825 1.28713299688e-38
0.0320630148821 -0.145046972085 0.825 1.61118368714e-38
0.0335083952355 -0.144695343062 0.823 1.61107802924e-38
0.0350315041098 -0.144695343062 0.823 1.74944378103e-38
0.0364657803888 -0.144343714039 0.821 1.77724498205e-38
0.0378926539515 -0.143992085016 0.819 1.85100120568e-38
0.039312124798 -0.143640455993 0.817 1.96138386792e-38
0.0407241929281 -0.143288826969 0.815 1.9153565383e-38
0.0422324963699 -0.143288826969 0.815 1.94283628145e-38
0.0436334604256 -0.142937197946 0.813 1.99815323897e-38
0.0451380625093 -0.142937197946 0.813 1.99801030653e-38
0.0466426645929 -0.142937197946 0.813 2.0996054261e-38
0.0480288232161 -0.142585568923 0.811 2.11814922907e-38
0.0495297239416 -0.142585568923 0.811 2.09971108401e-38
0.0510306246671 -0.142585568923 0.811 2.11822223672e-38
0.0525315253926 -0.142585568923 0.811 2.19176378143e-38
0.0540324261181 -0.142585568923 0.811 2.24690137275e-38
0.0553963765925 -0.1422339399 0.809 2.25604904913e-38
0.0568935759598 -0.1422339399 0.809 2.34835187832e-38
0.0583907753272 -0.1422339399 0.809 2.3483165656e-38
0.0598879746946 -0.1422339399 0.809 2.3485311044e-38
0.0612334183782 -0.141882310876 0.807 2.34871229229e-38
0.0627269163874 -0.141882310876 0.807 2.34889095784e-38
0.0643795727966 -0.1422339399 0.809 2.34878515981e-38
0.065876772164 -0.1422339399 0.809 2.34914641455e-38
0.0672074104151 -0.141882310876 0.807 2.34943298009e-38
0.0687009084243 -0.141882310876 0.807 2.34943241957e-38
0.0703683702661 -0.1422339399 0.809 2.34982912717e-38
0.0718655696335 -0.1422339399 0.809 2.34982996794e-38
0.0733627690008 -0.1422339399 0.809 2.34990031313e-38
0.0750450362752 -0.142585568923 0.811 2.35040450031e-38
0.0765459370007 -0.142585568923 0.811 2.35033303409e-38
0.0782393083494 -0.142937197946 0.813 2.35058877106e-38
0.0797439104331 -0.142937197946 0.813 2.3508377818e-38
0.0812485125167 -0.142937197946 0.813 2.35044205511e-38
0.0827531146003 -0.142937197946 0.813 2.35091345192e-38
0.084257716684 -0.142937197946 0.813 2.35051422198e-38
0.0859732961816 -0.143288826969 0.815 2.35080471116e-38
0.0874815996233 -0.143288826969 0.815 2.3501908023e-38
0.0892082831954 -0.143640455993 0.817 2.35004576791e-38
0.0907202879953 -0.143640455993 0.817 2.34997233987e-38
0.0924580756417 -0.143992085016 0.819 2.34954116033e-38
0.0939737817998 -0.143992085016 0.819 2.34957619279e-38
0.0954894879578 -0.143992085016 0.819 2.3487146745e-38
0.0970051941159 -0.143992085016 0.819 2.34957871513e-38
0.0245474071801 -0.144216017183 0.829 2.34961234629e-38
0.0260186970405 -0.143868089518 0.827 2.34946955398e-38
0.0275492086311 -0.143868089518 0.827 2.34982870678e-38
0.0290797202217 -0.143868089518 0.827 2.15535608551e-38
0.0305362046496 -0.143520161853 0.825 1.5269495345e-38
0.0320630148821 -0.143520161853 0.825 1.62947833924e-38
0.0335083952355 -0.143172234188 0.823 1.72185697869e-38
0.0350315041098 -0.143172234188 0.823 1.73103926713e-38
0.0364657803888 -0.142824306523 0.821 1.7495844714e-38
0.0378926539515 -0.142476378858 0.819 1.89691755246e-38
0.039312124798 -0.142128451193 0.817 1.88762610286e-38
0.0407241929281 -0.141780523527 0.815 1.95216430493e-38
0.0422324963699 -0.141780523527 0.815 1.98896996962e-38
0.0436334604256 -0.141432595862 0.813 2.00744510896e-38
0.0451380625093 -0.141432595862 0.813 2.07191142442e-38
0.0466426645929 -0.141432595862 0.813 2.11808336804e-38
0.0480288232161 -0.141084668197 0.811 2.04446601309e-38
0.0495297239416 -0.141084668197 0.811 2.13662590984e-38
0.0510306246671 -0.141084668197 0.811 2.18261582479e-38
0.0525315253926 -0.141084668197 0.811 2.21942190987e-38
0.0540324261181 -0.141084668197 0.811 2.27456006171e-38
0.0555333268436 -0.141084668197 0.811 2.34831740638e-38
0.0568935759598 -0.140736740532 0.809 2.34820866562e-38
0.0583907753272 -0.140736740532 0.809 2.3483179669e-38
0.0598879746946 -0.140736740532 0.809 2.34864026555e-38
0.0613851740619 -0.140736740532 0.809 2.34856893946e-38
0.0628823734293 -0.140736740532 0.809 2.34907200561e-38
0.0643795727966 -0.140736740532 0.809 2.34928766544e-38
0.0657139124059 -0.140388812867 0.807 2.34936039283e-38
0.0672074104151 -0.140388812867 0.807 2.34928906674e-38
0.0688711708987 -0.140736740532 0.809 2.34961262655e-38
0.0703683702661 -0.140736740532 0.809 2.34961094499e-38
0.0718655696335 -0.140736740532 0.809 2.34993674689e-38
0.0733627690008 -0.140736740532 0.809 2.34997205961e-38
0.0750450362752 -0.141084668197 0.811 2.35029828189e-38
0.0765459370007 -0.141084668197 0.811 2.35018926087e-38
0.0780468377262 -0.141084668197 0.811 2.35004534752e-38
0.0797439104331 -0.141432595862 0.813 2.35037086915e-38
0.0812485125167 -0.141432595862 0.813 2.35051422198e-38
0.0827531146003 -0.141432595862 0.813 2.35029758124e-38
0.084257716684 -0.141432595862 0.813 2.35054785315e-38
0.0859732961816 -0.141780523527 0.815 2.35022457359e-38
0.0874815996233 -0.141780523527 0.815 2.35011527231e-38
0.0892082831954 -0.142128451193 0.817 2.34997135896e-38
0.0907202879953 -0.142128451193 0.817 2.34982716535e-38
0.0924580756417 -0.142476378858 0.819 2.34968451316e-38
0.0939737817998 -0.142476378858 0.819 2.34943199918e-38
0.0954894879578 -0.142476378858 0.819 2.34871509489e-38
0.0970051941159 -0.142476378858 0.819 2.34939696672e-38
0.0245474071801 -0.142681804234 0.829 2.34889179862e-38
0.0260816201289 -0.142681804234 0.829 2.34950500683e-38
0.0275492086311 -0.142337577927 0.827 2.34972122718e-38
0.0290797202217 -0.142337577927 0.827 2.01698809163e-38
0.0305362046496 -0.141993351621 0.825 1.49025078889e-38
0.0320630148821 -0.141993351621 0.825 1.61122026103e-38
0.0335083952355 -0.141649125314 0.823 1.67586860516e-38
0.0350315041098 -0.141649125314 0.823 1.71263615453e-38
0.0364657803888 -0.141304899007 0.821 1.72189201115e-38
0.037800119998 -0.140616446393 0.817 1.82323531739e-38
0.039312124798 -0.140616446393 0.817 1.89695454674e-38
0.0407241929281 -0.140272220086 0.815 1.94294474195e-38
0.0422324963699 -0.140272220086 0.815 2.00758986309e-38
0.0436334604256 -0.139927993779 0.813 1.95230793803e-38
0.0451380625093 -0.139927993779 0.813 2.10896946296e-38
0.0466426645929 -0.139927993779 0.813 2.09971234518e-38
0.0480288232161 -0.139583767472 0.811 2.09967577129e-38
0.0495297239416 -0.139583767472 0.811 2.18254393818e-38
0.0510306246671 -0.139583767472 0.811 2.23782628364e-38
0.0525315253926 -0.139583767472 0.811 2.29307149469e-38
0.0540324261181 -0.139583767472 0.811 2.28381549794e-38
0.0553963765925 -0.139239541165 0.809 2.34824523951e-38
0.0568935759598 -0.139239541165 0.809 2.34835187832e-38
0.0583907753272 -0.139239541165 0.809 2.34871257255e-38
0.0598879746946 -0.139239541165 0.809 2.34889179862e-38
0.0613851740619 -0.139239541165 0.809 2.34864068594e-38
0.0628823734293 -0.139239541165 0.809 2.34911026105e-38
0.0643795727966 -0.139239541165 0.809 2.34903627249e-38
0.0657139124059 -0.138895314858 0.807 2.34900180055e-38
0.0672074104151 -0.138895314858 0.807 2.34939850815e-38
0.0688711708987 -0.139239541165 0.809 2.34928766544e-38
0.0703683702661 -0.139239541165 0.809 2.34968451316e-38
0.0718655696335 -0.139239541165 0.809 2.34925207246e-38
0.0733627690008 -0.139239541165 0.809 2.34975752081e-38
0.0748599683682 -0.139239541165 0.809 2.34993534559e-38
0.0763571677356 -0.139239541165 0.809 2.34986472015e-38
0.0780468377262 -0.139583767472 0.811 2.34983010807e-38
0.0795477384517 -0.139583767472 0.811 2.34990367624e-38
0.0810486391772 -0.139583767472 0.811 2.34990311572e-38
0.0825495399027 -0.139583767472 0.811 2.35015520932e-38
0.084257716684 -0.139927993779 0.813 2.35004632843e-38
0.0857623187676 -0.139927993779 0.813 2.35001115584e-38
0.0874815996233 -0.140272220086 0.815 2.3498292673e-38
0.0892082831954 -0.140616446393 0.817 2.34979185263e-38
0.0907202879953 -0.140616446393 0.817 2.34936249478e-38
0.0924580756417 -0.1409606727 0.819 2.34914543364e-38
0.0939737817998 -0.1409606727 0.819 2.34928976739e-38
0.0954894879578 -0.1409606727 0.819 2.34860677451e-38
0.0970051941159 -0.1409606727 0.819 2.34957927565e-38
0.0245474071801 -0.141147591286 0.829 2.34953919851e-38
0.0260816201289 -0.141147591286 0.829 2.34961234629e-38
0.0276158330776 -0.141147591286 0.829 2.34975836159e-38
0.0290797202217 -0.140807066337 0.827 1.82362768096e-38
0.0305362046496 -0.140466541388 0.825 1.61950473755e-38
0.0320630148821 -0.140466541388 0.825 1.59296078152e-38
0.0333455354773 -0.139444966542 0.819 1.64820739387e-38
0.0348612416354 -0.139444966542 0.819 1.6941967483e-38
0.0363769477935 -0.139444966542 0.819 1.81401547414e-38
0.037800119998 -0.139104441593 0.817 1.83252522556e-38
0.039312124798 -0.139104441593 0.817 1.84156500195e-38
0.0407241929281 -0.138763916644 0.815 1.91528619312e-38
0.0422324963699 -0.138763916644 0.815 2.01677733634e-38
0.0436334604256 -0.138423391695 0.813 2.0629785671e-38
0.0451380625093 -0.138423391695 0.813 1.94315928074e-38
0.0466426645929 -0.138423391695 0.813 2.25622659364e-38
0.0480288232161 -0.138082866746 0.811 2.11786252341e-38
0.0495297239416 -0.138082866746 0.811 2.2932518418e-38
0.0510306246671 -0.138082866746 0.811 2.2101306004e-38
0.0525315253926 -0.138082866746 0.811 2.21920793159e-38
0.0540324261181 -0.138082866746 0.811 2.3482442586e-38
0.0553963765925 -0.137742341797 0.809 2.34820964653e-38
0.0568935759598 -0.137742341797 0.809 2.34860565348e-38
0.0583907753272 -0.137742341797 0.809 2.34845977831e-38
0.0598879746946 -0.137742341797 0.809 2.3486771197e-38
0.0613851740619 -0.137742341797 0.809 2.34889348018e-38
0.0628823734293 -0.137742341797 0.809 2.34910815911e-38
0.0643795727966 -0.137742341797 0.809 2.34914347183e-38
0.065876772164 -0.137742341797 0.809 2.34914375209e-38
0.0673739715314 -0.137742341797 0.809 2.34907186548e-38
0.0688711708987 -0.137742341797 0.809 2.34903809418e-38
0.0703683702661 -0.137742341797 0.809 2.34914585403e-38
0.0718655696335 -0.137742341797 0.809 2.34950668839e-38
0.0733627690008 -0.137742341797 0.809 2.34939668646e-38
0.0748599683682 -0.137742341797 0.809 2.34993758767e-38
0.0763571677356 -0.137742341797 0.809 2.34957759409e-38
0.0780468377262 -0.138082866746 0.811 2.34961388772e-38
0.0795477384517 -0.138082866746 0.811 2.34964990109e-38
0.0810486391772 -0.138082866746 0.811 2.34972150744e-38
0.0825495399027 -0.138082866746 0.811 2.34954284189e-38
0.084257716684 -0.138423391695 0.813 2.34972220809e-38
0.0857623187676 -0.138423391695 0.813 2.34975443796e-38
0.0874815996233 -0.138763916644 0.815 2.34968395264e-38
0.0892082831954 -0.139104441593 0.817 2.34932325842e-38
0.0907202879953 -0.139104441593 0.817 2.34968311187e-38
0.0924580756417 -0.139444966542 0.819 2.34946773229e-38
0.0939737817998 -0.139444966542 0.819 2.34914515338e-38
0.0954894879578 -0.139444966542 0.819 2.3484601987e-38
0.0970051941159 -0.139444966542 0.819 2.34932536037e-38
0.0260816201289 -0.139613378337 0.829 2.34918396935e-38
0.0276158330776 -0.139613378337 0.829 2.34975906224e-38
0.0290797202217 -0.139276554746 0.827 1.69430338711e-38
0.0305362046496 -0.138939731156 0.825 1.73953421868e-38
0.0319075578402 -0.138266083974 0.821 1.60218188594e-38
0.0333455354773 -0.137929260384 0.819 1.66668225295e-38
0.0348612416354 -0.137929260384 0.819 1.6941967483e-38
0.0363769477935 -0.137929260384 0.819 1.76781031975e-38
0.037800119998 -0.137592436793 0.817 1.80486639647e-38
0.039312124798 -0.137592436793 0.817 1.88766239649e-38
0.0407241929281 -0.137255613202 0.815 1.96131198131e-38
0.0422324963699 -0.137255613202 0.815 1.93368832481e-38
0.0436334604256 -0.136918789611 0.813 1.98922178295e-38
0.0451380625093 -0.136918789611 0.813 2.08155908409e-38
0.0466426645929 -0.136918789611 0.813 2.09031173443e-38
0.0481472666766 -0.136918789611 0.813 2.22835462706e-38
0.0495297239416 -0.136581966021 0.811 2.18257953116e-38
0.0510306246671 -0.136581966021 0.811 2.16410509247e-38
0.0525315253926 -0.136581966021 0.811 2.19158581652e-38
0.0540324261181 -0.136581966021 0.811 2.28381115391e-38
0.0553963765925 -0.13624514243 0.809 2.34846300129e-38
0.0568935759598 -0.13624514243 0.809 2.31154621364e-38
0.0583907753272 -0.13624514243 0.809 2.34846075921e-38
0.0598879746946 -0.13624514243 0.809 2.34849396999e-38
0.0613851740619 -0.13624514243 0.809 2.34874928657e-38
0.0628823734293 -0.13624514243 0.809 2.34867725983e-38
0.0643795727966 -0.13624514243 0.809 2.34903571197e-38
0.0657139124059 -0.135908318839 0.807 2.34910689794e-38
0.0672074104151 -0.135908318839 0.807 2.34924856921e-38
0.0688711708987 -0.13624514243 0.809 2.34910815911e-38
0.0703683702661 -0.13624514243 0.809 2.34914431261e-38
0.0718655696335 -0.13624514243 0.809 2.34946927372e-38
0.0733627690008 -0.13624514243 0.809 2.3491818674e-38
0.0748599683682 -0.13624514243 0.809 2.34939850815e-38
0.0763571677356 -0.13624514243 0.809 2.34958067695e-38
0.0780468377262 -0.136581966021 0.811 2.34932606102e-38
0.0795477384517 -0.136581966021 0.811 2.34961318707e-38
0.0810486391772 -0.136581966021 0.811 2.34968871706e-38
0.0825495399027 -0.136581966021 0.811 2.34936249478e-38
0.084257716684 -0.136918789611 0.813 2.34954270176e-38
0.0857623187676 -0.136918789611 0.813 2.34953989916e-38
0.0874815996233 -0.137255613202 0.815 2.34975611952e-38
0.0892082831954 -0.137592436793 0.817 2.34925123168e-38
0.0909423694836 -0.137929260384 0.819 2.34907396742e-38
0.0924580756417 -0.137929260384 0.819 2.34911124196e-38
0.0939737817998 -0.137929260384 0.819 2.34903753366e-38
0.0957226735206 -0.138266083974 0.821 2.34799426696e-38
0.0972420810368 -0.138266083974 0.821 2.35004744947e-38
0.098761488553 -0.138266083974 0.821 2.35015338763e-38
0.0260816201289 -0.138079165388 0.829 2.34932648141e-38
0.0276158330776 -0.138079165388 0.829 2.34997332078e-38
0.0290797202217 -0.137746043156 0.827 1.56501272443e-38
0.0305362046496 -0.137412920923 0.825 1.8134302919e-38
0.0319075578402 -0.136746676458 0.821 1.62058471828e-38
0.0333455354773 -0.136413554225 0.819 1.74955041985e-38
0.0348612416354 -0.136413554225 0.819 1.68494159233e-38
0.0363769477935 -0.136413554225 0.819 1.77717463686e-38
0.037800119998 -0.136080431993 0.817 1.83259683191e-38
0.0392158894863 -0.13574730976 0.815 1.83238033129e-38
0.0407241929281 -0.13574730976 0.815 1.82284001109e-38
0.0422324963699 -0.13574730976 0.815 2.00747831974e-38
0.0436334604256 -0.135414187528 0.813 1.99844036503e-38
0.0451380625093 -0.135414187528 0.813 2.01695011645e-38
0.0466426645929 -0.135414187528 0.813 2.07180156262e-38
0.0481472666766 -0.135414187528 0.813 2.17307424342e-38
0.0495297239416 -0.135081065295 0.811 2.21935030352e-38
0.0510306246671 -0.135081065295 0.811 2.16410481221e-38
0.0525315253926 -0.135081065295 0.811 2.30232819208e-38
0.0540324261181 -0.135081065295 0.811 2.302398257e-38
0.0553963765925 -0.134747943063 0.809 2.21931653222e-38
0.0568935759598 -0.134747943063 0.809 2.31151244235e-38
0.0583907753272 -0.134747943063 0.809 2.34871369359e-38
0.0598879746946 -0.134747943063 0.809 2.3487827776e-38
0.0613851740619 -0.134747943063 0.809 2.34871131138e-38
0.0628823734293 -0.134747943063 0.809 2.34874704449e-38
0.0643795727966 -0.134747943063 0.809 2.34878347825e-38
0.0657139124059 -0.13441482083 0.807 2.34889334005e-38
0.0672074104151 -0.13441482083 0.807 2.3491071782e-38
0.0688711708987 -0.134747943063 0.809 2.34914417248e-38
0.0703683702661 -0.134747943063 0.809 2.34928626414e-38
0.0718655696335 -0.134747943063 0.809 2.34954017942e-38
0.0733627690008 -0.134747943063 0.809 2.34928822596e-38
0.0748599683682 -0.134747943063 0.809 2.34918060624e-38
0.0763571677356 -0.134747943063 0.809 2.34946773229e-38
0.0780468377262 -0.135081065295 0.811 2.34961220616e-38
0.0795477384517 -0.135081065295 0.811 2.34929060817e-38
0.0810486391772 -0.135081065295 0.811 2.34936235465e-38
0.0827531146003 -0.135414187528 0.813 2.34939654633e-38
0.084257716684 -0.135414187528 0.813 2.34954031955e-38
0.0857623187676 -0.135414187528 0.813 2.34961178577e-38
0.0874815996233 -0.13574730976 0.815 2.34928864635e-38
0.0889899030651 -0.13574730976 0.815 2.34943087814e-38
0.0909423694836 -0.136413554225 0.819 2.3489273916e-38
0.0924580756417 -0.136413554225 0.819 2.34918242792e-38
0.0939737817998 -0.136413554225 0.819 2.34871509489e-38
0.0957226735206 -0.136746676458 0.821 2.34817573511e-38
0.0972420810368 -0.136746676458 0.821 2.35022863736e-38
0.0260816201289 -0.136544952439 0.829 2.34922110376e-38
0.0276158330776 -0.136544952439 0.829 2.35000919402e-38
0.0290797202217 -0.136215531565 0.827 1.41739251732e-38
0.0305362046496 -0.135886110691 0.825 1.79520920797e-38
0.0319075578402 -0.135227268942 0.821 1.71274279334e-38
0.0334269653564 -0.135227268942 0.821 1.74029386258e-38
0.0348612416354 -0.134897848067 0.819 1.70327281832e-38
0.0363769477935 -0.134897848067 0.819 1.79546900871e-38
0.037800119998 -0.134568427193 0.817 1.8233419562e-38
0.0392158894863 -0.134239006319 0.815 1.81397876012e-38
0.0407241929281 -0.134239006319 0.815 1.9520223534e-38
0.042128858342 -0.133909585444 0.813 1.94287285534e-38
0.0436334604256 -0.133909585444 0.813 1.97982341428e-38
0.0451380625093 -0.133909585444 0.813 2.02584920247e-38
0.0466426645929 -0.133909585444 0.813 2.0627254926e-38
0.0480288232161 -0.13358016457 0.811 2.08116601987e-38
0.0495297239416 -0.13358016457 0.811 2.11822251698e-38
0.0510306246671 -0.13358016457 0.811 2.14577358622e-38
0.0525315253926 -0.13358016457 0.811 2.21009500742e-38
0.0540324261181 -0.13358016457 0.811 2.27463250884e-38
0.0555333268436 -0.13358016457 0.811 2.28388752468e-38
0.0568935759598 -0.133250743695 0.809 2.3023635048e-38
0.0583907753272 -0.133250743695 0.809 2.34838803182e-38
0.0598879746946 -0.133250743695 0.809 2.34860803568e-38
0.0613851740619 -0.133250743695 0.809 2.34846286116e-38
0.0628823734293 -0.133250743695 0.809 2.34882019227e-38
0.0643795727966 -0.133250743695 0.809 2.34867655918e-38
0.0657139124059 -0.132921322821 0.807 2.34856907959e-38
0.0672074104151 -0.132921322821 0.807 2.34914361196e-38
0.0688711708987 -0.133250743695 0.809 2.34907130496e-38
0.0703683702661 -0.133250743695 0.809 2.34907186548e-38
0.0718655696335 -0.133250743695 0.809 2.349144733e-38
0.0733627690008 -0.133250743695 0.809 2.34918018585e-38
0.0750450362752 -0.13358016457 0.811 2.34918102663e-38
0.0765459370007 -0.13358016457 0.811 2.3495034654e-38
0.0780468377262 -0.13358016457 0.811 2.34943143866e-38
0.0795477384517 -0.13358016457 0.811 2.34954031955e-38
0.0810486391772 -0.13358016457 0.811 2.34932353868e-38
0.0825495399027 -0.13358016457 0.811 2.34918004572e-38
0.084257716684 -0.133909585444 0.813 2.34910815911e-38
0.0857623187676 -0.133909585444 0.813 2.34914501326e-38
0.0874815996233 -0.134239006319 0.815 2.34917976546e-38
0.0889899030651 -0.134239006319 0.815 2.34885592538e-38
0.0909423694836 -0.134897848067 0.819 2.34892809225e-38
0.0924580756417 -0.134897848067 0.819 2.34846159999e-38
0.0939737817998 -0.134897848067 0.819 2.34846230064e-38
0.0957226735206 -0.135227268942 0.821 2.34896662796e-38
0.0972420810368 -0.135227268942 0.821 2.35015548958e-38
0.0276158330776 -0.135010739491 0.829 2.35015422841e-38
0.0290797202217 -0.134685019974 0.827 1.48193127991e-38
0.0306102318124 -0.134685019974 0.827 1.84134583887e-38
0.0319075578402 -0.133707861426 0.821 1.72171222456e-38
0.0334269653564 -0.133707861426 0.821 1.8783371756e-38
0.0348612416354 -0.133382141909 0.819 1.75851844976e-38
0.0363769477935 -0.133382141909 0.819 1.82302007794e-38
0.037800119998 -0.133056422393 0.817 1.82305539066e-38
0.0392158894863 -0.132730702877 0.815 1.85096617322e-38
0.0407241929281 -0.132730702877 0.815 1.83234670013e-38
0.042128858342 -0.132404983361 0.813 1.94280068847e-38
0.0436334604256 -0.132404983361 0.813 1.97060413156e-38
0.0451380625093 -0.132404983361 0.813 1.96131198131e-38
0.0466426645929 -0.132404983361 0.813 2.0994622134e-38
0.0480288232161 -0.132079263844 0.811 2.07216183646e-38
0.0495297239416 -0.132079263844 0.811 2.10900449542e-38
0.0510306246671 -0.132079263844 0.811 2.15506503582e-38
0.0525315253926 -0.132079263844 0.811 2.15481490404e-38
0.0540324261181 -0.132079263844 0.811 2.28378186678e-38
0.0555333268436 -0.132079263844 0.811 2.23775411677e-38
0.0568935759598 -0.131753544328 0.809 2.34846145986e-38
0.0583907753272 -0.131753544328 0.809 2.33916916949e-38
0.0598879746946 -0.131753544328 0.809 2.33913413703e-38
0.0613851740619 -0.131753544328 0.809 2.34860607387e-38
0.0628823734293 -0.131753544328 0.809 2.34860453244e-38
0.0643795727966 -0.131753544328 0.809 2.34878473942e-38
0.0657139124059 -0.131427824812 0.807 2.34874788527e-38
0.0672074104151 -0.131427824812 0.807 2.34882005214e-38
0.0687009084243 -0.131427824812 0.807 2.3492879457e-38
0.0701944064336 -0.131427824812 0.807 2.34864082607e-38
0.0718655696335 -0.131753544328 0.809 2.34903669288e-38
0.0733627690008 -0.131753544328 0.809 2.34925151194e-38
0.0748599683682 -0.131753544328 0.809 2.34889362031e-38
0.0763571677356 -0.131753544328 0.809 2.34928780557e-38
0.0780468377262 -0.132079263844 0.811 2.34900222094e-38
0.0795477384517 -0.132079263844 0.811 2.349144733e-38
0.0810486391772 -0.132079263844 0.811 2.34917906481e-38
0.0825495399027 -0.132079263844 0.811 2.34939542529e-38
0.0840504406282 -0.132079263844 0.811 2.34900180055e-38
0.0857623187676 -0.132404983361 0.813 2.3488217337e-38
0.0874815996233 -0.132730702877 0.815 2.34907298651e-38
0.0892082831954 -0.133056422393 0.817 2.34885732668e-38
0.0909423694836 -0.133382141909 0.819 2.34839069429e-38
0.0924580756417 -0.133382141909 0.819 2.34882103305e-38
0.0939737817998 -0.133382141909 0.819 2.31133139458e-38
0.0957226735206 -0.133707861426 0.821 2.34878487955e-38
0.0972420810368 -0.133707861426 0.821 2.35051520289e-38
0.0276158330776 -0.133476526542 0.829 2.35008262206e-38
0.0291500460264 -0.133476526542 0.829 1.46302594194e-38
0.0306102318124 -0.133154508384 0.827 1.73986254291e-38
0.0319075578402 -0.132188453909 0.821 1.79521691511e-38
0.0334269653564 -0.132188453909 0.821 1.76755794589e-38
0.0348612416354 -0.131866435751 0.819 1.83220026444e-38
0.0363769477935 -0.131866435751 0.819 1.79546774754e-38
0.037800119998 -0.131544417593 0.817 1.82320000467e-38
0.039312124798 -0.131544417593 0.817 1.79568396789e-38
0.0407241929281 -0.131222399435 0.815 1.85082169934e-38
0.042128858342 -0.130900381277 0.813 1.9520223534e-38
0.0436334604256 -0.130900381277 0.813 1.97071105063e-38
0.0451380625093 -0.130900381277 0.813 1.98904297727e-38
0.0466426645929 -0.130900381277 0.813 2.03517596479e-38
0.0480288232161 -0.130578363119 0.811 2.04425259533e-38
0.0495297239416 -0.130578363119 0.811 2.00737420326e-38
0.0510306246671 -0.130578363119 0.811 2.16432019178e-38
0.0525315253926 -0.130578363119 0.811 2.21942190987e-38
0.0540324261181 -0.130578363119 0.811 2.21927995833e-38
0.0555333268436 -0.130578363119 0.811 2.2653802956e-38
0.0568935759598 -0.130256344961 0.809 2.26545064079e-38
0.0583907753272 -0.130256344961 0.809 2.31151118118e-38
0.0598879746946 -0.130256344961 0.809 2.3483888726e-38
0.0613851740619 -0.130256344961 0.809 2.34846244077e-38
0.0628823734293 -0.130256344961 0.809 2.34860453244e-38
0.0643795727966 -0.130256344961 0.809 2.34907158522e-38
0.0657139124059 -0.129934326803 0.807 2.34860383179e-38
0.0672074104151 -0.129934326803 0.807 2.34867655918e-38
0.0687009084243 -0.129934326803 0.807 2.34900124003e-38
0.0701944064336 -0.129934326803 0.807 2.34885774707e-38
0.0718655696335 -0.130256344961 0.809 2.34857062101e-38
0.0733627690008 -0.130256344961 0.809 2.34892963368e-38
0.0748599683682 -0.130256344961 0.809 2.34918004572e-38
0.0763571677356 -0.130256344961 0.809 2.34888871577e-38
0.0780468377262 -0.130578363119 0.811 2.34907158522e-38
0.0795477384517 -0.130578363119 0.811 2.34882103305e-38
0.0810486391772 -0.130578363119 0.811 2.34896410562e-38
0.0825495399027 -0.130578363119 0.811 2.34882131331e-38
0.0840504406282 -0.130578363119 0.811 2.3487494267e-38
0.0857623187676 -0.130900381277 0.813 2.3491457139e-38
0.0874815996233 -0.131222399435 0.815 2.34864194711e-38
0.0889899030651 -0.131222399435 0.815 2.34882229422e-38
0.0909423694836 -0.131866435751 0.819 2.34864320827e-38
0.0924580756417 -0.131866435751 0.819 2.34867725983e-38
0.0939737817998 -0.131866435751 0.819 2.34846075921e-38
0.0954894879578 -0.131866435751 0.819 2.34976242536e-38
0.0970051941159 -0.131866435751 0.819 2.35023101956e-38
0.0291500460264 -0.131942313593 0.829 1.49935796774e-38
0.0306102318124 -0.131623996793 0.827 1.69416143558e-38
0.0319852863611 -0.130987363193 0.823 1.74022197597e-38
0.0335083952355 -0.130987363193 0.823 1.8138002347e-38
0.0349463728726 -0.130669046393 0.821 1.85060491847e-38
0.0364657803888 -0.130669046393 0.821 1.91528647338e-38
0.037800119998 -0.130032412793 0.817 1.84185198787e-38
0.0392158894863 -0.129714095993 0.815 1.85085673181e-38
0.0407241929281 -0.129714095993 0.815 1.86915138391e-38
0.042128858342 -0.129395779193 0.813 1.90599656521e-38
0.0436334604256 -0.129395779193 0.813 1.94305292219e-38
0.0451380625093 -0.129395779193 0.813 2.01670124584e-38
0.0465279224906 -0.129077462393 0.811 2.06290696075e-38
0.0480288232161 -0.129077462393 0.811 1.99840505231e-38
0.0495297239416 -0.129077462393 0.811 2.05365208504e-38
0.0510306246671 -0.129077462393 0.811 2.11822279724e-38
0.0525315253926 -0.129077462393 0.811 2.0904562083e-38
0.0540324261181 -0.129077462393 0.811 2.17335996818e-38
0.0555333268436 -0.129077462393 0.811 2.21942471246e-38
0.0570342275691 -0.129077462393 0.811 2.23782600338e-38
0.0583907753272 -0.128759145593 0.809 2.34867515788e-38
0.0598879746946 -0.128759145593 0.809 2.26552098597e-38
0.0613851740619 -0.128759145593 0.809 2.34860509296e-38
0.0628823734293 -0.128759145593 0.809 2.3486409662e-38
0.0643795727966 -0.128759145593 0.809 2.34864026555e-38
0.0657139124059 -0.128440828793 0.807 2.34874830566e-38
0.0672074104151 -0.128440828793 0.807 2.34849523116e-38
0.0687009084243 -0.128440828793 0.807 2.34864040568e-38
0.0701944064336 -0.128440828793 0.807 2.34864110633e-38
0.0718655696335 -0.128759145593 0.809 2.34896578718e-38
0.0733627690008 -0.128759145593 0.809 2.34910928014e-38
0.0748599683682 -0.128759145593 0.809 2.34846174012e-38
0.0763571677356 -0.128759145593 0.809 2.34882243435e-38
0.0778543671029 -0.128759145593 0.809 2.34932578076e-38
0.0795477384517 -0.129077462393 0.811 2.34882215409e-38
0.0810486391772 -0.129077462393 0.811 2.3488203324e-38
0.0825495399027 -0.129077462393 0.811 2.34882117318e-38
0.084257716684 -0.129395779193 0.813 2.34871383372e-38
0.0857623187676 -0.129395779193 0.813 2.34867782035e-38
0.0874815996233 -0.129714095993 0.815 2.34856992037e-38
0.0889899030651 -0.129714095993 0.815 2.34864208724e-38
0.0909423694836 -0.130350729593 0.819 2.34878600059e-38
0.0924580756417 -0.130350729593 0.819 2.34871285281e-38
0.0939737817998 -0.130350729593 0.819 2.34838929299e-38
0.0954894879578 -0.130350729593 0.819 2.34972431004e-38
0.0970051941159 -0.130350729593 0.819 2.35001311765e-38
0.0306842589751 -0.130408100644 0.829 1.77724498205e-38
0.032140743403 -0.130093485203 0.827 1.7311475875e-38
0.0335898251145 -0.129778869761 0.825 1.7769226834e-38
0.0349463728726 -0.129149638877 0.821 1.86897145718e-38
0.0364657803888 -0.129149638877 0.821 1.83252704724e-38
0.037800119998 -0.128520407993 0.817 1.8234476141e-38
0.0392158894863 -0.128205792551 0.815 1.90613851674e-38
0.0407241929281 -0.128205792551 0.815 1.90610600662e-38
0.042128858342 -0.12789117711 0.813 1.94290914897e-38
0.0436334604256 -0.12789117711 0.813 1.90606663013e-38
0.0451380625093 -0.12789117711 0.813 2.03514051194e-38
0.0465279224906 -0.127576561668 0.811 1.98918548932e-38
0.0480288232161 -0.127576561668 0.811 2.03535140736e-38
0.0495297239416 -0.127576561668 0.811 2.02613576801e-38
0.0510306246671 -0.127576561668 0.811 2.02599143427e-38
0.0525315253926 -0.127576561668 0.811 2.2012316545e-38
0.0540324261181 -0.127576561668 0.811 2.12733277869e-38
0.0555333268436 -0.127576561668 0.811 2.21034583984e-38
0.0570342275691 -0.127576561668 0.811 2.18265141777e-38
0.0583907753272 -0.127261946226 0.809 2.21938393468e-38
0.0598879746946 -0.127261946226 0.809 2.28388850559e-38
0.0613851740619 -0.127261946226 0.809 2.24708143961e-38
0.0628823734293 -0.127261946226 0.809 2.27456160314e-38
0.0643795727966 -0.127261946226 0.809 2.34831880768e-38
0.0657139124059 -0.126947330784 0.807 2.32984212691e-38
0.0672074104151 -0.126947330784 0.807 2.34849719298e-38
0.0687009084243 -0.126947330784 0.807 2.34860439231e-38
0.0701944064336 -0.126947330784 0.807 2.34867655918e-38
0.0718655696335 -0.127261946226 0.809 2.3486409662e-38
0.0733627690008 -0.127261946226 0.809 2.34875012735e-38
0.0748599683682 -0.127261946226 0.809 2.34882103305e-38
0.0763571677356 -0.127261946226 0.809 2.34871341333e-38
0.0778543671029 -0.127261946226 0.809 2.3487494267e-38
0.0795477384517 -0.127576561668 0.811 2.34878501968e-38
0.0810486391772 -0.127576561668 0.811 2.34860453244e-38
0.0825495399027 -0.127576561668 0.811 2.34874858592e-38
0.084257716684 -0.12789117711 0.813 2.3484601987e-38
0.0857623187676 -0.12789117711 0.813 2.34914459287e-38
0.0874815996233 -0.128205792551 0.815 2.34853334648e-38
0.0889899030651 -0.128205792551 0.815 2.34882145344e-38
0.0909423694836 -0.128835023435 0.819 2.34864110633e-38
0.0924580756417 -0.128835023435 0.819 2.34871131138e-38
0.0939737817998 -0.128835023435 0.819 2.34864068594e-38
0.0954894879578 -0.128835023435 0.819 2.34979437496e-38
0.0970051941159 -0.128835023435 0.819 2.34983263041e-38
0.0307582861379 -0.129184801779 0.831 1.66722133247e-38
0.0322962004448 -0.129184801779 0.831 1.73096892195e-38
0.0336712549936 -0.128562973612 0.827 1.85997484078e-38
0.0349463728726 -0.127630231361 0.821 1.84156528221e-38
0.0364657803888 -0.127630231361 0.821 1.84185619177e-38
0.037800119998 -0.127008403193 0.817 1.82337754918e-38
0.039312124798 -0.127008403193 0.817 1.97982341428e-38
0.0407241929281 -0.12669748911 0.815 1.94290914897e-38
0.042128858342 -0.126386575026 0.813 1.92439617456e-38
0.0436334604256 -0.126386575026 0.813 1.98893507729e-38
0.0451380625093 -0.126386575026 0.813 1.97975040663e-38
0.0466426645929 -0.126386575026 0.813 1.98904325753e-38
0.0481472666766 -0.126386575026 0.813 2.01681082738e-38
0.0495297239416 -0.126075660942 0.811 2.00755427011e-38
0.0510306246671 -0.126075660942 0.811 2.09964242038e-38
0.0525315253926 -0.126075660942 0.811 2.07216127594e-38
0.0540324261181 -0.126075660942 0.811 2.09045746947e-38
0.0555333268436 -0.126075660942 0.811 2.20112725777e-38
0.0570342275691 -0.126075660942 0.811 2.15492280402e-38
0.0583907753272 -0.125764746859 0.809 2.2470105339e-38
0.0598879746946 -0.125764746859 0.809 2.22871812388e-38
0.0613851740619 -0.125764746859 0.809 2.22867958817e-38
0.0628823734293 -0.125764746859 0.809 2.3116549544e-38
0.0642204143967 -0.125453832775 0.807 2.33938440893e-38
0.0657139124059 -0.125453832775 0.807 2.31158278753e-38
0.0672074104151 -0.125453832775 0.807 2.34871313307e-38
0.0687009084243 -0.125453832775 0.807 2.33938412867e-38
0.0701944064336 -0.125453832775 0.807 2.33920420195e-38
0.0718655696335 -0.125764746859 0.809 2.3487480254e-38
0.0733627690008 -0.125764746859 0.809 2.34850041596e-38
0.0748599683682 -0.125764746859 0.809 2.34846272103e-38
0.0765459370007 -0.126075660942 0.811 2.34857062101e-38
0.0780468377262 -0.126075660942 0.811 2.34839013377e-38
0.0795477384517 -0.126075660942 0.811 2.34878586046e-38
0.0810486391772 -0.126075660942 0.811 2.34860411205e-38
0.0825495399027 -0.126075660942 0.811 2.34853362674e-38
0.084257716684 -0.126386575026 0.813 2.34878459929e-38
0.0857623187676 -0.126386575026 0.813 2.34853180505e-38
0.0874815996233 -0.12669748911 0.815 2.34853278596e-38
0.0889899030651 -0.12669748911 0.815 2.34856949998e-38
0.0909423694836 -0.127319317277 0.819 2.34871299294e-38
0.0924580756417 -0.127319317277 0.819 2.34903739353e-38
0.0939737817998 -0.127319317277 0.819 2.34878319799e-38
0.0954894879578 -0.127319317277 0.819 2.35015492906e-38
0.0293610234403 -0.128261312924 0.835 6.24481373874e-39
0.0307582861379 -0.127646887472 0.831 1.68634541313e-38
0.0322962004448 -0.127646887472 0.831 1.75876872167e-38
0.0337526848727 -0.127339674747 0.829 1.79514278642e-38
0.035116635347 -0.126725249296 0.825 1.89663210796e-38
0.0365546129841 -0.12641803657 0.823 1.8507848452e-38
0.037985187905 -0.126110823845 0.821 1.91542898543e-38
0.039312124798 -0.125496398393 0.817 1.93368832481e-38
