# .PCD v0.7 - Point Cloud Data file format
VERSION 0.7
FIELDS x y z rgb
SIZE 4 4 4 4
TYPE F F F F
COUNT 1 1 1 1
WIDTH 841
HEIGHT 1
VIEWPOINT 0 0 0 1 0 0 0
POINTS 841
DATA ascii
-0.0257614526498 -0.0652623467129 0.928 7.93087987309e-39
-0.0239662939522 -0.0650513692989 0.925 7.66395914031e-39
-0.0222544158128 -0.0650513692989 0.925 6.9267640442e-39
-0.0206091621199 -0.0652623467129 0.928 7.11258743096e-39
-0.0188306595339 -0.0650513692989 0.925 6.92963390345e-39
-0.0171187813945 -0.0650513692989 0.925 7.20621658915e-39
-0.0152903104736 -0.0645590886664 0.918 7.20765151877e-39
-0.0135913870877 -0.0645590886664 0.918 7.66969885882e-39
-0.0118535994412 -0.0643481112525 0.915 7.11796841706e-39
-0.0101602280925 -0.0643481112525 0.915 7.30163940937e-39
-0.00846685674374 -0.0643481112525 0.915 6.93465615715e-39
-0.00675867996244 -0.0642074596432 0.913 7.67077505604e-39
-0.00506900997183 -0.0642074596432 0.913 7.67113378845e-39
-0.0033682359068 -0.0639964822292 0.91 7.85623971039e-39
-0.0016841179534 -0.0639964822292 0.91 7.85623971039e-39
0.0 -0.0642074596432 0.913 7.58073322192e-39
0.00168966999061 -0.0642074596432 0.913 7.48889772576e-39
0.00337933998122 -0.0642074596432 0.913 7.39885589164e-39
0.00506900997183 -0.0642074596432 0.913 7.03079644219e-39
0.00675867996244 -0.0642074596432 0.913 8.04421549159e-39
0.008420589767 -0.0639964822292 0.91 7.95202126302e-39
0.0101047077204 -0.0639964822292 0.91 7.85946830205e-39
0.0118276899343 -0.0642074596432 0.913 8.50195804275e-39
0.0134729436272 -0.0639964822292 0.91 8.04385675918e-39
0.0151570615806 -0.0639964822292 0.91 7.76906773552e-39
0.016841179534 -0.0639964822292 0.91 8.22968014594e-39
0.0185252974874 -0.0639964822292 0.91 8.50554536682e-39
0.0202760398873 -0.0642074596432 0.913 8.32079817728e-39
0.0220138275337 -0.0643481112525 0.915 8.59738086298e-39
0.0237071988825 -0.0643481112525 0.915 8.69029255636e-39
0.0254005702312 -0.0643481112525 0.915 8.41299240585e-39
0.0271827741753 -0.0645590886664 0.918 8.96615777724e-39
0.0289446206497 -0.0646997402757 0.92 9.79160104544e-39
0.0306472453938 -0.0646997402757 0.92 1.05277199443e-38
0.0323498701378 -0.0646997402757 0.92 1.08071724893e-38
0.0340524948819 -0.0646997402757 0.92 1.01618128893e-38
0.0358717124074 -0.0649107176896 0.923 1.12656325053e-38
0.0376613190678 -0.0650513692989 0.925 9.05440594933e-39
0.0393731972073 -0.0650513692989 0.925 1.77964134255e-38
-0.0292592360915 -0.0636818667874 0.93 2.3497940947e-38
-0.0275381045567 -0.0636818667874 0.93 1.1966993597e-38
-0.0257614526498 -0.0635449165362 0.928 8.56725855119e-39
-0.0239662939522 -0.0633394911595 0.925 8.21425465244e-39
-0.0222544158128 -0.0633394911595 0.925 7.38809391943e-39
-0.0206091621199 -0.0635449165362 0.928 7.20478165952e-39
-0.0188306595339 -0.0633394911595 0.925 7.57355857378e-39
-0.0171187813945 -0.0633394911595 0.925 7.02218686442e-39
-0.0153735910318 -0.0632025409083 0.923 7.20765151877e-39
-0.0136209979528 -0.0629971155316 0.92 6.83959206933e-39
-0.0118924637017 -0.0628601652804 0.918 7.39275744072e-39
-0.0101935403157 -0.0628601652804 0.918 7.39311617313e-39
-0.00846685674374 -0.0626547399037 0.915 7.4860278665e-39
-0.006773485395 -0.0626547399037 0.915 7.94628154451e-39
-0.00508011404625 -0.0626547399037 0.915 7.21052137803e-39
-0.00337933998122 -0.0625177896526 0.913 7.21123884284e-39
-0.00168966999061 -0.0625177896526 0.913 7.85623971039e-39
0.0 -0.0625177896526 0.913 8.1335398609e-39
0.00168966999061 -0.0625177896526 0.913 8.13425732571e-39
0.00337933998122 -0.0625177896526 0.913 8.31936324766e-39
0.00506900997183 -0.0625177896526 0.913 8.87324608386e-39
0.00675867996244 -0.0625177896526 0.913 7.85731590761e-39
0.00844834995305 -0.0625177896526 0.913 8.13425732571e-39
0.0101380199437 -0.0625177896526 0.913 8.40976381419e-39
0.0118276899343 -0.0625177896526 0.913 8.22788648391e-39
0.0135173599249 -0.0625177896526 0.913 8.68921635914e-39
0.0152070299155 -0.0625177896526 0.913 7.95381492506e-39
0.0168966999061 -0.0625177896526 0.913 7.86126196409e-39
0.0185863698967 -0.0625177896526 0.913 8.04385675918e-39
0.020320456185 -0.0626547399037 0.915 8.22788648391e-39
0.0220138275337 -0.0626547399037 0.915 8.0449329564e-39
0.0237071988825 -0.0626547399037 0.915 9.15090496677e-39
0.0254838507894 -0.0628601652804 0.918 9.0579932734e-39
0.0271827741753 -0.0628601652804 0.918 9.51717075419e-39
0.0289446206497 -0.0629971155316 0.92 1.01618128893e-38
0.0306472453938 -0.0629971155316 0.92 1.02511372586e-38
0.0324553588448 -0.0632025409083 0.923 9.97634823498e-39
0.0341635356261 -0.0632025409083 0.923 1.09897672844e-38
0.0358717124074 -0.0632025409083 0.923 1.12652737728e-38
0.0376613190678 -0.0633394911595 0.925 1.00663900691e-38
0.0393731972073 -0.0633394911595 0.925 1.85361434705e-38
-0.0293536207241 -0.0621606085921 0.933 2.35004450674e-38
-0.027626937152 -0.0621606085921 0.933 1.99869371979e-38
-0.0258169730219 -0.0619607352526 0.93 9.38910328493e-39
-0.0240440224732 -0.0618274863596 0.928 7.93659576953e-39
-0.0223265922965 -0.0618274863596 0.928 7.38809391943e-39
-0.0206091621199 -0.0618274863596 0.928 7.48136434521e-39
-0.0188917319432 -0.0618274863596 0.928 7.66575280234e-39
-0.0171187813945 -0.06162761302 0.925 7.02218686442e-39
-0.015406903255 -0.06162761302 0.925 7.11581602262e-39
-0.0136654142505 -0.061494364127 0.923 6.56480304567e-39
-0.0119572374691 -0.061494364127 0.923 6.93286249511e-39
-0.0101935403157 -0.0611612418945 0.918 7.4856691341e-39
-0.00849461692979 -0.0611612418945 0.918 7.57822209507e-39
-0.006773485395 -0.060961368555 0.915 7.48638659891e-39
-0.00508011404625 -0.060961368555 0.915 7.21267377247e-39
-0.0033867426975 -0.060961368555 0.915 6.56946656696e-39
-0.00169337134875 -0.060961368555 0.915 7.58073322192e-39
0.0 -0.060961368555 0.915 8.22465789224e-39
0.00169337134875 -0.060961368555 0.915 8.22465789224e-39
0.00337933998122 -0.0608281196619 0.913 7.4910501202e-39
0.00506900997183 -0.0608281196619 0.913 7.58360308117e-39
0.00675867996244 -0.0608281196619 0.913 8.31756958562e-39
0.00844834995305 -0.0608281196619 0.913 8.77746453123e-39
0.0101380199437 -0.0608281196619 0.913 8.31756958562e-39
0.0118535994412 -0.060961368555 0.915 7.95130379821e-39
0.0135173599249 -0.0608281196619 0.913 7.95202126302e-39
0.0152070299155 -0.0608281196619 0.913 7.58432054599e-39
0.0169337134875 -0.060961368555 0.915 7.95417365747e-39
0.0186270848362 -0.060961368555 0.915 9.70155921132e-39
0.0203870806315 -0.0611612418945 0.918 9.14803510752e-39
0.0220860040175 -0.0611612418945 0.918 9.14875257233e-39
0.0237849274034 -0.0611612418945 0.918 8.59809832779e-39
0.0254838507894 -0.0611612418945 0.918 9.05763454099e-39
0.0272419959056 -0.0612944907875 0.92 9.14875257233e-39
0.0289446206497 -0.0612944907875 0.92 9.33385849428e-39
0.0307471820635 -0.061494364127 0.923 1.09897672844e-38
0.0324553588448 -0.061494364127 0.923 1.03465600789e-38
0.0341635356261 -0.061494364127 0.923 1.01618128893e-38
0.0358717124074 -0.061494364127 0.923 1.11723620795e-38
0.0375798891887 -0.061494364127 0.923 9.23735947683e-39
-0.0293536207241 -0.0604339250201 0.933 2.34968409277e-38
-0.027626937152 -0.0604339250201 0.933 2.00773181463e-38
-0.0258169730219 -0.0602396037178 0.93 1.06762351608e-38
-0.0240958414871 -0.0602396037178 0.93 7.75328350962e-39
-0.0223747099523 -0.0602396037178 0.93 7.75579463647e-39
-0.0206535784175 -0.0602396037178 0.93 7.02039320239e-39
-0.0188917319432 -0.0601100561829 0.928 7.20621658915e-39
-0.0171743017665 -0.0601100561829 0.928 7.1150985578e-39
-0.015406903255 -0.0599157348806 0.925 7.20622219434e-39
-0.0136950251156 -0.0599157348806 0.925 7.20836898359e-39
-0.0119572374691 -0.0597861873457 0.923 7.30128067697e-39
-0.0102490606878 -0.0597861873457 0.923 7.11760968465e-39
-0.00849461692979 -0.0594623185085 0.918 7.11725095224e-39
-0.00679569354383 -0.0594623185085 0.918 7.67149252085e-39
-0.00509677015787 -0.0594623185085 0.918 7.21267377247e-39
-0.0033867426975 -0.0592679972062 0.915 7.21267377247e-39
-0.00169337134875 -0.0592679972062 0.915 7.85623971039e-39
0.0 -0.0592679972062 0.915 8.59235860928e-39
0.00169337134875 -0.0592679972062 0.915 8.22465789224e-39
0.0033867426975 -0.0592679972062 0.915 8.3164933884e-39
0.00508011404625 -0.0592679972062 0.915 7.58073322192e-39
0.006773485395 -0.0592679972062 0.915 8.59415227132e-39
0.00846685674374 -0.0592679972062 0.915 8.96113552354e-39
0.0101602280925 -0.0592679972062 0.915 8.5934348065e-39
0.0118535994412 -0.0592679972062 0.915 8.50231677516e-39
0.01354697079 -0.0592679972062 0.915 8.410481279e-39
0.0152403421387 -0.0592679972062 0.915 8.22788648391e-39
0.0169337134875 -0.0592679972062 0.915 8.13676845256e-39
0.0186270848362 -0.0592679972062 0.915 8.13676845256e-39
0.0203870806315 -0.0594623185085 0.918 8.13676845256e-39
0.0220860040175 -0.0594623185085 0.918 8.32043944488e-39
0.0237849274034 -0.0594623185085 0.918 8.59738086298e-39
0.0255393711615 -0.0595918660434 0.92 1.02536483855e-38
0.0272419959056 -0.0595918660434 0.92 1.04369606454e-38
0.0290390052822 -0.0597861873457 0.923 9.60936498275e-39
0.0307471820635 -0.0597861873457 0.923 9.70227667613e-39
0.0324553588448 -0.0597861873457 0.923 1.02565182447e-38
0.0341635356261 -0.0597861873457 0.923 9.97921809423e-39
0.0359494409284 -0.0599157348806 0.925 1.14503796948e-38
0.0376613190678 -0.0599157348806 0.925 9.05225355489e-39
-0.0294165438124 -0.0588330876248 0.935 2.34950640813e-38
-0.0276861588823 -0.0588330876248 0.935 1.90631676191e-38
-0.0259557739521 -0.0588330876248 0.935 1.28838743926e-38
-0.024173570008 -0.0587072414481 0.933 8.48402142241e-39
-0.022446886436 -0.0587072414481 0.933 8.30644888101e-39
-0.0206535784175 -0.058518472183 0.93 7.57355857378e-39
-0.0189324468827 -0.058518472183 0.93 7.29876955012e-39
-0.0172113153479 -0.058518472183 0.93 7.57535223581e-39
-0.0154568715899 -0.0583926260063 0.928 7.20765151877e-39
-0.0137394414132 -0.0583926260063 0.928 7.30092194456e-39
-0.0119831469761 -0.0582038567412 0.925 7.02505672368e-39
-0.0102712688367 -0.0582038567412 0.925 7.4860278665e-39
-0.00851312372049 -0.0578892412993 0.92 7.39311617313e-39
-0.00681049897639 -0.0578892412993 0.92 7.39562729997e-39
-0.00509677015787 -0.0577633951226 0.918 7.21267377247e-39
-0.00339784677192 -0.0577633951226 0.918 7.21267377247e-39
-0.00169892338596 -0.0577633951226 0.918 7.76476294664e-39
0.0 -0.0577633951226 0.918 7.94879267136e-39
0.00169892338596 -0.0577633951226 0.918 7.94951013618e-39
0.0033867426975 -0.0575746258575 0.915 8.3164933884e-39
0.00508011404625 -0.0575746258575 0.915 8.04098689993e-39
0.006773485395 -0.0575746258575 0.915 7.76476294664e-39
0.00846685674374 -0.0575746258575 0.915 8.68634649988e-39
0.0101602280925 -0.0575746258575 0.915 8.40976381419e-39
0.0118535994412 -0.0575746258575 0.915 8.31972198006e-39
0.01354697079 -0.0575746258575 0.915 9.14767637511e-39
0.0152403421387 -0.0575746258575 0.915 9.33242356465e-39
0.0169892338596 -0.0577633951226 0.918 8.68849889432e-39
0.0186881572455 -0.0577633951226 0.918 8.41299240585e-39
0.0203870806315 -0.0577633951226 0.918 8.87360481627e-39
0.0220860040175 -0.0577633951226 0.918 9.24309919534e-39
0.0238367464174 -0.0578892412993 0.92 8.5044691696e-39
0.0255393711615 -0.0578892412993 0.92 8.31901012044e-39
0.0272419959056 -0.0578892412993 0.92 9.42641145525e-39
0.0290390052822 -0.0580780105644 0.923 1.03469188113e-38
0.03081380651 -0.0582038567412 0.925 1.00685424635e-38
0.0325256846495 -0.0582038567412 0.925 1.10805265833e-38
0.0342375627889 -0.0582038567412 0.925 1.13585441986e-38
0.0360660337097 -0.0583926260063 0.928 1.03454838816e-38
0.0377834638864 -0.0583926260063 0.928 7.94986886858e-39
-0.0277749914776 -0.0572859199226 0.938 1.98014543267e-38
-0.0259557739521 -0.0571027026947 0.935 1.64745377555e-38
-0.024173570008 -0.0569805578761 0.933 1.26187921634e-38
-0.022446886436 -0.0569805578761 0.933 8.21030859597e-39
-0.020720202864 -0.0569805578761 0.933 7.75687083369e-39
-0.0189324468827 -0.0567973406482 0.93 7.11294616336e-39
-0.0171743017665 -0.0566751958296 0.928 8.22142930058e-39
-0.0154568715899 -0.0566751958296 0.928 7.11545729021e-39
-0.0136950251156 -0.0564919786017 0.925 7.48531040169e-39
-0.0119831469761 -0.0564919786017 0.925 7.6686226616e-39
-0.0102712688367 -0.0564919786017 0.925 7.30163940937e-39
-0.00855939069723 -0.0564919786017 0.925 7.76189308738e-39
-0.00683270712523 -0.0563698337831 0.923 7.30271560659e-39
-0.00512453034392 -0.0563698337831 0.923 7.39562870127e-39
-0.00340524948819 -0.0561866165552 0.92 7.76404548183e-39
-0.0017026247441 -0.0561866165552 0.92 8.22501662465e-39
0.0 -0.0560644717366 0.918 7.48853899335e-39
0.00169892338596 -0.0560644717366 0.918 7.8569571752e-39
0.00339784677192 -0.0560644717366 0.918 7.94951013618e-39
0.00509677015787 -0.0560644717366 0.918 8.5930760741e-39
0.00679569354383 -0.0560644717366 0.918 8.13425732571e-39
0.00849461692979 -0.0560644717366 0.918 8.04206309715e-39
0.0101935403157 -0.0560644717366 0.918 8.96544031242e-39
0.0118924637017 -0.0560644717366 0.918 7.76727407349e-39
0.0135913870877 -0.0560644717366 0.918 8.68670523229e-39
0.0152903104736 -0.0560644717366 0.918 8.8700174922e-39
0.0169892338596 -0.0560644717366 0.918 9.14767637511e-39
0.0186881572455 -0.0560644717366 0.918 9.23915313886e-39
0.0204314969292 -0.0561866165552 0.92 9.14803510752e-39
0.0221341216733 -0.0561866165552 0.92 9.51573582456e-39
0.0238367464174 -0.0561866165552 0.92 9.88415400641e-39
0.0255393711615 -0.0561866165552 0.92 9.42569399043e-39
0.0272419959056 -0.0561866165552 0.92 9.42641145525e-39
0.0290390052822 -0.0563698337831 0.923 9.88630640085e-39
0.03081380651 -0.0564919786017 0.925 1.14503796948e-38
0.0326311733564 -0.0566751958296 0.928 1.01589430301e-38
0.0343486035331 -0.0566751958296 0.928 1.08975730558e-38
0.0361437622307 -0.0567973406482 0.93 9.97670696738e-39
0.0380684684631 -0.0571027026947 0.935 1.86265412345e-38
-0.0295738515333 -0.0556684264157 0.94 2.34975541887e-38
-0.0277749914776 -0.0555499829552 0.938 2.02617262216e-38
-0.0259557739521 -0.0553723177646 0.935 1.85964287318e-38
-0.024225389022 -0.0553723177646 0.935 1.68519326554e-38
-0.0224950040919 -0.0553723177646 0.935 1.19748646905e-38
-0.020720202864 -0.0552538743041 0.933 9.22336891296e-39
-0.0189324468827 -0.0550762091134 0.93 7.84834759744e-39
-0.0171743017665 -0.054957765653 0.928 7.39096377868e-39
-0.0154568715899 -0.054957765653 0.928 7.11617475502e-39
-0.0136950251156 -0.0547801004623 0.925 7.11617475502e-39
-0.0119831469761 -0.0547801004623 0.925 7.85372858354e-39
-0.0102712688367 -0.0547801004623 0.925 7.30092194456e-39
-0.00855939069723 -0.0547801004623 0.925 7.85408731595e-39
-0.00683270712523 -0.0546616570018 0.923 7.21088011044e-39
-0.00512453034392 -0.0546616570018 0.923 8.31685212081e-39
-0.00340524948819 -0.0544839918111 0.92 7.94843393896e-39
-0.0017026247441 -0.0544839918111 0.92 7.5796570247e-39
0.0 -0.0543655483507 0.918 7.76404548183e-39
0.00169892338596 -0.0543655483507 0.918 8.50267550757e-39
0.00339784677192 -0.0543655483507 0.918 8.5930760741e-39
0.00509677015787 -0.0543655483507 0.918 8.50231677516e-39
0.00679569354383 -0.0543655483507 0.918 9.23843567405e-39
0.00849461692979 -0.0543655483507 0.918 8.68670523229e-39
0.0101935403157 -0.0543655483507 0.918 7.85946830205e-39
0.0118924637017 -0.0543655483507 0.918 8.044574224e-39
0.0135913870877 -0.0543655483507 0.918 9.14982876955e-39
0.0152903104736 -0.0543655483507 0.918 8.68706396469e-39
0.017026247441 -0.0544839918111 0.92 8.6874226971e-39
0.0187288721851 -0.0544839918111 0.92 8.50411043719e-39
0.0204314969292 -0.0544839918111 0.92 8.50482790201e-39
0.0221341216733 -0.0544839918111 0.92 9.33242356465e-39
0.0239144749383 -0.0546616570018 0.923 9.79195977785e-39
0.0256781720917 -0.0547801004623 0.925 8.87324608386e-39
0.0274788828265 -0.054957765653 0.928 1.00717710552e-38
0.0291963130031 -0.054957765653 0.928 9.24309919534e-39
0.0309137431798 -0.054957765653 0.928 1.00696186608e-38
0.0327014991611 -0.0550762091134 0.93 1.0529154874e-38
0.0345336714401 -0.0552538743041 0.933 1.04369606454e-38
0.036338083533 -0.0553723177646 0.935 1.45735096342e-38
0.0380684684631 -0.0553723177646 0.935 2.35015366789e-38
0.0397988533933 -0.0553723177646 0.935 2.34972164757e-38
-0.0295738515333 -0.0539287880902 0.94 2.3494687132e-38
-0.0278342132079 -0.0539287880902 0.94 2.06308688747e-38
-0.0260390545103 -0.0538140459879 0.938 1.83205438927e-38
-0.024225389022 -0.0536419328344 0.935 1.84170947582e-38
-0.0224950040919 -0.0536419328344 0.935 1.69452269032e-38
-0.0207646191617 -0.0536419328344 0.935 1.40928684648e-38
-0.018993519292 -0.0535271907321 0.933 1.04168716306e-38
-0.0172113153479 -0.0533550775786 0.93 7.93910689638e-39
-0.0154568715899 -0.0532403354763 0.928 7.20765151877e-39
-0.0137394414132 -0.0532403354763 0.928 7.39311617313e-39
-0.0119831469761 -0.0530682223228 0.925 7.66969885882e-39
-0.0102712688367 -0.0530682223228 0.925 7.76153435498e-39
-0.00855939069723 -0.0530682223228 0.925 7.67077505604e-39
-0.00683270712523 -0.0529534802205 0.923 7.39419237035e-39
-0.00512453034392 -0.0529534802205 0.923 7.48674533132e-39
-0.00340524948819 -0.052781367067 0.92 8.22465789224e-39
-0.0017026247441 -0.052781367067 0.92 7.76404548183e-39
0.0 -0.0526666249647 0.918 7.76476294664e-39
0.00169892338596 -0.0526666249647 0.918 8.04170436474e-39
0.00339784677192 -0.0526666249647 0.918 8.50267550757e-39
0.00509677015787 -0.0526666249647 0.918 8.31756958562e-39
0.00679569354383 -0.0526666249647 0.918 8.50195804275e-39
0.00849461692979 -0.0526666249647 0.918 8.59486973613e-39
0.0101935403157 -0.0526666249647 0.918 7.85946830205e-39
0.0118924637017 -0.0526666249647 0.918 8.044574224e-39
0.0135913870877 -0.0526666249647 0.918 7.67507984492e-39
0.0153236226969 -0.052781367067 0.92 8.59738086298e-39
0.017026247441 -0.052781367067 0.92 8.32043944488e-39
0.0187288721851 -0.052781367067 0.92 9.61044117997e-39
0.0204314969292 -0.052781367067 0.92 8.68849889432e-39
0.022206298157 -0.0529534802205 0.923 9.14947003715e-39
0.0239662939522 -0.0530682223228 0.925 9.14982876955e-39
0.0257614526498 -0.0532403354763 0.928 9.2413055333e-39
0.0274788828265 -0.0532403354763 0.928 1.01625303541e-38
0.0292592360915 -0.0533550775786 0.93 1.02572357096e-38
0.0309803676263 -0.0533550775786 0.93 9.33385849428e-39
0.0328069878681 -0.0535271907321 0.933 9.60828878553e-39
0.0346076986028 -0.0536419328344 0.935 1.79811325891e-38
0.036338083533 -0.0536419328344 0.935 2.35011106842e-38
0.0380684684631 -0.0536419328344 0.935 2.34975668003e-38
0.0397988533933 -0.0536419328344 0.935 2.34972094692e-38
-0.0296682361659 -0.052355710881 0.943 2.349683252e-38
-0.0278342132079 -0.0521891497647 0.94 2.15528181669e-38
-0.0260945748824 -0.0521891497647 0.94 1.85967790564e-38
-0.0243031175429 -0.0520781090205 0.938 1.92464980959e-38
-0.0225671805756 -0.0520781090205 0.938 1.87883757928e-38
-0.0207646191617 -0.0519115479043 0.935 1.86951446034e-38
-0.0190342342316 -0.0519115479043 0.935 1.69455351889e-38
-0.0172113153479 -0.0516339460438 0.93 1.34517477927e-38
-0.0154901838131 -0.0516339460438 0.93 1.04193827575e-38
-0.0137394414132 -0.0515229052996 0.928 8.40043677161e-39
-0.0120220112366 -0.0515229052996 0.928 8.21927690614e-39
-0.0102712688367 -0.0513563441834 0.925 8.12887633961e-39
-0.00855939069723 -0.0513563441834 0.925 8.12995253683e-39
-0.00684751255778 -0.0513563441834 0.925 8.12995253683e-39
-0.00512453034392 -0.0512453034392 0.923 8.4990881835e-39
-0.00341635356261 -0.0512453034392 0.923 8.40761141975e-39
-0.0017026247441 -0.0510787423229 0.92 8.03991070271e-39
0.0 -0.0510787423229 0.92 8.5930760741e-39
0.00169892338596 -0.0509677015787 0.918 9.05584087895e-39
0.00339784677192 -0.0509677015787 0.918 7.76512167905e-39
0.00510787423229 -0.0510787423229 0.92 7.95237999543e-39
0.00681049897639 -0.0510787423229 0.92 8.04385675918e-39
0.00851312372049 -0.0510787423229 0.92 8.59881579261e-39
0.0102157484646 -0.0510787423229 0.92 8.78069312289e-39
0.0119183732087 -0.0510787423229 0.92 9.14803510752e-39
0.0136209979528 -0.0510787423229 0.92 8.77818199604e-39
0.0153236226969 -0.0510787423229 0.92 9.14767637511e-39
0.017026247441 -0.0510787423229 0.92 8.59451100372e-39
0.0187288721851 -0.0510787423229 0.92 8.68670523229e-39
0.0204981213757 -0.0512453034392 0.923 8.41191620863e-39
0.0222544158128 -0.0513563441834 0.925 9.3349346915e-39
0.0239662939522 -0.0513563441834 0.925 9.33385849428e-39
0.0257614526498 -0.0515229052996 0.928 9.88666513326e-39
0.0275381045567 -0.0516339460438 0.93 9.4239003284e-39
0.0293536207241 -0.0518005071601 0.933 9.51537709215e-39
0.0310803042961 -0.0518005071601 0.933 1.3287089618e-38
0.0328773136727 -0.0519115479043 0.935 2.0739057524e-38
0.0346076986028 -0.0519115479043 0.935 2.34982590418e-38
0.0364546763144 -0.0520781090205 0.938 2.34943424126e-38
0.0381906132817 -0.0520781090205 0.938 2.34925235272e-38
-0.0296682361659 -0.0506105205183 0.943 2.34943269983e-38
-0.0278342132079 -0.0504495114392 0.94 2.19216076928e-38
-0.0260945748824 -0.0504495114392 0.94 1.84131318862e-38
-0.0243031175429 -0.0503421720532 0.938 1.91553842684e-38
-0.0225671805756 -0.0503421720532 0.938 1.87855241504e-38
-0.0207646191617 -0.0501811629741 0.935 1.94290942923e-38
-0.0190342342316 -0.0501811629741 0.935 1.98893507729e-38
-0.01726683572 -0.0500738235881 0.933 1.97085524424e-38
-0.0154901838131 -0.049912814509 0.93 1.70406230988e-38
-0.0137394414132 -0.049805475123 0.928 1.42800609202e-38
-0.0120220112366 -0.049805475123 0.928 1.17061559009e-38
-0.0102712688367 -0.0496444660439 0.925 9.68792737985e-39
-0.00855939069723 -0.0496444660439 0.925 8.31182986711e-39
-0.00684751255778 -0.0496444660439 0.925 8.22142930058e-39
-0.00513563441834 -0.0496444660439 0.925 8.2225054978e-39
-0.00341635356261 -0.0495371266579 0.923 8.22429915984e-39
-0.00170817678131 -0.0495371266579 0.923 8.40904634937e-39
0.0 -0.0493761175788 0.92 8.04026943511e-39
0.0017026247441 -0.0493761175788 0.92 9.33170609984e-39
0.00340524948819 -0.0493761175788 0.92 8.50195804275e-39
0.00510787423229 -0.0493761175788 0.92 8.50231677516e-39
0.00681049897639 -0.0493761175788 0.92 8.41263367344e-39
0.00851312372049 -0.0493761175788 0.92 8.22645155428e-39
0.0102157484646 -0.0493761175788 0.92 8.87073495701e-39
0.0119183732087 -0.0493761175788 0.92 8.68849889432e-39
0.0136209979528 -0.0493761175788 0.92 8.87288735145e-39
0.0153236226969 -0.0493761175788 0.92 9.42533525803e-39
0.0170817678131 -0.0495371266579 0.923 9.42569399043e-39
0.0187899445944 -0.0495371266579 0.923 9.51609455696e-39
0.0204981213757 -0.0495371266579 0.923 9.60828878553e-39
0.0222544158128 -0.0496444660439 0.925 8.22860394872e-39
0.0240440224732 -0.049805475123 0.928 8.96579904483e-39
0.0258169730219 -0.049912814509 0.93 9.51394216252e-39
0.0275381045567 -0.049912814509 0.93 1.46646304681e-38
0.0293536207241 -0.0500738235881 0.933 1.98160404424e-38
0.0310803042961 -0.0500738235881 0.933 2.34960576019e-38
0.0328773136727 -0.0501811629741 0.935 2.34975527874e-38
0.034718739347 -0.0503421720532 0.938 2.34975836159e-38
0.0364546763144 -0.0503421720532 0.938 2.34954031955e-38
0.0381906132817 -0.0503421720532 0.938 2.34957619279e-38
-0.0296682361659 -0.0488653301556 0.943 2.34961206603e-38
-0.0279230458032 -0.0488653301556 0.943 2.21978372513e-38
-0.0261778554405 -0.0488653301556 0.943 1.83194901163e-38
-0.0243549365569 -0.0487098731137 0.94 1.93390342413e-38
-0.0226152982314 -0.0487098731137 0.94 1.94294446169e-38
-0.0208312436082 -0.0486062350858 0.938 1.97971565443e-38
-0.0190342342316 -0.048450778044 0.935 2.06279751934e-38
-0.01726683572 -0.0483471400161 0.933 1.97985844674e-38
-0.0154901838131 -0.0481916829742 0.93 2.10896890244e-38
-0.0137394414132 -0.0480880449463 0.928 2.08156062552e-38
-0.0120220112366 -0.0480880449463 0.928 1.86065306924e-38
-0.0103045810599 -0.0480880449463 0.928 1.69526706007e-38
-0.00858715088327 -0.0480880449463 0.928 1.54782355669e-38
-0.00684751255778 -0.0479325879045 0.925 1.2901811013e-38
-0.00513563441834 -0.0479325879045 0.925 1.02389403568e-38
-0.00342375627889 -0.0479325879045 0.925 9.87590316105e-39
-0.00170817678131 -0.0478289498766 0.923 9.4185193423e-39
0.0 -0.0478289498766 0.923 7.76225181979e-39
0.0017026247441 -0.0476734928347 0.92 8.22394042743e-39
0.00340524948819 -0.0476734928347 0.92 8.96292918558e-39
0.00510787423229 -0.0476734928347 0.92 8.96149425595e-39
0.00681049897639 -0.0476734928347 0.92 8.5934348065e-39
0.00851312372049 -0.0476734928347 0.92 9.14731764271e-39
0.0102157484646 -0.0476734928347 0.92 8.8703762246e-39
0.0119183732087 -0.0476734928347 0.92 8.8703762246e-39
0.0136654142505 -0.0478289498766 0.923 8.22465789224e-39
0.0153735910318 -0.0478289498766 0.923 8.68491157025e-39
0.0170817678131 -0.0478289498766 0.923 1.02504197938e-38
0.0188306595339 -0.0479325879045 0.925 9.9724021785e-39
0.0205425376733 -0.0479325879045 0.925 1.17219401268e-38
0.0223265922965 -0.0480880449463 0.928 1.4479157406e-38
0.0240440224732 -0.0480880449463 0.928 1.88944442775e-38
0.0258169730219 -0.0481916829742 0.93 2.08259828703e-38
0.0275381045567 -0.0481916829742 0.93 2.34971506147e-38
0.0293536207241 -0.0483471400161 0.933 2.3498640195e-38
0.0310803042961 -0.0483471400161 0.933 2.3496480794e-38
0.0328773136727 -0.048450778044 0.935 2.34946843294e-38
0.034718739347 -0.0486062350858 0.938 2.34925263298e-38
0.0364546763144 -0.0486062350858 0.938 2.34917990559e-38
0.0381906132817 -0.0486062350858 0.938 2.34939486477e-38
-0.0296682361659 -0.0471201397929 0.943 2.34968661511e-38
-0.0279230458032 -0.0471201397929 0.943 2.23804278425e-38
-0.0261778554405 -0.0471201397929 0.943 1.9149264798e-38
-0.0243549365569 -0.0469702347883 0.94 1.91535709882e-38
-0.0226152982314 -0.0469702347883 0.94 1.94294446169e-38
-0.0208312436082 -0.0468702981185 0.938 2.09964045857e-38
-0.0190342342316 -0.0467203931138 0.935 1.98893507729e-38
-0.01726683572 -0.0466204564441 0.933 2.0259606057e-38
-0.0154901838131 -0.0464705514394 0.93 2.09045774973e-38
-0.0137394414132 -0.0463706147697 0.928 2.05357725571e-38
-0.0120220112366 -0.0463706147697 0.928 2.12733446025e-38
-0.0103045810599 -0.0463706147697 0.928 2.15510034854e-38
-0.00858715088327 -0.0463706147697 0.928 2.2104174462e-38
-0.00686972070662 -0.0463706147697 0.928 2.0355346972e-38
-0.00513563441834 -0.046220709765 0.925 1.99919384321e-38
-0.00342375627889 -0.046220709765 0.925 1.88880907902e-38
-0.00171187813945 -0.046220709765 0.925 1.72310469484e-38
0.0 -0.046220709765 0.925 1.62190235923e-38
0.00170817678131 -0.0461207730953 0.923 1.50237131996e-38
0.00341635356261 -0.0461207730953 0.923 1.51173423578e-38
0.00512453034392 -0.0461207730953 0.923 1.35521928666e-38
0.00683270712523 -0.0461207730953 0.923 1.39220459781e-38
0.00854088390653 -0.0461207730953 0.923 1.34621510325e-38
0.0102490606878 -0.0461207730953 0.923 1.46588823418e-38
0.0119572374691 -0.0461207730953 0.923 1.52098953188e-38
0.0136950251156 -0.046220709765 0.925 1.61300439424e-38
0.015406903255 -0.046220709765 0.925 1.80629235778e-38
0.0171187813945 -0.046220709765 0.925 1.78774953573e-38
0.0188306595339 -0.046220709765 0.925 2.02710266395e-38
0.0205425376733 -0.046220709765 0.925 2.22989325277e-38
0.0223265922965 -0.0463706147697 0.928 2.34928612401e-38
0.0240440224732 -0.0463706147697 0.928 2.3494701145e-38
0.0258169730219 -0.0464705514394 0.93 2.34950430618e-38
0.027626937152 -0.0466204564441 0.933 2.3491095604e-38
0.0293536207241 -0.0466204564441 0.933 2.34946899346e-38
0.0311469287426 -0.0467203931138 0.935 2.34907270625e-38
0.0329828023797 -0.0468702981185 0.938 2.34936179413e-38
0.034718739347 -0.0468702981185 0.938 2.34943129853e-38
0.0364546763144 -0.0468702981185 0.938 2.34953555514e-38
0.0382720431608 -0.0469702347883 0.94 2.34986500041e-38
-0.0296682361659 -0.0453749494302 0.943 2.3497203864e-38
-0.0279230458032 -0.0453749494302 0.943 2.3487841789e-38
-0.0261778554405 -0.0453749494302 0.943 1.77659477956e-38
-0.0243549365569 -0.0452305964628 0.94 1.97982369454e-38
-0.0226152982314 -0.0452305964628 0.94 1.97067545765e-38
-0.0208312436082 -0.0451343611511 0.938 1.98897039001e-38
-0.0190342342316 -0.0449900081837 0.935 2.00730231665e-38
-0.0173038493014 -0.0449900081837 0.935 1.99811960781e-38
-0.015540152148 -0.0448937728721 0.933 2.09041893376e-38
-0.0137690522784 -0.0447494199046 0.93 2.1735398949e-38
-0.0120479207436 -0.0447494199046 0.93 2.06276052506e-38
-0.0103045810599 -0.044653184593 0.928 2.18251058728e-38
-0.00858715088327 -0.044653184593 0.928 2.16421271219e-38
-0.00686972070662 -0.044653184593 0.928 2.21949687934e-38
-0.00513563441834 -0.0445088316256 0.925 2.21938715767e-38
-0.00342375627889 -0.0445088316256 0.925 2.26548539299e-38
-0.00171187813945 -0.0445088316256 0.925 2.34871215216e-38
0.0 -0.0445088316256 0.925 2.24729611853e-38
0.00171187813945 -0.0445088316256 0.925 2.32098409893e-38
0.00342375627889 -0.0445088316256 0.925 2.24755003381e-38
0.00513563441834 -0.0445088316256 0.925 2.34932283803e-38
0.00684751255778 -0.0445088316256 0.925 2.29396748492e-38
0.00855939069723 -0.0445088316256 0.925 2.3215210765e-38
0.0102712688367 -0.0445088316256 0.925 2.32152163702e-38
0.0119831469761 -0.0445088316256 0.925 2.349144733e-38
0.0136950251156 -0.0445088316256 0.925 2.33974594394e-38
0.015406903255 -0.0445088316256 0.925 2.34928682466e-38
0.0171187813945 -0.0445088316256 0.925 2.34900053938e-38
0.0188917319432 -0.044653184593 0.928 2.34907382729e-38
0.0206091621199 -0.044653184593 0.928 2.34911012092e-38
0.0223265922965 -0.044653184593 0.928 2.34907312664e-38
0.0240958414871 -0.0447494199046 0.93 2.34917878455e-38
0.0258169730219 -0.0447494199046 0.93 2.34928472271e-38
0.027626937152 -0.0448937728721 0.933 2.34893313693e-38
0.0293536207241 -0.0448937728721 0.933 2.34939850815e-38
0.0311469287426 -0.0449900081837 0.935 2.34903641262e-38
0.0329828023797 -0.0451343611511 0.938 2.34961220616e-38
0.034718739347 -0.0451343611511 0.938 2.34910773872e-38
0.0364546763144 -0.0451343611511 0.938 2.34979241315e-38
0.0381906132817 -0.0451343611511 0.938 2.34943326035e-38
0.0402670751979 -0.0455193023976 0.946 2.34965158265e-38
-0.0297626207984 -0.0437685599977 0.946 2.34968367238e-38
-0.0279230458032 -0.0436297590675 0.943 2.31194404227e-38
-0.0261778554405 -0.0436297590675 0.943 1.94247628787e-38
-0.0244326650778 -0.0436297590675 0.943 1.92464980959e-38
-0.0226874747151 -0.0436297590675 0.943 1.91546373763e-38
-0.0208756599059 -0.0434909581373 0.94 2.05361523089e-38
-0.0190953066409 -0.0433984241838 0.938 1.96155987101e-38
-0.0173038493014 -0.0432596232536 0.935 2.05350719078e-38
-0.0155734643713 -0.0432596232536 0.935 2.11822251698e-38
-0.013813468576 -0.0431670893001 0.933 2.09059872035e-38
-0.012086785004 -0.0431670893001 0.933 2.13647947415e-38
-0.0103045810599 -0.0429357544164 0.928 2.17336543324e-38
-0.00858715088327 -0.0429357544164 0.928 2.13659059712e-38
-0.00686972070662 -0.0429357544164 0.928 2.20102061895e-38
-0.00515229052996 -0.0429357544164 0.928 2.20101907753e-38
-0.00343486035331 -0.0429357544164 0.928 2.24708143961e-38
-0.00171743017665 -0.0429357544164 0.928 2.33005764661e-38
0.0 -0.0429357544164 0.928 2.24700955299e-38
0.00171743017665 -0.0429357544164 0.928 2.33909700262e-38
0.00343486035331 -0.0429357544164 0.928 2.34860355153e-38
0.00515229052996 -0.0429357544164 0.928 2.3299843587e-38
0.00684751255778 -0.0427969534861 0.925 2.34871299294e-38
0.00855939069723 -0.0427969534861 0.925 2.32991303261e-38
0.0102712688367 -0.0427969534861 0.925 2.3489996986e-38
0.0119831469761 -0.0427969534861 0.925 2.30236322454e-38
0.0136950251156 -0.0427969534861 0.925 2.34874760501e-38
0.015406903255 -0.0427969534861 0.925 2.34842348468e-38
0.0171743017665 -0.0429357544164 0.928 2.34882061266e-38
0.0188917319432 -0.0429357544164 0.928 2.34867627892e-38
0.0206091621199 -0.0429357544164 0.928 2.34889376044e-38
0.0223265922965 -0.0429357544164 0.928 2.34918354896e-38
0.0240958414871 -0.0430282883699 0.93 2.34914375209e-38
0.0258169730219 -0.0430282883699 0.93 2.34885620564e-38
0.027626937152 -0.0431670893001 0.933 2.34889432096e-38
0.0293536207241 -0.0431670893001 0.933 2.349433961e-38
0.0311469287426 -0.0432596232536 0.935 2.34921619922e-38
0.0329828023797 -0.0433984241838 0.938 2.34943424126e-38
0.034718739347 -0.0433984241838 0.938 2.34964835966e-38
0.0364546763144 -0.0433984241838 0.938 2.34953975903e-38
0.0381906132817 -0.0433984241838 0.938 2.34957731383e-38
0.0401393783421 -0.0436297590675 0.943 2.35004576791e-38
0.0418845687048 -0.0436297590675 0.943 2.35015282711e-38
-0.0297626207984 -0.0420178175978 0.946 2.34968339213e-38
-0.0279230458032 -0.0418845687048 0.943 2.28428535331e-38
-0.0261778554405 -0.0418845687048 0.943 1.90527363533e-38
-0.0244326650778 -0.0418845687048 0.943 1.9245794644e-38
-0.0226874747151 -0.0418845687048 0.943 1.97067573791e-38
-0.0209422843524 -0.0418845687048 0.943 2.01680928595e-38
-0.0190953066409 -0.0416624872164 0.938 1.98929268866e-38
-0.0173593696735 -0.0416624872164 0.938 2.05372214997e-38
-0.0155734643713 -0.0415292383234 0.935 2.05361256843e-38
-0.0138430794411 -0.0415292383234 0.935 2.11804385143e-38
-0.012086785004 -0.0414404057281 0.933 2.24707989818e-38
-0.0103267892088 -0.0413071568351 0.93 2.20101879727e-38
-0.00860565767397 -0.0413071568351 0.93 2.13669821684e-38
-0.00686972070662 -0.0412183242397 0.928 2.20091468079e-38
-0.00515229052996 -0.0412183242397 0.928 2.29321624882e-38
-0.00343486035331 -0.0412183242397 0.928 2.19173015027e-38
-0.00171743017665 -0.0412183242397 0.928 2.31154775507e-38
0.0 -0.0412183242397 0.928 2.34853138466e-38
0.00171743017665 -0.0412183242397 0.928 2.29332190672e-38
0.00343486035331 -0.0412183242397 0.928 2.34842600701e-38
0.00515229052996 -0.0412183242397 0.928 2.33913231534e-38
0.00686972070662 -0.0412183242397 0.928 2.32991303261e-38
0.00858715088327 -0.0412183242397 0.928 2.3488578872e-38
0.0103045810599 -0.0412183242397 0.928 2.34867683944e-38
0.0120220112366 -0.0412183242397 0.928 2.3487855802e-38
0.0137394414132 -0.0412183242397 0.928 2.34881991201e-38
0.0154568715899 -0.0412183242397 0.928 2.3486423675e-38
0.0171743017665 -0.0412183242397 0.928 2.34885746681e-38
0.0188917319432 -0.0412183242397 0.928 2.34885718655e-38
0.0206535784175 -0.0413071568351 0.93 2.34871397385e-38
0.0223747099523 -0.0413071568351 0.93 2.34889432096e-38
0.0240958414871 -0.0413071568351 0.93 2.34892921329e-38
0.0258169730219 -0.0413071568351 0.93 2.34903753366e-38
0.027626937152 -0.0414404057281 0.933 2.34932465972e-38
0.0294165438124 -0.0415292383234 0.935 2.3492156387e-38
0.0311469287426 -0.0415292383234 0.935 2.34957549214e-38
0.0329828023797 -0.0416624872164 0.938 2.34961626993e-38
0.0347927665098 -0.0417513198118 0.94 2.34943283996e-38
0.036338083533 -0.0415292383234 0.935 2.34968437303e-38
0.0380684684631 -0.0415292383234 0.935 2.34957787435e-38
0.0401393783421 -0.0418845687048 0.943 2.35008360297e-38
-0.0318464854309 -0.0406927313839 0.956 2.349040056e-38
-0.0297626207984 -0.0402670751979 0.946 2.34918200753e-38
-0.0280118783985 -0.0402670751979 0.946 2.34893005407e-38
-0.0262611359986 -0.0402670751979 0.946 1.89615916973e-38
-0.0244326650778 -0.0401393783421 0.943 1.94294474195e-38
-0.0226874747151 -0.0401393783421 0.943 1.97982341428e-38
-0.0209422843524 -0.0401393783421 0.943 2.01666467195e-38
-0.0191360215804 -0.0400116814863 0.94 2.04446573283e-38
-0.0173593696735 -0.0399265502491 0.938 2.03539274566e-38
-0.0156234327062 -0.0399265502491 0.938 2.05368557608e-38
-0.0138430794411 -0.0397988533933 0.935 2.20098404506e-38
-0.012112694511 -0.0397988533933 0.935 2.09953283884e-38
-0.0103267892088 -0.0395860253003 0.93 2.14581044037e-38
-0.00860565767397 -0.0395860253003 0.93 2.23811312943e-38
-0.00686972070662 -0.0395008940631 0.928 2.22878468556e-38
-0.00515229052996 -0.0395008940631 0.928 2.28395885077e-38
-0.00343486035331 -0.0395008940631 0.928 2.22874993336e-38
-0.00171743017665 -0.0395008940631 0.928 2.31161964168e-38
0.0 -0.0395008940631 0.928 2.25641240582e-38
0.00171743017665 -0.0395008940631 0.928 2.34853082414e-38
0.00343486035331 -0.0395008940631 0.928 2.34860411205e-38
0.00515229052996 -0.0395008940631 0.928 2.34863886425e-38
0.00686972070662 -0.0395008940631 0.928 2.34849761336e-38
0.00858715088327 -0.0395008940631 0.928 2.33906197016e-38
0.0103045810599 -0.0395008940631 0.928 2.3486433484e-38
0.0120220112366 -0.0395008940631 0.928 2.34881935149e-38
0.0137394414132 -0.0395008940631 0.928 2.34871299294e-38
0.0154568715899 -0.0395008940631 0.928 2.34904019613e-38
0.0171743017665 -0.0395008940631 0.928 2.34895990173e-38
0.0188917319432 -0.0395008940631 0.928 2.34864264776e-38
0.0206535784175 -0.0395860253003 0.93 2.34893075472e-38
0.0223747099523 -0.0395860253003 0.93 2.34899843744e-38
0.0240958414871 -0.0395860253003 0.93 2.3487494267e-38
0.0258169730219 -0.0395860253003 0.93 2.34907494833e-38
0.027626937152 -0.0397137221561 0.933 2.34921661961e-38
0.0294165438124 -0.0397988533933 0.935 2.34925235272e-38
0.0312468654123 -0.0399265502491 0.938 2.34921647948e-38
0.0329828023797 -0.0399265502491 0.938 2.34925291324e-38
0.034718739347 -0.0399265502491 0.938 2.34950318514e-38
0.036338083533 -0.0397988533933 0.935 2.3495757724e-38
0.0380684684631 -0.0397988533933 0.935 2.34979381444e-38
0.0397988533933 -0.0397988533933 0.935 2.34990213482e-38
-0.0317798609844 -0.0388420523143 0.954 2.34932508011e-38
-0.0297626207984 -0.038516332798 0.946 2.34964765901e-38
-0.0280118783985 -0.038516332798 0.946 2.34903767379e-38
-0.0262611359986 -0.038516332798 0.946 1.86864775724e-38
-0.0245103935987 -0.038516332798 0.946 1.97971509391e-38
-0.0227596511988 -0.038516332798 0.946 1.91539339245e-38
-0.0210089087989 -0.038516332798 0.946 2.05339971119e-38
-0.0191970939897 -0.0383941879794 0.943 2.05347061689e-38
-0.0173593696735 -0.0381906132817 0.938 2.04446601309e-38
-0.0156234327062 -0.0381906132817 0.938 2.10893232855e-38
-0.0138430794411 -0.0380684684631 0.935 2.16432159308e-38
-0.012112694511 -0.0380684684631 0.935 2.11804385143e-38
-0.010360101432 -0.0379870385841 0.933 2.13673380983e-38
-0.00860565767397 -0.0378648937655 0.93 2.1275492793e-38
-0.00688452613918 -0.0378648937655 0.93 2.23789690908e-38
-0.00515229052996 -0.0377834638864 0.928 2.2285351143e-38
-0.00343486035331 -0.0377834638864 0.928 2.34864068594e-38
-0.00171743017665 -0.0377834638864 0.928 2.25630100259e-38
0.0 -0.0377834638864 0.928 2.27481243557e-38
0.00171743017665 -0.0377834638864 0.928 2.34842432545e-38
0.00343486035331 -0.0377834638864 0.928 2.32047794992e-38
0.00515229052996 -0.0377834638864 0.928 2.34878235721e-38
0.00686972070662 -0.0377834638864 0.928 2.34871103112e-38
0.00858715088327 -0.0377834638864 0.928 2.34871075086e-38
0.0103045810599 -0.0377834638864 0.928 2.34896312471e-38
0.0120220112366 -0.0377834638864 0.928 2.34874550306e-38
0.0137690522784 -0.0378648937655 0.93 2.34882089292e-38
0.0154901838131 -0.0378648937655 0.93 2.34871271268e-38
0.0172113153479 -0.0378648937655 0.93 2.34892893303e-38
0.0189324468827 -0.0378648937655 0.93 2.34853418725e-38
0.020720202864 -0.0379870385841 0.933 2.34893075472e-38
0.022446886436 -0.0379870385841 0.933 2.34921619922e-38
0.024173570008 -0.0379870385841 0.933 2.34921535844e-38
0.02590025358 -0.0379870385841 0.933 2.34914403235e-38
0.0276861588823 -0.0380684684631 0.935 2.34939668646e-38
0.0294165438124 -0.0380684684631 0.935 2.34954031955e-38
0.0312468654123 -0.0381906132817 0.938 2.34953947877e-38
0.0329828023797 -0.0381906132817 0.938 2.34932493998e-38
0.034718739347 -0.0381906132817 0.938 2.34979577626e-38
0.0364546763144 -0.0381906132817 0.938 2.34950738904e-38
0.0381906132817 -0.0381906132817 0.938 2.34983080872e-38
0.0401393783421 -0.0383941879794 0.943 2.3498654208e-38
-0.0317798609844 -0.0370765044818 0.954 2.3493602527e-38
-0.0299199285194 -0.0369599117004 0.951 2.34950500683e-38
-0.0280711001288 -0.036843318919 0.948 2.34932648141e-38
-0.0262611359986 -0.0367655903981 0.946 1.83158943844e-38
-0.0245103935987 -0.0367655903981 0.946 1.97982341428e-38
-0.0227596511988 -0.0367655903981 0.946 1.98922080204e-38
-0.0210089087989 -0.0367655903981 0.946 2.09042089558e-38
-0.0191970939897 -0.0366489976167 0.943 2.07194799831e-38
-0.0173963832549 -0.0365324048353 0.94 2.04446601309e-38
-0.0156234327062 -0.0364546763144 0.938 2.06279695882e-38
-0.0138874957388 -0.0364546763144 0.938 2.12718928573e-38
-0.012112694511 -0.036338083533 0.935 2.18239946431e-38
-0.010360101432 -0.0362603550121 0.933 2.24711647207e-38
-0.00860565767397 -0.0361437622307 0.93 2.18275917763e-38
-0.00688452613918 -0.0361437622307 0.93 2.33934881595e-38
-0.00516339460438 -0.0361437622307 0.93 2.21927967807e-38
-0.00343486035331 -0.0360660337097 0.928 2.26537581145e-38
-0.00171743017665 -0.0360660337097 0.928 2.30232637039e-38
0.0 -0.0360660337097 0.928 2.34856655725e-38
0.00171743017665 -0.0360660337097 0.928 2.34874676423e-38
0.00343486035331 -0.0360660337097 0.928 2.3485311044e-38
0.00516339460438 -0.0361437622307 0.93 2.3299496065e-38
0.00686972070662 -0.0360660337097 0.928 2.34889249927e-38
0.00858715088327 -0.0360660337097 0.928 2.33927272544e-38
0.0103267892088 -0.0361437622307 0.93 2.34914459287e-38
0.0120479207436 -0.0361437622307 0.93 2.34860467257e-38
0.0137690522784 -0.0361437622307 0.93 2.3487132732e-38
0.0154901838131 -0.0361437622307 0.93 2.34921171506e-38
0.0172113153479 -0.0361437622307 0.93 2.3489635451e-38
0.0189324468827 -0.0361437622307 0.93 2.34896606744e-38
0.020720202864 -0.0362603550121 0.933 2.34882229422e-38
0.022446886436 -0.0362603550121 0.933 2.34874998722e-38
0.024173570008 -0.0362603550121 0.933 2.3493278827e-38
0.02590025358 -0.0362603550121 0.933 2.34921353675e-38
0.0276861588823 -0.036338083533 0.935 2.34914277118e-38
0.029510928445 -0.0364546763144 0.938 2.34918060624e-38
0.0312468654123 -0.0364546763144 0.938 2.34921675974e-38
0.0330531281843 -0.0365324048353 0.94 2.34928962726e-38
0.0347927665098 -0.0365324048353 0.94 2.34961458837e-38
0.0365324048353 -0.0365324048353 0.94 2.34986472015e-38
0.0382720431608 -0.0365324048353 0.94 2.34954045968e-38
0.0401393783421 -0.0366489976167 0.943 2.35033513604e-38
-0.0317798609844 -0.0353109566493 0.954 2.34932437946e-38
-0.0300143131519 -0.0353109566493 0.954 2.34929018778e-38
-0.0281599327241 -0.0351999159051 0.951 2.34925417441e-38
-0.0263166563707 -0.035088875161 0.948 1.95155123686e-38
-0.0245103935987 -0.0350148479982 0.946 1.98897039001e-38
-0.0227596511988 -0.0350148479982 0.946 1.97978417793e-38
-0.0210089087989 -0.0350148479982 0.946 2.00737294209e-38
-0.019258166399 -0.0350148479982 0.946 1.98889836327e-38
-0.0173963832549 -0.0347927665098 0.94 2.05340027171e-38
-0.0156234327062 -0.034718739347 0.938 2.13658905569e-38
-0.0138874957388 -0.034718739347 0.938 2.11800293351e-38
-0.012112694511 -0.0346076986028 0.935 2.22846028496e-38
-0.010360101432 -0.0345336714401 0.933 2.24715122427e-38
-0.00863341786002 -0.0345336714401 0.933 2.1179366521e-38
-0.00690673428801 -0.0345336714401 0.933 2.26544797832e-38
-0.00516339460438 -0.0344226306959 0.93 2.32994778481e-38
-0.00344226306959 -0.0344226306959 0.93 2.265586847e-38
-0.00172113153479 -0.0344226306959 0.93 2.26559133115e-38
0.0 -0.0344226306959 0.93 2.34878235721e-38
0.00172113153479 -0.0344226306959 0.93 2.33923769298e-38
0.00344226306959 -0.0344226306959 0.93 2.3485283018e-38
0.00516339460438 -0.0344226306959 0.93 2.34863886425e-38
0.00686972070662 -0.0343486035331 0.928 2.34882047253e-38
0.00858715088327 -0.0343486035331 0.928 2.34853292609e-38
0.0103267892088 -0.0344226306959 0.93 2.34864348853e-38
0.0120479207436 -0.0344226306959 0.93 2.3486048127e-38
0.0137690522784 -0.0344226306959 0.93 2.34867768022e-38
0.0154901838131 -0.0344226306959 0.93 2.34871313307e-38
0.0172113153479 -0.0344226306959 0.93 2.34889319992e-38
0.0189324468827 -0.0344226306959 0.93 2.34907494833e-38
0.020720202864 -0.0345336714401 0.933 2.34892921329e-38
0.022446886436 -0.0345336714401 0.933 2.34892991394e-38
0.024225389022 -0.0346076986028 0.935 2.34932578076e-38
0.0259557739521 -0.0346076986028 0.935 2.34907158522e-38
0.0276861588823 -0.0346076986028 0.935 2.3493602527e-38
0.029510928445 -0.034718739347 0.938 2.34950178384e-38
0.0312468654123 -0.034718739347 0.938 2.34957563227e-38
0.0330531281843 -0.0347927665098 0.94 2.34957619279e-38
0.0347927665098 -0.0347927665098 0.94 2.34964849979e-38
0.0365324048353 -0.0347927665098 0.94 2.34972066666e-38
0.0382720431608 -0.0347927665098 0.94 2.35015128568e-38
0.0400116814863 -0.0347927665098 0.94 2.34990353611e-38
-0.0317798609844 -0.0335454088169 0.954 2.34921816103e-38
-0.0300143131519 -0.0335454088169 0.954 2.34921774065e-38
-0.0281599327241 -0.0334399201099 0.951 2.34950556735e-38
-0.0263166563707 -0.0333344314029 0.948 1.92392800075e-38
-0.0245622126127 -0.0333344314029 0.948 1.90603187793e-38
-0.0228077688546 -0.0333344314029 0.948 2.05347201819e-38
-0.0210533250966 -0.0333344314029 0.948 2.05372060854e-38
-0.019258166399 -0.0332641055983 0.946 2.04428580611e-38
-0.017451903627 -0.0331586168913 0.943 2.15474273717e-38
-0.0156567449294 -0.0330531281843 0.94 2.10896736101e-38
-0.0138874957388 -0.0329828023797 0.938 2.1272624335e-38
-0.0121515587715 -0.0329828023797 0.938 2.20084069223e-38
-0.0103823095809 -0.0328773136727 0.935 2.15488552948e-38
-0.00865192465071 -0.0328773136727 0.935 2.22864203337e-38
-0.00690673428801 -0.0328069878681 0.933 2.22864147285e-38
-0.00518005071601 -0.0328069878681 0.933 2.30239853726e-38
-0.00345336714401 -0.0328069878681 0.933 2.2011259966e-38
-0.00172113153479 -0.0327014991611 0.93 2.29332190672e-38
0.0 -0.0327014991611 0.93 2.3299843587e-38
0.00172113153479 -0.0327014991611 0.93 2.34849439038e-38
0.00344226306959 -0.0327014991611 0.93 2.34849663246e-38
0.00516339460438 -0.0327014991611 0.93 2.34856809868e-38
0.00688452613918 -0.0327014991611 0.93 2.34838859234e-38
0.00860565767397 -0.0327014991611 0.93 2.3486771197e-38
0.0103267892088 -0.0327014991611 0.93 2.34860285088e-38
0.0120479207436 -0.0327014991611 0.93 2.34853278596e-38
0.0137690522784 -0.0327014991611 0.93 2.34871341333e-38
0.0154901838131 -0.0327014991611 0.93 2.34857230257e-38
0.0172113153479 -0.0327014991611 0.93 2.34867754009e-38
0.018993519292 -0.0328069878681 0.933 2.34889362031e-38
0.020720202864 -0.0328069878681 0.933 2.34899955847e-38
0.0224950040919 -0.0328773136727 0.935 2.34892935342e-38
0.024225389022 -0.0328773136727 0.935 2.3488926394e-38
0.0259557739521 -0.0328773136727 0.935 2.34925361389e-38
0.0276861588823 -0.0328773136727 0.935 2.34914361196e-38
0.029510928445 -0.0329828023797 0.938 2.34960800227e-38
0.0313134898588 -0.0330531281843 0.94 2.34943031762e-38
0.0330531281843 -0.0330531281843 0.94 2.34957759409e-38
0.0347927665098 -0.0330531281843 0.94 2.34954270176e-38
0.0365324048353 -0.0330531281843 0.94 2.34950654826e-38
0.0382720431608 -0.0330531281843 0.94 2.35007939907e-38
0.0400116814863 -0.0330531281843 0.94 2.35004576791e-38
-0.0317798609844 -0.0317798609844 0.954 2.34929046804e-38
-0.0300143131519 -0.0317798609844 0.954 2.34943438139e-38
-0.0281599327241 -0.0316799243146 0.951 2.34935997244e-38
-0.0263999369289 -0.0316799243146 0.951 1.93318441788e-38
-0.0245622126127 -0.0315799876449 0.948 1.9337624535e-38
-0.0228077688546 -0.0315799876449 0.948 2.02574074197e-38
-0.0210533250966 -0.0315799876449 0.948 2.0259192674e-38
-0.019258166399 -0.0315133631984 0.946 1.9890055626e-38
-0.017451903627 -0.0314134265286 0.943 2.15477959132e-38
-0.0156567449294 -0.0313134898588 0.94 2.09939060705e-38
-0.0139171066039 -0.0313134898588 0.94 2.16399943457e-38
-0.0121515587715 -0.0312468654123 0.938 2.17321745612e-38
-0.0104156218041 -0.0312468654123 0.938 2.21938715767e-38
-0.00865192465071 -0.0311469287426 0.935 2.23782628364e-38
-0.00692153972057 -0.0311469287426 0.935 2.24708143961e-38
-0.00519115479043 -0.0311469287426 0.935 2.31161810025e-38
-0.00345336714401 -0.0310803042961 0.933 2.29332218698e-38
-0.001726683572 -0.0310803042961 0.933 2.3208379435e-38
0.0 -0.0310803042961 0.933 2.34853180505e-38
0.001726683572 -0.0310803042961 0.933 2.34867585853e-38
0.00345336714401 -0.0310803042961 0.933 2.34842474584e-38
0.00518005071601 -0.0310803042961 0.933 2.34860425218e-38
0.00688452613918 -0.0309803676263 0.93 2.34856851907e-38
0.00860565767397 -0.0309803676263 0.93 2.34871299294e-38
0.0103267892088 -0.0309803676263 0.93 2.34903669288e-38
0.0120479207436 -0.0309803676263 0.93 2.34867768022e-38
