# .PCD v0.7 - Point Cloud Data file format
VERSION 0.7
FIELDS x y z rgb
SIZE 4 4 4 4
TYPE F F F F
COUNT 1 1 1 1
WIDTH 847
HEIGHT 1
VIEWPOINT 0 0 0 1 0 0 0
POINTS 847
DATA ascii
0.0343226940261 -0.0546042859506 0.843 2.34853124453e-38
0.0358828164819 -0.0546042859506 0.843 2.34870878904e-38
0.0374429389376 -0.0546042859506 0.843 2.34846328155e-38
0.0390030613933 -0.0546042859506 0.843 2.34892795212e-38
0.040563183849 -0.0546042859506 0.843 2.34874872605e-38
0.0421233063048 -0.0546042859506 0.843 2.34917822403e-38
0.0440979808721 -0.0551224760902 0.851 2.34979241315e-38
0.0458339178395 -0.0553167973925 0.854 2.35090854737e-38
0.0477475199975 -0.0557054399971 0.86 2.35098547866e-38
0.0494538460997 -0.055834987532 0.862 2.35098421749e-38
0.0510491314578 -0.055834987532 0.862 2.35098561879e-38
0.0527665616345 -0.0559645350669 0.864 2.35098575892e-38
0.0545543176158 -0.0561588563692 0.867 2.35098575892e-38
0.0561588563692 -0.0561588563692 0.867 2.35098687996e-38
0.0577633951226 -0.0561588563692 0.867 2.35098786087e-38
0.0595048841271 -0.056288403904 0.869 2.35098365697e-38
0.0611131242387 -0.056288403904 0.869 2.35098561879e-38
0.0627213643502 -0.056288403904 0.869 2.35098127476e-38
0.0644776587873 -0.0564179514389 0.871 2.35065953664e-38
0.066089600257 -0.0564179514389 0.871 2.3501156927e-38
0.0 -0.054931856146 0.873 1.43622624894e-38
0.00161564282782 -0.054931856146 0.873 1.979164804e-38
0.00322388293937 -0.0548060099692 0.871 1.87840597936e-38
0.00483582440905 -0.0548060099692 0.871 1.97974760404e-38
0.00644776587873 -0.0548060099692 0.871 2.09027474015e-38
0.00805970734842 -0.0548060099692 0.871 2.12736949271e-38
0.0096716488181 -0.0548060099692 0.871 2.10910847177e-38
0.0112576807808 -0.0546801637925 0.869 2.08137887711e-38
0.0127918937296 -0.0543655483507 0.864 2.13655234167e-38
0.0143908804458 -0.0543655483507 0.864 2.08101986444e-38
0.0159528535806 -0.0542397021739 0.862 2.09034676689e-38
0.0175481389386 -0.0542397021739 0.862 2.04428454494e-38
0.019099007999 -0.0541138559972 0.86 2.04435615129e-38
0.0206905919989 -0.0541138559972 0.86 1.99825833636e-38
0.0222303569849 -0.0539880098204 0.858 1.93372167572e-38
0.0237627192546 -0.0538621636437 0.856 2.09988862852e-38
0.025287678808 -0.053736317467 0.854 2.09052655348e-38
0.0267108510126 -0.0534217020251 0.849 2.22856958624e-38
0.0282154530962 -0.0532958558484 0.847 2.23775201482e-38
0.0297829782682 -0.0532958558484 0.847 2.28374263042e-38
0.0313505034402 -0.0532958558484 0.847 2.33923979493e-38
0.0329180286122 -0.0532958558484 0.847 2.34849467064e-38
0.0344855537843 -0.0532958558484 0.847 2.34820768471e-38
0.0360530789563 -0.0532958558484 0.847 2.34860411205e-38
0.0376206041283 -0.0532958558484 0.847 2.34863900438e-38
0.0392806632538 -0.0534217020251 0.849 2.34849565155e-38
0.0409481250955 -0.0535475482019 0.851 2.34888857564e-38
0.0426729579885 -0.053736317467 0.854 2.34979157237e-38
0.0444607139698 -0.0539880098204 0.858 2.35062394365e-38
0.0460485966116 -0.0539880098204 0.858 2.35098295632e-38
0.0477475199975 -0.0541138559972 0.86 2.3509809945e-38
0.0494538460997 -0.0542397021739 0.862 2.35098253593e-38
0.0510491314578 -0.0542397021739 0.862 2.35098435762e-38
0.0527665616345 -0.0543655483507 0.864 2.35098561879e-38
0.0545543176158 -0.0545543176158 0.867 2.35098730035e-38
0.0561588563692 -0.0545543176158 0.867 2.35098547866e-38
0.0577633951226 -0.0545543176158 0.867 2.35098323658e-38
0.0595048841271 -0.0546801637925 0.869 2.35098169515e-38
0.0611131242387 -0.0546801637925 0.869 2.35098253593e-38
0.0627213643502 -0.0546801637925 0.869 2.35098015372e-38
0.0644776587873 -0.0548060099692 0.871 2.35044121433e-38
0.066089600257 -0.0548060099692 0.871 2.34997177935e-38
0.0677015417267 -0.0548060099692 0.871 2.35065715443e-38
-0.00161934418596 -0.0534383581368 0.875 2.35097987346e-38
0.0 -0.0533162133182 0.873 1.42722150501e-38
0.00161564282782 -0.0533162133182 0.873 1.91470241218e-38
0.00322388293937 -0.0531940684996 0.871 1.87840625962e-38
0.00483582440905 -0.0531940684996 0.871 2.18261456362e-38
0.00644776587873 -0.0531940684996 0.871 2.08123790648e-38
0.00805970734842 -0.0531940684996 0.871 2.13651688882e-38
0.00964944066926 -0.053071923681 0.869 2.24715122427e-38
0.0112576807808 -0.053071923681 0.869 2.13669625503e-38
0.0128363100272 -0.0529497788624 0.867 2.12726187299e-38
0.0143908804458 -0.0527665616345 0.864 2.25622659364e-38
0.0159528535806 -0.0526444168159 0.862 2.19193950426e-38
0.0175481389386 -0.0526444168159 0.862 2.07208714725e-38
0.019099007999 -0.0525222719973 0.86 2.09953255858e-38
0.0206905919989 -0.0525222719973 0.86 2.07208714725e-38
0.0222821759988 -0.0525222719973 0.86 2.09066752411e-38
0.0238182396267 -0.0524001271787 0.858 2.07219406632e-38
0.0254061222684 -0.0524001271787 0.858 2.13644416143e-38
0.0268681587335 -0.0521558375415 0.854 2.14555680535e-38
0.0283487019892 -0.0519726203136 0.851 2.2193135895e-38
0.0299236298775 -0.0519726203136 0.851 2.29321372648e-38
0.031424530603 -0.051850475495 0.849 2.21931330924e-38
0.0329957571332 -0.051850475495 0.849 2.34853236557e-38
0.0345669836633 -0.051850475495 0.849 2.32997861338e-38
0.0362233414307 -0.0519726203136 0.851 2.33913385677e-38
0.037798269319 -0.0519726203136 0.851 2.34881710941e-38
0.0395119981375 -0.0521558375415 0.854 2.34946829281e-38
0.041092478063 -0.0521558375415 0.854 2.34996799584e-38
0.042872831328 -0.0524001271787 0.858 2.35011148881e-38
0.0445643519977 -0.0525222719973 0.86 2.35098071424e-38
0.0461559359976 -0.0525222719973 0.86 2.35098197541e-38
0.0478585607417 -0.0526444168159 0.862 2.35098281619e-38
0.0494538460997 -0.0526444168159 0.862 2.35098267606e-38
0.0510491314578 -0.0526444168159 0.862 2.3509837971e-38
0.0526444168159 -0.0526444168159 0.862 2.35098463788e-38
0.0543655483507 -0.0527665616345 0.864 2.35098491814e-38
0.0559645350669 -0.0527665616345 0.864 2.35098407736e-38
0.057563521783 -0.0527665616345 0.864 2.35098225567e-38
0.059367933876 -0.0529497788624 0.867 2.3509823958e-38
0.0611131242387 -0.053071923681 0.869 2.35098197541e-38
0.0627213643502 -0.053071923681 0.869 2.35097805178e-38
0.0643296044618 -0.053071923681 0.869 2.35062030028e-38
0.0659378445733 -0.053071923681 0.869 2.34965116226e-38
0.0675460846849 -0.053071923681 0.869 2.35065869586e-38
-0.00161934418596 -0.0518190139508 0.875 2.35097931294e-38
0.0 -0.0517005704903 0.873 1.70424069517e-38
0.00161564282782 -0.0517005704903 0.873 1.79499186658e-38
0.00322388293937 -0.0515821270299 0.871 1.91542842491e-38
0.00483582440905 -0.0515821270299 0.871 1.98911094024e-38
0.00644776587873 -0.0515821270299 0.871 2.09967352921e-38
0.00805970734842 -0.0515821270299 0.871 2.09038193948e-38
0.00964944066926 -0.0514636835694 0.869 2.15474105561e-38
0.0112576807808 -0.0514636835694 0.869 2.11807734246e-38
0.0128363100272 -0.051345240109 0.867 2.17335814649e-38
0.0143908804458 -0.0511675749183 0.864 2.17339345921e-38
0.0159528535806 -0.0510491314578 0.862 2.14591553775e-38
0.0175481389386 -0.0510491314578 0.862 2.09052627322e-38
0.0191434242967 -0.0510491314578 0.862 2.09034676689e-38
0.0206905919989 -0.0509306879973 0.86 2.09978114893e-38
0.0222821759988 -0.0509306879973 0.86 2.13672974606e-38
0.0238737599988 -0.0509306879973 0.86 2.06283227154e-38
0.0254653439987 -0.0509306879973 0.86 2.22864021169e-38
0.0270569279986 -0.0509306879973 0.86 2.25611645158e-38
0.0286485119985 -0.0509306879973 0.86 2.28406478894e-38
0.0301697701938 -0.0508122445369 0.858 2.24725716243e-38
0.0317576528356 -0.0508122445369 0.858 2.34899815718e-38
0.0333455354773 -0.0508122445369 0.858 2.237966974e-38
0.03485198824 -0.0506938010764 0.856 2.34871355346e-38
0.0364361695237 -0.0506938010764 0.856 2.34932353868e-38
0.0380203508073 -0.0506938010764 0.856 2.34939416412e-38
0.039604532091 -0.0506938010764 0.856 2.34964653798e-38
0.0412849486862 -0.0508122445369 0.858 2.3504400933e-38
0.0429727679978 -0.0509306879973 0.86 2.35098225567e-38
0.0445643519977 -0.0509306879973 0.86 2.35097917282e-38
0.0461559359976 -0.0509306879973 0.86 2.35098015372e-38
0.0478585607417 -0.0510491314578 0.862 2.35098421749e-38
0.0494538460997 -0.0510491314578 0.862 2.35098617931e-38
0.0510491314578 -0.0510491314578 0.862 2.35098561879e-38
0.0526444168159 -0.0510491314578 0.862 2.35098702009e-38
0.0543655483507 -0.0511675749183 0.864 2.35098575892e-38
0.0559645350669 -0.0511675749183 0.864 2.3509837971e-38
0.057563521783 -0.0511675749183 0.864 2.35098211554e-38
0.059367933876 -0.051345240109 0.867 2.35098029385e-38
0.0611131242387 -0.0514636835694 0.869 2.35098141489e-38
0.0627213643502 -0.0514636835694 0.869 2.35058372639e-38
0.0643296044618 -0.0514636835694 0.869 2.35029603981e-38
0.0659378445733 -0.0514636835694 0.869 2.3497875086e-38
0.0675460846849 -0.0514636835694 0.869 2.3509823958e-38
-0.00161934418596 -0.0501996697648 0.875 2.35098141489e-38
0.0 -0.0500849276625 0.873 1.87955686578e-38
0.00161564282782 -0.0500849276625 0.873 1.84094562803e-38
0.00322388293937 -0.0499701855602 0.871 1.83259683191e-38
0.00483582440905 -0.0499701855602 0.871 1.97978543909e-38
0.00644776587873 -0.0499701855602 0.871 2.06290093517e-38
0.00805970734842 -0.0499701855602 0.871 2.11818482205e-38
0.00964944066926 -0.0498554434579 0.869 2.09978142919e-38
0.0112576807808 -0.0498554434579 0.869 2.17350065854e-38
0.0127918937296 -0.0495685882021 0.864 2.13669275178e-38
0.0143908804458 -0.0495685882021 0.864 2.28413709594e-38
0.0159528535806 -0.0494538460997 0.862 2.13659059712e-38
0.0175481389386 -0.0494538460997 0.862 2.15484447144e-38
0.0191434242967 -0.0494538460997 0.862 2.21938561624e-38
0.0206905919989 -0.0493391039974 0.86 2.17335842675e-38
0.0222821759988 -0.0493391039974 0.86 2.12729746597e-38
0.0238737599988 -0.0493391039974 0.86 2.1272624335e-38
0.0254653439987 -0.0493391039974 0.86 2.25637134778e-38
0.0270569279986 -0.0493391039974 0.86 2.17328906247e-38
0.0286485119985 -0.0493391039974 0.86 2.34846047896e-38
0.0302400959984 -0.0493391039974 0.86 2.2470067504e-38
0.0317576528356 -0.0492243618951 0.858 2.34892753173e-38
0.0333455354773 -0.0492243618951 0.858 2.34895906095e-38
0.0349334181191 -0.0492243618951 0.858 2.3493588514e-38
0.0364361695237 -0.0491096197928 0.856 2.34928542336e-38
0.0380203508073 -0.0491096197928 0.856 2.34950178384e-38
0.0396970660444 -0.0492243618951 0.858 2.350294078e-38
0.0412849486862 -0.0492243618951 0.858 2.35040057668e-38
0.0429727679978 -0.0493391039974 0.86 2.3508391831e-38
0.0445643519977 -0.0493391039974 0.86 2.35098365697e-38
0.0461559359976 -0.0493391039974 0.86 2.3509795932e-38
0.0478585607417 -0.0494538460997 0.862 2.35098295632e-38
0.0494538460997 -0.0494538460997 0.862 2.3509837971e-38
0.0510491314578 -0.0494538460997 0.862 2.35098071424e-38
0.0526444168159 -0.0494538460997 0.862 2.35098141489e-38
0.0543655483507 -0.0495685882021 0.864 2.35098323658e-38
0.0559645350669 -0.0495685882021 0.864 2.35098253593e-38
0.0577633951226 -0.0497407013555 0.867 2.35091050919e-38
0.059367933876 -0.0497407013555 0.867 2.35098127476e-38
0.0611131242387 -0.0498554434579 0.869 2.35090784672e-38
0.0627213643502 -0.0498554434579 0.869 2.35094315944e-38
0.0643296044618 -0.0498554434579 0.869 2.35022289203e-38
0.0659378445733 -0.0498554434579 0.869 2.349683252e-38
0.0675460846849 -0.0498554434579 0.869 2.35098449775e-38
0.0691543247964 -0.0498554434579 0.869 2.35098463788e-38
-0.0032645978789 -0.0489689681835 0.882 2.35079966648e-38
-0.00162489622317 -0.0487468866951 0.878 2.35069442897e-38
0.0 -0.0485803255789 0.875 2.03625314292e-38
0.00161564282782 -0.0484692848347 0.873 1.83151138612e-38
0.00322388293937 -0.0483582440905 0.871 1.84192415475e-38
0.00483582440905 -0.0483582440905 0.871 1.96148952582e-38
0.00644776587873 -0.0483582440905 0.871 2.03513658831e-38
0.00805970734842 -0.0483582440905 0.871 2.08145174463e-38
0.00964944066926 -0.0482472033463 0.869 2.14602371799e-38
0.0112576807808 -0.0482472033463 0.869 2.20130326085e-38
0.0127918937296 -0.0479696014859 0.864 2.19183160427e-38
0.0143908804458 -0.0479696014859 0.864 2.21020066532e-38
0.0159528535806 -0.0478585607417 0.862 2.24718681725e-38
0.0175481389386 -0.0478585607417 0.862 2.1640329256e-38
0.0191434242967 -0.0478585607417 0.862 2.22860644039e-38
0.0207387096547 -0.0478585607417 0.862 2.26548273052e-38
0.0223339950128 -0.0478585607417 0.862 2.24700703066e-38
0.0239292803708 -0.0478585607417 0.862 2.32086919245e-38
0.0255245657289 -0.0478585607417 0.862 2.27477137752e-38
0.0270569279986 -0.0477475199975 0.86 2.24718527582e-38
0.0286485119985 -0.0477475199975 0.86 2.34867515788e-38
0.0302400959984 -0.0477475199975 0.86 2.34874480241e-38
0.0318316799983 -0.0477475199975 0.86 2.34870976995e-38
0.0334232639983 -0.0477475199975 0.86 2.34907228586e-38
0.0349334181191 -0.0476364792533 0.858 2.34925165207e-38
0.0365213007609 -0.0476364792533 0.858 2.34950136345e-38
0.0381091834027 -0.0476364792533 0.858 2.34986247807e-38
0.0397895999979 -0.0477475199975 0.86 2.3505791021e-38
0.0413811839978 -0.0477475199975 0.86 2.35054533081e-38
0.0429727679978 -0.0477475199975 0.86 2.35083161609e-38
0.0445643519977 -0.0477475199975 0.86 2.35094371996e-38
0.0462632753836 -0.0478585607417 0.862 2.35098057411e-38
0.0478585607417 -0.0478585607417 0.862 2.35098029385e-38
0.0494538460997 -0.0478585607417 0.862 2.35098043398e-38
0.0510491314578 -0.0478585607417 0.862 2.3509795932e-38
0.0526444168159 -0.0478585607417 0.862 2.3509795932e-38
0.0543655483507 -0.0479696014859 0.864 2.35097987346e-38
0.0559645350669 -0.0479696014859 0.864 2.35098183528e-38
0.0577633951226 -0.0481361626021 0.867 2.35094456074e-38
0.059367933876 -0.0481361626021 0.867 2.35069204676e-38
0.0611131242387 -0.0482472033463 0.869 2.35079896583e-38
0.0627213643502 -0.0482472033463 0.869 2.3504748455e-38
0.0643296044618 -0.0482472033463 0.869 2.34975668003e-38
0.0659378445733 -0.0482472033463 0.869 2.34982702522e-38
0.0675460846849 -0.0482472033463 0.869 2.35098533853e-38
-0.0032645978789 -0.047336669244 0.882 2.35032925059e-38
-0.00162859758131 -0.047229329858 0.88 2.35037030863e-38
0.0 -0.0469609813929 0.875 2.30383598923e-38
0.00161564282782 -0.0468536420069 0.873 1.82254713971e-38
0.00323128565565 -0.0468536420069 0.873 1.82315530324e-38
0.00483582440905 -0.0467463026208 0.871 1.92468386114e-38
0.00644776587873 -0.0467463026208 0.871 2.05375774295e-38
0.00804120055772 -0.0466389632348 0.869 2.08155740253e-38
0.00964944066926 -0.0466389632348 0.869 2.09059689867e-38
0.0112576807808 -0.0466389632348 0.869 2.24711465038e-38
0.0127918937296 -0.0463706147697 0.864 2.2101653526e-38
0.0143908804458 -0.0463706147697 0.864 2.2101653526e-38
0.0159528535806 -0.0462632753836 0.862 2.28385025014e-38
0.0175481389386 -0.0462632753836 0.862 2.31157872376e-38
0.0191434242967 -0.0462632753836 0.862 2.28399248194e-38
0.0207387096547 -0.0462632753836 0.862 2.29321246531e-38
0.0222821759988 -0.0461559359976 0.86 2.25615624846e-38
0.0238737599988 -0.0461559359976 0.86 2.34838733118e-38
0.0254653439987 -0.0461559359976 0.86 2.34860243049e-38
0.0270569279986 -0.0461559359976 0.86 2.34863774321e-38
0.0286485119985 -0.0461559359976 0.86 2.34885116097e-38
0.0302400959984 -0.0461559359976 0.86 2.34896186355e-38
0.0318316799983 -0.0461559359976 0.86 2.34953737683e-38
0.0334232639983 -0.0461559359976 0.86 2.34946577047e-38
0.0350148479982 -0.0461559359976 0.86 2.34982520353e-38
0.0366064319981 -0.0461559359976 0.86 2.35000569077e-38
0.038198015998 -0.0461559359976 0.86 2.35004072323e-38
0.0397895999979 -0.0461559359976 0.86 2.35050889705e-38
0.0413811839978 -0.0461559359976 0.86 2.35047400472e-38
0.0429727679978 -0.0461559359976 0.86 2.35087211361e-38
0.0445643519977 -0.0461559359976 0.86 2.35098015372e-38
0.0462632753836 -0.0462632753836 0.862 2.35098015372e-38
0.0478585607417 -0.0462632753836 0.862 2.35098085437e-38
0.0494538460997 -0.0462632753836 0.862 2.35094470087e-38
0.0510491314578 -0.0462632753836 0.862 2.35090882763e-38
0.0526444168159 -0.0462632753836 0.862 2.35098127476e-38
0.0543655483507 -0.0463706147697 0.864 2.35098127476e-38
0.0559645350669 -0.0463706147697 0.864 2.35072960156e-38
0.057563521783 -0.0463706147697 0.864 2.35097945307e-38
0.059367933876 -0.0465316238487 0.867 2.35072595818e-38
0.061253775848 -0.0467463026208 0.871 2.35015170607e-38
0.0628657173177 -0.0467463026208 0.871 2.35011583283e-38
0.0644776587873 -0.0467463026208 0.871 2.34950262462e-38
0.066089600257 -0.0467463026208 0.871 2.349900173e-38
0.0677015417267 -0.0467463026208 0.871 2.3509823958e-38
-0.0032645978789 -0.0457043703046 0.882 2.35062170158e-38
-0.00162859758131 -0.0456007322767 0.88 2.35098155502e-38
0.0 -0.0454970942488 0.878 2.22085950196e-38
0.00161564282782 -0.045237999179 0.873 1.89648385058e-38
0.00323128565565 -0.045237999179 0.873 1.89680811105e-38
0.00483582440905 -0.0451343611511 0.871 1.89713223138e-38
0.00644776587873 -0.0451343611511 0.871 1.93397503048e-38
0.00804120055772 -0.0450307231232 0.869 2.07215931412e-38
0.00964944066926 -0.0450307231232 0.869 2.02606121893e-38
0.0111929070134 -0.0447716280535 0.864 2.16413830324e-38
0.0127918937296 -0.0447716280535 0.864 2.14541233147e-38
0.0143575682225 -0.0446679900256 0.862 2.34835103755e-38
0.0159528535806 -0.0446679900256 0.862 2.34827690886e-38
0.0175481389386 -0.0446679900256 0.862 2.25618945923e-38
0.0191434242967 -0.0446679900256 0.862 2.3485644553e-38
0.0207387096547 -0.0446679900256 0.862 2.34881430682e-38
0.0222821759988 -0.0445643519977 0.86 2.34856515595e-38
0.0238737599988 -0.0445643519977 0.86 2.34845823688e-38
0.0254653439987 -0.0445643519977 0.86 2.34892571005e-38
0.0270569279986 -0.0445643519977 0.86 2.3490696234e-38
0.0286485119985 -0.0445643519977 0.86 2.34928528323e-38
0.0302400959984 -0.0445643519977 0.86 2.34932017556e-38
0.0318316799983 -0.0445643519977 0.86 2.34935632906e-38
0.0334232639983 -0.0445643519977 0.86 2.34935674945e-38
0.0350148479982 -0.0445643519977 0.86 2.34935899153e-38
0.0366064319981 -0.0445643519977 0.86 2.35029477865e-38
0.038198015998 -0.0445643519977 0.86 2.35025708372e-38
0.0397895999979 -0.0445643519977 0.86 2.35036708565e-38
0.0413811839978 -0.0445643519977 0.86 2.3508673492e-38
0.0429727679978 -0.0445643519977 0.86 2.3508349792e-38
0.0445643519977 -0.0445643519977 0.86 2.35098001359e-38
0.0462632753836 -0.0446679900256 0.862 2.35098029385e-38
0.0478585607417 -0.0446679900256 0.862 2.35091177036e-38
0.0494538460997 -0.0446679900256 0.862 2.35098085437e-38
0.0510491314578 -0.0446679900256 0.862 2.3509795932e-38
0.0526444168159 -0.0446679900256 0.862 2.35094386009e-38
0.0543655483507 -0.0447716280535 0.864 2.35097875243e-38
0.0559645350669 -0.0447716280535 0.864 2.35098057411e-38
0.057563521783 -0.0447716280535 0.864 2.35054841367e-38
0.059367933876 -0.0449270850953 0.867 2.35036806655e-38
0.061253775848 -0.0451343611511 0.871 2.35018547736e-38
0.0628657173177 -0.0451343611511 0.871 2.34982702522e-38
0.0644776587873 -0.0451343611511 0.871 2.34932283803e-38
0.066089600257 -0.0451343611511 0.871 2.34972150744e-38
0.0677015417267 -0.0451343611511 0.871 2.35098575892e-38
-0.0032645978789 -0.0440720713651 0.882 2.35087407543e-38
-0.00162859758131 -0.0439721346954 0.88 2.35098015372e-38
0.0 -0.0438721980256 0.878 1.85200579655e-38
0.00161564282782 -0.0436223563512 0.873 2.08119586753e-38
0.00323128565565 -0.0436223563512 0.873 1.90609801922e-38
0.00483582440905 -0.0435224196815 0.871 1.8600720909e-38
0.00644776587873 -0.0435224196815 0.871 1.97996536582e-38
0.00804120055772 -0.0434224830117 0.869 2.09056312737e-38
0.00964944066926 -0.0434224830117 0.869 2.09066850502e-38
0.0111929070134 -0.0431726413373 0.864 2.19179629155e-38
0.0127918937296 -0.0431726413373 0.864 2.21009094365e-38
0.0143575682225 -0.0430727046675 0.862 2.32065605496e-38
0.0159528535806 -0.0430727046675 0.862 2.32973100394e-38
0.0175481389386 -0.0430727046675 0.862 2.34838803182e-38
0.0191434242967 -0.0430727046675 0.862 2.34871005021e-38
0.0207387096547 -0.0430727046675 0.862 2.34863606165e-38
0.0222821759988 -0.0429727679978 0.86 2.34881795019e-38
0.0238737599988 -0.0429727679978 0.86 2.34885326291e-38
0.0255245657289 -0.0430727046675 0.862 2.34863886425e-38
0.0270569279986 -0.0429727679978 0.86 2.34942989723e-38
0.0286485119985 -0.0429727679978 0.86 2.34939136153e-38
0.0302400959984 -0.0429727679978 0.86 2.34942877619e-38
0.0318316799983 -0.0429727679978 0.86 2.34953709657e-38
0.0334232639983 -0.0429727679978 0.86 2.34978834938e-38
0.0350148479982 -0.0429727679978 0.86 2.34982408249e-38
0.0366064319981 -0.0429727679978 0.86 2.34993282325e-38
0.038198015998 -0.0429727679978 0.86 2.3504734442e-38
0.0397895999979 -0.0429727679978 0.86 2.35022191112e-38
0.0413811839978 -0.0429727679978 0.86 2.3504358894e-38
0.0429727679978 -0.0429727679978 0.86 2.35072904104e-38
0.0445643519977 -0.0429727679978 0.86 2.35076295246e-38
0.0462632753836 -0.0430727046675 0.862 2.35061861872e-38
0.0478585607417 -0.0430727046675 0.862 2.35076281233e-38
0.0494538460997 -0.0430727046675 0.862 2.35044093407e-38
0.0510491314578 -0.0430727046675 0.862 2.35072637857e-38
0.0526444168159 -0.0430727046675 0.862 2.35097889256e-38
0.0543655483507 -0.0431726413373 0.864 2.35072834039e-38
0.0559645350669 -0.0431726413373 0.864 2.35044345641e-38
0.0577633951226 -0.0433225463419 0.867 2.35047414485e-38
0.059367933876 -0.0433225463419 0.867 2.35007883855e-38
0.061253775848 -0.0435224196815 0.871 2.34993548572e-38
0.0628657173177 -0.0435224196815 0.871 2.34943241957e-38
0.0646257131129 -0.0436223563512 0.873 2.34964849979e-38
0.0662413559407 -0.0436223563512 0.873 2.34964555707e-38
-0.0032831046696 -0.0426803607048 0.887 2.35015226659e-38
-0.00163229893945 -0.0424397724257 0.882 2.35076533467e-38
0.0 -0.0423435371141 0.88 1.99930384514e-38
0.00162489622317 -0.0422473018025 0.878 2.09005389551e-38
0.00323128565565 -0.0420067135234 0.873 2.02591702532e-38
0.00484692848347 -0.0420067135234 0.873 1.98903905363e-38
0.00644776587873 -0.0419104782118 0.871 1.94297795272e-38
0.00805970734842 -0.0419104782118 0.871 2.02581108715e-38
0.00964944066926 -0.0418142429001 0.869 2.17357520762e-38
0.0112576807808 -0.0418142429001 0.869 2.12718900547e-38
0.0127918937296 -0.0415736546211 0.864 2.14559211807e-38
0.0143908804458 -0.0415736546211 0.864 2.31161403649e-38
0.0159528535806 -0.0414774193095 0.862 2.27459313236e-38
0.0175481389386 -0.0414774193095 0.862 2.34845725597e-38
0.0191434242967 -0.0414774193095 0.862 2.34874578332e-38
0.0207387096547 -0.0414774193095 0.862 2.34870794826e-38
0.0222821759988 -0.0413811839978 0.86 2.34913940806e-38
0.0238737599988 -0.0413811839978 0.86 2.34885144123e-38
0.0254653439987 -0.0413811839978 0.86 2.34910787885e-38
0.0270569279986 -0.0413811839978 0.86 2.34910185326e-38
0.0286485119985 -0.0413811839978 0.86 2.34932003543e-38
0.0302400959984 -0.0413811839978 0.86 2.34946843294e-38
0.0318316799983 -0.0413811839978 0.86 2.34960982396e-38
0.0334232639983 -0.0413811839978 0.86 2.34971632264e-38
0.0350148479982 -0.0413811839978 0.86 2.34978947042e-38
0.0366064319981 -0.0413811839978 0.86 2.35004114362e-38
0.038198015998 -0.0413811839978 0.86 2.35011345062e-38
0.0397895999979 -0.0413811839978 0.86 2.35011401114e-38
0.0413811839978 -0.0413811839978 0.86 2.35018785957e-38
0.0429727679978 -0.0413811839978 0.86 2.35072876078e-38
0.0445643519977 -0.0413811839978 0.86 2.35083371803e-38
0.0462632753836 -0.0414774193095 0.862 2.3503687672e-38
0.0478585607417 -0.0414774193095 0.862 2.35072848052e-38
0.0494538460997 -0.0414774193095 0.862 2.35051212004e-38
0.0510491314578 -0.0414774193095 0.862 2.35047526589e-38
0.0526444168159 -0.0414774193095 0.862 2.35051155952e-38
0.0543655483507 -0.0415736546211 0.864 2.35018561749e-38
0.0559645350669 -0.0415736546211 0.864 2.3501504449e-38
0.0577633951226 -0.0417180075885 0.867 2.34975962276e-38
0.059367933876 -0.0417180075885 0.867 2.34964765901e-38
0.061253775848 -0.0419104782118 0.871 2.34985925508e-38
0.0628657173177 -0.0419104782118 0.871 2.34968493355e-38
0.0646257131129 -0.0420067135234 0.873 2.34990297559e-38
0.0662413559407 -0.0420067135234 0.873 2.31204591667e-38
-0.0032831046696 -0.04103880837 0.887 2.35036680539e-38
-0.00163229893945 -0.0408074734862 0.882 2.35062030028e-38
0.0 -0.0407149395328 0.88 2.35015114555e-38
0.00162489622317 -0.0406224055793 0.878 2.024946486e-38
0.00323868837192 -0.0404836046491 0.875 2.09052781465e-38
0.00484692848347 -0.0403910706956 0.873 1.97985606454e-38
0.00644776587873 -0.0402985367421 0.871 1.91524849819e-38
0.00805970734842 -0.0402985367421 0.871 2.00747831974e-38
0.00964944066926 -0.0402060027886 0.869 2.1275492793e-38
0.0112576807808 -0.0402060027886 0.869 2.04421363924e-38
0.0127918937296 -0.0399746679049 0.864 2.23778676702e-38
0.0143908804458 -0.0399746679049 0.864 2.18271966101e-38
0.0159528535806 -0.0398821339514 0.862 2.34870920943e-38
0.0175481389386 -0.0398821339514 0.862 2.26555181453e-38
0.0191434242967 -0.0398821339514 0.862 2.34860327127e-38
0.0207387096547 -0.0398821339514 0.862 2.34867375658e-38
0.0222821759988 -0.0397895999979 0.86 2.34870948969e-38
0.0238737599988 -0.0397895999979 0.86 2.34881668902e-38
0.0254653439987 -0.0397895999979 0.86 2.3492156387e-38
0.0270569279986 -0.0397895999979 0.86 2.34921255584e-38
0.0286485119985 -0.0397895999979 0.86 2.34903361003e-38
0.0302400959984 -0.0397895999979 0.86 2.34914249092e-38
0.0318316799983 -0.0397895999979 0.86 2.34939486477e-38
0.0334232639983 -0.0397895999979 0.86 2.34975205575e-38
0.0350148479982 -0.0397895999979 0.86 2.34996939714e-38
0.0366064319981 -0.0397895999979 0.86 2.34986051625e-38
0.038198015998 -0.0397895999979 0.86 2.35004072323e-38
0.0397895999979 -0.0397895999979 0.86 2.35018575762e-38
0.0413811839978 -0.0397895999979 0.86 2.3504011372e-38
0.0429727679978 -0.0397895999979 0.86 2.35065309066e-38
0.0445643519977 -0.0397895999979 0.86 2.35033093215e-38
0.0462632753836 -0.0398821339514 0.862 2.35040450031e-38
0.0478585607417 -0.0398821339514 0.862 2.35079896583e-38
0.0494538460997 -0.0398821339514 0.862 2.35072455688e-38
0.0510491314578 -0.0398821339514 0.862 2.34993604624e-38
0.0526444168159 -0.0398821339514 0.862 2.3500795392e-38
0.0543655483507 -0.0399746679049 0.864 2.350366385e-38
0.0559645350669 -0.0399746679049 0.864 2.34968409277e-38
0.0577633951226 -0.0401134688351 0.867 2.3498612169e-38
0.0595048841271 -0.0402060027886 0.869 2.34950290488e-38
0.061253775848 -0.0402985367421 0.871 2.34946815268e-38
0.0630100702851 -0.0403910706956 0.873 2.34954031955e-38
0.0646257131129 -0.0403910706956 0.873 2.34989989274e-38
0.0662413559407 -0.0403910706956 0.873 2.03560322069e-38
-0.00163229893945 -0.0391751745468 0.882 2.35022639528e-38
0.0 -0.0390863419515 0.88 2.35098197541e-38
0.00162489622317 -0.0389975093561 0.878 1.49078930789e-38
0.00323868837192 -0.0388642604631 0.875 2.05382962956e-38
0.00484692848347 -0.0387754278677 0.873 2.02595429986e-38
0.00646257131129 -0.0387754278677 0.873 2.02606177945e-38
0.00805970734842 -0.0386865952724 0.871 1.99826057844e-38
0.0096716488181 -0.0386865952724 0.871 2.03502910871e-38
0.0112576807808 -0.0385977626771 0.869 2.12729718571e-38
0.0128363100272 -0.0385089300817 0.867 2.13658737414e-38
0.0143908804458 -0.0383756811887 0.864 2.17353961464e-38
0.015989867162 -0.0383756811887 0.864 2.26559133115e-38
0.0175481389386 -0.0382868485934 0.862 2.30232398819e-38
0.0191434242967 -0.0382868485934 0.862 2.33902469562e-38
0.0207387096547 -0.0382868485934 0.862 2.34896242407e-38
0.0223339950128 -0.0382868485934 0.862 2.34878193682e-38
0.0238737599988 -0.038198015998 0.86 2.34903262912e-38
0.0254653439987 -0.038198015998 0.86 2.34903403042e-38
0.0270569279986 -0.038198015998 0.86 2.34910465586e-38
0.0286485119985 -0.038198015998 0.86 2.34950164371e-38
0.0302400959984 -0.038198015998 0.86 2.34935660932e-38
0.0318316799983 -0.038198015998 0.86 2.3495020641e-38
0.0334232639983 -0.038198015998 0.86 2.34968157044e-38
0.0350148479982 -0.038198015998 0.86 2.34982576405e-38
0.0366064319981 -0.038198015998 0.86 2.34982688509e-38
0.038198015998 -0.038198015998 0.86 2.34982716535e-38
0.0397895999979 -0.038198015998 0.86 2.35000667168e-38
0.0413811839978 -0.038198015998 0.86 2.35025736398e-38
0.0429727679978 -0.038198015998 0.86 2.35000681181e-38
0.0445643519977 -0.038198015998 0.86 2.35008066024e-38
0.0462632753836 -0.0382868485934 0.862 2.35054981497e-38
0.0478585607417 -0.0382868485934 0.862 2.35018533723e-38
0.0494538460997 -0.0382868485934 0.862 2.35004464687e-38
0.0510491314578 -0.0382868485934 0.862 2.35032939072e-38
0.0526444168159 -0.0382868485934 0.862 2.34986135703e-38
0.0543655483507 -0.0383756811887 0.864 2.34954045968e-38
0.0561588563692 -0.0385089300817 0.867 2.34953849786e-38
0.0578966440156 -0.0385977626771 0.869 2.34968072966e-38
0.0595048841271 -0.0385977626771 0.869 2.34961066473e-38
0.0613944274573 -0.0387754278677 0.873 2.34972136731e-38
0.0630100702851 -0.0387754278677 0.873 2.34989975261e-38
0.0647737674385 -0.0388642604631 0.875 2.35015114555e-38
0.0663931116244 -0.0388642604631 0.875 1.42769037947e-38
0.0 -0.0374577443701 0.88 2.35098309645e-38
0.00162489622317 -0.0373726131329 0.878 3.39791335785e-39
0.00323868837192 -0.0372449162771 0.875 1.99015588851e-38
0.00485803255789 -0.0372449162771 0.875 2.13658877543e-38
0.00646257131129 -0.0371597850399 0.873 2.0721240014e-38
0.00805970734842 -0.0370746538027 0.871 1.92446708027e-38
0.0096716488181 -0.0370746538027 0.871 2.09928102551e-38
0.0112576807808 -0.0369895225655 0.869 2.09963793623e-38
0.0128659208924 -0.0369895225655 0.869 2.16431808984e-38
0.0144408487806 -0.0369043913283 0.867 2.19183412661e-38
0.015989867162 -0.0367766944725 0.864 2.18261456362e-38
0.0175888538782 -0.0367766944725 0.864 2.26541084391e-38
0.0191434242967 -0.0366915632353 0.862 2.32065605496e-38
0.0207387096547 -0.0366915632353 0.862 2.34849411012e-38
0.0223339950128 -0.0366915632353 0.862 2.3485297031e-38
0.0239292803708 -0.0366915632353 0.862 2.34882019227e-38
0.0255245657289 -0.0366915632353 0.862 2.34878235721e-38
0.0270569279986 -0.0366064319981 0.86 2.34928500297e-38
0.0286485119985 -0.0366064319981 0.86 2.34907200561e-38
0.0302400959984 -0.0366064319981 0.86 2.34910563677e-38
0.0318316799983 -0.0366064319981 0.86 2.34924926986e-38
0.0334232639983 -0.0366064319981 0.86 2.34953695644e-38
0.0350148479982 -0.0366064319981 0.86 2.34939486477e-38
0.0366064319981 -0.0366064319981 0.86 2.34961136538e-38
0.038198015998 -0.0366064319981 0.86 2.34986163729e-38
0.0397895999979 -0.0366064319981 0.86 2.34978933029e-38
0.0413811839978 -0.0366064319981 0.86 2.3497166029e-38
0.0429727679978 -0.0366064319981 0.86 2.35018687866e-38
0.0445643519977 -0.0366064319981 0.86 2.3499696774e-38
0.0462632753836 -0.0366915632353 0.862 2.34975485835e-38
0.0478585607417 -0.0366915632353 0.862 2.34982856665e-38
0.0494538460997 -0.0366915632353 0.862 2.34971590225e-38
0.0510491314578 -0.0366915632353 0.862 2.34978919016e-38
0.0526444168159 -0.0366915632353 0.862 2.34946745203e-38
0.0543655483507 -0.0367766944725 0.864 2.34942989723e-38
0.0561588563692 -0.0369043913283 0.867 2.34964303473e-38
0.0578966440156 -0.0369895225655 0.869 2.3493574501e-38
0.0595048841271 -0.0369895225655 0.869 2.34942849593e-38
0.0613944274573 -0.0371597850399 0.873 2.34961094499e-38
0.0631544232525 -0.0372449162771 0.875 2.35011401114e-38
0.0647737674385 -0.0372449162771 0.875 2.35004380609e-38
0.0663931116244 -0.0372449162771 0.875 1.58455691437e-38
0.0 -0.0358291467888 0.88 2.35098225567e-38
0.00162489622317 -0.0357477169098 0.878 4.2262264853e-39
0.00323868837192 -0.0356255720912 0.875 2.05418457846e-38
0.00485803255789 -0.0356255720912 0.875 2.18276254074e-38
0.00647737674385 -0.0356255720912 0.875 2.07212652374e-38
0.00807821413911 -0.0355441422121 0.873 2.05372060854e-38
0.0096716488181 -0.035462712333 0.871 2.10867799288e-38
0.0112835902878 -0.035462712333 0.871 2.10863553354e-38
0.0128659208924 -0.035381282454 0.869 2.10882148584e-38
0.0144741610039 -0.035381282454 0.869 2.15495559441e-38
0.016045387534 -0.0352998525749 0.867 2.20105439025e-38
0.0176499262875 -0.0352998525749 0.867 2.2101653526e-38
0.0191878405943 -0.0351777077563 0.864 2.34863914451e-38
0.0207868273105 -0.0351777077563 0.864 2.32079884727e-38
0.0223339950128 -0.0350962778772 0.862 2.34874550306e-38
0.0239292803708 -0.0350962778772 0.862 2.34871201203e-38
0.0255245657289 -0.0350962778772 0.862 2.34889039732e-38
0.0270569279986 -0.0350148479982 0.86 2.34907004379e-38
0.0286485119985 -0.0350148479982 0.86 2.34921297623e-38
0.0302400959984 -0.0350148479982 0.86 2.34921311636e-38
0.0318316799983 -0.0350148479982 0.86 2.34924955012e-38
0.0334232639983 -0.0350148479982 0.86 2.34910689794e-38
0.0350148479982 -0.0350148479982 0.86 2.34953863799e-38
0.0366064319981 -0.0350148479982 0.86 2.34935674945e-38
0.038198015998 -0.0350148479982 0.86 2.34986093664e-38
0.0397895999979 -0.0350148479982 0.86 2.34943045775e-38
0.0413811839978 -0.0350148479982 0.86 2.34939472464e-38
0.0429727679978 -0.0350148479982 0.86 2.34939486477e-38
0.0446679900256 -0.0350962778772 0.862 2.3497194055e-38
0.0462632753836 -0.0350962778772 0.862 2.34982394236e-38
0.0478585607417 -0.0350962778772 0.862 2.34946478956e-38
0.0494538460997 -0.0350962778772 0.862 2.34950164371e-38
0.0510491314578 -0.0350962778772 0.862 2.3496095437e-38
0.0527665616345 -0.0351777077563 0.864 2.34953947877e-38
0.0543655483507 -0.0351777077563 0.864 2.3492156387e-38
0.0561588563692 -0.0352998525749 0.867 2.34928710492e-38
0.0578966440156 -0.035381282454 0.869 2.34943087814e-38
0.0596418343783 -0.035462712333 0.871 2.34950290488e-38
0.0615350790666 -0.0356255720912 0.875 2.34982856665e-38
0.0631544232525 -0.0356255720912 0.875 2.35036736591e-38
0.0649958489268 -0.0357477169098 0.878 1.89784731399e-38
0.06662074515 -0.0357477169098 0.878 1.46596138196e-38
0.0 -0.0342005492075 0.88 2.35098141489e-38
0.00162489622317 -0.0341228206866 0.878 5.14745130614e-39
0.00323868837192 -0.0340062279052 0.875 1.30830717719e-38
0.00485803255789 -0.0340062279052 0.875 1.953174501e-38
0.00647737674385 -0.0340062279052 0.875 2.09985527762e-38
0.00807821413911 -0.0339284993843 0.873 2.0721615562e-38
0.0096716488181 -0.0338507708634 0.871 2.27474181012e-38
0.0112835902878 -0.0338507708634 0.871 2.14551925055e-38
0.0128659208924 -0.0337730423424 0.869 2.13647919389e-38
0.0144741610039 -0.0337730423424 0.869 2.12729718571e-38
0.0160824011154 -0.0337730423424 0.869 2.15506377465e-38
0.0176499262875 -0.0336953138215 0.867 2.21016591312e-38
0.0192544650409 -0.0336953138215 0.867 2.21016437169e-38
0.0207868273105 -0.0335787210401 0.864 2.2561559682e-38
0.0223858140267 -0.0335787210401 0.864 2.3486020101e-38
0.0239292803708 -0.0335009925192 0.862 2.34852662024e-38
0.0255245657289 -0.0335009925192 0.862 2.34899395328e-38
0.027119851087 -0.0335009925192 0.862 2.34867165463e-38
0.0286485119985 -0.0334232639983 0.86 2.34892725147e-38
0.0302400959984 -0.0334232639983 0.86 2.34899843744e-38
0.0318316799983 -0.0334232639983 0.86 2.3490320686e-38
0.0334232639983 -0.0334232639983 0.86 2.34938911945e-38
0.0350148479982 -0.0334232639983 0.86 2.34889137823e-38
0.0366064319981 -0.0334232639983 0.86 2.34939542529e-38
0.038198015998 -0.0334232639983 0.86 2.34939402399e-38
0.0397895999979 -0.0334232639983 0.86 2.34932297816e-38
0.0413811839978 -0.0334232639983 0.86 2.34914277118e-38
0.0430727046675 -0.0335009925192 0.862 2.34971688316e-38
0.0446679900256 -0.0335009925192 0.862 2.34939332334e-38
0.0462632753836 -0.0335009925192 0.862 2.34957254942e-38
0.0478585607417 -0.0335009925192 0.862 2.34943045775e-38
0.0495685882021 -0.0335787210401 0.864 2.34921535844e-38
0.0511675749183 -0.0335787210401 0.864 2.34881921136e-38
0.0527665616345 -0.0335787210401 0.864 2.34907060431e-38
0.0545543176158 -0.0336953138215 0.867 2.34939346347e-38
0.056288403904 -0.0337730423424 0.869 2.34932185712e-38
0.0580298929086 -0.0338507708634 0.871 2.34950374566e-38
0.0596418343783 -0.0338507708634 0.871 2.34953891825e-38
0.0615350790666 -0.0340062279052 0.875 2.34968283161e-38
0.0631544232525 -0.0340062279052 0.875 2.3500100348e-38
0.0649958489268 -0.0341228206866 0.878 1.33574011697e-38
0.06662074515 -0.0341228206866 0.878 1.45810892576e-38
0.00161934418596 -0.0323868837192 0.875 1.15120816688e-38
0.00323868837192 -0.0323868837192 0.875 6.54363783366e-39
0.00485803255789 -0.0323868837192 0.875 1.95398655346e-38
0.00647737674385 -0.0323868837192 0.875 2.02649506094e-38
0.00807821413911 -0.0323128565565 0.873 2.11832943605e-38
0.00969385696694 -0.0323128565565 0.873 2.09978142919e-38
0.0112835902878 -0.0322388293937 0.871 2.1643183701e-38
0.0128955317575 -0.0322388293937 0.871 2.0998533158e-38
0.0144741610039 -0.0321648022309 0.869 2.16417543765e-38
0.0160824011154 -0.0321648022309 0.869 2.17335996818e-38
0.017690641227 -0.0321648022309 0.869 2.21945750285e-38
0.0192544650409 -0.0320907750681 0.867 2.23789536765e-38
0.0208590037943 -0.0320907750681 0.867 2.24700899248e-38
0.0223858140267 -0.0319797343239 0.864 2.32994806507e-38
0.0239848007429 -0.0319797343239 0.864 2.34856319413e-38
0.0255245657289 -0.0319057071611 0.862 2.3485283018e-38
0.027119851087 -0.0319057071611 0.862 2.34881738967e-38
0.028715136445 -0.0319057071611 0.862 2.3486381636e-38
0.0302400959984 -0.0318316799983 0.86 2.3487104706e-38
0.0318316799983 -0.0318316799983 0.86 2.34928472271e-38
0.0334232639983 -0.0318316799983 0.86 2.34913674559e-38
0.0350148479982 -0.0318316799983 0.86 2.34917626221e-38
0.0366064319981 -0.0318316799983 0.86 2.34917696286e-38
0.0382868485934 -0.0319057071611 0.862 2.34910591703e-38
0.0398821339514 -0.0319057071611 0.862 2.34935590867e-38
0.0414774193095 -0.0319057071611 0.862 2.34939290295e-38
0.0430727046675 -0.0319057071611 0.862 2.34953751695e-38
0.0446679900256 -0.0319057071611 0.862 2.34928822596e-38
0.0463706147697 -0.0319797343239 0.864 2.34939458451e-38
0.0479696014859 -0.0319797343239 0.864 2.3488912381e-38
0.0495685882021 -0.0319797343239 0.864 2.3492489896e-38
0.0511675749183 -0.0319797343239 0.864 2.34921367688e-38
0.0529497788624 -0.0320907750681 0.867 2.34946563034e-38
0.0546801637925 -0.0321648022309 0.869 2.34946478956e-38
0.0564179514389 -0.0322388293937 0.871 2.3491071782e-38
0.0580298929086 -0.0322388293937 0.871 2.3492865444e-38
0.0599157348806 -0.0323868837192 0.875 2.34961080486e-38
0.0615350790666 -0.0323868837192 0.875 2.35036624487e-38
0.0631544232525 -0.0323868837192 0.875 2.01727227496e-38
0.0649958489268 -0.0324979244634 0.878 1.26316855106e-38
0.06662074515 -0.0324979244634 0.878 1.75266606685e-38
0.00323868837192 -0.0307675395333 0.875 8.38142395404e-39
0.00485803255789 -0.0307675395333 0.875 9.86693485088e-39
0.00647737674385 -0.0307675395333 0.875 2.09139199542e-38
0.00809672092981 -0.0307675395333 0.875 2.03531805646e-38
0.00969385696694 -0.0306972137286 0.873 2.11814950933e-38
0.0113094997948 -0.0306972137286 0.873 2.10882246675e-38
0.0128955317575 -0.030626887924 0.871 2.18272568659e-38
0.0145074732272 -0.030626887924 0.871 2.17335940766e-38
0.0161194146968 -0.030626887924 0.871 2.20083887054e-38
0.017690641227 -0.0305565621193 0.869 2.21013032014e-38
0.0192988813385 -0.0305565621193 0.869 2.23782081857e-38
0.0208590037943 -0.0304862363147 0.867 2.26548301078e-38
0.0224635425477 -0.0304862363147 0.867 2.24689941094e-38
0.0239848007429 -0.0303807476077 0.864 2.32991303261e-38
0.0255837874591 -0.0303807476077 0.864 2.34845907766e-38
0.027119851087 -0.0303104218031 0.862 2.34885326291e-38
0.028715136445 -0.0303104218031 0.862 2.34860144958e-38
0.0303104218031 -0.0303104218031 0.862 2.34889109797e-38
0.0318316799983 -0.0302400959984 0.86 2.3491071782e-38
0.0334232639983 -0.0302400959984 0.86 2.34859906737e-38
0.0350148479982 -0.0302400959984 0.86 2.34896186355e-38
0.0366915632353 -0.0303104218031 0.862 2.34896144316e-38
0.0382868485934 -0.0303104218031 0.862 2.34885438395e-38
0.0398821339514 -0.0303104218031 0.862 2.34910507625e-38
0.0414774193095 -0.0303104218031 0.862 2.34903290938e-38
0.0430727046675 -0.0303104218031 0.862 2.34925109155e-38
0.0447716280535 -0.0303807476077 0.864 2.34900011899e-38
0.0463706147697 -0.0303807476077 0.864 2.34921507818e-38
0.0479696014859 -0.0303807476077 0.864 2.34939332334e-38
0.0495685882021 -0.0303807476077 0.864 2.3490306673e-38
0.0511675749183 -0.0303807476077 0.864 2.34921451766e-38
0.0529497788624 -0.0304862363147 0.867 2.34949996216e-38
0.0546801637925 -0.0305565621193 0.869 2.34921465779e-38
0.0564179514389 -0.030626887924 0.871 2.34914375209e-38
0.0580298929086 -0.030626887924 0.871 2.34935997244e-38
0.0599157348806 -0.0307675395333 0.875 2.34978933029e-38
0.0617460564805 -0.0308730282403 0.878 2.34982660483e-38
0.0633709527037 -0.0308730282403 0.878 1.52045143327e-38
0.0649958489268 -0.0308730282403 0.878 1.05259262823e-38
0.06662074515 -0.0308730282403 0.878 1.89067112442e-38
0.00487468866951 -0.0292481320171 0.878 8.76670255902e-39
0.00649958489268 -0.0292481320171 0.878 1.39227942715e-38
0.00812448111586 -0.0292481320171 0.878 2.10983294308e-38
0.00971606511577 -0.0291481953473 0.875 2.16435494399e-38
0.0113094997948 -0.0290815709008 0.873 2.19176125909e-38
0.0129251426226 -0.0290815709008 0.873 2.17328780131e-38
0.0145074732272 -0.0290149464543 0.871 2.29317687233e-38
0.0161194146968 -0.0290149464543 0.871 2.30246734102e-38
0.017690641227 -0.0289483220078 0.869 2.26548273052e-38
0.0192988813385 -0.0289483220078 0.869 2.31165313271e-38
0.0209071214501 -0.0289483220078 0.869 2.22856958624e-38
0.0224635425477 -0.0288816975613 0.867 2.34845571454e-38
0.0240680813011 -0.0288816975613 0.867 2.32998702117e-38
0.0255837874591 -0.0287817608915 0.864 2.34849439038e-38
0.0271827741753 -0.0287817608915 0.864 2.33916762806e-38
0.028715136445 -0.028715136445 0.862 2.34871397385e-38
0.0303104218031 -0.028715136445 0.862 2.3486381636e-38
0.0319057071611 -0.028715136445 0.862 2.34860313114e-38
0.0335009925192 -0.028715136445 0.862 2.34863830373e-38
0.0350962778772 -0.028715136445 0.862 2.34860537322e-38
0.0366915632353 -0.028715136445 0.862 2.34896340497e-38
0.0382868485934 -0.028715136445 0.862 2.34907046418e-38
0.0398821339514 -0.028715136445 0.862 2.34924828895e-38
0.0415736546211 -0.0287817608915 0.864 2.34906934314e-38
0.0431726413373 -0.0287817608915 0.864 2.34899717627e-38
0.0447716280535 -0.0287817608915 0.864 2.349029266e-38
0.0465316238487 -0.0288816975613 0.867 2.34917752338e-38
0.0481361626021 -0.0288816975613 0.867 2.34914249092e-38
0.0497407013555 -0.0288816975613 0.867 2.34950220423e-38
0.0514636835694 -0.0289483220078 0.869 2.34932115647e-38
0.053071923681 -0.0289483220078 0.869 2.34921619922e-38
0.0548060099692 -0.0290149464543 0.871 2.34939598581e-38
0.0564179514389 -0.0290149464543 0.871 2.34964779914e-38
0.0584962640342 -0.0292481320171 0.878 2.34975359718e-38
0.0601211602573 -0.0292481320171 0.878 2.3502950589e-38
0.0617460564805 -0.0292481320171 0.878 1.66739677504e-38
0.0633709527037 -0.0292481320171 0.878 1.38381025949e-38
0.0649958489268 -0.0292481320171 0.878 1.02489848642e-38
0.00489689681835 -0.0277490819706 0.882 1.13442033102e-38
0.0065291957578 -0.0277490819706 0.882 7.57140617934e-39
0.00816149469725 -0.0277490819706 0.882 1.41100567918e-38
0.00977158548786 -0.0276861588823 0.88 2.12823423399e-38
0.0114001830692 -0.0276861588823 0.88 2.15484671352e-38
0.0129991697854 -0.0276232357939 0.878 2.21942247039e-38
0.0145407854504 -0.027465928073 0.873 2.1733243752e-38
0.0161194146968 -0.0274030049846 0.871 2.26552070571e-38
0.0177313561665 -0.0274030049846 0.871 2.19179881389e-38
0.0192988813385 -0.0273400818963 0.869 2.32087325622e-38
0.0209071214501 -0.0273400818963 0.869 2.31168718426e-38
0.0225153615616 -0.0273400818963 0.869 2.33916762806e-38
0.0240680813011 -0.0272771588079 0.867 2.34838747131e-38
0.0255837874591 -0.0271827741753 0.864 2.34867445723e-38
0.0271827741753 -0.0271827741753 0.864 2.34856557634e-38
0.028715136445 -0.027119851087 0.862 2.34863830373e-38
0.0303104218031 -0.027119851087 0.862 2.34874550306e-38
0.0319057071611 -0.027119851087 0.862 2.34874648397e-38
0.0335009925192 -0.027119851087 0.862 2.34892585018e-38
0.0350962778772 -0.027119851087 0.862 2.34928430232e-38
0.0367766944725 -0.0271827741753 0.864 2.34856683751e-38
0.0383756811887 -0.0271827741753 0.864 2.34892571005e-38
0.0401134688351 -0.0272771588079 0.867 2.34885340304e-38
0.0417180075885 -0.0272771588079 0.867 2.34888955655e-38
0.0433225463419 -0.0272771588079 0.867 2.34885466421e-38
0.0449270850953 -0.0272771588079 0.867 2.34914291131e-38
0.0466389632348 -0.0273400818963 0.869 2.34921507818e-38
0.0482472033463 -0.0273400818963 0.869 2.3491071782e-38
0.0498554434579 -0.0273400818963 0.869 2.34914277118e-38
0.0515821270299 -0.0274030049846 0.871 2.34924955012e-38
0.0531940684996 -0.0274030049846 0.871 2.34928682466e-38
0.0548060099692 -0.0274030049846 0.871 2.3492156387e-38
0.056871367811 -0.0276232357939 0.878 2.34936109348e-38
0.0586295129272 -0.0276861588823 0.88 2.34993674689e-38
0.0602581105085 -0.0276861588823 0.88 1.91593093054e-38
0.0618867080898 -0.0276861588823 0.88 1.45709929021e-38
0.0635153056711 -0.0276861588823 0.88 1.25524056487e-38
0.0651439032524 -0.0276861588823 0.88 9.60290779943e-39
0.00655140390664 -0.0262056156265 0.885 1.04240462787e-38
0.00818925488329 -0.0262056156265 0.885 8.76742002383e-39
0.00982710585995 -0.0262056156265 0.885 1.5397894922e-38
0.0114260925761 -0.0261167830312 0.882 2.08202949999e-38
0.0130287806505 -0.026057561301 0.88 2.19201587502e-38
0.0145740976737 -0.0259095069754 0.875 2.13673352957e-38
0.0161564282782 -0.0258502852452 0.873 2.2287496531e-38
0.0177720711061 -0.0258502852452 0.873 2.29332162646e-38
0.0193432976362 -0.0257910635149 0.871 2.29324777803e-38
0.0209552391059 -0.0257910635149 0.871 2.28392031506e-38
0.0225153615616 -0.0257318417847 0.869 2.3207266804e-38
0.0241236016732 -0.0257318417847 0.869 2.34867529801e-38
0.0256726200545 -0.0256726200545 0.867 2.28392213675e-38
0.0272771588079 -0.0256726200545 0.867 2.34856459543e-38
0.0288816975613 -0.0256726200545 0.867 2.34867585853e-38
0.0304862363147 -0.0256726200545 0.867 2.34856571647e-38
0.0320907750681 -0.0256726200545 0.867 2.34899955847e-38
0.0336953138215 -0.0256726200545 0.867 2.34860271075e-38
0.0352998525749 -0.0256726200545 0.867 2.34903557184e-38
0.0369043913283 -0.0256726200545 0.867 2.34914305144e-38
0.0385977626771 -0.0257318417847 0.869 2.34899787692e-38
0.0402060027886 -0.0257318417847 0.869 2.34906906288e-38
0.0418142429001 -0.0257318417847 0.869 2.34928486284e-38
0.0434224830117 -0.0257318417847 0.869 2.34935702971e-38
0.0450307231232 -0.0257318417847 0.869 2.34903431068e-38
0.0466389632348 -0.0257318417847 0.869 2.34903557184e-38
0.0483582440905 -0.0257910635149 0.871 2.34953989916e-38
0.0499701855602 -0.0257910635149 0.871 2.34925235272e-38
0.0515821270299 -0.0257910635149 0.871 2.34925123168e-38
0.0531940684996 -0.0257910635149 0.871 2.34932493998e-38
0.0552464715878 -0.0259983395707 0.878 2.34946647112e-38
0.0570009153459 -0.026057561301 0.88 2.35000849337e-38
0.0586295129272 -0.026057561301 0.88 2.10971551426e-38
0.0602581105085 -0.026057561301 0.88 1.43855282478e-38
0.0620273596991 -0.0261167830312 0.882 1.32881658152e-38
0.0636596586385 -0.0261167830312 0.882 1.30123005943e-38
0.0658101477175 -0.026324059087 0.889 9.42067173674e-39
0.00656620933919 -0.024623285022 0.887 1.06995527672e-38
0.00820776167399 -0.024623285022 0.887 1.06995527672e-38
0.00984931400879 -0.024623285022 0.887 8.76993115068e-39
0.0114649568366 -0.0245677646499 0.885 1.42947717514e-38
0.0130583915156 -0.0244844840917 0.882 2.17440043229e-38
0.014690690455 -0.0244844840917 0.882 2.17372094266e-38
0.0162489622317 -0.0243734433476 0.878 2.34853138466e-38
0.0178127860456 -0.0242901627894 0.875 2.2010161348e-38
0.0193877139339 -0.0242346424173 0.873 2.28392087558e-38
0.0210033567617 -0.0242346424173 0.873 2.3486006088e-38
0.0225671805756 -0.0241791220453 0.871 2.33909321911e-38
0.0241791220453 -0.0241791220453 0.871 2.34863802347e-38
0.0257318417847 -0.0241236016732 0.869 2.33923979493e-38
0.0273400818963 -0.0241236016732 0.869 2.34863900438e-38
0.0289483220078 -0.0241236016732 0.869 2.34856809868e-38
0.0305565621193 -0.0241236016732 0.869 2.34867319606e-38
0.0321648022309 -0.0241236016732 0.869 2.34871089099e-38
0.0337730423424 -0.0241236016732 0.869 2.34871257255e-38
0.035381282454 -0.0241236016732 0.869 2.34871089099e-38
0.0369895225655 -0.0241236016732 0.869 2.34889011706e-38
0.0385977626771 -0.0241236016732 0.869 2.34889053745e-38
