# .PCD v0.7 - Point Cloud Data file format
VERSION 0.7
FIELDS x y z rgb
SIZE 4 4 4 4
TYPE F F F F
COUNT 1 1 1 1
WIDTH 844
HEIGHT 1
VIEWPOINT 0 0 0 1 0 0 0
POINTS 844
DATA ascii
0.0213753432547 -0.0824477525538 0.825 7.95202126302e-39
0.0229021534872 -0.0824477525538 0.825 9.517888219e-39
0.0244289637197 -0.0824477525538 0.825 9.3324656036e-39
0.0259557739521 -0.0824477525538 0.825 9.79411217229e-39
0.0274159597381 -0.0822478792143 0.823 9.88563377759e-39
0.0289390686124 -0.0822478792143 0.823 1.05305982114e-38
0.0305362046496 -0.0824477525538 0.825 9.05440594933e-39
0.032140743403 -0.0826476258934 0.827 5.82832541437e-39
0.0336712549936 -0.0826476258934 0.827 2.5129205101e-39
0.035116635347 -0.0824477525538 0.825 2.08064795983e-40
0.0366434455795 -0.0824477525538 0.825 2.00890147846e-41
0.038170255812 -0.0824477525538 0.825 2.65461981082e-41
0.0396970660444 -0.0824477525538 0.825 2.79129966043e-39
0.0167949125573 -0.0809209423214 0.825 9.1835496158e-40
0.0183217227897 -0.0809209423214 0.825 3.8972758747e-39
0.0198485330222 -0.0809209423214 0.825 5.55497132034e-39
0.0213753432547 -0.0809209423214 0.825 7.85910956965e-39
0.0228466331151 -0.08072477034 0.823 9.97814189701e-39
0.0243697419894 -0.08072477034 0.823 1.06220665673e-38
0.0258928508638 -0.08072477034 0.823 1.11727208119e-38
0.0274159597381 -0.08072477034 0.823 8.96149425595e-39
0.0289390686124 -0.08072477034 0.823 6.65843220386e-39
0.0305362046496 -0.0809209423214 0.825 3.89547520617e-39
0.032140743403 -0.0811171143028 0.827 3.34087490515e-39
0.0336712549936 -0.0811171143028 0.827 2.96779320201e-39
0.0352017665842 -0.0811171143028 0.827 2.96743446961e-39
0.0367322781748 -0.0811171143028 0.827 2.50574586197e-39
0.0382627897654 -0.0811171143028 0.827 2.96528207516e-39
0.0397933013561 -0.0811171143028 0.827 4.25922986673e-39
0.042023369635 -0.0824903181724 0.841 4.07663507164e-39
0.0153421294876 -0.0797790733354 0.829 5.15103863021e-39
0.0167949125573 -0.0793941320889 0.825 3.9317632312e-40
0.0183217227897 -0.0793941320889 0.825 4.16524618003e-39
0.0198004153664 -0.0792016614656 0.823 5.73829338934e-39
0.0213235242407 -0.0792016614656 0.823 6.66201952793e-39
0.022791112743 -0.0790091908424 0.821 9.14982876955e-39
0.0243105202592 -0.0790091908424 0.821 7.5800157571e-39
0.0258299277754 -0.0790091908424 0.821 5.5528189259e-39
0.0273493352916 -0.0790091908424 0.821 6.47296754951e-39
0.0288687428078 -0.0790091908424 0.821 6.74847403798e-39
0.0306102318124 -0.0795866027121 0.827 5.36843046877e-39
0.032140743403 -0.0795866027121 0.827 3.98372337826e-39
0.0336712549936 -0.0795866027121 0.827 4.62621311896e-39
0.0352868978214 -0.0797790733354 0.829 3.05819376854e-39
0.0368211107702 -0.0797790733354 0.829 2.59829882294e-39
0.0383553237189 -0.0797790733354 0.829 1.58667343557e-39
0.0404669485374 -0.0809338970749 0.841 3.79861745632e-39
0.042023369635 -0.0809338970749 0.841 6.10385572492e-39
0.0435797907326 -0.0809338970749 0.841 3.06500968427e-39
0.0138079165388 -0.0782448603866 0.829 1.1139358698e-38
0.0153421294876 -0.0782448603866 0.829 8.38180931112e-39
0.0168763424363 -0.0782448603866 0.829 6.08840640935e-39
0.0183217227897 -0.0778673218564 0.825 3.24150602845e-39
0.0198004153664 -0.0776785525913 0.823 5.36951227118e-39
0.0213235242407 -0.0776785525913 0.823 6.10634302969e-39
0.022791112743 -0.0774897833262 0.821 5.64357822483e-39
0.0243105202592 -0.0774897833262 0.821 7.11691183802e-39
0.0258299277754 -0.0774897833262 0.821 9.4192480175e-39
0.0273493352916 -0.0774897833262 0.821 7.85193492151e-39
0.0288687428078 -0.0774897833262 0.821 6.19315627215e-39
0.0312764762774 -0.0797550145075 0.845 6.47117388748e-39
0.0328403000913 -0.0797550145075 0.845 4.0744826772e-39
0.0343226940261 -0.0795662452424 0.843 3.88901802285e-39
0.0358828164819 -0.0795662452424 0.843 3.05998743058e-39
0.0374429389376 -0.0795662452424 0.843 3.42768814762e-39
0.0389105274398 -0.0793774759773 0.841 3.1500292647e-39
0.0404669485374 -0.0793774759773 0.841 3.33764631349e-39
0.042023369635 -0.0793774759773 0.841 6.84067947694e-39
0.0435797907326 -0.0793774759773 0.841 5.09041285344e-39
0.0451362118302 -0.0793774759773 0.841 3.04922545837e-41
0.0153421294876 -0.0767106474379 0.829 7.37733194722e-39
0.0168763424363 -0.0767106474379 0.829 7.10182545875e-39
0.0183661390874 -0.0765255795309 0.827 5.54098075647e-39
0.0198485330222 -0.0763405116239 0.825 7.66718773197e-39
0.0213235242407 -0.076155443717 0.823 6.83959206933e-39
0.0228466331151 -0.076155443717 0.823 7.02362179405e-39
0.0243697419894 -0.076155443717 0.823 9.32633212022e-39
0.0265850048358 -0.0781911906936 0.845 7.48351673966e-39
0.0281488286497 -0.0781911906936 0.845 7.1150985578e-39
0.0297126524636 -0.0781911906936 0.845 6.28319810628e-39
0.0312764762774 -0.0781911906936 0.845 4.99319637118e-39
0.0328403000913 -0.0781911906936 0.845 3.79861745632e-39
0.0343226940261 -0.0780061227866 0.843 3.79646506188e-39
0.0358828164819 -0.0780061227866 0.843 3.97905985697e-39
0.0374429389376 -0.0780061227866 0.843 3.33513518664e-39
0.0390030613933 -0.0780061227866 0.843 2.96635827238e-39
0.0404669485374 -0.0778210548797 0.841 3.89262776769e-39
0.042023369635 -0.0778210548797 0.841 7.29985555643e-39
0.0435797907326 -0.0778210548797 0.841 7.67077505604e-39
0.0451362118302 -0.0778210548797 0.841 2.51112684807e-41
0.0466926329278 -0.0778210548797 0.841 2.35069148624e-38
0.0138412287621 -0.0753578010379 0.831 9.19610525004e-39
0.015379143069 -0.0753578010379 0.831 7.46773251375e-39
0.0168763424363 -0.0751764344891 0.829 7.10182966264e-39
0.0183661390874 -0.0749950679403 0.827 5.72357555157e-39
0.019896650678 -0.0749950679403 0.827 8.77208354512e-39
0.0213753432547 -0.0748137013915 0.825 6.6552036122e-39
0.0229021534872 -0.0748137013915 0.825 7.30056321215e-39
0.0244289637197 -0.0748137013915 0.825 7.66934012641e-39
0.0265850048358 -0.0766273668797 0.845 7.48351673966e-39
0.0281488286497 -0.0766273668797 0.845 7.1150985578e-39
0.0297126524636 -0.0766273668797 0.845 6.37682726447e-39
0.0312764762774 -0.0766273668797 0.845 5.45416751401e-39
0.0328403000913 -0.0766273668797 0.845 5.08610806456e-39
0.0343226940261 -0.0764460003309 0.843 3.61351153437e-39
0.0358828164819 -0.0764460003309 0.843 3.70642322775e-39
0.0374429389376 -0.0764460003309 0.843 3.33657011627e-39
0.0390030613933 -0.0764460003309 0.843 3.70678196016e-39
0.0404669485374 -0.0762646337821 0.841 4.53724748206e-39
0.042023369635 -0.0762646337821 0.841 7.76478396612e-39
0.0435797907326 -0.0762646337821 0.841 7.57893955988e-39
0.0451362118302 -0.0762646337821 0.841 3.71072801663e-39
0.0466926329278 -0.0762646337821 0.841 1.92676380845e-38
0.0482490540254 -0.0762646337821 0.841 2.35098029385e-38
0.0138412287621 -0.073819886731 0.831 1.03989350103e-38
0.015379143069 -0.073819886731 0.831 7.93013858621e-39
0.0169170573759 -0.073819886731 0.831 6.45861825324e-39
0.0184105553851 -0.0736422215403 0.829 7.11187697263e-39
0.019896650678 -0.0734645563497 0.827 7.39060504628e-39
0.0214271622687 -0.0734645563497 0.827 5.55138399627e-39
0.0229576738593 -0.0734645563497 0.827 5.82832541437e-39
0.0249619592917 -0.0748858778752 0.843 6.47153261988e-39
0.0265220817475 -0.0748858778752 0.843 6.19459120178e-39
0.0281488286497 -0.0750635430659 0.845 6.46938022544e-39
0.0297126524636 -0.0750635430659 0.845 6.00948527984e-39
0.0312764762774 -0.0750635430659 0.845 5.8243793579e-39
0.0328403000913 -0.0750635430659 0.845 5.088260459e-39
0.0343226940261 -0.0748858778752 0.843 4.62728931618e-39
0.0358828164819 -0.0748858778752 0.843 5.088260459e-39
0.0374429389376 -0.0748858778752 0.843 4.99606623044e-39
0.0390030613933 -0.0748858778752 0.843 3.98444084307e-39
0.040563183849 -0.0748858778752 0.843 5.46170089455e-39
0.042023369635 -0.0747082126845 0.841 7.95202967081e-39
0.0435797907326 -0.0747082126845 0.841 7.48782152854e-39
0.0451362118302 -0.0747082126845 0.841 4.72629946047e-39
0.0466926329278 -0.0747082126845 0.841 1.17216164268e-38
0.0482490540254 -0.0747082126845 0.841 2.35097875243e-38
0.0123921470505 -0.0728038639218 0.837 1.29828859382e-38
0.0138745409853 -0.0724559362567 0.833 8.37747789757e-39
0.0154161566504 -0.0724559362567 0.833 8.11313275136e-39
0.0169577723154 -0.0724559362567 0.833 6.73448347412e-39
0.0184993879804 -0.0724559362567 0.833 7.38918412963e-39
0.0199928859897 -0.0722819724241 0.831 6.65448614739e-39
0.0214789812826 -0.0721080085916 0.829 4.81562382978e-39
0.0230131942314 -0.0721080085916 0.829 4.8163412946e-39
0.0249619592917 -0.0733257554194 0.843 5.36878920117e-39
0.0265220817475 -0.0733257554194 0.843 6.28751130295e-39
0.0280822042032 -0.0733257554194 0.843 7.11760968465e-39
0.0297126524636 -0.073499719252 0.845 7.02398052646e-39
0.0312764762774 -0.073499719252 0.845 6.46973895785e-39
0.0328403000913 -0.073499719252 0.845 6.37682726447e-39
0.0343226940261 -0.0733257554194 0.843 5.54815540461e-39
0.0358828164819 -0.0733257554194 0.843 5.18045468757e-39
0.0374429389376 -0.0733257554194 0.843 5.64070836558e-39
0.0390030613933 -0.0733257554194 0.843 5.36807173636e-39
0.040563183849 -0.0733257554194 0.843 6.10849542413e-39
0.042023369635 -0.0731517915869 0.841 7.12370813557e-39
0.0435797907326 -0.0731517915869 0.841 8.32080658507e-39
0.0450288724442 -0.0729778277543 0.839 7.03043911108e-39
0.0465815921836 -0.0729778277543 0.839 7.85336985114e-39
0.0481343119231 -0.0729778277543 0.839 2.35098057411e-38
0.0496870316625 -0.0729778277543 0.839 2.35098505827e-38
0.0123921470505 -0.0712548455405 0.837 1.10460882723e-38
0.0139078532086 -0.0710845830661 0.835 8.84275663187e-39
0.0154531702318 -0.0710845830661 0.835 7.6539300472e-39
0.0169984872549 -0.0710845830661 0.835 6.91958939606e-39
0.0185438042781 -0.0710845830661 0.835 7.85015527246e-39
0.0200891213013 -0.0710845830661 0.835 6.74739784076e-39
0.0216344383245 -0.0710845830661 0.835 6.28858049368e-39
0.0231797553476 -0.0710845830661 0.835 6.0127138715e-39
0.0249619592917 -0.0717656329637 0.843 5.82868414678e-39
0.0265220817475 -0.0717656329637 0.843 5.64608935168e-39
0.0280822042032 -0.0717656329637 0.843 5.55353639071e-39
0.0296423266589 -0.0717656329637 0.843 6.56480304567e-39
0.0312764762774 -0.0719358954381 0.845 7.20836898359e-39
0.0328403000913 -0.0719358954381 0.845 7.11617475502e-39
0.0343226940261 -0.0717656329637 0.843 6.56300938363e-39
0.0358828164819 -0.0717656329637 0.843 6.65556234461e-39
0.0374429389376 -0.0717656329637 0.843 5.82760794956e-39
0.0390030613933 -0.0717656329637 0.843 5.0932827127e-39
0.0404669485374 -0.0715953704893 0.841 6.5716189614e-39
0.042023369635 -0.0715953704893 0.841 7.76870900312e-39
0.0435797907326 -0.0715953704893 0.841 8.044574224e-39
0.0450288724442 -0.0714251080149 0.839 5.92482443182e-39
0.0464705514394 -0.0712548455405 0.837 7.66647026716e-39
0.0480195698208 -0.0712548455405 0.837 2.35098029385e-38
0.0495685882021 -0.0712548455405 0.837 2.35098491814e-38
0.0536215753646 -0.0747452262659 0.878 2.35098309645e-38
0.0552464715878 -0.0747452262659 0.878 2.3509823958e-38
0.0123921470505 -0.0697058271592 0.837 1.27974380995e-38
0.0139411654318 -0.0697058271592 0.837 7.46199279524e-39
0.0154901838131 -0.0697058271592 0.837 7.47132123912e-39
0.0170392021945 -0.0697058271592 0.837 6.91994812847e-39
0.0185882205758 -0.0697058271592 0.837 6.56086539698e-39
0.0201372389571 -0.0697058271592 0.837 6.56480304567e-39
0.0216862573384 -0.0697058271592 0.837 6.66273699274e-39
0.0232352757197 -0.0697058271592 0.837 7.21267377247e-39
0.0249027375615 -0.0700389493917 0.841 6.8435381258e-39
0.0265220817475 -0.070205510508 0.843 5.829760344e-39
0.0280822042032 -0.070205510508 0.843 6.6602258659e-39
0.0296423266589 -0.070205510508 0.843 7.11796841706e-39
0.0312024491147 -0.070205510508 0.843 7.67041632363e-39
0.0327625715704 -0.070205510508 0.843 7.48674533132e-39
0.0343226940261 -0.070205510508 0.843 7.94735774173e-39
0.0358828164819 -0.070205510508 0.843 6.65771473905e-39
0.0374429389376 -0.070205510508 0.843 6.195667399e-39
0.0390030613933 -0.070205510508 0.843 6.65986713349e-39
0.0404669485374 -0.0700389493917 0.841 7.86054449927e-39
0.0419234329653 -0.0698723882754 0.839 7.95237999543e-39
0.0434761527047 -0.0698723882754 0.839 8.59773959539e-39
0.0450288724442 -0.0698723882754 0.839 7.02972024497e-39
0.0464705514394 -0.0697058271592 0.837 7.02290432924e-39
0.0480195698208 -0.0697058271592 0.837 2.3509744084e-38
0.0495685882021 -0.0697058271592 0.837 2.35098631944e-38
0.0536215753646 -0.0731203300427 0.878 2.35098702009e-38
0.0552464715878 -0.0731203300427 0.878 2.35098449775e-38
0.056871367811 -0.0731203300427 0.878 2.35098337671e-38
0.00814298790655 -0.0716582935777 0.88 2.30232398819e-38
0.00977158548786 -0.0716582935777 0.88 2.34853124453e-38
0.0123921470505 -0.0681568087778 0.837 1.51023456616e-38
0.0139411654318 -0.0681568087778 0.837 8.56366001673e-39
0.0154901838131 -0.0681568087778 0.837 7.47060237301e-39
0.0170392021945 -0.0681568087778 0.837 6.73520093893e-39
0.0185882205758 -0.0681568087778 0.837 5.54564427776e-39
0.0201372389571 -0.0681568087778 0.837 6.83959206933e-39
0.0216862573384 -0.0681568087778 0.837 6.38507810983e-39
0.0232352757197 -0.0681568087778 0.837 6.38579557464e-39
0.0249027375615 -0.0684825282941 0.841 8.41335534215e-39
0.0265220817475 -0.0686453880522 0.843 7.39885589164e-39
0.0280822042032 -0.0686453880522 0.843 7.76404548183e-39
0.0296423266589 -0.0686453880522 0.843 7.39598603238e-39
0.0312024491147 -0.0686453880522 0.843 7.39777969441e-39
0.0327625715704 -0.0686453880522 0.843 7.8569571752e-39
0.0343226940261 -0.0686453880522 0.843 7.30558546585e-39
0.0358828164819 -0.0686453880522 0.843 8.04170436474e-39
0.0374429389376 -0.0686453880522 0.843 6.93393869234e-39
0.0390030613933 -0.0686453880522 0.843 8.13605098775e-39
0.0404669485374 -0.0684825282941 0.841 8.41191620863e-39
0.0419234329653 -0.068319668536 0.839 8.04242182955e-39
0.0434761527047 -0.068319668536 0.839 9.42569399043e-39
0.0450288724442 -0.068319668536 0.839 6.84210319618e-39
0.0464705514394 -0.0681568087778 0.837 1.09808662365e-38
0.0480195698208 -0.0681568087778 0.837 2.35098183528e-38
0.0495685882021 -0.0681568087778 0.837 2.35098673983e-38
0.0536215753646 -0.0714954338195 0.878 2.35098603918e-38
0.0552464715878 -0.0714954338195 0.878 2.35098547866e-38
0.056871367811 -0.0714954338195 0.878 2.35098533853e-38
0.0584962640342 -0.0714954338195 0.878 2.35098295632e-38
0.00325719516262 -0.0700296959964 0.88 1.93318469814e-38
0.00488579274393 -0.0700296959964 0.88 2.20109068388e-38
0.00651439032524 -0.0700296959964 0.88 2.32079856701e-38
0.00814298790655 -0.0700296959964 0.88 2.23778676702e-38
0.00977158548786 -0.0700296959964 0.88 2.33001841026e-38
0.0114001830692 -0.0700296959964 0.88 2.30250265374e-38
0.0123921470505 -0.0666077903965 0.837 1.81426560592e-38
0.0139411654318 -0.0666077903965 0.837 8.46536733725e-39
0.0154901838131 -0.0666077903965 0.837 6.73448347412e-39
0.0170392021945 -0.0666077903965 0.837 6.55260614384e-39
0.0185882205758 -0.0666077903965 0.837 6.83062516046e-39
0.0201372389571 -0.0666077903965 0.837 7.76117562257e-39
0.0216862573384 -0.0666077903965 0.837 7.76440421423e-39
0.0232352757197 -0.0666077903965 0.837 7.21159757525e-39
0.0249027375615 -0.0669261071965 0.841 8.32116251488e-39
0.0264591586591 -0.0669261071965 0.841 9.79379127494e-39
0.0280822042032 -0.0670852655965 0.843 9.05548214655e-39
0.0296423266589 -0.0670852655965 0.843 7.21267377247e-39
0.0312024491147 -0.0670852655965 0.843 7.58217515804e-39
0.0327625715704 -0.0670852655965 0.843 8.68670523229e-39
0.0343226940261 -0.0670852655965 0.843 8.96113552354e-39
0.0358828164819 -0.0670852655965 0.843 8.96221172076e-39
0.0374429389376 -0.0670852655965 0.843 7.94879267136e-39
0.0389105274398 -0.0669261071965 0.841 9.33349976187e-39
0.0404669485374 -0.0669261071965 0.841 9.14624144548e-39
0.0419234329653 -0.0667669487965 0.839 1.03454852829e-38
0.0434761527047 -0.0667669487965 0.839 9.51681202178e-39
0.0449215330581 -0.0666077903965 0.837 2.96994559645e-39
0.0464705514394 -0.0666077903965 0.837 2.35001634064e-38
0.0480195698208 -0.0666077903965 0.837 2.35098561879e-38
0.0518190139508 -0.0696317999964 0.875 2.350988001e-38
0.0534383581368 -0.0696317999964 0.875 2.3509865997e-38
0.0550577023227 -0.0696317999964 0.875 2.35098744048e-38
0.0566770465087 -0.0696317999964 0.875 2.35098533853e-38
0.0582963906946 -0.0696317999964 0.875 2.35098365697e-38
0.0599157348806 -0.0696317999964 0.875 2.35094596204e-38
0.0 -0.068401098415 0.88 2.35097805178e-38
0.00162859758131 -0.068401098415 0.88 1.50044103133e-38
0.00325719516262 -0.068401098415 0.88 2.1732145134e-38
0.00488579274393 -0.068401098415 0.88 2.13640884871e-38
0.00649958489268 -0.0682456413732 0.878 2.34870892917e-38
0.00812448111586 -0.0682456413732 0.878 2.21031024686e-38
0.00974937733903 -0.0682456413732 0.878 2.28402779466e-38
0.0113742735622 -0.0682456413732 0.878 2.19176153935e-38
0.0124217579156 -0.0652142290571 0.839 2.06311953773e-38
0.0139411654318 -0.0650587720152 0.837 1.05862101422e-38
0.0154901838131 -0.0650587720152 0.837 7.00460897649e-39
0.0170392021945 -0.0650587720152 0.837 7.10720644485e-39
0.0185882205758 -0.0650587720152 0.837 5.91298626239e-39
0.0201372389571 -0.0650587720152 0.837 6.83851587211e-39
0.0216862573384 -0.0650587720152 0.837 8.04063237142e-39
0.0232352757197 -0.0650587720152 0.837 7.76476294664e-39
0.0248435158313 -0.0652142290571 0.839 7.03007897738e-39
0.0263962355707 -0.0652142290571 0.839 7.76691534108e-39
0.0280155797567 -0.0653696860989 0.841 9.3349360928e-39
0.0295720008543 -0.0653696860989 0.841 1.03472775437e-38
0.0312024491147 -0.0655251431408 0.843 1.03447972454e-38
0.0327625715704 -0.0655251431408 0.843 9.69976554928e-39
0.0343226940261 -0.0655251431408 0.843 9.88271907678e-39
0.0358828164819 -0.0655251431408 0.843 1.05270024795e-38
0.0374429389376 -0.0655251431408 0.843 1.01596604949e-38
0.0389105274398 -0.0653696860989 0.841 1.0251495991e-38
0.0404669485374 -0.0653696860989 0.841 1.08957793938e-38
0.0419234329653 -0.0652142290571 0.839 1.0896855591e-38
0.0434761527047 -0.0652142290571 0.839 6.28822035997e-39
0.0449215330581 -0.0650587720152 0.837 5.27193145132e-39
0.0464705514394 -0.0650587720152 0.837 2.35098561879e-38
0.0480195698208 -0.0650587720152 0.837 2.35098575892e-38
0.0518190139508 -0.0680124558104 0.875 2.35098786087e-38
0.0533162133182 -0.0678569987686 0.873 2.35098687996e-38
0.054931856146 -0.0678569987686 0.873 2.35098631944e-38
0.0565474989738 -0.0678569987686 0.873 2.35098575892e-38
0.0581631418016 -0.0678569987686 0.873 2.3509851984e-38
0.0597787846294 -0.0678569987686 0.873 2.3509837971e-38
0.0 -0.0669242565174 0.882 2.18434292515e-38
0.00162859758131 -0.0667725008337 0.88 1.90498118434e-38
0.00325719516262 -0.0667725008337 0.88 2.05354222324e-38
0.00488579274393 -0.0667725008337 0.88 2.19186943933e-38
0.00649958489268 -0.06662074515 0.878 2.16410299052e-38
0.00812448111586 -0.06662074515 0.878 2.34860215023e-38
0.00974937733903 -0.06662074515 0.878 2.13644416143e-38
0.0113742735622 -0.06662074515 0.878 2.0905618662e-38
0.0129991697854 -0.06662074515 0.878 1.98018046513e-38
0.0139744776551 -0.0636615093176 0.839 1.7312189136e-38
0.0155271973945 -0.0636615093176 0.839 8.74553734701e-39
0.017079917134 -0.0636615093176 0.839 5.90581161425e-39
0.0185882205758 -0.0635097536339 0.837 5.63604484429e-39
0.0201372389571 -0.0635097536339 0.837 5.26762666244e-39
0.0216862573384 -0.0635097536339 0.837 7.48354756822e-39
0.0232352757197 -0.0635097536339 0.837 9.97528605074e-39
0.0248435158313 -0.0636615093176 0.839 7.21374996969e-39
0.0263962355707 -0.0636615093176 0.839 7.39885589164e-39
0.0280155797567 -0.0638132650013 0.841 7.76476294664e-39
0.0295720008543 -0.0638132650013 0.841 7.85875083724e-39
0.0311284219519 -0.0638132650013 0.841 7.85946830205e-39
0.0326848430495 -0.0638132650013 0.841 9.97885936182e-39
0.0342412641471 -0.0638132650013 0.841 1.01610954245e-38
0.0358828164819 -0.063965020685 0.843 1.06202729053e-38
0.0373541063422 -0.0638132650013 0.841 9.8834365416e-39
0.0389105274398 -0.0638132650013 0.841 1.12649150404e-38
0.0403707132258 -0.0636615093176 0.839 1.12642522263e-38
0.0418234962955 -0.0635097536339 0.837 7.76225181979e-39
0.0433725146768 -0.0635097536339 0.837 9.44901159688e-40
0.0449215330581 -0.0635097536339 0.837 2.35096768217e-38
0.0464705514394 -0.0635097536339 0.837 2.35098575892e-38
0.0501996697648 -0.0663931116244 0.875 2.35098547866e-38
0.0517005704903 -0.0662413559407 0.873 2.35098856151e-38
0.0533162133182 -0.0662413559407 0.873 2.35098814113e-38
0.054931856146 -0.0662413559407 0.873 2.35098702009e-38
0.0565474989738 -0.0662413559407 0.873 2.35098687996e-38
0.0580298929086 -0.066089600257 0.871 2.35098547866e-38
0.0596418343783 -0.066089600257 0.871 2.35098421749e-38
0.061253775848 -0.066089600257 0.871 2.35076519454e-38
-0.00327570195332 -0.0655140390664 0.885 2.35036918759e-38
-0.00163785097666 -0.0655140390664 0.885 2.35098127476e-38
0.0 -0.065291957578 0.882 1.56522852439e-38
0.00163229893945 -0.065291957578 0.882 2.04399307486e-38
0.00325719516262 -0.0651439032524 0.88 2.14591806009e-38
0.00487468866951 -0.0649958489268 0.878 2.16446242358e-38
0.00649958489268 -0.0649958489268 0.878 2.24711465038e-38
0.00812448111586 -0.0649958489268 0.878 2.17324982612e-38
0.00971606511577 -0.0647737674385 0.875 2.21945694233e-38
0.0113354093017 -0.0647737674385 0.875 2.04453369581e-38
0.0129547534877 -0.0647737674385 0.875 1.91524905871e-38
0.0139744776551 -0.0621087895782 0.839 1.79564627296e-38
0.0155271973945 -0.0621087895782 0.839 1.68548291393e-38
0.017079917134 -0.0621087895782 0.839 8.56796480562e-39
0.0186326368734 -0.0621087895782 0.839 6.09199373342e-39
0.0201853566129 -0.0621087895782 0.839 6.55475853828e-39
0.0217380763524 -0.0621087895782 0.839 6.55655220031e-39
0.0232907960918 -0.0621087895782 0.839 6.74775657317e-39
0.0248435158313 -0.0621087895782 0.839 8.50088184553e-39
0.0263962355707 -0.0621087895782 0.839 8.40976381419e-39
0.0280155797567 -0.0622568439037 0.841 8.40976381419e-39
0.0295720008543 -0.0622568439037 0.841 8.59451100372e-39
0.0311284219519 -0.0622568439037 0.841 8.22788648391e-39
0.0326848430495 -0.0622568439037 0.841 9.33098863502e-39
0.0342412641471 -0.0622568439037 0.841 1.08057375597e-38
0.0357976852446 -0.0622568439037 0.841 1.07110364081e-38
0.0373541063422 -0.0622568439037 0.841 1.12638388432e-38
0.0389105274398 -0.0622568439037 0.841 9.69976554928e-39
0.0403707132258 -0.0621087895782 0.839 5.64357822483e-39
0.0418234962955 -0.0619607352526 0.837 4.87517340932e-40
0.0433725146768 -0.0619607352526 0.837 2.23089588182e-38
0.0449215330581 -0.0619607352526 0.837 2.34983136924e-38
0.0464705514394 -0.0619607352526 0.837 2.35098393723e-38
0.0500849276625 -0.0646257131129 0.873 2.35098589905e-38
0.0517005704903 -0.0646257131129 0.873 2.35098856151e-38
0.0533162133182 -0.0646257131129 0.873 2.35098842138e-38
0.054931856146 -0.0646257131129 0.873 2.35098814113e-38
0.0565474989738 -0.0646257131129 0.873 2.35098758061e-38
0.0580298929086 -0.0644776587873 0.871 2.35098449775e-38
0.0596418343783 -0.0644776587873 0.871 2.35098351684e-38
0.061253775848 -0.0644776587873 0.871 2.35080190856e-38
-0.00327570195332 -0.0638761880897 0.885 2.35072876078e-38
-0.00163785097666 -0.0638761880897 0.885 2.35098127476e-38
0.0 -0.0636596586385 0.882 1.52752757012e-38
0.00162859758131 -0.0635153056711 0.88 2.03495512015e-38
0.00324979244634 -0.0633709527037 0.878 2.18258079233e-38
0.00487468866951 -0.0633709527037 0.878 2.11836446852e-38
0.00647737674385 -0.0631544232525 0.875 2.21938365442e-38
0.00809672092981 -0.0631544232525 0.875 2.19176153935e-38
0.00969385696694 -0.0630100702851 0.873 2.12744390166e-38
0.0113094997948 -0.0630100702851 0.873 1.99840056815e-38
0.0128955317575 -0.0628657173177 0.871 1.91517661158e-38
0.0145074732272 -0.0628657173177 0.871 1.53710068071e-38
0.0155271973945 -0.0605560698387 0.839 1.93379776622e-38
0.017079917134 -0.0605560698387 0.839 1.80547820338e-38
0.0186326368734 -0.0605560698387 0.839 1.01302486414e-38
0.0201853566129 -0.0605560698387 0.839 5.8089538644e-39
0.0217380763524 -0.0605560698387 0.839 6.74237558707e-39
0.0232907960918 -0.0605560698387 0.839 6.37359867281e-39
0.0248435158313 -0.0605560698387 0.839 6.83959206933e-39
0.0263962355707 -0.0605560698387 0.839 8.49980564831e-39
0.0279489553102 -0.0605560698387 0.839 9.05368848451e-39
0.0295720008543 -0.0607004228061 0.841 1.01607366921e-38
0.0310543947891 -0.0605560698387 0.839 1.01610954245e-38
0.0326071145285 -0.0605560698387 0.839 1.06202729053e-38
0.034159834268 -0.0605560698387 0.839 1.11723620795e-38
0.0357976852446 -0.0607004228061 0.841 1.00649551395e-38
0.0373541063422 -0.0607004228061 0.841 8.49765325387e-39
0.0389105274398 -0.0607004228061 0.841 3.15433405358e-39
0.0403707132258 -0.0605560698387 0.839 8.21604831448e-39
0.0418234962955 -0.0604117168713 0.837 2.16592467853e-38
0.0433725146768 -0.0604117168713 0.837 2.34958249864e-38
0.0449215330581 -0.0604117168713 0.837 2.34968255135e-38
0.0464705514394 -0.0604117168713 0.837 2.35098589905e-38
0.0500849276625 -0.0630100702851 0.873 2.3509851984e-38
0.0517005704903 -0.0630100702851 0.873 2.35098856151e-38
0.0531940684996 -0.0628657173177 0.871 2.35098856151e-38
0.0548060099692 -0.0628657173177 0.871 2.35098856151e-38
0.0564179514389 -0.0628657173177 0.871 2.35098828126e-38
0.0580298929086 -0.0628657173177 0.871 2.35098603918e-38
0.0595048841271 -0.0627213643502 0.869 2.3509837971e-38
0.0611131242387 -0.0627213643502 0.869 2.35098127476e-38
0.0627213643502 -0.0627213643502 0.869 2.35065659391e-38
-0.0032831046696 -0.0623789887223 0.887 2.35062310288e-38
-0.00163785097666 -0.062238337113 0.885 2.30402180141e-38
0.0 -0.0620273596991 0.882 1.8038604043e-38
0.00162859758131 -0.0618867080898 0.88 1.97981794922e-38
0.00324979244634 -0.0617460564805 0.878 2.17335940766e-38
0.00487468866951 -0.0617460564805 0.878 2.15498922557e-38
0.00647737674385 -0.0615350790666 0.875 2.19172594637e-38
0.00809672092981 -0.0615350790666 0.875 2.15495531415e-38
0.00969385696694 -0.0613944274573 0.873 2.04443042011e-38
0.0113094997948 -0.0613944274573 0.873 2.04432266026e-38
0.0128955317575 -0.061253775848 0.871 1.93379398272e-38
0.0145074732272 -0.061253775848 0.871 1.82312545559e-38
0.0155642109759 -0.0591440017085 0.841 1.69387430952e-38
0.0171206320735 -0.0591440017085 0.841 2.04457125061e-38
0.0186326368734 -0.0590033500993 0.839 2.02631205136e-38
0.0201853566129 -0.0590033500993 0.839 1.55658279313e-38
0.0217380763524 -0.0590033500993 0.839 1.10532629204e-38
0.0232907960918 -0.0590033500993 0.839 7.65140350607e-39
0.0248435158313 -0.0590033500993 0.839 6.74129938985e-39
0.0263962355707 -0.0590033500993 0.839 6.0073328854e-39
0.0279489553102 -0.0590033500993 0.839 6.47009769026e-39
0.0295720008543 -0.0591440017085 0.841 6.19423246938e-39
0.0310543947891 -0.0590033500993 0.839 7.02470079387e-39
0.0326071145285 -0.0590033500993 0.839 6.19496254588e-39
0.034159834268 -0.0590033500993 0.839 6.10454936766e-39
0.0357976852446 -0.0591440017085 0.841 4.4403897322e-39
0.0373541063422 -0.0591440017085 0.841 8.02592013884e-39
0.0389105274398 -0.0591440017085 0.841 1.53903615415e-38
0.0403707132258 -0.0590033500993 0.839 2.34957353033e-38
0.0418234962955 -0.05886269849 0.837 2.34961444824e-38
0.0433725146768 -0.05886269849 0.837 2.34943129853e-38
0.0449215330581 -0.05886269849 0.837 2.34953807747e-38
0.0484692848347 -0.0613944274573 0.873 2.35098631944e-38
0.0499701855602 -0.061253775848 0.871 2.35098631944e-38
0.0515821270299 -0.061253775848 0.871 2.35098856151e-38
0.0531940684996 -0.061253775848 0.871 2.35098856151e-38
0.0548060099692 -0.061253775848 0.871 2.35098828126e-38
0.0564179514389 -0.061253775848 0.871 2.35098772074e-38
0.0580298929086 -0.061253775848 0.871 2.35098645957e-38
0.0595048841271 -0.0611131242387 0.869 2.35098211554e-38
0.0611131242387 -0.0611131242387 0.869 2.35097987346e-38
0.0627213643502 -0.0611131242387 0.869 2.35076421363e-38
-0.0032831046696 -0.0607374363875 0.887 2.35080036713e-38
-0.00163229893945 -0.0603950607596 0.882 1.7963990505e-38
0.0 -0.0603950607596 0.882 1.9511115094e-38
0.00162859758131 -0.0602581105085 0.88 2.06276192636e-38
0.00324979244634 -0.0601211602573 0.878 2.09967352921e-38
0.00485803255789 -0.0599157348806 0.875 2.20094424819e-38
0.00647737674385 -0.0599157348806 0.875 2.16431612802e-38
0.00807821413911 -0.0597787846294 0.873 2.07212245997e-38
0.00969385696694 -0.0597787846294 0.873 2.10875058014e-38
0.0112835902878 -0.0596418343783 0.871 2.02595429986e-38
0.0128955317575 -0.0596418343783 0.871 1.93372363753e-38
0.0145074732272 -0.0596418343783 0.871 1.81379869327e-38
0.0156012245573 -0.0577245308621 0.843 1.61103865275e-38
0.0171206320735 -0.057587580611 0.841 1.8507806413e-38
0.0186770531711 -0.057587580611 0.841 2.12733796349e-38
0.0202334742687 -0.057587580611 0.841 2.09981800308e-38
0.0217898953663 -0.057587580611 0.841 2.13669625503e-38
0.0232907960918 -0.0574506303598 0.839 1.77788733726e-38
0.0248435158313 -0.0574506303598 0.839 1.43733313459e-38
0.0263962355707 -0.0574506303598 0.839 1.1881943188e-38
0.0279489553102 -0.0574506303598 0.839 1.18848046395e-38
0.0295720008543 -0.057587580611 0.841 1.14245509615e-38
0.0310543947891 -0.0574506303598 0.839 1.15174626549e-38
0.0326071145285 -0.0574506303598 0.839 1.27127590346e-38
0.034159834268 -0.0574506303598 0.839 1.52931268423e-38
0.0357976852446 -0.057587580611 0.841 1.81536548508e-38
0.0373541063422 -0.057587580611 0.841 2.24829356278e-38
0.0389105274398 -0.057587580611 0.841 2.34964317486e-38
0.0403707132258 -0.0574506303598 0.839 2.34928850622e-38
0.0419234329653 -0.0574506303598 0.839 2.34899745653e-38
0.0434761527047 -0.0574506303598 0.839 2.3490358521e-38
0.0468536420069 -0.0597787846294 0.873 2.35029603981e-38
0.0483582440905 -0.0596418343783 0.871 2.35098407736e-38
0.0499701855602 -0.0596418343783 0.871 2.35098702009e-38
0.0515821270299 -0.0596418343783 0.871 2.35098758061e-38
0.0531940684996 -0.0596418343783 0.871 2.35098814113e-38
0.0548060099692 -0.0596418343783 0.871 2.35098744048e-38
0.056288403904 -0.0595048841271 0.869 2.35098631944e-38
0.0578966440156 -0.0595048841271 0.869 2.35098575892e-38
0.0595048841271 -0.0595048841271 0.869 2.35098267606e-38
0.0611131242387 -0.0595048841271 0.869 2.35097903269e-38
0.0627213643502 -0.0595048841271 0.869 2.3506931678e-38
0.0643296044618 -0.0595048841271 0.869 2.35036526396e-38
-0.00493576107881 -0.0592291329458 0.889 2.35051590354e-38
-0.00327570195332 -0.0589626351597 0.885 2.35080064739e-38
-0.00163229893945 -0.0587627618202 0.882 1.53782094812e-38
0.0 -0.0587627618202 0.882 2.00672007714e-38
0.00162859758131 -0.0586295129272 0.88 1.93372195597e-38
0.00324979244634 -0.0584962640342 0.878 2.12726215325e-38
0.00485803255789 -0.0582963906946 0.875 2.19190475205e-38
0.00646257131129 -0.0581631418016 0.873 2.05361074674e-38
0.00807821413911 -0.0581631418016 0.873 2.17339500064e-38
0.0096716488181 -0.0580298929086 0.871 2.16417389622e-38
0.0112835902878 -0.0580298929086 0.871 1.97981921039e-38
0.0128659208924 -0.0578966440156 0.869 2.00744300701e-38
0.0144741610039 -0.0578966440156 0.869 1.87840625962e-38
0.015989867162 -0.057563521783 0.864 1.78642390738e-38
0.0171613470131 -0.0561644084064 0.843 1.77738567241e-38
0.0187214694688 -0.0561644084064 0.843 1.92454106883e-38
0.0202815919245 -0.0561644084064 0.843 2.09059717893e-38
0.0218417143803 -0.0561644084064 0.843 2.20108676024e-38
0.0233463164639 -0.0560311595134 0.841 2.15510006828e-38
0.0249027375615 -0.0560311595134 0.841 2.21978190344e-38
0.0264591586591 -0.0560311595134 0.841 2.1735398949e-38
0.0280155797567 -0.0560311595134 0.841 2.16432159308e-38
0.0296423266589 -0.0561644084064 0.843 2.12783444354e-38
0.0310543947891 -0.0558979106203 0.839 2.21999279886e-38
0.0326071145285 -0.0558979106203 0.839 2.28442422199e-38
0.034159834268 -0.0558979106203 0.839 2.2841036049e-38
0.0357976852446 -0.0560311595134 0.841 2.34910661768e-38
0.0373541063422 -0.0560311595134 0.841 2.34896074251e-38
0.0389105274398 -0.0560311595134 0.841 2.34907200561e-38
0.0404669485374 -0.0560311595134 0.841 2.34846103947e-38
0.042023369635 -0.0560311595134 0.841 2.3487480254e-38
0.0436834287605 -0.0561644084064 0.843 2.34946605073e-38
0.0466389632348 -0.0578966440156 0.869 2.35097987346e-38
0.0482472033463 -0.0578966440156 0.869 2.350988001e-38
0.0498554434579 -0.0578966440156 0.869 2.35098730035e-38
0.0514636835694 -0.0578966440156 0.869 2.350988001e-38
0.053071923681 -0.0578966440156 0.869 2.35098856151e-38
0.0546801637925 -0.0578966440156 0.869 2.35098786087e-38
0.056288403904 -0.0578966440156 0.869 2.35098645957e-38
0.0578966440156 -0.0578966440156 0.869 2.35098575892e-38
0.0595048841271 -0.0578966440156 0.869 2.35098281619e-38
0.0611131242387 -0.0578966440156 0.869 2.3509795932e-38
0.0627213643502 -0.0578966440156 0.869 2.35058456717e-38
0.0643296044618 -0.0578966440156 0.869 2.35058288561e-38
-0.00822626846469 -0.0575838792528 0.889 2.35033177292e-38
-0.00658101477175 -0.0575838792528 0.889 2.35033331435e-38
-0.00492465700439 -0.0574543317179 0.887 2.35004660869e-38
-0.0032645978789 -0.0571304628807 0.882 2.35098253593e-38
-0.00162859758131 -0.0570009153459 0.88 1.52842243932e-38
0.0 -0.0570009153459 0.88 1.95165633424e-38
0.00162489622317 -0.056871367811 0.878 1.97982075182e-38
0.00323868837192 -0.0566770465087 0.875 2.0721587536e-38
0.00484692848347 -0.0565474989738 0.873 2.02606149919e-38
0.00644776587873 -0.0564179514389 0.871 2.20101641506e-38
0.00805970734842 -0.0564179514389 0.871 2.15491888039e-38
0.00964944066926 -0.056288403904 0.869 2.08112706377e-38
0.0112576807808 -0.056288403904 0.869 2.13644416143e-38
0.0127918937296 -0.0559645350669 0.864 1.99822358416e-38
0.0143575682225 -0.055834987532 0.862 1.98921477646e-38
0.0159528535806 -0.055834987532 0.862 1.8599298591e-38
0.01742599412 -0.0554463449273 0.856 1.83223585742e-38
0.0188103020641 -0.0548633810204 0.847 1.88741072329e-38
0.0203297095803 -0.0547338334855 0.845 2.03499561768e-38
0.0218935333942 -0.0547338334855 0.845 2.07219434658e-38
0.023401836836 -0.0546042859506 0.843 2.15492028168e-38
0.0249619592917 -0.0546042859506 0.843 2.29328407166e-38
0.0265220817475 -0.0546042859506 0.843 2.25644295413e-38
0.0280822042032 -0.0546042859506 0.843 2.32072401793e-38
0.0296423266589 -0.0546042859506 0.843 2.34899759666e-38
0.0311284219519 -0.0544747384158 0.841 2.34863648204e-38
0.0326071145285 -0.0543451908809 0.839 2.34928542336e-38
0.034159834268 -0.0543451908809 0.839 2.34874732475e-38
0.0358828164819 -0.0546042859506 0.843 2.34892528966e-38
0.0374429389376 -0.0546042859506 0.843 2.34870948969e-38
0.0390030613933 -0.0546042859506 0.843 2.3491433317e-38
0.040563183849 -0.0546042859506 0.843 2.34867655918e-38
0.0421233063048 -0.0546042859506 0.843 2.3491766826e-38
0.0445643519977 -0.0557054399971 0.86 2.35029660033e-38
0.0462632753836 -0.055834987532 0.862 2.35098491814e-38
0.0479696014859 -0.0559645350669 0.864 2.3509851984e-38
0.0497407013555 -0.0561588563692 0.867 2.35098645957e-38
0.0514636835694 -0.056288403904 0.869 2.35098702009e-38
0.053071923681 -0.056288403904 0.869 2.35098814113e-38
0.0546801637925 -0.056288403904 0.869 2.35098730035e-38
0.056288403904 -0.056288403904 0.869 2.35098631944e-38
0.0578966440156 -0.056288403904 0.869 2.35098393723e-38
0.0595048841271 -0.056288403904 0.869 2.35098295632e-38
0.0611131242387 -0.056288403904 0.869 2.35098071424e-38
0.0627213643502 -0.056288403904 0.869 2.35068966455e-38
0.0644776587873 -0.0564179514389 0.871 2.35025988631e-38
0.066089600257 -0.0564179514389 0.871 2.35098645957e-38
-0.0131620295435 -0.0559386255599 0.889 2.35055037548e-38
-0.0115167758506 -0.0559386255599 0.889 2.35026198826e-38
-0.00987152215763 -0.0559386255599 0.889 2.35029870228e-38
-0.00822626846469 -0.0559386255599 0.889 2.35022513411e-38
-0.00658101477175 -0.0559386255599 0.889 2.35040856408e-38
-0.00492465700439 -0.0558127793831 0.887 2.35008178128e-38
-0.00325719516262 -0.0553723177646 0.88 2.35098323658e-38
-0.00162859758131 -0.0553723177646 0.88 1.57430319312e-38
0.0 -0.0552464715878 0.878 1.9792722836e-38
0.00162489622317 -0.0552464715878 0.878 1.95219779597e-38
0.00323128565565 -0.054931856146 0.873 2.03538798125e-38
0.00483582440905 -0.0548060099692 0.871 2.00762433504e-38
0.00644776587873 -0.0548060099692 0.871 2.14577330596e-38
0.00805970734842 -0.0548060099692 0.871 2.15495559441e-38
0.00964944066926 -0.0546801637925 0.869 2.05354040156e-38
0.0112576807808 -0.0546801637925 0.869 2.13637381625e-38
0.0127918937296 -0.0543655483507 0.864 2.09960136234e-38
0.0143575682225 -0.0542397021739 0.862 1.99836553569e-38
0.0159528535806 -0.0542397021739 0.862 2.02584471832e-38
0.0174667090596 -0.0539880098204 0.858 1.97978417793e-38
0.0188991346595 -0.0535475482019 0.851 1.97974732378e-38
0.020425944892 -0.0534217020251 0.849 2.02591898714e-38
0.0219453524082 -0.0532958558484 0.847 2.00762083179e-38
0.0234573572081 -0.0531700096716 0.845 2.10892812466e-38
0.0249619592917 -0.0530441634949 0.843 2.18283106424e-38
0.0265220817475 -0.0530441634949 0.843 2.25640806179e-38
0.0280822042032 -0.0530441634949 0.843 2.29317897428e-38
0.0296423266589 -0.0530441634949 0.843 2.3486743171e-38
0.0312024491147 -0.0530441634949 0.843 2.30228867546e-38
0.0327625715704 -0.0530441634949 0.843 2.34849453051e-38
0.0343226940261 -0.0530441634949 0.843 2.34859990815e-38
0.0359679477191 -0.0531700096716 0.845 2.3485297031e-38
0.0375317715329 -0.0531700096716 0.845 2.34874648397e-38
0.0390955953468 -0.0531700096716 0.845 2.3488550846e-38
0.040563183849 -0.0530441634949 0.843 2.34889319992e-38
0.0421233063048 -0.0530441634949 0.843 2.35003946206e-38
0.0445643519977 -0.0541138559972 0.86 2.35098197541e-38
0.0462632753836 -0.0542397021739 0.862 2.35098197541e-38
0.0478585607417 -0.0542397021739 0.862 2.35098393723e-38
0.0495685882021 -0.0543655483507 0.864 2.35098547866e-38
0.051345240109 -0.0545543176158 0.867 2.35098491814e-38
0.0529497788624 -0.0545543176158 0.867 2.35098687996e-38
0.0545543176158 -0.0545543176158 0.867 2.35098631944e-38
0.0561588563692 -0.0545543176158 0.867 2.35098547866e-38
0.0578966440156 -0.0546801637925 0.869 2.3509837971e-38
0.0595048841271 -0.0546801637925 0.869 2.35098141489e-38
0.0611131242387 -0.0546801637925 0.869 2.35098225567e-38
0.0627213643502 -0.0546801637925 0.869 2.3506514091e-38
0.0644776587873 -0.0548060099692 0.871 2.34997135896e-38
0.066089600257 -0.0548060099692 0.871 2.35098127476e-38
-0.0131324186784 -0.0541712270483 0.887 2.35026058696e-38
-0.0114908663436 -0.0541712270483 0.887 2.35036736591e-38
-0.00987152215763 -0.0542933718669 0.889 2.35062002002e-38
-0.00822626846469 -0.0542933718669 0.889 2.35051071874e-38
-0.00656620933919 -0.0541712270483 0.887 2.35022233151e-38
-0.00492465700439 -0.0541712270483 0.887 2.35029617994e-38
-0.00325719516262 -0.0537437201832 0.88 2.35079952635e-38
-0.00162489622317 -0.0536215753646 0.878 1.56515397532e-38
0.0 -0.0536215753646 0.878 1.93285217002e-38
0.00161934418596 -0.0534383581368 0.875 1.89670063146e-38
0.00323128565565 -0.0533162133182 0.873 2.02598933232e-38
0.00483582440905 -0.0531940684996 0.871 2.02602646673e-38
0.00644776587873 -0.0531940684996 0.871 2.15499062687e-38
0.00805970734842 -0.0531940684996 0.871 2.18268518907e-38
0.00964944066926 -0.053071923681 0.869 2.21055841682e-38
0.0112576807808 -0.053071923681 0.869 2.0812732192e-38
0.0127918937296 -0.0527665616345 0.864 2.0813069905e-38
0.0143908804458 -0.0527665616345 0.864 2.09045368596e-38
0.0159528535806 -0.0526444168159 0.862 2.03524196595e-38
0.0175074239991 -0.0525222719973 0.86 1.97056433468e-38
0.0190545917013 -0.0524001271787 0.858 1.97052958248e-38
0.0205462390315 -0.0521558375415 0.854 2.02584668014e-38
0.0220489904361 -0.0519726203136 0.851 2.05372060854e-38
0.0235128775802 -0.0517283306764 0.847 2.16435494399e-38
0.025021181022 -0.0516061858578 0.845 2.09056340763e-38
0.0265850048358 -0.0516061858578 0.845 2.24708115935e-38
0.0281488286497 -0.0516061858578 0.845 2.32087297596e-38
0.0297126524636 -0.0516061858578 0.845 2.30253922763e-38
0.0312764762774 -0.0516061858578 0.845 2.34849467064e-38
0.0328403000913 -0.0516061858578 0.845 2.33923979493e-38
0.0344041239052 -0.0516061858578 0.845 2.34849579168e-38
0.0361382101935 -0.051850475495 0.849 2.34874592345e-38
0.0377094367236 -0.051850475495 0.849 2.34863942477e-38
0.0393731972073 -0.0519726203136 0.851 2.3488536833e-38
0.041092478063 -0.0521558375415 0.854 2.34996617416e-38
0.0429727679978 -0.0525222719973 0.86 2.35051562328e-38
0.0445643519977 -0.0525222719973 0.86 2.35098127476e-38
0.0462632753836 -0.0526444168159 0.862 2.35098421749e-38
0.0478585607417 -0.0526444168159 0.862 2.35098281619e-38
0.0494538460997 -0.0526444168159 0.862 2.35098645957e-38
0.0510491314578 -0.0526444168159 0.862 2.35098631944e-38
0.0527665616345 -0.0527665616345 0.864 2.35098575892e-38
0.0543655483507 -0.0527665616345 0.864 2.35098547866e-38
0.0561588563692 -0.0529497788624 0.867 2.35098463788e-38
0.0577633951226 -0.0529497788624 0.867 2.35098267606e-38
0.0595048841271 -0.053071923681 0.869 2.35098197541e-38
0.0611131242387 -0.053071923681 0.869 2.35087379517e-38
0.0627213643502 -0.053071923681 0.869 2.35026268891e-38
0.0643296044618 -0.053071923681 0.869 2.3501142914e-38
0.0659378445733 -0.053071923681 0.869 2.35098393723e-38
-0.0131324186784 -0.0525296747135 0.887 2.35036624487e-38
-0.0114908663436 -0.0525296747135 0.887 2.35050791614e-38
-0.00992704252972 -0.0529442268251 0.894 2.35033233344e-38
-0.00822626846469 -0.052648118174 0.889 2.3506222621e-38
-0.00656620933919 -0.0525296747135 0.887 2.35044191498e-38
-0.00492465700439 -0.0525296747135 0.887 2.35051366147e-38
-0.00325719516262 -0.0521151226019 0.88 2.35098113463e-38
-0.00162489622317 -0.0519966791415 0.878 1.5102328846e-38
0.0 -0.0519966791415 0.878 1.94222027064e-38
0.00161934418596 -0.0518190139508 0.875 1.98900528234e-38
0.00323128565565 -0.0517005704903 0.873 2.04442831816e-38
0.00483582440905 -0.0515821270299 0.871 2.07215903386e-38
0.00644776587873 -0.0515821270299 0.871 2.0904562083e-38
0.00804120055772 -0.0514636835694 0.869 2.14569875688e-38
0.00964944066926 -0.0514636835694 0.869 2.15506125231e-38
0.0112317712738 -0.051345240109 0.867 2.09052683374e-38
0.0127918937296 -0.0511675749183 0.864 2.09981828334e-38
0.0143575682225 -0.0510491314578 0.862 2.06286744414e-38
0.0159528535806 -0.0510491314578 0.862 2.04442831816e-38
0.0175074239991 -0.0509306879973 0.86 2.11814768764e-38
0.019099007999 -0.0509306879973 0.86 2.07190694027e-38
0.0206424743431 -0.0508122445369 0.858 2.09974639673e-38
0.0222303569849 -0.0508122445369 0.858 2.05364760089e-38
0.0237627192546 -0.0506938010764 0.856 2.09042117584e-38
0.0253469005382 -0.0506938010764 0.856 2.2470443052e-38
0.0268681587335 -0.050575357616 0.854 2.22856958624e-38
0.028448638659 -0.050575357616 0.854 2.31175907088e-38
0.0300291185845 -0.050575357616 0.854 2.24729401658e-38
0.03160959851 -0.050575357616 0.854 2.34878151643e-38
0.0331900784355 -0.050575357616 0.854 2.25633575479e-38
0.034770558361 -0.050575357616 0.854 2.34882145344e-38
0.0363510382865 -0.050575357616 0.854 2.34878305786e-38
0.037931518212 -0.050575357616 0.854 2.34931807362e-38
0.039604532091 -0.0506938010764 0.856 2.34975597939e-38
0.0412849486862 -0.0508122445369 0.858 2.35073002195e-38
0.0429727679978 -0.0509306879973 0.86 2.35097987346e-38
0.0445643519977 -0.0509306879973 0.86 2.35098085437e-38
0.0462632753836 -0.0510491314578 0.862 2.35098071424e-38
0.0478585607417 -0.0510491314578 0.862 2.35098351684e-38
0.0494538460997 -0.0510491314578 0.862 2.35098617931e-38
0.0510491314578 -0.0510491314578 0.862 2.35098828126e-38
0.0527665616345 -0.0511675749183 0.864 2.35098463788e-38
0.0543655483507 -0.0511675749183 0.864 2.35098351684e-38
0.0561588563692 -0.051345240109 0.867 2.35098407736e-38
0.0577633951226 -0.051345240109 0.867 2.35098225567e-38
0.0595048841271 -0.0514636835694 0.869 2.35098071424e-38
0.0611131242387 -0.0514636835694 0.869 2.35094456074e-38
0.0627213643502 -0.0514636835694 0.869 2.35033485578e-38
0.0643296044618 -0.0514636835694 0.869 2.35061707729e-38
0.0659378445733 -0.0514636835694 0.869 2.35090826711e-38
-0.00487468866951 -0.0503717829183 0.878 2.3502964602e-38
-0.00324979244634 -0.0503717829183 0.878 2.35080190856e-38
-0.00162489622317 -0.0503717829183 0.878 1.86093374932e-38
0.0 -0.0501996697648 0.875 1.89640958177e-38
0.00161934418596 -0.0501996697648 0.875 1.90606663013e-38
0.00323128565565 -0.0500849276625 0.873 2.07219434658e-38
0.00483582440905 -0.0499701855602 0.871 1.92461197453e-38
0.00644776587873 -0.0499701855602 0.871 2.09052627322e-38
0.00804120055772 -0.0498554434579 0.869 2.11818482205e-38
0.00964944066926 -0.0498554434579 0.869 2.15488398805e-38
0.0111929070134 -0.0495685882021 0.864 2.15485021676e-38
0.0127918937296 -0.0495685882021 0.864 2.16413984467e-38
0.0143575682225 -0.0494538460997 0.862 2.20123319593e-38
0.0159528535806 -0.0494538460997 0.862 2.053755641e-38
0.0175074239991 -0.0493391039974 0.86 2.12726187299e-38
0.019099007999 -0.0493391039974 0.86 2.16410299052e-38
0.0206905919989 -0.0493391039974 0.86 2.1456993174e-38
0.0222303569849 -0.0492243618951 0.858 2.11807790298e-38
0.0238182396267 -0.0492243618951 0.858 2.1733243752e-38
0.0254061222684 -0.0492243618951 0.858 2.30232637039e-38
0.0269310818219 -0.0491096197928 0.856 2.26562566296e-38
0.028448638659 -0.0489948776905 0.854 2.28406675075e-38
0.0300291185845 -0.0489948776905 0.854 2.27495284567e-38
0.03160959851 -0.0489948776905 0.854 2.34892444888e-38
0.0331900784355 -0.0489948776905 0.854 2.34888969667e-38
0.03485198824 -0.0491096197928 0.856 2.34903403042e-38
0.0364361695237 -0.0491096197928 0.856 2.34946549021e-38
0.0380203508073 -0.0491096197928 0.856 2.34986359911e-38
0.0396970660444 -0.0492243618951 0.858 2.3507251174e-38
0.0412849486862 -0.0492243618951 0.858 2.35079560272e-38
0.0429727679978 -0.0493391039974 0.86 2.3509809945e-38
0.0445643519977 -0.0493391039974 0.86 2.35098085437e-38
0.0462632753836 -0.0494538460997 0.862 2.35098295632e-38
0.0478585607417 -0.0494538460997 0.862 2.35098267606e-38
0.0494538460997 -0.0494538460997 0.862 2.35098491814e-38
0.0510491314578 -0.0494538460997 0.862 2.35098491814e-38
0.0526444168159 -0.0494538460997 0.862 2.35098603918e-38
0.0543655483507 -0.0495685882021 0.864 2.35098141489e-38
0.0559645350669 -0.0495685882021 0.864 2.35098365697e-38
0.0577633951226 -0.0497407013555 0.867 2.35098029385e-38
0.059367933876 -0.0497407013555 0.867 2.35098001359e-38
0.0611131242387 -0.0498554434579 0.869 2.35065379131e-38
0.0627213643502 -0.0498554434579 0.869 2.3502978615e-38
0.0643296044618 -0.0498554434579 0.869 2.35022513411e-38
0.0659378445733 -0.0498554434579 0.869 2.35098281619e-38
0.0675460846849 -0.0498554434579 0.869 2.35098631944e-38
-0.00487468866951 -0.0487468866951 0.878 2.35040225824e-38
-0.00324979244634 -0.0487468866951 0.878 2.35098155502e-38
-0.00161934418596 -0.0485803255789 0.875 1.75073465718e-38
0.0 -0.0485803255789 0.875 1.87746500744e-38
0.00161564282782 -0.0484692848347 0.873 1.90599081989e-38
0.00323128565565 -0.0484692848347 0.873 1.98914835491e-38
0.00483582440905 -0.0483582440905 0.871 2.04450104555e-38
0.00644776587873 -0.0483582440905 0.871 2.09063375282e-38
0.00804120055772 -0.0482472033463 0.869 2.15506321413e-38
0.00964944066926 -0.0482472033463 0.869 2.13644444169e-38
0.0111929070134 -0.0479696014859 0.864 2.26559133115e-38
0.0127622828645 -0.0478585607417 0.862 2.16410355104e-38
0.0143575682225 -0.0478585607417 0.862 2.26551776298e-38
0.0159528535806 -0.0478585607417 0.862 2.13669415308e-38
0.0175481389386 -0.0478585607417 0.862 2.19176153935e-38
0.019099007999 -0.0477475199975 0.86 2.12708390808e-38
0.0206905919989 -0.0477475199975 0.86 2.16399789314e-38
0.0222821759988 -0.0477475199975 0.86 2.19179909415e-38
0.0238737599988 -0.0477475199975 0.86 2.21016591312e-38
0.0254653439987 -0.0477475199975 0.86 2.28391779273e-38
0.0269940049102 -0.0476364792533 0.858 2.28413443347e-38
0.0285152631055 -0.0475254385092 0.856 2.34860313114e-38
0.0300994443891 -0.0475254385092 0.856 2.33920266052e-38
0.0316836256728 -0.0475254385092 0.856 2.34903276925e-38
0.0332678069564 -0.0475254385092 0.856 2.34935436725e-38
0.0349334181191 -0.0476364792533 0.858 2.34961010422e-38
0.0365213007609 -0.0476364792533 0.858 2.34953667618e-38
0.0381091834027 -0.0476364792533 0.858 2.3502926767e-38
