# .PCD v0.7 - Point Cloud Data file format
VERSION 0.7
FIELDS x y z rgb
SIZE 4 4 4 4
TYPE F F F F
COUNT 1 1 1 1
WIDTH 863
HEIGHT 1
VIEWPOINT 0 0 0 1 0 0 0
POINTS 863
DATA ascii
0.0426470484815 -0.147741560811 0.823 1.45416216863e-38
0.0441701573558 -0.147741560811 0.823 1.71198370997e-38
0.045582225486 -0.147382529071 0.821 1.79564921569e-38
0.0469868908999 -0.147023497332 0.819 1.9890055626e-38
0.0483841535975 -0.146664465592 0.817 1.915427444e-38
0.0497740135788 -0.146305433853 0.815 1.82316048805e-38
0.0512823170206 -0.146305433853 0.815 1.98897039001e-38
0.0526610729275 -0.145946402113 0.813 1.89688223974e-38
0.0541656750111 -0.145946402113 0.813 1.84153024975e-38
0.0555333268436 -0.145587370374 0.811 1.76798828465e-38
0.0567529243505 -0.144869306895 0.807 1.71270776088e-38
0.0581020693923 -0.144510275155 0.805 1.61118466805e-38
0.059369784555 -0.143971727546 0.802 1.58331158043e-38
0.0605505178015 -0.143253664067 0.798 1.76791793947e-38
0.0620273596991 -0.143253664067 0.798 1.70348847816e-38
0.0633450431967 -0.142894632327 0.796 1.80490381114e-38
0.0644924642199 -0.142176568848 0.792 1.86000440818e-38
0.0657916409268 -0.141817537109 0.79 1.86908075846e-38
0.0671685461546 -0.141638021239 0.789 2.03517736609e-38
0.0686287319406 -0.141638021239 0.789 1.94308795465e-38
0.0700889177266 -0.141638021239 0.789 2.09035083066e-38
0.0715491035126 -0.141638021239 0.789 2.11818902595e-38
0.0730092892985 -0.141638021239 0.789 2.02588451519e-38
0.0744694750845 -0.141638021239 0.789 2.21009500742e-38
0.0759296608705 -0.141638021239 0.789 2.15474301743e-38
0.0773898466564 -0.141638021239 0.789 2.25623037715e-38
0.0788500324424 -0.141638021239 0.789 2.25637274907e-38
0.0803102182284 -0.141638021239 0.789 2.19176378143e-38
0.0817704040143 -0.141638021239 0.789 2.22867958817e-38
0.0832305898003 -0.141638021239 0.789 2.29321652908e-38
0.0847981149723 -0.141817537109 0.79 2.3299496065e-38
0.0862601514374 -0.141817537109 0.79 2.34835285923e-38
0.0877221879024 -0.141817537109 0.79 2.348967749e-38
0.0891842243674 -0.141817537109 0.79 2.35069555001e-38
0.0939737817998 -0.147023497332 0.819 2.3509851984e-38
0.095256302395 -0.146664465592 0.817 2.35098702009e-38
0.096768307195 -0.146664465592 0.817 2.35098547866e-38
0.0982803119949 -0.146664465592 0.817 2.35098393723e-38
0.0997923167948 -0.146664465592 0.817 2.35098505827e-38
0.101304321595 -0.146664465592 0.817 2.35091303153e-38
0.0397933013561 -0.146929112699 0.827 2.34950640813e-38
0.0411239396072 -0.146218451937 0.823 2.35008304245e-38
0.0426470484815 -0.146218451937 0.823 1.23238931055e-38
0.0440628179698 -0.145863121555 0.821 1.66646519182e-38
0.0454711847418 -0.145507791174 0.819 1.74018694351e-38
0.0469868908999 -0.145507791174 0.819 1.91524849819e-38
0.0483841535975 -0.145152460792 0.817 1.84159989428e-38
0.0497740135788 -0.144797130411 0.815 1.9523425501e-38
0.0511564708438 -0.14444180003 0.813 1.95234226984e-38
0.0525315253926 -0.144086469648 0.811 1.80475919713e-38
0.0540324261181 -0.144086469648 0.811 1.85078638662e-38
0.0555333268436 -0.144086469648 0.811 1.74944153896e-38
0.0567529243505 -0.143375808886 0.807 1.66636037469e-38
0.0581020693923 -0.143020478504 0.805 1.7863197909e-38
0.0594438117178 -0.142665148123 0.803 1.74025700843e-38
0.0607022734852 -0.142132152551 0.8 1.73110933206e-38
0.0621828167409 -0.142132152551 0.8 1.70355854308e-38
0.0635042015967 -0.141776822169 0.798 1.8417450688e-38
0.0648181837362 -0.141421491788 0.796 1.79575459333e-38
0.0659582020431 -0.140710831025 0.792 1.90624823841e-38
0.0672536773918 -0.140355500644 0.79 2.01677425349e-38
0.0686287319406 -0.140177835453 0.789 1.97056881883e-38
0.0700889177266 -0.140177835453 0.789 2.11797420689e-38
0.0715491035126 -0.140177835453 0.789 2.09978493244e-38
0.0730092892985 -0.140177835453 0.789 2.17328962299e-38
0.0744694750845 -0.140177835453 0.789 2.15481490404e-38
0.0759296608705 -0.140177835453 0.789 2.19198084256e-38
0.0774879326471 -0.140355500644 0.79 2.19205118774e-38
0.0789499691122 -0.140355500644 0.79 2.21953009011e-38
0.0806155802749 -0.140710831025 0.792 2.30232819208e-38
0.0818740420422 -0.140355500644 0.79 2.34849859427e-38
0.0833360785073 -0.140355500644 0.79 2.31158278753e-38
0.0850127937444 -0.140710831025 0.792 2.34856921972e-38
0.0864785315676 -0.140710831025 0.792 2.34886321213e-38
0.0879442693908 -0.140710831025 0.792 2.349867803e-38
0.0915549442557 -0.144086469648 0.811 2.35098561879e-38
0.0935148133905 -0.144797130411 0.815 2.35098645957e-38
0.0950231168323 -0.144797130411 0.815 2.3509851984e-38
0.096768307195 -0.145152460792 0.817 2.35098687996e-38
0.0982803119949 -0.145152460792 0.817 2.35098533853e-38
0.0997923167948 -0.145152460792 0.817 2.35098645957e-38
0.101304321595 -0.145152460792 0.817 2.35098435762e-38
0.102816326395 -0.145152460792 0.817 2.35055219717e-38
0.104583724906 -0.145507791174 0.819 2.35044023343e-38
0.0382627897654 -0.145398601109 0.827 2.34918382922e-38
0.0397933013561 -0.145398601109 0.827 2.35026114748e-38
0.0413238129467 -0.145398601109 0.827 1.79575417294e-38
0.0426470484815 -0.144695343062 0.823 1.59148101034e-38
0.0440628179698 -0.144343714039 0.821 1.68508662672e-38
0.0454711847418 -0.143992085016 0.819 1.79568396789e-38
0.0468721487976 -0.143640455993 0.817 1.80486485504e-38
0.048265710137 -0.143288826969 0.815 1.95230723738e-38
0.0496518687602 -0.142937197946 0.813 1.82301825625e-38
0.0511564708438 -0.142937197946 0.813 1.91524849819e-38
0.0525315253926 -0.142585568923 0.811 1.86933145076e-38
0.0540324261181 -0.142585568923 0.811 1.82312545559e-38
0.0553963765925 -0.1422339399 0.809 1.79550404117e-38
0.0566122727412 -0.141530681853 0.805 1.81387086014e-38
0.0581020693923 -0.141530681853 0.805 1.76766584587e-38
0.0594438117178 -0.14117905283 0.803 1.79543243482e-38
0.0608540291689 -0.141003238318 0.802 1.7495135657e-38
0.0623382737828 -0.141003238318 0.802 1.69423360245e-38
0.0636633599967 -0.140651609295 0.8 1.84170947582e-38
0.0649810434943 -0.140299980272 0.798 1.79575459333e-38
0.0662913242756 -0.139948351249 0.796 1.86947606476e-38
0.0674239398663 -0.139245093202 0.792 2.07208896894e-38
0.0687157138569 -0.138893464179 0.79 1.97057036026e-38
0.0701777503219 -0.138893464179 0.79 2.11797392663e-38
0.071639786787 -0.138893464179 0.79 2.10903952789e-38
0.073101823252 -0.138893464179 0.79 2.08134650711e-38
0.074563859717 -0.138893464179 0.79 2.17347109115e-38
0.0760258961821 -0.138893464179 0.79 2.17357674905e-38
0.0776841046285 -0.139245093202 0.792 2.20105593168e-38
0.0791498424517 -0.139245093202 0.792 2.20098502597e-38
0.0806155802749 -0.139245093202 0.792 2.31144083599e-38
0.082081318098 -0.139245093202 0.792 2.34849887453e-38
0.0835470559212 -0.139245093202 0.792 2.34846202038e-38
0.0852274725165 -0.139596722225 0.794 2.3486433484e-38
0.0871336719583 -0.140299980272 0.798 2.34964976096e-38
0.0893877990651 -0.141530681853 0.805 2.35084282647e-38
0.0913291614092 -0.1422339399 0.809 2.35098449775e-38
0.0930558449812 -0.142585568923 0.811 2.35098716022e-38
0.0947899312695 -0.142937197946 0.813 2.35098533853e-38
0.0962945333531 -0.142937197946 0.813 2.35098758061e-38
0.0980397237158 -0.143288826969 0.815 2.35098365697e-38
0.0995480271576 -0.143288826969 0.815 2.35098449775e-38
0.101056330599 -0.143288826969 0.815 2.35098337671e-38
0.102816326395 -0.143640455993 0.817 2.3509837971e-38
0.104328331195 -0.143640455993 0.817 2.35058512769e-38
0.038170255812 -0.143520161853 0.825 2.34961669032e-38
0.0396970660444 -0.143520161853 0.825 2.35018954113e-38
0.0411239396072 -0.143172234188 0.823 9.65671766046e-39
0.0426470484815 -0.143172234188 0.823 1.73053003527e-38
0.0440628179698 -0.142824306523 0.821 1.71267300868e-38
0.0454711847418 -0.142476378858 0.819 1.83259739243e-38
0.0468721487976 -0.142128451193 0.817 1.77731476671e-38
0.048265710137 -0.141780523527 0.815 1.8416366083e-38
0.0496518687602 -0.141432595862 0.813 1.93372363753e-38
0.0510306246671 -0.141084668197 0.811 1.87837122715e-38
0.0525315253926 -0.141084668197 0.811 1.92439673508e-38
0.0540324261181 -0.141084668197 0.811 1.90599053963e-38
0.0553963765925 -0.140736740532 0.809 1.84156528221e-38
0.0566122727412 -0.140040885202 0.805 1.84156528221e-38
0.0581020693923 -0.140040885202 0.805 1.79535984756e-38
0.0594438117178 -0.139692957537 0.803 1.86003944064e-38
0.0609299070108 -0.139692957537 0.803 1.82305539066e-38
0.0623382737828 -0.139518993704 0.802 1.84156500195e-38
0.0638225183967 -0.139518993704 0.802 1.95216402467e-38
0.0649810434943 -0.138823138374 0.798 1.94308795465e-38
0.0662913242756 -0.138475210709 0.796 1.93390468529e-38
0.0675942023407 -0.138127283044 0.794 1.94308767439e-38
0.0688896776894 -0.137779355379 0.792 2.03510547948e-38
0.0703554155126 -0.137779355379 0.792 2.06269186144e-38
0.0718211533358 -0.137779355379 0.792 2.09971262544e-38
0.073286891159 -0.137779355379 0.792 2.14588442893e-38
0.0747526289822 -0.137779355379 0.792 2.11815399349e-38
0.0762183668053 -0.137779355379 0.792 2.11797392663e-38
0.0776841046285 -0.137779355379 0.792 2.2192812195e-38
0.0791498424517 -0.137779355379 0.792 2.32991401352e-38
0.0808191549725 -0.138127283044 0.794 2.32069290911e-38
0.0822885941539 -0.138127283044 0.794 2.34856473556e-38
0.0841799881631 -0.138823138374 0.798 2.3486757184e-38
0.0856568300607 -0.138823138374 0.798 2.34975766094e-38
0.0876796222838 -0.139692957537 0.803 2.35076505441e-38
0.0893877990651 -0.140040885202 0.805 2.3509823958e-38
0.0913291614092 -0.140736740532 0.809 2.35098127476e-38
0.0928263607766 -0.140736740532 0.809 2.35098673983e-38
0.0945567457067 -0.141084668197 0.811 2.35098547866e-38
0.0962945333531 -0.141432595862 0.813 2.35098477801e-38
0.0980397237158 -0.141780523527 0.815 2.35098533853e-38
0.0995480271576 -0.141780523527 0.815 2.35098477801e-38
0.101056330599 -0.141780523527 0.815 2.3506959704e-38
0.102564634041 -0.141780523527 0.815 2.35065981689e-38
0.104328331195 -0.142128451193 0.817 2.35051366147e-38
0.106099431064 -0.142476378858 0.819 2.34993786793e-38
0.038170255812 -0.141993351621 0.825 2.34972416991e-38
0.0396970660444 -0.141993351621 0.825 2.35076575506e-38
0.0411239396072 -0.141649125314 0.823 7.71419709155e-39
0.0425434104536 -0.141304899007 0.821 1.67561090638e-38
0.0440628179698 -0.141304899007 0.821 1.70348847816e-38
0.0453601439976 -0.140616446393 0.817 1.76802359737e-38
0.0468721487976 -0.140616446393 0.817 1.83266773761e-38
0.048265710137 -0.140272220086 0.815 1.87855073349e-38
0.0496518687602 -0.139927993779 0.813 1.87858604621e-38
0.0510306246671 -0.139583767472 0.811 1.88766267675e-38
0.0524019778577 -0.139239541165 0.809 1.97042364431e-38
0.0538991772251 -0.139239541165 0.809 1.93368832481e-38
0.0552594263413 -0.138895314858 0.807 1.94297949415e-38
0.0566122727412 -0.138551088551 0.805 1.83231026637e-38
0.0581020693923 -0.138551088551 0.805 1.88759050988e-38
0.0595918660434 -0.138551088551 0.805 1.8969172722e-38
0.0609299070108 -0.138206862244 0.803 1.79539712209e-38
0.0624160023037 -0.138206862244 0.803 1.91496459512e-38
0.0639020975967 -0.138206862244 0.803 1.93351106056e-38
0.0649810434943 -0.137346296477 0.798 1.94283726236e-38
0.0664578853919 -0.137346296477 0.798 2.04446755452e-38
0.0677644648151 -0.13700207017 0.796 1.93383279868e-38
0.069063641522 -0.136657843863 0.794 2.13669877736e-38
0.0705330807033 -0.136657843863 0.794 2.08127349946e-38
0.0720025198846 -0.136657843863 0.794 2.20091313936e-38
0.073286891159 -0.136313617556 0.792 2.08120315428e-38
0.0747526289822 -0.136313617556 0.792 2.13652249402e-38
0.0762183668053 -0.136313617556 0.792 2.31161781999e-38
0.0778802766099 -0.136657843863 0.794 2.30236196337e-38
0.0793497157912 -0.136657843863 0.794 2.34846089934e-38
0.0810227296702 -0.13700207017 0.796 2.34860537322e-38
0.0827031462655 -0.137346296477 0.798 2.34911250313e-38
0.084390965577 -0.137690522784 0.8 2.35018996152e-38
0.0860861876048 -0.13803474909 0.802 2.3505898921e-38
0.0876796222838 -0.138206862244 0.803 2.35098169515e-38
0.0893877990651 -0.138551088551 0.805 2.3509851984e-38
0.0911033785627 -0.138895314858 0.807 2.35098197541e-38
0.0928263607766 -0.139239541165 0.809 2.35098323658e-38
0.0945567457067 -0.139583767472 0.811 2.35098505827e-38
0.0960576464322 -0.139583767472 0.811 2.35098407736e-38
0.0977991354368 -0.139927993779 0.813 2.35098435762e-38
0.0993037375204 -0.139927993779 0.813 2.35087743855e-38
0.100808339604 -0.139927993779 0.813 2.35098449775e-38
0.102564634041 -0.140272220086 0.815 2.3509114901e-38
0.104328331195 -0.140616446393 0.817 2.35022709593e-38
0.106099431064 -0.1409606727 0.819 2.3499015743e-38
0.0365546129841 -0.140126016439 0.823 2.34943452152e-38
0.0380777218585 -0.140126016439 0.823 2.35000919402e-38
0.0396008307328 -0.140126016439 0.823 2.34964892018e-38
0.0410240029374 -0.13978549149 0.821 9.92074471191e-39
0.0425434104536 -0.13978549149 0.821 1.69409137065e-38
0.0439554785838 -0.139444966542 0.819 1.63891594427e-38
0.0453601439976 -0.139104441593 0.817 1.83234726065e-38
0.0467574066952 -0.138763916644 0.815 1.86029139411e-38
0.0481472666766 -0.138423391695 0.813 1.7957211023e-38
0.0495297239416 -0.138082866746 0.811 1.89684692702e-38
0.0510306246671 -0.138082866746 0.811 1.90610194285e-38
0.0524019778577 -0.137742341797 0.809 1.93365329235e-38
0.0538991772251 -0.137742341797 0.809 1.97989375947e-38
0.0552594263413 -0.137401816849 0.807 1.89688195948e-38
0.0566122727412 -0.1370612919 0.805 1.9614542131e-38
0.0581020693923 -0.1370612919 0.805 1.90617242817e-38
0.0595918660434 -0.1370612919 0.805 1.9431933323e-38
0.0609299070108 -0.136720766951 0.803 1.91542842491e-38
0.0624160023037 -0.136720766951 0.803 1.98897039001e-38
0.0639020975967 -0.136720766951 0.803 1.98914989634e-38
0.0653881928896 -0.136720766951 0.803 2.0074448287e-38
0.0664578853919 -0.135869454579 0.798 1.92457792298e-38
0.0679347272895 -0.135869454579 0.798 2.04421700235e-38
0.0692376053545 -0.13552892963 0.796 2.11815245206e-38
0.070710745894 -0.13552892963 0.796 2.14577512765e-38
0.0720025198846 -0.135188404681 0.794 2.20087418326e-38
0.0734719590659 -0.135188404681 0.794 2.31161810025e-38
0.0749413982473 -0.135188404681 0.794 2.28410206348e-38
0.0764108374286 -0.135188404681 0.794 2.348678521e-38
0.0780764485913 -0.13552892963 0.796 2.34881977188e-38
0.0797494624703 -0.135869454579 0.798 2.3490682221e-38
0.0812263043679 -0.135869454579 0.798 2.34932325842e-38
0.0827031462655 -0.135869454579 0.798 2.34985967547e-38
0.0846019429909 -0.136550504477 0.802 2.35055023536e-38
0.0860861876048 -0.136550504477 0.802 2.35062198184e-38
0.087898002414 -0.1370612919 0.805 2.35083806206e-38
0.0893877990651 -0.1370612919 0.805 2.35098337671e-38
0.0911033785627 -0.137401816849 0.807 2.35097847217e-38
0.0928263607766 -0.137742341797 0.809 2.35087295439e-38
0.0945567457067 -0.138082866746 0.811 2.35098547866e-38
0.0960576464322 -0.138082866746 0.811 2.35047946978e-38
0.0977991354368 -0.138423391695 0.813 2.35094806399e-38
0.0993037375204 -0.138423391695 0.813 2.35098421749e-38
0.100808339604 -0.138423391695 0.813 2.35076589519e-38
0.102564634041 -0.138763916644 0.815 2.35051436211e-38
0.104072937483 -0.138763916644 0.815 2.35037142967e-38
0.106099431064 -0.139444966542 0.819 2.34936151387e-38
0.0365546129841 -0.138602907565 0.823 2.349506268e-38
0.0380777218585 -0.138602907565 0.823 2.350334015e-38
0.0396008307328 -0.138602907565 0.823 2.10054121322e-38
0.0410240029374 -0.138266083974 0.821 1.34219884172e-38
0.0425434104536 -0.138266083974 0.821 1.63870112522e-38
0.0438481391977 -0.137592436793 0.817 1.68512292035e-38
0.0452491032535 -0.137255613202 0.815 1.72189229141e-38
0.0466426645929 -0.136918789611 0.813 1.81405078686e-38
0.0481472666766 -0.136918789611 0.813 1.8600397209e-38
0.0495297239416 -0.136581966021 0.811 1.98900528234e-38
0.0509047784904 -0.13624514243 0.809 1.98911332245e-38
0.0522724303229 -0.135908318839 0.807 1.94305432349e-38
0.0537659283321 -0.135908318839 0.807 1.96145393284e-38
0.0551224760902 -0.135571495249 0.805 1.97975068689e-38
0.0566122727412 -0.135571495249 0.805 1.92454106883e-38
0.0581020693923 -0.135571495249 0.805 1.97975068689e-38
0.0595918660434 -0.135571495249 0.805 2.01684445854e-38
0.0609299070108 -0.135234671658 0.803 1.95230723738e-38
0.0624160023037 -0.135234671658 0.803 1.97982313402e-38
0.0639020975967 -0.135234671658 0.803 2.08123790648e-38
0.0653881928896 -0.135234671658 0.803 2.04443070037e-38
0.0668742881826 -0.135234671658 0.803 2.016879491e-38
0.0679347272895 -0.134392612681 0.798 2.15488524922e-38
0.0694115691871 -0.134392612681 0.798 2.17321745612e-38
0.070710745894 -0.134055789091 0.796 2.21006025522e-38
0.0721838864334 -0.134055789091 0.796 2.33902693769e-38
0.0736570269729 -0.134055789091 0.796 2.34835243884e-38
0.0751301675124 -0.134055789091 0.796 2.34867655918e-38
0.0766033080518 -0.134055789091 0.796 2.34860523309e-38
0.0782726205727 -0.134392612681 0.798 2.3491071782e-38
0.0797494624703 -0.134392612681 0.798 2.34950808969e-38
0.0812263043679 -0.134392612681 0.798 2.34990073352e-38
0.0829104223213 -0.134729436272 0.8 2.35015422841e-38
0.0846019429909 -0.135066259863 0.802 2.35043925252e-38
0.0861935269909 -0.135234671658 0.803 2.35061861872e-38
0.0876796222838 -0.135234671658 0.803 2.35098267606e-38
0.0893877990651 -0.135571495249 0.805 2.3505870895e-38
0.0911033785627 -0.135908318839 0.807 2.35098449775e-38
0.0925968765719 -0.135908318839 0.807 2.35091177036e-38
0.0943235601439 -0.13624514243 0.809 2.35098575892e-38
0.0960576464322 -0.136581966021 0.811 2.35098407736e-38
0.0975585471577 -0.136581966021 0.811 2.35098253593e-38
0.0993037375204 -0.136918789611 0.813 2.35098309645e-38
0.100808339604 -0.136918789611 0.813 2.35072890091e-38
0.102312941688 -0.136918789611 0.813 2.35040660226e-38
0.104072937483 -0.137255613202 0.815 2.35015310737e-38
0.0364657803888 -0.136746676458 0.821 2.34968619472e-38
0.037985187905 -0.136746676458 0.821 2.35036890733e-38
0.0395045954212 -0.136746676458 0.821 1.80529813652e-38
0.0410240029374 -0.136746676458 0.821 1.51740220781e-38
0.0424397724257 -0.136413554225 0.819 1.66653735869e-38
0.0438481391977 -0.136080431993 0.817 1.67597370255e-38
0.0452491032535 -0.13574730976 0.815 1.83252648672e-38
0.0466426645929 -0.135414187528 0.813 1.83256025802e-38
0.0480288232161 -0.135081065295 0.811 1.78628419792e-38
0.049407579123 -0.134747943063 0.809 2.01666467195e-38
0.0507789323136 -0.13441482083 0.807 1.92446834144e-38
0.0522724303229 -0.13441482083 0.807 1.97989375947e-38
0.0537659283321 -0.13441482083 0.807 2.04446335062e-38
0.0551224760902 -0.134081698598 0.805 1.97060357104e-38
0.0566122727412 -0.134081698598 0.805 2.06276627039e-38
0.0579577164249 -0.133748576365 0.803 2.13651871051e-38
0.0594438117178 -0.133748576365 0.803 2.02573976106e-38
0.0610816626945 -0.134081698598 0.805 2.08127167778e-38
0.0624160023037 -0.133748576365 0.803 2.10882246675e-38
0.0639020975967 -0.133748576365 0.803 2.14562869196e-38
0.0653881928896 -0.133748576365 0.803 2.09978297062e-38
0.0668742881826 -0.133748576365 0.803 2.13680387475e-38
0.0683603834755 -0.133748576365 0.803 2.24708087909e-38
0.0694115691871 -0.132915770784 0.798 2.32069136768e-38
0.0708884110847 -0.132915770784 0.798 2.34831684586e-38
0.0723652529823 -0.132915770784 0.798 2.34870976995e-38
0.0736570269729 -0.132582648551 0.796 2.34892599031e-38
0.0751301675124 -0.132582648551 0.796 2.34878628085e-38
0.0767957786751 -0.132915770784 0.798 2.34943157879e-38
0.0782726205727 -0.132915770784 0.798 2.34910928014e-38
0.0797494624703 -0.132915770784 0.798 2.34957955591e-38
0.0812263043679 -0.132915770784 0.798 2.35007911881e-38
0.0829104223213 -0.133248893016 0.8 2.35011695387e-38
0.0846019429909 -0.133582015249 0.802 2.35044121433e-38
0.0861935269909 -0.133748576365 0.803 2.35080190856e-38
0.0876796222838 -0.133748576365 0.803 2.35098197541e-38
0.0893877990651 -0.134081698598 0.805 2.35073114299e-38
0.0908775957162 -0.134081698598 0.805 2.35098281619e-38
0.0925968765719 -0.13441482083 0.807 2.35098183528e-38
0.0943235601439 -0.134747943063 0.809 2.35098337671e-38
0.0958207595113 -0.134747943063 0.809 2.35091092958e-38
0.0975585471577 -0.135081065295 0.811 2.35076323272e-38
0.0990594478832 -0.135081065295 0.811 2.35051562328e-38
0.100808339604 -0.135414187528 0.813 2.35044289589e-38
0.102312941688 -0.135414187528 0.813 2.3501560501e-38
0.103817543771 -0.135414187528 0.813 2.35007925894e-38
0.105322145855 -0.135414187528 0.813 2.349361654e-38
0.0363769477935 -0.134897848067 0.819 2.34982982781e-38
0.0378926539515 -0.134897848067 0.819 2.35011905582e-38
0.0394083601096 -0.134897848067 0.819 1.62069037618e-38
0.0409240662676 -0.134897848067 0.819 1.64705006147e-38
0.0423361343978 -0.134568427193 0.817 1.54675786921e-38
0.0437407998117 -0.134239006319 0.815 1.6850137592e-38
0.0451380625093 -0.133909585444 0.813 1.77713498012e-38
0.0466426645929 -0.133909585444 0.813 1.8047942296e-38
0.0480288232161 -0.13358016457 0.811 1.76795297193e-38
0.0492854343044 -0.132921322821 0.807 1.92457638155e-38
0.0507789323136 -0.132921322821 0.807 1.97975012637e-38
0.052142882788 -0.132591901947 0.805 1.99840533257e-38
0.0536326794391 -0.132591901947 0.805 2.08127349946e-38
0.0551224760902 -0.132591901947 0.805 2.04450132581e-38
0.0566122727412 -0.132591901947 0.805 2.02595584129e-38
0.0579577164249 -0.132262481072 0.803 2.07190960274e-38
0.0594438117178 -0.132262481072 0.803 2.09953101716e-38
0.0609299070108 -0.132262481072 0.803 2.20091103741e-38
0.0624160023037 -0.132262481072 0.803 2.1638883116e-38
0.0639020975967 -0.132262481072 0.803 2.25604876887e-38
0.0653881928896 -0.132262481072 0.803 2.20105410999e-38
0.0668742881826 -0.132262481072 0.803 2.21009528768e-38
0.0682752522383 -0.132097770635 0.802 2.28377990496e-38
0.0695855330196 -0.131768349761 0.8 2.34856921972e-38
0.0708884110847 -0.131438928886 0.798 2.34863830373e-38
0.0723652529823 -0.131438928886 0.798 2.34874872605e-38
0.0738420948799 -0.131438928886 0.798 2.34874732475e-38
0.0753189367775 -0.131438928886 0.798 2.34921802091e-38
0.0767957786751 -0.131438928886 0.798 2.34928766544e-38
0.0782726205727 -0.131438928886 0.798 2.34954200111e-38
0.0799493358098 -0.131768349761 0.8 2.34954186098e-38
0.0814298790655 -0.131768349761 0.8 2.34972108705e-38
0.0831176983771 -0.132097770635 0.802 2.35011961634e-38
0.0846019429909 -0.132097770635 0.802 2.35055457938e-38
0.0861935269909 -0.132262481072 0.803 2.3505124003e-38
0.0876796222838 -0.132262481072 0.803 2.35036946785e-38
0.0893877990651 -0.132591901947 0.805 2.35065827547e-38
0.0908775957162 -0.132591901947 0.805 2.35091022893e-38
0.0925968765719 -0.132921322821 0.807 2.35062156145e-38
0.0943235601439 -0.133250743695 0.809 2.35098267606e-38
0.0958207595113 -0.133250743695 0.809 2.35098407736e-38
0.0973179588787 -0.133250743695 0.809 2.35083652063e-38
0.0990594478832 -0.13358016457 0.811 2.35044289589e-38
0.100560348609 -0.13358016457 0.811 2.35058582834e-38
0.102061249334 -0.13358016457 0.811 2.35001031506e-38
0.103817543771 -0.133909585444 0.813 2.34965158265e-38
0.105322145855 -0.133909585444 0.813 2.34982660483e-38
0.0363769477935 -0.133382141909 0.819 2.34976046354e-38
0.0378926539515 -0.133382141909 0.819 2.35044289589e-38
0.039312124798 -0.133056422393 0.817 1.4362612814e-38
0.0408241295979 -0.133056422393 0.817 1.66584665868e-38
0.0422324963699 -0.132730702877 0.815 1.62044150558e-38
0.0437407998117 -0.132730702877 0.815 1.66650204597e-38
0.0451380625093 -0.132404983361 0.813 1.80475485311e-38
0.0465279224906 -0.132079263844 0.811 1.81394120532e-38
0.0479103797556 -0.131753544328 0.809 1.96138386792e-38
0.0492854343044 -0.131427824812 0.807 1.89691699194e-38
0.0507789323136 -0.131427824812 0.807 1.9429078878e-38
0.052142882788 -0.131102105295 0.805 2.05347005637e-38
0.0536326794391 -0.131102105295 0.805 1.99818827144e-38
0.0551224760902 -0.131102105295 0.805 2.00751671531e-38
0.0566122727412 -0.131102105295 0.805 2.05357753597e-38
0.0579577164249 -0.130776385779 0.803 2.15481364287e-38
0.0594438117178 -0.130776385779 0.803 2.09038334078e-38
0.0609299070108 -0.130776385779 0.803 2.13633878379e-38
0.0624160023037 -0.130776385779 0.803 2.25594128928e-38
0.0639020975967 -0.130776385779 0.803 2.26519602485e-38
0.0653881928896 -0.130776385779 0.803 2.26537609171e-38
0.0668742881826 -0.130776385779 0.803 2.34835145793e-38
0.0682752522383 -0.130613526021 0.802 2.34842446558e-38
0.0695855330196 -0.130287806505 0.8 2.34813677901e-38
0.0710660762754 -0.130287806505 0.8 2.34885564512e-38
0.0723652529823 -0.129962086989 0.798 2.34849719298e-38
0.0738420948799 -0.129962086989 0.798 2.34896466614e-38
0.0753189367775 -0.129962086989 0.798 2.34921802091e-38
0.0767957786751 -0.129962086989 0.798 2.34939570555e-38
0.0782726205727 -0.129962086989 0.798 2.34943634321e-38
0.0799493358098 -0.130287806505 0.8 2.3493255005e-38
0.0814298790655 -0.130287806505 0.8 2.35011246971e-38
0.0831176983771 -0.130613526021 0.802 2.34989961248e-38
0.0846019429909 -0.130613526021 0.802 2.35000891376e-38
0.0861935269909 -0.130776385779 0.803 2.35015366789e-38
0.0876796222838 -0.130776385779 0.803 2.35065743469e-38
0.0891657175768 -0.130776385779 0.803 2.35076435376e-38
0.0908775957162 -0.131102105295 0.805 2.35069400858e-38
0.0923673923673 -0.131102105295 0.805 2.35022541437e-38
0.0940903745811 -0.131427824812 0.807 2.35047652706e-38
0.0955838725904 -0.131427824812 0.807 2.3507974244e-38
0.0970773705996 -0.131427824812 0.807 2.35062016015e-38
0.098815158246 -0.131753544328 0.809 2.35054813341e-38
0.100312357613 -0.131753544328 0.809 2.35026142774e-38
0.101809556981 -0.131753544328 0.809 2.35008304245e-38
0.103306756348 -0.131753544328 0.809 2.34939864828e-38
0.104803955715 -0.131753544328 0.809 2.34936235465e-38
0.0362881151981 -0.131544417593 0.817 2.35001017493e-38
0.037800119998 -0.131544417593 0.817 2.35044205511e-38
0.039312124798 -0.131544417593 0.817 1.4081690307e-38
0.0407241929281 -0.131222399435 0.815 1.68432277893e-38
0.0422324963699 -0.131222399435 0.815 1.62026241963e-38
0.0436334604256 -0.130900381277 0.813 1.7494788135e-38
0.0451380625093 -0.130900381277 0.813 1.72174753728e-38
0.0465279224906 -0.130578363119 0.811 1.82316048805e-38
0.0479103797556 -0.130256344961 0.809 1.85074953247e-38
0.0492854343044 -0.129934326803 0.807 1.93365301209e-38
0.0506530861369 -0.129612308644 0.805 1.98918366763e-38
0.052142882788 -0.129612308644 0.805 2.03510127558e-38
0.0536326794391 -0.129612308644 0.805 2.0074448287e-38
0.0551224760902 -0.129612308644 0.805 2.07191142442e-38
0.0566122727412 -0.129612308644 0.805 2.06269158118e-38
0.0579577164249 -0.129290290486 0.803 2.16410733455e-38
0.0594438117178 -0.129290290486 0.803 2.13648185636e-38
0.0609299070108 -0.129290290486 0.803 2.24697171794e-38
0.0624160023037 -0.129290290486 0.803 2.27445216173e-38
0.0639020975967 -0.129290290486 0.803 2.34838873247e-38
0.0653881928896 -0.129290290486 0.803 2.33920294078e-38
0.0667910076244 -0.129129281407 0.802 2.34824369808e-38
0.0682752522383 -0.129129281407 0.802 2.34853278596e-38
0.0695855330196 -0.128807263249 0.8 2.34878375851e-38
0.0710660762754 -0.128807263249 0.8 2.34878544007e-38
0.0725466195311 -0.128807263249 0.8 2.34889235914e-38
0.0738420948799 -0.128485245091 0.798 2.34914445274e-38
0.0753189367775 -0.128485245091 0.798 2.34907144509e-38
0.0767957786751 -0.128485245091 0.798 2.3496133272e-38
0.0784687925541 -0.128807263249 0.8 2.3493964062e-38
0.0799493358098 -0.128807263249 0.8 2.34990059339e-38
0.0814298790655 -0.128807263249 0.8 2.34964793927e-38
0.0829104223213 -0.128807263249 0.8 2.35004394622e-38
0.0846019429909 -0.129129281407 0.802 2.35033331435e-38
0.0860861876048 -0.129129281407 0.802 2.35040281876e-38
0.0875704322187 -0.129129281407 0.802 2.35015240672e-38
0.0891657175768 -0.129290290486 0.803 2.35011821504e-38
0.0906518128697 -0.129290290486 0.803 2.350261708e-38
0.0923673923673 -0.129612308644 0.805 2.35040590161e-38
0.0940903745811 -0.129934326803 0.807 2.35037451253e-38
0.0955838725904 -0.129934326803 0.807 2.35022541437e-38
0.0970773705996 -0.129934326803 0.807 2.35047834874e-38
0.098815158246 -0.130256344961 0.809 2.35040478057e-38
0.100312357613 -0.130256344961 0.809 2.34968759602e-38
0.101809556981 -0.130256344961 0.809 2.34954438332e-38
0.103306756348 -0.130256344961 0.809 2.34957983617e-38
0.104544860646 -0.129934326803 0.807 2.34954354254e-38
0.106038358655 -0.129934326803 0.807 2.34875040761e-38
0.0362881151981 -0.130032412793 0.817 2.3496870355e-38
0.037800119998 -0.130032412793 0.817 2.35044345641e-38
0.0392158894863 -0.129714095993 0.815 1.46355899587e-38
0.0407241929281 -0.129714095993 0.815 1.73979037604e-38
0.042128858342 -0.129395779193 0.813 1.68487124715e-38
0.0436334604256 -0.129395779193 0.813 1.64806516207e-38
0.0450270217651 -0.129077462393 0.811 1.79550432143e-38
0.0464131803883 -0.128759145593 0.809 1.86918669663e-38
0.0477919362952 -0.128440828793 0.807 1.79553809272e-38
0.0491632894858 -0.128122511993 0.805 1.95209241832e-38
0.0506530861369 -0.128122511993 0.805 1.89684566585e-38
0.052142882788 -0.128122511993 0.805 1.95201786924e-38
0.0536326794391 -0.128122511993 0.805 2.07201708233e-38
0.054985525839 -0.127804195193 0.803 2.08120133259e-38
0.0564716211319 -0.127804195193 0.803 2.13648339779e-38
0.0579577164249 -0.127804195193 0.803 2.08123636505e-38
0.0594438117178 -0.127804195193 0.803 2.23778970975e-38
0.0609299070108 -0.127804195193 0.803 2.21931330924e-38
0.0624160023037 -0.127804195193 0.803 2.30221847041e-38
0.0639020975967 -0.127804195193 0.803 2.24690109249e-38
0.0653881928896 -0.127804195193 0.803 2.34838803182e-38
0.0667910076244 -0.127645036793 0.802 2.34860411205e-38
0.0682752522383 -0.127645036793 0.802 2.34863886425e-38
0.0695855330196 -0.127326719993 0.8 2.34874732475e-38
0.0710660762754 -0.127326719993 0.8 2.34896508653e-38
0.0725466195311 -0.127326719993 0.8 2.34889151836e-38
0.0738420948799 -0.127008403193 0.798 2.34889235914e-38
0.0753189367775 -0.127008403193 0.798 2.34943157879e-38
0.0769882492983 -0.127326719993 0.8 2.34968086979e-38
0.0784687925541 -0.127326719993 0.8 2.34946549021e-38
0.0799493358098 -0.127326719993 0.8 2.34946745203e-38
0.0814298790655 -0.127326719993 0.8 2.34943227944e-38
0.0829104223213 -0.127326719993 0.8 2.34971982589e-38
0.0846019429909 -0.127645036793 0.802 2.34979129211e-38
0.0860861876048 -0.127645036793 0.802 2.34947095528e-38
0.0875704322187 -0.127645036793 0.802 2.35001227687e-38
0.0891657175768 -0.127804195193 0.803 2.35029940293e-38
0.0906518128697 -0.127804195193 0.803 2.35029702072e-38
0.0923673923673 -0.128122511993 0.805 2.35015268698e-38
0.0938571890184 -0.128122511993 0.805 2.35008023985e-38
0.0953469856695 -0.128122511993 0.805 2.35011807491e-38
0.0970773705996 -0.128440828793 0.807 2.35015366789e-38
0.0985708686088 -0.128440828793 0.807 2.34975864185e-38
0.100064366618 -0.128440828793 0.807 2.34983277054e-38
0.101809556981 -0.128759145593 0.809 2.35001129597e-38
0.103051362636 -0.128440828793 0.807 2.34918509039e-38
0.104544860646 -0.128440828793 0.807 2.34896550692e-38
0.106038358655 -0.128440828793 0.807 2.34925193233e-38
0.0348612416354 -0.128835023435 0.819 2.34950598774e-38
0.0362881151981 -0.128520407993 0.817 2.34982996794e-38
0.037800119998 -0.128520407993 0.817 2.35033443539e-38
0.0392158894863 -0.128205792551 0.815 1.41703714803e-38
0.0407241929281 -0.128205792551 0.815 1.71220161188e-38
0.042128858342 -0.12789117711 0.813 1.76788038467e-38
0.0435261210396 -0.127576561668 0.811 1.65746100841e-38
0.0450270217651 -0.127576561668 0.811 1.73096710026e-38
0.0464131803883 -0.127261946226 0.809 1.79528950237e-38
0.0477919362952 -0.126947330784 0.807 1.86007503362e-38
0.0491632894858 -0.126632715342 0.805 1.88769798947e-38
0.0506530861369 -0.126632715342 0.805 1.96134883546e-38
0.052142882788 -0.126632715342 0.805 2.00748168285e-38
0.0536326794391 -0.126632715342 0.805 2.08120161285e-38
0.054985525839 -0.1263180999 0.803 2.05350536909e-38
0.0564716211319 -0.1263180999 0.803 2.0627268939e-38
0.0579577164249 -0.1263180999 0.803 2.14559183781e-38
0.0594438117178 -0.1263180999 0.803 2.16403320586e-38
0.0609299070108 -0.1263180999 0.803 2.21931527105e-38
0.0624160023037 -0.1263180999 0.803 2.26534077899e-38
0.0638225183967 -0.126160792179 0.802 2.24683102757e-38
0.0653067630106 -0.126160792179 0.802 2.3299496065e-38
0.0666244465082 -0.125846176738 0.8 2.34842460571e-38
0.0681049897639 -0.125846176738 0.8 2.34871229229e-38
0.0695855330196 -0.125846176738 0.8 2.34885592538e-38
0.0710660762754 -0.125846176738 0.8 2.34903921522e-38
0.0725466195311 -0.125846176738 0.8 2.34903627249e-38
0.0740271627868 -0.125846176738 0.8 2.3489663477e-38
0.0755077060426 -0.125846176738 0.8 2.34910773872e-38
0.0769882492983 -0.125846176738 0.8 2.34903921522e-38
0.0784687925541 -0.125846176738 0.8 2.34918158714e-38
0.0799493358098 -0.125846176738 0.8 2.34918102663e-38
0.0814298790655 -0.125846176738 0.8 2.34932578076e-38
0.0829104223213 -0.125846176738 0.8 2.34964681824e-38
0.0846019429909 -0.126160792179 0.802 2.34957507175e-38
0.0860861876048 -0.126160792179 0.802 2.34957619279e-38
0.0875704322187 -0.126160792179 0.802 2.34979493548e-38
0.0890546768326 -0.126160792179 0.802 2.34993828832e-38
0.0906518128697 -0.1263180999 0.803 2.3492917292e-38
0.0921379081626 -0.1263180999 0.803 2.34983291067e-38
0.0938571890184 -0.126632715342 0.805 2.34972010614e-38
0.0953469856695 -0.126632715342 0.805 2.34954116033e-38
0.0970773705996 -0.126947330784 0.807 2.34965046161e-38
0.0985708686088 -0.126947330784 0.807 2.35001185649e-38
0.100064366618 -0.126947330784 0.807 2.34922166428e-38
0.101557864627 -0.126947330784 0.807 2.34946773229e-38
0.103051362636 -0.126947330784 0.807 2.349361654e-38
0.104544860646 -0.126947330784 0.807 2.34839097455e-38
0.106038358655 -0.126947330784 0.807 2.34954200111e-38
0.0348612416354 -0.127319317277 0.819 2.34972248835e-38
0.0363769477935 -0.127319317277 0.819 2.34990199469e-38
0.037800119998 -0.127008403193 0.817 2.35044023343e-38
0.0392158894863 -0.12669748911 0.815 1.45373154961e-38
0.0407241929281 -0.12669748911 0.815 1.82291063653e-38
0.042128858342 -0.126386575026 0.813 1.67564720001e-38
0.0435261210396 -0.126075660942 0.811 1.66646519182e-38
0.0450270217651 -0.126075660942 0.811 1.7586575987e-38
0.0464131803883 -0.125764746859 0.809 1.74933812313e-38
0.0477919362952 -0.125453832775 0.807 1.83234726065e-38
0.0491632894858 -0.125142918691 0.805 1.84153151092e-38
0.0506530861369 -0.125142918691 0.805 1.93386965283e-38
0.052142882788 -0.125142918691 0.805 1.97989530089e-38
0.0536326794391 -0.125142918691 0.805 1.94287677897e-38
0.054985525839 -0.124832004607 0.803 2.07194673715e-38
0.0564716211319 -0.124832004607 0.803 2.16414558999e-38
0.0579577164249 -0.124832004607 0.803 2.15492056194e-38
0.059369784555 -0.124676547566 0.802 2.19165560119e-38
0.0608540291689 -0.124676547566 0.802 2.22849952132e-38
0.0623382737828 -0.124676547566 0.802 2.3115464939e-38
0.0638225183967 -0.124676547566 0.802 2.31161781999e-38
0.0653067630106 -0.124676547566 0.802 2.2746717452e-38
0.0666244465082 -0.124365633482 0.8 2.34856837894e-38
0.0681049897639 -0.124365633482 0.8 2.34846005857e-38
0.0695855330196 -0.124365633482 0.8 2.34846075921e-38
0.0708884110847 -0.124054719398 0.798 2.34867754009e-38
0.0723652529823 -0.124054719398 0.798 2.34889179862e-38
0.0738420948799 -0.124054719398 0.798 2.34877969475e-38
0.0755077060426 -0.124365633482 0.8 2.34918032598e-38
0.0769882492983 -0.124365633482 0.8 2.34910773872e-38
0.0784687925541 -0.124365633482 0.8 2.34918158714e-38
0.0799493358098 -0.124365633482 0.8 2.34936053296e-38
0.0814298790655 -0.124365633482 0.8 2.34946885333e-38
0.0829104223213 -0.124365633482 0.8 2.34964737875e-38
0.0846019429909 -0.124676547566 0.802 2.34935955205e-38
0.0858715088327 -0.124365633482 0.8 2.34943298009e-38
0.0873520520885 -0.124365633482 0.8 2.34968367238e-38
0.0890546768326 -0.124676547566 0.802 2.34943143866e-38
0.0905389214464 -0.124676547566 0.802 2.3499377278e-38
0.0921379081626 -0.124832004607 0.803 2.34961304694e-38
0.0938571890184 -0.125142918691 0.805 2.34936207439e-38
0.0953469856695 -0.125142918691 0.805 2.34950430618e-38
0.0968367823205 -0.125142918691 0.805 2.3496480794e-38
0.0985708686088 -0.125453832775 0.807 2.34936053296e-38
0.100064366618 -0.125453832775 0.807 2.34957773422e-38
0.101557864627 -0.125453832775 0.807 2.34918172727e-38
0.103051362636 -0.125453832775 0.807 2.34871453437e-38
0.104544860646 -0.125453832775 0.807 2.34817377329e-38
0.106038358655 -0.125453832775 0.807 2.3502255545e-38
0.107531856664 -0.125453832775 0.807 2.35058905132e-38
0.0348612416354 -0.125803611119 0.819 2.34953863799e-38
0.0363769477935 -0.125803611119 0.819 2.3495424215e-38
0.037800119998 -0.125496398393 0.817 2.35029856215e-38
0.0392158894863 -0.125189185668 0.815 1.44447345092e-38
0.0407241929281 -0.125189185668 0.815 1.7492267199e-38
0.042128858342 -0.124881972942 0.813 1.80457885002e-38
0.0435261210396 -0.124574760217 0.811 1.74032945556e-38
0.0449159810209 -0.124267547491 0.809 1.76788066493e-38
0.0464131803883 -0.124267547491 0.809 1.786069519e-38
0.0477919362952 -0.123960334766 0.807 1.85082015792e-38
0.0491632894858 -0.12365312204 0.805 1.89695454674e-38
0.0506530861369 -0.12365312204 0.805 1.91546401789e-38
0.052142882788 -0.12365312204 0.805 1.93379748596e-38
0.0536326794391 -0.12365312204 0.805 1.9612063234e-38
0.054985525839 -0.123345909315 0.803 2.03510547948e-38
0.0564716211319 -0.123345909315 0.803 2.10893260881e-38
0.0579577164249 -0.123345909315 0.803 2.09971108401e-38
0.059369784555 -0.123192302952 0.802 2.13651744934e-38
0.0608540291689 -0.123192302952 0.802 2.14570324104e-38
0.0623382737828 -0.123192302952 0.802 2.22860644039e-38
0.0636633599967 -0.122885090226 0.8 2.25633603505e-38
0.0651439032524 -0.122885090226 0.8 2.32991401352e-38
0.0666244465082 -0.122885090226 0.8 2.30236168311e-38
0.0681049897639 -0.122885090226 0.8 2.34885718655e-38
0.0694115691871 -0.122577877501 0.798 2.34838733118e-38
0.0708884110847 -0.122577877501 0.798 2.34860411205e-38
0.0723652529823 -0.122577877501 0.798 2.34885704642e-38
0.0738420948799 -0.122577877501 0.798 2.34881907123e-38
0.0753189367775 -0.122577877501 0.798 2.34907284638e-38
0.0769882492983 -0.122885090226 0.8 2.34910928014e-38
0.0784687925541 -0.122885090226 0.8 2.34907242599e-38
0.0799493358098 -0.122885090226 0.8 2.34921619922e-38
0.0814298790655 -0.122885090226 0.8 2.3492156387e-38
0.0829104223213 -0.122885090226 0.8 2.34939682659e-38
0.0846019429909 -0.123192302952 0.802 2.34921521831e-38
0.0858715088327 -0.122885090226 0.8 2.34957647305e-38
0.0873520520885 -0.122885090226 0.8 2.34964709849e-38
0.0890546768326 -0.123192302952 0.802 2.34939472464e-38
0.0905389214464 -0.123192302952 0.802 2.34961178577e-38
0.0920231660603 -0.123192302952 0.802 2.34946843294e-38
0.0936240034556 -0.123345909315 0.803 2.34953947877e-38
0.0953469856695 -0.12365312204 0.805 2.34953933864e-38
0.0968367823205 -0.12365312204 0.805 2.34936095335e-38
0.0985708686088 -0.123960334766 0.807 2.34918130689e-38
0.100064366618 -0.123960334766 0.807 2.34911040118e-38
0.101557864627 -0.123960334766 0.807 2.3497203864e-38
0.103051362636 -0.123960334766 0.807 2.34878600059e-38
0.104544860646 -0.123960334766 0.807 2.34867417697e-38
0.106038358655 -0.123960334766 0.807 2.3501936049e-38
0.107531856664 -0.123960334766 0.807 2.35033387487e-38
0.0349463728726 -0.124591416328 0.821 2.34961500876e-38
0.0364657803888 -0.124591416328 0.821 2.34997780493e-38
0.037985187905 -0.124591416328 0.821 2.34979563613e-38
0.039312124798 -0.123984393594 0.817 1.54585333105e-38
0.0407241929281 -0.123680882226 0.815 1.79532285328e-38
0.042128858342 -0.123377370859 0.813 1.83227117014e-38
0.0435261210396 -0.123073859491 0.811 1.86000440818e-38
0.0449159810209 -0.122770348124 0.809 1.76798856491e-38
0.0464131803883 -0.122770348124 0.809 1.81383526716e-38
0.0477919362952 -0.122466836756 0.807 1.80457941054e-38
0.0491632894858 -0.122163325389 0.805 1.85063995093e-38
0.0506530861369 -0.122163325389 0.805 1.91535681856e-38
0.052142882788 -0.122163325389 0.805 1.89691895376e-38
0.0536326794391 -0.122163325389 0.805 1.97067573791e-38
0.054985525839 -0.121859814022 0.803 2.02610073555e-38
0.0564716211319 -0.121859814022 0.803 1.97989375947e-38
0.0579577164249 -0.121859814022 0.803 2.0442876278e-38
0.059369784555 -0.121708058338 0.802 2.12747318879e-38
0.0608540291689 -0.121708058338 0.802 2.17353961464e-38
0.0621828167409 -0.12140454697 0.8 2.24715304596e-38
0.0636633599967 -0.12140454697 0.8 2.26548301078e-38
0.0651439032524 -0.12140454697 0.8 2.20076880562e-38
0.0666244465082 -0.12140454697 0.8 2.2746675413e-38
0.0679347272895 -0.121101035603 0.798 2.34835327962e-38
0.0694115691871 -0.121101035603 0.798 2.34871229229e-38
0.0708884110847 -0.121101035603 0.798 2.34856879933e-38
0.0723652529823 -0.121101035603 0.798 2.34867683944e-38
0.0738420948799 -0.121101035603 0.798 2.34853278596e-38
0.0753189367775 -0.121101035603 0.798 2.34889305979e-38
0.0767957786751 -0.121101035603 0.798 2.34896382536e-38
0.0782726205727 -0.121101035603 0.798 2.34914277118e-38
0.0799493358098 -0.12140454697 0.8 2.34899927821e-38
0.0814298790655 -0.12140454697 0.8 2.34899885783e-38
0.0829104223213 -0.12140454697 0.8 2.34939710685e-38
0.084390965577 -0.12140454697 0.8 2.34943129853e-38
0.0860861876048 -0.121708058338 0.802 2.34900208081e-38
0.0875704322187 -0.121708058338 0.802 2.34914921715e-38
0.0890546768326 -0.121708058338 0.802 2.34950612787e-38
0.0905389214464 -0.121708058338 0.802 2.34903851457e-38
0.0920231660603 -0.121708058338 0.802 2.34911012092e-38
0.0936240034556 -0.121859814022 0.803 2.34954200111e-38
0.0953469856695 -0.122163325389 0.805 2.34893103498e-38
0.0968367823205 -0.122163325389 0.805 2.34946857307e-38
0.0985708686088 -0.122466836756 0.807 2.34943199918e-38
0.100064366618 -0.122466836756 0.807 2.34917962533e-38
0.101557864627 -0.122466836756 0.807 2.34864222737e-38
0.103306756348 -0.122770348124 0.809 2.34860635413e-38
0.104803955715 -0.122770348124 0.809 2.3488926394e-38
0.106301155083 -0.122770348124 0.809 2.35029870228e-38
0.10779835445 -0.122770348124 0.809 2.35048185199e-38
0.0364657803888 -0.123072008812 0.821 2.35030024371e-38
0.037985187905 -0.123072008812 0.821 1.63001825954e-38
0.0395045954212 -0.123072008812 0.821 1.72156228562e-38
0.0408241295979 -0.122472388794 0.817 1.78621287183e-38
0.0423361343978 -0.122472388794 0.817 1.804614443e-38
0.0436334604256 -0.121872768775 0.813 1.77695799612e-38
0.0450270217651 -0.121572958766 0.811 1.79561096024e-38
0.0465279224906 -0.121572958766 0.811 1.86933089024e-38
0.0479103797556 -0.121273148756 0.809 1.82301825625e-38
0.0492854343044 -0.120973338747 0.807 1.85071029612e-38
0.0506530861369 -0.120673528738 0.805 1.95227234505e-38
0.052142882788 -0.120673528738 0.805 1.97092586968e-38
0.0536326794391 -0.120673528738 0.805 1.93394027828e-38
0.054985525839 -0.120373718729 0.803 1.96153002335e-38
0.0564716211319 -0.120373718729 0.803 2.04450230672e-38
0.0579577164249 -0.120373718729 0.803 2.11811840051e-38
0.059369784555 -0.120223813724 0.802 2.04443042011e-38
0.0608540291689 -0.120223813724 0.802 2.19173015027e-38
0.0621828167409 -0.119924003715 0.8 2.20091103741e-38
0.0636633599967 -0.119924003715 0.8 2.26530574652e-38
0.0651439032524 -0.119924003715 0.8 2.25612093574e-38
0.0666244465082 -0.119924003715 0.8 2.34842348468e-38
0.0679347272895 -0.119624193705 0.798 2.31140272068e-38
0.0694115691871 -0.119624193705 0.798 2.34860565348e-38
0.0708884110847 -0.119624193705 0.798 2.34860411205e-38
0.0723652529823 -0.119624193705 0.798 2.34885760694e-38
0.0738420948799 -0.119624193705 0.798 2.34874844579e-38
0.0753189367775 -0.119624193705 0.798 2.34874928657e-38
0.0767957786751 -0.119624193705 0.798 2.34882145344e-38
0.0782726205727 -0.119624193705 0.798 2.3489996986e-38
0.0797494624703 -0.119624193705 0.798 2.34878544007e-38
0.0812263043679 -0.119624193705 0.798 2.34889418083e-38
0.0829104223213 -0.119924003715 0.8 2.3491808865e-38
0.084390965577 -0.119924003715 0.8 2.34907242599e-38
0.0858715088327 -0.119924003715 0.8 2.34896410562e-38
0.0873520520885 -0.119924003715 0.8 2.34921830116e-38
0.0890546768326 -0.120223813724 0.802 2.34950500683e-38
0.0905389214464 -0.120223813724 0.802 2.34925417441e-38
0.0920231660603 -0.120223813724 0.802 2.34900208081e-38
0.0936240034556 -0.120373718729 0.803 2.34896648783e-38
0.0953469856695 -0.120673528738 0.805 2.34900306172e-38
0.0968367823205 -0.120673528738 0.805 2.34953975903e-38
0.0985708686088 -0.120973338747 0.807 2.3486395649e-38
0.100064366618 -0.120973338747 0.807 2.34860677451e-38
0.101557864627 -0.120973338747 0.807 2.34896704835e-38
0.103051362636 -0.120973338747 0.807 2.34867838087e-38
0.104803955715 -0.121273148756 0.809 2.34921788078e-38
0.106301155083 -0.121273148756 0.809 2.35047918952e-38
0.10779835445 -0.121273148756 0.809 2.35022793671e-38
0.0367322781748 -0.122440927249 0.827 2.35058694937e-38
0.0380777218585 -0.121848709947 0.823 9.84828076572e-39
0.0395045954212 -0.121552601296 0.821 1.69473400613e-38
0.0410240029374 -0.121552601296 0.821 1.80483108375e-38
0.0423361343978 -0.120960383994 0.817 1.80471785883e-38
0.0436334604256 -0.120368166691 0.813 1.75873340894e-38
0.0451380625093 -0.120368166691 0.813 1.83256025802e-38
0.0465279224906 -0.12007205804 0.811 1.81401379258e-38
0.0479103797556 -0.119775949389 0.809 1.8784428335e-38
0.049407579123 -0.119775949389 0.809 1.87840597936e-38
0.0507789323136 -0.119479840738 0.807 1.82309042313e-38
0.052142882788 -0.119183732087 0.805 1.94305236167e-38
0.0536326794391 -0.119183732087 0.805 1.93383307894e-38
0.054985525839 -0.118887623436 0.803 1.97067573791e-38
0.0564716211319 -0.118887623436 0.803 2.02599115401e-38
0.0579577164249 -0.118887623436 0.803 2.0442876278e-38
0.059369784555 -0.11873956911 0.802 2.16417795999e-38
0.0608540291689 -0.11873956911 0.802 2.13630375133e-38
0.0621828167409 -0.118443460459 0.8 2.23764621679e-38
0.0636633599967 -0.118443460459 0.8 2.19162379171e-38
0.0651439032524 -0.118443460459 0.8 2.23771908431e-38
0.0666244465082 -0.118443460459 0.8 2.21920821185e-38
0.0681049897639 -0.118443460459 0.8 2.33916888923e-38
0.0694115691871 -0.118147351808 0.798 2.33916916949e-38
0.0708884110847 -0.118147351808 0.798 2.34874858592e-38
0.0723652529823 -0.118147351808 0.798 2.34845907766e-38
0.0738420948799 -0.118147351808 0.798 2.34817405355e-38
0.0753189367775 -0.118147351808 0.798 2.34867754009e-38
0.0767957786751 -0.118147351808 0.798 2.34885634577e-38
0.0782726205727 -0.118147351808 0.798 2.34903515146e-38
0.0797494624703 -0.118147351808 0.798 2.34906976353e-38
0.0812263043679 -0.118147351808 0.798 2.34907396742e-38
0.0829104223213 -0.118443460459 0.8 2.34907158522e-38
0.084390965577 -0.118443460459 0.8 2.34921353675e-38
0.0858715088327 -0.118443460459 0.8 2.34910647755e-38
0.0873520520885 -0.118443460459 0.8 2.34871299294e-38
0.0890546768326 -0.11873956911 0.802 2.34896270432e-38
0.0905389214464 -0.11873956911 0.802 2.34917738325e-38
0.0920231660603 -0.11873956911 0.802 2.34903809418e-38
0.0936240034556 -0.118887623436 0.803 2.34903949548e-38
0.0953469856695 -0.119183732087 0.805 2.34893075472e-38
0.0968367823205 -0.119183732087 0.805 2.34846356181e-38
0.0985708686088 -0.119479840738 0.807 2.34882187383e-38
0.100064366618 -0.119479840738 0.807 2.34875040761e-38
0.101557864627 -0.119479840738 0.807 2.34878628085e-38
0.103051362636 -0.119479840738 0.807 2.34896746874e-38
0.104803955715 -0.119775949389 0.809 2.34961528902e-38
0.106301155083 -0.119775949389 0.809 2.35037170993e-38
0.0367322781748 -0.120910415659 0.827 2.35051506276e-38
0.038170255812 -0.120618008366 0.825 2.93873587706e-39
0.0396008307328 -0.120325601073 0.823 1.75937604442e-38
0.0410240029374 -0.12003319378 0.821 1.82316076831e-38
0.0423361343978 -0.119448379194 0.817 1.85089204453e-38
0.0437407998117 -0.119155971901 0.815 1.82327063011e-38
0.0451380625093 -0.118863564608 0.813 1.83238201285e-38
0.0465279224906 -0.118571157315 0.811 1.85074953247e-38
0.0480288232161 -0.118571157315 0.811 1.90592229639e-38
0.049407579123 -0.118278750022 0.809 1.9429078878e-38
0.0507789323136 -0.117986342729 0.807 1.92457666181e-38
0.0522724303229 -0.117986342729 0.807 1.96134729403e-38
0.0536326794391 -0.117693935436 0.805 1.96134701377e-38
0.0551224760902 -0.117693935436 0.805 1.97978389767e-38
0.0564716211319 -0.117401528143 0.803 2.03503121066e-38
0.0579577164249 -0.117401528143 0.803 2.06265528755e-38
