# .PCD v0.7 - Point Cloud Data file format
VERSION 0.7
FIELDS x y z rgb
SIZE 4 4 4 4
TYPE F F F F
COUNT 1 1 1 1
WIDTH 845
HEIGHT 1
VIEWPOINT 0 0 0 1 0 0 0
POINTS 845
DATA ascii
0.011581549618 -0.0827253544143 0.894 2.20159473093e-38
0.0132360567063 -0.0827253544143 0.894 2.29375126457e-38
0.0148905637946 -0.0827253544143 0.894 2.23840039562e-38
0.0165450708829 -0.0827253544143 0.894 2.34903557184e-38
0.0181385055618 -0.0824477525538 0.891 2.27527654562e-38
0.0197874606129 -0.0824477525538 0.891 2.34907032405e-38
0.021436415664 -0.0824477525538 0.891 2.34928990752e-38
0.0230853707151 -0.0824477525538 0.891 2.34903571197e-38
0.0247343257662 -0.0824477525538 0.891 2.34910787885e-38
0.0264721134126 -0.0827253544143 0.894 2.3029020238e-38
0.0281266205009 -0.0827253544143 0.894 2.34907214573e-38
0.0297811275891 -0.0827253544143 0.894 2.34932283803e-38
0.0315059604821 -0.0829104223213 0.896 2.15578222037e-38
0.0331641689285 -0.0829104223213 0.896 2.20202422891e-38
0.0348223773749 -0.0829104223213 0.896 2.04561367653e-38
0.0365620157004 -0.0830954902282 0.898 1.7419113814e-38
0.038223925505 -0.0830954902282 0.898 1.73311543094e-38
0.0400190842026 -0.0833730920887 0.901 1.46617522011e-38
0.0416865460443 -0.0833730920887 0.901 1.33803600437e-38
0.0434502431977 -0.0835581599956 0.903 1.12663499701e-38
0.0452713114023 -0.0838357618561 0.906 1.10833964426e-38
0.0470516646673 -0.0840208297631 0.908 1.02547245827e-38
0.0487320812626 -0.0840208297631 0.908 9.8888175277e-39
0.0504124978578 -0.0840208297631 0.908 9.7948296371e-39
0.0520929144531 -0.0840208297631 0.908 7.30558546585e-39
0.0540694396995 -0.0844834995305 0.913 2.35097735113e-38
0.0557591096901 -0.0844834995305 0.913 2.350655613e-38
-0.0171743017665 -0.0841540786561 0.928 1.85038225215e-38
-0.015406903255 -0.0838820288328 0.925 2.23742270968e-38
-0.0136654142505 -0.083700662284 0.923 1.18769125266e-38
-0.0118924637017 -0.0832472459119 0.918 7.28621391588e-39
-0.0101602280925 -0.0829751960887 0.915 7.57284110897e-39
-0.008420589767 -0.0825217797166 0.91 6.83743967489e-39
-0.00672166638105 -0.0823404131678 0.908 7.02326306165e-39
-0.00504124978578 -0.0823404131678 0.908 6.83959206933e-39
-0.00335343047424 -0.082159046619 0.906 7.11545729021e-39
-0.00167671523712 -0.082159046619 0.906 7.21016264562e-39
0.0 -0.0818869967957 0.903 7.30163940937e-39
0.00167116319991 -0.0818869967957 0.903 7.02505672368e-39
0.00334232639983 -0.0818869967957 0.903 8.58877128521e-39
0.00500238552532 -0.0817056302469 0.901 9.8733920342e-39
0.00666984736709 -0.0817056302469 0.901 1.24498095816e-38
0.00830954902282 -0.0814335804237 0.898 1.48440050793e-38
0.00997145882739 -0.0814335804237 0.898 1.4473462529e-38
0.011633368632 -0.0814335804237 0.898 1.62244536238e-38
0.0132656675714 -0.0812522138748 0.896 1.78803666178e-38
0.0149238760178 -0.0812522138748 0.896 1.84324866205e-38
0.0165820844643 -0.0812522138748 0.896 1.87994922935e-38
0.0182402929107 -0.0812522138748 0.896 1.89821039042e-38
0.0198985013571 -0.0812522138748 0.896 2.01781079396e-38
0.0215567098035 -0.0812522138748 0.896 1.95334545941e-38
0.02321491825 -0.0812522138748 0.896 1.99965837366e-38
0.0248731266964 -0.0812522138748 0.896 1.76016497546e-38
0.0265313351428 -0.0812522138748 0.896 1.81559193491e-38
0.0281895435892 -0.0812522138748 0.896 1.76066495875e-38
0.0298477520357 -0.0812522138748 0.896 1.57659431611e-38
0.0315059604821 -0.0812522138748 0.896 1.57680829438e-38
0.0331641689285 -0.0812522138748 0.896 1.44787986736e-38
0.0349001058959 -0.0814335804237 0.898 1.30065608758e-38
0.0365620157004 -0.0814335804237 0.898 1.18162867498e-38
0.038223925505 -0.0814335804237 0.898 1.0530948536e-38
0.0400190842026 -0.0817056302469 0.901 1.06231427646e-38
0.0417790799978 -0.0818869967957 0.903 8.3218743745e-39
0.0435945961652 -0.082159046619 0.906 9.61151737719e-39
0.0453712480721 -0.0823404131678 0.908 8.78356298214e-39
0.0470516646673 -0.0823404131678 0.908 9.15054623437e-39
0.0487320812626 -0.0823404131678 0.908 1.0994793742e-38
0.050523538602 -0.0825217797166 0.91 1.02550833151e-38
0.0522076565554 -0.0825217797166 0.91 6.29180768404e-39
0.05418788316 -0.0829751960887 0.915 2.35097566957e-38
0.0558812545087 -0.0829751960887 0.915 2.35054925445e-38
-0.0171743017665 -0.0824366484794 0.928 2.35018856022e-38
-0.015406903255 -0.0821701506934 0.925 2.3509786123e-38
-0.0136654142505 -0.0819924855027 0.923 1.2158221792e-38
-0.0118924637017 -0.081548322526 0.918 6.82023172975e-39
-0.0101602280925 -0.08128182474 0.915 7.20442292711e-39
-0.00844834995305 -0.0811041595493 0.913 7.02039320239e-39
-0.0067364718136 -0.0808376617632 0.91 7.48315800725e-39
-0.00504124978578 -0.0806599965725 0.908 7.39096377868e-39
-0.00336083319052 -0.0806599965725 0.908 6.93071010067e-39
-0.00167671523712 -0.0804823313819 0.906 6.93429742474e-39
0.0 -0.0804823313819 0.906 7.11760968465e-39
0.00167671523712 -0.0804823313819 0.906 7.39562729997e-39
0.00334232639983 -0.0802158335958 0.903 7.02541545609e-39
0.00501348959974 -0.0802158335958 0.903 8.03919323789e-39
0.00666984736709 -0.0800381684051 0.901 8.40797015215e-39
0.00833730920887 -0.0800381684051 0.901 9.05440594933e-39
0.00997145882739 -0.0797716706191 0.898 7.94879267136e-39
0.011633368632 -0.0797716706191 0.898 7.67113378845e-39
0.0132656675714 -0.0795940054284 0.896 8.59020621484e-39
0.0149238760178 -0.0795940054284 0.896 1.00638789423e-38
0.0165820844643 -0.0795940054284 0.896 9.60183160221e-39
0.0182402929107 -0.0795940054284 0.896 1.12602515192e-38
0.0198985013571 -0.0795940054284 0.896 1.07992803763e-38
0.0215567098035 -0.0795940054284 0.896 9.69438456318e-39
0.02321491825 -0.0795940054284 0.896 1.02489848642e-38
0.0248731266964 -0.0795940054284 0.896 1.11705684174e-38
0.0265313351428 -0.0795940054284 0.896 1.06191967081e-38
0.0281895435892 -0.0795940054284 0.896 8.96292918558e-39
0.0299143764822 -0.0797716706191 0.898 8.22932141353e-39
0.0315762862867 -0.0797716706191 0.898 8.96795143927e-39
0.0332381960913 -0.0797716706191 0.898 8.32259183932e-39
0.0349001058959 -0.0797716706191 0.898 9.15126369918e-39
0.036684160519 -0.0800381684051 0.901 7.67687350696e-39
0.0383516223608 -0.0800381684051 0.901 9.15018750196e-39
0.0401079167979 -0.0802158335958 0.903 8.87503974589e-39
0.041917880928 -0.0804823313819 0.906 9.24381666015e-39
0.0435945961652 -0.0804823313819 0.906 8.87432228108e-39
0.0453712480721 -0.0806599965725 0.908 9.88845879529e-39
0.0470516646673 -0.0806599965725 0.908 9.70371160576e-39
0.0488394206486 -0.0808376617632 0.91 9.97993555904e-39
0.050523538602 -0.0808376617632 0.91 1.02543658503e-38
0.0524945118112 -0.08128182474 0.915 8.31613465599e-39
0.0543655483507 -0.081548322526 0.918 2.35097566957e-38
0.0560644717366 -0.081548322526 0.918 2.35065813534e-38
-0.0171743017665 -0.0807192183028 0.928 2.34990171443e-38
-0.015406903255 -0.0804582725539 0.925 2.35087211361e-38
-0.0136654142505 -0.0802843087214 0.923 1.27074270939e-38
-0.0118924637017 -0.07984939914 0.918 6.45432467474e-39
-0.0101602280925 -0.0795884533912 0.915 7.57248237656e-39
-0.00844834995305 -0.0794144895587 0.913 7.02039320239e-39
-0.0067364718136 -0.0791535438098 0.91 6.83959206933e-39
-0.00504124978578 -0.0789795799773 0.908 7.39096377868e-39
-0.00336083319052 -0.0789795799773 0.908 6.93071010067e-39
-0.00168041659526 -0.0789795799773 0.908 6.65735600664e-39
0.0 -0.0788056161447 0.906 7.39383363794e-39
0.00167671523712 -0.0788056161447 0.906 6.84246192858e-39
0.00335343047424 -0.0788056161447 0.906 7.11904461428e-39
0.00503014571137 -0.0788056161447 0.906 7.57858082748e-39
0.00668465279965 -0.0785446703959 0.903 7.02792658293e-39
0.00833730920887 -0.0783707065634 0.901 7.21123884284e-39
0.0100047710506 -0.0783707065634 0.901 7.12047954391e-39
0.011633368632 -0.0781097608145 0.898 7.8569571752e-39
0.0132952784365 -0.0781097608145 0.898 7.76476294664e-39
0.0149238760178 -0.077935796982 0.896 7.21159757525e-39
0.0165820844643 -0.077935796982 0.896 8.87288735145e-39
0.0182402929107 -0.077935796982 0.896 8.59738086298e-39
0.0198985013571 -0.077935796982 0.896 7.21374996969e-39
0.0215567098035 -0.077935796982 0.896 8.59809972909e-39
0.02321491825 -0.077935796982 0.896 7.21482616691e-39
0.0248731266964 -0.077935796982 0.896 7.21626109654e-39
0.026590556873 -0.0781097608145 0.898 7.86090323168e-39
0.0282524666776 -0.0781097608145 0.898 8.13712718497e-39
0.0299143764822 -0.0781097608145 0.898 8.78248678492e-39
0.0315762862867 -0.0781097608145 0.898 8.5984570602e-39
0.0332381960913 -0.0781097608145 0.898 8.32402676895e-39
0.0350166986772 -0.0783707065634 0.901 8.23039761075e-39
0.036684160519 -0.0783707065634 0.901 7.8619794289e-39
0.038436753598 -0.0785446703959 0.903 8.22824521631e-39
0.0402411656909 -0.0788056161447 0.906 8.87468101349e-39
0.041917880928 -0.0788056161447 0.906 9.97957682664e-39
0.0436908314768 -0.0789795799773 0.908 9.42605272284e-39
0.0453712480721 -0.0789795799773 0.908 9.6118761096e-39
0.0471553026952 -0.0791535438098 0.91 1.00714123228e-38
0.0490004297277 -0.0794144895587 0.913 9.97993555904e-39
0.0508011404625 -0.0795884533912 0.915 9.70227667613e-39
0.0526666249647 -0.07984939914 0.918 8.22322296262e-39
0.0543655483507 -0.07984939914 0.918 2.35097707087e-38
0.0560644717366 -0.07984939914 0.918 2.35058498756e-38
-0.0171743017665 -0.0790017881261 0.928 2.34947067502e-38
-0.015406903255 -0.0787463944145 0.925 2.35098071424e-38
-0.0136654142505 -0.0785761319401 0.923 1.18787454249e-38
-0.0119183732087 -0.0783207382285 0.92 7.46345014565e-39
-0.0101935403157 -0.0781504757541 0.918 7.20442292711e-39
-0.00846685674374 -0.0778950820425 0.915 7.29589969086e-39
-0.00675867996244 -0.077724819568 0.913 7.48100561281e-39
-0.0050523538602 -0.0774694258564 0.91 7.20765151877e-39
-0.0033682359068 -0.0774694258564 0.91 7.48351673966e-39
-0.00168041659526 -0.077299163382 0.908 7.20765151877e-39
0.0 -0.077299163382 0.908 6.93357995993e-39
0.00168041659526 -0.077299163382 0.908 7.21052137803e-39
0.00335343047424 -0.0771289009076 0.906 7.30271560659e-39
0.00503014571137 -0.0771289009076 0.906 7.39598603238e-39
0.00670686094849 -0.0771289009076 0.906 7.02792658293e-39
0.00835581599956 -0.076873507196 0.903 7.76440421423e-39
0.0100047710506 -0.0767032447216 0.901 7.48889772576e-39
0.0116722328924 -0.0767032447216 0.901 7.85731590761e-39
0.0132952784365 -0.07644785101 0.898 7.67543857733e-39
0.0149571882411 -0.07644785101 0.898 7.49212631742e-39
0.0165820844643 -0.0762775885356 0.896 7.58360308117e-39
0.0182402929107 -0.0762775885356 0.896 7.12299067075e-39
0.0198985013571 -0.0762775885356 0.896 8.13676845256e-39
0.0215567098035 -0.0762775885356 0.896 7.95237999543e-39
0.02321491825 -0.0762775885356 0.896 8.22932141353e-39
0.0249286470685 -0.07644785101 0.898 7.95273872784e-39
0.026590556873 -0.07644785101 0.898 7.58611420802e-39
0.0282524666776 -0.07644785101 0.898 8.13784464978e-39
0.0299143764822 -0.07644785101 0.898 8.044574224e-39
0.0316817749937 -0.0767032447216 0.901 7.86126196409e-39
0.0333492368355 -0.0767032447216 0.901 8.04636788603e-39
0.0350166986772 -0.0767032447216 0.901 8.04672661844e-39
0.0367655903981 -0.076873507196 0.903 8.50698029645e-39
0.0385644504538 -0.0771289009076 0.906 8.96544031242e-39
0.0402411656909 -0.0771289009076 0.906 8.78248678492e-39
0.041917880928 -0.0771289009076 0.906 9.05691707618e-39
0.0436908314768 -0.077299163382 0.908 8.96723397446e-39
0.0454711847418 -0.0774694258564 0.91 9.70335287335e-39
0.0473107597371 -0.077724819568 0.913 9.42605272284e-39
0.0490004297277 -0.077724819568 0.913 1.03479950085e-38
0.0508011404625 -0.0778950820425 0.915 9.9774244322e-39
0.0526666249647 -0.0781504757541 0.918 8.04026943511e-39
0.0543655483507 -0.0781504757541 0.918 2.35097482879e-38
-0.0171743017665 -0.0772843579495 0.928 2.34957829474e-38
-0.015406903255 -0.0770345162751 0.925 2.35065925638e-38
-0.0136950251156 -0.0770345162751 0.925 1.28014009715e-38
-0.0119572374691 -0.0768679551588 0.923 8.20100257287e-39
-0.0102490606878 -0.0768679551588 0.923 7.84834759744e-39
-0.00849461692979 -0.0764515523681 0.918 7.75615336887e-39
-0.006773485395 -0.0762017106937 0.915 7.48136434521e-39
-0.00506900997183 -0.0760351495774 0.913 7.29876955012e-39
-0.0033682359068 -0.075785307903 0.91 8.31326479674e-39
-0.0016841179534 -0.075785307903 0.91 7.11617475502e-39
0.0 -0.0756187467868 0.908 7.11760968465e-39
0.00168041659526 -0.0756187467868 0.908 7.11904461428e-39
0.00336083319052 -0.0756187467868 0.908 7.8565984428e-39
0.00503014571137 -0.0754521856705 0.906 6.47727233839e-39
0.00670686094849 -0.0754521856705 0.906 6.9375260164e-39
0.00835581599956 -0.0752023439961 0.903 6.84462273082e-39
0.0100269791995 -0.0752023439961 0.903 7.2141087021e-39
0.0116722328924 -0.0750357828798 0.901 7.30594419826e-39
0.0133396947342 -0.0750357828798 0.901 7.12370813557e-39
0.0149571882411 -0.0747859412054 0.898 7.67651477455e-39
0.0166190980456 -0.0747859412054 0.898 7.58432054599e-39
0.0182810078502 -0.0747859412054 0.898 7.58432054599e-39
0.0199429176548 -0.0747859412054 0.898 7.85910956965e-39
0.0216048274593 -0.0747859412054 0.898 8.04385675918e-39
0.0232667372639 -0.0747859412054 0.898 8.22824521631e-39
0.0249286470685 -0.0747859412054 0.898 8.22932141353e-39
0.026590556873 -0.0747859412054 0.898 7.76978520034e-39
0.0282524666776 -0.0747859412054 0.898 8.59917452501e-39
0.0300143131519 -0.0750357828798 0.901 8.96472284761e-39
0.0316817749937 -0.0750357828798 0.901 7.58432054599e-39
0.0333492368355 -0.0750357828798 0.901 7.86126196409e-39
0.0350166986772 -0.0750357828798 0.901 8.50590409923e-39
0.0367655903981 -0.0752023439961 0.903 8.59809832779e-39
0.0385644504538 -0.0754521856705 0.906 8.13712718497e-39
0.0402411656909 -0.0754521856705 0.906 8.96723397446e-39
0.041917880928 -0.0754521856705 0.906 9.79590583432e-39
0.0437870667884 -0.075785307903 0.91 9.70155921132e-39
0.0456210897465 -0.0760351495774 0.913 9.70227667613e-39
0.0473107597371 -0.0760351495774 0.913 1.04401892371e-38
0.0491077691137 -0.0762017106937 0.915 1.03465600789e-38
0.0509677015787 -0.0764515523681 0.918 1.05313072684e-38
0.0526666249647 -0.0764515523681 0.918 7.76296928461e-39
0.0543655483507 -0.0764515523681 0.918 2.35097258671e-38
-0.0171743017665 -0.0755669277728 0.928 2.3496147285e-38
-0.0154568715899 -0.0755669277728 0.928 2.35047890926e-38
-0.0136950251156 -0.0753226381356 0.925 1.35396694623e-38
-0.0119572374691 -0.0751597783775 0.923 8.20135289748e-39
-0.0102490606878 -0.0751597783775 0.923 7.75615336887e-39
-0.00849461692979 -0.0747526289822 0.918 7.57284110897e-39
-0.006773485395 -0.074508339345 0.915 6.6552036122e-39
-0.00508011404625 -0.074508339345 0.915 6.74811530558e-39
-0.00337933998122 -0.0743454795868 0.913 6.74811530558e-39
-0.0016841179534 -0.0741011899496 0.91 6.65699727423e-39
0.0 -0.0741011899496 0.91 6.84210319618e-39
0.00168041659526 -0.0739383301915 0.908 7.11904461428e-39
0.00336083319052 -0.0739383301915 0.908 6.93501488956e-39
0.00503014571137 -0.0737754704334 0.906 6.75349629168e-39
0.00670686094849 -0.0737754704334 0.906 6.84640798506e-39
0.00838357618561 -0.0737754704334 0.906 7.30379180382e-39
0.0100269791995 -0.0735311807962 0.903 7.30522673344e-39
0.0116981423994 -0.0735311807962 0.903 7.85946830205e-39
0.0133693055993 -0.0735311807962 0.903 7.85982703446e-39
0.015007156576 -0.073368321038 0.901 7.58432054599e-39
0.0166746184177 -0.073368321038 0.901 7.49212631742e-39
0.0182810078502 -0.0731240314008 0.898 7.67651477455e-39
0.0199429176548 -0.0731240314008 0.898 7.85946830205e-39
0.0216048274593 -0.0731240314008 0.898 7.58324434876e-39
0.0232667372639 -0.0731240314008 0.898 8.50303423997e-39
0.0249286470685 -0.0731240314008 0.898 8.04385675918e-39
0.0266793894684 -0.073368321038 0.901 7.58467927839e-39
0.0283468513102 -0.073368321038 0.901 8.22788648391e-39
0.0300143131519 -0.073368321038 0.901 8.87360481627e-39
0.0317521007983 -0.0735311807962 0.903 7.86018576687e-39
0.0334232639983 -0.0735311807962 0.903 9.42748765247e-39
0.0350944271982 -0.0735311807962 0.903 9.51752948659e-39
0.0368877352167 -0.0737754704334 0.906 8.41299240585e-39
0.0385644504538 -0.0737754704334 0.906 9.24345792775e-39
0.0402411656909 -0.0737754704334 0.906 8.96723397446e-39
0.0420104148815 -0.0739383301915 0.908 8.96615777724e-39
0.0437870667884 -0.0741011899496 0.91 1.0625295159e-38
0.0456210897465 -0.0743454795868 0.913 9.7948296371e-39
0.0473107597371 -0.0743454795868 0.913 1.01639652838e-38
0.0491077691137 -0.074508339345 0.915 1.12681436321e-38
0.0509677015787 -0.0747526289822 0.918 1.09908434816e-38
0.0526666249647 -0.0747526289822 0.918 7.94771647414e-39
-0.0172113153479 -0.0740086559961 0.93 2.35001031506e-38
-0.0154568715899 -0.0738494975962 0.928 2.35044191498e-38
-0.0137394414132 -0.0738494975962 0.928 1.32609540003e-38
-0.0119831469761 -0.0736107599962 0.925 7.82969351228e-39
-0.0102712688367 -0.0736107599962 0.925 7.66252421068e-39
-0.00849461692979 -0.0730537055962 0.918 7.75687083369e-39
-0.006773485395 -0.0728149679962 0.915 7.02218686442e-39
-0.00508011404625 -0.0728149679962 0.915 7.1150985578e-39
-0.00337933998122 -0.0726558095962 0.913 7.20836898359e-39
-0.0016841179534 -0.0724170719962 0.91 7.11832714946e-39
0.0 -0.0724170719962 0.91 7.11832714946e-39
0.0016841179534 -0.0724170719962 0.91 7.76440421423e-39
0.00336083319052 -0.0722579135962 0.908 7.57929829229e-39
0.00504124978578 -0.0722579135962 0.908 7.30379180382e-39
0.00670686094849 -0.0720987551962 0.906 7.12047954391e-39
0.00838357618561 -0.0720987551962 0.906 7.58037448951e-39
0.0100602914227 -0.0720987551962 0.906 7.76404548183e-39
0.0116981423994 -0.0718600175963 0.903 7.8569571752e-39
0.0133693055993 -0.0718600175963 0.903 7.21554363173e-39
0.0150404687992 -0.0718600175963 0.903 6.93860221362e-39
0.0166746184177 -0.0717008591963 0.901 7.12370813557e-39
0.0183420802595 -0.0717008591963 0.901 7.40100828608e-39
0.0200095421013 -0.0717008591963 0.901 7.58432054599e-39
0.0216770039431 -0.0717008591963 0.901 7.95166253062e-39
0.0233444657848 -0.0717008591963 0.901 8.04385675918e-39
0.0250119276266 -0.0717008591963 0.901 7.76691534108e-39
0.0267386111986 -0.0718600175963 0.903 7.49284378223e-39
0.0284097743985 -0.0718600175963 0.903 8.87288735145e-39
0.0300809375984 -0.0718600175963 0.903 8.50482790201e-39
0.0317521007983 -0.0718600175963 0.903 8.5044691696e-39
0.0335343047424 -0.0720987551962 0.906 8.32259183932e-39
0.0352110199796 -0.0720987551962 0.906 8.87396354867e-39
0.0368877352167 -0.0720987551962 0.906 8.59809832779e-39
0.0385644504538 -0.0720987551962 0.906 8.41478606788e-39
0.0403299982863 -0.0722579135962 0.908 8.59738086298e-39
0.0420104148815 -0.0722579135962 0.908 9.52039934585e-39
0.0437870667884 -0.0724170719962 0.91 9.42820511728e-39
0.0456210897465 -0.0726558095962 0.913 1.00714123228e-38
0.0473107597371 -0.0726558095962 0.913 9.97850062942e-39
0.0491077691137 -0.0728149679962 0.915 1.11737970091e-38
0.0509677015787 -0.0730537055962 0.918 1.07149782607e-38
0.0526666249647 -0.0730537055962 0.918 9.23807694164e-39
-0.0172113153479 -0.0722875244614 0.93 2.34986331885e-38
-0.0154901838131 -0.0722875244614 0.93 2.35087211361e-38
-0.0137394414132 -0.0721320674195 0.928 1.42740549549e-38
-0.0119831469761 -0.0718988818567 0.925 7.7364230865e-39
-0.0102712688367 -0.0718988818567 0.925 8.03058366013e-39
-0.00851312372049 -0.0715102392521 0.92 7.57284110897e-39
-0.00679569354383 -0.0713547822102 0.918 7.2976933529e-39
-0.00508011404625 -0.0711215966475 0.915 7.39275744072e-39
-0.0033867426975 -0.0711215966475 0.915 7.20836898359e-39
-0.00168966999061 -0.0709661396056 0.913 7.11725095224e-39
0.0 -0.0709661396056 0.913 7.11832714946e-39
0.00168966999061 -0.0709661396056 0.913 7.30271560659e-39
0.0033682359068 -0.0707329540428 0.91 6.93501488956e-39
0.00504124978578 -0.070577497001 0.908 7.58109195432e-39
0.00672166638105 -0.070577497001 0.908 7.39670349719e-39
0.00840208297631 -0.070577497001 0.908 6.84569052025e-39
0.0100602914227 -0.0704220399591 0.906 7.49069138779e-39
0.0117370066599 -0.0704220399591 0.906 7.76476294664e-39
0.013413721897 -0.0704220399591 0.906 7.39885589164e-39
0.0150404687992 -0.0701888543963 0.903 7.76691534108e-39
0.0167116319991 -0.0701888543963 0.903 8.32008071247e-39
0.018382795199 -0.0701888543963 0.903 8.31972198006e-39
0.020053958399 -0.0701888543963 0.903 8.22788648391e-39
0.0217251215989 -0.0701888543963 0.903 7.86090323168e-39
0.0233962847988 -0.0701888543963 0.903 8.044574224e-39
0.0250674479987 -0.0701888543963 0.903 9.24274046293e-39
0.0267386111986 -0.0701888543963 0.903 8.3218743745e-39
0.0284097743985 -0.0701888543963 0.903 8.50590409923e-39
0.0301808742682 -0.0704220399591 0.906 8.3215156421e-39
0.0318575895053 -0.0704220399591 0.906 8.13712718497e-39
0.0335343047424 -0.0704220399591 0.906 8.59773959539e-39
0.0352110199796 -0.0704220399591 0.906 8.68957509154e-39
0.0368877352167 -0.0704220399591 0.906 9.33349976187e-39
0.0385644504538 -0.0704220399591 0.906 9.97957682664e-39
0.0403299982863 -0.070577497001 0.908 8.87360481627e-39
0.0420104148815 -0.070577497001 0.908 9.52111681066e-39
0.0437870667884 -0.0707329540428 0.91 1.03494299381e-38
0.0456210897465 -0.0709661396056 0.913 1.08997254503e-38
0.047414397765 -0.0711215966475 0.915 1.0989408552e-38
0.0491077691137 -0.0711215966475 0.915 1.11755906711e-38
0.0508011404625 -0.0711215966475 0.915 1.10826789778e-38
0.0530682223228 -0.0718988818567 0.925 8.22358169502e-39
-0.0172113153479 -0.0705663929266 0.93 2.34961136538e-38
-0.0154901838131 -0.0705663929266 0.93 2.3504424755e-38
-0.0137394414132 -0.0704146372428 0.928 1.53807500353e-38
-0.0120220112366 -0.0704146372428 0.928 7.0939333458e-39
-0.0102712688367 -0.0701870037173 0.925 7.48028814799e-39
-0.00851312372049 -0.069807614508 0.92 7.20478165952e-39
-0.00679569354383 -0.0696558588243 0.918 7.20801025118e-39
-0.00509677015787 -0.0696558588243 0.918 6.74811530558e-39
-0.0033867426975 -0.0694282252987 0.915 6.65699727423e-39
-0.00169337134875 -0.0694282252987 0.915 7.85408731595e-39
0.0 -0.0694282252987 0.915 7.66898139401e-39
0.00168966999061 -0.069276469615 0.913 7.4856691341e-39
0.0033682359068 -0.0690488360894 0.91 7.39383363794e-39
0.0050523538602 -0.0690488360894 0.91 7.67328618289e-39
0.00672166638105 -0.0688970804057 0.908 7.21267377247e-39
0.00840208297631 -0.0688970804057 0.908 8.41012254659e-39
0.0100824995716 -0.0688970804057 0.908 7.8565984428e-39
0.0117370066599 -0.068745324722 0.906 7.94879267136e-39
0.013413721897 -0.068745324722 0.906 8.40976381419e-39
0.0150904371341 -0.068745324722 0.906 7.67149252085e-39
0.0167671523712 -0.068745324722 0.906 8.50267550757e-39
0.018382795199 -0.0685176911964 0.903 7.30558546585e-39
0.020053958399 -0.0685176911964 0.903 7.95273872784e-39
0.0217972980826 -0.068745324722 0.906 8.044574224e-39
0.0234740133197 -0.068745324722 0.906 8.044574224e-39
0.0251507285568 -0.068745324722 0.906 7.67651477455e-39
0.026827443794 -0.068745324722 0.906 7.67759097177e-39
0.0285041590311 -0.068745324722 0.906 8.13748591737e-39
0.0301808742682 -0.068745324722 0.906 7.86126196409e-39
0.0318575895053 -0.068745324722 0.906 8.87575721071e-39
0.0335343047424 -0.068745324722 0.906 8.41478606788e-39
0.0352110199796 -0.068745324722 0.906 8.4155035327e-39
0.0369691650957 -0.0688970804057 0.908 8.32259183932e-39
0.038649581691 -0.0688970804057 0.908 8.23039761075e-39
0.0403299982863 -0.0688970804057 0.908 9.33744581835e-39
0.042102948835 -0.0690488360894 0.91 9.24417539256e-39
0.0439314197559 -0.069276469615 0.913 9.42677018766e-39
0.0457210264162 -0.0694282252987 0.915 9.24309919534e-39
0.0475698548068 -0.0696558588243 0.918 1.06227840322e-38
0.0492687781928 -0.0696558588243 0.918 1.08068137569e-38
0.0513563441834 -0.0701870037173 0.925 1.08060962921e-38
0.0530682223228 -0.0701870037173 0.925 1.08972143234e-38
-0.0154901838131 -0.0688452613918 0.93 2.35033359461e-38
-0.0137394414132 -0.0686972070662 0.928 1.5290327048e-38
-0.0120220112366 -0.0686972070662 0.928 7.74216280501e-39
-0.0102712688367 -0.0684751255778 0.925 7.6632416755e-39
-0.00854088390653 -0.0683270712523 0.923 7.11331890875e-39
-0.00681049897639 -0.0681049897639 0.92 7.20765151877e-39
-0.00509677015787 -0.0679569354383 0.918 7.48351673966e-39
-0.0033867426975 -0.06773485395 0.915 7.48387547206e-39
-0.00169337134875 -0.06773485395 0.915 7.6686226616e-39
0.0 -0.06773485395 0.915 7.30163940937e-39
0.00168966999061 -0.0675867996244 0.913 7.57822209507e-39
0.00337933998122 -0.0675867996244 0.913 7.57822209507e-39
0.0050523538602 -0.067364718136 0.91 7.76296928461e-39
0.00672166638105 -0.0672166638105 0.908 7.58145068673e-39
0.00840208297631 -0.0672166638105 0.908 7.21159757525e-39
0.0100824995716 -0.0672166638105 0.908 8.68957509154e-39
0.0117629161668 -0.0672166638105 0.908 7.21267377247e-39
0.0134433327621 -0.0672166638105 0.908 7.58145068673e-39
0.0150904371341 -0.0670686094849 0.906 8.50518663441e-39
0.0167671523712 -0.0670686094849 0.906 7.39957335645e-39
0.0184438676083 -0.0670686094849 0.906 7.95130379821e-39
0.0201205828455 -0.0670686094849 0.906 9.0579932734e-39
0.0217972980826 -0.0670686094849 0.906 7.95202126302e-39
0.0234740133197 -0.0670686094849 0.906 9.15090496677e-39
0.0251507285568 -0.0670686094849 0.906 7.95381492506e-39
0.026827443794 -0.0670686094849 0.906 8.23003887835e-39
0.0285041590311 -0.0670686094849 0.906 8.96615777724e-39
0.0302474987147 -0.0672166638105 0.908 8.59809832779e-39
0.03192791531 -0.0672166638105 0.908 7.86233816131e-39
0.0336083319052 -0.0672166638105 0.908 7.95417365747e-39
0.0352887485005 -0.0672166638105 0.908 8.50698029645e-39
0.0369691650957 -0.0672166638105 0.908 8.50769776126e-39
0.038649581691 -0.0672166638105 0.908 9.70407033816e-39
0.0403299982863 -0.0672166638105 0.908 8.50769776126e-39
0.042102948835 -0.067364718136 0.91 8.8753984783e-39
0.0440276550675 -0.06773485395 0.915 1.00732059848e-38
0.0458709314209 -0.0679569354383 0.918 1.03476362761e-38
0.0475698548068 -0.0679569354383 0.918 1.01625303541e-38
0.0493761175788 -0.0681049897639 0.92 1.08068137569e-38
0.0513563441834 -0.0684751255778 0.925 1.11734382767e-38
0.0530682223228 -0.0684751255778 0.925 1.03418965576e-38
-0.015540152148 -0.0673406593081 0.933 2.35044065382e-38
-0.0137690522784 -0.067124129857 0.93 1.48296866116e-38
-0.0120479207436 -0.067124129857 0.93 6.63332093538e-39
-0.0103045810599 -0.0669797768895 0.928 7.47921195077e-39
-0.00854088390653 -0.0666188944709 0.923 7.48136434521e-39
-0.00681049897639 -0.0664023650198 0.92 6.93071010067e-39
-0.00509677015787 -0.0662580120524 0.918 7.57535223581e-39
-0.00339784677192 -0.0662580120524 0.918 7.39096377868e-39
-0.00169337134875 -0.0660414826012 0.915 7.30128067697e-39
0.0 -0.0660414826012 0.915 7.02577418849e-39
0.00169337134875 -0.0660414826012 0.915 7.66969885882e-39
0.00337933998122 -0.0658971296338 0.913 7.66934012641e-39
0.0050523538602 -0.0656806001826 0.91 7.48674533132e-39
0.0067364718136 -0.0656806001826 0.91 7.85623971039e-39
0.008420589767 -0.0656806001826 0.91 7.6736449153e-39
0.0100824995716 -0.0655362472152 0.908 6.75493122131e-39
0.0117629161668 -0.0655362472152 0.908 7.85982703446e-39
0.0134433327621 -0.0655362472152 0.908 7.67472111252e-39
0.0150904371341 -0.0653918942478 0.906 7.3084553251e-39
0.0167671523712 -0.0653918942478 0.906 7.40100828608e-39
0.0184438676083 -0.0653918942478 0.906 7.95237999543e-39
0.0201205828455 -0.0653918942478 0.906 8.22788648391e-39
0.0217972980826 -0.0653918942478 0.906 7.95237999543e-39
0.0234740133197 -0.0653918942478 0.906 7.49320251464e-39
0.0252062489289 -0.0655362472152 0.908 8.68957509154e-39
0.0268866655242 -0.0655362472152 0.908 7.8619794289e-39
0.0285670821194 -0.0655362472152 0.908 8.8753984783e-39
0.0302474987147 -0.0655362472152 0.908 7.77014393274e-39
0.03192791531 -0.0655362472152 0.908 8.04672661844e-39
0.0336083319052 -0.0655362472152 0.908 8.69208621839e-39
0.0352887485005 -0.0655362472152 0.908 8.32259183932e-39
0.0369691650957 -0.0655362472152 0.908 9.3352934239e-39
0.038649581691 -0.0655362472152 0.908 9.24381666015e-39
0.0404188308816 -0.0656806001826 0.91 9.52147554307e-39
0.0422417497652 -0.0658971296338 0.913 9.79554710191e-39
0.0440276550675 -0.0660414826012 0.915 1.04412654343e-38
0.0458709314209 -0.0662580120524 0.918 9.51932314863e-39
0.0475698548068 -0.0662580120524 0.918 1.07167719227e-38
0.0493761175788 -0.0664023650198 0.92 1.12677848997e-38
0.0513563441834 -0.0667632474384 0.925 1.07121084015e-38
0.0530682223228 -0.0667632474384 0.925 1.20932323718e-38
-0.0137690522784 -0.0654029983222 0.93 1.53843107347e-38
-0.0120479207436 -0.0654029983222 0.93 7.27616940849e-39
-0.0103045810599 -0.0652623467129 0.928 7.75507717165e-39
-0.00855939069723 -0.0650513692989 0.925 7.48136434521e-39
-0.00683270712523 -0.0649107176896 0.923 7.02182813202e-39
-0.00510787423229 -0.0646997402757 0.92 7.48387547206e-39
-0.00339784677192 -0.0645590886664 0.918 7.39275744072e-39
-0.00169337134875 -0.0643481112525 0.915 6.84138573136e-39
0.0 -0.0643481112525 0.915 7.11832714946e-39
0.00169337134875 -0.0643481112525 0.915 7.76189308738e-39
0.00337933998122 -0.0642074596432 0.913 8.22394042743e-39
0.0050523538602 -0.0639964822292 0.91 7.30379180382e-39
0.0067364718136 -0.0639964822292 0.91 7.5800157571e-39
0.008420589767 -0.0639964822292 0.91 7.48889772576e-39
0.0101047077204 -0.0639964822292 0.91 8.04170436474e-39
0.0117888256738 -0.0639964822292 0.91 8.04206309715e-39
0.0134433327621 -0.0638558306199 0.908 8.22645155428e-39
0.0151237493574 -0.0638558306199 0.908 7.85910956965e-39
0.0168041659526 -0.0638558306199 0.908 7.67651477455e-39
0.0184845825479 -0.0638558306199 0.908 7.95166253062e-39
0.0201649991431 -0.0638558306199 0.908 8.41263367344e-39
0.0218454157384 -0.0638558306199 0.908 8.04385675918e-39
0.0235258323337 -0.0638558306199 0.908 7.95237999543e-39
0.0252062489289 -0.0638558306199 0.908 8.41263367344e-39
0.0268866655242 -0.0638558306199 0.908 8.22824521631e-39
0.0285670821194 -0.0638558306199 0.908 7.86126196409e-39
0.0302474987147 -0.0638558306199 0.908 8.04636788603e-39
0.03192791531 -0.0638558306199 0.908 9.24381666015e-39
0.0336083319052 -0.0638558306199 0.908 9.06050440024e-39
0.0352887485005 -0.0638558306199 0.908 8.60060945464e-39
0.0369691650957 -0.0638558306199 0.908 8.87324608386e-39
0.038649581691 -0.0638558306199 0.908 8.87468101349e-39
0.0405520797746 -0.0642074596432 0.913 9.6118761096e-39
0.0422417497652 -0.0642074596432 0.913 9.6118761096e-39
0.0441720080349 -0.0645590886664 0.918 9.24345792775e-39
0.0458709314209 -0.0645590886664 0.918 1.19160213654e-38
0.0476734928347 -0.0646997402757 0.92 1.01614541569e-38
0.0493761175788 -0.0646997402757 0.92 1.19102802456e-38
0.0512453034392 -0.0649107176896 0.923 1.04351669834e-38
0.0529534802205 -0.0649107176896 0.923 1.19099327236e-38
0.0546616570018 -0.0649107176896 0.923 2.35098281619e-38
-0.0137690522784 -0.0636818667874 0.93 1.53853995436e-38
-0.0120479207436 -0.0636818667874 0.93 7.27975673256e-39
-0.0103267892088 -0.0636818667874 0.93 7.66180674587e-39
-0.00855939069723 -0.0633394911595 0.925 8.21891817373e-39
-0.00683270712523 -0.0632025409083 0.923 7.75938196054e-39
-0.00510787423229 -0.0629971155316 0.92 7.30092194456e-39
-0.00339784677192 -0.0628601652804 0.918 6.93357995993e-39
-0.00169892338596 -0.0628601652804 0.918 7.48638659891e-39
0.0 -0.0626547399037 0.915 7.67077505604e-39
0.00169337134875 -0.0626547399037 0.915 6.75062643243e-39
0.0033867426975 -0.0626547399037 0.915 7.48818026094e-39
0.00506900997183 -0.0625177896526 0.913 7.76404548183e-39
0.00675867996244 -0.0625177896526 0.913 8.13210493127e-39
0.00844834995305 -0.0625177896526 0.913 7.85731590761e-39
0.0101380199437 -0.0625177896526 0.913 8.410481279e-39
0.0117888256738 -0.0623123642758 0.91 7.94986886858e-39
0.0134729436272 -0.0623123642758 0.91 8.41155747622e-39
0.0151237493574 -0.0621754140247 0.908 7.95166253062e-39
0.0168041659526 -0.0621754140247 0.908 7.95237999543e-39
0.0185252974874 -0.0623123642758 0.91 7.76978520034e-39
0.0202094154408 -0.0623123642758 0.91 7.76800414999e-39
0.0218454157384 -0.0621754140247 0.908 7.67651477455e-39
0.0235258323337 -0.0621754140247 0.908 8.68957509154e-39
0.0252062489289 -0.0621754140247 0.908 8.32043944488e-39
0.0268866655242 -0.0621754140247 0.908 8.32043944488e-39
0.0285670821194 -0.0621754140247 0.908 9.05978693543e-39
0.0302474987147 -0.0621754140247 0.908 9.15018750196e-39
0.03192791531 -0.0621754140247 0.908 8.50518663441e-39
0.0336083319052 -0.0621754140247 0.908 8.78356298214e-39
0.0352887485005 -0.0621754140247 0.908 8.78284551733e-39
0.0369691650957 -0.0621754140247 0.908 9.05763454099e-39
0.0387347129282 -0.0623123642758 0.91 8.87503974589e-39
0.0405520797746 -0.0625177896526 0.913 9.61295230682e-39
0.042473084649 -0.0628601652804 0.918 9.42856384969e-39
0.0441720080349 -0.0628601652804 0.918 1.01646827486e-38
0.0458709314209 -0.0628601652804 0.918 9.70371160576e-39
0.0476734928347 -0.0629971155316 0.92 1.19131795321e-38
0.0493761175788 -0.0629971155316 0.92 1.08972143234e-38
0.0512453034392 -0.0632025409083 0.923 1.08997254503e-38
0.0529534802205 -0.0632025409083 0.923 1.31984883187e-38
0.0546616570018 -0.0632025409083 0.923 2.350977211e-38
-0.0137690522784 -0.0619607352526 0.93 1.44619957037e-38
-0.0120479207436 -0.0619607352526 0.93 7.46235152765e-39
-0.0103267892088 -0.0619607352526 0.93 8.39971930679e-39
-0.00855939069723 -0.06162761302 0.925 7.38953445425e-39
-0.00683270712523 -0.061494364127 0.923 7.8515761891e-39
-0.00512453034392 -0.061494364127 0.923 6.84066826655e-39
-0.00340524948819 -0.0612944907875 0.92 6.93357995993e-39
-0.00169892338596 -0.0611612418945 0.918 7.11725095224e-39
0.0 -0.060961368555 0.915 8.13174619886e-39
0.00169337134875 -0.060961368555 0.915 7.21088011044e-39
0.0033867426975 -0.060961368555 0.915 7.48889772576e-39
0.00508011404625 -0.060961368555 0.915 8.59451100372e-39
0.00675867996244 -0.0608281196619 0.913 7.02936151256e-39
0.00844834995305 -0.0608281196619 0.913 7.4910501202e-39
0.0101380199437 -0.0608281196619 0.913 8.044574224e-39
0.0118276899343 -0.0608281196619 0.913 7.76691534108e-39
0.0134729436272 -0.0606282463224 0.91 7.39885589164e-39
0.0151570615806 -0.0606282463224 0.91 7.58432054599e-39
0.016841179534 -0.0606282463224 0.91 7.67651477455e-39
0.0185252974874 -0.0606282463224 0.91 7.67651477455e-39
0.0202094154408 -0.0606282463224 0.91 9.42748765247e-39
0.0218454157384 -0.0604949974294 0.908 7.95381492506e-39
0.0235258323337 -0.0604949974294 0.908 8.68957509154e-39
0.0252062489289 -0.0604949974294 0.908 8.22860394872e-39
0.0268866655242 -0.0604949974294 0.908 8.31972198006e-39
0.0286300052078 -0.0606282463224 0.91 8.22932141353e-39
0.0302474987147 -0.0604949974294 0.908 8.50554536682e-39
0.03192791531 -0.0604949974294 0.908 8.23003887835e-39
0.0336083319052 -0.0604949974294 0.908 8.59917452501e-39
0.0353664770214 -0.0606282463224 0.91 8.96759270687e-39
0.0370505949748 -0.0606282463224 0.91 8.87396354867e-39
0.038862409784 -0.0608281196619 0.913 9.15269862881e-39
0.04064091237 -0.060961368555 0.915 9.05871073821e-39
0.042473084649 -0.0611612418945 0.918 9.98101175626e-39
0.0441720080349 -0.0611612418945 0.918 9.70371160576e-39
0.0458709314209 -0.0611612418945 0.918 1.09926371436e-38
0.0476734928347 -0.0612944907875 0.92 1.02550833151e-38
0.0493761175788 -0.0612944907875 0.92 1.20957392947e-38
0.0510787423229 -0.0612944907875 0.92 1.00678249987e-38
0.052781367067 -0.0612944907875 0.92 1.59611300242e-38
0.0544839918111 -0.0612944907875 0.92 2.35097917282e-38
-0.0137690522784 -0.0602396037178 0.93 1.99004868918e-38
-0.0120479207436 -0.0602396037178 0.93 8.18986084878e-39
-0.0103267892088 -0.0602396037178 0.93 7.75328350962e-39
-0.00858715088327 -0.0601100561829 0.928 7.48100561281e-39
-0.00684751255778 -0.0599157348806 0.925 7.57535223581e-39
-0.00512453034392 -0.0597861873457 0.923 7.11545729021e-39
-0.00340524948819 -0.0595918660434 0.92 7.39347490553e-39
-0.0017026247441 -0.0595918660434 0.92 7.11832714946e-39
0.0 -0.0594623185085 0.918 7.21052137803e-39
0.00169892338596 -0.0594623185085 0.918 7.21052137803e-39
0.0033867426975 -0.0592679972062 0.915 7.21123884284e-39
0.00508011404625 -0.0592679972062 0.915 7.67328618289e-39
0.006773485395 -0.0592679972062 0.915 7.58145068673e-39
0.00844834995305 -0.0591384496713 0.913 7.2141087021e-39
0.0101380199437 -0.0591384496713 0.913 6.75385502409e-39
0.0118276899343 -0.0591384496713 0.913 7.49176758501e-39
0.0135173599249 -0.0591384496713 0.913 7.49176758501e-39
0.0151570615806 -0.058944128369 0.91 7.95130379821e-39
0.016841179534 -0.058944128369 0.91 7.67579730974e-39
0.0185863698967 -0.0591384496713 0.913 7.86126196409e-39
0.0202760398873 -0.0591384496713 0.913 7.86126196409e-39
0.0218935333942 -0.058944128369 0.91 7.76906773552e-39
0.0235776513476 -0.058944128369 0.91 8.3215156421e-39
0.025261769301 -0.058944128369 0.91 8.22788648391e-39
0.0269458872544 -0.058944128369 0.91 8.3215156421e-39
0.0286300052078 -0.058944128369 0.91 7.95381492506e-39
0.0303141231612 -0.058944128369 0.91 9.33565215631e-39
0.0319982411146 -0.058944128369 0.91 8.41478606788e-39
0.033682359068 -0.058944128369 0.91 8.59917452501e-39
0.0354830698028 -0.0591384496713 0.913 9.70335287335e-39
0.0371727397934 -0.0591384496713 0.913 8.59773959539e-39
0.038862409784 -0.0591384496713 0.913 9.24453412497e-39
0.04064091237 -0.0592679972062 0.915 9.97993555904e-39
0.042473084649 -0.0594623185085 0.918 9.70371160576e-39
0.0441720080349 -0.0594623185085 0.918 1.03490712057e-38
0.0458709314209 -0.0594623185085 0.918 1.10833964426e-38
0.0476734928347 -0.0595918660434 0.92 1.13603378607e-38
0.0493761175788 -0.0595918660434 0.92 1.13592616634e-38
0.0510787423229 -0.0595918660434 0.92 1.03426140224e-38
0.052781367067 -0.0595918660434 0.92 2.11129127439e-38
0.0544839918111 -0.0595918660434 0.92 2.35097945307e-38
-0.013813468576 -0.0587072414481 0.933 2.27589213603e-38
-0.012086785004 -0.0587072414481 0.933 7.81821407526e-39
-0.0103267892088 -0.058518472183 0.93 9.04615510397e-39
-0.00858715088327 -0.0583926260063 0.928 7.66431787272e-39
-0.00684751255778 -0.0582038567412 0.925 8.22071183577e-39
-0.00513563441834 -0.0582038567412 0.925 7.39132251109e-39
-0.00341635356261 -0.0580780105644 0.923 7.76153435498e-39
-0.00170817678131 -0.0580780105644 0.923 7.48638659891e-39
0.0 -0.0578892412993 0.92 7.39383363794e-39
0.00169892338596 -0.0577633951226 0.918 8.22465789224e-39
0.00339784677192 -0.0577633951226 0.918 7.67185125326e-39
0.00508011404625 -0.0575746258575 0.915 7.67041632363e-39
0.006773485395 -0.0575746258575 0.915 8.40940508178e-39
0.00846685674374 -0.0575746258575 0.915 7.94879267136e-39
0.0101602280925 -0.0575746258575 0.915 7.4910501202e-39
0.0118276899343 -0.0574487796807 0.913 7.58396181358e-39
0.0135173599249 -0.0574487796807 0.913 7.67472111252e-39
0.0152070299155 -0.0574487796807 0.913 8.68921635914e-39
0.0168966999061 -0.0574487796807 0.913 7.67472111252e-39
0.0185863698967 -0.0574487796807 0.913 8.41227494103e-39
0.0202760398873 -0.0574487796807 0.913 8.22788648391e-39
0.0218935333942 -0.0572600104156 0.91 7.86126196409e-39
0.0235776513476 -0.0572600104156 0.91 8.22932141353e-39
0.0253450498591 -0.0574487796807 0.913 8.41514480029e-39
0.0270347198498 -0.0574487796807 0.913 8.69065128876e-39
0.0287243898404 -0.0574487796807 0.913 8.59738086298e-39
0.0303141231612 -0.0572600104156 0.91 8.69029255636e-39
0.0319982411146 -0.0572600104156 0.91 8.69029255636e-39
0.033682359068 -0.0572600104156 0.91 9.15018750196e-39
0.0354830698028 -0.0574487796807 0.913 1.03476460852e-38
0.0371727397934 -0.0574487796807 0.913 8.41514480029e-39
0.0389475410212 -0.0575746258575 0.915 8.87503974589e-39
0.04064091237 -0.0575746258575 0.915 9.42748765247e-39
0.042473084649 -0.0577633951226 0.918 1.03469188113e-38
0.0441720080349 -0.0577633951226 0.918 1.05305898036e-38
0.0458709314209 -0.0577633951226 0.918 1.06238602294e-38
0.0475698548068 -0.0577633951226 0.918 1.16369205464e-38
0.0492687781928 -0.0577633951226 0.918 1.03454838816e-38
0.0510787423229 -0.0578892412993 0.92 9.05225355489e-39
0.052781367067 -0.0578892412993 0.92 2.3509786123e-38
-0.0138430794411 -0.0571027026947 0.935 2.22957683958e-38
-0.012112694511 -0.0571027026947 0.935 1.21510093088e-38
-0.010360101432 -0.0569805578761 0.933 8.94786242449e-39
-0.00860565767397 -0.0567973406482 0.93 7.66575280234e-39
-0.00686972070662 -0.0566751958296 0.928 8.03560591382e-39
-0.00515229052996 -0.0566751958296 0.928 7.30056321215e-39
-0.00342375627889 -0.0564919786017 0.925 6.65592107701e-39
-0.00171187813945 -0.0564919786017 0.925 7.11976207909e-39
0.0 -0.0563698337831 0.923 7.48710406372e-39
0.0017026247441 -0.0561866165552 0.92 7.21123884284e-39
0.00339784677192 -0.0560644717366 0.918 7.58037448951e-39
0.00509677015787 -0.0560644717366 0.918 7.76404548183e-39
0.00679569354383 -0.0560644717366 0.918 7.58073322192e-39
0.00849461692979 -0.0560644717366 0.918 7.67185125326e-39
0.0101935403157 -0.0560644717366 0.918 8.13640972015e-39
0.0118535994412 -0.0558812545087 0.915 8.22645155428e-39
0.01354697079 -0.0558812545087 0.915 9.14588271308e-39
0.0152403421387 -0.0558812545087 0.915 8.87181115423e-39
0.0169337134875 -0.0558812545087 0.915 8.96544031242e-39
0.0186270848362 -0.0558812545087 0.915 7.95381492506e-39
0.020320456185 -0.0558812545087 0.915 8.32043944488e-39
0.0219657098779 -0.0557591096901 0.913 8.13748591737e-39
0.0236553798685 -0.0557591096901 0.913 8.96615777724e-39
0.0253450498591 -0.0557591096901 0.913 9.33601088872e-39
0.02709394158 -0.0558812545087 0.915 8.13748591737e-39
0.0287243898404 -0.0557591096901 0.913 9.0583520058e-39
0.030414059831 -0.0557591096901 0.913 9.15090496677e-39
0.0321037298216 -0.0557591096901 0.913 8.87396354867e-39
0.0337933998122 -0.0557591096901 0.913 8.87503974589e-39
0.0355607983237 -0.0558812545087 0.915 8.87396354867e-39
0.0372541696725 -0.0558812545087 0.915 8.50733902885e-39
0.0389475410212 -0.0558812545087 0.915 1.0257270742e-38
0.040774161263 -0.0560644717366 0.918 9.97993555904e-39
0.0425656186024 -0.0561866165552 0.92 1.10848313722e-38
0.0441720080349 -0.0560644717366 0.918 1.08078899541e-38
0.0458709314209 -0.0560644717366 0.918 1.04405479695e-38
0.0475698548068 -0.0560644717366 0.918 1.0991202214e-38
0.0492687781928 -0.0560644717366 0.918 9.60936498275e-39
0.0509677015787 -0.0560644717366 0.918 1.66064826176e-38
-0.0156567449294 -0.0556684264157 0.94 2.35018575762e-38
-0.0138430794411 -0.0553723177646 0.935 2.27581926851e-38
-0.012112694511 -0.0553723177646 0.935 1.65709975366e-38
-0.0103823095809 -0.0553723177646 0.935 1.16968288583e-38
-0.00860565767397 -0.0550762091134 0.93 9.31843300078e-39
-0.00686972070662 -0.054957765653 0.928 8.22107056817e-39
-0.00515229052996 -0.054957765653 0.928 7.57606970063e-39
-0.00342375627889 -0.0547801004623 0.925 7.57858082748e-39
-0.00171187813945 -0.0547801004623 0.925 7.76368674942e-39
0.0 -0.0546616570018 0.923 7.48710406372e-39
0.0017026247441 -0.0544839918111 0.92 7.39670349719e-39
0.00340524948819 -0.0544839918111 0.92 7.76368674942e-39
0.00509677015787 -0.0543655483507 0.918 7.39670349719e-39
0.00679569354383 -0.0543655483507 0.918 7.67579730974e-39
0.00849461692979 -0.0543655483507 0.918 7.58324434876e-39
0.0101935403157 -0.0543655483507 0.918 7.95130379821e-39
0.0118535994412 -0.05418788316 0.915 7.94951013618e-39
0.01354697079 -0.05418788316 0.915 8.5930760741e-39
0.0152403421387 -0.05418788316 0.915 8.77782326363e-39
0.0169337134875 -0.05418788316 0.915 8.41263367344e-39
0.0186270848362 -0.05418788316 0.915 7.67687350696e-39
0.020320456185 -0.05418788316 0.915 8.3215156421e-39
0.0220138275337 -0.05418788316 0.915 7.95345619265e-39
0.0237071988825 -0.05418788316 0.915 8.59738086298e-39
0.0254005702312 -0.05418788316 0.915 8.87288735145e-39
0.0271827741753 -0.0543655483507 0.918 8.78069312289e-39
0.0287873129287 -0.05418788316 0.915 8.59809832779e-39
0.0304806842775 -0.05418788316 0.915 8.69029255636e-39
0.0321740556262 -0.05418788316 0.915 8.96651650964e-39
0.033867426975 -0.05418788316 0.915 1.09025981121e-38
0.0355607983237 -0.05418788316 0.915 8.50733902885e-39
0.0373763144911 -0.0543655483507 0.918 9.06086313265e-39
0.039075237877 -0.0543655483507 0.918 8.96866890409e-39
0.040774161263 -0.0543655483507 0.918 9.97993555904e-39
0.0425656186024 -0.0544839918111 0.92 9.70442907057e-39
0.0442682433465 -0.0544839918111 0.92 1.06242189618e-38
0.0459708680906 -0.0544839918111 0.92 9.88738259807e-39
0.0476734928347 -0.0544839918111 0.92 1.07149782607e-38
0.0493761175788 -0.0544839918111 0.92 1.18184391442e-38
0.0510787423229 -0.0544839918111 0.92 2.35064636443e-38
-0.0156567449294 -0.0539287880902 0.94 2.34990073352e-38
-0.0139171066039 -0.0539287880902 0.94 2.2203207027e-38
-0.0121774682784 -0.0539287880902 0.94 1.86911410937e-38
-0.0104156218041 -0.0538140459879 0.938 1.79593746278e-38
-0.00863341786002 -0.0535271907321 0.933 1.31744476422e-38
-0.00688452613918 -0.0533550775786 0.93 8.58016170745e-39
-0.00515229052996 -0.0532403354763 0.928 7.75902322813e-39
-0.00343486035331 -0.0532403354763 0.928 8.22394042743e-39
-0.00171187813945 -0.0530682223228 0.925 7.67077505604e-39
0.0 -0.0529534802205 0.923 7.67077505604e-39
0.00170817678131 -0.0529534802205 0.923 7.76404548183e-39
0.00340524948819 -0.052781367067 0.92 8.59199987688e-39
0.00510787423229 -0.052781367067 0.92 7.48889772576e-39
0.00681049897639 -0.052781367067 0.92 7.39885589164e-39
0.00849461692979 -0.0526666249647 0.918 7.12299067075e-39
0.0101935403157 -0.0526666249647 0.918 7.94951013618e-39
0.0118535994412 -0.0524945118112 0.915 7.58396181358e-39
0.01354697079 -0.0524945118112 0.915 8.04385675918e-39
0.0152403421387 -0.0524945118112 0.915 7.85910956965e-39
0.0169337134875 -0.0524945118112 0.915 7.86018716816e-39
0.0186270848362 -0.0524945118112 0.915 7.67687350696e-39
0.020320456185 -0.0524945118112 0.915 8.59738086298e-39
0.0220138275337 -0.0524945118112 0.915 8.68957509154e-39
0.0237071988825 -0.0524945118112 0.915 8.13712718497e-39
0.0254838507894 -0.0526666249647 0.918 7.67507984492e-39
0.0271827741753 -0.0526666249647 0.918 8.59738086298e-39
0.0288816975613 -0.0526666249647 0.918 8.69029255636e-39
0.0305806209472 -0.0526666249647 0.918 9.42569399043e-39
0.0322795443332 -0.0526666249647 0.918 8.50626283163e-39
0.0339784677192 -0.0526666249647 0.918 8.22932141353e-39
0.0356773911051 -0.0526666249647 0.918 8.41657972992e-39
0.0373763144911 -0.0526666249647 0.918 1.02579741938e-38
0.039075237877 -0.0526666249647 0.918 1.01643240162e-38
0.040774161263 -0.0526666249647 0.918 9.05727580858e-39
0.0425656186024 -0.052781367067 0.92 1.01646827486e-38
0.0442682433465 -0.052781367067 0.92 9.42677018766e-39
0.0459708680906 -0.052781367067 0.92 1.07149782607e-38
0.0476734928347 -0.052781367067 0.92 1.43941378255e-38
0.0493761175788 -0.052781367067 0.92 2.34138546314e-38
-0.0157067132643 -0.052355710881 0.943 2.35051197991e-38
-0.0139615229016 -0.052355710881 0.943 2.24805324009e-38
-0.0122163325389 -0.052355710881 0.943 1.96123911379e-38
-0.0104156218041 -0.0520781090205 0.938 1.88809301551e-38
-0.00867968483676 -0.0520781090205 0.938 1.95277611184e-38
-0.00690673428801 -0.0518005071601 0.933 1.46467204724e-38
-0.00516339460438 -0.0516339460438 0.93 1.18012199887e-38
-0.00343486035331 -0.0515229052996 0.928 8.03381225179e-39
-0.00171187813945 -0.0513563441834 0.925 8.22142930058e-39
0.0 -0.0513563441834 0.925 8.13031126924e-39
0.00170817678131 -0.0512453034392 0.923 7.21159757525e-39
0.00340524948819 -0.0510787423229 0.92 7.67149252085e-39
0.00510787423229 -0.0510787423229 0.92 7.85623971039e-39
0.00681049897639 -0.0510787423229 0.92 7.2141087021e-39
0.00849461692979 -0.0509677015787 0.918 7.67579730974e-39
0.0101935403157 -0.0509677015787 0.918 8.22609282187e-39
0.0118535994412 -0.0508011404625 0.915 8.41227494103e-39
0.01354697079 -0.0508011404625 0.915 8.40976381419e-39
0.0152403421387 -0.0508011404625 0.915 8.32008071247e-39
0.0169337134875 -0.0508011404625 0.915 7.95273872784e-39
0.0186881572455 -0.0509677015787 0.918 7.95345619265e-39
0.0203870806315 -0.0509677015787 0.918 8.22788648391e-39
0.0220860040175 -0.0509677015787 0.918 8.59809832779e-39
0.0237849274034 -0.0509677015787 0.918 8.22932141353e-39
0.0254838507894 -0.0509677015787 0.918 8.9647298541e-39
0.0271827741753 -0.0509677015787 0.918 9.42784638488e-39
0.0288816975613 -0.0509677015787 0.918 8.50590409923e-39
0.0305806209472 -0.0509677015787 0.918 7.86126196409e-39
