# .PCD v0.7 - Point Cloud Data file format
VERSION 0.7
FIELDS x y z rgb
SIZE 4 4 4 4
TYPE F F F F
COUNT 1 1 1 1
WIDTH 842
HEIGHT 1
VIEWPOINT 0 0 0 1 0 0 0
POINTS 842
DATA ascii
0.0221341216733 -0.0629971155316 0.92 7.67651477455e-39
0.0238367464174 -0.0629971155316 0.92 9.33385849428e-39
0.0256226517196 -0.0632025409083 0.923 9.79447090469e-39
0.0273900502311 -0.0633394911595 0.925 9.05548214655e-39
0.0291019283706 -0.0633394911595 0.925 8.96400818539e-39
0.03081380651 -0.0633394911595 0.925 9.70048301409e-39
0.0326311733564 -0.0635449165362 0.928 9.79160104544e-39
0.0343486035331 -0.0635449165362 0.928 9.88415400641e-39
0.0361437622307 -0.0636818667874 0.93 1.00685424635e-38
0.0379870385841 -0.0638872921641 0.933 9.88666513326e-39
0.0397137221561 -0.0638872921641 0.933 1.06224252997e-38
0.0414404057281 -0.0638872921641 0.933 9.88271907678e-39
0.0431670893001 -0.0638872921641 0.933 2.05587244246e-38
-0.0280118783985 -0.0630267263967 0.946 2.34932451959e-38
-0.0262611359986 -0.0630267263967 0.946 2.34968311187e-38
-0.0244326650778 -0.0628268530572 0.943 2.35026268891e-38
-0.0226152982314 -0.0626269797177 0.94 1.13205549973e-38
-0.0208756599059 -0.0626269797177 0.94 8.75773424885e-39
-0.0190953066409 -0.0624937308247 0.938 7.38701772221e-39
-0.0173038493014 -0.0622938574851 0.935 7.11222869855e-39
-0.015540152148 -0.0621606085921 0.933 8.12780014239e-39
-0.0137690522784 -0.0619607352526 0.93 7.11330489577e-39
-0.0120479207436 -0.0619607352526 0.93 7.94520534729e-39
-0.0103267892088 -0.0619607352526 0.93 7.29912828253e-39
-0.00858715088327 -0.0618274863596 0.928 7.57858082748e-39
-0.00684751255778 -0.06162761302 0.925 7.11796841706e-39
-0.00513563441834 -0.06162761302 0.925 7.48674533132e-39
-0.00342375627889 -0.06162761302 0.925 7.11760968465e-39
-0.00170817678131 -0.061494364127 0.923 7.76153435498e-39
0.0 -0.0612944907875 0.92 7.76296928461e-39
0.0017026247441 -0.0612944907875 0.92 7.76368674942e-39
0.00339784677192 -0.0611612418945 0.918 7.57858082748e-39
0.00509677015787 -0.0611612418945 0.918 7.94843393896e-39
0.00679569354383 -0.0611612418945 0.918 8.0395519703e-39
0.00849461692979 -0.0611612418945 0.918 8.04170436474e-39
0.0101935403157 -0.0611612418945 0.918 8.04170436474e-39
0.0119183732087 -0.0612944907875 0.92 7.4910501202e-39
0.0136209979528 -0.0612944907875 0.92 7.67579730974e-39
0.0153236226969 -0.0612944907875 0.92 7.94951013618e-39
0.017026247441 -0.0612944907875 0.92 9.05584087895e-39
0.0187288721851 -0.0612944907875 0.92 8.96328791798e-39
0.0204314969292 -0.0612944907875 0.92 7.76691534108e-39
0.022206298157 -0.061494364127 0.923 8.044574224e-39
0.0239144749383 -0.061494364127 0.923 8.22788648391e-39
0.0256781720917 -0.06162761302 0.925 7.95166253062e-39
0.0273900502311 -0.06162761302 0.925 9.9777831646e-39
0.0291963130031 -0.0618274863596 0.928 8.87073495701e-39
0.0309137431798 -0.0618274863596 0.928 9.883795274e-39
0.0326311733564 -0.0618274863596 0.928 9.42318286359e-39
0.0343486035331 -0.0618274863596 0.928 1.20035450662e-38
0.0362603550121 -0.0621606085921 0.933 9.6064951235e-39
0.0379870385841 -0.0621606085921 0.933 1.13589113388e-38
0.0397988533933 -0.0622938574851 0.935 1.02511372586e-38
0.0415292383234 -0.0622938574851 0.935 7.94664027692e-39
0.0432596232536 -0.0622938574851 0.935 2.3506917665e-38
-0.0280118783985 -0.0612759839968 0.946 2.3491457139e-38
-0.0262611359986 -0.0612759839968 0.946 2.34961304694e-38
-0.0244326650778 -0.0610816626945 0.943 2.35040842395e-38
-0.0226874747151 -0.0610816626945 0.943 1.45416314954e-38
-0.0209422843524 -0.0610816626945 0.943 1.15082014733e-38
-0.0191360215804 -0.0608873413922 0.94 8.94929735411e-39
-0.0173593696735 -0.0607577938573 0.938 7.84870632985e-39
-0.0155734643713 -0.060563472555 0.935 7.48136434521e-39
-0.013813468576 -0.0604339250201 0.933 7.02254559683e-39
-0.0120479207436 -0.0602396037178 0.93 7.20729278637e-39
-0.0103267892088 -0.0602396037178 0.93 6.83923333692e-39
-0.00858715088327 -0.0601100561829 0.928 6.84210319618e-39
-0.00686972070662 -0.0601100561829 0.928 6.93501488956e-39
-0.00513563441834 -0.0599157348806 0.925 7.48674533132e-39
-0.00342375627889 -0.0599157348806 0.925 7.76189308738e-39
-0.00171187813945 -0.0599157348806 0.925 7.76296928461e-39
0.0 -0.0597861873457 0.923 7.303074339e-39
0.00170817678131 -0.0597861873457 0.923 7.21267377247e-39
0.00340524948819 -0.0595918660434 0.92 7.48818026094e-39
0.00510787423229 -0.0595918660434 0.92 8.22429915984e-39
0.00681049897639 -0.0595918660434 0.92 8.13210493127e-39
0.00851312372049 -0.0595918660434 0.92 8.410481279e-39
0.0102157484646 -0.0595918660434 0.92 7.21195630766e-39
0.0119183732087 -0.0595918660434 0.92 7.85910956965e-39
0.0136209979528 -0.0595918660434 0.92 8.22609282187e-39
0.0153236226969 -0.0595918660434 0.92 8.68562903507e-39
0.0170817678131 -0.0597861873457 0.923 8.22681028668e-39
0.0187899445944 -0.0597861873457 0.923 8.410481279e-39
0.0205425376733 -0.0599157348806 0.925 8.78033439048e-39
0.0222544158128 -0.0599157348806 0.925 8.50482790201e-39
0.0239662939522 -0.0599157348806 0.925 8.68957509154e-39
0.0256781720917 -0.0599157348806 0.925 8.04421549159e-39
0.0274788828265 -0.0601100561829 0.928 9.0579932734e-39
0.0291963130031 -0.0601100561829 0.928 9.51609455696e-39
0.0309137431798 -0.0601100561829 0.928 9.517888219e-39
0.0326311733564 -0.0601100561829 0.928 9.70227667613e-39
0.0344226306959 -0.0602396037178 0.93 9.33349976187e-39
0.0362603550121 -0.0604339250201 0.933 1.06217078349e-38
0.0380684684631 -0.060563472555 0.935 1.08961381262e-38
0.0397988533933 -0.060563472555 0.935 8.7760296016e-39
0.0415292383234 -0.060563472555 0.935 1.62312499214e-38
0.0432596232536 -0.060563472555 0.935 2.35051071874e-38
-0.0280118783985 -0.0595252415969 0.946 2.34914655468e-38
-0.0262611359986 -0.0595252415969 0.946 2.34939542529e-38
-0.0245103935987 -0.0595252415969 0.946 2.34993730741e-38
-0.0227596511988 -0.0595252415969 0.946 1.81354687993e-38
-0.0210089087989 -0.0595252415969 0.946 1.53750481519e-38
-0.0191970939897 -0.0593364723318 0.943 9.76613104455e-39
-0.017451903627 -0.0593364723318 0.943 8.30465521897e-39
-0.0156234327062 -0.0590218568899 0.938 7.57355857378e-39
-0.0138430794411 -0.0588330876248 0.935 7.20621658915e-39
-0.012086785004 -0.0587072414481 0.933 7.29984574734e-39
-0.010360101432 -0.0587072414481 0.933 7.02290432924e-39
-0.00860565767397 -0.058518472183 0.93 7.30056321215e-39
-0.00686972070662 -0.0583926260063 0.928 7.11796841706e-39
-0.00515229052996 -0.0583926260063 0.928 7.30343307141e-39
-0.00343486035331 -0.0583926260063 0.928 7.48710406372e-39
-0.00171187813945 -0.0582038567412 0.925 7.48638659891e-39
0.0 -0.0582038567412 0.925 7.21088011044e-39
0.00171187813945 -0.0582038567412 0.925 8.68598776747e-39
0.00341635356261 -0.0580780105644 0.923 7.303074339e-39
0.00512453034392 -0.0580780105644 0.923 8.13174619886e-39
0.00683270712523 -0.0580780105644 0.923 7.76332801701e-39
0.00854088390653 -0.0580780105644 0.923 8.40940788438e-39
0.0102490606878 -0.0580780105644 0.923 8.31685212081e-39
0.0119572374691 -0.0580780105644 0.923 8.04385675918e-39
0.0136654142505 -0.0580780105644 0.923 8.22609282187e-39
0.0153735910318 -0.0580780105644 0.923 9.33206483224e-39
0.0170817678131 -0.0580780105644 0.923 8.68778142951e-39
0.0187899445944 -0.0580780105644 0.923 8.044574224e-39
0.0205425376733 -0.0582038567412 0.925 8.87073495701e-39
0.0222544158128 -0.0582038567412 0.925 8.32043944488e-39
0.0239662939522 -0.0582038567412 0.925 8.044574224e-39
0.0257614526498 -0.0583926260063 0.928 9.14982876955e-39
0.0274788828265 -0.0583926260063 0.928 8.87324608386e-39
0.0291963130031 -0.0583926260063 0.928 9.79160104544e-39
0.0309803676263 -0.058518472183 0.93 8.78069312289e-39
0.0327014991611 -0.058518472183 0.93 1.0163247819e-38
0.0345336714401 -0.0587072414481 0.933 1.03469188113e-38
0.036338083533 -0.0588330876248 0.935 1.03465600789e-38
0.0380684684631 -0.0588330876248 0.935 9.14624144548e-39
0.0397988533933 -0.0588330876248 0.935 1.26453341576e-38
0.0415292383234 -0.0588330876248 0.935 2.35033009137e-38
0.0432596232536 -0.0588330876248 0.935 2.34976116419e-38
-0.0280118783985 -0.057774499197 0.946 2.3494715158e-38
-0.0261778554405 -0.0575912819691 0.943 2.34939654633e-38
-0.0244326650778 -0.0575912819691 0.943 2.35004590804e-38
-0.0227596511988 -0.057774499197 0.946 1.60131672427e-38
-0.0210089087989 -0.057774499197 0.946 1.97949705187e-38
-0.0191970939897 -0.0575912819691 0.943 1.59335734899e-38
-0.0173963832549 -0.0574080647412 0.94 1.09650147483e-38
-0.0156567449294 -0.0574080647412 0.94 8.58195536948e-39
-0.0138874957388 -0.0572859199226 0.938 7.57535223581e-39
-0.012112694511 -0.0571027026947 0.935 7.11545729021e-39
-0.010360101432 -0.0569805578761 0.933 7.66934012641e-39
-0.00863341786002 -0.0569805578761 0.933 7.208727716e-39
-0.00688452613918 -0.0567973406482 0.93 8.40832888456e-39
-0.00515229052996 -0.0566751958296 0.928 7.303074339e-39
-0.00343486035331 -0.0566751958296 0.928 7.67077505604e-39
-0.00171743017665 -0.0566751958296 0.928 7.58037448951e-39
0.0 -0.0566751958296 0.928 7.67185125326e-39
0.00171187813945 -0.0564919786017 0.925 7.48674533132e-39
0.00342375627889 -0.0564919786017 0.925 7.76296928461e-39
0.00513563441834 -0.0564919786017 0.925 8.13174619886e-39
0.00684751255778 -0.0564919786017 0.925 7.94735774173e-39
0.00855939069723 -0.0564919786017 0.925 8.59451100372e-39
0.0102712688367 -0.0564919786017 0.925 8.31756958562e-39
0.0119831469761 -0.0564919786017 0.925 7.67472111252e-39
0.0136950251156 -0.0564919786017 0.925 8.68921635914e-39
0.015406903255 -0.0564919786017 0.925 7.95166253062e-39
0.0171187813945 -0.0564919786017 0.925 8.32043944488e-39
0.0188306595339 -0.0564919786017 0.925 7.86018576687e-39
0.0205425376733 -0.0564919786017 0.925 8.41263367344e-39
0.0222544158128 -0.0564919786017 0.925 8.32043944488e-39
0.0239662939522 -0.0564919786017 0.925 8.87324608386e-39
0.0257614526498 -0.0566751958296 0.928 8.87288735145e-39
0.0274788828265 -0.0566751958296 0.928 9.33314102946e-39
0.0292592360915 -0.0567973406482 0.93 9.33349976187e-39
0.0309803676263 -0.0567973406482 0.93 9.51824695141e-39
0.0328069878681 -0.0569805578761 0.933 9.97850062942e-39
0.0346076986028 -0.0571027026947 0.935 9.14911130474e-39
0.036338083533 -0.0571027026947 0.935 9.7008417465e-39
0.0380684684631 -0.0571027026947 0.935 1.32852959559e-38
0.0399265502491 -0.0572859199226 0.938 2.35025666333e-38
0.0416624872164 -0.0572859199226 0.938 2.35015548958e-38
0.0436297590675 -0.0575912819691 0.943 2.34964976096e-38
-0.0261778554405 -0.0558460916064 0.943 2.34936193426e-38
-0.0244326650778 -0.0558460916064 0.943 2.35036834681e-38
-0.0227596511988 -0.0560237567971 0.946 1.71202434762e-38
-0.0210089087989 -0.0560237567971 0.946 1.91496011097e-38
-0.0191970939897 -0.0558460916064 0.943 1.87855073349e-38
-0.0173963832549 -0.0556684264157 0.94 1.75001761276e-38
-0.0156567449294 -0.0556684264157 0.94 1.40967486603e-38
-0.0138874957388 -0.0555499829552 0.938 1.02353530327e-38
-0.012112694511 -0.0553723177646 0.935 8.67953058415e-39
-0.010360101432 -0.0552538743041 0.933 7.66826392919e-39
-0.00863341786002 -0.0552538743041 0.933 7.29984574734e-39
-0.00688452613918 -0.0550762091134 0.93 7.48531040169e-39
-0.00515229052996 -0.054957765653 0.928 7.30271560659e-39
-0.00343486035331 -0.054957765653 0.928 7.48674533132e-39
-0.00171743017665 -0.054957765653 0.928 7.85623971039e-39
0.0 -0.054957765653 0.928 7.58073322192e-39
0.00171187813945 -0.0547801004623 0.925 8.40976381419e-39
0.00342375627889 -0.0547801004623 0.925 7.94699900933e-39
0.00513563441834 -0.0547801004623 0.925 8.5930760741e-39
0.00684751255778 -0.0547801004623 0.925 8.22394042743e-39
0.00855939069723 -0.0547801004623 0.925 7.4910501202e-39
0.0102712688367 -0.0547801004623 0.925 7.85875083724e-39
0.0119831469761 -0.0547801004623 0.925 8.13425732571e-39
0.0136950251156 -0.0547801004623 0.925 7.94951013618e-39
0.015406903255 -0.0547801004623 0.925 7.85982703446e-39
0.0171187813945 -0.0547801004623 0.925 8.68957509154e-39
0.0188306595339 -0.0547801004623 0.925 7.95202126302e-39
0.0206091621199 -0.054957765653 0.928 8.50482790201e-39
0.0223265922965 -0.054957765653 0.928 8.59809832779e-39
0.0240440224732 -0.054957765653 0.928 8.78069312289e-39
0.0258169730219 -0.0550762091134 0.93 8.87288735145e-39
0.0275381045567 -0.0550762091134 0.93 9.2413055333e-39
0.0292592360915 -0.0550762091134 0.93 8.78069312289e-39
0.0310803042961 -0.0552538743041 0.933 9.51860568381e-39
0.0328773136727 -0.0553723177646 0.935 8.50482790201e-39
0.0346076986028 -0.0553723177646 0.935 9.88594766845e-39
0.0364546763144 -0.0555499829552 0.938 1.65978478165e-38
0.0381906132817 -0.0555499829552 0.938 2.34982702522e-38
0.0400116814863 -0.0556684264157 0.94 2.34979423483e-38
0.0417513198118 -0.0556684264157 0.94 2.3493574501e-38
0.0436297590675 -0.0558460916064 0.943 2.34965130239e-38
0.0453749494302 -0.0558460916064 0.943 2.34975724055e-38
-0.0262611359986 -0.0542730143972 0.946 2.34946829281e-38
-0.0245103935987 -0.0542730143972 0.946 2.34993716728e-38
-0.0227596511988 -0.0542730143972 0.946 1.62904800049e-38
-0.0210533250966 -0.0543877564995 0.948 1.97960270977e-38
-0.019258166399 -0.0542730143972 0.946 1.91535681856e-38
-0.017451903627 -0.0541009012437 0.943 1.94305236167e-38
-0.0156567449294 -0.0539287880902 0.94 1.95256115266e-38
-0.0138874957388 -0.0538140459879 0.938 1.6396273835e-38
-0.0121515587715 -0.0538140459879 0.938 1.28071056576e-38
-0.0103823095809 -0.0536419328344 0.935 9.31520440912e-39
-0.00863341786002 -0.0535271907321 0.933 7.66575280234e-39
-0.00690673428801 -0.0535271907321 0.933 7.85336985114e-39
-0.00516339460438 -0.0533550775786 0.93 8.12995253683e-39
-0.00343486035331 -0.0532403354763 0.928 7.48638659891e-39
-0.00171743017665 -0.0532403354763 0.928 7.67185125326e-39
0.0 -0.0532403354763 0.928 7.48818026094e-39
0.00171743017665 -0.0532403354763 0.928 7.76332801701e-39
0.00342375627889 -0.0530682223228 0.925 8.77674706641e-39
0.00513563441834 -0.0530682223228 0.925 8.59235860928e-39
0.00684751255778 -0.0530682223228 0.925 8.31685212081e-39
0.00855939069723 -0.0530682223228 0.925 7.76512167905e-39
0.0102712688367 -0.0530682223228 0.925 8.32008071247e-39
0.0119831469761 -0.0530682223228 0.925 7.94986886858e-39
0.0137394414132 -0.0532403354763 0.928 8.50267550757e-39
0.015406903255 -0.0530682223228 0.925 8.22896268113e-39
0.0171187813945 -0.0530682223228 0.925 8.50518663441e-39
0.0188917319432 -0.0532403354763 0.928 8.68849889432e-39
0.0206091621199 -0.0532403354763 0.928 9.33134736743e-39
0.0223265922965 -0.0532403354763 0.928 8.50482790201e-39
0.0240440224732 -0.0532403354763 0.928 9.0583520058e-39
0.0258169730219 -0.0533550775786 0.93 8.59773959539e-39
0.0275381045567 -0.0533550775786 0.93 9.4239003284e-39
0.0293536207241 -0.0535271907321 0.933 9.51573582456e-39
0.0310803042961 -0.0535271907321 0.933 1.09879736223e-38
0.0328773136727 -0.0536419328344 0.935 1.3928144429e-38
0.034718739347 -0.0538140459879 0.938 2.21187843997e-38
0.0364546763144 -0.0538140459879 0.938 2.35007757738e-38
0.0381906132817 -0.0538140459879 0.938 2.34968535394e-38
0.0400116814863 -0.0539287880902 0.94 2.34950248449e-38
0.0417513198118 -0.0539287880902 0.94 2.34939934893e-38
0.0437685599977 -0.0542730143972 0.946 2.34972360939e-38
0.0457598906767 -0.054559869653 0.951 2.34975625965e-38
-0.0262611359986 -0.0525222719973 0.946 2.34943227944e-38
-0.0245103935987 -0.0525222719973 0.946 2.34993674689e-38
-0.0228077688546 -0.0526333127414 0.948 1.74904497149e-38
-0.0210533250966 -0.0526333127414 0.948 1.9332586867e-38
-0.019258166399 -0.0525222719973 0.946 2.04421700235e-38
-0.0175074239991 -0.0525222719973 0.946 1.87833563417e-38
-0.0157067132643 -0.052355710881 0.943 2.01666439169e-38
-0.0139171066039 -0.0521891497647 0.94 2.03521099725e-38
-0.0121515587715 -0.0520781090205 0.938 2.08159565798e-38
-0.0103823095809 -0.0519115479043 0.935 1.7504084349e-38
-0.00865192465071 -0.0519115479043 0.935 1.45566702305e-38
-0.00690673428801 -0.0518005071601 0.933 1.16128854751e-38
-0.00516339460438 -0.0516339460438 0.93 1.05162405073e-38
-0.00344226306959 -0.0516339460438 0.93 9.32273778966e-39
-0.00171743017665 -0.0515229052996 0.928 7.30020447975e-39
0.0 -0.0515229052996 0.928 8.4994469159e-39
0.00171743017665 -0.0515229052996 0.928 8.40761141975e-39
0.00343486035331 -0.0515229052996 0.928 8.13138746646e-39
0.00515229052996 -0.0515229052996 0.928 8.13389859331e-39
0.00686972070662 -0.0515229052996 0.928 8.22465789224e-39
0.00858715088327 -0.0515229052996 0.928 9.05584087895e-39
0.0103045810599 -0.0515229052996 0.928 7.8565984428e-39
0.0120220112366 -0.0515229052996 0.928 9.05512341414e-39
0.0137394414132 -0.0515229052996 0.928 8.96328791798e-39
0.0154568715899 -0.0515229052996 0.928 8.22788648391e-39
0.0171743017665 -0.0515229052996 0.928 8.04385675918e-39
0.0188917319432 -0.0515229052996 0.928 8.13497479053e-39
0.0206091621199 -0.0515229052996 0.928 8.78033439048e-39
0.0223265922965 -0.0515229052996 0.928 9.14767637511e-39
0.0240958414871 -0.0516339460438 0.93 9.79160104544e-39
0.0258169730219 -0.0516339460438 0.93 1.07095972746e-38
0.0275381045567 -0.0516339460438 0.93 1.29143666472e-38
0.0294165438124 -0.0519115479043 0.935 1.5763778155e-38
0.0311469287426 -0.0519115479043 0.935 2.18397592508e-38
0.0329828023797 -0.0520781090205 0.938 2.34993002065e-38
0.034718739347 -0.0520781090205 0.938 2.34968409277e-38
0.0364546763144 -0.0520781090205 0.938 2.34936053296e-38
0.0382720431608 -0.0521891497647 0.94 2.34936235465e-38
0.0401393783421 -0.052355710881 0.943 2.34921675974e-38
0.0418845687048 -0.052355710881 0.943 2.34961416798e-38
0.0438610939512 -0.0526333127414 0.948 2.35008037998e-38
0.0457598906767 -0.0527998738577 0.951 2.34964863992e-38
0.0475198864719 -0.0527998738577 0.951 2.34935801062e-38
-0.0245622126127 -0.0508788689834 0.948 2.3500809405e-38
-0.0228077688546 -0.0508788689834 0.948 1.58316304279e-38
-0.0210533250966 -0.0508788689834 0.948 1.99790156577e-38
-0.0192988813385 -0.0508788689834 0.948 1.88755547742e-38
-0.0175074239991 -0.0507715295974 0.946 1.96141735895e-38
-0.0157067132643 -0.0506105205183 0.943 1.98900766455e-38
-0.0139171066039 -0.0504495114392 0.94 2.02599143427e-38
-0.0121515587715 -0.0503421720532 0.938 2.05347033663e-38
-0.0104156218041 -0.0503421720532 0.938 2.20112753803e-38
-0.00865192465071 -0.0501811629741 0.935 2.14591806009e-38
-0.00690673428801 -0.0500738235881 0.933 2.05404458874e-38
-0.00518005071601 -0.0500738235881 0.933 1.92547125075e-38
-0.00344226306959 -0.049912814509 0.93 1.62168782043e-38
-0.00172113153479 -0.049912814509 0.93 1.52963876639e-38
0.0 -0.049912814509 0.93 1.26295331162e-38
0.00172113153479 -0.049912814509 0.93 1.22654197232e-38
0.00343486035331 -0.049805475123 0.928 1.00563455617e-38
0.00515229052996 -0.049805475123 0.928 1.05223389582e-38
0.00686972070662 -0.049805475123 0.928 9.3248901841e-39
0.00858715088327 -0.049805475123 0.928 9.97311964331e-39
0.0103045810599 -0.049805475123 0.928 9.97132598128e-39
0.0120220112366 -0.049805475123 0.928 9.60362526424e-39
0.0137394414132 -0.049805475123 0.928 1.01560731708e-38
0.0154568715899 -0.049805475123 0.928 9.78622005934e-39
0.0171743017665 -0.049805475123 0.928 1.20860535198e-38
0.0188917319432 -0.049805475123 0.928 1.21778890159e-38
0.0206091621199 -0.049805475123 0.928 1.28218136862e-38
0.0223747099523 -0.049912814509 0.93 1.48439882638e-38
0.0240958414871 -0.049912814509 0.93 1.85228647663e-38
0.02590025358 -0.0500738235881 0.933 2.10066775047e-38
0.027626937152 -0.0500738235881 0.933 2.34956988695e-38
0.0294165438124 -0.0501811629741 0.935 2.34975429783e-38
0.0311469287426 -0.0501811629741 0.935 2.34939668646e-38
0.0329828023797 -0.0503421720532 0.938 2.34907424768e-38
0.034718739347 -0.0503421720532 0.938 2.34935983231e-38
0.0365324048353 -0.0504495114392 0.94 2.34943129853e-38
0.0382720431608 -0.0504495114392 0.94 2.34928850622e-38
0.0402670751979 -0.0507715295974 0.946 2.3497565399e-38
0.0420178175978 -0.0507715295974 0.946 2.34946506982e-38
0.0438610939512 -0.0508788689834 0.948 2.34997598324e-38
0.0459042436441 -0.0512008871415 0.954 2.35004492713e-38
0.0476697914766 -0.0512008871415 0.954 2.35011737426e-38
-0.0246399411336 -0.0492798822672 0.951 2.35004394622e-38
-0.0228077688546 -0.0491244252253 0.948 1.78603084316e-38
-0.0210533250966 -0.0491244252253 0.948 1.94269110693e-38
-0.0192988813385 -0.0491244252253 0.948 1.92457820324e-38
-0.0175074239991 -0.0490207871974 0.946 1.94308935595e-38
-0.0157067132643 -0.0488653301556 0.943 2.03507072728e-38
-0.0139171066039 -0.0487098731137 0.94 2.1089691827e-38
-0.0121774682784 -0.0487098731137 0.94 2.09038768481e-38
-0.0104156218041 -0.0486062350858 0.938 2.17310927588e-38
-0.00867968483676 -0.0486062350858 0.938 2.2101306004e-38
-0.00692153972057 -0.048450778044 0.935 2.17336417207e-38
-0.00518005071601 -0.0483471400161 0.933 2.20094873234e-38
-0.00345336714401 -0.0483471400161 0.933 2.21949477739e-38
-0.00172113153479 -0.0481916829742 0.93 2.26598495589e-38
0.0 -0.0481916829742 0.93 2.1095786074e-38
0.00172113153479 -0.0481916829742 0.93 2.04536578684e-38
0.00344226306959 -0.0481916829742 0.93 2.05469254915e-38
0.00516339460438 -0.0481916829742 0.93 1.92590453223e-38
0.00688452613918 -0.0481916829742 0.93 1.85211103406e-38
0.00860565767397 -0.0481916829742 0.93 1.86132835497e-38
0.0103267892088 -0.0481916829742 0.93 1.81530088522e-38
0.0120479207436 -0.0481916829742 0.93 1.95369998792e-38
0.0137690522784 -0.0481916829742 0.93 1.83359707875e-38
0.0154568715899 -0.0480880449463 0.928 2.1564161678e-38
0.0171743017665 -0.0480880449463 0.928 2.14695081706e-38
0.0188917319432 -0.0480880449463 0.928 2.16517960813e-38
0.0206091621199 -0.0480880449463 0.928 2.3496414933e-38
0.0223747099523 -0.0481916829742 0.93 2.34953835773e-38
0.024173570008 -0.0483471400161 0.933 2.34954031955e-38
0.02590025358 -0.0483471400161 0.933 2.3492517922e-38
0.027626937152 -0.0483471400161 0.933 2.34925249285e-38
0.0294165438124 -0.048450778044 0.935 2.34939444438e-38
0.0311469287426 -0.048450778044 0.935 2.34925123168e-38
0.0329828023797 -0.0486062350858 0.938 2.34914585403e-38
0.034718739347 -0.0486062350858 0.938 2.349144733e-38
0.0365324048353 -0.0487098731137 0.94 2.3492503909e-38
0.038516332798 -0.0490207871974 0.946 2.34928892661e-38
0.0402670751979 -0.0490207871974 0.946 2.34947067502e-38
0.0421066501932 -0.0491244252253 0.948 2.34979297366e-38
0.0439998948814 -0.0492798822672 0.951 2.35040506083e-38
0.0459042436441 -0.0494353393091 0.954 2.35029561942e-38
0.0476697914766 -0.0494353393091 0.954 2.35004548765e-38
-0.0246399411336 -0.0475198864719 0.951 2.3498640195e-38
-0.0228799453383 -0.0475198864719 0.951 1.69383549356e-38
-0.0211199495431 -0.0475198864719 0.951 2.01648292354e-38
-0.0192988813385 -0.0473699814673 0.948 1.88759205131e-38
-0.0175074239991 -0.0472700447975 0.946 2.04443252206e-38
-0.0157067132643 -0.0471201397929 0.943 2.01663090066e-38
-0.0139615229016 -0.0471201397929 0.943 2.07198331104e-38
-0.0121774682784 -0.0469702347883 0.94 2.06279751934e-38
-0.0104156218041 -0.0468702981185 0.938 2.10874847819e-38
-0.00867968483676 -0.0468702981185 0.938 2.1733243752e-38
-0.00694374786941 -0.0468702981185 0.938 2.07201862376e-38
-0.00519115479043 -0.0467203931138 0.935 2.219566664e-38
-0.00346076986028 -0.0467203931138 0.935 2.24708143961e-38
-0.001726683572 -0.0466204564441 0.933 2.25633743635e-38
0.0 -0.0464705514394 0.93 2.21949505765e-38
0.00172113153479 -0.0464705514394 0.93 2.24733325294e-38
0.00344226306959 -0.0464705514394 0.93 2.33030960008e-38
0.00516339460438 -0.0464705514394 0.93 2.27502753488e-38
0.00688452613918 -0.0464705514394 0.93 2.34885844772e-38
0.00860565767397 -0.0464705514394 0.93 2.34899899796e-38
0.0103267892088 -0.0464705514394 0.93 2.33956447578e-38
0.0120479207436 -0.0464705514394 0.93 2.34907088457e-38
0.0137690522784 -0.0464705514394 0.93 2.34896396549e-38
0.0154901838131 -0.0464705514394 0.93 2.34892865277e-38
0.0172113153479 -0.0464705514394 0.93 2.34892711134e-38
0.0189324468827 -0.0464705514394 0.93 2.34889151836e-38
0.0206535784175 -0.0464705514394 0.93 2.34867725983e-38
0.022446886436 -0.0466204564441 0.933 2.34863928464e-38
0.024173570008 -0.0466204564441 0.933 2.34892949355e-38
0.02590025358 -0.0466204564441 0.933 2.3490358521e-38
0.0276861588823 -0.0467203931138 0.935 2.3487494267e-38
0.0294165438124 -0.0467203931138 0.935 2.34921858142e-38
0.0311469287426 -0.0467203931138 0.935 2.34885550499e-38
0.0329828023797 -0.0468702981185 0.938 2.34903879483e-38
0.0347927665098 -0.0469702347883 0.94 2.34918396935e-38
0.0366489976167 -0.0471201397929 0.943 2.34936109348e-38
0.038516332798 -0.0472700447975 0.946 2.34932479985e-38
0.0403522064351 -0.0473699814673 0.948 2.34975990302e-38
0.0421066501932 -0.0473699814673 0.948 2.34968521381e-38
0.0439998948814 -0.0475198864719 0.951 2.35008388323e-38
0.0460004789557 -0.0477697281463 0.956 2.34993884884e-38
0.0477697281463 -0.0477697281463 0.956 2.35015534945e-38
-0.0246399411336 -0.0457598906767 0.951 2.35018954113e-38
-0.0228799453383 -0.0457598906767 0.951 1.68454334331e-38
-0.0211199495431 -0.0457598906767 0.951 2.00719301537e-38
-0.0192988813385 -0.0456155377093 0.948 1.97967852002e-38
-0.0175074239991 -0.0455193023976 0.946 1.97038861185e-38
-0.0157566815992 -0.0455193023976 0.946 2.01659404651e-38
-0.0139615229016 -0.0453749494302 0.943 2.08116658039e-38
-0.0121774682784 -0.0452305964628 0.94 2.04421419976e-38
-0.0104156218041 -0.0451343611511 0.938 2.13626815835e-38
-0.00867968483676 -0.0451343611511 0.938 2.10889883752e-38
-0.00694374786941 -0.0451343611511 0.938 2.17343395674e-38
-0.00520781090205 -0.0451343611511 0.938 2.16421271219e-38
-0.00346076986028 -0.0449900081837 0.935 2.31168998686e-38
-0.00173038493014 -0.0449900081837 0.935 2.24711647207e-38
0.0 -0.0448937728721 0.933 2.27481243557e-38
0.001726683572 -0.0448937728721 0.933 2.26566419867e-38
0.00345336714401 -0.0448937728721 0.933 2.2287867875e-38
0.00518005071601 -0.0448937728721 0.933 2.28406703101e-38
0.00690673428801 -0.0448937728721 0.933 2.33016484595e-38
0.00863341786002 -0.0448937728721 0.933 2.31161781999e-38
0.010360101432 -0.0448937728721 0.933 2.34885676616e-38
0.012086785004 -0.0448937728721 0.933 2.29332218698e-38
0.013813468576 -0.0448937728721 0.933 2.31161810025e-38
0.015540152148 -0.0448937728721 0.933 2.3490710247e-38
0.01726683572 -0.0448937728721 0.933 2.34838845221e-38
0.018993519292 -0.0448937728721 0.933 2.34903683301e-38
0.020720202864 -0.0448937728721 0.933 2.349144733e-38
0.022446886436 -0.0448937728721 0.933 2.34878375851e-38
0.024225389022 -0.0449900081837 0.935 2.34903683301e-38
0.0259557739521 -0.0449900081837 0.935 2.34885578525e-38
0.0276861588823 -0.0449900081837 0.935 2.3491457139e-38
0.0294165438124 -0.0449900081837 0.935 2.34903641262e-38
0.0311469287426 -0.0449900081837 0.935 2.34874928657e-38
0.0329828023797 -0.0451343611511 0.938 2.34914585403e-38
0.0347927665098 -0.0452305964628 0.94 2.34906990366e-38
0.0366489976167 -0.0453749494302 0.943 2.34961178577e-38
0.038516332798 -0.0455193023976 0.946 2.34928878648e-38
0.0403522064351 -0.0456155377093 0.948 2.34929158907e-38
0.0421066501932 -0.0456155377093 0.948 2.3495424215e-38
0.0439998948814 -0.0457598906767 0.951 2.35022779658e-38
0.0460004789557 -0.0460004789557 0.956 2.34993814819e-38
-0.0247176696545 -0.0441386958117 0.954 2.35000905389e-38
-0.0229521218221 -0.0441386958117 0.954 1.71230937173e-38
-0.0211199495431 -0.0439998948814 0.951 2.03477883681e-38
-0.0192988813385 -0.0438610939512 0.948 1.97045867678e-38
-0.0175074239991 -0.0437685599977 0.946 2.02570444834e-38
-0.0157566815992 -0.0437685599977 0.946 1.98907857025e-38
-0.0139615229016 -0.0436297590675 0.943 2.05357725571e-38
-0.0121774682784 -0.0434909581373 0.94 2.13655178115e-38
-0.0104378299529 -0.0434909581373 0.94 2.12729746597e-38
-0.00867968483676 -0.0433984241838 0.938 2.0720183435e-38
-0.00694374786941 -0.0433984241838 0.938 2.16406977975e-38
-0.00520781090205 -0.0433984241838 0.938 2.154958397e-38
-0.00346076986028 -0.0432596232536 0.935 2.22871434037e-38
-0.00173038493014 -0.0432596232536 0.935 2.26559231206e-38
0.0 -0.0432596232536 0.935 2.26562790504e-38
0.00173038493014 -0.0432596232536 0.935 2.29317897428e-38
0.00346076986028 -0.0432596232536 0.935 2.34885858785e-38
0.00519115479043 -0.0432596232536 0.935 2.33916916949e-38
0.00692153972057 -0.0432596232536 0.935 2.32991303261e-38
0.00865192465071 -0.0432596232536 0.935 2.34835454079e-38
0.010360101432 -0.0431670893001 0.933 2.3488245363e-38
0.012086785004 -0.0431670893001 0.933 2.34853236557e-38
0.0138430794411 -0.0432596232536 0.935 2.34874788527e-38
0.015540152148 -0.0431670893001 0.933 2.34871089099e-38
0.01726683572 -0.0431670893001 0.933 2.34896536679e-38
0.018993519292 -0.0431670893001 0.933 2.34838999364e-38
0.020720202864 -0.0431670893001 0.933 2.34893075472e-38
0.0224950040919 -0.0432596232536 0.935 2.34907284638e-38
0.024225389022 -0.0432596232536 0.935 2.34871299294e-38
0.0259557739521 -0.0432596232536 0.935 2.34899899796e-38
0.0276861588823 -0.0432596232536 0.935 2.34906766158e-38
0.0294165438124 -0.0432596232536 0.935 2.34939808776e-38
0.0312468654123 -0.0433984241838 0.938 2.34889235914e-38
0.0329828023797 -0.0433984241838 0.938 2.34921689987e-38
0.0347927665098 -0.0434909581373 0.94 2.34961388772e-38
0.0366489976167 -0.0436297590675 0.943 2.34936067309e-38
0.038516332798 -0.0437685599977 0.946 2.34918284831e-38
0.0403522064351 -0.0438610939512 0.948 2.34954144059e-38
0.0421066501932 -0.0438610939512 0.948 2.34950640813e-38
0.0439998948814 -0.0439998948814 0.951 2.35026338956e-38
0.0457598906767 -0.0439998948814 0.951 2.34997416156e-38
-0.0247694886685 -0.0424619805745 0.956 2.350117094e-38
-0.0230002394779 -0.0424619805745 0.956 1.70312638263e-38
-0.0211199495431 -0.0422398990862 0.951 1.97031406277e-38
-0.0192988813385 -0.0421066501932 0.948 1.90628200971e-38
-0.0175444375805 -0.0421066501932 0.948 2.03520693349e-38
-0.0157566815992 -0.0420178175978 0.946 2.02595429986e-38
-0.0139615229016 -0.0418845687048 0.943 2.05372243023e-38
-0.0121774682784 -0.0417513198118 0.94 2.11822251698e-38
-0.0104378299529 -0.0417513198118 0.94 2.09992814514e-38
-0.00867968483676 -0.0416624872164 0.938 2.11822405841e-38
-0.00694374786941 -0.0416624872164 0.938 2.28399696609e-38
-0.00520781090205 -0.0416624872164 0.938 2.19180049545e-38
-0.0034718739347 -0.0416624872164 0.938 2.19180105597e-38
-0.00173038493014 -0.0415292383234 0.935 2.28399696609e-38
0.0 -0.0415292383234 0.935 2.25630072233e-38
0.00173038493014 -0.0415292383234 0.935 2.34849649233e-38
0.00346076986028 -0.0415292383234 0.935 2.28388724442e-38
0.00519115479043 -0.0415292383234 0.935 2.32998491922e-38
0.00692153972057 -0.0415292383234 0.935 2.3486409662e-38
0.00865192465071 -0.0415292383234 0.935 2.34860425218e-38
0.0103823095809 -0.0415292383234 0.935 2.34821118796e-38
0.012112694511 -0.0415292383234 0.935 2.34860383179e-38
0.0138430794411 -0.0415292383234 0.935 2.34885522473e-38
0.0155734643713 -0.0415292383234 0.935 2.34900095977e-38
0.01726683572 -0.0414404057281 0.933 2.34824594016e-38
0.018993519292 -0.0414404057281 0.933 2.34867824074e-38
0.0207646191617 -0.0415292383234 0.935 2.34871215216e-38
0.0224950040919 -0.0415292383234 0.935 2.34896550692e-38
0.024225389022 -0.0415292383234 0.935 2.34868062294e-38
0.0259557739521 -0.0415292383234 0.935 2.34910970053e-38
0.0276861588823 -0.0415292383234 0.935 2.34903515146e-38
0.029510928445 -0.0416624872164 0.938 2.34936011257e-38
0.0312468654123 -0.0416624872164 0.938 2.34899913808e-38
0.0330531281843 -0.0417513198118 0.94 2.34928752531e-38
0.034903807254 -0.0418845687048 0.943 2.3492879457e-38
0.0367655903981 -0.0420178175978 0.946 2.34953765708e-38
0.0385977626771 -0.0421066501932 0.948 2.349506268e-38
0.0403522064351 -0.0421066501932 0.948 2.34968619472e-38
0.0421066501932 -0.0421066501932 0.948 2.34982996794e-38
0.0441386958117 -0.0423731479792 0.954 2.34994137117e-38
0.0459042436441 -0.0423731479792 0.954 2.35062338313e-38
-0.0230002394779 -0.0406927313839 0.956 1.86918669663e-38
-0.0211199495431 -0.0404799032909 0.951 1.97974760404e-38
-0.0193599537478 -0.0404799032909 0.951 1.98004005503e-38
-0.0175444375805 -0.0403522064351 0.948 2.04450286724e-38
-0.0157566815992 -0.0402670751979 0.946 2.00769496048e-38
-0.0139615229016 -0.0401393783421 0.943 2.05365026336e-38
-0.0121774682784 -0.0400116814863 0.94 2.09059844009e-38
-0.0104378299529 -0.0400116814863 0.94 2.09982220698e-38
-0.00867968483676 -0.0399265502491 0.938 2.10896890244e-38
-0.00694374786941 -0.0399265502491 0.938 2.23771712249e-38
-0.00520781090205 -0.0399265502491 0.938 2.23768180977e-38
-0.0034718739347 -0.0399265502491 0.938 2.22857168819e-38
-0.00173593696735 -0.0399265502491 0.938 2.27474209038e-38
0.0 -0.0397988533933 0.935 2.21949505765e-38
0.00173038493014 -0.0397988533933 0.935 2.34839013377e-38
0.00346076986028 -0.0397988533933 0.935 2.33916916949e-38
0.00519115479043 -0.0397988533933 0.935 2.34864124646e-38
0.00692153972057 -0.0397988533933 0.935 2.31158306779e-38
0.00865192465071 -0.0397988533933 0.935 2.34842698792e-38
0.0103823095809 -0.0397988533933 0.935 2.34838971338e-38
0.012112694511 -0.0397988533933 0.935 2.3488926394e-38
0.0138430794411 -0.0397988533933 0.935 2.34903445081e-38
0.0155734643713 -0.0397988533933 0.935 2.34871411398e-38
0.0173038493014 -0.0397988533933 0.935 2.34896480627e-38
0.0190342342316 -0.0397988533933 0.935 2.34874816553e-38
0.0207646191617 -0.0397988533933 0.935 2.34885760694e-38
0.0224950040919 -0.0397988533933 0.935 2.34878459929e-38
0.024225389022 -0.0397988533933 0.935 2.3489287929e-38
0.0259557739521 -0.0397988533933 0.935 2.34882201396e-38
0.0276861588823 -0.0397988533933 0.935 2.34907228586e-38
0.029510928445 -0.0399265502491 0.938 2.34939528516e-38
0.0312468654123 -0.0399265502491 0.938 2.3492156387e-38
0.0330531281843 -0.0400116814863 0.94 2.34914585403e-38
0.034903807254 -0.0401393783421 0.943 2.34936067309e-38
0.0367655903981 -0.0402670751979 0.946 2.34950374566e-38
0.0385977626771 -0.0403522064351 0.948 2.34961248642e-38
0.0403522064351 -0.0403522064351 0.948 2.3496133272e-38
0.0421066501932 -0.0403522064351 0.948 2.35007911881e-38
0.0439998948814 -0.0404799032909 0.951 2.35015366789e-38
0.0457598906767 -0.0404799032909 0.951 2.35001017493e-38
-0.0211199495431 -0.0387199074957 0.951 2.00722804783e-38
-0.0193599537478 -0.0387199074957 0.951 1.95216430493e-38
-0.0175444375805 -0.0385977626771 0.948 2.00751349233e-38
-0.0157566815992 -0.038516332798 0.946 2.09974793816e-38
-0.0140059391993 -0.038516332798 0.946 2.04435741246e-38
-0.0122163325389 -0.0383941879794 0.943 2.08131091413e-38
-0.0104378299529 -0.0382720431608 0.94 2.09974933946e-38
-0.00869819162745 -0.0382720431608 0.94 2.12733824375e-38
-0.00694374786941 -0.0381906132817 0.938 2.20998836861e-38
-0.00520781090205 -0.0381906132817 0.938 2.19151392991e-38
-0.0034718739347 -0.0381906132817 0.938 2.34867557827e-38
-0.00173593696735 -0.0381906132817 0.938 2.16414264727e-38
0.0 -0.0380684684631 0.935 2.34863774321e-38
0.00173038493014 -0.0380684684631 0.935 2.32080263078e-38
0.00346076986028 -0.0380684684631 0.935 2.32998491922e-38
0.00519115479043 -0.0380684684631 0.935 2.34842544649e-38
0.00692153972057 -0.0380684684631 0.935 2.34864152672e-38
0.00865192465071 -0.0380684684631 0.935 2.34867403684e-38
0.0103823095809 -0.0380684684631 0.935 2.34856683751e-38
0.012112694511 -0.0380684684631 0.935 2.34871061073e-38
0.0138430794411 -0.0380684684631 0.935 2.3486034114e-38
0.0155734643713 -0.0380684684631 0.935 2.34867683944e-38
0.0173038493014 -0.0380684684631 0.935 2.34896564705e-38
0.0190342342316 -0.0380684684631 0.935 2.34853404712e-38
0.0207646191617 -0.0380684684631 0.935 2.3489663477e-38
0.0224950040919 -0.0380684684631 0.935 2.34896522666e-38
0.024225389022 -0.0380684684631 0.935 2.3490734069e-38
0.0259557739521 -0.0380684684631 0.935 2.34896760887e-38
0.0276861588823 -0.0380684684631 0.935 2.34914529351e-38
0.029510928445 -0.0381906132817 0.938 2.34939374373e-38
0.0313134898588 -0.0382720431608 0.94 2.34921479792e-38
0.0330531281843 -0.0382720431608 0.94 2.34943424126e-38
0.0350148479982 -0.038516332798 0.946 2.34961360746e-38
0.0367655903981 -0.038516332798 0.946 2.34918074637e-38
0.0385977626771 -0.0385977626771 0.948 2.34968451316e-38
0.0403522064351 -0.0385977626771 0.948 2.34921844129e-38
0.0421066501932 -0.0385977626771 0.948 2.34993800806e-38
0.0439998948814 -0.0387199074957 0.951 2.34993758767e-38
0.0457598906767 -0.0387199074957 0.951 2.35008178128e-38
-0.0211199495431 -0.0369599117004 0.951 2.09942171588e-38
-0.0193599537478 -0.0369599117004 0.951 2.0164883886e-38
-0.0175444375805 -0.036843318919 0.948 2.0074448287e-38
-0.0157899938224 -0.036843318919 0.948 2.04429001e-38
-0.0140059391993 -0.0367655903981 0.946 2.05357725571e-38
-0.0122551967994 -0.0367655903981 0.946 2.19183608843e-38
-0.0104711421762 -0.0366489976167 0.943 2.14580987985e-38
-0.0087259518135 -0.0366489976167 0.943 2.13651871051e-38
-0.00695855330196 -0.0365324048353 0.94 2.28388878585e-38
-0.00521891497647 -0.0365324048353 0.94 2.23778970975e-38
-0.0034718739347 -0.0364546763144 0.938 2.20087418326e-38
-0.00173593696735 -0.0364546763144 0.938 2.26534204015e-38
0.0 -0.0364546763144 0.938 2.34867403684e-38
0.00173593696735 -0.0364546763144 0.938 2.32094528296e-38
0.0034718739347 -0.0364546763144 0.938 2.34845907766e-38
0.00520781090205 -0.0364546763144 0.938 2.34842348468e-38
0.00692153972057 -0.036338083533 0.935 2.34853334648e-38
0.00865192465071 -0.036338083533 0.935 2.34867627892e-38
0.0103823095809 -0.036338083533 0.935 2.34875012735e-38
0.012112694511 -0.036338083533 0.935 2.34885480434e-38
0.0138430794411 -0.036338083533 0.935 2.34871145151e-38
0.0155734643713 -0.036338083533 0.935 2.34903697314e-38
0.0173038493014 -0.036338083533 0.935 2.34903627249e-38
0.0190342342316 -0.036338083533 0.935 2.34885830759e-38
0.0208312436082 -0.0364546763144 0.938 2.3489287929e-38
0.0225671805756 -0.0364546763144 0.938 2.34885760694e-38
0.0243031175429 -0.0364546763144 0.938 2.34907186548e-38
0.0260390545103 -0.0364546763144 0.938 2.34914445274e-38
0.0277749914776 -0.0364546763144 0.938 2.34899885783e-38
0.0295738515333 -0.0365324048353 0.94 2.34924842908e-38
0.0313134898588 -0.0365324048353 0.94 2.34903837444e-38
0.0331586168913 -0.0366489976167 0.943 2.34907508846e-38
0.0350148479982 -0.0367655903981 0.946 2.34957773422e-38
0.0367655903981 -0.0367655903981 0.946 2.34939682659e-38
0.0385977626771 -0.036843318919 0.948 2.34907410755e-38
0.0403522064351 -0.036843318919 0.948 2.34997542273e-38
0.0422398990862 -0.0369599117004 0.951 2.34983052846e-38
0.0442312297651 -0.0371542330027 0.956 2.35029702072e-38
0.0460004789557 -0.0371542330027 0.956 2.35022569463e-38
-0.0230724159616 -0.0354960245563 0.959 1.85989454638e-38
-0.0212309902873 -0.0353849838121 0.956 1.9426557942e-38
-0.0194210261571 -0.0353109566493 0.954 1.97964194613e-38
-0.0175999579526 -0.0351999159051 0.951 2.00733762937e-38
-0.0157899938224 -0.035088875161 0.948 2.03517596479e-38
-0.0140059391993 -0.0350148479982 0.946 2.0721240014e-38
-0.0122551967994 -0.0350148479982 0.946 2.09956759105e-38
-0.0105044543995 -0.0350148479982 0.946 2.15502846193e-38
-0.0087259518135 -0.034903807254 0.943 2.10896792153e-38
-0.0069807614508 -0.034903807254 0.943 2.23804306451e-38
-0.0052355710881 -0.034903807254 0.943 2.23779125118e-38
-0.00347927665098 -0.0347927665098 0.94 2.24704612688e-38
-0.00173593696735 -0.034718739347 0.938 2.19165882417e-38
0.0 -0.034718739347 0.938 2.29307149469e-38
0.00173593696735 -0.034718739347 0.938 2.32094528296e-38
0.0034718739347 -0.034718739347 0.938 2.34838719105e-38
0.00520781090205 -0.034718739347 0.938 2.34852577946e-38
0.00692153972057 -0.0346076986028 0.935 2.34853572868e-38
0.00865192465071 -0.0346076986028 0.935 2.34853222544e-38
0.0103823095809 -0.0346076986028 0.935 2.3483888726e-38
0.012112694511 -0.0346076986028 0.935 2.34860229036e-38
0.0138430794411 -0.0346076986028 0.935 2.34871243242e-38
0.0155734643713 -0.0346076986028 0.935 2.34874914644e-38
0.0173038493014 -0.0346076986028 0.935 2.34889348018e-38
0.0190953066409 -0.034718739347 0.938 2.34911012092e-38
0.0208312436082 -0.034718739347 0.938 2.34896326484e-38
0.0225671805756 -0.034718739347 0.938 2.34892823238e-38
0.0243031175429 -0.034718739347 0.938 2.3489649464e-38
0.0260390545103 -0.034718739347 0.938 2.3493574501e-38
0.0277749914776 -0.034718739347 0.938 2.34928948713e-38
0.0296682361659 -0.034903807254 0.943 2.34935955205e-38
0.0314134265286 -0.034903807254 0.943 2.34925403428e-38
0.0331586168913 -0.034903807254 0.943 2.34939878841e-38
0.0350148479982 -0.0350148479982 0.946 2.34961248642e-38
0.036843318919 -0.035088875161 0.948 2.34979101185e-38
0.0385977626771 -0.035088875161 0.948 2.34979297366e-38
0.0403522064351 -0.035088875161 0.948 2.34954214124e-38
0.0422398990862 -0.0351999159051 0.951 2.34990325585e-38
0.0442312297651 -0.0353849838121 0.956 2.35047568628e-38
0.0460004789557 -0.0353849838121 0.956 2.35062114106e-38
-0.0248472171894 -0.0337212233285 0.959 2.34975850172e-38
-0.0230724159616 -0.0337212233285 0.959 1.89680783079e-38
-0.0212976147338 -0.0337212233285 0.959 2.08084386135e-38
-0.0194617410967 -0.0336157346215 0.956 2.09031173443e-38
-0.0176554783247 -0.0335454088169 0.954 1.98889836327e-38
-0.0157899938224 -0.0333344314029 0.948 2.02598989284e-38
-0.0140355500644 -0.0333344314029 0.948 2.07205393648e-38
-0.0122551967994 -0.0332641055983 0.946 2.09949752612e-38
-0.0105044543995 -0.0332641055983 0.946 2.14588050529e-38
-0.00875371199954 -0.0332641055983 0.946 2.10889701583e-38
-0.0069807614508 -0.0331586168913 0.943 2.18254618026e-38
-0.0052355710881 -0.0331586168913 0.943 2.23775439703e-38
-0.00347927665098 -0.0330531281843 0.94 2.20105410999e-38
-0.00173963832549 -0.0330531281843 0.94 2.24711773324e-38
0.0 -0.0330531281843 0.94 2.33916944975e-38
0.00173593696735 -0.0329828023797 0.938 2.29317897428e-38
0.0034718739347 -0.0329828023797 0.938 2.34846272103e-38
0.00520781090205 -0.0329828023797 0.938 2.34881991201e-38
0.00694374786941 -0.0329828023797 0.938 2.29307205521e-38
0.00867968483676 -0.0329828023797 0.938 2.34863858399e-38
0.0104156218041 -0.0329828023797 0.938 2.34853306622e-38
0.0121515587715 -0.0329828023797 0.938 2.34864152672e-38
0.0138874957388 -0.0329828023797 0.938 2.3485700605e-38
0.0156234327062 -0.0329828023797 0.938 2.34900208081e-38
0.0173593696735 -0.0329828023797 0.938 2.34853362674e-38
0.0190953066409 -0.0329828023797 0.938 2.34900222094e-38
0.0208312436082 -0.0329828023797 0.938 2.34896508653e-38
0.0225671805756 -0.0329828023797 0.938 2.34899983873e-38
0.0243031175429 -0.0329828023797 0.938 2.34925235272e-38
0.0260390545103 -0.0329828023797 0.938 2.34925123168e-38
0.0277749914776 -0.0329828023797 0.938 2.34925151194e-38
0.0296682361659 -0.0331586168913 0.943 2.34925235272e-38
0.0314134265286 -0.0331586168913 0.943 2.34925305337e-38
0.0332641055983 -0.0332641055983 0.946 2.34925459479e-38
0.0350148479982 -0.0332641055983 0.946 2.34968759602e-38
0.036843318919 -0.0333344314029 0.948 2.34946927372e-38
0.0385977626771 -0.0333344314029 0.948 2.34968661511e-38
0.0403522064351 -0.0333344314029 0.948 2.34972080679e-38
0.0422398990862 -0.0334399201099 0.951 2.34986654183e-38
0.0442312297651 -0.0336157346215 0.956 2.35054953471e-38
0.0460004789557 -0.0336157346215 0.956 2.35011779465e-38
-0.0248472171894 -0.0319464221007 0.959 2.34993898896e-38
-0.0230724159616 -0.0319464221007 0.959 1.87836968573e-38
-0.0212976147338 -0.0319464221007 0.959 1.97017351254e-38
-0.019522813506 -0.0319464221007 0.959 2.00719483706e-38
-0.0176554783247 -0.0317798609844 0.954 2.05343670547e-38
-0.0158399621573 -0.0316799243146 0.951 2.01680956621e-38
-0.0140355500644 -0.0315799876449 0.948 2.0996777331e-38
-0.0122811063063 -0.0315799876449 0.948 2.13641459404e-38
-0.0105044543995 -0.0315133631984 0.946 2.16410453195e-38
-0.00875371199954 -0.0315133631984 0.946 2.26537735288e-38
-0.00700296959964 -0.0315133631984 0.946 2.21012905897e-38
-0.0052355710881 -0.0314134265286 0.943 2.26541238534e-38
-0.0034903807254 -0.0314134265286 0.943 2.25637274907e-38
-0.0017451903627 -0.0314134265286 0.943 2.33945601528e-38
0.0 -0.0313134898588 0.94 2.32998491922e-38
0.00173963832549 -0.0313134898588 0.94 2.34867627892e-38
0.00347927665098 -0.0313134898588 0.94 2.34849467064e-38
0.00520781090205 -0.0312468654123 0.938 2.34856697764e-38
0.00694374786941 -0.0312468654123 0.938 2.34853180505e-38
0.00867968483676 -0.0312468654123 0.938 2.34892683108e-38
0.0104156218041 -0.0312468654123 0.938 2.34885690629e-38
0.0121515587715 -0.0312468654123 0.938 2.34878515981e-38
0.0138874957388 -0.0312468654123 0.938 2.34860537322e-38
0.0156234327062 -0.0312468654123 0.938 2.34889137823e-38
0.0173593696735 -0.0312468654123 0.938 2.34900053938e-38
0.0190953066409 -0.0312468654123 0.938 2.34892795212e-38
0.0208312436082 -0.0312468654123 0.938 2.3489996986e-38
0.0226152982314 -0.0313134898588 0.94 2.34903543172e-38
0.0243549365569 -0.0313134898588 0.94 2.34900025912e-38
0.0260945748824 -0.0313134898588 0.94 2.34889362031e-38
0.0278342132079 -0.0313134898588 0.94 2.34943157879e-38
0.0296682361659 -0.0314134265286 0.943 2.34939570555e-38
0.0315133631984 -0.0315133631984 0.946 2.34943241957e-38
0.0332641055983 -0.0315133631984 0.946 2.34936123361e-38
0.035088875161 -0.0315799876449 0.948 2.349506268e-38
0.036843318919 -0.0315799876449 0.948 2.34946535008e-38
0.0387199074957 -0.0316799243146 0.951 2.34997093857e-38
0.0404799032909 -0.0316799243146 0.951 2.34982464301e-38
0.0422398990862 -0.0316799243146 0.951 2.35015422841e-38
0.0442312297651 -0.0318464854309 0.956 2.3505485538e-38
0.0460004789557 -0.0318464854309 0.956 2.35044135446e-38
-0.0248472171894 -0.0301716208728 0.959 2.35000849337e-38
-0.0230724159616 -0.0301716208728 0.959 1.83201879629e-38
-0.0212976147338 -0.0301716208728 0.959 2.07151513722e-38
-0.019522813506 -0.0301716208728 0.959 2.00737476378e-38
-0.0176924919061 -0.0300772362403 0.956 2.03510575974e-38
-0.0158899304922 -0.0300143131519 0.954 2.04432686415e-38
-0.0140799663621 -0.0299199285194 0.951 2.09042243701e-38
-0.0122811063063 -0.0298255438868 0.948 2.13637353599e-38
-0.0105266625483 -0.0298255438868 0.948 2.23786159636e-38
-0.00875371199954 -0.0297626207984 0.946 2.15481490404e-38
-0.00700296959964 -0.0297626207984 0.946 2.26545008027e-38
-0.00525222719973 -0.0297626207984 0.946 2.26562790504e-38
-0.00350148479982 -0.0297626207984 0.946 2.20109096414e-38
-0.0017451903627 -0.0296682361659 0.943 2.26552042545e-38
0.0 -0.0296682361659 0.943 2.34846089934e-38
0.0017451903627 -0.0296682361659 0.943 2.34860313114e-38
0.0034903807254 -0.0296682361659 0.943 2.21945750285e-38
0.0052355710881 -0.0296682361659 0.943 2.34871131138e-38
0.00695855330196 -0.0295738515333 0.94 2.3484963522e-38
0.00867968483676 -0.029510928445 0.938 2.34860243049e-38
0.0104156218041 -0.029510928445 0.938 2.34867641905e-38
0.0121515587715 -0.029510928445 0.938 2.3486409662e-38
0.0139171066039 -0.0295738515333 0.94 2.34882187383e-38
0.0156567449294 -0.0295738515333 0.94 2.34885830759e-38
0.0173963832549 -0.0295738515333 0.94 2.34907130496e-38
0.0191360215804 -0.0295738515333 0.94 2.3487132732e-38
0.0208756599059 -0.0295738515333 0.94 2.34911054131e-38
0.0226152982314 -0.0295738515333 0.94 2.34910843937e-38
0.0243549365569 -0.0295738515333 0.94 2.34921619922e-38
0.0260945748824 -0.0295738515333 0.94 2.34918102663e-38
0.0279230458032 -0.0296682361659 0.943 2.34910871962e-38
0.0296682361659 -0.0296682361659 0.943 2.34932578076e-38
0.0315133631984 -0.0297626207984 0.946 2.3493602527e-38
0.0332641055983 -0.0297626207984 0.946 2.3494311584e-38
0.035088875161 -0.0298255438868 0.948 2.34943269983e-38
0.0369599117004 -0.0299199285194 0.951 2.34968367238e-38
0.0388420523143 -0.0300143131519 0.954 2.35000821311e-38
0.0406076001467 -0.0300143131519 0.954 2.34975668003e-38
0.0424619805745 -0.0300772362403 0.956 2.3502269558e-38
0.0443700306954 -0.0301716208728 0.959 2.35044191498e-38
-0.0248472171894 -0.028396819645 0.959 2.34943326035e-38
-0.0230724159616 -0.028396819645 0.959 1.82290713329e-38
-0.0212976147338 -0.028396819645 0.959 2.03470751072e-38
-0.019522813506 -0.028396819645 0.959 1.98889836327e-38
-0.0176924919061 -0.0283079870497 0.956 2.10896946296e-38
