# .PCD v0.7 - Point Cloud Data file format
VERSION 0.7
FIELDS x y z rgb
SIZE 4 4 4 4
TYPE F F F F
COUNT 1 1 1 1
WIDTH 846
HEIGHT 1
VIEWPOINT 0 0 0 1 0 0 0
POINTS 846
DATA ascii
0.0357125540074 -0.0652142290571 0.839 6.4726088171e-39
0.0372652737469 -0.0652142290571 0.839 7.67077505604e-39
0.0388179934863 -0.0652142290571 0.839 7.76332801701e-39
0.0402744779142 -0.0650587720152 0.837 7.57929829229e-39
0.0418234962955 -0.0650587720152 0.837 7.0261329209e-39
0.0433725146768 -0.0650587720152 0.837 4.90602439632e-39
0.0449215330581 -0.0650587720152 0.837 1.12520272985e-38
0.0463595106953 -0.0649033149734 0.835 2.35033569656e-38
0.0479048277184 -0.0649033149734 0.835 2.35098435762e-38
0.0517005704903 -0.0678569987686 0.873 2.35098702009e-38
0.0533162133182 -0.0678569987686 0.873 2.35098744048e-38
0.054931856146 -0.0678569987686 0.873 2.35098814113e-38
0.0565474989738 -0.0678569987686 0.873 2.35098786087e-38
0.0580298929086 -0.0677015417267 0.871 2.35098702009e-38
0.0596418343783 -0.0677015417267 0.871 2.35098603918e-38
0.061253775848 -0.0677015417267 0.871 2.35098435762e-38
0.0628657173177 -0.0677015417267 0.871 2.35098085437e-38
0.0 -0.0667725008337 0.88 2.35098365697e-38
0.00162859758131 -0.0667725008337 0.88 1.46323823866e-38
0.00325719516262 -0.0667725008337 0.88 2.02595009596e-38
0.00488579274393 -0.0667725008337 0.88 2.13662534932e-38
0.00649958489268 -0.06662074515 0.878 2.16425096764e-38
0.00812448111586 -0.06662074515 0.878 2.23793194154e-38
0.00974937733903 -0.06662074515 0.878 2.21002087873e-38
0.0113354093017 -0.0663931116244 0.875 2.20094452845e-38
0.0129547534877 -0.0663931116244 0.875 2.13669625503e-38
0.0146240660085 -0.06662074515 0.878 1.80493646139e-38
0.0156382381387 -0.0641167763688 0.845 1.62954546144e-38
0.0172020619526 -0.0641167763688 0.845 1.96171205202e-38
0.0187658857665 -0.0641167763688 0.845 1.42758332027e-38
0.0202815919245 -0.063965020685 0.843 5.99334232153e-39
0.0218417143803 -0.063965020685 0.843 3.24545208493e-39
0.023401836836 -0.063965020685 0.843 7.20803547455e-39
0.0249619592917 -0.063965020685 0.843 8.77531213678e-39
0.0264591586591 -0.0638132650013 0.841 8.03919323789e-39
0.0280155797567 -0.0638132650013 0.841 8.31541719118e-39
0.0295720008543 -0.0638132650013 0.841 7.85480478076e-39
0.0310543947891 -0.0636615093176 0.839 7.76404548183e-39
0.0326071145285 -0.0636615093176 0.839 7.57929829229e-39
0.034159834268 -0.0636615093176 0.839 7.94915140377e-39
0.0357125540074 -0.0636615093176 0.839 7.76404548183e-39
0.0372652737469 -0.0636615093176 0.839 8.12995253683e-39
0.0388179934863 -0.0636615093176 0.839 7.85408731595e-39
0.0403707132258 -0.0636615093176 0.839 6.83851587211e-39
0.0418234962955 -0.0635097536339 0.837 2.69695023483e-39
0.0433725146768 -0.0635097536339 0.837 1.15260890482e-38
0.0449215330581 -0.0635097536339 0.837 2.3504091246e-38
0.0463595106953 -0.0633579979502 0.835 2.34971968576e-38
0.0479048277184 -0.0633579979502 0.835 2.35098071424e-38
0.0515821270299 -0.066089600257 0.871 2.35098744048e-38
0.0531940684996 -0.066089600257 0.871 2.350988001e-38
0.0548060099692 -0.066089600257 0.871 2.35098828126e-38
0.0564179514389 -0.066089600257 0.871 2.35098856151e-38
0.0580298929086 -0.066089600257 0.871 2.35098687996e-38
0.0596418343783 -0.066089600257 0.871 2.35098505827e-38
0.061253775848 -0.066089600257 0.871 2.35098463788e-38
0.0628657173177 -0.066089600257 0.871 2.35098211554e-38
0.0644776587873 -0.066089600257 0.871 2.34103724047e-38
0.0 -0.0651439032524 0.88 2.2858693811e-38
0.00162859758131 -0.0651439032524 0.88 1.68367467839e-38
0.00325719516262 -0.0651439032524 0.88 2.05371794607e-38
0.00487468866951 -0.0649958489268 0.878 2.05375746269e-38
0.00649958489268 -0.0649958489268 0.878 2.18268645024e-38
0.00812448111586 -0.0649958489268 0.878 2.17342849167e-38
0.00971606511577 -0.0647737674385 0.875 2.21931106716e-38
0.0113354093017 -0.0647737674385 0.875 2.16420892869e-38
0.0129547534877 -0.0647737674385 0.875 2.00769468022e-38
0.0145740976737 -0.0647737674385 0.875 1.90635361606e-38
0.0156752517201 -0.0627010068805 0.847 1.52842243932e-38
0.0172020619526 -0.0625529525549 0.845 1.80494066529e-38
0.0187658857665 -0.0625529525549 0.845 2.01720164952e-38
0.0203297095803 -0.0625529525549 0.845 1.69487413598e-38
0.0218417143803 -0.0624048982293 0.843 1.14223985671e-38
0.023401836836 -0.0624048982293 0.843 4.88629411394e-39
0.0249619592917 -0.0624048982293 0.843 5.08754299419e-39
0.0264591586591 -0.0622568439037 0.841 7.6693485342e-39
0.0280155797567 -0.0622568439037 0.841 7.76117562257e-39
0.0295720008543 -0.0622568439037 0.841 8.22142930058e-39
0.0310543947891 -0.0621087895782 0.839 8.2221467654e-39
0.0326071145285 -0.0621087895782 0.839 8.40761141975e-39
0.034159834268 -0.0621087895782 0.839 8.03919323789e-39
0.0357125540074 -0.0621087895782 0.839 7.02505672368e-39
0.0372652737469 -0.0621087895782 0.839 6.83959206933e-39
0.0388179934863 -0.0621087895782 0.839 3.61351153437e-39
0.0403707132258 -0.0621087895782 0.839 6.46508524565e-39
0.0419234329653 -0.0621087895782 0.839 1.72329050702e-38
0.0434761527047 -0.0621087895782 0.839 2.3502241532e-38
0.0450288724442 -0.0621087895782 0.839 2.3492907483e-38
0.0463595106953 -0.061812680927 0.835 2.34975583926e-38
0.0479048277184 -0.061812680927 0.835 2.35098407736e-38
0.0515821270299 -0.0644776587873 0.871 2.35098772074e-38
0.0531940684996 -0.0644776587873 0.871 2.35098856151e-38
0.0548060099692 -0.0644776587873 0.871 2.35098856151e-38
0.0564179514389 -0.0644776587873 0.871 2.35098814113e-38
0.0580298929086 -0.0644776587873 0.871 2.35098730035e-38
0.0596418343783 -0.0644776587873 0.871 2.35098645957e-38
0.061253775848 -0.0644776587873 0.871 2.35098477801e-38
0.0628657173177 -0.0644776587873 0.871 2.35094736334e-38
0.0644776587873 -0.0644776587873 0.871 2.35025862514e-38
-0.00162859758131 -0.0635153056711 0.88 2.35098113463e-38
0.0 -0.0635153056711 0.88 1.81501992488e-38
0.00162859758131 -0.0635153056711 0.88 1.90522851352e-38
0.00324979244634 -0.0633709527037 0.878 2.10882246675e-38
0.00487468866951 -0.0633709527037 0.878 1.98922052178e-38
0.00649958489268 -0.0633709527037 0.878 2.11829314242e-38
0.00809672092981 -0.0631544232525 0.875 2.1274046653e-38
0.00971606511577 -0.0631544232525 0.875 2.2102752144e-38
0.0113354093017 -0.0631544232525 0.875 2.07198176961e-38
0.0129251426226 -0.0630100702851 0.873 1.99847539749e-38
0.0145407854504 -0.0630100702851 0.873 1.88816616329e-38
0.0156752517201 -0.0611334817084 0.847 1.55600265557e-38
0.0172427768921 -0.0611334817084 0.847 1.62954868443e-38
0.0187658857665 -0.060989128741 0.845 1.98014571293e-38
0.0203297095803 -0.060989128741 0.845 2.13683946773e-38
0.0218935333942 -0.060989128741 0.845 2.00762209296e-38
0.0234573572081 -0.060989128741 0.845 1.71338963272e-38
0.0249619592917 -0.0608447757736 0.843 1.1605710827e-38
0.0265220817475 -0.0608447757736 0.843 1.02253085253e-38
0.0280822042032 -0.0608447757736 0.843 5.62815273134e-39
0.0295720008543 -0.0607004228061 0.841 5.54169822128e-39
0.0311284219519 -0.0607004228061 0.841 5.7307501997e-39
0.0326071145285 -0.0605560698387 0.839 5.17650863109e-39
0.034159834268 -0.0605560698387 0.839 6.37539233484e-39
0.0357976852446 -0.0607004228061 0.841 8.30537268379e-39
0.0373541063422 -0.0607004228061 0.841 1.24426335322e-38
0.0389105274398 -0.0607004228061 0.841 1.75987981122e-38
0.0404669485374 -0.0607004228061 0.841 2.34992875949e-38
0.042023369635 -0.0607004228061 0.841 2.3498612169e-38
0.0435797907326 -0.0607004228061 0.841 2.34925235272e-38
0.0451362118302 -0.0607004228061 0.841 2.3488940407e-38
0.0464705514394 -0.0604117168713 0.837 2.34997065831e-38
0.0480195698208 -0.0604117168713 0.837 2.3509823958e-38
0.0514636835694 -0.0627213643502 0.869 2.35098828126e-38
0.053071923681 -0.0627213643502 0.869 2.35098856151e-38
0.0546801637925 -0.0627213643502 0.869 2.35098856151e-38
0.0564179514389 -0.0628657173177 0.871 2.35098856151e-38
0.0580298929086 -0.0628657173177 0.871 2.35098814113e-38
0.0595048841271 -0.0627213643502 0.869 2.35098631944e-38
0.0611131242387 -0.0627213643502 0.869 2.35098463788e-38
0.0628657173177 -0.0628657173177 0.871 2.3509809945e-38
0.0644776587873 -0.0628657173177 0.871 2.35051029835e-38
-0.00325719516262 -0.0618867080898 0.88 2.3503701685e-38
-0.00162859758131 -0.0618867080898 0.88 2.35098295632e-38
0.0 -0.0618867080898 0.88 1.32587735799e-38
0.00162859758131 -0.0618867080898 0.88 1.96079854555e-38
0.00324979244634 -0.0617460564805 0.878 2.03517540427e-38
0.00487468866951 -0.0617460564805 0.878 2.08148677709e-38
0.00649958489268 -0.0617460564805 0.878 2.11829286216e-38
0.00809672092981 -0.0615350790666 0.875 2.15495531415e-38
0.00969385696694 -0.0613944274573 0.873 2.10892686349e-38
0.0113094997948 -0.0613944274573 0.873 2.12733249843e-38
0.0129251426226 -0.0613944274573 0.873 2.05375620152e-38
0.0145074732272 -0.061253775848 0.871 1.95255905071e-38
0.015989867162 -0.0607614952154 0.864 1.92460721011e-38
0.0173242067712 -0.059847259755 0.851 1.70319574691e-38
0.0188547183618 -0.0597066081457 0.849 1.76798800439e-38
0.0203778272361 -0.0595659565364 0.847 1.97074608309e-38
0.0218935333942 -0.0594253049271 0.845 2.17364681397e-38
0.0234573572081 -0.0594253049271 0.845 2.09988988969e-38
0.0249619592917 -0.0592846533178 0.843 2.16446452553e-38
0.0265220817475 -0.0592846533178 0.843 2.01720192978e-38
0.0280822042032 -0.0592846533178 0.843 1.95312937919e-38
0.0295720008543 -0.0591440017085 0.841 1.8611463263e-38
0.0311284219519 -0.0591440017085 0.841 1.76906055824e-38
0.0326071145285 -0.0590033500993 0.839 1.86122269707e-38
0.034159834268 -0.0590033500993 0.839 1.981040442e-38
0.0357976852446 -0.0591440017085 0.841 2.08249024692e-38
0.0373541063422 -0.0591440017085 0.841 2.34939248256e-38
0.0389105274398 -0.0591440017085 0.841 2.34957507175e-38
0.0404669485374 -0.0591440017085 0.841 2.34907004379e-38
0.0421233063048 -0.0592846533178 0.843 2.34903403042e-38
0.0436834287605 -0.0592846533178 0.843 2.34889390057e-38
0.0452435512162 -0.0592846533178 0.843 2.34899927821e-38
0.046803673672 -0.0592846533178 0.843 2.35061861872e-38
0.0498554434579 -0.0611131242387 0.869 2.35098435762e-38
0.0514636835694 -0.0611131242387 0.869 2.35098730035e-38
0.053071923681 -0.0611131242387 0.869 2.35098786087e-38
0.0546801637925 -0.0611131242387 0.869 2.35098856151e-38
0.056288403904 -0.0611131242387 0.869 2.35098814113e-38
0.0578966440156 -0.0611131242387 0.869 2.35098772074e-38
0.0595048841271 -0.0611131242387 0.869 2.35098730035e-38
0.0611131242387 -0.0611131242387 0.869 2.35098449775e-38
0.0627213643502 -0.0611131242387 0.869 2.3509823958e-38
0.0643296044618 -0.0611131242387 0.869 2.35055149652e-38
0.0659378445733 -0.0611131242387 0.869 2.3501908023e-38
-0.00325719516262 -0.0602581105085 0.88 2.35029996345e-38
-0.00162859758131 -0.0602581105085 0.88 2.35098295632e-38
0.0 -0.0602581105085 0.88 1.4177145357e-38
0.00162859758131 -0.0602581105085 0.88 1.88748064808e-38
0.00324979244634 -0.0601211602573 0.878 2.02595612155e-38
0.00487468866951 -0.0601211602573 0.878 2.12733221817e-38
0.00647737674385 -0.0599157348806 0.875 2.13640730728e-38
0.00809672092981 -0.0599157348806 0.875 2.12726215325e-38
0.00969385696694 -0.0597787846294 0.873 2.14570324104e-38
0.0113094997948 -0.0597787846294 0.873 2.10871554768e-38
0.0128955317575 -0.0596418343783 0.871 2.07208686699e-38
0.0145074732272 -0.0596418343783 0.871 1.93390342413e-38
0.0159528535806 -0.0590255582481 0.862 1.99800848484e-38
0.0173852791805 -0.0584777572435 0.854 1.82312419442e-38
0.0188991346595 -0.0582723318667 0.851 1.77731504697e-38
0.020425944892 -0.0581353816156 0.849 1.85107155086e-38
0.0219453524082 -0.0579984313644 0.847 2.03546126916e-38
0.0234573572081 -0.0578614811133 0.845 2.15520572618e-38
0.025021181022 -0.0578614811133 0.845 2.19197481698e-38
0.0265220817475 -0.0577245308621 0.843 2.29339253216e-38
0.0280822042032 -0.0577245308621 0.843 2.26566097568e-38
0.0296423266589 -0.0577245308621 0.843 2.28392255714e-38
0.0311284219519 -0.057587580611 0.841 2.34885298266e-38
0.0326848430495 -0.057587580611 0.841 2.34853026362e-38
0.0342412641471 -0.057587580611 0.841 2.34853208531e-38
0.0358828164819 -0.0577245308621 0.843 2.34892641069e-38
0.0374429389376 -0.0577245308621 0.843 2.34878123617e-38
0.0390030613933 -0.0577245308621 0.843 2.34863718269e-38
0.040563183849 -0.0577245308621 0.843 2.34910647755e-38
0.0421233063048 -0.0577245308621 0.843 2.34838691079e-38
0.0437870667884 -0.0578614811133 0.845 2.34914375209e-38
0.0453508906023 -0.0578614811133 0.845 2.3499349252e-38
0.0469147144162 -0.0578614811133 0.845 2.35098449775e-38
0.0497407013555 -0.059367933876 0.867 2.35098575892e-38
0.051345240109 -0.059367933876 0.867 2.35098575892e-38
0.053071923681 -0.0595048841271 0.869 2.35098702009e-38
0.0546801637925 -0.0595048841271 0.869 2.35098730035e-38
0.056288403904 -0.0595048841271 0.869 2.35098758061e-38
0.0578966440156 -0.0595048841271 0.869 2.35098617931e-38
0.0595048841271 -0.0595048841271 0.869 2.35098253593e-38
0.0611131242387 -0.0595048841271 0.869 2.35098351684e-38
0.0627213643502 -0.0595048841271 0.869 2.35098281619e-38
0.0643296044618 -0.0595048841271 0.869 2.35097468866e-38
0.0659378445733 -0.0595048841271 0.869 2.35008192141e-38
-0.00325719516262 -0.0586295129272 0.88 2.3504039398e-38
-0.00162489622317 -0.0584962640342 0.878 2.35098267606e-38
0.0 -0.0584962640342 0.878 1.34378104782e-38
0.00162489622317 -0.0584962640342 0.878 1.85967426226e-38
0.00324979244634 -0.0584962640342 0.878 1.95212745078e-38
0.00487468866951 -0.0584962640342 0.878 2.13640912897e-38
0.00647737674385 -0.0582963906946 0.875 2.10871288521e-38
0.00807821413911 -0.0581631418016 0.873 2.22856958624e-38
0.00969385696694 -0.0581631418016 0.873 2.2011607488e-38
0.0112835902878 -0.0580298929086 0.871 2.09052683374e-38
0.0128955317575 -0.0580298929086 0.871 2.03528134244e-38
0.0144741610039 -0.0578966440156 0.869 2.01677004959e-38
0.0159528535806 -0.05743027289 0.862 2.03510099532e-38
0.0175074239991 -0.057297023997 0.86 1.91553268152e-38
0.0190101754037 -0.057030526211 0.856 1.84177617763e-38
0.0205462390315 -0.056897277318 0.854 1.86932514492e-38
0.0220489904361 -0.0566974039784 0.851 1.92475420632e-38
0.0235683979523 -0.0565641550854 0.849 2.06283227154e-38
0.0251396244824 -0.0565641550854 0.849 2.15488496896e-38
0.0265850048358 -0.0562976572994 0.845 2.13651688882e-38
0.0281488286497 -0.0562976572994 0.845 2.27470229351e-38
0.0296423266589 -0.0561644084064 0.843 2.34845753623e-38
0.0312024491147 -0.0561644084064 0.843 2.34863746295e-38
0.0327625715704 -0.0561644084064 0.843 2.34878067565e-38
0.0343226940261 -0.0561644084064 0.843 2.34838663053e-38
0.0358828164819 -0.0561644084064 0.843 2.3489635451e-38
0.0375317715329 -0.0562976572994 0.845 2.34874620371e-38
0.0390955953468 -0.0562976572994 0.845 2.34881809032e-38
0.0406594191607 -0.0562976572994 0.845 2.34874704449e-38
0.0422232429745 -0.0562976572994 0.845 2.34878431903e-38
0.0439943428442 -0.0565641550854 0.849 2.34982099963e-38
0.0456729087604 -0.0566974039784 0.851 2.3509086875e-38
0.0478585607417 -0.05743027289 0.862 2.35098505827e-38
0.0495685882021 -0.057563521783 0.864 2.35098505827e-38
0.051345240109 -0.0577633951226 0.867 2.35098547866e-38
0.053071923681 -0.0578966440156 0.869 2.35098702009e-38
0.0546801637925 -0.0578966440156 0.869 2.35098702009e-38
0.056288403904 -0.0578966440156 0.869 2.35098758061e-38
0.0578966440156 -0.0578966440156 0.869 2.35098617931e-38
0.0595048841271 -0.0578966440156 0.869 2.35098407736e-38
0.0611131242387 -0.0578966440156 0.869 2.35098365697e-38
0.0627213643502 -0.0578966440156 0.869 2.35087351491e-38
0.0644776587873 -0.0580298929086 0.871 2.35097651035e-38
0.066089600257 -0.0580298929086 0.871 2.35036568435e-38
-0.00325719516262 -0.0570009153459 0.88 2.35029491877e-38
-0.00162489622317 -0.056871367811 0.878 2.35098155502e-38
0.0 -0.056871367811 0.878 1.26083945288e-38
0.00161934418596 -0.0566770465087 0.875 1.85989048262e-38
0.00323868837192 -0.0566770465087 0.875 1.95226996284e-38
0.00485803255789 -0.0566770465087 0.875 2.08134230322e-38
0.00646257131129 -0.0565474989738 0.873 2.07208574595e-38
0.00805970734842 -0.0564179514389 0.871 2.10889281194e-38
0.0096716488181 -0.0564179514389 0.871 2.0721587536e-38
0.0112576807808 -0.056288403904 0.869 2.09981674191e-38
0.0127918937296 -0.0559645350669 0.864 2.11821957425e-38
0.0143908804458 -0.0559645350669 0.864 2.06290219634e-38
0.0159528535806 -0.055834987532 0.862 1.99825889688e-38
0.0175074239991 -0.0557054399971 0.86 1.979891097e-38
0.0190545917013 -0.0555758924622 0.858 1.97059936714e-38
0.0206424743431 -0.0555758924622 0.858 2.04439118375e-38
0.0221785379709 -0.0554463449273 0.856 1.97999899698e-38
0.0237071988825 -0.0553167973925 0.854 1.96123911379e-38
0.025287678808 -0.0553167973925 0.854 2.13648339779e-38
0.0267737741009 -0.0551224760902 0.851 2.18279421009e-38
0.0282154530962 -0.0548633810204 0.847 2.22863993143e-38
0.0297126524636 -0.0547338334855 0.845 2.34878081578e-38
0.0312764762774 -0.0547338334855 0.845 2.13658877543e-38
0.0328403000913 -0.0547338334855 0.845 2.34892486927e-38
0.0344041239052 -0.0547338334855 0.845 2.32998337779e-38
0.0359679477191 -0.0547338334855 0.845 2.34863998529e-38
0.0376206041283 -0.0548633810204 0.847 2.34874760501e-38
0.0391881293003 -0.0548633810204 0.847 2.34896284445e-38
0.0407556544723 -0.0548633810204 0.847 2.34885088071e-38
0.0424231163141 -0.0549929285553 0.849 2.34950108319e-38
0.0444607139698 -0.0555758924622 0.858 2.35065224988e-38
0.0460485966116 -0.0555758924622 0.858 2.35097847217e-38
0.0477475199975 -0.0557054399971 0.86 2.35098281619e-38
0.0494538460997 -0.055834987532 0.862 2.35098337671e-38
0.0511675749183 -0.0559645350669 0.864 2.35098477801e-38
0.0529497788624 -0.0561588563692 0.867 2.35098828126e-38
0.0545543176158 -0.0561588563692 0.867 2.35098702009e-38
0.056288403904 -0.056288403904 0.869 2.35098702009e-38
0.0578966440156 -0.056288403904 0.869 2.35098645957e-38
0.0595048841271 -0.056288403904 0.869 2.35098491814e-38
0.0611131242387 -0.056288403904 0.869 2.3509865997e-38
0.0628657173177 -0.0564179514389 0.871 2.35065617352e-38
0.0644776587873 -0.0564179514389 0.871 2.3505485538e-38
0.066089600257 -0.0564179514389 0.871 2.35022625515e-38
-0.00325719516262 -0.0553723177646 0.88 2.35062156145e-38
-0.00162489622317 -0.0552464715878 0.878 2.35098267606e-38
0.0 -0.0552464715878 0.878 1.44519539989e-38
0.00161934418596 -0.0550577023227 0.875 1.89665536952e-38
0.00323868837192 -0.0550577023227 0.875 1.91528353065e-38
0.00484692848347 -0.054931856146 0.873 2.02598989284e-38
0.00646257131129 -0.054931856146 0.873 2.09059872035e-38
0.00805970734842 -0.0548060099692 0.871 2.10907315905e-38
0.0096716488181 -0.0548060099692 0.871 2.1458786836e-38
0.0112576807808 -0.0546801637925 0.869 2.14569903714e-38
0.0127918937296 -0.0543655483507 0.864 2.14569903714e-38
0.0143908804458 -0.0543655483507 0.864 2.13655178115e-38
0.0159528535806 -0.0542397021739 0.862 2.06286716388e-38
0.0175481389386 -0.0542397021739 0.862 2.01687724893e-38
0.019099007999 -0.0541138559972 0.86 2.09048899868e-38
0.0206905919989 -0.0541138559972 0.86 1.96138008441e-38
0.0222303569849 -0.0539880098204 0.858 2.07197994792e-38
0.0237627192546 -0.0538621636437 0.856 2.12722459845e-38
0.0253469005382 -0.0538621636437 0.856 2.07212372114e-38
0.0268681587335 -0.053736317467 0.854 2.13662408816e-38
0.0282820775427 -0.0534217020251 0.849 2.20090921573e-38
0.0298533040729 -0.0534217020251 0.849 2.30239699584e-38
0.0313505034402 -0.0532958558484 0.847 2.30246888245e-38
0.0329180286122 -0.0532958558484 0.847 2.34867445723e-38
0.0345669836633 -0.0534217020251 0.849 2.30228867546e-38
0.0361382101935 -0.0534217020251 0.849 2.34856557634e-38
0.0377094367236 -0.0534217020251 0.849 2.34860186997e-38
0.0393731972073 -0.0535475482019 0.851 2.34885480434e-38
0.0409481250955 -0.0535475482019 0.851 2.34968311187e-38
0.0427728946582 -0.0538621636437 0.856 2.35032925059e-38
0.0445643519977 -0.0541138559972 0.86 2.35098015372e-38
0.0461559359976 -0.0541138559972 0.86 2.35098155502e-38
0.0477475199975 -0.0541138559972 0.86 2.35098477801e-38
0.0494538460997 -0.0542397021739 0.862 2.3509865997e-38
0.0511675749183 -0.0543655483507 0.864 2.35098589905e-38
0.0527665616345 -0.0543655483507 0.864 2.35098631944e-38
0.0545543176158 -0.0545543176158 0.867 2.35098617931e-38
0.056288403904 -0.0546801637925 0.869 2.35098589905e-38
0.0578966440156 -0.0546801637925 0.869 2.35098421749e-38
0.0595048841271 -0.0546801637925 0.869 2.35098309645e-38
0.0611131242387 -0.0546801637925 0.869 2.35098127476e-38
0.0628657173177 -0.0548060099692 0.871 2.35098001359e-38
0.0644776587873 -0.0548060099692 0.871 2.35025974618e-38
0.066089600257 -0.0548060099692 0.871 2.35015100542e-38
-0.00162489622317 -0.0536215753646 0.878 2.35090798685e-38
0.0 -0.0536215753646 0.878 1.38058699276e-38
0.00161934418596 -0.0534383581368 0.875 1.84155953689e-38
0.00323868837192 -0.0534383581368 0.875 1.96141791947e-38
0.00484692848347 -0.0533162133182 0.873 2.03521071699e-38
0.00646257131129 -0.0533162133182 0.873 2.06294325438e-38
0.00805970734842 -0.0531940684996 0.871 2.09978170945e-38
0.0096716488181 -0.0531940684996 0.871 2.12733249843e-38
0.0112576807808 -0.053071923681 0.869 2.16410299052e-38
0.0128659208924 -0.053071923681 0.869 2.23785739246e-38
0.0143908804458 -0.0527665616345 0.864 2.28381269534e-38
0.0159528535806 -0.0526444168159 0.862 2.21945722259e-38
0.0175481389386 -0.0526444168159 0.862 2.08123664531e-38
0.019099007999 -0.0525222719973 0.86 2.10878589286e-38
0.0206905919989 -0.0525222719973 0.86 2.053611027e-38
0.0222821759988 -0.0525222719973 0.86 2.09059689867e-38
0.0238182396267 -0.0524001271787 0.858 2.12743913724e-38
0.0254061222684 -0.0524001271787 0.858 2.18279421009e-38
0.0269310818219 -0.0522779823601 0.856 2.20116102906e-38
0.028448638659 -0.0521558375415 0.854 2.23786005493e-38
0.0300291185845 -0.0521558375415 0.854 2.3483513178e-38
0.0314985577658 -0.0519726203136 0.851 2.3484949509e-38
0.0330734856541 -0.0519726203136 0.851 2.24711493064e-38
0.0346484135424 -0.0519726203136 0.851 2.34870962982e-38
0.0362233414307 -0.0519726203136 0.851 2.34856655725e-38
0.037798269319 -0.0519726203136 0.851 2.34928752531e-38
0.0395119981375 -0.0521558375415 0.854 2.3498973704e-38
0.0411887133746 -0.0522779823601 0.856 2.3502589054e-38
0.042872831328 -0.0524001271787 0.858 2.35047989017e-38
0.0445643519977 -0.0525222719973 0.86 2.3509795932e-38
0.0461559359976 -0.0525222719973 0.86 2.35097889256e-38
0.0478585607417 -0.0526444168159 0.862 2.35098337671e-38
0.0494538460997 -0.0526444168159 0.862 2.35098421749e-38
0.0510491314578 -0.0526444168159 0.862 2.35098561879e-38
0.0527665616345 -0.0527665616345 0.864 2.35098491814e-38
0.0545543176158 -0.0529497788624 0.867 2.35098435762e-38
0.0561588563692 -0.0529497788624 0.867 2.3509837971e-38
0.0578966440156 -0.053071923681 0.869 2.35098127476e-38
0.0595048841271 -0.053071923681 0.869 2.3509823958e-38
0.0611131242387 -0.053071923681 0.869 2.35098169515e-38
0.0627213643502 -0.053071923681 0.869 2.35094568178e-38
0.0644776587873 -0.0531940684996 0.871 2.35025862514e-38
0.066089600257 -0.0531940684996 0.871 2.35000849337e-38
0.0677015417267 -0.0531940684996 0.871 2.35098281619e-38
-0.00162489622317 -0.0519966791415 0.878 2.35098183528e-38
0.0 -0.0519966791415 0.878 1.70334176221e-38
0.00161194146968 -0.0515821270299 0.871 1.77662981202e-38
0.00322388293937 -0.0515821270299 0.871 1.92468484205e-38
0.00484692848347 -0.0517005704903 0.873 2.05375774295e-38
0.00644776587873 -0.0515821270299 0.871 2.00772999294e-38
0.00805970734842 -0.0515821270299 0.871 2.11814978959e-38
0.0096716488181 -0.0515821270299 0.871 2.15481196131e-38
0.0112576807808 -0.0514636835694 0.869 2.18239750249e-38
0.0128659208924 -0.0514636835694 0.869 2.14566372442e-38
0.0143908804458 -0.0511675749183 0.864 2.20097928065e-38
0.015989867162 -0.0511675749183 0.864 2.19165041638e-38
0.0175481389386 -0.0510491314578 0.862 2.1456993174e-38
0.0191434242967 -0.0510491314578 0.862 2.13644416143e-38
0.0206905919989 -0.0509306879973 0.86 2.21045275892e-38
0.0222821759988 -0.0509306879973 0.86 2.11847040668e-38
0.0238737599988 -0.0509306879973 0.86 2.0997476579e-38
0.0254653439987 -0.0509306879973 0.86 2.19183440687e-38
0.0270569279986 -0.0509306879973 0.86 2.18279477061e-38
0.0286485119985 -0.0509306879973 0.86 2.26573160113e-38
0.0302400959984 -0.0509306879973 0.86 2.3024320283e-38
0.0317576528356 -0.0508122445369 0.858 2.3488536833e-38
0.0333455354773 -0.0508122445369 0.858 2.34877731254e-38
0.0349334181191 -0.0508122445369 0.858 2.34896508653e-38
0.0365213007609 -0.0508122445369 0.858 2.34929032791e-38
0.0381091834027 -0.0508122445369 0.858 2.34953709657e-38
0.0396970660444 -0.0508122445369 0.858 2.35022219138e-38
0.0412849486862 -0.0508122445369 0.858 2.35097468866e-38
0.0429727679978 -0.0509306879973 0.86 2.35098113463e-38
0.0445643519977 -0.0509306879973 0.86 2.35097805178e-38
0.0461559359976 -0.0509306879973 0.86 2.35098043398e-38
0.0478585607417 -0.0510491314578 0.862 2.35098169515e-38
0.0494538460997 -0.0510491314578 0.862 2.35098435762e-38
0.0510491314578 -0.0510491314578 0.862 2.35098407736e-38
0.0527665616345 -0.0511675749183 0.864 2.3509837971e-38
0.0545543176158 -0.051345240109 0.867 2.35098435762e-38
0.0561588563692 -0.051345240109 0.867 2.35098309645e-38
0.0578966440156 -0.0514636835694 0.869 2.35098281619e-38
0.0595048841271 -0.0514636835694 0.869 2.35098365697e-38
0.0611131242387 -0.0514636835694 0.869 2.35098197541e-38
0.0627213643502 -0.0514636835694 0.869 2.35000905389e-38
0.0644776587873 -0.0515821270299 0.871 2.35058498756e-38
0.066089600257 -0.0515821270299 0.871 2.34979227302e-38
0.0677015417267 -0.0515821270299 0.871 2.35098309645e-38
0.0 -0.0503717829183 0.878 1.6484540224e-38
0.00161194146968 -0.0499701855602 0.871 1.85024184204e-38
0.00322388293937 -0.0499701855602 0.871 1.91539339245e-38
0.00484692848347 -0.0500849276625 0.873 1.99851197138e-38
0.00644776587873 -0.0499701855602 0.871 2.03538826151e-38
0.00805970734842 -0.0499701855602 0.871 2.20119788321e-38
0.0096716488181 -0.0499701855602 0.871 2.10878589286e-38
0.0112576807808 -0.0498554434579 0.869 2.19161356223e-38
0.0128659208924 -0.0498554434579 0.869 2.21027101051e-38
0.0143908804458 -0.0495685882021 0.864 2.28420800164e-38
0.015989867162 -0.0495685882021 0.864 2.17342877193e-38
0.0175481389386 -0.0494538460997 0.862 2.28392087558e-38
0.0191434242967 -0.0494538460997 0.862 2.19172496546e-38
0.0207387096547 -0.0494538460997 0.862 2.20098110234e-38
0.0222821759988 -0.0493391039974 0.86 2.15506321413e-38
0.0238737599988 -0.0493391039974 0.86 2.16424774465e-38
0.0254653439987 -0.0493391039974 0.86 2.33012532933e-38
0.0270569279986 -0.0493391039974 0.86 2.31179354282e-38
0.0286485119985 -0.0493391039974 0.86 2.34881598838e-38
0.0302400959984 -0.0493391039974 0.86 2.26566097568e-38
0.0318316799983 -0.0493391039974 0.86 2.34892528966e-38
0.0334232639983 -0.0493391039974 0.86 2.34921507818e-38
0.0349334181191 -0.0492243618951 0.858 2.34953233215e-38
0.0365213007609 -0.0492243618951 0.858 2.34978961055e-38
0.0381091834027 -0.0492243618951 0.858 2.34957745396e-38
0.0396970660444 -0.0492243618951 0.858 2.35022303216e-38
0.0413811839978 -0.0493391039974 0.86 2.35029281683e-38
0.0429727679978 -0.0493391039974 0.86 2.35097931294e-38
0.0445643519977 -0.0493391039974 0.86 2.35098323658e-38
0.0462632753836 -0.0494538460997 0.862 2.35098169515e-38
0.0478585607417 -0.0494538460997 0.862 2.35098211554e-38
0.0494538460997 -0.0494538460997 0.862 2.35098309645e-38
0.0510491314578 -0.0494538460997 0.862 2.35098225567e-38
0.0526444168159 -0.0494538460997 0.862 2.35098113463e-38
0.0545543176158 -0.0497407013555 0.867 2.35098085437e-38
0.0561588563692 -0.0497407013555 0.867 2.35098197541e-38
0.0577633951226 -0.0497407013555 0.867 2.35097945307e-38
0.0595048841271 -0.0498554434579 0.869 2.35097945307e-38
0.061253775848 -0.0499701855602 0.871 2.35083581998e-38
0.0628657173177 -0.0499701855602 0.871 2.3506166569e-38
0.0644776587873 -0.0499701855602 0.871 2.34982702522e-38
0.066089600257 -0.0499701855602 0.871 2.35008037998e-38
0.0677015417267 -0.0499701855602 0.871 2.35098589905e-38
0.0 -0.0487468866951 0.878 1.85153874377e-38
0.00161194146968 -0.0483582440905 0.871 1.89648539201e-38
0.00322388293937 -0.0483582440905 0.871 1.88773302193e-38
0.00484692848347 -0.0484692848347 0.873 1.88787735568e-38
0.00644776587873 -0.0483582440905 0.871 2.02613184437e-38
0.00805970734842 -0.0483582440905 0.871 2.09052655348e-38
0.00964944066926 -0.0482472033463 0.869 2.14587896386e-38
0.0112576807808 -0.0482472033463 0.869 2.21038059205e-38
0.0128363100272 -0.0481361626021 0.867 2.21960015503e-38
0.0143908804458 -0.0479696014859 0.864 2.18268490881e-38
0.0159528535806 -0.0478585607417 0.862 2.30235930091e-38
0.0175481389386 -0.0478585607417 0.862 2.19165462028e-38
0.0191434242967 -0.0478585607417 0.862 2.29292660042e-38
0.0207387096547 -0.0478585607417 0.862 2.30225378313e-38
0.0223339950128 -0.0478585607417 0.862 2.31150669702e-38
0.0239292803708 -0.0478585607417 0.862 2.30232370793e-38
0.0255245657289 -0.0478585607417 0.862 2.31147334612e-38
0.0270569279986 -0.0477475199975 0.86 2.34827718912e-38
0.0286485119985 -0.0477475199975 0.86 2.34885466421e-38
0.0302400959984 -0.0477475199975 0.86 2.34870724761e-38
0.0318316799983 -0.0477475199975 0.86 2.34921199532e-38
0.0334232639983 -0.0477475199975 0.86 2.34957381059e-38
0.0350148479982 -0.0477475199975 0.86 2.349683252e-38
0.0366064319981 -0.0477475199975 0.86 2.34953779721e-38
0.038198015998 -0.0477475199975 0.86 2.34997093857e-38
0.0397895999979 -0.0477475199975 0.86 2.35079700401e-38
0.0413811839978 -0.0477475199975 0.86 2.35097426827e-38
0.0429727679978 -0.0477475199975 0.86 2.35069288754e-38
0.0445643519977 -0.0477475199975 0.86 2.35098183528e-38
0.0461559359976 -0.0477475199975 0.86 2.35098183528e-38
0.0477475199975 -0.0477475199975 0.86 2.35098309645e-38
0.0494538460997 -0.0478585607417 0.862 2.3509809945e-38
0.0510491314578 -0.0478585607417 0.862 2.35098155502e-38
0.0526444168159 -0.0478585607417 0.862 2.3509795932e-38
0.0543655483507 -0.0479696014859 0.864 2.35098085437e-38
0.0561588563692 -0.0481361626021 0.867 2.35083610024e-38
0.0577633951226 -0.0481361626021 0.867 2.35098071424e-38
0.0595048841271 -0.0482472033463 0.869 2.35029575955e-38
0.061253775848 -0.0483582440905 0.871 2.35065533274e-38
0.0628657173177 -0.0483582440905 0.871 2.35022107035e-38
0.0644776587873 -0.0483582440905 0.871 2.34978792899e-38
0.066089600257 -0.0483582440905 0.871 2.35007939907e-38
0.0677015417267 -0.0483582440905 0.871 2.35098687996e-38
0.0 -0.047121990472 0.878 1.72217493331e-38
0.00161934418596 -0.0469609813929 0.875 1.98889836327e-38
0.00323128565565 -0.0468536420069 0.873 1.86018349413e-38
0.00484692848347 -0.0468536420069 0.873 1.86046907875e-38
0.00644776587873 -0.0467463026208 0.871 2.04464355761e-38
0.00805970734842 -0.0467463026208 0.871 2.09052375089e-38
0.00964944066926 -0.0466389632348 0.869 2.16435340256e-38
0.0112576807808 -0.0466389632348 0.869 2.25640778154e-38
0.0128363100272 -0.0465316238487 0.867 2.25637134778e-38
0.0143908804458 -0.0463706147697 0.864 2.28406450868e-38
0.0159528535806 -0.0462632753836 0.862 2.33923797324e-38
0.0175481389386 -0.0462632753836 0.862 2.3390950408e-38
0.0191434242967 -0.0462632753836 0.862 2.34867361645e-38
0.0207387096547 -0.0462632753836 0.862 2.23782179948e-38
0.0223339950128 -0.0462632753836 0.862 2.34852914258e-38
0.0239292803708 -0.0462632753836 0.862 2.31125530408e-38
0.0255245657289 -0.0462632753836 0.862 2.34864208724e-38
0.0270569279986 -0.0461559359976 0.86 2.34899661575e-38
0.0286485119985 -0.0461559359976 0.86 2.34896144316e-38
0.0302400959984 -0.0461559359976 0.86 2.34896368523e-38
0.0318316799983 -0.0461559359976 0.86 2.34928444245e-38
0.0334232639983 -0.0461559359976 0.86 2.34935716984e-38
0.0350148479982 -0.0461559359976 0.86 2.34989835131e-38
0.0366064319981 -0.0461559359976 0.86 2.35025806463e-38
0.038198015998 -0.0461559359976 0.86 2.35029281683e-38
0.0397895999979 -0.0461559359976 0.86 2.35068854351e-38
0.0413811839978 -0.0461559359976 0.86 2.3507612709e-38
0.0429727679978 -0.0461559359976 0.86 2.35079896583e-38
0.0445643519977 -0.0461559359976 0.86 2.35097973333e-38
0.0461559359976 -0.0461559359976 0.86 2.35098155502e-38
0.0477475199975 -0.0461559359976 0.86 2.35098085437e-38
0.0494538460997 -0.0462632753836 0.862 2.3509809945e-38
0.0510491314578 -0.0462632753836 0.862 2.35098029385e-38
0.0526444168159 -0.0462632753836 0.862 2.35097945307e-38
0.0543655483507 -0.0463706147697 0.864 2.35098225567e-38
0.0561588563692 -0.0465316238487 0.867 2.35072876078e-38
0.0577633951226 -0.0465316238487 0.867 2.35051001809e-38
0.0595048841271 -0.0466389632348 0.869 2.35079700401e-38
0.061253775848 -0.0467463026208 0.871 2.35018533723e-38
0.0628657173177 -0.0467463026208 0.871 2.34982688509e-38
0.0644776587873 -0.0467463026208 0.871 2.34964681824e-38
0.0659378445733 -0.0466389632348 0.869 2.34986247807e-38
0.0675460846849 -0.0466389632348 0.869 2.35098267606e-38
0.0 -0.0454970942488 0.878 1.61143129658e-38
0.00161934418596 -0.0453416372069 0.875 2.05379403658e-38
0.00323868837192 -0.0453416372069 0.875 1.87862107867e-38
0.00484692848347 -0.045237999179 0.873 1.86943836983e-38
0.00644776587873 -0.0451343611511 0.871 2.00765740568e-38
0.00805970734842 -0.0451343611511 0.871 2.06286786452e-38
0.00964944066926 -0.0450307231232 0.869 2.11804231e-38
0.0112576807808 -0.0450307231232 0.869 2.19172622663e-38
0.0128363100272 -0.0449270850953 0.867 2.16410327078e-38
0.0143908804458 -0.0447716280535 0.864 2.33920294078e-38
0.015989867162 -0.0447716280535 0.864 2.30232370793e-38
0.0175481389386 -0.0446679900256 0.862 2.30221650859e-38
0.0191434242967 -0.0446679900256 0.862 2.34852886232e-38
0.0207387096547 -0.0446679900256 0.862 2.34892262719e-38
0.0223339950128 -0.0446679900256 0.862 2.34910731833e-38
0.0239292803708 -0.0446679900256 0.862 2.34889039732e-38
0.0255245657289 -0.0446679900256 0.862 2.34899745653e-38
0.0270569279986 -0.0445643519977 0.86 2.34946184684e-38
0.0286485119985 -0.0445643519977 0.86 2.34942681438e-38
0.0302400959984 -0.0445643519977 0.86 2.34942947684e-38
0.0318316799983 -0.0445643519977 0.86 2.34975401757e-38
0.0334232639983 -0.0445643519977 0.86 2.34964443603e-38
0.0350148479982 -0.0445643519977 0.86 2.34978961055e-38
0.0366064319981 -0.0445643519977 0.86 2.35011499205e-38
0.038198015998 -0.0445643519977 0.86 2.35022485385e-38
0.0397895999979 -0.0445643519977 0.86 2.35051113913e-38
0.0413811839978 -0.0445643519977 0.86 2.35086917089e-38
0.0429727679978 -0.0445643519977 0.86 2.35076183142e-38
0.0446679900256 -0.0446679900256 0.862 2.35094091737e-38
0.0462632753836 -0.0446679900256 0.862 2.35098085437e-38
0.0478585607417 -0.0446679900256 0.862 2.35076673597e-38
0.0494538460997 -0.0446679900256 0.862 2.35098015372e-38
0.0510491314578 -0.0446679900256 0.862 2.35097819191e-38
0.0527665616345 -0.0447716280535 0.864 2.35097805178e-38
0.0543655483507 -0.0447716280535 0.864 2.35086524725e-38
0.0561588563692 -0.0449270850953 0.867 2.35097735113e-38
0.0577633951226 -0.0449270850953 0.867 2.35068924416e-38
0.059367933876 -0.0449270850953 0.867 2.35051001809e-38
0.061253775848 -0.0451343611511 0.871 2.34986359911e-38
0.0628657173177 -0.0451343611511 0.871 2.34964653798e-38
0.0644776587873 -0.0451343611511 0.871 2.35000611116e-38
0.0659378445733 -0.0450307231232 0.869 2.34925025077e-38
0.0675460846849 -0.0450307231232 0.869 2.35097608996e-38
0.0 -0.0438721980256 0.878 1.24304576498e-38
0.00161934418596 -0.043722293021 0.875 2.03574797483e-38
0.00323868837192 -0.043722293021 0.875 1.97078111555e-38
0.00484692848347 -0.0436223563512 0.873 1.92461197453e-38
0.00644776587873 -0.0435224196815 0.871 1.91542716374e-38
0.00805970734842 -0.0435224196815 0.871 2.09971136427e-38
0.00964944066926 -0.0434224830117 0.869 2.15509880711e-38
0.0112576807808 -0.0434224830117 0.869 2.15499090713e-38
0.0128363100272 -0.0433225463419 0.867 2.20094578962e-38
0.0143908804458 -0.0431726413373 0.864 2.32065605496e-38
0.015989867162 -0.0431726413373 0.864 2.33913007326e-38
0.0175481389386 -0.0430727046675 0.862 2.33923769298e-38
0.0191434242967 -0.0430727046675 0.862 2.34842222351e-38
0.0207387096547 -0.0430727046675 0.862 2.3487452228e-38
0.0223339950128 -0.0430727046675 0.862 2.34910689794e-38
0.0239292803708 -0.0430727046675 0.862 2.34885340304e-38
0.0255245657289 -0.0430727046675 0.862 2.34881837058e-38
0.0270569279986 -0.0429727679978 0.86 2.34917542143e-38
0.0286485119985 -0.0429727679978 0.86 2.34917640234e-38
0.0302400959984 -0.0429727679978 0.86 2.34957479149e-38
0.0318316799983 -0.0429727679978 0.86 2.34978834938e-38
0.0334232639983 -0.0429727679978 0.86 2.35000330856e-38
0.0350962778772 -0.0430727046675 0.862 2.35003876142e-38
0.0366064319981 -0.0429727679978 0.86 2.35014848309e-38
0.038198015998 -0.0429727679978 0.86 2.35022303216e-38
0.0397895999979 -0.0429727679978 0.86 2.35029674046e-38
0.0413811839978 -0.0429727679978 0.86 2.35062044041e-38
0.0430727046675 -0.0430727046675 0.862 2.35062170158e-38
0.0446679900256 -0.0430727046675 0.862 2.350977211e-38
0.0462632753836 -0.0430727046675 0.862 2.35097945307e-38
0.0478585607417 -0.0430727046675 0.862 2.35083455881e-38
0.0494538460997 -0.0430727046675 0.862 2.35094259893e-38
0.0510491314578 -0.0430727046675 0.862 2.35054701237e-38
0.0527665616345 -0.0431726413373 0.864 2.35076701623e-38
0.0543655483507 -0.0431726413373 0.864 2.35061749768e-38
0.0559645350669 -0.0431726413373 0.864 2.35015380802e-38
0.0577633951226 -0.0433225463419 0.867 2.35015282711e-38
0.059367933876 -0.0433225463419 0.867 2.34982660483e-38
0.061253775848 -0.0435224196815 0.871 2.34950332527e-38
0.0628657173177 -0.0435224196815 0.871 2.34960828253e-38
0.0644776587873 -0.0435224196815 0.871 2.35018603788e-38
0.066089600257 -0.0435224196815 0.871 2.14588078555e-38
0.0 -0.0423435371141 0.88 7.82144266692e-39
0.00162489622317 -0.0422473018025 0.878 2.09114172351e-38
0.00323868837192 -0.042102948835 0.875 1.97071077037e-38
0.00484692848347 -0.0420067135234 0.873 1.99826029818e-38
0.00644776587873 -0.0419104782118 0.871 1.94297795272e-38
0.00805970734842 -0.0419104782118 0.871 2.08123664531e-38
0.0096716488181 -0.0419104782118 0.871 2.07208686699e-38
0.0112576807808 -0.0418142429001 0.869 2.19183412661e-38
0.0128363100272 -0.0417180075885 0.867 2.15484839507e-38
0.0143908804458 -0.0415736546211 0.864 2.30235874039e-38
0.015989867162 -0.0415736546211 0.864 2.23775173456e-38
0.0175481389386 -0.0414774193095 0.862 2.33005372298e-38
0.0191434242967 -0.0414774193095 0.862 2.34888941642e-38
0.0207387096547 -0.0414774193095 0.862 2.34863648204e-38
0.0223339950128 -0.0414774193095 0.862 2.34885284253e-38
0.0239292803708 -0.0414774193095 0.862 2.34892683108e-38
0.0255245657289 -0.0414774193095 0.862 2.34914529351e-38
0.0270569279986 -0.0413811839978 0.86 2.3492851431e-38
0.0286485119985 -0.0413811839978 0.86 2.34928486284e-38
0.0303104218031 -0.0414774193095 0.862 2.34975233601e-38
0.0318316799983 -0.0413811839978 0.86 2.34935773036e-38
0.0334232639983 -0.0413811839978 0.86 2.34979129211e-38
0.0350962778772 -0.0414774193095 0.862 2.3499696774e-38
0.0366064319981 -0.0413811839978 0.86 2.3498264647e-38
0.038198015998 -0.0413811839978 0.86 2.35040197798e-38
0.0398821339514 -0.0414774193095 0.862 2.3501504449e-38
0.0414774193095 -0.0414774193095 0.862 2.35015016464e-38
0.0430727046675 -0.0414774193095 0.862 2.35079966648e-38
0.0446679900256 -0.0414774193095 0.862 2.35076057025e-38
0.0462632753836 -0.0414774193095 0.862 2.35050581419e-38
0.0478585607417 -0.0414774193095 0.862 2.35076183142e-38
0.0494538460997 -0.0414774193095 0.862 2.35040660226e-38
0.0510491314578 -0.0414774193095 0.862 2.35054168743e-38
0.0527665616345 -0.0415736546211 0.864 2.35026128761e-38
0.0543655483507 -0.0415736546211 0.864 2.35043701044e-38
0.0559645350669 -0.0415736546211 0.864 2.34989666975e-38
0.0577633951226 -0.0417180075885 0.867 2.34982912717e-38
0.059367933876 -0.0417180075885 0.867 2.34968297174e-38
0.061253775848 -0.0419104782118 0.871 2.34950374566e-38
0.0628657173177 -0.0419104782118 0.871 2.34968339213e-38
0.0646257131129 -0.0420067135234 0.873 2.35022345255e-38
0.0662413559407 -0.0420067135234 0.873 1.51062987246e-38
0.0 -0.0407149395328 0.88 1.15084943447e-38
0.00162489622317 -0.0406224055793 0.878 2.23796305037e-38
0.00323868837192 -0.0404836046491 0.875 2.10889337246e-38
0.00485803255789 -0.0404836046491 0.875 2.06265234482e-38
0.00646257131129 -0.0403910706956 0.873 1.98907534726e-38
0.00805970734842 -0.0402985367421 0.871 1.97978543909e-38
0.0096716488181 -0.0402985367421 0.871 2.12740410478e-38
0.0112576807808 -0.0402060027886 0.869 2.00755020635e-38
0.0128363100272 -0.0401134688351 0.867 2.19172314377e-38
0.0143908804458 -0.0399746679049 0.864 2.22856566261e-38
0.015989867162 -0.0399746679049 0.864 2.34881710941e-38
0.0175481389386 -0.0398821339514 0.862 2.23796515232e-38
0.0191434242967 -0.0398821339514 0.862 2.3485672579e-38
0.0207387096547 -0.0398821339514 0.862 2.34870976995e-38
0.0223339950128 -0.0398821339514 0.862 2.34888913616e-38
0.0239292803708 -0.0398821339514 0.862 2.34896018199e-38
0.0255245657289 -0.0398821339514 0.862 2.34906654054e-38
0.0270569279986 -0.0397895999979 0.86 2.34932031569e-38
0.0286485119985 -0.0397895999979 0.86 2.34928486284e-38
0.0303104218031 -0.0398821339514 0.862 2.34960842266e-38
0.0318316799983 -0.0397895999979 0.86 2.34993296338e-38
0.0334232639983 -0.0397895999979 0.86 2.34953709657e-38
0.0350962778772 -0.0398821339514 0.862 2.34961150551e-38
0.0366064319981 -0.0397895999979 0.86 2.35007925894e-38
0.038198015998 -0.0397895999979 0.86 2.35015114555e-38
0.0398821339514 -0.0398821339514 0.862 2.35018603788e-38
0.0414774193095 -0.0398821339514 0.862 2.3501128901e-38
0.0430727046675 -0.0398821339514 0.862 2.35058162444e-38
0.0446679900256 -0.0398821339514 0.862 2.35050973783e-38
0.0462632753836 -0.0398821339514 0.862 2.35061749768e-38
0.0478585607417 -0.0398821339514 0.862 2.35029519903e-38
0.0494538460997 -0.0398821339514 0.862 2.35050917731e-38
0.0511675749183 -0.0399746679049 0.864 2.35021952892e-38
0.0527665616345 -0.0399746679049 0.864 2.34989779079e-38
0.0543655483507 -0.0399746679049 0.864 2.34993324364e-38
0.0561588563692 -0.0401134688351 0.867 2.34968115005e-38
0.0578966440156 -0.0402060027886 0.869 2.34968269148e-38
0.0595048841271 -0.0402060027886 0.869 2.34928290102e-38
0.061253775848 -0.0402985367421 0.871 2.34954045968e-38
0.0628657173177 -0.0402985367421 0.871 2.34982730548e-38
0.0646257131129 -0.0403910706956 0.873 2.35019108256e-38
0.0662413559407 -0.0403910706956 0.873 1.4923307362e-38
0.0 -0.0390863419515 0.88 2.01821310675e-38
0.00162489622317 -0.0389975093561 0.878 1.96944357617e-38
0.00323868837192 -0.0388642604631 0.875 2.0720558983e-38
0.00485803255789 -0.0388642604631 0.875 2.17332283377e-38
0.00646257131129 -0.0387754278677 0.873 2.04446573283e-38
0.00807821413911 -0.0387754278677 0.873 1.97982047156e-38
0.0096716488181 -0.0386865952724 0.871 2.09045368596e-38
0.0112576807808 -0.0385977626771 0.869 2.06290275686e-38
0.0128659208924 -0.0385977626771 0.869 2.20105116726e-38
0.0144408487806 -0.0385089300817 0.867 2.15491888039e-38
0.015989867162 -0.0383756811887 0.864 2.2838852826e-38
0.0175888538782 -0.0383756811887 0.864 2.34845935792e-38
0.0191434242967 -0.0382868485934 0.862 2.30225336274e-38
0.0207387096547 -0.0382868485934 0.862 2.34892865277e-38
0.0223339950128 -0.0382868485934 0.862 2.34881921136e-38
0.0239292803708 -0.0382868485934 0.862 2.34914221066e-38
0.0255245657289 -0.0382868485934 0.862 2.34892977381e-38
0.0270569279986 -0.038198015998 0.86 2.34899913808e-38
0.0286485119985 -0.038198015998 0.86 2.34914305144e-38
0.0303104218031 -0.0382868485934 0.862 2.34971604238e-38
0.0318316799983 -0.038198015998 0.86 2.34946520995e-38
0.0334232639983 -0.038198015998 0.86 2.34953891825e-38
0.0350962778772 -0.0382868485934 0.862 2.34979017107e-38
0.0366915632353 -0.0382868485934 0.862 2.34989695001e-38
0.0382868485934 -0.0382868485934 0.862 2.35000527038e-38
0.0398821339514 -0.0382868485934 0.862 2.3499696774e-38
0.0414774193095 -0.0382868485934 0.862 2.35014834296e-38
0.0430727046675 -0.0382868485934 0.862 2.34993338377e-38
0.0446679900256 -0.0382868485934 0.862 2.35036694552e-38
0.0462632753836 -0.0382868485934 0.862 2.35007827803e-38
0.0478585607417 -0.0382868485934 0.862 2.35000709207e-38
0.0494538460997 -0.0382868485934 0.862 2.35011373088e-38
0.0511675749183 -0.0383756811887 0.864 2.35011176907e-38
0.0527665616345 -0.0383756811887 0.864 2.35003862129e-38
0.0543655483507 -0.0383756811887 0.864 2.34946675138e-38
0.0561588563692 -0.0385089300817 0.867 2.34939416412e-38
0.0578966440156 -0.0385977626771 0.869 2.34917962533e-38
0.0595048841271 -0.0385977626771 0.869 2.34971772394e-38
0.061253775848 -0.0386865952724 0.871 2.34943718398e-38
0.0628657173177 -0.0386865952724 0.871 2.34986275833e-38
0.0647737674385 -0.0388642604631 0.875 2.34986037612e-38
0.0663931116244 -0.0388642604631 0.875 1.7319959336e-38
0.0 -0.0374577443701 0.88 2.35065645378e-38
0.00162489622317 -0.0373726131329 0.878 1.01991210596e-38
0.00324979244634 -0.0373726131329 0.878 2.0359309844e-38
0.00487468866951 -0.0373726131329 0.878 2.16428333763e-38
0.00647737674385 -0.0372449162771 0.875 2.08138111919e-38
0.00807821413911 -0.0371597850399 0.873 2.08109147079e-38
0.0096716488181 -0.0370746538027 0.871 2.10878617312e-38
0.0112835902878 -0.0370746538027 0.871 2.07208714725e-38
0.0128659208924 -0.0369895225655 0.869 2.11822223672e-38
0.0144408487806 -0.0369043913283 0.867 2.15513510074e-38
0.016045387534 -0.0369043913283 0.867 2.17335940766e-38
0.0176499262875 -0.0369043913283 0.867 2.26559133115e-38
0.0191878405943 -0.0367766944725 0.864 2.30236140285e-38
0.0207868273105 -0.0367766944725 0.864 2.34853166492e-38
0.0223339950128 -0.0366915632353 0.862 2.34856417504e-38
0.0239292803708 -0.0366915632353 0.862 2.34878347825e-38
0.0255245657289 -0.0366915632353 0.862 2.34888997693e-38
0.027119851087 -0.0366915632353 0.862 2.34921479792e-38
0.028715136445 -0.0366915632353 0.862 2.34928528323e-38
0.0303104218031 -0.0366915632353 0.862 2.34928556349e-38
0.0318316799983 -0.0366064319981 0.86 2.34960940357e-38
0.0334232639983 -0.0366064319981 0.86 2.34942919658e-38
0.0350962778772 -0.0366915632353 0.862 2.34935913166e-38
0.0366064319981 -0.0366064319981 0.86 2.34978876977e-38
0.038198015998 -0.0366064319981 0.86 2.34968100992e-38
0.0398821339514 -0.0366915632353 0.862 2.34964751888e-38
0.0414774193095 -0.0366915632353 0.862 2.34932367881e-38
0.0430727046675 -0.0366915632353 0.862 2.34972122718e-38
0.0446679900256 -0.0366915632353 0.862 2.34961080486e-38
0.0462632753836 -0.0366915632353 0.862 2.34993394429e-38
0.0478585607417 -0.0366915632353 0.862 2.35004352583e-38
0.0494538460997 -0.0366915632353 0.862 2.34961094499e-38
0.0511675749183 -0.0367766944725 0.864 2.34950374566e-38
0.0527665616345 -0.0367766944725 0.864 2.34975457809e-38
0.0543655483507 -0.0367766944725 0.864 2.34928023856e-38
0.0561588563692 -0.0369043913283 0.867 2.34932115647e-38
0.0578966440156 -0.0369895225655 0.869 2.34918060624e-38
0.0596418343783 -0.0370746538027 0.871 2.34942989723e-38
0.061253775848 -0.0370746538027 0.871 2.34932325842e-38
0.0631544232525 -0.0372449162771 0.875 2.35051085887e-38
0.0649958489268 -0.0373726131329 0.878 1.77784824104e-38
0.06662074515 -0.0373726131329 0.878 1.68694320706e-38
0.0 -0.0358291467888 0.88 2.35098113463e-38
0.00162489622317 -0.0357477169098 0.878 4.77544580022e-39
0.00324979244634 -0.0357477169098 0.878 1.98082884593e-38
0.00487468866951 -0.0357477169098 0.878 2.07223190138e-38
0.00649958489268 -0.0357477169098 0.878 2.14584547283e-38
0.00809672092981 -0.0356255720912 0.875 2.08134230322e-38
0.00969385696694 -0.0355441422121 0.873 2.20098110234e-38
0.0112835902878 -0.035462712333 0.871 2.10874693677e-38
0.0128659208924 -0.035381282454 0.869 2.09978170945e-38
0.0144741610039 -0.035381282454 0.869 2.09978114893e-38
0.016045387534 -0.0352998525749 0.867 2.34856641712e-38
0.0176499262875 -0.0352998525749 0.867 2.07190539884e-38
0.0192544650409 -0.0352998525749 0.867 2.34860355153e-38
0.0207868273105 -0.0351777077563 0.864 2.33930985985e-38
0.0223858140267 -0.0351777077563 0.864 2.34856613686e-38
