# .PCD v0.7 - Point Cloud Data file format
VERSION 0.7
FIELDS x y z rgb
SIZE 4 4 4 4
TYPE F F F F
COUNT 1 1 1 1
WIDTH 842
HEIGHT 1
VIEWPOINT 0 0 0 1 0 0 0
POINTS 842
DATA ascii
0.0203870806315 -0.0611612418945 0.918 8.13425732571e-39
0.0220860040175 -0.0611612418945 0.918 7.58360308117e-39
0.0237849274034 -0.0611612418945 0.918 8.50267550757e-39
0.0255393711615 -0.0612944907875 0.92 8.04134563233e-39
0.0272419959056 -0.0612944907875 0.92 8.87360481627e-39
0.0290390052822 -0.061494364127 0.923 8.41227494103e-39
0.0307471820635 -0.061494364127 0.923 8.59702213057e-39
0.0324553588448 -0.061494364127 0.923 8.87109368942e-39
0.0341635356261 -0.061494364127 0.923 1.01614541569e-38
0.0359494409284 -0.06162761302 0.925 8.68849889432e-39
0.0376613190678 -0.06162761302 0.925 9.70048301409e-39
0.0395008940631 -0.0618274863596 0.928 1.00685424635e-38
0.0412183242397 -0.0618274863596 0.928 9.88415400641e-39
0.0430282883699 -0.0619607352526 0.93 1.19113508376e-38
0.0449900081837 -0.0622938574851 0.935 1.0344048952e-38
0.0467203931138 -0.0622938574851 0.935 9.51573582456e-39
0.048450778044 -0.0622938574851 0.935 1.73379590147e-38
0.0506105205183 -0.0628268530572 0.943 2.35058540795e-38
-0.0228077688546 -0.0614055315317 0.948 2.34935969218e-38
-0.0210533250966 -0.0614055315317 0.948 2.34954200111e-38
-0.019258166399 -0.0612759839968 0.946 2.35011807491e-38
-0.0175074239991 -0.0612759839968 0.946 1.96188581303e-38
-0.0157067132643 -0.0610816626945 0.943 1.1407759202e-38
-0.0139171066039 -0.0608873413922 0.94 7.56530772842e-39
-0.0121515587715 -0.0607577938573 0.938 7.57355857378e-39
-0.0103823095809 -0.060563472555 0.935 7.01931700517e-39
-0.00863341786002 -0.0604339250201 0.933 6.92999263586e-39
-0.00688452613918 -0.0602396037178 0.93 7.20621658915e-39
-0.00515229052996 -0.0601100561829 0.928 7.48387547206e-39
-0.00343486035331 -0.0601100561829 0.928 7.02398052646e-39
-0.00171743017665 -0.0601100561829 0.928 7.11725095224e-39
0.0 -0.0599157348806 0.925 6.93465615715e-39
0.00171187813945 -0.0599157348806 0.925 6.84246192858e-39
0.00341635356261 -0.0597861873457 0.923 7.48638659891e-39
0.00512453034392 -0.0597861873457 0.923 8.13174619886e-39
0.00683270712523 -0.0597861873457 0.923 7.57929829229e-39
0.00854088390653 -0.0597861873457 0.923 7.57929829229e-39
0.0102490606878 -0.0597861873457 0.923 7.58145068673e-39
0.0119183732087 -0.0595918660434 0.92 7.67579730974e-39
0.0136209979528 -0.0595918660434 0.92 7.39885589164e-39
0.0153236226969 -0.0595918660434 0.92 7.30666166307e-39
0.017026247441 -0.0595918660434 0.92 7.94951013618e-39
0.0187288721851 -0.0595918660434 0.92 7.76619787627e-39
0.0204314969292 -0.0595918660434 0.92 7.4910501202e-39
0.0221341216733 -0.0595918660434 0.92 8.32115690969e-39
0.0238367464174 -0.0595918660434 0.92 8.41263367344e-39
0.0256226517196 -0.0597861873457 0.923 7.76727407349e-39
0.0273308285009 -0.0597861873457 0.923 8.22896268113e-39
0.0290390052822 -0.0597861873457 0.923 8.41191620863e-39
0.0307471820635 -0.0597861873457 0.923 8.50482790201e-39
0.0324553588448 -0.0597861873457 0.923 9.14982876955e-39
0.0342375627889 -0.0599157348806 0.925 8.59738086298e-39
0.0359494409284 -0.0599157348806 0.925 9.79447090469e-39
0.0377834638864 -0.0601100561829 0.928 9.79195977785e-39
0.0395008940631 -0.0601100561829 0.928 1.00689011959e-38
0.0413071568351 -0.0602396037178 0.93 1.02547245827e-38
0.0431670893001 -0.0604339250201 0.933 1.11737970091e-38
0.0449900081837 -0.060563472555 0.935 1.08050200948e-38
0.0467203931138 -0.060563472555 0.935 1.08943444641e-38
0.048450778044 -0.060563472555 0.935 2.35050483328e-38
0.0501811629741 -0.060563472555 0.935 2.35030234566e-38
-0.0210533250966 -0.0596510877736 0.948 2.34925683687e-38
-0.019258166399 -0.0595252415969 0.946 2.34990283546e-38
-0.0175074239991 -0.0595252415969 0.946 2.04457671567e-38
-0.0157566815992 -0.0595252415969 0.946 1.6474169214e-38
-0.0139615229016 -0.0593364723318 0.943 1.05012171865e-38
-0.0121774682784 -0.0591477030667 0.94 6.8327761536e-39
-0.0104156218041 -0.0590218568899 0.938 7.11186996614e-39
-0.00865192465071 -0.0588330876248 0.935 7.20478165952e-39
-0.00688452613918 -0.058518472183 0.93 7.20621658915e-39
-0.00516339460438 -0.058518472183 0.93 6.93071010067e-39
-0.00343486035331 -0.0583926260063 0.928 7.48531040169e-39
-0.00171743017665 -0.0583926260063 0.928 7.11689221984e-39
0.0 -0.0583926260063 0.928 6.38220825057e-39
0.00171187813945 -0.0582038567412 0.925 7.39562729997e-39
0.00342375627889 -0.0582038567412 0.925 7.57858082748e-39
0.00513563441834 -0.0582038567412 0.925 7.39383363794e-39
0.00684751255778 -0.0582038567412 0.925 8.13174619886e-39
0.00855939069723 -0.0582038567412 0.925 8.13210493127e-39
0.0102712688367 -0.0582038567412 0.925 7.58073322192e-39
0.0119572374691 -0.0580780105644 0.923 7.48925645817e-39
0.0136654142505 -0.0580780105644 0.923 8.04385675918e-39
0.0153735910318 -0.0580780105644 0.923 8.04170436474e-39
0.0170817678131 -0.0580780105644 0.923 8.22465789224e-39
0.0187899445944 -0.0580780105644 0.923 8.04098689993e-39
0.0204981213757 -0.0580780105644 0.923 8.32008071247e-39
0.022206298157 -0.0580780105644 0.923 7.95166253062e-39
0.0239144749383 -0.0580780105644 0.923 7.49176758501e-39
0.0256226517196 -0.0580780105644 0.923 7.85910956965e-39
0.0273308285009 -0.0580780105644 0.923 8.13605098775e-39
0.0290390052822 -0.0580780105644 0.923 8.32043944488e-39
0.03081380651 -0.0582038567412 0.925 8.5044691696e-39
0.0325256846495 -0.0582038567412 0.925 8.68957509154e-39
0.0342375627889 -0.0582038567412 0.925 9.0583520058e-39
0.0360660337097 -0.0583926260063 0.928 9.70155921132e-39
0.0377834638864 -0.0583926260063 0.928 9.42569399043e-39
0.0395860253003 -0.058518472183 0.93 1.01610954245e-38
0.0414404057281 -0.0587072414481 0.933 1.08053788272e-38
0.0433984241838 -0.0590218568899 0.938 9.88487147122e-39
0.0452305964628 -0.0591477030667 0.94 1.09890498196e-38
0.0471201397929 -0.0593364723318 0.943 2.23057722655e-38
0.0490207871974 -0.0595252415969 0.946 2.34983249028e-38
0.0507715295974 -0.0595252415969 0.946 2.34983038833e-38
-0.019258166399 -0.057774499197 0.946 2.35018701879e-38
-0.0175074239991 -0.057774499197 0.946 1.98025557473e-38
-0.0157566815992 -0.057774499197 0.946 1.93311435296e-38
-0.0139615229016 -0.0575912819691 0.943 1.66689763253e-38
-0.0121774682784 -0.0574080647412 0.94 1.17947628054e-38
-0.0104378299529 -0.0574080647412 0.94 8.67343213323e-39
-0.00867968483676 -0.0572859199226 0.938 8.12636521276e-39
-0.00692153972057 -0.0571027026947 0.935 7.20621658915e-39
-0.00518005071601 -0.0569805578761 0.933 7.57642843303e-39
-0.00345336714401 -0.0569805578761 0.933 7.39311617313e-39
-0.00172113153479 -0.0567973406482 0.93 7.48531040169e-39
0.0 -0.0567973406482 0.93 7.4856691341e-39
0.00171743017665 -0.0566751958296 0.928 7.39383363794e-39
0.00343486035331 -0.0566751958296 0.928 7.9455640797e-39
0.00515229052996 -0.0566751958296 0.928 7.57858082748e-39
0.00686972070662 -0.0566751958296 0.928 7.85623971039e-39
0.00858715088327 -0.0566751958296 0.928 7.303074339e-39
0.0102712688367 -0.0564919786017 0.925 8.22609282187e-39
0.0119831469761 -0.0564919786017 0.925 8.50267550757e-39
0.0136950251156 -0.0564919786017 0.925 7.58109195432e-39
0.015406903255 -0.0564919786017 0.925 7.8569571752e-39
0.0171187813945 -0.0564919786017 0.925 9.05368848451e-39
0.0188306595339 -0.0564919786017 0.925 8.40904634937e-39
0.0205425376733 -0.0564919786017 0.925 7.95166253062e-39
0.022206298157 -0.0563698337831 0.923 7.67651477455e-39
0.0239144749383 -0.0563698337831 0.923 8.22788648391e-39
0.0256781720917 -0.0564919786017 0.925 8.41263367344e-39
0.0273900502311 -0.0564919786017 0.925 8.41155747622e-39
0.0291019283706 -0.0564919786017 0.925 8.96579904483e-39
0.03081380651 -0.0564919786017 0.925 9.60900625034e-39
0.0325256846495 -0.0564919786017 0.925 8.68921635914e-39
0.0343486035331 -0.0566751958296 0.928 9.51609455696e-39
0.0360660337097 -0.0566751958296 0.928 8.96508158002e-39
0.0378648937655 -0.0567973406482 0.93 9.60900625034e-39
0.0397137221561 -0.0569805578761 0.933 9.24022933608e-39
0.0415292383234 -0.0571027026947 0.935 1.04351669834e-38
0.0434909581373 -0.0574080647412 0.94 1.32849372235e-38
0.0453749494302 -0.0575912819691 0.943 2.20291349292e-38
0.0472700447975 -0.057774499197 0.946 2.34965158265e-38
0.0490207871974 -0.057774499197 0.946 2.34943382087e-38
0.0507715295974 -0.057774499197 0.946 2.34983094885e-38
-0.019258166399 -0.0560237567971 0.946 2.34997276026e-38
-0.0175074239991 -0.0560237567971 0.946 1.98025529447e-38
-0.0157566815992 -0.0560237567971 0.946 1.9425797037e-38
-0.0139615229016 -0.0558460916064 0.943 1.91528675364e-38
-0.0121774682784 -0.0556684264157 0.94 1.81441232187e-38
-0.0104378299529 -0.0556684264157 0.94 1.26199033931e-38
-0.00867968483676 -0.0555499829552 0.938 1.00480947163e-38
-0.00692153972057 -0.0553723177646 0.935 8.21676577929e-39
-0.00518005071601 -0.0552538743041 0.933 7.20621658915e-39
-0.00345336714401 -0.0552538743041 0.933 7.48387547206e-39
-0.00172113153479 -0.0550762091134 0.93 6.83959206933e-39
0.0 -0.0550762091134 0.93 7.30271560659e-39
0.00171743017665 -0.054957765653 0.928 7.48638659891e-39
0.00343486035331 -0.054957765653 0.928 7.76296928461e-39
0.00515229052996 -0.054957765653 0.928 7.57929829229e-39
0.00686972070662 -0.054957765653 0.928 7.94735774173e-39
0.00858715088327 -0.054957765653 0.928 7.48818026094e-39
0.0103045810599 -0.054957765653 0.928 7.94843393896e-39
0.0119831469761 -0.0547801004623 0.925 7.39598603238e-39
0.0136950251156 -0.0547801004623 0.925 7.58145068673e-39
0.015406903255 -0.0547801004623 0.925 7.85982703446e-39
0.0171187813945 -0.0547801004623 0.925 7.85946830205e-39
0.0188306595339 -0.0547801004623 0.925 8.04385675918e-39
0.0205425376733 -0.0547801004623 0.925 7.95166253062e-39
0.0222544158128 -0.0547801004623 0.925 7.95202126302e-39
0.0239662939522 -0.0547801004623 0.925 8.41263367344e-39
0.0256781720917 -0.0547801004623 0.925 8.68706396469e-39
0.0273900502311 -0.0547801004623 0.925 9.4239003284e-39
0.0291019283706 -0.0547801004623 0.925 8.50482790201e-39
0.03081380651 -0.0547801004623 0.925 9.42354159599e-39
0.0326311733564 -0.054957765653 0.928 9.79160104544e-39
0.0343486035331 -0.054957765653 0.928 1.09000841827e-38
0.0361437622307 -0.0550762091134 0.93 8.50482790201e-39
0.0379870385841 -0.0552538743041 0.933 1.01607366921e-38
0.0397988533933 -0.0553723177646 0.935 1.20914345059e-38
0.0416624872164 -0.0555499829552 0.938 1.71481349209e-38
0.0434909581373 -0.0556684264157 0.94 2.34964695836e-38
0.0453749494302 -0.0558460916064 0.943 2.35022443346e-38
0.0472700447975 -0.0560237567971 0.946 2.34975289653e-38
0.0490207871974 -0.0560237567971 0.946 2.34954003929e-38
0.0507715295974 -0.0560237567971 0.946 2.35004716921e-38
-0.0175074239991 -0.0542730143972 0.946 2.14541611498e-38
-0.0157566815992 -0.0542730143972 0.946 1.97006056788e-38
-0.0140059391993 -0.0542730143972 0.946 1.88759233157e-38
-0.0122163325389 -0.0541009012437 0.943 1.94294292026e-38
-0.0104378299529 -0.0539287880902 0.94 2.00762237322e-38
-0.00869819162745 -0.0539287880902 0.94 1.69473400613e-38
-0.00694374786941 -0.0538140459879 0.938 1.28049728813e-38
-0.00519115479043 -0.0536419328344 0.935 1.08799951679e-38
-0.00345336714401 -0.0535271907321 0.933 8.21891817373e-39
-0.001726683572 -0.0535271907321 0.933 8.31398226155e-39
0.0 -0.0533550775786 0.93 7.76117562257e-39
0.00172113153479 -0.0533550775786 0.93 7.11832714946e-39
0.00344226306959 -0.0533550775786 0.93 8.68598776747e-39
0.00515229052996 -0.0532403354763 0.928 7.57929829229e-39
0.00686972070662 -0.0532403354763 0.928 7.94735774173e-39
0.00858715088327 -0.0532403354763 0.928 8.31469972637e-39
0.0103045810599 -0.0532403354763 0.928 7.76332801701e-39
0.0120220112366 -0.0532403354763 0.928 8.22394042743e-39
0.0136950251156 -0.0530682223228 0.925 7.76691534108e-39
0.015406903255 -0.0530682223228 0.925 7.67651477455e-39
0.0171187813945 -0.0530682223228 0.925 8.04385675918e-39
0.0188306595339 -0.0530682223228 0.925 7.95166253062e-39
0.0205425376733 -0.0530682223228 0.925 8.41012254659e-39
0.0222544158128 -0.0530682223228 0.925 8.8700174922e-39
0.0239662939522 -0.0530682223228 0.925 8.77782326363e-39
0.0257614526498 -0.0532403354763 0.928 8.96113552354e-39
0.0274788828265 -0.0532403354763 0.928 9.05727580858e-39
0.0291963130031 -0.0532403354763 0.928 9.883795274e-39
0.0309137431798 -0.0532403354763 0.928 1.0344048952e-38
0.0326311733564 -0.0532403354763 0.928 9.23879440646e-39
0.0344226306959 -0.0533550775786 0.93 1.0436601913e-38
0.0361437622307 -0.0533550775786 0.93 1.21843461992e-38
0.0379870385841 -0.0535271907321 0.933 1.57648543522e-38
0.0397988533933 -0.0536419328344 0.935 2.30368408848e-38
0.0416624872164 -0.0538140459879 0.938 2.34975822146e-38
0.0434909581373 -0.0539287880902 0.94 2.34957829474e-38
0.0453749494302 -0.0541009012437 0.943 2.34914389222e-38
0.0472700447975 -0.0542730143972 0.946 2.34921689987e-38
0.0490207871974 -0.0542730143972 0.946 2.34943368074e-38
0.0507715295974 -0.0542730143972 0.946 2.35008206154e-38
-0.0175444375805 -0.0526333127414 0.948 1.88787917736e-38
-0.0157566815992 -0.0525222719973 0.946 2.03452604256e-38
-0.0140059391993 -0.0525222719973 0.946 1.95209241832e-38
-0.0122551967994 -0.0525222719973 0.946 2.01669998467e-38
-0.0104711421762 -0.052355710881 0.943 2.00762489556e-38
-0.00869819162745 -0.0521891497647 0.94 2.03524799153e-38
-0.00694374786941 -0.0520781090205 0.938 1.98014543267e-38
-0.00520781090205 -0.0520781090205 0.938 1.79622122572e-38
-0.00346076986028 -0.0519115479043 0.935 1.57551685772e-38
-0.001726683572 -0.0518005071601 0.933 1.35471706129e-38
0.0 -0.0518005071601 0.933 1.07903120662e-38
0.001726683572 -0.0518005071601 0.933 9.59860301054e-39
0.00345336714401 -0.0518005071601 0.933 8.86535397091e-39
0.00516339460438 -0.0516339460438 0.93 8.12995253683e-39
0.00688452613918 -0.0516339460438 0.93 7.57642843303e-39
0.00858715088327 -0.0515229052996 0.928 8.776388334e-39
0.0103045810599 -0.0515229052996 0.928 8.03991070271e-39
0.0120220112366 -0.0515229052996 0.928 8.96257045317e-39
0.0137394414132 -0.0515229052996 0.928 7.67507984492e-39
0.0154568715899 -0.0515229052996 0.928 7.85982703446e-39
0.0171187813945 -0.0513563441834 0.925 8.410481279e-39
0.0188306595339 -0.0513563441834 0.925 7.76691534108e-39
0.0205425376733 -0.0513563441834 0.925 7.39921462404e-39
0.0222544158128 -0.0513563441834 0.925 8.59738086298e-39
0.0240440224732 -0.0515229052996 0.928 9.14552398067e-39
0.0257614526498 -0.0515229052996 0.928 1.05266437471e-38
0.0274788828265 -0.0515229052996 0.928 9.14624144548e-39
0.0291963130031 -0.0515229052996 0.928 9.42103046915e-39
0.0309137431798 -0.0515229052996 0.928 1.21800414104e-38
0.0327014991611 -0.0516339460438 0.93 1.39234809077e-38
0.0344226306959 -0.0516339460438 0.93 1.89842086545e-38
0.0362603550121 -0.0518005071601 0.933 2.23907834382e-38
0.0380684684631 -0.0519115479043 0.935 2.35000358882e-38
0.0399265502491 -0.0520781090205 0.938 2.3493240992e-38
0.0416624872164 -0.0520781090205 0.938 2.34942961697e-38
0.0434909581373 -0.0521891497647 0.94 2.34932648141e-38
0.0453749494302 -0.052355710881 0.943 2.34939752724e-38
0.0472700447975 -0.0525222719973 0.946 2.34914487313e-38
0.0491244252253 -0.0526333127414 0.948 2.34983122911e-38
0.0508788689834 -0.0526333127414 0.948 2.35008318258e-38
-0.0157899938224 -0.0508788689834 0.948 1.90559803593e-38
-0.0140059391993 -0.0507715295974 0.946 1.95212899221e-38
-0.0122551967994 -0.0507715295974 0.946 1.96134729403e-38
-0.0104711421762 -0.0506105205183 0.943 1.97060357104e-38
-0.0087259518135 -0.0506105205183 0.943 2.00744454844e-38
-0.00695855330196 -0.0504495114392 0.94 2.09971262544e-38
-0.00520781090205 -0.0503421720532 0.938 2.0998199649e-38
-0.0034718739347 -0.0503421720532 0.938 2.21942190987e-38
-0.00173038493014 -0.0501811629741 0.935 2.03542595644e-38
0.0 -0.0501811629741 0.935 1.94369723922e-38
0.001726683572 -0.0500738235881 0.933 1.75051227111e-38
0.00345336714401 -0.0500738235881 0.933 1.46492217902e-38
0.00518005071601 -0.0500738235881 0.933 1.47439019222e-38
0.00688452613918 -0.049912814509 0.93 1.24469383211e-38
0.00858715088327 -0.049805475123 0.928 1.16225712501e-38
0.0103045810599 -0.049805475123 0.928 1.09775703825e-38
0.0120220112366 -0.049805475123 0.928 1.09793640446e-38
0.0137394414132 -0.049805475123 0.928 9.23161975832e-39
0.0154568715899 -0.049805475123 0.928 9.78729625656e-39
0.0171187813945 -0.0496444660439 0.925 9.97060851647e-39
0.0188306595339 -0.0496444660439 0.925 9.50856117642e-39
0.0205425376733 -0.0496444660439 0.925 1.07974867143e-38
0.0223265922965 -0.049805475123 0.928 1.10701233435e-38
0.0240440224732 -0.049805475123 0.928 1.3279197505e-38
0.0257614526498 -0.049805475123 0.928 1.55772373034e-38
0.0274788828265 -0.049805475123 0.928 1.83387663779e-38
0.0291963130031 -0.049805475123 0.928 2.0733780234e-38
0.0309137431798 -0.049805475123 0.928 2.16532422213e-38
0.0327014991611 -0.049912814509 0.93 2.34967666589e-38
0.0345336714401 -0.0500738235881 0.933 2.34961374759e-38
0.0362603550121 -0.0500738235881 0.933 2.34953933864e-38
0.0380684684631 -0.0501811629741 0.935 2.34910885975e-38
0.0399265502491 -0.0503421720532 0.938 2.34932606102e-38
0.0416624872164 -0.0503421720532 0.938 2.34925123168e-38
0.0434909581373 -0.0504495114392 0.94 2.34943199918e-38
0.0453749494302 -0.0506105205183 0.943 2.34910857949e-38
0.0472700447975 -0.0507715295974 0.946 2.349506268e-38
0.0491244252253 -0.0508788689834 0.948 2.34986752274e-38
0.0508788689834 -0.0508788689834 0.948 2.3503354163e-38
-0.0175444375805 -0.0491244252253 0.948 2.06330352822e-38
-0.0157899938224 -0.0491244252253 0.948 1.94269236809e-38
-0.0140355500644 -0.0491244252253 0.948 1.97064042519e-38
-0.0122551967994 -0.0490207871974 0.946 1.94290942923e-38
-0.0104711421762 -0.0488653301556 0.943 2.0167362783e-38
-0.0087259518135 -0.0488653301556 0.943 2.03528134244e-38
-0.00695855330196 -0.0487098731137 0.94 2.04421546093e-38
-0.00520781090205 -0.0486062350858 0.938 2.05361649206e-38
-0.0034718739347 -0.0486062350858 0.938 2.14555834677e-38
-0.00173038493014 -0.048450778044 0.935 2.15492056194e-38
0.0 -0.048450778044 0.935 2.18276127957e-38
0.00173038493014 -0.048450778044 0.935 2.16425096764e-38
0.00345336714401 -0.0483471400161 0.933 2.34885620564e-38
0.00518005071601 -0.0483471400161 0.933 2.21070681433e-38
0.00690673428801 -0.0483471400161 0.933 2.11894278439e-38
0.00860565767397 -0.0481916829742 0.93 2.1651808693e-38
0.0103045810599 -0.0480880449463 0.928 2.07305628527e-38
0.0120220112366 -0.0480880449463 0.928 2.02695748943e-38
0.0137394414132 -0.0480880449463 0.928 1.99011525085e-38
0.0154568715899 -0.0480880449463 0.928 2.05486729107e-38
0.0171743017665 -0.0480880449463 0.928 2.17457643537e-38
0.0188917319432 -0.0480880449463 0.928 1.99944201317e-38
0.0206091621199 -0.0480880449463 0.928 2.23897268591e-38
0.0223265922965 -0.0480880449463 0.928 2.34957100799e-38
0.0240440224732 -0.0480880449463 0.928 2.31244248414e-38
0.0257614526498 -0.0480880449463 0.928 2.34936067309e-38
0.0274788828265 -0.0480880449463 0.928 2.34932423933e-38
0.0292592360915 -0.0481916829742 0.93 2.34921619922e-38
0.0309803676263 -0.0481916829742 0.93 2.3491433317e-38
0.0328069878681 -0.0483471400161 0.933 2.34935969218e-38
0.0345336714401 -0.0483471400161 0.933 2.34910661768e-38
0.036338083533 -0.048450778044 0.935 2.34885550499e-38
0.0380684684631 -0.048450778044 0.935 2.3492517922e-38
0.0399265502491 -0.0486062350858 0.938 2.3491095604e-38
0.0417513198118 -0.0487098731137 0.94 2.34943382087e-38
0.0436297590675 -0.0488653301556 0.943 2.34928864635e-38
0.0455193023976 -0.0490207871974 0.946 2.34928864635e-38
0.0472700447975 -0.0490207871974 0.946 2.34939836802e-38
0.0491244252253 -0.0491244252253 0.948 2.34975738068e-38
0.0508788689834 -0.0491244252253 0.948 2.35055107613e-38
-0.0194210261571 -0.0476697914766 0.954 2.35004408635e-38
-0.0176554783247 -0.0476697914766 0.954 2.10003898785e-38
-0.0158399621573 -0.0475198864719 0.951 1.91488962565e-38
-0.0140355500644 -0.0473699814673 0.948 1.97060413156e-38
-0.0122811063063 -0.0473699814673 0.948 1.94294698403e-38
-0.0105044543995 -0.0472700447975 0.946 2.06279751934e-38
-0.0087259518135 -0.0471201397929 0.943 2.00751517389e-38
-0.0069807614508 -0.0471201397929 0.943 2.09031327586e-38
-0.00521891497647 -0.0469702347883 0.94 2.01677131076e-38
-0.0034718739347 -0.0468702981185 0.938 2.19172650689e-38
-0.00173593696735 -0.0468702981185 0.938 2.13659031686e-38
0.0 -0.0467203931138 0.935 2.08145314593e-38
0.00173038493014 -0.0467203931138 0.935 2.20102033869e-38
0.00346076986028 -0.0467203931138 0.935 2.31161810025e-38
0.00519115479043 -0.0467203931138 0.935 2.12719348962e-38
0.00690673428801 -0.0466204564441 0.933 2.33005736635e-38
0.00863341786002 -0.0466204564441 0.933 2.34867529801e-38
0.0103267892088 -0.0464705514394 0.93 2.33938412867e-38
0.0120220112366 -0.0463706147697 0.928 2.34846103947e-38
0.0137394414132 -0.0463706147697 0.928 2.3488217337e-38
0.0154568715899 -0.0463706147697 0.928 2.34860467257e-38
0.0171743017665 -0.0463706147697 0.928 2.34867627892e-38
0.0188917319432 -0.0463706147697 0.928 2.34874788527e-38
0.0206091621199 -0.0463706147697 0.928 2.34867655918e-38
0.0223265922965 -0.0463706147697 0.928 2.34871313307e-38
0.0240440224732 -0.0463706147697 0.928 2.34896830952e-38
0.0257614526498 -0.0463706147697 0.928 2.34871145151e-38
0.0274788828265 -0.0463706147697 0.928 2.34860565348e-38
0.0293536207241 -0.0466204564441 0.933 2.3490372534e-38
0.0310803042961 -0.0466204564441 0.933 2.34889179862e-38
0.0328069878681 -0.0466204564441 0.933 2.3489663477e-38
0.0346076986028 -0.0467203931138 0.935 2.3489273916e-38
0.036338083533 -0.0467203931138 0.935 2.34928332141e-38
0.0381906132817 -0.0468702981185 0.938 2.3491433317e-38
0.0399265502491 -0.0468702981185 0.938 2.34928878648e-38
0.0417513198118 -0.0469702347883 0.94 2.34928836609e-38
0.0436297590675 -0.0471201397929 0.943 2.34936053296e-38
0.0455193023976 -0.0472700447975 0.946 2.34922012285e-38
0.0472700447975 -0.0472700447975 0.946 2.34957745396e-38
0.0491244252253 -0.0473699814673 0.948 2.34957927565e-38
0.0508788689834 -0.0473699814673 0.948 2.35033415513e-38
-0.0212309902873 -0.0460004789557 0.956 2.34968339213e-38
-0.0194617410967 -0.0460004789557 0.956 2.34957829474e-38
-0.0176554783247 -0.0459042436441 0.954 2.10889757635e-38
-0.0158399621573 -0.0457598906767 0.951 1.91488962565e-38
-0.0140355500644 -0.0456155377093 0.948 1.93379748596e-38
-0.0122811063063 -0.0456155377093 0.948 1.92446834144e-38
-0.0105044543995 -0.0455193023976 0.946 2.00737322235e-38
-0.00875371199954 -0.0455193023976 0.946 2.08134384465e-38
-0.0069807614508 -0.0453749494302 0.943 2.0996777331e-38
-0.00521891497647 -0.0452305964628 0.94 2.09042271727e-38
-0.0034718739347 -0.0451343611511 0.938 2.1179366521e-38
-0.00173593696735 -0.0451343611511 0.938 2.24722759504e-38
0.0 -0.0451343611511 0.938 2.14588078555e-38
0.00173038493014 -0.0449900081837 0.935 2.21942247039e-38
0.00346076986028 -0.0449900081837 0.935 2.16417739947e-38
0.00519115479043 -0.0449900081837 0.935 2.2746675413e-38
0.00692153972057 -0.0449900081837 0.935 2.31161810025e-38
0.00863341786002 -0.0448937728721 0.933 2.28395885077e-38
0.010360101432 -0.0448937728721 0.933 2.34856753816e-38
0.0120479207436 -0.0447494199046 0.93 2.32062256392e-38
0.0137690522784 -0.0447494199046 0.93 2.34828265418e-38
0.0154568715899 -0.044653184593 0.928 2.34871369359e-38
0.0171743017665 -0.044653184593 0.928 2.34857034075e-38
0.0188917319432 -0.044653184593 0.928 2.3488189311e-38
0.0206091621199 -0.044653184593 0.928 2.3487841789e-38
0.0223265922965 -0.044653184593 0.928 2.3488189311e-38
0.0240440224732 -0.044653184593 0.928 2.34878333812e-38
0.0258169730219 -0.0447494199046 0.93 2.34881724954e-38
0.0275381045567 -0.0447494199046 0.93 2.34871285281e-38
0.0293536207241 -0.0448937728721 0.933 2.34892893303e-38
0.0310803042961 -0.0448937728721 0.933 2.34857020062e-38
0.0328069878681 -0.0448937728721 0.933 2.34935815075e-38
0.0346076986028 -0.0449900081837 0.935 2.34874830566e-38
0.036338083533 -0.0449900081837 0.935 2.3493950049e-38
0.0381906132817 -0.0451343611511 0.938 2.34914431261e-38
0.0400116814863 -0.0452305964628 0.94 2.34928906674e-38
0.0418845687048 -0.0453749494302 0.943 2.34910885975e-38
0.0436297590675 -0.0453749494302 0.943 2.34954270176e-38
0.0455193023976 -0.0455193023976 0.946 2.34957661318e-38
0.0472700447975 -0.0455193023976 0.946 2.3496480794e-38
0.0491244252253 -0.0456155377093 0.948 2.34997402143e-38
0.0508788689834 -0.0456155377093 0.948 2.35015268698e-38
-0.0212309902873 -0.0442312297651 0.956 2.34968353225e-38
-0.0194617410967 -0.0442312297651 0.956 2.3497541577e-38
-0.0176554783247 -0.0441386958117 0.954 2.19201713619e-38
-0.0158399621573 -0.0439998948814 0.951 1.93321945035e-38
-0.0140355500644 -0.0438610939512 0.948 1.96141918064e-38
-0.0122811063063 -0.0438610939512 0.948 1.98914443128e-38
-0.0105044543995 -0.0437685599977 0.946 1.97996438491e-38
-0.00875371199954 -0.0437685599977 0.946 1.97985844674e-38
-0.0069807614508 -0.0436297590675 0.943 2.07198204987e-38
-0.0052355710881 -0.0436297590675 0.943 2.08112524209e-38
-0.0034718739347 -0.0433984241838 0.938 2.19169119417e-38
-0.00173593696735 -0.0433984241838 0.938 2.14584547283e-38
0.0 -0.0433984241838 0.938 2.15502818167e-38
0.00173593696735 -0.0433984241838 0.938 2.26552042545e-38
0.00346076986028 -0.0432596232536 0.935 2.2102404622e-38
0.00519115479043 -0.0432596232536 0.935 2.23775019313e-38
0.00692153972057 -0.0432596232536 0.935 2.34842530636e-38
0.00863341786002 -0.0431670893001 0.933 2.27463194832e-38
0.010360101432 -0.0431670893001 0.933 2.34867627892e-38
0.0120479207436 -0.0430282883699 0.93 2.34831712612e-38
0.0137690522784 -0.0430282883699 0.93 2.34835313949e-38
0.0154568715899 -0.0429357544164 0.928 2.34828013184e-38
0.0171743017665 -0.0429357544164 0.928 2.34842558662e-38
0.0188917319432 -0.0429357544164 0.928 2.34838915286e-38
0.0206091621199 -0.0429357544164 0.928 2.34853530829e-38
0.0223747099523 -0.0430282883699 0.93 2.34932437946e-38
0.0240958414871 -0.0430282883699 0.93 2.34864138659e-38
0.0258169730219 -0.0430282883699 0.93 2.34874788527e-38
0.0275381045567 -0.0430282883699 0.93 2.34878487955e-38
0.0293536207241 -0.0431670893001 0.933 2.3489649464e-38
0.0310803042961 -0.0431670893001 0.933 2.34878572033e-38
0.0328773136727 -0.0432596232536 0.935 2.34939612594e-38
0.0346076986028 -0.0432596232536 0.935 2.34953947877e-38
0.0364546763144 -0.0433984241838 0.938 2.34907214573e-38
0.0381906132817 -0.0433984241838 0.938 2.34900025912e-38
0.0400116814863 -0.0434909581373 0.94 2.34939668646e-38
0.0418845687048 -0.0436297590675 0.943 2.34928766544e-38
0.0437685599977 -0.0437685599977 0.946 2.34918144702e-38
0.0455193023976 -0.0437685599977 0.946 2.34925403428e-38
0.0473699814673 -0.0438610939512 0.948 2.34928976739e-38
0.0491244252253 -0.0438610939512 0.948 2.34972388965e-38
0.0510398780625 -0.0439998948814 0.951 2.35029800163e-38
-0.0212309902873 -0.0424619805745 0.956 2.34939696672e-38
-0.0194617410967 -0.0424619805745 0.956 2.34975597939e-38
-0.0176554783247 -0.0423731479792 0.954 2.22885853399e-38
-0.0158399621573 -0.0422398990862 0.951 1.92392800075e-38
-0.0140799663621 -0.0422398990862 0.951 1.97971509391e-38
-0.0122811063063 -0.0421066501932 0.948 1.98900374091e-38
-0.0105044543995 -0.0420178175978 0.946 2.06304919255e-38
-0.00875371199954 -0.0420178175978 0.946 1.98918366763e-38
-0.00700296959964 -0.0420178175978 0.946 2.09038586312e-38
-0.0052355710881 -0.0418845687048 0.943 2.11804231e-38
-0.00347927665098 -0.0417513198118 0.94 2.09020635678e-38
-0.00173593696735 -0.0416624872164 0.938 2.17325431027e-38
0.0 -0.0416624872164 0.938 2.16410705429e-38
0.00173593696735 -0.0416624872164 0.938 2.21927855703e-38
0.00346076986028 -0.0415292383234 0.935 2.2283195946e-38
0.00519115479043 -0.0415292383234 0.935 2.3206581569e-38
0.00692153972057 -0.0415292383234 0.935 2.31143831366e-38
0.00863341786002 -0.0414404057281 0.933 2.338952809e-38
0.010360101432 -0.0414404057281 0.933 2.34864110633e-38
0.012086785004 -0.0414404057281 0.933 2.34846047896e-38
0.013813468576 -0.0414404057281 0.933 2.34853222544e-38
0.0154901838131 -0.0413071568351 0.93 2.34839195546e-38
0.0171743017665 -0.0412183242397 0.928 2.34860523309e-38
0.0188917319432 -0.0412183242397 0.928 2.34856921972e-38
0.0206535784175 -0.0413071568351 0.93 2.34849929492e-38
0.0223747099523 -0.0413071568351 0.93 2.34878319799e-38
0.0240958414871 -0.0413071568351 0.93 2.34878908345e-38
0.02590025358 -0.0414404057281 0.933 2.34882131331e-38
0.027626937152 -0.0414404057281 0.933 2.34885676616e-38
0.0294165438124 -0.0415292383234 0.935 2.34889151836e-38
0.0311469287426 -0.0415292383234 0.935 2.34914529351e-38
0.0328773136727 -0.0415292383234 0.935 2.34900011899e-38
0.0346076986028 -0.0415292383234 0.935 2.34903711327e-38
0.0364546763144 -0.0416624872164 0.938 2.34900081964e-38
0.0381906132817 -0.0416624872164 0.938 2.34900081964e-38
0.0400116814863 -0.0417513198118 0.94 2.34929004765e-38
0.0418845687048 -0.0418845687048 0.943 2.34943592282e-38
0.0437685599977 -0.0420178175978 0.946 2.34943283996e-38
0.0456155377093 -0.0421066501932 0.948 2.34961220616e-38
0.0473699814673 -0.0421066501932 0.948 2.3496842329e-38
0.0492798822672 -0.0422398990862 0.951 2.35011905582e-38
0.0510398780625 -0.0422398990862 0.951 2.35022513411e-38
0.0527998738577 -0.0422398990862 0.951 2.35040604174e-38
-0.0230002394779 -0.0406927313839 0.956 2.34965018135e-38
-0.0212309902873 -0.0406927313839 0.956 2.34953975903e-38
-0.0194617410967 -0.0406927313839 0.956 2.3502978615e-38
-0.0176924919061 -0.0406927313839 0.956 2.21992861939e-38
-0.0158399621573 -0.0404799032909 0.951 1.92407177397e-38
-0.0140799663621 -0.0404799032909 0.951 2.05372243023e-38
-0.0122811063063 -0.0403522064351 0.948 1.9337920209e-38
-0.0105266625483 -0.0403522064351 0.948 2.01670418857e-38
-0.00875371199954 -0.0402670751979 0.946 2.04446573283e-38
-0.00700296959964 -0.0402670751979 0.946 2.14562869196e-38
-0.0052355710881 -0.0401393783421 0.943 2.11786224315e-38
-0.00347927665098 -0.0400116814863 0.94 2.17325248858e-38
-0.00173593696735 -0.0399265502491 0.938 2.16424830517e-38
0.0 -0.0399265502491 0.938 2.17354115607e-38
0.00173593696735 -0.0399265502491 0.938 2.32073200533e-38
0.00346076986028 -0.0397988533933 0.935 2.32087325622e-38
0.00519115479043 -0.0397988533933 0.935 2.2378265639e-38
0.00692153972057 -0.0397988533933 0.935 2.25608562302e-38
0.00863341786002 -0.0397137221561 0.933 2.34810174655e-38
0.010360101432 -0.0397137221561 0.933 2.3483888726e-38
0.012086785004 -0.0397137221561 0.933 2.34853222544e-38
0.013813468576 -0.0397137221561 0.933 2.3488564859e-38
0.0154901838131 -0.0395860253003 0.93 2.34853278596e-38
0.0172113153479 -0.0395860253003 0.93 2.34853236557e-38
0.0189324468827 -0.0395860253003 0.93 2.34864152672e-38
0.0206535784175 -0.0395860253003 0.93 2.34857020062e-38
0.022446886436 -0.0397137221561 0.933 2.34849705285e-38
0.024173570008 -0.0397137221561 0.933 2.34853390699e-38
0.02590025358 -0.0397137221561 0.933 2.34907158522e-38
0.027626937152 -0.0397137221561 0.933 2.34878361838e-38
0.0294165438124 -0.0397988533933 0.935 2.34914066923e-38
0.0311469287426 -0.0397988533933 0.935 2.34903613236e-38
0.0328773136727 -0.0397988533933 0.935 2.34892921329e-38
0.034718739347 -0.0399265502491 0.938 2.3490734069e-38
0.0364546763144 -0.0399265502491 0.938 2.34918116676e-38
0.0382720431608 -0.0400116814863 0.94 2.34918032598e-38
0.0401393783421 -0.0401393783421 0.943 2.34921774065e-38
0.0420178175978 -0.0402670751979 0.946 2.34936151387e-38
0.0437685599977 -0.0402670751979 0.946 2.34921619922e-38
0.0456155377093 -0.0403522064351 0.948 2.34939654633e-38
0.0475198864719 -0.0404799032909 0.951 2.34982884691e-38
0.0492798822672 -0.0404799032909 0.951 2.349578575e-38
0.0512008871415 -0.0406076001467 0.954 2.35026296917e-38
0.052966434974 -0.0406076001467 0.954 2.35015380802e-38
-0.0230002394779 -0.0389234821933 0.956 2.34943564256e-38
-0.0211865739896 -0.0388420523143 0.954 2.34957703357e-38
-0.0194210261571 -0.0388420523143 0.954 2.34961444824e-38
-0.0176554783247 -0.0388420523143 0.954 2.14602539955e-38
-0.0158399621573 -0.0387199074957 0.951 2.03463085969e-38
-0.0140799663621 -0.0387199074957 0.951 1.95209367949e-38
-0.0122811063063 -0.0385977626771 0.948 1.99815323897e-38
-0.0105266625483 -0.0385977626771 0.948 1.99811806638e-38
-0.00875371199954 -0.038516332798 0.946 2.05347061689e-38
-0.00700296959964 -0.038516332798 0.946 2.09023970769e-38
-0.0052355710881 -0.0383941879794 0.943 2.19158427509e-38
-0.00347927665098 -0.0382720431608 0.94 2.2655906305e-38
-0.00173593696735 -0.0381906132817 0.938 2.1182578297e-38
0.0 -0.0381906132817 0.938 2.18261582479e-38
0.00173593696735 -0.0381906132817 0.938 2.22860672065e-38
0.00346076986028 -0.0380684684631 0.935 2.22853483404e-38
0.00519115479043 -0.0380684684631 0.935 2.34839069429e-38
0.00692153972057 -0.0380684684631 0.935 2.34846103947e-38
0.00865192465071 -0.0380684684631 0.935 2.32087297596e-38
0.010360101432 -0.0379870385841 0.933 2.3299843587e-38
0.012086785004 -0.0379870385841 0.933 2.34867333619e-38
0.013813468576 -0.0379870385841 0.933 2.34849607194e-38
0.015540152148 -0.0379870385841 0.933 2.34835355988e-38
0.01726683572 -0.0379870385841 0.933 2.3489287929e-38
0.018993519292 -0.0379870385841 0.933 2.34828251405e-38
0.020720202864 -0.0379870385841 0.933 2.34874914644e-38
0.022446886436 -0.0379870385841 0.933 2.34871271268e-38
0.024225389022 -0.0380684684631 0.935 2.34878445916e-38
0.0259557739521 -0.0380684684631 0.935 2.34878431903e-38
0.0276861588823 -0.0380684684631 0.935 2.34896410562e-38
0.0294165438124 -0.0380684684631 0.935 2.3492156387e-38
0.0311469287426 -0.0380684684631 0.935 2.34932325842e-38
0.0328773136727 -0.0380684684631 0.935 2.34896410562e-38
0.034718739347 -0.0381906132817 0.938 2.34899857757e-38
0.0364546763144 -0.0381906132817 0.938 2.34918004572e-38
0.0382720431608 -0.0382720431608 0.94 2.34936123361e-38
0.0401393783421 -0.0383941879794 0.943 2.34929004765e-38
0.0420178175978 -0.038516332798 0.946 2.34921689987e-38
0.0437685599977 -0.038516332798 0.946 2.34943031762e-38
0.0456155377093 -0.0385977626771 0.948 2.34950528709e-38
0.0475198864719 -0.0387199074957 0.951 2.34979339405e-38
0.0492798822672 -0.0387199074957 0.951 2.35008164115e-38
0.0512008871415 -0.0388420523143 0.954 2.35011765452e-38
-0.0230002394779 -0.0371542330027 0.956 2.34921802091e-38
-0.0211865739896 -0.0370765044818 0.954 2.34907256612e-38
-0.0194210261571 -0.0370765044818 0.954 2.34943718398e-38
-0.0176554783247 -0.0370765044818 0.954 2.20130704436e-38
-0.0158399621573 -0.0369599117004 0.951 1.99764554854e-38
-0.0140799663621 -0.0369599117004 0.951 1.97060413156e-38
-0.0122811063063 -0.036843318919 0.948 2.072126804e-38
-0.0105266625483 -0.036843318919 0.948 2.11818748452e-38
-0.00875371199954 -0.0367655903981 0.946 1.99826029818e-38
-0.00700296959964 -0.0367655903981 0.946 2.20098502597e-38
-0.00525222719973 -0.0367655903981 0.946 2.04428706728e-38
-0.00347927665098 -0.0365324048353 0.94 2.09030977261e-38
-0.00173963832549 -0.0365324048353 0.94 2.17332465546e-38
0.0 -0.0364546763144 0.938 2.2470105339e-38
0.00173593696735 -0.0364546763144 0.938 2.22857014676e-38
0.0034718739347 -0.0364546763144 0.938 2.30229133793e-38
0.00519115479043 -0.036338083533 0.935 2.25633631531e-38
0.00692153972057 -0.036338083533 0.935 2.31151090092e-38
0.00865192465071 -0.036338083533 0.935 2.31168998686e-38
0.0103823095809 -0.036338083533 0.935 2.34860369166e-38
0.012112694511 -0.036338083533 0.935 2.34842474584e-38
0.0138430794411 -0.036338083533 0.935 2.34864166685e-38
0.0155734643713 -0.036338083533 0.935 2.34871313307e-38
0.0173038493014 -0.036338083533 0.935 2.34832006885e-38
0.0190342342316 -0.036338083533 0.935 2.34860761529e-38
0.0207646191617 -0.036338083533 0.935 2.34893103498e-38
0.0224950040919 -0.036338083533 0.935 2.34874914644e-38
0.024225389022 -0.036338083533 0.935 2.34878529994e-38
0.0259557739521 -0.036338083533 0.935 2.34892683108e-38
0.0276861588823 -0.036338083533 0.935 2.34878305786e-38
0.0294165438124 -0.036338083533 0.935 2.34896368523e-38
0.0311469287426 -0.036338083533 0.935 2.34900011899e-38
0.0329828023797 -0.0364546763144 0.938 2.34896550692e-38
0.034718739347 -0.0364546763144 0.938 2.34946983424e-38
0.0364546763144 -0.0364546763144 0.938 2.34911040118e-38
0.0382720431608 -0.0365324048353 0.94 2.34904215795e-38
0.0401393783421 -0.0366489976167 0.943 2.34939948906e-38
0.0420178175978 -0.0367655903981 0.946 2.34946843294e-38
0.0438610939512 -0.036843318919 0.948 2.34968367238e-38
0.0457598906767 -0.0369599117004 0.951 2.34932676167e-38
0.0475198864719 -0.0369599117004 0.951 2.35011751439e-38
0.0492798822672 -0.0369599117004 0.951 2.34993702715e-38
0.0513082265276 -0.0371542330027 0.956 2.35037072902e-38
-0.0211865739896 -0.0353109566493 0.954 2.34911040118e-38
-0.0194210261571 -0.0353109566493 0.954 2.34943592282e-38
-0.0176554783247 -0.0353109566493 0.954 2.16432019178e-38
-0.0158899304922 -0.0353109566493 0.954 1.99757534349e-38
-0.0141243826597 -0.0353109566493 0.954 1.97971509391e-38
-0.0123199705668 -0.0351999159051 0.951 1.9982233039e-38
-0.0105266625483 -0.035088875161 0.948 2.0627268939e-38
-0.00877221879024 -0.035088875161 0.948 2.02595584129e-38
-0.00700296959964 -0.0350148479982 0.946 2.15470770471e-38
-0.00525222719973 -0.0350148479982 0.946 2.13652025194e-38
-0.0034903807254 -0.034903807254 0.943 2.14577358622e-38
-0.00173963832549 -0.0347927665098 0.94 2.17325403001e-38
0.0 -0.0347927665098 0.94 2.21006025522e-38
0.00173593696735 -0.034718739347 0.938 2.21953037037e-38
0.0034718739347 -0.034718739347 0.938 2.21953037037e-38
0.00520781090205 -0.034718739347 0.938 2.30232637039e-38
0.00692153972057 -0.0346076986028 0.935 2.31158306779e-38
0.00865192465071 -0.0346076986028 0.935 2.34867557827e-38
0.0103823095809 -0.0346076986028 0.935 2.32087297596e-38
0.012112694511 -0.0346076986028 0.935 2.34856711777e-38
0.0138430794411 -0.0346076986028 0.935 2.34846089934e-38
0.0155734643713 -0.0346076986028 0.935 2.34849803375e-38
0.0173038493014 -0.0346076986028 0.935 2.34860649426e-38
0.0190342342316 -0.0346076986028 0.935 2.34860607387e-38
0.0207646191617 -0.0346076986028 0.935 2.34871341333e-38
0.0224950040919 -0.0346076986028 0.935 2.34874970696e-38
0.024225389022 -0.0346076986028 0.935 2.34910998079e-38
0.0259557739521 -0.0346076986028 0.935 2.34907060431e-38
0.0276861588823 -0.0346076986028 0.935 2.34925235272e-38
0.0294165438124 -0.0346076986028 0.935 2.34939234243e-38
0.0311469287426 -0.0346076986028 0.935 2.34921465779e-38
0.0329828023797 -0.034718739347 0.938 2.34907466807e-38
0.034718739347 -0.034718739347 0.938 2.34946997437e-38
0.0365324048353 -0.0347927665098 0.94 2.34943185905e-38
0.0383941879794 -0.034903807254 0.943 2.34957689344e-38
0.0402670751979 -0.0350148479982 0.946 2.34921647948e-38
0.0421066501932 -0.035088875161 0.948 2.34990101378e-38
0.0439998948814 -0.0351999159051 0.951 2.34936039283e-38
0.0457598906767 -0.0351999159051 0.951 2.3497593425e-38
0.0476697914766 -0.0353109566493 0.954 2.34993730741e-38
0.0494353393091 -0.0353109566493 0.954 2.35019122269e-38
0.0513082265276 -0.0353849838121 0.956 2.35047792835e-38
-0.0212976147338 -0.0337212233285 0.959 2.34936081322e-38
-0.0194617410967 -0.0336157346215 0.956 2.34939710685e-38
-0.0176924919061 -0.0336157346215 0.956 2.16442949306e-38
-0.0158899304922 -0.0335454088169 0.954 2.08062511866e-38
-0.0141243826597 -0.0335454088169 0.954 1.97063846337e-38
-0.0123588348273 -0.0335454088169 0.954 1.99818995299e-38
-0.0105599747715 -0.0334399201099 0.951 2.04425203482e-38
-0.00877221879024 -0.0333344314029 0.948 1.98893479703e-38
-0.00701777503219 -0.0333344314029 0.948 2.0535425035e-38
-0.00525222719973 -0.0332641055983 0.946 2.2102404622e-38
-0.0034903807254 -0.0331586168913 0.943 2.12733446025e-38
-0.0017451903627 -0.0331586168913 0.943 2.15481308235e-38
0.0 -0.0330531281843 0.94 2.2193483417e-38
0.00173593696735 -0.0329828023797 0.938 2.2287496531e-38
0.0034718739347 -0.0329828023797 0.938 2.25640834205e-38
0.00520781090205 -0.0329828023797 0.938 2.33945447385e-38
0.00694374786941 -0.0329828023797 0.938 2.24700955299e-38
0.00865192465071 -0.0328773136727 0.935 2.32998337779e-38
0.0103823095809 -0.0328773136727 0.935 2.32991401352e-38
0.012112694511 -0.0328773136727 0.935 2.34842516623e-38
0.0138430794411 -0.0328773136727 0.935 2.34885620564e-38
0.0155734643713 -0.0328773136727 0.935 2.34864124646e-38
0.0173038493014 -0.0328773136727 0.935 2.34853348661e-38
0.0190342342316 -0.0328773136727 0.935 2.34853530829e-38
0.0207646191617 -0.0328773136727 0.935 2.34914585403e-38
0.0225671805756 -0.0329828023797 0.938 2.34853334648e-38
0.0243031175429 -0.0329828023797 0.938 2.34889390057e-38
0.0259557739521 -0.0328773136727 0.935 2.34885620564e-38
0.0276861588823 -0.0328773136727 0.935 2.34889039732e-38
0.029510928445 -0.0329828023797 0.938 2.34899843744e-38
0.0312468654123 -0.0329828023797 0.938 2.34900025912e-38
0.0329828023797 -0.0329828023797 0.938 2.34907242599e-38
0.034718739347 -0.0329828023797 0.938 2.34953863799e-38
0.0365324048353 -0.0330531281843 0.94 2.34939556542e-38
0.0383941879794 -0.0331586168913 0.943 2.34925263298e-38
0.0402670751979 -0.0332641055983 0.946 2.34928710492e-38
0.0421066501932 -0.0333344314029 0.948 2.34936137374e-38
0.0439998948814 -0.0334399201099 0.951 2.34968451316e-38
0.0459042436441 -0.0335454088169 0.954 2.34957787435e-38
0.0476697914766 -0.0335454088169 0.954 2.35001227687e-38
0.049538977337 -0.0336157346215 0.956 2.35022541437e-38
0.0514692356066 -0.0337212233285 0.959 2.35044457745e-38
-0.0212976147338 -0.0319464221007 0.959 2.34950444631e-38
-0.0194617410967 -0.0318464854309 0.956 2.34946913359e-38
-0.0176924919061 -0.0318464854309 0.956 2.29354050928e-38
-0.0159232427154 -0.0318464854309 0.956 1.9239648549e-38
-0.0141539935248 -0.0318464854309 0.956 1.94298201649e-38
-0.0123847443342 -0.0318464854309 0.956 2.00741133767e-38
-0.0105932869948 -0.0317798609844 0.954 2.00737420326e-38
-0.00879997897629 -0.0316799243146 0.951 2.04421363924e-38
-0.00701777503219 -0.0315799876449 0.948 2.09045746947e-38
-0.00526333127414 -0.0315799876449 0.948 2.09059872035e-38
-0.00350148479982 -0.0315133631984 0.946 2.1365552844e-38
-0.0017451903627 -0.0314134265286 0.943 2.22864203337e-38
0.0 -0.0314134265286 0.943 2.26555601843e-38
0.00173963832549 -0.0313134898588 0.94 2.3208726957e-38
0.00347927665098 -0.0313134898588 0.94 2.23778970975e-38
0.00520781090205 -0.0312468654123 0.938 2.31168872569e-38
0.00694374786941 -0.0312468654123 0.938 2.34849523116e-38
0.00867968483676 -0.0312468654123 0.938 2.31165341297e-38
0.0104156218041 -0.0312468654123 0.938 2.34860509296e-38
0.0121515587715 -0.0312468654123 0.938 2.34860537322e-38
0.0138874957388 -0.0312468654123 0.938 2.34845823688e-38
0.0156234327062 -0.0312468654123 0.938 2.3488912381e-38
0.0173593696735 -0.0312468654123 0.938 2.34842572675e-38
0.0190953066409 -0.0312468654123 0.938 2.34893369745e-38
0.0208312436082 -0.0312468654123 0.938 2.34853208531e-38
0.0225671805756 -0.0312468654123 0.938 2.34871243242e-38
0.0243031175429 -0.0312468654123 0.938 2.34889179862e-38
0.0260390545103 -0.0312468654123 0.938 2.34882159357e-38
0.0277749914776 -0.0312468654123 0.938 2.34914389222e-38
0.029510928445 -0.0312468654123 0.938 2.34903529159e-38
0.0312468654123 -0.0312468654123 0.938 2.34936053296e-38
0.0329828023797 -0.0312468654123 0.938 2.34928808583e-38
0.0347927665098 -0.0313134898588 0.94 2.34943508204e-38
0.0366489976167 -0.0314134265286 0.943 2.34921675974e-38
0.0383941879794 -0.0314134265286 0.943 2.34946969411e-38
0.0402670751979 -0.0315133631984 0.946 2.34943241957e-38
0.0421066501932 -0.0315799876449 0.948 2.34968605459e-38
0.0439998948814 -0.0316799243146 0.951 2.34975625965e-38
0.0459042436441 -0.0317798609844 0.954 2.34947039476e-38
0.0477697281463 -0.0318464854309 0.956 2.35012059725e-38
0.0496944343788 -0.0319464221007 0.959 2.35040365954e-38
0.0517375840717 -0.0321129832169 0.964 2.35087561686e-38
-0.0212976147338 -0.0301716208728 0.959 2.34932493998e-38
-0.019522813506 -0.0301716208728 0.959 2.3496133272e-38
-0.0177480122781 -0.0301716208728 0.959 2.23807809697e-38
-0.0159732110503 -0.0301716208728 0.959 1.98846620282e-38
-0.0141984098225 -0.0301716208728 0.959 1.94305292219e-38
-0.0123847443342 -0.0300772362403 0.956 1.99833092362e-38
-0.0106154951436 -0.0300772362403 0.956 2.081238467e-38
-0.00882773916233 -0.0300143131519 0.954 2.04436007493e-38
-0.00703998318103 -0.0299199285194 0.951 2.16418118298e-38
-0.00526333127414 -0.0298255438868 0.948 2.14598434151e-38
-0.0035088875161 -0.0298255438868 0.948 2.15492280402e-38
-0.00175074239991 -0.0297626207984 0.946 2.19169119417e-38
0.0 -0.0297626207984 0.946 2.23771908431e-38
0.00175074239991 -0.0297626207984 0.946 2.26552042545e-38
0.0034903807254 -0.0296682361659 0.943 2.20098348454e-38
0.0052355710881 -0.0296682361659 0.943 2.32991457404e-38
0.00695855330196 -0.0295738515333 0.94 2.3482442586e-38
0.00869819162745 -0.0295738515333 0.94 2.34845935792e-38
0.0104378299529 -0.0295738515333 0.94 2.33909756314e-38
0.0121774682784 -0.0295738515333 0.94 2.3485686592e-38
0.0139171066039 -0.0295738515333 0.94 2.34882075279e-38
0.0156234327062 -0.029510928445 0.938 2.34871285281e-38
0.0173593696735 -0.029510928445 0.938 2.34878473942e-38
0.0190953066409 -0.029510928445 0.938 2.34860551335e-38
0.0208312436082 -0.029510928445 0.938 2.34871299294e-38
0.0225671805756 -0.029510928445 0.938 2.3488203324e-38
0.0243031175429 -0.029510928445 0.938 2.34889151836e-38
0.0260390545103 -0.029510928445 0.938 2.34889291966e-38
0.0277749914776 -0.029510928445 0.938 2.34903683301e-38
0.029510928445 -0.029510928445 0.938 2.3487480254e-38
0.0312468654123 -0.029510928445 0.938 2.34903669288e-38
0.0330531281843 -0.0295738515333 0.94 2.34928752531e-38
0.0347927665098 -0.0295738515333 0.94 2.34932367881e-38
0.0366489976167 -0.0296682361659 0.943 2.34953975903e-38
0.038516332798 -0.0297626207984 0.946 2.3495034654e-38
0.0403522064351 -0.0298255438868 0.948 2.34917976546e-38
0.0422398990862 -0.0299199285194 0.951 2.34946829281e-38
0.0441386958117 -0.0300143131519 0.954 2.34982856665e-38
0.0460004789557 -0.0300772362403 0.956 2.34982842652e-38
0.0477697281463 -0.0300772362403 0.956 2.34968605459e-38
0.0496944343788 -0.0301716208728 0.959 2.35040786343e-38
0.0518985931508 -0.0304233132263 0.967 2.35026437047e-38
-0.0212976147338 -0.028396819645 0.959 2.34918284831e-38
-0.019522813506 -0.028396819645 0.959 2.34972206796e-38
-0.0177480122781 -0.028396819645 0.959 2.34892823238e-38
-0.0159732110503 -0.028396819645 0.959 1.88733897681e-38
-0.0141984098225 -0.028396819645 0.959 1.97067573791e-38
-0.0124236085947 -0.028396819645 0.959 2.05361523089e-38
-0.0106154951436 -0.0283079870497 0.956 1.99818967274e-38
-0.00882773916233 -0.0282487653195 0.954 2.02588423493e-38
-0.00706219132986 -0.0282487653195 0.954 2.0997129057e-38
-0.00527998738577 -0.0281599327241 0.951 2.09052655348e-38
-0.0035088875161 -0.0280711001288 0.948 2.16406823832e-38
-0.00175074239991 -0.0280118783985 0.946 2.15474301743e-38
0.0 -0.0280118783985 0.946 2.34849817388e-38
0.00175074239991 -0.0280118783985 0.946 2.23782628364e-38
0.00350148479982 -0.0280118783985 0.946 2.2193149908e-38
0.0052355710881 -0.0279230458032 0.943 2.31143831366e-38
0.0069807614508 -0.0279230458032 0.943 2.34813383628e-38
0.0087259518135 -0.0279230458032 0.943 2.34817349303e-38
0.0104711421762 -0.0279230458032 0.943 2.34813733953e-38
0.0121774682784 -0.0278342132079 0.94 2.32984212691e-38
0.0139171066039 -0.0278342132079 0.94 2.34853194518e-38
0.0156567449294 -0.0278342132079 0.94 2.34874830566e-38
0.0173963832549 -0.0278342132079 0.94 2.34867529801e-38
0.0191360215804 -0.0278342132079 0.94 2.34932395907e-38
0.0208756599059 -0.0278342132079 0.94 2.34849705285e-38
0.0226152982314 -0.0278342132079 0.94 2.34871355346e-38
0.0243549365569 -0.0278342132079 0.94 2.34889025719e-38
0.0260945748824 -0.0278342132079 0.94 2.34889053745e-38
0.0278342132079 -0.0278342132079 0.94 2.34889179862e-38
0.0295738515333 -0.0278342132079 0.94 2.3491071782e-38
0.0313134898588 -0.0278342132079 0.94 2.3491457139e-38
0.0331586168913 -0.0279230458032 0.943 2.34896508653e-38
