# .PCD v0.7 - Point Cloud Data file format
VERSION 0.7
FIELDS x y z rgb
SIZE 4 4 4 4
TYPE F F F F
COUNT 1 1 1 1
WIDTH 843
HEIGHT 1
VIEWPOINT 0 0 0 1 0 0 0
POINTS 843
DATA ascii
0.0273308285009 -0.0649107176896 0.923 8.78033439048e-39
0.0290390052822 -0.0649107176896 0.923 8.5044691696e-39
0.0307471820635 -0.0649107176896 0.923 8.22932141353e-39
0.0324553588448 -0.0649107176896 0.923 9.15054623437e-39
0.0341635356261 -0.0649107176896 0.923 9.15018750196e-39
0.0358717124074 -0.0649107176896 0.923 9.33421722668e-39
0.0376613190678 -0.0650513692989 0.925 9.33279070485e-39
0.0393731972073 -0.0650513692989 0.925 9.61079991238e-39
0.0412183242397 -0.0652623467129 0.928 1.03454852829e-38
0.0429357544164 -0.0652623467129 0.928 1.09897672844e-38
0.044653184593 -0.0652623467129 0.928 1.04351669834e-38
-0.0227596511988 -0.0647774687966 0.946 2.34943227944e-38
-0.0208756599059 -0.0643666180432 0.94 2.35047876913e-38
-0.0190953066409 -0.064229667792 0.938 7.81893434267e-39
-0.0173593696735 -0.064229667792 0.938 7.28982366072e-39
-0.0156234327062 -0.064229667792 0.938 7.57104744693e-39
-0.0138430794411 -0.0640242424153 0.935 7.11115250133e-39
-0.012086785004 -0.0638872921641 0.933 7.48100561281e-39
-0.010360101432 -0.0638872921641 0.933 6.83743967489e-39
-0.00858715088327 -0.0635449165362 0.928 7.48495166928e-39
-0.00686972070662 -0.0635449165362 0.928 7.02398052646e-39
-0.00513563441834 -0.0633394911595 0.925 7.11617475502e-39
-0.00342375627889 -0.0633394911595 0.925 7.11617475502e-39
-0.00171187813945 -0.0633394911595 0.925 6.74990896761e-39
0.0 -0.0633394911595 0.925 7.57893955988e-39
0.00170817678131 -0.0632025409083 0.923 7.11832714946e-39
0.00340524948819 -0.0629971155316 0.92 8.22465789224e-39
0.00510787423229 -0.0629971155316 0.92 7.67185125326e-39
0.00681049897639 -0.0629971155316 0.92 7.76440421423e-39
0.00849461692979 -0.0628601652804 0.918 7.76404548183e-39
0.0101935403157 -0.0628601652804 0.918 7.58073322192e-39
0.0118924637017 -0.0628601652804 0.918 7.03007897738e-39
0.0135913870877 -0.0628601652804 0.918 7.58145068673e-39
0.0152903104736 -0.0628601652804 0.918 7.94843393896e-39
0.017026247441 -0.0629971155316 0.92 8.410481279e-39
0.0187288721851 -0.0629971155316 0.92 7.58252688395e-39
0.0204314969292 -0.0629971155316 0.92 7.67651477455e-39
0.022206298157 -0.0632025409083 0.923 8.04385675918e-39
0.0239144749383 -0.0632025409083 0.923 8.32008071247e-39
0.0256226517196 -0.0632025409083 0.923 8.32008071247e-39
0.0273900502311 -0.0633394911595 0.925 8.68706396469e-39
0.0290390052822 -0.0632025409083 0.923 8.96579904483e-39
0.0307471820635 -0.0632025409083 0.923 8.31972198006e-39
0.0324553588448 -0.0632025409083 0.923 9.0579932734e-39
0.0342375627889 -0.0633394911595 0.925 8.96544031242e-39
0.0359494409284 -0.0633394911595 0.925 8.87503974589e-39
0.0376613190678 -0.0633394911595 0.925 9.42605272284e-39
0.0395008940631 -0.0635449165362 0.928 9.97814189701e-39
0.0412183242397 -0.0635449165362 0.928 1.07131845987e-38
0.0429357544164 -0.0635449165362 0.928 1.08972143234e-38
0.044653184593 -0.0635449165362 0.928 9.32955370539e-39
0.0468702981185 -0.064229667792 0.938 2.00998944658e-38
-0.0227596511988 -0.0630267263967 0.946 2.3492517922e-38
-0.0208756599059 -0.0626269797177 0.94 2.35033443539e-38
-0.0190953066409 -0.0624937308247 0.938 1.21506617868e-38
-0.0173593696735 -0.0624937308247 0.938 8.29604564121e-39
-0.0156234327062 -0.0624937308247 0.938 7.38773518702e-39
-0.0138430794411 -0.0622938574851 0.935 7.38809391943e-39
-0.012112694511 -0.0622938574851 0.935 7.57355857378e-39
-0.010360101432 -0.0621606085921 0.933 7.57535223581e-39
-0.00858715088327 -0.0618274863596 0.928 6.65448614739e-39
-0.00686972070662 -0.0618274863596 0.928 7.02362179405e-39
-0.00515229052996 -0.0618274863596 0.928 7.20836898359e-39
-0.00342375627889 -0.06162761302 0.925 6.93286249511e-39
-0.00171187813945 -0.06162761302 0.925 7.02577418849e-39
0.0 -0.06162761302 0.925 7.66934012641e-39
0.00170817678131 -0.061494364127 0.923 7.39383363794e-39
0.00340524948819 -0.0612944907875 0.92 7.21052137803e-39
0.00510787423229 -0.0612944907875 0.92 7.48818026094e-39
0.00681049897639 -0.0612944907875 0.92 7.67149252085e-39
0.00849461692979 -0.0611612418945 0.918 7.02900278015e-39
0.0101935403157 -0.0611612418945 0.918 8.50482790201e-39
0.0118924637017 -0.0611612418945 0.918 7.30594419826e-39
0.0135913870877 -0.0611612418945 0.918 8.32079817728e-39
0.0153236226969 -0.0612944907875 0.92 8.22537535706e-39
0.017026247441 -0.0612944907875 0.92 8.13425732571e-39
0.0187288721851 -0.0612944907875 0.92 7.67579730974e-39
0.0204981213757 -0.061494364127 0.923 7.58432054599e-39
0.022206298157 -0.061494364127 0.923 7.67651477455e-39
0.0239144749383 -0.061494364127 0.923 8.13676845256e-39
0.0256781720917 -0.06162761302 0.925 8.41263367344e-39
0.0273900502311 -0.06162761302 0.925 9.33134736743e-39
0.0291019283706 -0.06162761302 0.925 8.78069312289e-39
0.03081380651 -0.06162761302 0.925 8.87324608386e-39
0.0325256846495 -0.06162761302 0.925 8.87396354867e-39
0.0342375627889 -0.06162761302 0.925 9.0583520058e-39
0.0359494409284 -0.06162761302 0.925 9.51860568381e-39
0.0377834638864 -0.0618274863596 0.928 8.87252861905e-39
0.0395008940631 -0.0618274863596 0.928 1.09901260168e-38
0.0413071568351 -0.0619607352526 0.93 1.07135433311e-38
0.0430282883699 -0.0619607352526 0.93 1.13567505366e-38
0.0449900081837 -0.0622938574851 0.935 9.78908991859e-39
0.0468702981185 -0.0624937308247 0.938 2.35039875499e-38
0.0486062350858 -0.0624937308247 0.938 2.35018813983e-38
-0.0227596511988 -0.0612759839968 0.946 2.34939808776e-38
-0.0209422843524 -0.0610816626945 0.943 2.35029758124e-38
-0.0191360215804 -0.0608873413922 0.94 1.59267211404e-38
-0.0173963832549 -0.0608873413922 0.94 1.16003592681e-38
-0.0156567449294 -0.0608873413922 0.94 7.93623703712e-39
-0.0138874957388 -0.0607577938573 0.938 7.75651210128e-39
-0.012112694511 -0.060563472555 0.935 7.57355857378e-39
-0.010360101432 -0.0604339250201 0.933 6.65448614739e-39
-0.00860565767397 -0.0602396037178 0.93 7.30056321215e-39
-0.00688452613918 -0.0602396037178 0.93 7.20836898359e-39
-0.00515229052996 -0.0601100561829 0.928 7.30056321215e-39
-0.00343486035331 -0.0601100561829 0.928 7.11796841706e-39
-0.00171743017665 -0.0601100561829 0.928 7.39419237035e-39
0.0 -0.0599157348806 0.925 7.48674533132e-39
0.00171187813945 -0.0599157348806 0.925 7.39419237035e-39
0.00341635356261 -0.0597861873457 0.923 7.76368674942e-39
0.00512453034392 -0.0597861873457 0.923 7.76404548183e-39
0.00681049897639 -0.0595918660434 0.92 7.21267377247e-39
0.00851312372049 -0.0595918660434 0.92 7.30630293066e-39
0.0102157484646 -0.0595918660434 0.92 7.2141087021e-39
0.0119183732087 -0.0595918660434 0.92 7.21554363173e-39
0.0136209979528 -0.0595918660434 0.92 7.031513907e-39
0.0153236226969 -0.0595918660434 0.92 8.22860394872e-39
0.0170817678131 -0.0597861873457 0.923 7.94915140377e-39
0.0188306595339 -0.0599157348806 0.925 8.04170436474e-39
0.0205425376733 -0.0599157348806 0.925 7.76870900312e-39
0.0222544158128 -0.0599157348806 0.925 8.22860394872e-39
0.0239662939522 -0.0599157348806 0.925 8.32043944488e-39
0.0256781720917 -0.0599157348806 0.925 8.04385675918e-39
0.0273900502311 -0.0599157348806 0.925 8.59451100372e-39
0.0291019283706 -0.0599157348806 0.925 8.41263367344e-39
0.03081380651 -0.0599157348806 0.925 8.87360481627e-39
0.0325256846495 -0.0599157348806 0.925 9.15090496677e-39
0.0342375627889 -0.0599157348806 0.925 7.95381492506e-39
0.0360660337097 -0.0601100561829 0.928 1.00714123228e-38
0.0377834638864 -0.0601100561829 0.928 9.7948296371e-39
0.0395860253003 -0.0602396037178 0.93 9.88702386567e-39
0.0414404057281 -0.0604339250201 0.933 9.24166426571e-39
0.0431670893001 -0.0604339250201 0.933 1.04373193778e-38
0.0449900081837 -0.060563472555 0.935 1.97285377611e-38
0.0468702981185 -0.0607577938573 0.938 2.35015661062e-38
-0.0192988813385 -0.0596510877736 0.948 1.73986198239e-38
-0.0175444375805 -0.0596510877736 0.948 1.66625471679e-38
-0.0157067132643 -0.0593364723318 0.943 9.30623609895e-39
-0.0139171066039 -0.0591477030667 0.94 7.20011813823e-39
-0.0121515587715 -0.0590218568899 0.938 7.29733462049e-39
-0.0104156218041 -0.0590218568899 0.938 7.48315800725e-39
-0.00860565767397 -0.058518472183 0.93 6.6552036122e-39
-0.00688452613918 -0.058518472183 0.93 7.20801025118e-39
-0.00516339460438 -0.058518472183 0.93 6.93357995993e-39
-0.00343486035331 -0.0583926260063 0.928 7.11725095224e-39
-0.00171743017665 -0.0583926260063 0.928 7.11689221984e-39
0.0 -0.0583926260063 0.928 7.02756785053e-39
0.00171187813945 -0.0582038567412 0.925 7.39526856757e-39
0.00341635356261 -0.0580780105644 0.923 7.39562729997e-39
0.00512453034392 -0.0580780105644 0.923 7.303074339e-39
0.00683270712523 -0.0580780105644 0.923 8.1335398609e-39
0.00854088390653 -0.0580780105644 0.923 7.94735774173e-39
0.0102490606878 -0.0580780105644 0.923 7.21303250488e-39
0.0119572374691 -0.0580780105644 0.923 7.39921462404e-39
0.0136654142505 -0.0580780105644 0.923 7.67615604214e-39
0.0153735910318 -0.0580780105644 0.923 7.58324434876e-39
0.0171187813945 -0.0582038567412 0.925 7.95166253062e-39
0.0188306595339 -0.0582038567412 0.925 8.87073495701e-39
0.0205425376733 -0.0582038567412 0.925 8.22645155428e-39
0.0223265922965 -0.0583926260063 0.928 8.044574224e-39
0.0240440224732 -0.0583926260063 0.928 7.67651477455e-39
0.0257614526498 -0.0583926260063 0.928 8.41227494103e-39
0.0274788828265 -0.0583926260063 0.928 8.68921635914e-39
0.0291963130031 -0.0583926260063 0.928 8.41227494103e-39
0.0309137431798 -0.0583926260063 0.928 9.14947003715e-39
0.0326311733564 -0.0583926260063 0.928 9.05655834377e-39
0.0343486035331 -0.0583926260063 0.928 9.15018750196e-39
0.0361437622307 -0.058518472183 0.93 1.03451251492e-38
0.0378648937655 -0.058518472183 0.93 1.00689011959e-38
0.0397137221561 -0.0587072414481 0.933 1.0163247819e-38
0.0415292383234 -0.0588330876248 0.935 1.00681837311e-38
0.0432596232536 -0.0588330876248 0.935 1.57713311537e-38
0.0451343611511 -0.0590218568899 0.938 2.35021854801e-38
0.0471201397929 -0.0593364723318 0.943 2.34975668003e-38
-0.0192988813385 -0.0578966440156 0.948 1.79507089981e-38
-0.0175444375805 -0.0578966440156 0.948 1.92428673315e-38
-0.0157566815992 -0.057774499197 0.946 1.55644406458e-38
-0.0139615229016 -0.0575912819691 0.943 1.06884320626e-38
-0.0121774682784 -0.0574080647412 0.94 8.21353718763e-39
-0.0104156218041 -0.0572859199226 0.938 7.75830576332e-39
-0.00865192465071 -0.0571027026947 0.935 7.20765151877e-39
-0.00690673428801 -0.0569805578761 0.933 7.30056321215e-39
-0.00518005071601 -0.0569805578761 0.933 6.93357995993e-39
-0.00344226306959 -0.0567973406482 0.93 7.208727716e-39
-0.00172113153479 -0.0567973406482 0.93 7.57893955988e-39
0.0 -0.0566751958296 0.928 7.39419237035e-39
0.00171743017665 -0.0566751958296 0.928 7.02792658293e-39
0.00342375627889 -0.0564919786017 0.925 8.04170436474e-39
0.00513563441834 -0.0564919786017 0.925 7.30379180382e-39
0.00684751255778 -0.0564919786017 0.925 7.5796570247e-39
0.00855939069723 -0.0564919786017 0.925 7.94843393896e-39
0.0102712688367 -0.0564919786017 0.925 8.22609282187e-39
0.0119831469761 -0.0564919786017 0.925 7.76691534108e-39
0.0136950251156 -0.0564919786017 0.925 7.67579730974e-39
0.015406903255 -0.0564919786017 0.925 8.6874226971e-39
0.0171187813945 -0.0564919786017 0.925 8.32043944488e-39
0.0188917319432 -0.0566751958296 0.928 8.22716901909e-39
0.0206091621199 -0.0566751958296 0.928 8.044574224e-39
0.0223265922965 -0.0566751958296 0.928 8.5044691696e-39
0.0240440224732 -0.0566751958296 0.928 8.41263367344e-39
0.0257614526498 -0.0566751958296 0.928 8.96544031242e-39
0.0274788828265 -0.0566751958296 0.928 1.00689011959e-38
0.0292592360915 -0.0567973406482 0.93 9.517888219e-39
0.0309803676263 -0.0567973406482 0.93 9.97814189701e-39
0.0327014991611 -0.0567973406482 0.93 8.78033439048e-39
0.0344226306959 -0.0567973406482 0.93 8.78069312289e-39
0.0361437622307 -0.0567973406482 0.93 1.04373193778e-38
0.0379870385841 -0.0569805578761 0.933 9.79195977785e-39
0.0397988533933 -0.0571027026947 0.935 9.69940681687e-39
0.0416624872164 -0.0572859199226 0.938 1.79782599272e-38
0.0433984241838 -0.0572859199226 0.938 2.35018519711e-38
0.0452305964628 -0.0574080647412 0.94 2.34961388772e-38
0.0471201397929 -0.0575912819691 0.943 2.34932451959e-38
0.0491244252253 -0.0578966440156 0.948 2.35015394815e-38
-0.0230002394779 -0.0566159740994 0.956 2.34943340048e-38
-0.0211865739896 -0.0564975306389 0.954 2.35001157623e-38
-0.0192988813385 -0.0561422002575 0.948 1.75822543825e-38
-0.0175444375805 -0.0561422002575 0.948 1.91503241797e-38
-0.0157566815992 -0.0560237567971 0.946 1.96163442009e-38
-0.0139615229016 -0.0558460916064 0.943 1.79622150598e-38
-0.0121774682784 -0.0556684264157 0.94 1.39109504969e-38
-0.0104156218041 -0.0555499829552 0.938 9.86334752681e-39
-0.00865192465071 -0.0553723177646 0.935 8.12636521276e-39
-0.00690673428801 -0.0552538743041 0.933 7.94448788248e-39
-0.00518005071601 -0.0552538743041 0.933 7.39311617313e-39
-0.00344226306959 -0.0550762091134 0.93 7.30092194456e-39
-0.00172113153479 -0.0550762091134 0.93 7.39311617313e-39
0.0 -0.054957765653 0.928 7.57929829229e-39
0.00171743017665 -0.054957765653 0.928 7.57929829229e-39
0.00343486035331 -0.054957765653 0.928 8.04134563233e-39
0.00515229052996 -0.054957765653 0.928 7.58073322192e-39
0.00684751255778 -0.0547801004623 0.925 7.11940334669e-39
0.00855939069723 -0.0547801004623 0.925 7.94843393896e-39
0.0102712688367 -0.0547801004623 0.925 8.59486973613e-39
0.0119831469761 -0.0547801004623 0.925 7.39885589164e-39
0.0136950251156 -0.0547801004623 0.925 7.76691534108e-39
0.015406903255 -0.0547801004623 0.925 8.04170436474e-39
0.0171187813945 -0.0547801004623 0.925 8.59702213057e-39
0.0188917319432 -0.054957765653 0.928 7.30666166307e-39
0.0206091621199 -0.054957765653 0.928 7.67723223936e-39
0.0223265922965 -0.054957765653 0.928 8.32043944488e-39
0.0240440224732 -0.054957765653 0.928 8.22824521631e-39
0.0258169730219 -0.0550762091134 0.93 8.68670523229e-39
0.0275381045567 -0.0550762091134 0.93 9.05368848451e-39
0.0293536207241 -0.0552538743041 0.933 8.87181115423e-39
0.0310803042961 -0.0552538743041 0.933 9.88666513326e-39
0.0328069878681 -0.0552538743041 0.933 8.22968014594e-39
0.0345336714401 -0.0552538743041 0.933 9.42748765247e-39
0.0362603550121 -0.0552538743041 0.933 8.31756958562e-39
0.0380684684631 -0.0553723177646 0.935 1.40221533391e-38
0.0399265502491 -0.0555499829552 0.938 2.09234613954e-38
0.0417513198118 -0.0556684264157 0.94 2.34989779079e-38
0.0436297590675 -0.0558460916064 0.943 2.34954158072e-38
0.0453749494302 -0.0558460916064 0.943 2.34943185905e-38
0.0472700447975 -0.0560237567971 0.946 2.34982884691e-38
0.0491244252253 -0.0561422002575 0.948 2.35018954113e-38
0.0508788689834 -0.0561422002575 0.948 2.35051268056e-38
-0.0230002394779 -0.0548467249088 0.956 2.34936095335e-38
-0.0211865739896 -0.0547319828065 0.954 2.35004702908e-38
-0.0193599537478 -0.054559869653 0.951 1.69365528657e-38
-0.0175444375805 -0.0543877564995 0.948 1.98853808943e-38
-0.0157899938224 -0.0543877564995 0.948 1.95212745078e-38
-0.0140059391993 -0.0542730143972 0.946 1.92454134909e-38
-0.0122163325389 -0.0541009012437 0.943 2.01677159102e-38
-0.0104378299529 -0.0539287880902 0.94 1.75919793938e-38
-0.00867968483676 -0.0538140459879 0.938 1.35432245565e-38
-0.00694374786941 -0.0538140459879 0.938 1.02346355679e-38
-0.00519115479043 -0.0536419328344 0.935 7.02218686442e-39
-0.00345336714401 -0.0535271907321 0.933 7.11725095224e-39
-0.00172113153479 -0.0533550775786 0.93 7.76153435498e-39
0.0 -0.0533550775786 0.93 7.48638659891e-39
0.00172113153479 -0.0533550775786 0.93 7.21088011044e-39
0.00343486035331 -0.0532403354763 0.928 7.67328618289e-39
0.00515229052996 -0.0532403354763 0.928 7.58073322192e-39
0.00686972070662 -0.0532403354763 0.928 8.03991070271e-39
0.00858715088327 -0.0532403354763 0.928 7.94735774173e-39
0.0103045810599 -0.0532403354763 0.928 8.31541719118e-39
0.0120220112366 -0.0532403354763 0.928 8.5930760741e-39
0.0136950251156 -0.0530682223228 0.925 8.40904634937e-39
0.015406903255 -0.0530682223228 0.925 8.68562903507e-39
0.0171743017665 -0.0532403354763 0.928 8.59451100372e-39
0.0188917319432 -0.0532403354763 0.928 8.13425732571e-39
0.0206091621199 -0.0532403354763 0.928 9.05548214655e-39
0.0223265922965 -0.0532403354763 0.928 8.41263367344e-39
0.0240958414871 -0.0533550775786 0.93 8.22932141353e-39
0.0258169730219 -0.0533550775786 0.93 8.87360481627e-39
0.0275381045567 -0.0533550775786 0.93 9.33385849428e-39
0.0293536207241 -0.0535271907321 0.933 8.87145242182e-39
0.0311469287426 -0.0536419328344 0.935 8.77818199604e-39
0.0328773136727 -0.0536419328344 0.935 1.00681837311e-38
0.0346076986028 -0.0536419328344 0.935 1.31027011608e-38
0.036338083533 -0.0536419328344 0.935 2.0371366616e-38
0.0381906132817 -0.0538140459879 0.938 2.34939472464e-38
0.0400116814863 -0.0539287880902 0.94 2.34972206796e-38
0.0417513198118 -0.0539287880902 0.94 2.34946941385e-38
0.0436297590675 -0.0541009012437 0.943 2.34946857307e-38
0.0455193023976 -0.0542730143972 0.946 2.34921689987e-38
0.0472700447975 -0.0542730143972 0.946 2.34961514889e-38
0.0491244252253 -0.0543877564995 0.948 2.35019010165e-38
0.0508788689834 -0.0543877564995 0.948 2.34964821953e-38
-0.0230002394779 -0.0530774757182 0.956 2.34940075022e-38
-0.0212309902873 -0.0530774757182 0.956 2.35015619023e-38
-0.0194210261571 -0.052966434974 0.954 1.77670744396e-38
-0.0175999579526 -0.0527998738577 0.951 1.97002581568e-38
-0.0158399621573 -0.0527998738577 0.951 1.98889836327e-38
-0.0140059391993 -0.0525222719973 0.946 1.97968272392e-38
-0.0122163325389 -0.052355710881 0.943 1.979858727e-38
-0.0104378299529 -0.0521891497647 0.94 2.03524743101e-38
-0.00869819162745 -0.0521891497647 0.94 2.09074459552e-38
-0.00694374786941 -0.0520781090205 0.938 1.77785384623e-38
-0.00520781090205 -0.0520781090205 0.938 1.63094535861e-38
-0.00346076986028 -0.0519115479043 0.935 1.39163062596e-38
-0.001726683572 -0.0518005071601 0.933 1.06974003728e-38
0.0 -0.0518005071601 0.933 9.32094412763e-39
0.00172113153479 -0.0516339460438 0.93 8.77280100994e-39
0.00344226306959 -0.0516339460438 0.93 8.31469972637e-39
0.00516339460438 -0.0516339460438 0.93 8.03991070271e-39
0.00686972070662 -0.0515229052996 0.928 8.13210493127e-39
0.00858715088327 -0.0515229052996 0.928 8.96113552354e-39
0.0103045810599 -0.0515229052996 0.928 8.68491157025e-39
0.0120220112366 -0.0515229052996 0.928 8.86822383016e-39
0.0137394414132 -0.0515229052996 0.928 8.31541719118e-39
0.0154568715899 -0.0515229052996 0.928 9.42246539877e-39
0.0171743017665 -0.0515229052996 0.928 9.14624144548e-39
0.0188917319432 -0.0515229052996 0.928 8.59271734169e-39
0.0206091621199 -0.0515229052996 0.928 8.59271734169e-39
0.0223265922965 -0.0515229052996 0.928 8.96221172076e-39
0.0240958414871 -0.0516339460438 0.93 8.96257045317e-39
0.02590025358 -0.0518005071601 0.933 9.69940681687e-39
0.027626937152 -0.0518005071601 0.933 1.02482673994e-38
0.0294165438124 -0.0519115479043 0.935 1.3005843411e-38
0.0311469287426 -0.0519115479043 0.935 1.73282101813e-38
0.0328773136727 -0.0519115479043 0.935 2.11922570655e-38
0.0346076986028 -0.0519115479043 0.935 2.34982198054e-38
0.036338083533 -0.0519115479043 0.935 2.34982730548e-38
0.0381906132817 -0.0520781090205 0.938 2.34979311379e-38
0.0400116814863 -0.0521891497647 0.94 2.34878431903e-38
0.0417513198118 -0.0521891497647 0.94 2.34928948713e-38
0.0436297590675 -0.052355710881 0.943 2.34943213931e-38
0.0455193023976 -0.0525222719973 0.946 2.34936151387e-38
0.0473699814673 -0.0526333127414 0.948 2.34982744561e-38
0.0491244252253 -0.0526333127414 0.948 2.35044289589e-38
0.0508788689834 -0.0526333127414 0.948 2.35029814176e-38
-0.0230002394779 -0.0513082265276 0.956 2.3494673119e-38
-0.0211865739896 -0.0512008871415 0.954 2.35040478057e-38
-0.0194210261571 -0.0512008871415 0.954 1.6844376854e-38
-0.0175999579526 -0.0510398780625 0.951 1.94269138719e-38
-0.0158399621573 -0.0510398780625 0.951 1.98896996962e-38
-0.0140059391993 -0.0507715295974 0.946 2.00733762937e-38
-0.0122163325389 -0.0506105205183 0.943 2.01669998467e-38
-0.0104378299529 -0.0504495114392 0.94 2.01669998467e-38
-0.00869819162745 -0.0504495114392 0.94 2.03524602972e-38
-0.00694374786941 -0.0503421720532 0.938 2.10900267374e-38
-0.00520781090205 -0.0503421720532 0.938 2.14588050529e-38
-0.0034718739347 -0.0503421720532 0.938 2.11829468385e-38
-0.00173038493014 -0.0501811629741 0.935 2.03564399848e-38
0.0 -0.0500738235881 0.933 1.79657028917e-38
0.001726683572 -0.0500738235881 0.933 1.63980871152e-38
0.00344226306959 -0.049912814509 0.93 1.53871343511e-38
0.00516339460438 -0.049912814509 0.93 1.33667282123e-38
0.00688452613918 -0.049912814509 0.93 1.1804089848e-38
0.00858715088327 -0.049805475123 0.928 1.1713330549e-38
0.0103045810599 -0.049805475123 0.928 1.09775703825e-38
0.0120220112366 -0.049805475123 0.928 1.1347423494e-38
0.0137394414132 -0.049805475123 0.928 1.0979722777e-38
0.0154568715899 -0.049805475123 0.928 1.0979722777e-38
0.0171743017665 -0.049805475123 0.928 1.10719170055e-38
0.0188917319432 -0.049805475123 0.928 1.2818943827e-38
0.0206091621199 -0.049805475123 0.928 1.36458220248e-38
0.0223747099523 -0.049912814509 0.93 1.49340300979e-38
0.0240958414871 -0.049912814509 0.93 1.69562397079e-38
0.02590025358 -0.0500738235881 0.933 1.87982955847e-38
0.027626937152 -0.0500738235881 0.933 2.24836390796e-38
0.0294165438124 -0.0501811629741 0.935 2.30336767528e-38
0.0311469287426 -0.0501811629741 0.935 2.34946675138e-38
0.0329828023797 -0.0503421720532 0.938 2.34910843937e-38
0.034718739347 -0.0503421720532 0.938 2.34957465136e-38
0.0364546763144 -0.0503421720532 0.938 2.34946857307e-38
0.0382720431608 -0.0504495114392 0.94 2.34954059981e-38
0.0400116814863 -0.0504495114392 0.94 2.34925305337e-38
0.0417513198118 -0.0504495114392 0.94 2.34928920687e-38
0.0437685599977 -0.0507715295974 0.946 2.34968577433e-38
0.0456155377093 -0.0508788689834 0.948 2.34922040311e-38
0.0473699814673 -0.0508788689834 0.948 2.35004534752e-38
0.0492798822672 -0.0510398780625 0.951 2.35036988824e-38
0.0510398780625 -0.0510398780625 0.951 2.35011919595e-38
-0.0230002394779 -0.049538977337 0.956 2.34968367238e-38
-0.0211865739896 -0.0494353393091 0.954 2.34957801448e-38
-0.0194210261571 -0.0494353393091 0.954 1.89644853786e-38
-0.0175999579526 -0.0492798822672 0.951 1.85960910188e-38
-0.0158399621573 -0.0492798822672 0.951 1.95216402467e-38
-0.0140355500644 -0.0491244252253 0.948 1.99818827144e-38
-0.0122551967994 -0.0490207871974 0.946 1.92440065872e-38
-0.0104711421762 -0.0488653301556 0.943 2.09023970769e-38
-0.00869819162745 -0.0487098731137 0.94 2.09049278219e-38
-0.00694374786941 -0.0486062350858 0.938 2.07208896894e-38
-0.00520781090205 -0.0486062350858 0.938 2.17339500064e-38
-0.0034718739347 -0.0486062350858 0.938 2.23778704728e-38
-0.00173038493014 -0.048450778044 0.935 2.21016437169e-38
0.0 -0.048450778044 0.935 2.26566419867e-38
0.001726683572 -0.0483471400161 0.933 2.24726108607e-38
0.00345336714401 -0.0483471400161 0.933 2.34867613879e-38
0.00518005071601 -0.0483471400161 0.933 2.14631210522e-38
0.00688452613918 -0.0481916829742 0.93 2.15556866248e-38
0.00860565767397 -0.0481916829742 0.93 2.20195192191e-38
0.0103267892088 -0.0481916829742 0.93 2.06391113123e-38
0.0120479207436 -0.0481916829742 0.93 2.11926298109e-38
0.0137690522784 -0.0481916829742 0.93 2.08241934122e-38
0.0154568715899 -0.0480880449463 0.928 2.24826287434e-38
0.0171743017665 -0.0480880449463 0.928 2.257447545e-38
0.0188917319432 -0.0480880449463 0.928 2.22031944153e-38
0.0206091621199 -0.0480880449463 0.928 2.31240745168e-38
0.0223747099523 -0.0481916829742 0.93 2.34928332141e-38
0.0240958414871 -0.0481916829742 0.93 2.34925067116e-38
0.02590025358 -0.0483471400161 0.933 2.34928962726e-38
0.0276861588823 -0.048450778044 0.935 2.3490358521e-38
0.0294165438124 -0.048450778044 0.935 2.34903627249e-38
0.0311469287426 -0.048450778044 0.935 2.3490734069e-38
0.0329828023797 -0.0486062350858 0.938 2.34900166042e-38
0.034718739347 -0.0486062350858 0.938 2.3490358521e-38
0.0364546763144 -0.0486062350858 0.938 2.34882131331e-38
0.0382720431608 -0.0487098731137 0.94 2.34910843937e-38
0.0401393783421 -0.0488653301556 0.943 2.34918228779e-38
0.0418845687048 -0.0488653301556 0.943 2.34946955398e-38
0.0437685599977 -0.0490207871974 0.946 2.34936249478e-38
0.0456155377093 -0.0491244252253 0.948 2.34943171892e-38
0.0473699814673 -0.0491244252253 0.948 2.35015212646e-38
0.0492798822672 -0.0492798822672 0.951 2.35022723606e-38
0.0510398780625 -0.0492798822672 0.951 2.35037255071e-38
-0.0230002394779 -0.0477697281463 0.956 2.34918004572e-38
-0.0211865739896 -0.0476697914766 0.954 2.35026282904e-38
-0.0194210261571 -0.0476697914766 0.954 1.73060458435e-38
-0.0175999579526 -0.0475198864719 0.951 2.01644957263e-38
-0.0158399621573 -0.0475198864719 0.951 1.90624641673e-38
-0.0140355500644 -0.0473699814673 0.948 2.01684417828e-38
-0.0122551967994 -0.0472700447975 0.946 2.00776712735e-38
-0.0104711421762 -0.0471201397929 0.943 2.08127349946e-38
-0.0087259518135 -0.0471201397929 0.943 2.04446573283e-38
-0.00695855330196 -0.0469702347883 0.94 2.06272717416e-38
-0.00520781090205 -0.0468702981185 0.938 2.11793314885e-38
-0.0034718739347 -0.0468702981185 0.938 2.25633603505e-38
-0.00173038493014 -0.0467203931138 0.935 2.13651899077e-38
0.0 -0.0467203931138 0.935 2.1733243752e-38
0.00173038493014 -0.0467203931138 0.935 2.20101907753e-38
0.00345336714401 -0.0466204564441 0.933 2.26552406882e-38
0.00518005071601 -0.0466204564441 0.933 2.19173043052e-38
0.00690673428801 -0.0466204564441 0.933 2.32073270598e-38
0.00863341786002 -0.0466204564441 0.933 2.34878473942e-38
0.010360101432 -0.0466204564441 0.933 2.34878235721e-38
0.0120479207436 -0.0464705514394 0.93 2.31169026712e-38
0.0137690522784 -0.0464705514394 0.93 2.3487480254e-38
0.0154901838131 -0.0464705514394 0.93 2.34885634577e-38
0.0172113153479 -0.0464705514394 0.93 2.3115464939e-38
0.0189324468827 -0.0464705514394 0.93 2.34878389864e-38
0.0206535784175 -0.0464705514394 0.93 2.3489273916e-38
0.0223747099523 -0.0464705514394 0.93 2.34878445916e-38
0.0240958414871 -0.0464705514394 0.93 2.34907312664e-38
0.02590025358 -0.0466204564441 0.933 2.34881935149e-38
0.0276861588823 -0.0467203931138 0.935 2.34863942477e-38
0.0294165438124 -0.0467203931138 0.935 2.34917962533e-38
0.0311469287426 -0.0467203931138 0.935 2.34892767186e-38
0.0329828023797 -0.0468702981185 0.938 2.34889474135e-38
0.034718739347 -0.0468702981185 0.938 2.3492517922e-38
0.0364546763144 -0.0468702981185 0.938 2.3490358521e-38
0.0382720431608 -0.0469702347883 0.94 2.34946773229e-38
0.0401393783421 -0.0471201397929 0.943 2.3492142374e-38
0.0418845687048 -0.0471201397929 0.943 2.34946857307e-38
0.0437685599977 -0.0472700447975 0.946 2.34953975903e-38
0.0456155377093 -0.0473699814673 0.948 2.34957703357e-38
0.0473699814673 -0.0473699814673 0.948 2.35001129597e-38
0.0492798822672 -0.0475198864719 0.951 2.35022681567e-38
-0.0230002394779 -0.0460004789557 0.956 2.34954256163e-38
-0.0211865739896 -0.0459042436441 0.954 2.34997696415e-38
-0.0193599537478 -0.0457598906767 0.951 1.68457893629e-38
-0.0175999579526 -0.0457598906767 0.951 1.96113191446e-38
-0.0158399621573 -0.0457598906767 0.951 1.9614542131e-38
-0.0140355500644 -0.0456155377093 0.948 1.98936499566e-38
-0.0122551967994 -0.0455193023976 0.946 1.90627920711e-38
-0.0105044543995 -0.0455193023976 0.946 2.09949752612e-38
-0.0087259518135 -0.0453749494302 0.943 2.03524630997e-38
-0.00695855330196 -0.0452305964628 0.94 2.13648339779e-38
-0.00521891497647 -0.0452305964628 0.94 2.16410453195e-38
-0.0034718739347 -0.0451343611511 0.938 2.16399761288e-38
-0.00173038493014 -0.0449900081837 0.935 2.21927827678e-38
0.0 -0.0449900081837 0.935 2.19158371458e-38
0.00173038493014 -0.0449900081837 0.935 2.26534077899e-38
0.00346076986028 -0.0449900081837 0.935 2.22864175311e-38
0.00519115479043 -0.0449900081837 0.935 2.32072794157e-38
0.00690673428801 -0.0448937728721 0.933 2.29310680741e-38
0.00863341786002 -0.0448937728721 0.933 2.29307177495e-38
0.010360101432 -0.0448937728721 0.933 2.31161838051e-38
0.012086785004 -0.0448937728721 0.933 2.34849719298e-38
0.013813468576 -0.0448937728721 0.933 2.27459719612e-38
0.015540152148 -0.0448937728721 0.933 2.348895442e-38
0.0172113153479 -0.0447494199046 0.93 2.33916916949e-38
0.0189324468827 -0.0447494199046 0.93 2.34871103112e-38
0.0206535784175 -0.0447494199046 0.93 2.34907214573e-38
0.022446886436 -0.0448937728721 0.933 2.34892711134e-38
0.024173570008 -0.0448937728721 0.933 2.34871271268e-38
0.02590025358 -0.0448937728721 0.933 2.3489287929e-38
0.0276861588823 -0.0449900081837 0.935 2.34882215409e-38
0.0294165438124 -0.0449900081837 0.935 2.34882019227e-38
0.0311469287426 -0.0449900081837 0.935 2.34889390057e-38
0.0329828023797 -0.0451343611511 0.938 2.34918032598e-38
0.034718739347 -0.0451343611511 0.938 2.3490696234e-38
0.0364546763144 -0.0451343611511 0.938 2.349289347e-38
0.0383941879794 -0.0453749494302 0.943 2.34939654633e-38
0.0402670751979 -0.0455193023976 0.946 2.34950640813e-38
0.0420178175978 -0.0455193023976 0.946 2.34932423933e-38
0.0437685599977 -0.0455193023976 0.946 2.34968451316e-38
0.0457598906767 -0.0457598906767 0.951 2.3492194222e-38
0.0475198864719 -0.0457598906767 0.951 2.35033569656e-38
0.0492798822672 -0.0457598906767 0.951 2.35029617994e-38
-0.0211865739896 -0.0441386958117 0.954 2.35015492906e-38
-0.0193599537478 -0.0439998948814 0.951 1.75855222105e-38
-0.0175999579526 -0.0439998948814 0.951 1.9981885517e-38
-0.0158399621573 -0.0439998948814 0.951 1.97071049011e-38
-0.0140355500644 -0.0438610939512 0.948 1.93390342413e-38
-0.0122551967994 -0.0437685599977 0.946 2.05354068182e-38
-0.0105044543995 -0.0437685599977 0.946 2.04439300544e-38
-0.00875371199954 -0.0437685599977 0.946 2.04428706728e-38
-0.0069807614508 -0.0436297590675 0.943 2.14570296078e-38
-0.0052355710881 -0.0436297590675 0.943 2.13651688882e-38
-0.0034718739347 -0.0433984241838 0.938 2.17318018158e-38
-0.00173593696735 -0.0433984241838 0.938 2.25611939431e-38
0.0 -0.0433984241838 0.938 2.25619156118e-38
0.00173038493014 -0.0432596232536 0.935 2.26541238534e-38
0.00346076986028 -0.0432596232536 0.935 2.30236168311e-38
0.00519115479043 -0.0432596232536 0.935 2.28388724442e-38
0.00692153972057 -0.0432596232536 0.935 2.28377990496e-38
0.00863341786002 -0.0431670893001 0.933 2.34839041403e-38
0.010360101432 -0.0431670893001 0.933 2.34853278596e-38
0.012086785004 -0.0431670893001 0.933 2.30229161819e-38
0.013813468576 -0.0431670893001 0.933 2.34864138659e-38
0.015540152148 -0.0431670893001 0.933 2.3115464939e-38
0.01726683572 -0.0431670893001 0.933 2.3489273916e-38
0.018993519292 -0.0431670893001 0.933 2.34853096427e-38
0.020720202864 -0.0431670893001 0.933 2.34856851907e-38
0.022446886436 -0.0431670893001 0.933 2.349144733e-38
0.024173570008 -0.0431670893001 0.933 2.34903543172e-38
0.02590025358 -0.0431670893001 0.933 2.34878403877e-38
0.0276861588823 -0.0432596232536 0.935 2.34910942027e-38
0.0294165438124 -0.0432596232536 0.935 2.34928752531e-38
0.0311469287426 -0.0432596232536 0.935 2.34889614265e-38
0.0329828023797 -0.0433984241838 0.938 2.34892991394e-38
0.034718739347 -0.0433984241838 0.938 2.34939850815e-38
0.0365324048353 -0.0434909581373 0.94 2.34932339855e-38
0.0383941879794 -0.0436297590675 0.943 2.34903837444e-38
0.0402670751979 -0.0437685599977 0.946 2.34921774065e-38
0.0420178175978 -0.0437685599977 0.946 2.34921830116e-38
0.0437685599977 -0.0437685599977 0.946 2.34961416798e-38
0.0457598906767 -0.0439998948814 0.951 2.3495438228e-38
0.0475198864719 -0.0439998948814 0.951 2.34986808326e-38
0.0492798822672 -0.0439998948814 0.951 2.35004702908e-38
-0.0230002394779 -0.0424619805745 0.956 2.34928962726e-38
-0.0212309902873 -0.0424619805745 0.956 2.34986696222e-38
-0.0194617410967 -0.0424619805745 0.956 1.78613804249e-38
-0.0176554783247 -0.0423731479792 0.954 1.95201786924e-38
-0.0158399621573 -0.0422398990862 0.951 1.94290816806e-38
-0.0140355500644 -0.0421066501932 0.948 1.99808275366e-38
-0.0122551967994 -0.0420178175978 0.946 2.04432266026e-38
-0.0105044543995 -0.0420178175978 0.946 2.09045648856e-38
-0.00875371199954 -0.0420178175978 0.946 2.0720183435e-38
-0.0069807614508 -0.0418845687048 0.943 2.21031024686e-38
-0.0052355710881 -0.0418845687048 0.943 2.15488496896e-38
-0.0034718739347 -0.0416624872164 0.938 2.16406977975e-38
-0.00173593696735 -0.0416624872164 0.938 2.24697424027e-38
0.0 -0.0416624872164 0.938 2.14577330596e-38
0.00173593696735 -0.0416624872164 0.938 2.29328687426e-38
0.00346076986028 -0.0415292383234 0.935 2.21935058378e-38
0.00519115479043 -0.0415292383234 0.935 2.265305186e-38
0.00692153972057 -0.0415292383234 0.935 2.34860186997e-38
0.00865192465071 -0.0415292383234 0.935 2.3391325956e-38
0.0103823095809 -0.0415292383234 0.935 2.34889249927e-38
0.012112694511 -0.0415292383234 0.935 2.34849831401e-38
0.0138430794411 -0.0415292383234 0.935 2.34867683944e-38
0.015540152148 -0.0414404057281 0.933 2.34860705477e-38
0.01726683572 -0.0414404057281 0.933 2.34864012542e-38
0.018993519292 -0.0414404057281 0.933 2.34874900631e-38
0.020720202864 -0.0414404057281 0.933 2.34864152672e-38
0.0224950040919 -0.0415292383234 0.935 2.3487494267e-38
0.024225389022 -0.0415292383234 0.935 2.34874900631e-38
0.0259557739521 -0.0415292383234 0.935 2.34878684137e-38
0.0276861588823 -0.0415292383234 0.935 2.34878487955e-38
0.029510928445 -0.0416624872164 0.938 2.34914347183e-38
0.0312468654123 -0.0416624872164 0.938 2.34918116676e-38
0.0329828023797 -0.0416624872164 0.938 2.349144733e-38
0.0347927665098 -0.0417513198118 0.94 2.34914543364e-38
0.0365324048353 -0.0417513198118 0.94 2.34928962726e-38
0.0383941879794 -0.0418845687048 0.943 2.34950752917e-38
0.0402670751979 -0.0420178175978 0.946 2.34957381059e-38
0.0420178175978 -0.0420178175978 0.946 2.34928822596e-38
0.0438610939512 -0.0421066501932 0.948 2.34965018135e-38
0.0457598906767 -0.0422398990862 0.951 2.34986696222e-38
0.0476697914766 -0.0423731479792 0.954 2.35001045519e-38
0.0494353393091 -0.0423731479792 0.954 2.3503715698e-38
-0.0230724159616 -0.0408204282397 0.959 2.34971856472e-38
-0.0212976147338 -0.0408204282397 0.959 2.34993870871e-38
-0.0194617410967 -0.0406927313839 0.956 1.90599264157e-38
-0.0176924919061 -0.0406927313839 0.956 1.91503213771e-38
-0.0158899304922 -0.0406076001467 0.954 2.02588423493e-38
-0.0140355500644 -0.0403522064351 0.948 2.0811675613e-38
-0.0122811063063 -0.0403522064351 0.948 1.98922024152e-38
-0.0105044543995 -0.0402670751979 0.946 2.03517568453e-38
-0.00875371199954 -0.0402670751979 0.946 2.03532057879e-38
-0.0069807614508 -0.0401393783421 0.943 2.09992520241e-38
-0.0052355710881 -0.0401393783421 0.943 2.11807944441e-38
-0.00347927665098 -0.0400116814863 0.94 2.1548499365e-38
-0.00173593696735 -0.0399265502491 0.938 2.20084069223e-38
0.0 -0.0399265502491 0.938 2.21945946467e-38
0.00173593696735 -0.0399265502491 0.938 2.24708087909e-38
0.00346076986028 -0.0397988533933 0.935 2.33920448221e-38
0.00519115479043 -0.0397988533933 0.935 2.30221875067e-38
0.00692153972057 -0.0397988533933 0.935 2.34846089934e-38
0.00865192465071 -0.0397988533933 0.935 2.32987771989e-38
0.0103823095809 -0.0397988533933 0.935 2.34871355346e-38
0.012112694511 -0.0397988533933 0.935 2.31172501932e-38
0.0138430794411 -0.0397988533933 0.935 2.34907256612e-38
0.0155734643713 -0.0397988533933 0.935 2.34853208531e-38
0.0173038493014 -0.0397988533933 0.935 2.34856795855e-38
0.0190342342316 -0.0397988533933 0.935 2.34856893946e-38
0.0207646191617 -0.0397988533933 0.935 2.34864208724e-38
0.0224950040919 -0.0397988533933 0.935 2.34871285281e-38
0.024225389022 -0.0397988533933 0.935 2.34871355346e-38
0.0259557739521 -0.0397988533933 0.935 2.34889446109e-38
0.0276861588823 -0.0397988533933 0.935 2.34907018392e-38
0.029510928445 -0.0399265502491 0.938 2.3490348712e-38
0.0312468654123 -0.0399265502491 0.938 2.34903613236e-38
0.0329828023797 -0.0399265502491 0.938 2.34903683301e-38
0.0347927665098 -0.0400116814863 0.94 2.34910731833e-38
0.0365324048353 -0.0400116814863 0.94 2.34939654633e-38
0.038516332798 -0.0402670751979 0.946 2.34932620115e-38
0.0402670751979 -0.0402670751979 0.946 2.34935955205e-38
0.0420178175978 -0.0402670751979 0.946 2.34993702715e-38
0.0438610939512 -0.0403522064351 0.948 2.34921633935e-38
0.0457598906767 -0.0404799032909 0.951 2.34972276861e-38
0.0476697914766 -0.0406076001467 0.954 2.35033485578e-38
0.0494353393091 -0.0406076001467 0.954 2.34997360104e-38
-0.0230724159616 -0.0390456270119 0.959 2.34936221452e-38
-0.0212976147338 -0.0390456270119 0.959 2.35000933415e-38
-0.0194617410967 -0.0389234821933 0.956 1.79521341187e-38
-0.0176924919061 -0.0389234821933 0.956 1.93357874327e-38
-0.0158899304922 -0.0388420523143 0.954 1.97985844674e-38
-0.0140799663621 -0.0387199074957 0.951 1.99822526572e-38
-0.0122811063063 -0.0385977626771 0.948 2.0260249253e-38
-0.0105044543995 -0.038516332798 0.946 2.02588395468e-38
-0.00875371199954 -0.038516332798 0.946 2.01680886556e-38
-0.0069807614508 -0.0383941879794 0.943 2.14581044037e-38
-0.0052355710881 -0.0383941879794 0.943 2.14577484739e-38
-0.00347927665098 -0.0382720431608 0.94 2.21960043529e-38
-0.00173593696735 -0.0381906132817 0.938 2.16406949949e-38
0.0 -0.0381906132817 0.938 2.15474133587e-38
0.00173593696735 -0.0381906132817 0.938 2.34860158971e-38
0.00346076986028 -0.0380684684631 0.935 2.19183440687e-38
0.00519115479043 -0.0380684684631 0.935 2.34860411205e-38
0.00692153972057 -0.0380684684631 0.935 2.28406829218e-38
0.00865192465071 -0.0380684684631 0.935 2.29310806858e-38
0.0103823095809 -0.0380684684631 0.935 2.34849761336e-38
0.012112694511 -0.0380684684631 0.935 2.34856389478e-38
0.0138430794411 -0.0380684684631 0.935 2.34878291773e-38
0.0155734643713 -0.0380684684631 0.935 2.33938412867e-38
0.0173038493014 -0.0380684684631 0.935 2.34903627249e-38
0.0190342342316 -0.0380684684631 0.935 2.34860565348e-38
0.0207646191617 -0.0380684684631 0.935 2.34878740189e-38
0.0224950040919 -0.0380684684631 0.935 2.3486771197e-38
0.024225389022 -0.0380684684631 0.935 2.34885718655e-38
0.0259557739521 -0.0380684684631 0.935 2.348823135e-38
0.0277749914776 -0.0381906132817 0.938 2.3489649464e-38
0.029510928445 -0.0381906132817 0.938 2.3492156387e-38
0.0312468654123 -0.0381906132817 0.938 2.34939584568e-38
0.0329828023797 -0.0381906132817 0.938 2.34918074637e-38
0.0347927665098 -0.0382720431608 0.94 2.3491808865e-38
0.0366489976167 -0.0383941879794 0.943 2.34939668646e-38
0.038516332798 -0.038516332798 0.946 2.34943227944e-38
0.0402670751979 -0.038516332798 0.946 2.34936109348e-38
0.0420178175978 -0.038516332798 0.946 2.34957731383e-38
0.0439998948814 -0.0387199074957 0.951 2.3491818674e-38
0.0459042436441 -0.0388420523143 0.954 2.34964934057e-38
0.0476697914766 -0.0388420523143 0.954 2.35029870228e-38
0.0496944343788 -0.0390456270119 0.959 2.35036932772e-38
-0.0212976147338 -0.0372708257841 0.959 2.35008066024e-38
-0.0194617410967 -0.0371542330027 0.956 1.82294566899e-38
-0.0176924919061 -0.0371542330027 0.956 2.01662515533e-38
-0.0158899304922 -0.0370765044818 0.954 2.00755174778e-38
-0.0140799663621 -0.0369599117004 0.951 1.95212773104e-38
-0.0122811063063 -0.036843318919 0.948 2.21938491559e-38
-0.0105266625483 -0.036843318919 0.948 2.07183687535e-38
-0.00875371199954 -0.0367655903981 0.946 2.09049152102e-38
-0.00700296959964 -0.0367655903981 0.946 2.22860672065e-38
-0.0052355710881 -0.0366489976167 0.943 2.10860792796e-38
-0.00347927665098 -0.0365324048353 0.94 2.18279154762e-38
-0.00173963832549 -0.0365324048353 0.94 2.19201615528e-38
0.0 -0.0364546763144 0.938 2.23789662882e-38
0.00173593696735 -0.0364546763144 0.938 2.24708087909e-38
0.0034718739347 -0.0364546763144 0.938 2.3208379435e-38
0.00519115479043 -0.036338083533 0.935 2.27463250884e-38
0.00692153972057 -0.036338083533 0.935 2.34860523309e-38
0.00865192465071 -0.036338083533 0.935 2.31161810025e-38
0.0103823095809 -0.036338083533 0.935 2.34864152672e-38
0.012112694511 -0.036338083533 0.935 2.34863928464e-38
0.0138430794411 -0.036338083533 0.935 2.33012925296e-38
0.0155734643713 -0.036338083533 0.935 2.34896368523e-38
0.0173038493014 -0.036338083533 0.935 2.34856893946e-38
0.0190342342316 -0.036338083533 0.935 2.34860537322e-38
0.0207646191617 -0.036338083533 0.935 2.34871243242e-38
0.0224950040919 -0.036338083533 0.935 2.34856964011e-38
0.0243031175429 -0.0364546763144 0.938 2.34896298458e-38
0.0260390545103 -0.0364546763144 0.938 2.34899745653e-38
0.0277749914776 -0.0364546763144 0.938 2.34914291131e-38
0.029510928445 -0.0364546763144 0.938 2.34892795212e-38
0.0312468654123 -0.0364546763144 0.938 2.34896592731e-38
0.0329828023797 -0.0364546763144 0.938 2.34925333363e-38
0.0347927665098 -0.0365324048353 0.94 2.3494673119e-38
0.0366489976167 -0.0366489976167 0.943 2.34946689151e-38
0.038516332798 -0.0367655903981 0.946 2.34936081322e-38
0.0403522064351 -0.036843318919 0.948 2.3497579412e-38
0.0421066501932 -0.036843318919 0.948 2.34961304694e-38
0.0441386958117 -0.0370765044818 0.954 2.34968367238e-38
0.0460004789557 -0.0371542330027 0.956 2.34997346091e-38
0.0477697281463 -0.0371542330027 0.956 2.35033331435e-38
0.0496944343788 -0.0372708257841 0.959 2.35015450867e-38
-0.0212976147338 -0.0354960245563 0.959 2.34990087365e-38
-0.0194617410967 -0.0353849838121 0.956 1.75833544018e-38
-0.0176924919061 -0.0353849838121 0.956 1.97017183098e-38
-0.0158899304922 -0.0353109566493 0.954 1.98889864353e-38
-0.0140799663621 -0.0351999159051 0.951 2.00726490198e-38
-0.0122811063063 -0.035088875161 0.948 2.06239927032e-38
-0.0105266625483 -0.035088875161 0.948 2.10857233498e-38
-0.00877221879024 -0.035088875161 0.948 2.01673655856e-38
-0.00700296959964 -0.0350148479982 0.946 2.14552303405e-38
-0.00525222719973 -0.0350148479982 0.946 2.23778970975e-38
-0.0034903807254 -0.034903807254 0.943 2.13669821684e-38
-0.00173963832549 -0.0347927665098 0.94 2.15499286895e-38
0.0 -0.0347927665098 0.94 2.28388696416e-38
0.00173593696735 -0.034718739347 0.938 2.27484718777e-38
0.0034718739347 -0.034718739347 0.938 2.302398257e-38
0.00520781090205 -0.034718739347 0.938 2.28378158652e-38
0.00692153972057 -0.0346076986028 0.935 2.28388878585e-38
0.00865192465071 -0.0346076986028 0.935 2.33927426687e-38
0.0103823095809 -0.0346076986028 0.935 2.34856893946e-38
0.012112694511 -0.0346076986028 0.935 2.34867599866e-38
0.0138430794411 -0.0346076986028 0.935 2.3486757184e-38
0.0155734643713 -0.0346076986028 0.935 2.34860467257e-38
0.0173038493014 -0.0346076986028 0.935 2.34874956683e-38
0.0190342342316 -0.0346076986028 0.935 2.34882243435e-38
0.0207646191617 -0.0346076986028 0.935 2.34864082607e-38
0.0225671805756 -0.034718739347 0.938 2.34889334005e-38
0.0243031175429 -0.034718739347 0.938 2.34918004572e-38
0.0260390545103 -0.034718739347 0.938 2.34910521638e-38
0.0277749914776 -0.034718739347 0.938 2.34932381894e-38
0.029510928445 -0.034718739347 0.938 2.3491433317e-38
0.0312468654123 -0.034718739347 0.938 2.34896410562e-38
0.0330531281843 -0.0347927665098 0.94 2.3493269018e-38
0.034903807254 -0.034903807254 0.943 2.34946563034e-38
0.0367655903981 -0.0350148479982 0.946 2.34918018585e-38
0.0385977626771 -0.035088875161 0.948 2.34968451316e-38
0.0404799032909 -0.0351999159051 0.951 2.349433961e-38
0.0422398990862 -0.0351999159051 0.951 2.34958025656e-38
0.0441386958117 -0.0353109566493 0.954 2.34971982589e-38
0.0460004789557 -0.0353849838121 0.956 2.35004829025e-38
0.0477697281463 -0.0353849838121 0.956 2.35040660226e-38
0.0496944343788 -0.0354960245563 0.959 2.35022681567e-38
-0.0213642391803 -0.0338267120354 0.962 2.34986514054e-38
-0.019522813506 -0.0337212233285 0.959 1.9059204747e-38
-0.0176924919061 -0.0336157346215 0.956 2.02545263501e-38
-0.0159232427154 -0.0336157346215 0.956 1.98889864353e-38
-0.0141243826597 -0.0335454088169 0.954 2.02573976106e-38
-0.0123199705668 -0.0334399201099 0.951 2.20084013171e-38
-0.0105266625483 -0.0333344314029 0.948 2.09963793623e-38
-0.00877221879024 -0.0333344314029 0.948 2.05365054362e-38
-0.00700296959964 -0.0332641055983 0.946 2.14577484739e-38
-0.00525222719973 -0.0332641055983 0.946 2.18268518907e-38
-0.0034903807254 -0.0331586168913 0.943 2.16424802491e-38
-0.0017451903627 -0.0331586168913 0.943 2.18261638531e-38
0.0 -0.0330531281843 0.94 2.21935058378e-38
0.00173963832549 -0.0330531281843 0.94 2.2930011495e-38
0.0034718739347 -0.0329828023797 0.938 2.33920448221e-38
0.00520781090205 -0.0329828023797 0.938 2.32083766324e-38
0.00694374786941 -0.0329828023797 0.938 2.26541658923e-38
0.00867968483676 -0.0329828023797 0.938 2.34857034075e-38
0.0103823095809 -0.0328773136727 0.935 2.33002387532e-38
0.012112694511 -0.0328773136727 0.935 2.34846131973e-38
0.0138874957388 -0.0329828023797 0.938 2.34871257255e-38
0.0156234327062 -0.0329828023797 0.938 2.34864068594e-38
0.0173593696735 -0.0329828023797 0.938 2.3483541204e-38
0.0190953066409 -0.0329828023797 0.938 2.34882285474e-38
0.0208312436082 -0.0329828023797 0.938 2.34856978024e-38
0.0225671805756 -0.0329828023797 0.938 2.34892893303e-38
0.0243031175429 -0.0329828023797 0.938 2.34878473942e-38
0.0260390545103 -0.0329828023797 0.938 2.34896130303e-38
0.0277749914776 -0.0329828023797 0.938 2.34892683108e-38
0.0295738515333 -0.0330531281843 0.94 2.34910661768e-38
0.0313134898588 -0.0330531281843 0.94 2.34903599223e-38
0.0330531281843 -0.0330531281843 0.94 2.34943185905e-38
0.034903807254 -0.0331586168913 0.943 2.34939626607e-38
0.0367655903981 -0.0332641055983 0.946 2.34932493998e-38
0.0385977626771 -0.0333344314029 0.948 2.34957689344e-38
0.0404799032909 -0.0334399201099 0.951 2.34932451959e-38
0.0422398990862 -0.0334399201099 0.951 2.34964990109e-38
0.0442312297651 -0.0336157346215 0.956 2.3500086335e-38
0.0460004789557 -0.0336157346215 0.956 2.34975864185e-38
0.047919633151 -0.0337212233285 0.959 2.35051548315e-38
0.0496944343788 -0.0337212233285 0.959 2.35015562971e-38
-0.0213642391803 -0.0320463587704 0.962 2.3498292673e-38
-0.019522813506 -0.0319464221007 0.959 1.80446828757e-38
-0.0177480122781 -0.0319464221007 0.959 2.01626810448e-38
-0.0159732110503 -0.0319464221007 0.959 2.02574130249e-38
-0.0141539935248 -0.0318464854309 0.956 2.02577451326e-38
-0.0123588348273 -0.0317798609844 0.954 2.07184079898e-38
-0.0105599747715 -0.0316799243146 0.951 1.98886333081e-38
-0.00877221879024 -0.0315799876449 0.948 2.27449139809e-38
-0.00701777503219 -0.0315799876449 0.948 2.13637802015e-38
-0.00525222719973 -0.0315133631984 0.946 2.1825792509e-38
-0.00350148479982 -0.0315133631984 0.946 2.20105537116e-38
-0.0017451903627 -0.0314134265286 0.943 2.23789662882e-38
0.0 -0.0314134265286 0.943 2.30235747922e-38
0.00173963832549 -0.0313134898588 0.94 2.31165187154e-38
0.00347927665098 -0.0313134898588 0.94 2.31154172948e-38
0.00520781090205 -0.0312468654123 0.938 2.33005736635e-38
0.00694374786941 -0.0312468654123 0.938 2.29325128128e-38
0.00867968483676 -0.0312468654123 0.938 2.34846103947e-38
0.0104156218041 -0.0312468654123 0.938 2.34885690629e-38
0.0121515587715 -0.0312468654123 0.938 2.34874648397e-38
0.0138874957388 -0.0312468654123 0.938 2.34864110633e-38
0.0156234327062 -0.0312468654123 0.938 2.34899927821e-38
0.0173593696735 -0.0312468654123 0.938 2.34860677451e-38
0.0190953066409 -0.0312468654123 0.938 2.34903753366e-38
0.0208312436082 -0.0312468654123 0.938 2.34871089099e-38
0.0225671805756 -0.0312468654123 0.938 2.34885718655e-38
0.0243031175429 -0.0312468654123 0.938 2.3490358521e-38
0.0260945748824 -0.0313134898588 0.94 2.34899983873e-38
0.0278342132079 -0.0313134898588 0.94 2.34907144509e-38
0.0295738515333 -0.0313134898588 0.94 2.34914347183e-38
0.0313134898588 -0.0313134898588 0.94 2.34925095142e-38
0.0331586168913 -0.0314134265286 0.943 2.3491457139e-38
0.0350148479982 -0.0315133631984 0.946 2.3493269018e-38
0.036843318919 -0.0315799876449 0.948 2.34932479985e-38
0.0387199074957 -0.0316799243146 0.951 2.34964863992e-38
0.0404799032909 -0.0316799243146 0.951 2.34989933222e-38
0.0422398990862 -0.0316799243146 0.951 2.34972108705e-38
0.0442312297651 -0.0318464854309 0.956 2.34982800613e-38
0.0460004789557 -0.0318464854309 0.956 2.35004576791e-38
0.047919633151 -0.0319464221007 0.959 2.35076715636e-38
