# .PCD v0.7 - Point Cloud Data file format
VERSION 0.7
FIELDS x y z rgb
SIZE 4 4 4 4
TYPE F F F F
COUNT 1 1 1 1
WIDTH 859
HEIGHT 1
VIEWPOINT 0 0 0 1 0 0 0
POINTS 859
DATA ascii
0.0692376053545 -0.154679756643 0.796 2.12729914752e-38
0.070710745894 -0.154679756643 0.796 2.21927995833e-38
0.0721838864334 -0.154679756643 0.796 2.182473593e-38
0.0736570269729 -0.154679756643 0.796 2.20091313936e-38
0.0753189367775 -0.155068399248 0.798 2.23779097092e-38
0.0767957786751 -0.155068399248 0.798 2.28381549794e-38
0.0782726205727 -0.155068399248 0.798 2.3484625809e-38
0.0799493358098 -0.155457041852 0.8 2.34846089934e-38
0.0814298790655 -0.155457041852 0.8 2.34936599802e-38
0.0829104223213 -0.155457041852 0.8 2.3509100888e-38
0.0866062284234 -0.159537789201 0.821 2.35098561879e-38
0.0881256359396 -0.159537789201 0.821 2.35091092958e-38
0.0896450434558 -0.159537789201 0.821 2.35098393723e-38
0.091164450972 -0.159537789201 0.821 2.35098449775e-38
0.0383553237189 -0.159558146671 0.829 1.78617882028e-38
0.0397933013561 -0.159173205424 0.827 1.85989622794e-38
0.0413238129467 -0.159173205424 0.827 1.85982616302e-38
0.0428543245373 -0.159173205424 0.827 1.87855101375e-38
0.0443848361279 -0.159173205424 0.827 1.8600397209e-38
0.0459153477185 -0.159173205424 0.827 1.78617489664e-38
0.0468721487976 -0.157248499192 0.817 1.7861042712e-38
0.0481472666766 -0.156478616699 0.813 1.74000715692e-38
0.0495297239416 -0.156093675452 0.811 1.63880650286e-38
0.0507789323136 -0.155323792959 0.807 1.65731625428e-38
0.0522724303229 -0.155323792959 0.807 1.63884181558e-38
0.0536326794391 -0.154938851713 0.805 1.65721087663e-38
0.054985525839 -0.154553910466 0.803 1.75866334402e-38
0.0564012953273 -0.154361439843 0.802 1.7494788135e-38
0.0577411869737 -0.153976498597 0.8 1.86000440818e-38
0.0590736759039 -0.15359155735 0.798 1.93379804648e-38
0.0605505178015 -0.15359155735 0.798 1.98918703075e-38
0.0620273596991 -0.15359155735 0.798 2.00766188983e-38
0.0635042015967 -0.15359155735 0.798 2.02606570309e-38
0.0649810434943 -0.15359155735 0.798 2.1365928392e-38
0.0662913242756 -0.153206616104 0.796 2.12722880234e-38
0.0677644648151 -0.153206616104 0.796 2.05358019843e-38
0.0692376053545 -0.153206616104 0.796 2.20084307444e-38
0.070710745894 -0.153206616104 0.796 2.19180049545e-38
0.0721838864334 -0.153206616104 0.796 2.20105565142e-38
0.0736570269729 -0.153206616104 0.796 2.2102752144e-38
0.0753189367775 -0.15359155735 0.798 2.23771908431e-38
0.0767957786751 -0.15359155735 0.798 2.34846089934e-38
0.0782726205727 -0.15359155735 0.798 2.34828349496e-38
0.0799493358098 -0.153976498597 0.8 2.34849803375e-38
0.0819388158097 -0.154938851713 0.805 2.34997598324e-38
0.085294096963 -0.158403322931 0.823 2.35098617931e-38
0.0866062284234 -0.158018381685 0.821 2.35098365697e-38
0.0881256359396 -0.158018381685 0.821 2.35098351684e-38
0.0896450434558 -0.158018381685 0.821 2.35087561686e-38
0.0913865324604 -0.158403322931 0.823 2.35098365697e-38
0.0929096413347 -0.158403322931 0.823 2.35094652256e-38
0.0946622344137 -0.158788264178 0.825 2.35066093793e-38
0.0964222302089 -0.159173205424 0.827 2.34939752724e-38
0.0979527417995 -0.159173205424 0.827 2.35001115584e-38
0.0368211107702 -0.158023933722 0.829 1.72174571559e-38
0.0383553237189 -0.158023933722 0.829 1.77713778271e-38
0.0397933013561 -0.157642693834 0.827 1.82316104857e-38
0.0413238129467 -0.157642693834 0.827 1.8784428335e-38
0.0428543245373 -0.157642693834 0.827 1.90631676191e-38
0.0442774967419 -0.157261453945 0.825 1.78624944572e-38
0.0454711847418 -0.15611773428 0.819 1.87851766284e-38
0.0468721487976 -0.155736494392 0.817 1.81387057988e-38
0.0481472666766 -0.154974014615 0.813 1.81383554742e-38
0.0495297239416 -0.154592774727 0.811 1.73100241298e-38
0.0509047784904 -0.154211534838 0.809 1.70334316351e-38
0.0522724303229 -0.15383029495 0.807 1.74025756895e-38
0.0536326794391 -0.153449055062 0.805 1.77706491519e-38
0.0551224760902 -0.153449055062 0.805 1.73110961232e-38
0.0564012953273 -0.152877195229 0.802 1.83245516063e-38
0.0578855399412 -0.152877195229 0.802 1.97982369454e-38
0.0592217302295 -0.152495955341 0.8 1.94301732921e-38
0.0607022734852 -0.152495955341 0.8 1.97985998817e-38
0.0621828167409 -0.152495955341 0.8 2.00758930257e-38
0.0635042015967 -0.152114715453 0.798 2.09985779996e-38
0.0649810434943 -0.152114715453 0.798 2.03521267881e-38
0.0664578853919 -0.152114715453 0.798 2.08113126767e-38
0.0679347272895 -0.152114715453 0.798 2.18261638531e-38
0.0694115691871 -0.152114715453 0.798 2.12712160301e-38
0.0708884110847 -0.152114715453 0.798 2.22853637547e-38
0.0723652529823 -0.152114715453 0.798 2.12744390166e-38
0.0738420948799 -0.152114715453 0.798 2.23800649062e-38
0.0755077060426 -0.152495955341 0.8 2.21931681248e-38
0.0769882492983 -0.152495955341 0.8 2.3483916752e-38
0.0786649645354 -0.152877195229 0.802 2.29307205521e-38
0.0802491458191 -0.153067815173 0.803 2.34911278339e-38
0.0819388158097 -0.153449055062 0.805 2.35029898254e-38
0.0848795448514 -0.15611773428 0.819 2.35098673983e-38
0.0866062284234 -0.156498974169 0.821 2.35098365697e-38
0.0883403147117 -0.156880214057 0.823 2.35098673983e-38
0.089863423586 -0.156880214057 0.823 2.3509865997e-38
0.0913865324604 -0.156880214057 0.823 2.35098183528e-38
0.0929096413347 -0.156880214057 0.823 2.35098253593e-38
0.0946622344137 -0.157261453945 0.825 2.35080190856e-38
0.0961890446462 -0.157261453945 0.825 2.35029688059e-38
0.0979527417995 -0.157642693834 0.827 2.34965046161e-38
0.0994832533902 -0.157642693834 0.827 2.34957955591e-38
0.0337526848727 -0.156489720773 0.829 1.57448311984e-38
0.0352017665842 -0.156112182243 0.827 1.64705370484e-38
0.0367322781748 -0.156112182243 0.827 1.72189257167e-38
0.0382627897654 -0.156112182243 0.827 1.75869809622e-38
0.0397933013561 -0.156112182243 0.827 1.84152968923e-38
0.0413238129467 -0.156112182243 0.827 1.87847814623e-38
0.0426470484815 -0.155357105183 0.823 1.87862304049e-38
0.0440628179698 -0.154979566652 0.821 1.79568396789e-38
0.0454711847418 -0.154602028122 0.819 1.78649929724e-38
0.0468721487976 -0.154224489592 0.817 1.83227117014e-38
0.048265710137 -0.153846951062 0.815 1.73093080663e-38
0.0496518687602 -0.153469412532 0.813 1.74937175429e-38
0.0510306246671 -0.153091874001 0.811 1.76780835793e-38
0.0524019778577 -0.152714335471 0.809 1.7770996674e-38
0.0537659283321 -0.152336796941 0.807 1.79539459976e-38
0.0552594263413 -0.152336796941 0.807 1.73075200095e-38
0.0564716211319 -0.15158171988 0.803 1.88745009977e-38
0.0579577164249 -0.15158171988 0.803 1.88748513224e-38
0.059369784555 -0.151392950615 0.802 2.05350957299e-38
0.0608540291689 -0.151392950615 0.802 2.02595584129e-38
0.0623382737828 -0.151392950615 0.802 2.04436007493e-38
0.0636633599967 -0.151015412085 0.8 2.0629438149e-38
0.0651439032524 -0.151015412085 0.8 2.02606542283e-38
0.0667910076244 -0.151392950615 0.802 2.09960570636e-38
0.0681049897639 -0.151015412085 0.8 2.19169385663e-38
0.0695855330196 -0.151015412085 0.8 2.182473593e-38
0.0710660762754 -0.151015412085 0.8 2.2747774031e-38
0.0728186693543 -0.15158171988 0.803 2.12740858893e-38
0.0743047646473 -0.15158171988 0.803 2.14584841556e-38
0.0757908599402 -0.15158171988 0.803 2.34849803375e-38
0.0772769552332 -0.15158171988 0.803 2.34831824716e-38
0.0789592225075 -0.151959258411 0.805 2.34907452794e-38
0.0810486391772 -0.153091874001 0.811 2.35029716085e-38
0.0831602639957 -0.154224489592 0.817 2.35098645957e-38
0.0848795448514 -0.154602028122 0.819 2.35098463788e-38
0.0863952510095 -0.154602028122 0.819 2.35098617931e-38
0.0881256359396 -0.154979566652 0.821 2.35098463788e-38
0.0896450434558 -0.154979566652 0.821 2.35098267606e-38
0.091164450972 -0.154979566652 0.821 2.35091247101e-38
0.0929096413347 -0.155357105183 0.823 2.35098589905e-38
0.094432750209 -0.155357105183 0.823 2.35073016208e-38
0.0961890446462 -0.155734643713 0.825 2.35001255713e-38
0.0979527417995 -0.156112182243 0.827 2.34939808776e-38
0.0994832533902 -0.156112182243 0.827 2.3495424215e-38
0.0337526848727 -0.154955507824 0.829 8.73262298037e-39
0.0352017665842 -0.154581670652 0.827 1.66621337849e-38
0.0367322781748 -0.154581670652 0.827 1.72189201115e-38
0.038170255812 -0.15420783348 0.825 1.77724498205e-38
0.0396008307328 -0.153833996308 0.823 1.81401407284e-38
0.0411239396072 -0.153833996308 0.823 1.87833591443e-38
0.0425434104536 -0.153460159136 0.821 1.88755729911e-38
0.0440628179698 -0.153460159136 0.821 1.96138386792e-38
0.0454711847418 -0.153086321964 0.819 1.88766239649e-38
0.0468721487976 -0.152712484792 0.817 1.8508195974e-38
0.048265710137 -0.15233864762 0.815 1.80475891687e-38
0.0496518687602 -0.151964810448 0.813 1.91517843327e-38
0.0510306246671 -0.151590973276 0.811 1.82312573585e-38
0.0525315253926 -0.151590973276 0.811 1.79564627296e-38
0.0538991772251 -0.151217136104 0.809 1.84167192102e-38
0.0553963765925 -0.151217136104 0.809 1.87844311376e-38
0.0566122727412 -0.15046946176 0.805 1.94301508713e-38
0.0581020693923 -0.15046946176 0.805 1.97975012637e-38
0.0594438117178 -0.150095624588 0.803 1.90606663013e-38
0.0609299070108 -0.150095624588 0.803 2.06265626846e-38
0.0624160023037 -0.150095624588 0.803 2.0351407922e-38
0.0638225183967 -0.149908706001 0.802 2.08141937463e-38
0.0653067630106 -0.149908706001 0.802 2.0537236914e-38
0.0668742881826 -0.150095624588 0.803 2.13655234167e-38
0.0683603834755 -0.150095624588 0.803 2.19165826365e-38
0.0698464787685 -0.150095624588 0.803 2.2102752144e-38
0.0713325740614 -0.150095624588 0.803 2.09038586312e-38
0.0730000359032 -0.15046946176 0.805 2.32987771989e-38
0.0744898325543 -0.15046946176 0.805 2.25608408159e-38
0.0759796292053 -0.15046946176 0.805 2.34878319799e-38
0.0776618964797 -0.150843298932 0.807 2.34956932643e-38
0.0793515664703 -0.151217136104 0.809 2.350189401e-38
0.0810486391772 -0.151590973276 0.811 2.35098281619e-38
0.082956689298 -0.15233864762 0.815 2.35098253593e-38
0.0846722687956 -0.152712484792 0.817 2.35098267606e-38
0.0863952510095 -0.153086321964 0.819 2.35098589905e-38
0.0881256359396 -0.153460159136 0.821 2.35098183528e-38
0.0896450434558 -0.153460159136 0.821 2.35098449775e-38
0.091164450972 -0.153460159136 0.821 2.35098365697e-38
0.0926838584882 -0.153460159136 0.821 2.35073100286e-38
0.094432750209 -0.153833996308 0.823 2.35069512962e-38
0.0961890446462 -0.15420783348 0.825 2.35069330793e-38
0.0979527417995 -0.154581670652 0.827 2.34940032984e-38
0.0994832533902 -0.154581670652 0.827 2.34946997437e-38
0.101013764981 -0.154581670652 0.827 2.35004702908e-38
0.0291500460264 -0.153421294876 0.829 2.34925361389e-38
0.0306842589751 -0.153421294876 0.829 2.34989975261e-38
0.0322184719239 -0.153421294876 0.829 2.34982898704e-38
0.0337526848727 -0.153421294876 0.829 1.02916740206e-38
0.0352017665842 -0.153051159062 0.827 1.62958946221e-38
0.0367322781748 -0.153051159062 0.827 1.71260112207e-38
0.038170255812 -0.152681023248 0.825 1.77720938907e-38
0.0396008307328 -0.152310887434 0.823 1.7863197909e-38
0.0411239396072 -0.152310887434 0.823 1.99808303392e-38
0.0425434104536 -0.15194075162 0.821 1.86900494822e-38
0.0440628179698 -0.15194075162 0.821 1.99811764599e-38
0.0453601439976 -0.151200479992 0.817 1.85989622794e-38
0.0468721487976 -0.151200479992 0.817 1.92457666181e-38
0.048265710137 -0.150830344178 0.815 1.8416018561e-38
0.0496518687602 -0.150460208364 0.813 1.81372834809e-38
0.0510306246671 -0.15009007255 0.811 1.86911579093e-38
0.0525315253926 -0.15009007255 0.811 1.84160059493e-38
0.0540324261181 -0.15009007255 0.811 1.8507848452e-38
0.0553963765925 -0.149719936736 0.809 1.9153217861e-38
0.0567529243505 -0.149349800922 0.807 1.91524905871e-38
0.0581020693923 -0.148979665109 0.805 2.06272661364e-38
0.0595918660434 -0.148979665109 0.805 2.01669970441e-38
0.0609299070108 -0.148609529295 0.803 2.05361551115e-38
0.0624160023037 -0.148609529295 0.803 2.14591974165e-38
0.0639020975967 -0.148609529295 0.803 2.11833097748e-38
0.0653881928896 -0.148609529295 0.803 2.11808182662e-38
0.0668742881826 -0.148609529295 0.803 2.19169385663e-38
0.0683603834755 -0.148609529295 0.803 2.19165826365e-38
0.070020442601 -0.148979665109 0.805 2.2930011495e-38
0.0715102392521 -0.148979665109 0.805 2.32983848353e-38
0.073181402452 -0.149349800922 0.807 2.34835398027e-38
0.0746749004612 -0.149349800922 0.807 2.34903641262e-38
0.0761683984705 -0.149349800922 0.807 2.34964709849e-38
0.0778543671029 -0.149719936736 0.809 2.35026100735e-38
0.0793515664703 -0.149719936736 0.809 2.35048171186e-38
0.0810486391772 -0.15009007255 0.811 2.35098295632e-38
0.082956689298 -0.150830344178 0.815 2.35087407543e-38
0.0846722687956 -0.151200479992 0.817 2.3509114901e-38
0.0863952510095 -0.151570615806 0.819 2.35094778373e-38
0.0881256359396 -0.15194075162 0.821 2.35098365697e-38
0.0896450434558 -0.15194075162 0.821 2.35073184364e-38
0.091164450972 -0.15194075162 0.821 2.3509837971e-38
0.0926838584882 -0.15194075162 0.821 2.35058652899e-38
0.094432750209 -0.152310887434 0.823 2.35080092765e-38
0.0961890446462 -0.152681023248 0.825 2.35026100735e-38
0.0977158548786 -0.152681023248 0.825 2.34997612337e-38
0.0992426651111 -0.152681023248 0.825 2.34871509489e-38
0.0291500460264 -0.151887081927 0.829 2.3496161298e-38
0.0306842589751 -0.151887081927 0.829 2.34968493355e-38
0.0322184719239 -0.151887081927 0.829 2.210888843e-38
0.0337526848727 -0.151887081927 0.829 1.19508184089e-38
0.0352017665842 -0.151520647471 0.827 1.6754720377e-38
0.0367322781748 -0.151520647471 0.827 1.71267300868e-38
0.038170255812 -0.151154213015 0.825 1.74965860009e-38
0.0396008307328 -0.15078777856 0.823 1.79561152076e-38
0.0410240029374 -0.150421344104 0.821 1.89666742068e-38
0.0424397724257 -0.150054909648 0.819 1.9151062664e-38
0.0438481391977 -0.149688475192 0.817 2.00729867327e-38
0.0452491032535 -0.149322040736 0.815 1.96127442651e-38
0.0467574066952 -0.149322040736 0.815 1.98911332245e-38
0.048265710137 -0.149322040736 0.815 1.93383307894e-38
0.0496518687602 -0.148955606281 0.813 1.97975012637e-38
0.0511564708438 -0.148955606281 0.813 1.97978543909e-38
0.0525315253926 -0.148589171825 0.811 1.94297977441e-38
0.0540324261181 -0.148589171825 0.811 2.02588423493e-38
0.0555333268436 -0.148589171825 0.811 1.94287257508e-38
0.0568935759598 -0.148222737369 0.809 1.95216402467e-38
0.0582464223598 -0.147856302913 0.807 2.04450132581e-38
0.0595918660434 -0.147489868457 0.805 1.96127470677e-38
0.0610816626945 -0.147489868457 0.805 2.03514107246e-38
0.0625714593456 -0.147489868457 0.805 2.16417936129e-38
0.0640612559967 -0.147489868457 0.805 2.1643569058e-38
0.0655510526477 -0.147489868457 0.805 2.21931527105e-38
0.0670408492988 -0.147489868457 0.805 2.30211281251e-38
0.0685306459499 -0.147489868457 0.805 2.34856683751e-38
0.070020442601 -0.147489868457 0.805 2.34885158136e-38
0.0716879044428 -0.147856302913 0.807 2.34939850815e-38
0.073181402452 -0.147856302913 0.807 2.34954256163e-38
0.0748599683682 -0.148222737369 0.809 2.34989989274e-38
0.0765459370007 -0.148589171825 0.811 2.35004660869e-38
0.0780468377262 -0.148589171825 0.811 2.35054953471e-38
0.0795477384517 -0.148589171825 0.811 2.35080246908e-38
0.0812485125167 -0.148955606281 0.813 2.35090980854e-38
0.082956689298 -0.149322040736 0.815 2.35098351684e-38
0.0844649927398 -0.149322040736 0.815 2.35098603918e-38
0.0861842735955 -0.149688475192 0.817 2.3509114901e-38
0.0879109571675 -0.150054909648 0.819 2.35098253593e-38
0.0894266633256 -0.150054909648 0.819 2.35080260921e-38
0.0909423694836 -0.150054909648 0.819 2.35083371803e-38
0.0926838584882 -0.150421344104 0.821 2.35087239387e-38
0.094432750209 -0.15078777856 0.823 2.35044275576e-38
0.0959558590834 -0.15078777856 0.823 2.35036904746e-38
0.0974789679577 -0.15078777856 0.823 2.34990451702e-38
0.0990020768321 -0.15078777856 0.823 2.34903543172e-38
0.0276824575241 -0.150715602076 0.831 2.34939668646e-38
0.0291500460264 -0.150352868978 0.829 2.3497940947e-38
0.0306842589751 -0.150352868978 0.829 2.34975878198e-38
0.0322184719239 -0.150352868978 0.829 1.92475812996e-38
0.0337526848727 -0.150352868978 0.829 1.50832992129e-38
0.0352017665842 -0.149990135881 0.827 1.67565168416e-38
0.0367322781748 -0.149990135881 0.827 1.69416143558e-38
0.038170255812 -0.149627402783 0.825 1.76806017126e-38
0.0396008307328 -0.149264669685 0.823 1.85103679866e-38
0.0410240029374 -0.148901936588 0.821 1.86933145076e-38
0.0424397724257 -0.14853920349 0.819 1.84156500195e-38
0.0438481391977 -0.148176470392 0.817 1.97049006586e-38
0.0452491032535 -0.147813737295 0.815 1.95191066991e-38
0.0467574066952 -0.147813737295 0.815 1.92436142236e-38
0.048265710137 -0.147813737295 0.815 1.96134757429e-38
0.0496518687602 -0.147451004197 0.813 1.96123939405e-38
0.0511564708438 -0.147451004197 0.813 1.96134757429e-38
0.0526610729275 -0.147451004197 0.813 1.87837248832e-38
0.0540324261181 -0.147088271099 0.811 2.04421728261e-38
0.0555333268436 -0.147088271099 0.811 2.04421546093e-38
0.0570342275691 -0.147088271099 0.811 2.02595458012e-38
0.0585351282946 -0.147088271099 0.811 2.13630164938e-38
0.059739920369 -0.146362804904 0.807 2.09042271727e-38
0.0612334183782 -0.146362804904 0.807 2.20098404506e-38
0.0627269163874 -0.146362804904 0.807 2.22849980158e-38
0.0642204143967 -0.146362804904 0.807 2.25633575479e-38
0.0657139124059 -0.146362804904 0.807 2.34838747131e-38
0.0672074104151 -0.146362804904 0.807 2.34885424382e-38
0.0687009084243 -0.146362804904 0.807 2.34878656111e-38
0.0701944064336 -0.146362804904 0.807 2.34889460122e-38
0.0718655696335 -0.146725538002 0.809 2.34914417248e-38
0.0735441355497 -0.147088271099 0.811 2.34968717563e-38
0.0750450362752 -0.147088271099 0.811 2.34972150744e-38
0.0765459370007 -0.147088271099 0.811 2.35022779658e-38
0.0780468377262 -0.147088271099 0.811 2.35004688895e-38
0.0795477384517 -0.147088271099 0.811 2.35091036906e-38
0.0812485125167 -0.147451004197 0.813 2.35062366339e-38
0.0827531146003 -0.147451004197 0.813 2.35098421749e-38
0.0844649927398 -0.147813737295 0.815 2.35098337671e-38
0.0859732961816 -0.147813737295 0.815 2.35098309645e-38
0.0876962783954 -0.148176470392 0.817 2.3509100888e-38
0.0892082831954 -0.148176470392 0.817 2.3509823958e-38
0.0909423694836 -0.14853920349 0.819 2.35058596847e-38
0.0926838584882 -0.148901936588 0.821 2.35087449582e-38
0.0942032660044 -0.148901936588 0.821 2.35048101121e-38
0.0957226735206 -0.148901936588 0.821 2.35025932579e-38
0.0974789679577 -0.149264669685 0.823 2.34972487056e-38
0.0990020768321 -0.149264669685 0.823 2.34864180698e-38
0.0260816201289 -0.148818656029 0.829 2.34936249478e-38
0.0276158330776 -0.148818656029 0.829 2.34950472657e-38
0.0291500460264 -0.148818656029 0.829 2.34950472657e-38
0.0306842589751 -0.148818656029 0.829 2.3500100348e-38
0.0322184719239 -0.148818656029 0.829 1.52813671456e-38
0.0337526848727 -0.148818656029 0.829 1.62868352275e-38
0.0352017665842 -0.14845962429 0.827 1.62980203919e-38
0.0367322781748 -0.14845962429 0.827 1.68486984585e-38
0.038170255812 -0.14810059255 0.825 1.76805862983e-38
0.0396008307328 -0.147741560811 0.823 1.84178038152e-38
0.0410240029374 -0.147382529071 0.821 1.84160059493e-38
0.0424397724257 -0.147023497332 0.819 1.97978571935e-38
0.0438481391977 -0.146664465592 0.817 1.93372335727e-38
0.0452491032535 -0.146305433853 0.815 1.98900528234e-38
0.0467574066952 -0.146305433853 0.815 2.04457321242e-38
0.048265710137 -0.146305433853 0.815 1.97071077037e-38
0.0496518687602 -0.145946402113 0.813 1.97042364431e-38
0.0511564708438 -0.145946402113 0.813 2.11825754944e-38
0.0526610729275 -0.145946402113 0.813 2.06297674542e-38
0.0541656750111 -0.145946402113 0.813 2.07208896894e-38
0.0555333268436 -0.145587370374 0.811 2.09971136427e-38
0.0570342275691 -0.145587370374 0.811 2.14559183781e-38
0.0585351282946 -0.145587370374 0.811 2.21002312081e-38
0.0598879746946 -0.145228338634 0.809 2.20101907753e-38
0.0612334183782 -0.144869306895 0.807 2.24708143961e-38
0.0627269163874 -0.144869306895 0.807 2.34838859234e-38
0.0642204143967 -0.144869306895 0.807 2.34860649426e-38
0.0657139124059 -0.144869306895 0.807 2.34878333812e-38
0.0672074104151 -0.144869306895 0.807 2.3486423675e-38
0.0687009084243 -0.144869306895 0.807 2.34928626414e-38
0.0701944064336 -0.144869306895 0.807 2.34914501326e-38
0.0718655696335 -0.145228338634 0.809 2.34954003929e-38
0.0735441355497 -0.145587370374 0.811 2.34979297366e-38
0.0750450362752 -0.145587370374 0.811 2.34986528067e-38
0.0765459370007 -0.145587370374 0.811 2.35008178128e-38
0.0782393083494 -0.145946402113 0.813 2.3504424755e-38
0.0797439104331 -0.145946402113 0.813 2.35069400858e-38
0.0812485125167 -0.145946402113 0.813 2.35098197541e-38
0.0827531146003 -0.145946402113 0.813 2.35076505441e-38
0.084257716684 -0.145946402113 0.813 2.35094386009e-38
0.0857623187676 -0.145946402113 0.813 2.35098015372e-38
0.0872669208513 -0.145946402113 0.813 2.35098085437e-38
0.0892082831954 -0.146664465592 0.817 2.3508016283e-38
0.0909423694836 -0.147023497332 0.819 2.35087337478e-38
0.0926838584882 -0.147382529071 0.821 2.35051436211e-38
0.0942032660044 -0.147382529071 0.821 2.35032728877e-38
0.0957226735206 -0.147382529071 0.821 2.35040506083e-38
0.0972420810368 -0.147382529071 0.821 2.34965284382e-38
0.098761488553 -0.147382529071 0.821 2.34849887453e-38
0.0260816201289 -0.147284443081 0.829 2.34928990752e-38
0.0276158330776 -0.147284443081 0.829 2.34925389415e-38
0.0291500460264 -0.147284443081 0.829 2.34929018778e-38
0.0306842589751 -0.147284443081 0.829 2.35029716085e-38
0.0322184719239 -0.147284443081 0.829 1.39909940664e-38
0.0337526848727 -0.147284443081 0.829 1.63779518576e-38
0.0352017665842 -0.146929112699 0.827 1.56515972064e-38
0.0366434455795 -0.146573782318 0.825 1.75869837648e-38
0.0380777218585 -0.146218451937 0.823 1.81401407284e-38
0.0395045954212 -0.145863121555 0.821 1.75880347387e-38
0.0409240662676 -0.145507791174 0.819 1.85067652482e-38
0.0423361343978 -0.145152460792 0.817 1.94283600119e-38
0.0438481391977 -0.145152460792 0.817 1.96131198131e-38
0.0452491032535 -0.144797130411 0.815 1.97989403973e-38
0.0467574066952 -0.144797130411 0.815 2.05379403658e-38
0.0481472666766 -0.14444180003 0.813 2.0630123384e-38
0.0496518687602 -0.14444180003 0.813 2.09971108401e-38
0.0511564708438 -0.14444180003 0.813 2.07223190138e-38
0.0526610729275 -0.14444180003 0.813 2.05361495063e-38
0.0541656750111 -0.14444180003 0.813 2.22857140793e-38
0.0555333268436 -0.144086469648 0.811 2.11807888389e-38
0.0570342275691 -0.144086469648 0.811 2.21949477739e-38
0.0585351282946 -0.144086469648 0.811 2.30246706076e-38
0.0600360290201 -0.144086469648 0.811 2.28388584312e-38
0.0613851740619 -0.143731139267 0.809 2.32991247209e-38
0.0628823734293 -0.143731139267 0.809 2.34867641905e-38
0.0642204143967 -0.143375808886 0.807 2.3488926394e-38
0.0657139124059 -0.143375808886 0.807 2.34864040568e-38
0.0672074104151 -0.143375808886 0.807 2.34889348018e-38
0.0687009084243 -0.143375808886 0.807 2.34918242792e-38
0.0701944064336 -0.143375808886 0.807 2.34925403428e-38
0.0718655696335 -0.143731139267 0.809 2.34979297366e-38
0.0735441355497 -0.144086469648 0.811 2.34982730548e-38
0.0750450362752 -0.144086469648 0.811 2.35025988631e-38
0.0765459370007 -0.144086469648 0.811 2.35047526589e-38
0.0780468377262 -0.144086469648 0.811 2.35044079395e-38
0.0797439104331 -0.14444180003 0.813 2.35080218882e-38
0.0812485125167 -0.14444180003 0.813 2.35094371996e-38
0.0827531146003 -0.14444180003 0.813 2.35094526139e-38
0.084257716684 -0.14444180003 0.813 2.35098029385e-38
0.0857623187676 -0.14444180003 0.813 2.35083834232e-38
0.0872669208513 -0.14444180003 0.813 2.3508377818e-38
0.0889899030651 -0.144797130411 0.815 2.35040688252e-38
0.0909423694836 -0.145507791174 0.819 2.35044205511e-38
0.0924580756417 -0.145507791174 0.819 2.35036946785e-38
0.0939737817998 -0.145507791174 0.819 2.35029744111e-38
0.0957226735206 -0.145863121555 0.821 2.35001101571e-38
0.0972420810368 -0.145863121555 0.821 2.34961556928e-38
0.098761488553 -0.145863121555 0.821 2.34875124839e-38
0.0260816201289 -0.145750230132 0.829 2.34968549407e-38
0.0276158330776 -0.145750230132 0.829 2.349040056e-38
0.0291500460264 -0.145750230132 0.829 2.349401591e-38
0.0306842589751 -0.145750230132 0.829 2.34993982974e-38
0.0322184719239 -0.145750230132 0.829 1.4634548794e-38
0.0337526848727 -0.145750230132 0.829 1.54610346282e-38
0.0352017665842 -0.145398601109 0.827 1.62991344242e-38
0.0366434455795 -0.145046972085 0.825 1.62969610103e-38
0.0380777218585 -0.144695343062 0.823 1.75837593771e-38
0.0395045954212 -0.144343714039 0.821 1.85078638662e-38
0.0409240662676 -0.143992085016 0.819 1.9244334491e-38
0.0423361343978 -0.143640455993 0.817 1.94280096873e-38
0.0437407998117 -0.143288826969 0.815 1.91535681856e-38
0.0452491032535 -0.143288826969 0.815 1.979858727e-38
0.0466426645929 -0.142937197946 0.813 1.99829533064e-38
0.0481472666766 -0.142937197946 0.813 2.09023970769e-38
0.0496518687602 -0.142937197946 0.813 2.10885777947e-38
0.0511564708438 -0.142937197946 0.813 2.11814978959e-38
0.0526610729275 -0.142937197946 0.813 2.25630100259e-38
0.0541656750111 -0.142937197946 0.813 2.20083887054e-38
0.0555333268436 -0.142585568923 0.811 2.23789690908e-38
0.0570342275691 -0.142585568923 0.811 2.32083766324e-38
0.0585351282946 -0.142585568923 0.811 2.30228895572e-38
0.0600360290201 -0.142585568923 0.811 2.34838789169e-38
0.0613851740619 -0.1422339399 0.809 2.34892823238e-38
0.0628823734293 -0.1422339399 0.809 2.34867838087e-38
0.0643795727966 -0.1422339399 0.809 2.34853460764e-38
0.065876772164 -0.1422339399 0.809 2.34889305979e-38
0.0673739715314 -0.1422339399 0.809 2.34889362031e-38
0.0688711708987 -0.1422339399 0.809 2.34928724505e-38
0.0703683702661 -0.1422339399 0.809 2.34939654633e-38
0.0718655696335 -0.1422339399 0.809 2.34968451316e-38
0.0733627690008 -0.1422339399 0.809 2.34968297174e-38
0.0750450362752 -0.142585568923 0.811 2.3499363265e-38
0.0765459370007 -0.142585568923 0.811 2.34997332078e-38
0.0780468377262 -0.142585568923 0.811 2.35040562135e-38
0.0795477384517 -0.142585568923 0.811 2.35069344806e-38
0.0812485125167 -0.142937197946 0.813 2.35018926087e-38
0.0827531146003 -0.142937197946 0.813 2.35051464237e-38
0.084257716684 -0.142937197946 0.813 2.35094568178e-38
0.0857623187676 -0.142937197946 0.813 2.3506570143e-38
0.0872669208513 -0.142937197946 0.813 2.35040576148e-38
0.0889899030651 -0.143288826969 0.815 2.35033345448e-38
0.0907202879953 -0.143640455993 0.817 2.34997402143e-38
0.0924580756417 -0.143992085016 0.819 2.35022639528e-38
0.0939737817998 -0.143992085016 0.819 2.34989989274e-38
0.0954894879578 -0.143992085016 0.819 2.34953975903e-38
0.0972420810368 -0.144343714039 0.821 2.34958081708e-38
0.098761488553 -0.144343714039 0.821 2.34846272103e-38
0.100280896069 -0.144343714039 0.821 2.349795496e-38
0.0260816201289 -0.144216017183 0.829 2.34939752724e-38
0.0276158330776 -0.144216017183 0.829 2.34921816103e-38
0.0291500460264 -0.144216017183 0.829 2.3493630553e-38
0.0306842589751 -0.144216017183 0.829 2.35033499591e-38
0.0322184719239 -0.144216017183 0.829 1.37136742978e-38
0.0337526848727 -0.144216017183 0.829 1.60156699617e-38
0.0352017665842 -0.143868089518 0.827 1.6021821662e-38
0.0366434455795 -0.143520161853 0.825 1.69430590945e-38
0.0380777218585 -0.143172234188 0.823 1.73103898687e-38
0.0395045954212 -0.142824306523 0.821 1.76795353245e-38
0.0409240662676 -0.142476378858 0.819 1.87830032145e-38
0.0423361343978 -0.142128451193 0.817 1.94283726236e-38
0.0437407998117 -0.141780523527 0.815 1.91532150584e-38
0.0452491032535 -0.141780523527 0.815 2.04436063545e-38
0.0466426645929 -0.141432595862 0.813 2.05368893919e-38
0.0481472666766 -0.141432595862 0.813 2.04403567433e-38
0.0496518687602 -0.141432595862 0.813 2.10875058014e-38
0.0511564708438 -0.141432595862 0.813 2.16406977975e-38
0.0526610729275 -0.141432595862 0.813 2.3115812461e-38
0.0540324261181 -0.141084668197 0.811 2.21931330924e-38
0.0555333268436 -0.141084668197 0.811 2.3115464939e-38
0.0570342275691 -0.141084668197 0.811 2.30221819015e-38
0.0585351282946 -0.141084668197 0.811 2.34824523951e-38
0.0598879746946 -0.140736740532 0.809 2.34849705285e-38
0.0613851740619 -0.140736740532 0.809 2.34878515981e-38
0.0628823734293 -0.140736740532 0.809 2.34864026555e-38
0.0643795727966 -0.140736740532 0.809 2.34914515338e-38
0.065876772164 -0.140736740532 0.809 2.34906934314e-38
0.0673739715314 -0.140736740532 0.809 2.34943564256e-38
0.0688711708987 -0.140736740532 0.809 2.34921535844e-38
0.0703683702661 -0.140736740532 0.809 2.34936053296e-38
0.0718655696335 -0.140736740532 0.809 2.3492156387e-38
0.0733627690008 -0.140736740532 0.809 2.3497541577e-38
0.0750450362752 -0.141084668197 0.811 2.34986387937e-38
0.0765459370007 -0.141084668197 0.811 2.35001199661e-38
0.0780468377262 -0.141084668197 0.811 2.34986808326e-38
0.0795477384517 -0.141084668197 0.811 2.35015619023e-38
0.0810486391772 -0.141084668197 0.811 2.35047876913e-38
0.0827531146003 -0.141432595862 0.813 2.35022317229e-38
0.084257716684 -0.141432595862 0.813 2.3507237161e-38
0.0857623187676 -0.141432595862 0.813 2.35029449839e-38
0.0872669208513 -0.141432595862 0.813 2.35015422841e-38
0.0887715229349 -0.141432595862 0.813 2.35004590804e-38
0.0907202879953 -0.142128451193 0.817 2.35040520096e-38
0.0924580756417 -0.142476378858 0.819 2.34972136731e-38
0.0939737817998 -0.142476378858 0.819 2.34957731383e-38
0.0954894879578 -0.142476378858 0.819 2.34968507368e-38
0.0970051941159 -0.142476378858 0.819 2.34907452794e-38
0.0985209002739 -0.142476378858 0.819 2.34839083442e-38
0.100036606432 -0.142476378858 0.819 2.35004534752e-38
0.0260816201289 -0.142681804234 0.829 2.34939864828e-38
0.0276158330776 -0.142681804234 0.829 2.34947067502e-38
0.0291500460264 -0.142681804234 0.829 2.34950402592e-38
0.0306842589751 -0.142681804234 0.829 2.35051324108e-38
0.0322184719239 -0.142681804234 0.829 1.33452196821e-38
0.0337526848727 -0.142681804234 0.829 1.69361997385e-38
0.0352017665842 -0.142337577927 0.827 1.61121998077e-38
0.0366434455795 -0.141993351621 0.825 1.68508634646e-38
0.0380777218585 -0.141649125314 0.823 1.72203466333e-38
0.0395045954212 -0.141304899007 0.821 1.72196291685e-38
0.0408241295979 -0.140616446393 0.817 1.87844507558e-38
0.0423361343978 -0.140616446393 0.817 1.8600397209e-38
0.0437407998117 -0.140272220086 0.815 2.01662963949e-38
0.0452491032535 -0.140272220086 0.815 1.97071105063e-38
0.0466426645929 -0.139927993779 0.813 2.04439566791e-38
0.0481472666766 -0.139927993779 0.813 2.08120133259e-38
0.0496518687602 -0.139927993779 0.813 2.13651716908e-38
0.0511564708438 -0.139927993779 0.813 2.05361495063e-38
0.0526610729275 -0.139927993779 0.813 2.22878496582e-38
0.0540324261181 -0.139583767472 0.811 2.17332465546e-38
0.0555333268436 -0.139583767472 0.811 2.26544797832e-38
0.0570342275691 -0.139583767472 0.811 2.34846131973e-38
0.0585351282946 -0.139583767472 0.811 2.33009225868e-38
0.0598879746946 -0.139239541165 0.809 2.34863886425e-38
0.0613851740619 -0.139239541165 0.809 2.34838817195e-38
0.0628823734293 -0.139239541165 0.809 2.34853334648e-38
0.0643795727966 -0.139239541165 0.809 2.3487132732e-38
0.065876772164 -0.139239541165 0.809 2.34882117318e-38
0.0673739715314 -0.139239541165 0.809 2.34892837251e-38
0.0688711708987 -0.139239541165 0.809 2.34892963368e-38
0.0703683702661 -0.139239541165 0.809 2.34939934893e-38
0.0718655696335 -0.139239541165 0.809 2.34925235272e-38
0.0733627690008 -0.139239541165 0.809 2.34971898511e-38
0.0748599683682 -0.139239541165 0.809 2.34954158072e-38
0.0763571677356 -0.139239541165 0.809 2.3493240992e-38
0.0780468377262 -0.139583767472 0.811 2.34953975903e-38
0.0795477384517 -0.139583767472 0.811 2.34964849979e-38
0.0810486391772 -0.139583767472 0.811 2.34957731383e-38
0.0825495399027 -0.139583767472 0.811 2.34997262013e-38
0.0840504406282 -0.139583767472 0.811 2.34982954755e-38
0.0857623187676 -0.139927993779 0.813 2.34990213482e-38
0.0872669208513 -0.139927993779 0.813 2.34990297559e-38
0.0887715229349 -0.139927993779 0.813 2.34983122911e-38
0.0904982065069 -0.140272220086 0.815 2.34972248835e-38
0.0922322927952 -0.140616446393 0.817 2.34939724698e-38
0.0939737817998 -0.1409606727 0.819 2.35001017493e-38
0.0954894879578 -0.1409606727 0.819 2.34943424126e-38
0.0970051941159 -0.1409606727 0.819 2.34914613429e-38
0.0985209002739 -0.1409606727 0.819 2.34838929299e-38
0.100036606432 -0.1409606727 0.819 2.35008122076e-38
0.0260816201289 -0.141147591286 0.829 2.34982856665e-38
0.0276158330776 -0.141147591286 0.829 2.34911250313e-38
0.0291500460264 -0.141147591286 0.829 2.34957689344e-38
0.0306842589751 -0.141147591286 0.829 2.350044787e-38
0.0322184719239 -0.141147591286 0.829 1.40810092759e-38
0.0336712549936 -0.140807066337 0.827 1.77670338019e-38
0.0352017665842 -0.140807066337 0.827 1.62018969224e-38
0.0366434455795 -0.140466541388 0.825 1.73093234806e-38
0.0380777218585 -0.140126016439 0.823 1.74965860009e-38
0.0395045954212 -0.13978549149 0.821 1.79568606984e-38
0.0408241295979 -0.139104441593 0.817 1.84170947582e-38
0.0423361343978 -0.139104441593 0.817 1.87840752078e-38
0.0437407998117 -0.138763916644 0.815 1.94301732921e-38
0.0452491032535 -0.138763916644 0.815 1.91539367271e-38
0.0466426645929 -0.138423391695 0.813 2.08141671217e-38
0.0481472666766 -0.138423391695 0.813 1.99818799118e-38
0.0496518687602 -0.138423391695 0.813 2.12729494363e-38
0.0511564708438 -0.138423391695 0.813 2.23786159636e-38
0.0526610729275 -0.138423391695 0.813 2.1825792509e-38
0.0540324261181 -0.138082866746 0.811 2.21945722259e-38
0.0555333268436 -0.138082866746 0.811 2.24704458546e-38
0.0570342275691 -0.138082866746 0.811 2.33895407017e-38
0.0585351282946 -0.138082866746 0.811 2.29307149469e-38
0.0600360290201 -0.138082866746 0.811 2.34870991008e-38
0.0615369297456 -0.138082866746 0.811 2.34846075921e-38
0.0630378304711 -0.138082866746 0.811 2.34874886618e-38
0.0645387311966 -0.138082866746 0.811 2.34903599223e-38
0.065876772164 -0.137742341797 0.809 2.34896284445e-38
0.0673739715314 -0.137742341797 0.809 2.34860383179e-38
0.0688711708987 -0.137742341797 0.809 2.34882327513e-38
0.0703683702661 -0.137742341797 0.809 2.34882229422e-38
0.0718655696335 -0.137742341797 0.809 2.34943326035e-38
0.0733627690008 -0.137742341797 0.809 2.34928780557e-38
0.0748599683682 -0.137742341797 0.809 2.34950388579e-38
0.0763571677356 -0.137742341797 0.809 2.34961178577e-38
0.0780468377262 -0.138082866746 0.811 2.34961206603e-38
0.0795477384517 -0.138082866746 0.811 2.34957647305e-38
0.0810486391772 -0.138082866746 0.811 2.349755559e-38
0.0825495399027 -0.138082866746 0.811 2.34975359718e-38
0.0840504406282 -0.138082866746 0.811 2.34993912909e-38
0.0857623187676 -0.138423391695 0.813 2.3495771737e-38
0.0872669208513 -0.138423391695 0.813 2.34964835966e-38
0.0889899030651 -0.138763916644 0.815 2.34939514503e-38
0.0904982065069 -0.138763916644 0.815 2.35000919402e-38
0.0922322927952 -0.139104441593 0.817 2.34950332527e-38
0.0939737817998 -0.139444966542 0.819 2.34900081964e-38
0.0954894879578 -0.139444966542 0.819 2.34950570748e-38
0.0970051941159 -0.139444966542 0.819 2.3483179669e-38
0.0985209002739 -0.139444966542 0.819 2.34809782291e-38
0.100036606432 -0.139444966542 0.819 2.35004660869e-38
0.0260816201289 -0.139613378337 0.829 2.34910984066e-38
0.0276158330776 -0.139613378337 0.829 2.34910787885e-38
0.0291500460264 -0.139613378337 0.829 2.34964878005e-38
0.0306842589751 -0.139613378337 0.829 2.35015366789e-38
0.0322184719239 -0.139613378337 0.829 1.38026441386e-38
0.0336712549936 -0.139276554746 0.827 1.73989757538e-38
0.035116635347 -0.138939731156 0.825 1.71252797429e-38
0.0366434455795 -0.138939731156 0.825 1.71253021637e-38
0.037985187905 -0.138266083974 0.821 1.74958545231e-38
0.0395045954212 -0.138266083974 0.821 1.78642951257e-38
0.0409240662676 -0.137929260384 0.819 1.7772081279e-38
0.0423361343978 -0.137592436793 0.817 1.94294446169e-38
0.0438481391977 -0.137592436793 0.817 1.91539367271e-38
0.0452491032535 -0.137255613202 0.815 1.98911514414e-38
0.0466426645929 -0.136918789611 0.813 2.01662963949e-38
0.0481472666766 -0.136918789611 0.813 2.07198176961e-38
0.0496518687602 -0.136918789611 0.813 2.10882302727e-38
0.0510306246671 -0.136581966021 0.811 2.13637647872e-38
0.0525315253926 -0.136581966021 0.811 2.1825834548e-38
0.0540324261181 -0.136581966021 0.811 2.19193950426e-38
0.0555333268436 -0.136581966021 0.811 2.28381521768e-38
0.0570342275691 -0.136581966021 0.811 2.32040606331e-38
0.0585351282946 -0.136581966021 0.811 2.34842558662e-38
0.0598879746946 -0.13624514243 0.809 2.33920238026e-38
0.0613851740619 -0.13624514243 0.809 2.34857286309e-38
0.0630378304711 -0.136581966021 0.811 2.3487494267e-38
0.0645387311966 -0.136581966021 0.811 2.34903473107e-38
0.065876772164 -0.13624514243 0.809 2.3483888726e-38
0.0673739715314 -0.13624514243 0.809 2.3490348712e-38
0.0688711708987 -0.13624514243 0.809 2.34892907316e-38
0.0703683702661 -0.13624514243 0.809 2.34882201396e-38
0.0718655696335 -0.13624514243 0.809 2.34929186933e-38
0.0733627690008 -0.13624514243 0.809 2.34918158714e-38
0.0748599683682 -0.13624514243 0.809 2.34903641262e-38
0.0763571677356 -0.13624514243 0.809 2.34946829281e-38
0.0780468377262 -0.136581966021 0.811 2.34910984066e-38
0.0795477384517 -0.136581966021 0.811 2.34939878841e-38
0.0810486391772 -0.136581966021 0.811 2.34957591253e-38
0.0825495399027 -0.136581966021 0.811 2.34943157879e-38
0.0840504406282 -0.136581966021 0.811 2.34943087814e-38
0.0857623187676 -0.136918789611 0.813 2.3494687132e-38
0.0872669208513 -0.136918789611 0.813 2.34939626607e-38
0.0889899030651 -0.137255613202 0.815 2.34950472657e-38
0.0907202879953 -0.137592436793 0.817 2.34936053296e-38
0.0924580756417 -0.137929260384 0.819 2.34928808583e-38
0.0939737817998 -0.137929260384 0.819 2.34932451959e-38
0.0954894879578 -0.137929260384 0.819 2.34900544393e-38
0.0970051941159 -0.137929260384 0.819 2.3487466241e-38
0.098761488553 -0.138266083974 0.821 2.34839013377e-38
0.100280896069 -0.138266083974 0.821 2.3504814316e-38
0.0260816201289 -0.138079165388 0.829 2.34925459479e-38
0.0276158330776 -0.138079165388 0.829 2.34936221452e-38
0.0291500460264 -0.138079165388 0.829 2.34968745589e-38
0.0306842589751 -0.138079165388 0.829 2.35004646856e-38
0.0322184719239 -0.138079165388 0.829 1.33398471038e-38
0.0336712549936 -0.137746043156 0.827 1.77677652797e-38
0.035116635347 -0.137412920923 0.825 1.73093178754e-38
0.0365546129841 -0.137079798691 0.823 1.73100367415e-38
0.037985187905 -0.136746676458 0.821 1.74025911038e-38
0.0394083601096 -0.136413554225 0.819 1.77706519545e-38
0.0408241295979 -0.136080431993 0.817 1.85071421975e-38
0.0423361343978 -0.136080431993 0.817 1.82305384924e-38
0.0437407998117 -0.13574730976 0.815 1.89681217481e-38
0.0451380625093 -0.135414187528 0.813 1.88762764429e-38
0.0466426645929 -0.135414187528 0.813 2.05357991817e-38
0.0481472666766 -0.135414187528 0.813 2.01677187128e-38
0.0496518687602 -0.135414187528 0.813 2.08116601987e-38
0.0510306246671 -0.135081065295 0.811 2.09964073883e-38
0.0525315253926 -0.135081065295 0.811 2.21031178829e-38
0.0540324261181 -0.135081065295 0.811 2.2010536896e-38
0.0555333268436 -0.135081065295 0.811 2.23764649705e-38
0.0570342275691 -0.135081065295 0.811 2.33909756314e-38
0.0585351282946 -0.135081065295 0.811 2.34846061909e-38
0.0598879746946 -0.134747943063 0.809 2.30235930091e-38
0.0613851740619 -0.134747943063 0.809 2.34846159999e-38
0.0630378304711 -0.135081065295 0.811 2.3485311044e-38
0.0645387311966 -0.135081065295 0.811 2.34881865084e-38
0.065876772164 -0.134747943063 0.809 2.34878572033e-38
0.0673739715314 -0.134747943063 0.809 2.34914361196e-38
0.0688711708987 -0.134747943063 0.809 2.3490358521e-38
0.0703683702661 -0.134747943063 0.809 2.34932395907e-38
0.0718655696335 -0.134747943063 0.809 2.34935927179e-38
0.0733627690008 -0.134747943063 0.809 2.34910773872e-38
0.0748599683682 -0.134747943063 0.809 2.34928920687e-38
0.0763571677356 -0.134747943063 0.809 2.34928808583e-38
0.0778543671029 -0.134747943063 0.809 2.34936067309e-38
0.0795477384517 -0.135081065295 0.811 2.34925305337e-38
0.0810486391772 -0.135081065295 0.811 2.34896662796e-38
0.0825495399027 -0.135081065295 0.811 2.34928976739e-38
0.0840504406282 -0.135081065295 0.811 2.34957633292e-38
0.0857623187676 -0.135414187528 0.813 2.3494673119e-38
0.0872669208513 -0.135414187528 0.813 2.34935997244e-38
0.0887715229349 -0.135414187528 0.813 2.34928864635e-38
0.0907202879953 -0.136080431993 0.817 2.34925151194e-38
0.0924580756417 -0.136413554225 0.819 2.34914403235e-38
0.0939737817998 -0.136413554225 0.819 2.34900348211e-38
0.0954894879578 -0.136413554225 0.819 2.34878684137e-38
0.0970051941159 -0.136413554225 0.819 2.3390241351e-38
0.0985209002739 -0.136413554225 0.819 2.34914529351e-38
0.100036606432 -0.136413554225 0.819 2.35033737812e-38
0.0260816201289 -0.136544952439 0.829 2.34903851457e-38
0.0276158330776 -0.136544952439 0.829 2.34907438781e-38
0.0291500460264 -0.136544952439 0.829 2.34961514889e-38
0.0306842589751 -0.136544952439 0.829 2.3499025552e-38
0.0322184719239 -0.136544952439 0.829 1.49968741301e-38
0.0336712549936 -0.136215531565 0.827 1.79532425457e-38
0.035116635347 -0.135886110691 0.825 1.79543271508e-38
0.0365546129841 -0.135556689816 0.823 1.7772081279e-38
0.037985187905 -0.135227268942 0.821 1.74947713194e-38
0.0394083601096 -0.134897848067 0.819 1.79539459976e-38
0.0408241295979 -0.134568427193 0.817 1.85060617964e-38
0.0423361343978 -0.134568427193 0.817 1.89677686209e-38
0.0437407998117 -0.134239006319 0.815 1.91535709882e-38
0.0451380625093 -0.133909585444 0.813 1.98907828999e-38
0.0466426645929 -0.133909585444 0.813 1.97070936907e-38
0.0481472666766 -0.133909585444 0.813 1.93361769937e-38
0.0495297239416 -0.13358016457 0.811 2.08130881219e-38
0.0510306246671 -0.13358016457 0.811 2.07223218164e-38
0.0525315253926 -0.13358016457 0.811 2.08123664531e-38
0.0540324261181 -0.13358016457 0.811 2.19172650689e-38
0.0555333268436 -0.13358016457 0.811 2.17325403001e-38
0.0570342275691 -0.13358016457 0.811 2.31154593338e-38
0.0585351282946 -0.13358016457 0.811 2.28392381831e-38
0.0600360290201 -0.13358016457 0.811 2.29310708767e-38
0.0615369297456 -0.13358016457 0.811 2.34856781842e-38
0.0630378304711 -0.13358016457 0.811 2.34863984516e-38
0.0645387311966 -0.13358016457 0.811 2.34888927629e-38
0.065876772164 -0.133250743695 0.809 2.34863886425e-38
0.0673739715314 -0.133250743695 0.809 2.34874914644e-38
0.0688711708987 -0.133250743695 0.809 2.3487494267e-38
0.0703683702661 -0.133250743695 0.809 2.34885760694e-38
0.0718655696335 -0.133250743695 0.809 2.34903683301e-38
0.0733627690008 -0.133250743695 0.809 2.34932395907e-38
0.0748599683682 -0.133250743695 0.809 2.34900011899e-38
0.0763571677356 -0.133250743695 0.809 2.34914417248e-38
0.0778543671029 -0.133250743695 0.809 2.34907214573e-38
0.0795477384517 -0.13358016457 0.811 2.349144733e-38
0.0810486391772 -0.13358016457 0.811 2.34914417248e-38
0.0825495399027 -0.13358016457 0.811 2.34939598581e-38
0.0840504406282 -0.13358016457 0.811 2.3490734069e-38
0.0857623187676 -0.133909585444 0.813 2.34914935728e-38
0.0872669208513 -0.133909585444 0.813 2.34914375209e-38
0.0887715229349 -0.133909585444 0.813 2.34907228586e-38
0.0907202879953 -0.134568427193 0.817 2.34928766544e-38
0.0924580756417 -0.134897848067 0.819 2.34896550692e-38
0.0939737817998 -0.134897848067 0.819 2.34885830759e-38
0.0954894879578 -0.134897848067 0.819 2.34863998529e-38
0.0970051941159 -0.134897848067 0.819 2.22864049195e-38
0.0985209002739 -0.134897848067 0.819 2.34943410113e-38
0.0276158330776 -0.135010739491 0.829 2.34936375595e-38
0.0291500460264 -0.135010739491 0.829 2.34975808133e-38
0.0306102318124 -0.134685019974 0.827 2.34993716728e-38
0.032140743403 -0.134685019974 0.827 1.42589783848e-38
0.0336712549936 -0.134685019974 0.827 1.78613804249e-38
0.035116635347 -0.134359300458 0.825 1.77699274832e-38
0.0364657803888 -0.133707861426 0.821 1.86000440818e-38
0.037985187905 -0.133707861426 0.821 1.83241704531e-38
0.0394083601096 -0.133382141909 0.819 1.86007503362e-38
0.0408241295979 -0.133056422393 0.817 1.81372834809e-38
0.0423361343978 -0.133056422393 0.817 1.87823053679e-38
0.0437407998117 -0.132730702877 0.815 1.90599628495e-38
0.0451380625093 -0.132404983361 0.813 1.92461295544e-38
0.0466426645929 -0.132404983361 0.813 2.01688117256e-38
0.0481472666766 -0.132404983361 0.813 1.98907955116e-38
0.0495297239416 -0.132079263844 0.811 2.07223218164e-38
0.0510306246671 -0.132079263844 0.811 2.02613576801e-38
0.0525315253926 -0.132079263844 0.811 2.1458481353e-38
0.0540324261181 -0.132079263844 0.811 2.14595365307e-38
0.0555333268436 -0.132079263844 0.811 2.18247387326e-38
0.0570342275691 -0.132079263844 0.811 2.23761118432e-38
0.0585351282946 -0.132079263844 0.811 2.31158306779e-38
0.0600360290201 -0.132079263844 0.811 2.28388696416e-38
0.0615369297456 -0.132079263844 0.811 2.3483888726e-38
0.0630378304711 -0.132079263844 0.811 2.34853222544e-38
0.0645387311966 -0.132079263844 0.811 2.34864068594e-38
0.065876772164 -0.131753544328 0.809 2.34871201203e-38
0.0673739715314 -0.131753544328 0.809 2.34835299936e-38
0.0688711708987 -0.131753544328 0.809 2.34921802091e-38
0.0705423340987 -0.132079263844 0.811 2.30210958952e-38
0.0718655696335 -0.131753544328 0.809 2.3488940407e-38
0.0733627690008 -0.131753544328 0.809 2.3489649464e-38
0.0748599683682 -0.131753544328 0.809 2.3492156387e-38
0.0763571677356 -0.131753544328 0.809 2.34914319157e-38
0.0778543671029 -0.131753544328 0.809 2.34896550692e-38
0.0795477384517 -0.132079263844 0.811 2.34907298651e-38
0.0810486391772 -0.132079263844 0.811 2.34907200561e-38
0.0825495399027 -0.132079263844 0.811 2.34907046418e-38
0.0840504406282 -0.132079263844 0.811 2.34885466421e-38
0.0857623187676 -0.132404983361 0.813 2.34885774707e-38
0.0872669208513 -0.132404983361 0.813 2.34878656111e-38
0.0889899030651 -0.132730702877 0.815 2.34899787692e-38
0.0907202879953 -0.133056422393 0.817 2.34903571197e-38
0.0924580756417 -0.133382141909 0.819 2.34878600059e-38
0.0939737817998 -0.133382141909 0.819 2.34842614714e-38
0.0954894879578 -0.133382141909 0.819 2.34864250763e-38
0.0970051941159 -0.133382141909 0.819 2.30222099275e-38
0.0985209002739 -0.133382141909 0.819 2.35004506726e-38
0.0290797202217 -0.133154508384 0.827 2.35001073545e-38
0.0306102318124 -0.133154508384 0.827 2.27517369031e-38
0.032140743403 -0.133154508384 0.827 1.71169784508e-38
0.0335898251145 -0.132832490226 0.825 1.77706491519e-38
0.0350315041098 -0.132510472068 0.823 1.79546746728e-38
0.0364657803888 -0.132188453909 0.821 1.85074953247e-38
0.037985187905 -0.132188453909 0.821 1.84185226813e-38
0.0394083601096 -0.131866435751 0.819 1.77727973425e-38
0.0408241295979 -0.131544417593 0.817 1.88762736403e-38
0.0423361343978 -0.131544417593 0.817 1.87826584951e-38
0.0437407998117 -0.131222399435 0.815 1.92443723261e-38
0.0451380625093 -0.130900381277 0.813 1.95230793803e-38
0.0466426645929 -0.130900381277 0.813 1.92454106883e-38
0.0481472666766 -0.130900381277 0.813 2.04432532273e-38
0.0495297239416 -0.130578363119 0.811 2.01673655856e-38
0.0510306246671 -0.130578363119 0.811 2.09060236373e-38
0.0525315253926 -0.130578363119 0.811 2.1735398949e-38
0.0540324261181 -0.130578363119 0.811 2.0904562083e-38
0.0555333268436 -0.130578363119 0.811 2.20084461587e-38
0.0570342275691 -0.130578363119 0.811 2.24694018872e-38
0.0585351282946 -0.130578363119 0.811 2.27463250884e-38
0.0600360290201 -0.130578363119 0.811 2.28392409857e-38
0.0615369297456 -0.130578363119 0.811 2.32080235052e-38
0.0630378304711 -0.130578363119 0.811 2.32998730143e-38
0.0645387311966 -0.130578363119 0.811 2.34864152672e-38
0.065876772164 -0.130256344961 0.809 2.34867655918e-38
0.0673739715314 -0.130256344961 0.809 2.34842390507e-38
0.0688711708987 -0.130256344961 0.809 2.34856921972e-38
0.0703683702661 -0.130256344961 0.809 2.34899899796e-38
0.0718655696335 -0.130256344961 0.809 2.34889319992e-38
0.0733627690008 -0.130256344961 0.809 2.34885564512e-38
0.0748599683682 -0.130256344961 0.809 2.34896424575e-38
0.0763571677356 -0.130256344961 0.809 2.34842558662e-38
0.0778543671029 -0.130256344961 0.809 2.34903711327e-38
0.0795477384517 -0.130578363119 0.811 2.34853362674e-38
0.0810486391772 -0.130578363119 0.811 2.34882187383e-38
0.0825495399027 -0.130578363119 0.811 2.34892781199e-38
