# .PCD v0.7 - Point Cloud Data file format
VERSION 0.7
FIELDS x y z rgb
SIZE 4 4 4 4
TYPE F F F F
COUNT 1 1 1 1
WIDTH 835
HEIGHT 1
VIEWPOINT 0 0 0 1 0 0 0
POINTS 835
DATA ascii
0.0378278801841 -0.0337748930215 0.73 6.63734826717e-39
0.0391788759049 -0.0337748930215 0.73 1.77933936273e-38
-0.0958096554369 -0.0370876085562 0.835 2.35095212775e-38
-0.0942643384137 -0.0370876085562 0.835 2.350988001e-38
-0.0924969399022 -0.0369987759609 0.833 2.32343721202e-38
-0.0909553242371 -0.0369987759609 0.833 2.3418050119e-38
-0.0889843510279 -0.0368211107702 0.829 2.05542640916e-38
-0.0870281832513 -0.0366434455795 0.825 8.74962633593e-39
-0.085294096963 -0.0365546129841 0.823 1.23437761294e-38
-0.083567413391 -0.0364657803888 0.821 1.74145189563e-38
-0.0818481325353 -0.0363769477935 0.819 1.41865873061e-38
-0.0801362543958 -0.0362881151981 0.817 1.243414867e-38
-0.0784317789727 -0.0361992826028 0.815 1.55688000853e-38
-0.0765459370007 -0.0360216174121 0.811 1.33564749114e-38
-0.0744898325543 -0.035755119626 0.805 1.36341520112e-38
-0.0725466195311 -0.0355330381377 0.8 1.2712206923e-38
-0.0708884110847 -0.0354442055423 0.798 1.59397588213e-38
-0.0692376053545 -0.035355372947 0.796 1.1882065101e-38
-0.0677644648151 -0.035355372947 0.796 1.39089270219e-38
-0.0661247631593 -0.0352665403517 0.794 1.27085803625e-38
-0.0644924642199 -0.0351777077563 0.792 1.12320083486e-38
-0.0628675679967 -0.035088875161 0.79 1.26131449306e-38
-0.0611723459689 -0.0349556262679 0.787 1.27975389929e-38
-0.0594123501736 -0.0347779610773 0.783 1.27968215281e-38
-0.0577411869737 -0.0346447121842 0.78 1.23340455129e-38
-0.056153304332 -0.0345558795889 0.778 1.33510658993e-38
-0.0545728244065 -0.0344670469936 0.776 1.18816825465e-38
-0.0529997471972 -0.0343782143982 0.774 9.58218119384e-39
-0.0515006971508 -0.0343337981005 0.773 9.77017659322e-39
-0.0500701222299 -0.0343337981005 0.773 9.03513249025e-39
-0.0481990856905 -0.0340228840168 0.766 8.48303771089e-39
-0.0466593207045 -0.0339340514215 0.764 8.20716688481e-39
-0.0451269584349 -0.0338452188261 0.762 8.57415434093e-39
-0.0436593699326 -0.0338008025285 0.761 8.48303771089e-39
-0.0421399624164 -0.0337119699331 0.759 9.22095447571e-39
-0.0407352970025 -0.0337119699331 0.759 9.31206269796e-39
-0.0392269935607 -0.0336231373378 0.757 1.0414807518e-38
-0.0377260928352 -0.0335343047424 0.755 1.1150208952e-38
-0.0362807124818 -0.0334898884448 0.754 8.75347990671e-39
-0.0347002325563 -0.0333122232541 0.75 1.10594496531e-38
-0.0332678069564 -0.0332678069564 0.749 1.08765017308e-38
-0.031796517096 -0.0331789743611 0.747 9.40281358911e-39
-0.0303733448914 -0.0331345580634 0.746 1.10637768628e-38
-0.0289150097845 -0.033045725468 0.744 8.66670169671e-39
-0.0274640773939 -0.0329568928727 0.742 8.01954423083e-39
-0.0259853848173 -0.0328236439797 0.739 7.74044341179e-39
-0.024517796315 -0.0326903950867 0.736 9.39922766634e-39
-0.0231556965197 -0.0326903950867 0.736 1.06895881338e-38
-0.0217343749942 -0.0326015624913 0.734 7.1858164861e-39
-0.020348216371 -0.0325571461937 0.733 7.00325392087e-39
-0.018939849599 -0.0324683135983 0.731 6.54479951009e-39
-0.0175629443712 -0.0324238973006 0.73 8.66491083727e-39
-0.0162119486503 -0.0324238973006 0.73 9.39921365335e-39
-0.0148202379899 -0.0323350647053 0.728 9.30271323461e-39
-0.0134544368365 -0.0322906484076 0.727 7.36554702714e-39
-0.0120756809296 -0.0322018158123 0.725 7.92088300985e-39
-0.010704327739 -0.0321129832169 0.723 6.7270187572e-39
-0.00931446775765 -0.0319353180262 0.719 6.35931804016e-39
-0.00795051728331 -0.0318020691332 0.716 5.7135941026e-39
-0.00662543106942 -0.0318020691332 0.716 5.80579253506e-39
-0.0052781367067 -0.0316688202402 0.713 5.52956017399e-39
-0.00394749845561 -0.0315799876449 0.711 5.71502482834e-39
-0.00263166563707 -0.0315799876449 0.711 5.16255590228e-39
-0.00131398213947 -0.0315355713472 0.71 6.6376817762e-39
0.0 -0.0314467387519 0.708 6.82386529666e-39
0.00130843010226 -0.0314023224542 0.707 6.36396194327e-39
0.0026057561301 -0.0312690735612 0.704 6.82386529666e-39
0.00390308215794 -0.0312246572635 0.703 5.80936444485e-39
0.00520410954391 -0.0312246572635 0.703 4.60904300888e-39
0.0064866301392 -0.0311358246681 0.701 4.14699426753e-39
0.00777285209262 -0.0310914083705 0.7 4.88383343383e-39
0.00906832744139 -0.0310914083705 0.7 4.97602065591e-39
0.0103638027902 -0.0310914083705 0.7 4.42500207376e-39
0.0116592781389 -0.0310914083705 0.7 3.31900624132e-39
0.0129547534877 -0.0310914083705 0.7 8.84965662551e-39
0.0143113012458 -0.0312246572635 0.703 1.04155460023e-38
0.0156123286317 -0.0312246572635 0.703 9.49180585068e-39
0.0169855325014 -0.0313579061565 0.706 9.58437562724e-39
0.0184216594595 -0.0315799876449 0.711 9.58509729595e-39
0.019737492278 -0.0315799876449 0.711 1.00467915088e-38
0.0211125468268 -0.0316688202402 0.713 9.86382536959e-39
0.0225579271802 -0.0318464854309 0.717 9.40284722027e-39
0.0238848640732 -0.0318464854309 0.717 9.40284722027e-39
0.0253172896731 -0.0319797343239 0.72 9.40285002287e-39
0.0267608193474 -0.0321129832169 0.723 1.06928643696e-38
0.0284875029194 -0.0325571461937 0.733 1.06928615671e-38
0.0298440506775 -0.0325571461937 0.733 1.10619972137e-38
0.0312431640542 -0.0326015624913 0.734 1.13389386318e-38
0.0326903950867 -0.0326903950867 0.736 1.0139322049e-38
0.0340524948819 -0.0326903950867 0.736 1.07843411334e-38
0.0354145946772 -0.0326903950867 0.736 1.10616440865e-38
0.0364768844632 -0.0324238973006 0.73 1.04166488242e-38
0.0378278801841 -0.0324238973006 0.73 4.70053798951e-39
0.0391788759049 -0.0324238973006 0.73 2.22173559376e-38
-0.0942643384137 -0.035542291533 0.835 2.35098758061e-38
-0.0927190213905 -0.035542291533 0.835 2.29585040967e-38
-0.0909553242371 -0.0354571602958 0.833 2.31414674333e-38
-0.0891990298 -0.0353720290586 0.831 2.00943565343e-38
-0.0872391606652 -0.0352017665842 0.827 1.05009873735e-38
-0.0855013730188 -0.035116635347 0.825 1.19746390815e-38
-0.0837709880887 -0.0350315041098 0.823 1.48326811864e-38
-0.0818481325353 -0.0348612416354 0.819 1.46475626528e-38
-0.0801362543958 -0.0347761103982 0.817 1.3264262466e-38
-0.0786242495959 -0.0347761103982 0.817 1.48312350464e-38
-0.0767347062658 -0.0346058479238 0.813 1.48316021866e-38
-0.0750450362752 -0.0345207166866 0.811 1.08675642492e-38
-0.0730000359032 -0.034265322975 0.805 9.39244818437e-39
-0.0712437414661 -0.0341376261192 0.802 1.23430474542e-38
-0.0694115691871 -0.0339673636447 0.798 1.52011077761e-38
-0.0677644648151 -0.0338822324075 0.796 1.16969507713e-38
-0.0662913242756 -0.0338822324075 0.796 1.33561091725e-38
-0.064655323978 -0.0337971011703 0.794 1.33543113066e-38
-0.0628675679967 -0.0336268386959 0.79 1.24301970083e-38
-0.0613278030108 -0.0335842730773 0.789 1.22443666151e-38
-0.0595641058574 -0.0334140106029 0.785 1.25191556387e-38
-0.0578152141365 -0.0332437481285 0.781 1.19659818595e-38
-0.0562976572994 -0.0332011825099 0.78 1.21525227111e-38
-0.0545728244065 -0.0330309200355 0.776 1.17873233118e-38
-0.0531366974484 -0.0330309200355 0.776 1.13302968242e-38
-0.0515673215973 -0.0329457887983 0.774 9.76657245357e-39
-0.0500701222299 -0.0329032231797 0.773 9.21700281404e-39
-0.0486395473091 -0.0329032231797 0.773 8.48303490829e-39
-0.0467814655231 -0.0326052638495 0.766 8.76141405862e-39
-0.0452454018953 -0.0325201326123 0.764 8.66743177321e-39
-0.0437167409838 -0.0324350013751 0.762 8.9440186628e-39
-0.0422510031606 -0.0323924357565 0.761 8.66886249894e-39
-0.0408426363886 -0.0323924357565 0.761 8.94471931203e-39
-0.0393306315886 -0.0323073045192 0.759 1.01389366919e-38
-0.037826029505 -0.032222173282 0.757 9.67507887423e-39
-0.0363288301376 -0.0321370420448 0.755 1.23494696051e-38
-0.0348853004633 -0.0320944764262 0.754 1.11527242828e-38
-0.0333122232541 -0.0319242139518 0.75 8.01987633856e-39
-0.0318816483332 -0.0318816483332 0.749 8.57376618126e-39
-0.030414059831 -0.031796517096 0.747 7.83728014217e-39
-0.0289927383055 -0.0317539514774 0.746 1.06939181461e-38
-0.0274640773939 -0.031583689003 0.742 8.47980071143e-39
-0.0260557106219 -0.0315411233844 0.741 7.740796539e-39
-0.0245844207615 -0.0314134265286 0.738 1.00442299352e-38
-0.0231556965197 -0.0313282952914 0.736 1.11501921365e-38
-0.0217935967244 -0.0313282952914 0.736 8.29180951595e-39
-0.0203759765571 -0.0312431640542 0.734 7.46529845832e-39
-0.018991668613 -0.0312005984356 0.733 5.90156287731e-39
-0.0176351208549 -0.0312005984356 0.733 7.8351501685e-39
-0.0162341567992 -0.0311154671984 0.731 9.85804361212e-39
-0.0148609529295 -0.0310729015798 0.73 8.84064067119e-39
-0.0134729436272 -0.0309877703426 0.728 8.65590048815e-39
-0.0120756809296 -0.0308600734868 0.725 7.36663723734e-39
-0.0107339386041 -0.0308600734868 0.725 6.35715723793e-39
-0.00935333201812 -0.030732376631 0.722 6.54262469487e-39
-0.00798382950656 -0.0306046797751 0.719 6.26640354418e-39
-0.00663468446477 -0.0305195485379 0.717 6.17492958303e-39
-0.00530034485554 -0.0304769829193 0.716 5.89834269344e-39
-0.00396415456724 -0.0303918516821 0.714 5.53063637121e-39
-0.00263906835335 -0.0303492860635 0.713 4.88598302568e-39
-0.00131583281854 -0.0302641548263 0.711 4.88598022308e-39
0.0 -0.0302215892077 0.71 5.62497038253e-39
0.00131028078133 -0.0301364579705 0.708 7.10117385496e-39
0.00261315884638 -0.0300513267333 0.706 6.45508557981e-39
0.00390863419515 -0.0299661954961 0.704 5.80936724745e-39
0.00520410954391 -0.0299236298775 0.703 5.0700183556e-39
0.00650513692989 -0.0299236298775 0.703 4.51577678699e-39
0.00778395616704 -0.0298384986403 0.701 4.60832834666e-39
0.00906832744139 -0.0297959330217 0.7 4.42428601025e-39
0.0103638027902 -0.0297959330217 0.7 4.51719630233e-39
0.0116592781389 -0.0297959330217 0.7 3.59523019461e-39
0.0130102738598 -0.0299236298775 0.703 1.05084562943e-38
0.0143316587155 -0.0299661954961 0.704 1.0415544601e-38
0.0156789530783 -0.0300513267333 0.706 1.00460586297e-38
0.0171780031247 -0.0303918516821 0.714 9.76912281677e-39
0.0184993879804 -0.0303918516821 0.714 9.76948575307e-39
0.0198207728362 -0.0303918516821 0.714 9.58581055686e-39
0.0212013794222 -0.0304769829193 0.716 9.49432258272e-39
0.0227152349011 -0.030732376631 0.722 9.86310370088e-39
0.0240847374127 -0.0307749422496 0.723 9.49432258272e-39
0.0254931041847 -0.0308600734868 0.725 1.05084745112e-38
0.0271309551614 -0.0312005984356 0.733 1.09694512592e-38
0.0285263671799 -0.0312431640542 0.734 1.06006659372e-38
0.0299661954961 -0.0313282952914 0.736 1.03244293722e-38
0.0314134265286 -0.0314134265286 0.738 1.06935692228e-38
0.032912476575 -0.0315411233844 0.741 1.11534795827e-38
0.0342838297657 -0.0315411233844 0.741 1.01393276542e-38
0.0357033006121 -0.031583689003 0.742 1.08772570307e-38
0.0373263461562 -0.031796517096 0.747 1.06010442878e-38
0.0387088034212 -0.031796517096 0.747 5.25335583888e-39
0.0400912606863 -0.031796517096 0.747 2.31400325037e-38
-0.0944901212602 -0.0340784043889 0.837 2.35098786087e-38
-0.0927190213905 -0.0339969745099 0.835 2.3142536624e-38
-0.0911737043673 -0.0339969745099 0.835 2.27726863151e-38
-0.0894137085721 -0.0339155446308 0.833 2.12932528497e-38
-0.0874501380792 -0.0337526848727 0.829 1.1699883689e-38
-0.0857086490746 -0.0336712549936 0.827 9.11657735829e-39
-0.0839745627863 -0.0335898251145 0.825 1.28962212334e-38
-0.0820480058748 -0.0334269653564 0.821 1.64911235242e-38
-0.0803324263772 -0.0333455354773 0.819 1.34483005985e-38
-0.0786242495959 -0.0332641055983 0.817 1.55691560151e-38
-0.0769234755309 -0.0331826757192 0.815 1.40018387153e-38
-0.0752301041821 -0.0331012458401 0.813 1.48323280592e-38
-0.073181402452 -0.0328569562029 0.807 1.37263476411e-38
-0.0713325740614 -0.0326940964448 0.803 1.29873266531e-38
-0.0697594968522 -0.0326533815053 0.802 1.32639093388e-38
-0.0679347272895 -0.0324905217471 0.798 1.51092652734e-38
-0.0662913242756 -0.0324090918681 0.796 1.10530232984e-38
-0.064655323978 -0.032327661989 0.794 1.37249015011e-38
-0.0630267263967 -0.0322462321099 0.792 1.28007844002e-38
-0.0613278030108 -0.0321240872913 0.789 1.19681398592e-38
-0.0598676172248 -0.0321240872913 0.789 1.2979772253e-38
-0.0581113227877 -0.0319612275332 0.785 1.32570752061e-38
-0.0563698337831 -0.0317983677751 0.781 1.16911788229e-38
-0.054854127625 -0.0317576528356 0.78 1.24319696509e-38
-0.0532736476996 -0.0316762229565 0.778 1.22508139893e-38
-0.0517005704903 -0.0315947930774 0.776 1.10547931383e-38
-0.0501348959974 -0.0315133631984 0.774 9.85985408974e-39
-0.0486395473091 -0.0314726482588 0.773 9.5865027983e-39
-0.0470868275696 -0.0313912183798 0.771 8.66633595781e-39
-0.0453638453558 -0.0311876436821 0.766 9.03476815265e-39
-0.0438314830861 -0.031106213803 0.764 8.85181742774e-39
-0.0423065235327 -0.031024783924 0.762 8.11604464957e-39
-0.0408426363886 -0.0309840689844 0.761 8.48374116272e-39
-0.0393306315886 -0.0309026391054 0.759 1.02325742579e-38
-0.037826029505 -0.0308212092263 0.757 9.86055193638e-39
-0.0364250654493 -0.0308212092263 0.757 8.66200874815e-39
-0.0348853004633 -0.0306990644077 0.754 8.48049435417e-39
-0.0334010558494 -0.0306176345286 0.752 9.03510166168e-39
-0.0319242139518 -0.0305362046496 0.75 7.56104497849e-39
-0.03049548971 -0.03049548971 0.749 8.48300127713e-39
-0.0290316025659 -0.030414059831 0.747 7.74400831508e-39
-0.0276121317195 -0.0303733448914 0.746 8.11172304511e-39
-0.0260908735242 -0.0302104851333 0.742 7.92553672205e-39
-0.0246177329848 -0.0300883403147 0.739 1.04140816454e-38
-0.0232186196081 -0.0300476253752 0.738 9.21516010656e-39
-0.0217935967244 -0.0299661954961 0.736 9.95167977681e-39
-0.0203759765571 -0.029884765617 0.734 7.92589125056e-39
-0.0190175781199 -0.029884765617 0.734 7.00609014896e-39
-0.0176351208549 -0.0298440506775 0.733 7.28089458691e-39
-0.0162785730968 -0.0298440506775 0.733 7.09290199013e-39
-0.0148609529295 -0.0297219058589 0.73 1.08707395915e-38
-0.0134729436272 -0.0296404759799 0.728 1.23462340069e-38
-0.0121089931529 -0.0295997610403 0.727 8.47585325366e-39
-0.0107339386041 -0.0295183311613 0.725 7.83192017554e-39
-0.00936628677161 -0.0294369012822 0.723 6.90996387691e-39
-0.00801714172981 -0.0293961863427 0.722 5.80433798726e-39
-0.00665319125547 -0.0292740415241 0.719 6.35859917405e-39
-0.00530774757182 -0.029192611645 0.717 6.35932084276e-39
-0.00397525864165 -0.0291518967055 0.716 5.25369355181e-39
-0.00264276971149 -0.0290704668264 0.714 4.97782552833e-39
-0.00131953417668 -0.0290297518869 0.713 5.16329578787e-39
0.0 -0.0290297518869 0.713 4.05694262432e-39
0.00131583281854 -0.0289483220078 0.711 5.07144908133e-39
0.00262796427893 -0.0289076070683 0.71 7.09975013572e-39
0.00392529030677 -0.0287854622497 0.707 6.17671904117e-39
0.00522631769275 -0.0287447473101 0.706 4.79307974009e-39
0.00653289711594 -0.0287447473101 0.706 4.51649845569e-39
0.00783947653913 -0.0287447473101 0.706 4.51577678699e-39
0.00912014645534 -0.0286633174311 0.704 4.51648444271e-39
0.0104230245204 -0.0286633174311 0.704 4.51720050623e-39
0.0117592148087 -0.0287447473101 0.706 4.24096534255e-39
0.0130657942319 -0.0287447473101 0.706 1.13389386318e-38
0.0143927311248 -0.0287854622497 0.707 9.77017659322e-39
0.0159010345666 -0.0291518967055 0.716 9.40104655175e-39
0.0172501796084 -0.029192611645 0.717 9.58473015575e-39
0.0185771165014 -0.029192611645 0.717 9.86167858034e-39
0.0199040533943 -0.029192611645 0.717 9.67836071524e-39
0.0213198228826 -0.0293147564636 0.72 9.49431837883e-39
0.0227466964453 -0.0294369012822 0.723 9.77126119823e-39
0.0241513618592 -0.0295183311613 0.725 1.02318834177e-38
0.0257744074033 -0.0298440506775 0.733 1.03240818502e-38
0.0271679687428 -0.029884765617 0.734 9.95529933074e-39
0.0286040957008 -0.0299661954961 0.736 1.06006659372e-38
0.0300476253752 -0.0300476253752 0.738 1.0601021867e-38
0.0314559921472 -0.0300883403147 0.739 1.04166278047e-38
0.0329568928727 -0.0302104851333 0.742 1.06925014333e-38
0.0344226306959 -0.0302919150124 0.744 1.05084703073e-38
0.0359438888912 -0.030414059831 0.747 1.18914089592e-38
0.037426282826 -0.03049548971 0.749 9.771283619e-39
0.0388124414491 -0.03049548971 0.749 8.75678977368e-39
-0.0927190213905 -0.0324516574867 0.835 2.32343763241e-38
-0.0911737043673 -0.0324516574867 0.835 2.33258558904e-38
-0.0894137085721 -0.0323739289658 0.833 2.23074005743e-38
-0.0874501380792 -0.0322184719239 0.829 1.17924282421e-38
-0.0857086490746 -0.032140743403 0.827 1.17902534269e-38
-0.0839745627863 -0.0320630148821 0.825 1.09597626817e-38
-0.0820480058748 -0.0319075578402 0.821 1.19731845337e-38
-0.0803324263772 -0.0318298293193 0.819 1.20653703544e-38
-0.0788167202191 -0.0318298293193 0.819 1.44628084568e-38
-0.077112244796 -0.0317521007983 0.817 1.4555367023e-38
-0.0754151720891 -0.0316743722774 0.815 1.52936565332e-38
-0.073181402452 -0.0313634581937 0.807 1.44642616033e-38
-0.0713325740614 -0.0312080011519 0.803 1.59364965985e-38
-0.0697594968522 -0.0311691368914 0.802 1.50149004336e-38
-0.0682752522383 -0.0311691368914 0.802 1.43724191006e-38
-0.0666244465082 -0.0310914083705 0.8 1.37285000355e-38
-0.0648181837362 -0.0309359513286 0.796 1.14228932254e-38
-0.0631858847967 -0.0308582228077 0.794 1.16044034155e-38
-0.0614055315317 -0.0307027657658 0.79 1.19692216616e-38
-0.0598676172248 -0.0306639015054 0.789 1.2703901427e-38
-0.0581113227877 -0.0305084444635 0.785 1.26117029945e-38
-0.0565141867505 -0.0304307159426 0.783 1.18759302163e-38
-0.0549244534297 -0.0303529874217 0.781 1.28911499343e-38
-0.0534105979507 -0.0303141231612 0.78 1.21564617611e-38
-0.0518338193833 -0.0302363946403 0.778 1.19738753738e-38
-0.0502644435323 -0.0301586661194 0.776 1.04090720034e-38
-0.0487024703975 -0.0300809375984 0.774 9.58254693274e-39
-0.0472089723882 -0.030042073338 0.773 9.5854125881e-39
-0.0456599540069 -0.029964344817 0.771 9.586139862e-39
-0.0439462251884 -0.0297700235147 0.766 8.94257252278e-39
-0.0424175642769 -0.0296922949938 0.764 8.57630113018e-39
-0.0408963060816 -0.0296145664729 0.762 8.57593679258e-39
-0.0394342696166 -0.0295757022124 0.761 9.12658963582e-39
-0.0379259661748 -0.0294979736915 0.759 9.49321415564e-39
-0.0364250654493 -0.0294202451706 0.757 1.00463879348e-38
-0.03493156744 -0.0293425166496 0.755 9.49465609176e-39
-0.0334898884448 -0.0293036523892 0.754 8.38973225264e-39
-0.032009345189 -0.0292259238682 0.752 8.39080844986e-39
-0.0305362046496 -0.0291481953473 0.75 8.85071040196e-39
-0.0291093310869 -0.0291093310869 0.749 8.57376898385e-39
-0.0276491453009 -0.0290316025659 0.747 8.3883085334e-39
-0.0261611993289 -0.0289150097845 0.744 8.66345628947e-39
-0.0247176696545 -0.0288372812636 0.742 1.0507356275e-38
-0.0233130042406 -0.0287984170032 0.741 8.1095426247e-39
-0.0218824293198 -0.0287206884822 0.739 1.09676071505e-38
-0.0204870173013 -0.0286818242218 0.738 8.29323183389e-39
-0.0190693971339 -0.0286040957008 0.736 7.55603813908e-39
-0.0176591796828 -0.0285263671799 0.734 1.01367885013e-38
-0.0163007812457 -0.0285263671799 0.734 1.05048451482e-38
-0.0149220253388 -0.0284875029194 0.733 6.90778766039e-39
-0.0135284639993 -0.0284097743985 0.731 7.55424447705e-39
-0.0121589614877 -0.0283709101381 0.73 8.47799724031e-39
-0.0107783549018 -0.0282931816171 0.728 8.93789638981e-39
-0.00941810578556 -0.0282543173567 0.727 8.38472401193e-39
-0.00805045395307 -0.0281765888357 0.725 7.00251543658e-39
-0.00668095144151 -0.0280599960544 0.722 6.63517765585e-39
-0.00534476115321 -0.0280599960544 0.722 6.17420791432e-39
-0.00399746679049 -0.0279822675334 0.72 5.62247747256e-39
-0.00265387378591 -0.027865674752 0.717 5.25405788941e-39
-0.00132508621388 -0.0278268104916 0.716 5.62284321146e-39
0.0 -0.0277490819706 0.714 5.53172658141e-39
0.00131953417668 -0.0277102177102 0.713 4.51756904772e-39
0.00263166563707 -0.0276324891893 0.711 5.16221398546e-39
0.00393084234398 -0.0275158964079 0.708 5.34660804778e-39
0.00523372040903 -0.0274770321474 0.707 5.06967223487e-39
0.00654215051129 -0.0274770321474 0.707 5.06931770636e-39
0.00785058061354 -0.0274770321474 0.707 4.88528097515e-39
0.0091590107158 -0.0274770321474 0.707 4.97782552833e-39
0.0104674408181 -0.0274770321474 0.707 3.50377164774e-39
0.0117925270319 -0.0275158964079 0.708 5.16256571137e-39
0.0131028078133 -0.0275158964079 0.708 1.09698015839e-38
0.0145352334132 -0.0277490819706 0.714 9.67869982947e-39
0.0159232427154 -0.027865674752 0.717 9.58543500888e-39
0.0172982972642 -0.027943403273 0.719 1.0415206888e-38
0.0186548450223 -0.0279822675334 0.72 9.95422873872e-39
0.0199873339524 -0.0279822675334 0.72 9.3099299217e-39
0.0213790446128 -0.0280599960544 0.722 9.5868699385e-39
0.0228096195337 -0.0281765888357 0.725 1.01400437177e-38
0.024251298529 -0.0282931816171 0.728 1.05088262371e-38
0.0257744074033 -0.0284875029194 0.733 1.03240790476e-38
0.0271679687428 -0.0285263671799 0.734 9.86310089828e-39
0.0286040957008 -0.0286040957008 0.736 1.07850599995e-38
0.0300476253752 -0.0286818242218 0.738 1.07850571969e-38
0.0315411233844 -0.0287984170032 0.741 1.06006659372e-38
0.033045725468 -0.0289150097845 0.744 1.1153842519e-38
0.0345151646494 -0.0289927383055 0.746 1.07850571969e-38
0.0360401242028 -0.0291093310869 0.749 1.06935860384e-38
0.0374762511608 -0.0291481953473 0.75 9.49469672941e-39
0.0388642604631 -0.0291481953473 0.75 1.01397242216e-38
-0.0929411028789 -0.0309803676263 0.837 2.32343791267e-38
-0.0913920844976 -0.0309803676263 0.837 2.3418050119e-38
-0.0896283873442 -0.0309063404635 0.835 2.28609260794e-38
-0.088083070321 -0.0309063404635 0.835 1.17927799681e-38
-0.086330477242 -0.0308323133007 0.833 1.23434244035e-38
-0.084178137484 -0.0306102318124 0.827 1.15129364608e-38
-0.0824477525538 -0.0305362046496 0.825 1.42780766815e-38
-0.0805285983586 -0.030388150324 0.821 1.30795222829e-38
-0.0788167202191 -0.0303141231612 0.819 1.18809748908e-38
-0.077112244796 -0.0302400959984 0.817 1.43709729606e-38
-0.0756002399961 -0.0302400959984 0.817 1.04076426789e-38
-0.0739068686473 -0.0301660688356 0.815 1.25285051021e-38
-0.0715102392521 -0.0297959330217 0.805 1.20642773416e-38
-0.0698464787685 -0.0297219058589 0.803 1.56602698426e-38
-0.0682752522383 -0.0296848922775 0.802 1.30820404163e-38
-0.0666244465082 -0.0296108651147 0.8 1.36366617368e-38
-0.0651439032524 -0.0296108651147 0.8 1.26232342796e-38
-0.0633450431967 -0.0294628107892 0.796 1.1053387636e-38
-0.0617164456154 -0.0293887836264 0.794 1.28933359599e-38
-0.0599434950666 -0.0292407293008 0.79 1.28904534889e-38
-0.0584074314388 -0.0292037157194 0.789 1.17833842619e-38
-0.056658539718 -0.0290556613938 0.785 1.23376272318e-38
-0.055065105039 -0.028981634231 0.783 1.38131090355e-38
-0.0534790730763 -0.0289076070683 0.781 1.21546666978e-38
-0.0519670682764 -0.0288705934869 0.78 1.28933191443e-38
-0.0503939910671 -0.0287965663241 0.778 1.1235958609e-38
-0.0488283165742 -0.0287225391613 0.776 1.15157768928e-38
-0.0472700447975 -0.0286485119985 0.774 1.19785445003e-38
-0.0457783974674 -0.0286114984171 0.773 9.49070723269e-39
-0.0441183383419 -0.0284634440915 0.769 8.94077045296e-39
-0.0425841253931 -0.0283894169288 0.767 8.85144888625e-39
-0.0411109848537 -0.0283524033474 0.766 7.93056738354e-39
-0.0395897266584 -0.0282783761846 0.764 8.94219837609e-39
-0.0380758711794 -0.0282043490218 0.762 9.5854125881e-39
-0.0366175360725 -0.0281673354404 0.761 9.30954736722e-39
-0.035116635347 -0.0280933082776 0.759 9.31098509944e-39
-0.0337119699331 -0.0280933082776 0.759 9.31205709277e-39
-0.0321370420448 -0.027945253952 0.755 9.03582613299e-39
-0.0306990644077 -0.0279082403706 0.754 8.29682896705e-39
-0.0291481953473 -0.0277601860451 0.75 9.49465609176e-39
-0.0277231724637 -0.0277231724637 0.749 9.49429595805e-39
-0.0262315251335 -0.0276121317195 0.746 9.30990469833e-39
-0.024784294101 -0.0275381045567 0.744 1.04151732569e-38
-0.0233444657848 -0.0274640773939 0.742 8.01808688042e-39
-0.0219712619151 -0.0274640773939 0.742 9.03222479594e-39
-0.0205702978594 -0.0274270638125 0.741 9.21483360402e-39
-0.0191212161478 -0.0273160230683 0.738 6.908513533e-39
-0.0177072973386 -0.0272419959056 0.736 1.1334605817e-38
-0.0163007812457 -0.0271679687428 0.734 9.12191070025e-39
-0.0149423828085 -0.0271679687428 0.734 7.83119990813e-39
-0.0135654775807 -0.0271309551614 0.733 7.00252944957e-39
-0.0121756175994 -0.0270569279986 0.731 6.91211487005e-39
-0.0108079657669 -0.0270199144172 0.73 8.56911106776e-39
-0.00943106053904 -0.0269458872544 0.728 8.56911106776e-39
-0.00807266210191 -0.026908873673 0.727 9.30775790908e-39
-0.00669020483686 -0.0267608193474 0.723 7.64824497933e-39
-0.00534476115321 -0.026723805766 0.722 4.97565631831e-39
-0.00400857086491 -0.026723805766 0.722 5.43664287541e-39
-0.00266497786033 -0.0266497786033 0.72 6.91214009342e-39
-0.00132693689295 -0.0265387378591 0.717 4.79164340916e-39
0.0 -0.0264276971149 0.714 5.25371176869e-39
0.00131953417668 -0.0263906835335 0.713 4.88492364404e-39
0.00263166563707 -0.0263166563707 0.711 5.25405788941e-39
0.0039419464184 -0.0262796427893 0.71 5.16186225954e-39
0.00524112312531 -0.0262056156265 0.708 4.70088971542e-39
0.00655140390664 -0.0262056156265 0.708 4.9771220765e-39
0.00786168468796 -0.0262056156265 0.708 4.70160998283e-39
0.00917196546929 -0.0262056156265 0.708 5.0707428269e-39
0.0104822462506 -0.0262056156265 0.708 4.88670889828e-39
0.0118258392552 -0.0262796427893 0.71 6.63769719048e-39
0.0131583281854 -0.0263166563707 0.711 1.02333155448e-38
0.0145352334132 -0.0264276971149 0.714 9.49430856974e-39
0.0159232427154 -0.0265387378591 0.717 9.86274076458e-39
0.0172982972642 -0.0266127650219 0.719 1.01389759283e-38
0.0186548450223 -0.0266497786033 0.72 9.12518413346e-39
0.0200428543245 -0.026723805766 0.722 8.8500279696e-39
0.0214678772082 -0.0268348465102 0.725 1.02322393475e-38
0.0228725426221 -0.026908873673 0.727 1.03244349774e-38
0.0243512351987 -0.0270569279986 0.731 9.5868699385e-39
0.0258095703056 -0.0271679687428 0.734 9.77126119823e-39
0.0272419959056 -0.0272419959056 0.736 1.07850571969e-38
0.0286040957008 -0.0272419959056 0.736 1.06006659372e-38
0.0300883403147 -0.0273530366497 0.739 1.04162774801e-38
0.031583689003 -0.0274640773939 0.742 1.06928643696e-38
0.033045725468 -0.0275381045567 0.744 1.06928643696e-38
0.0346539655796 -0.0277231724637 0.749 1.06928615671e-38
0.0360882418586 -0.0277601860451 0.75 1.03248035189e-38
0.0376761245004 -0.0279082403706 0.754 8.84968745408e-39
0.0390715365189 -0.0279082403706 0.754 1.63179104223e-38
-0.0931631843672 -0.0295016750496 0.839 2.27737597098e-38
-0.0913920844976 -0.029431349245 0.837 2.33262132215e-38
-0.0898430661163 -0.029431349245 0.837 2.35088094179e-38
-0.088083070321 -0.0293610234403 0.835 1.44671608898e-38
-0.086330477242 -0.0292906976357 0.833 1.09608430828e-38
-0.0843817121817 -0.0291500460264 0.829 1.15129308556e-38
-0.0826476258934 -0.0290797202217 0.827 1.38174530607e-38
-0.0809209423214 -0.0290093944171 0.825 1.38170873218e-38
-0.0790091908424 -0.0288687428078 0.821 1.21575617804e-38
-0.0773010140611 -0.0287984170032 0.819 1.34490194646e-38
-0.0756002399961 -0.0287280911985 0.817 1.27121774957e-38
-0.0739068686473 -0.0286577653939 0.815 1.0776789536e-38
-0.0716879044428 -0.0283764621753 0.807 1.16051068673e-38
-0.070020442601 -0.0283061363706 0.805 1.44631713931e-38
-0.0685306459499 -0.0283061363706 0.805 1.49259530135e-38
-0.0668742881826 -0.028235810566 0.803 1.05938402124e-38
-0.0653067630106 -0.0282006476636 0.802 1.39125269576e-38
-0.0636633599967 -0.028130321859 0.8 1.31742416513e-38
-0.0620273596991 -0.0280599960544 0.798 1.17891464011e-38
-0.0602470064341 -0.0279193444451 0.794 1.18799000949e-38
-0.0586295129272 -0.0278490186404 0.792 1.29851672521e-38
-0.0570194221366 -0.0277786928358 0.79 1.16936997588e-38
-0.0553464082576 -0.0276732041288 0.787 1.09546913825e-38
-0.0537529735786 -0.0276028783241 0.785 1.51034947264e-38
-0.0520336927229 -0.0274622267148 0.781 1.25227443641e-38
-0.0505883123695 -0.0274622267148 0.781 1.28936876858e-38
-0.0490800089277 -0.0274270638125 0.78 1.17898512543e-38
-0.0475143344347 -0.0273567380079 0.778 1.24370087202e-38
-0.0458376191976 -0.0272160863986 0.774 1.1976036176e-38
-0.0442330804442 -0.0271105976916 0.771 1.03204679015e-38
-0.0426951661373 -0.027040271887 0.769 9.1258777762e-39
-0.0411646545467 -0.0269699460823 0.767 8.85108454865e-39
-0.0396933646863 -0.02693478318 0.766 9.21878526568e-39
-0.0381758078492 -0.0268644573753 0.764 9.95419510755e-39
-0.0366656537283 -0.0267941315707 0.762 1.0139308036e-38
-0.0352091693005 -0.0267589686684 0.761 9.12659383972e-39
-0.0337119699331 -0.0266886428637 0.759 8.94327457332e-39
-0.0321370420448 -0.0265479912544 0.755 9.12767143824e-39
-0.0306990644077 -0.0265128283521 0.754 9.03404228004e-39
-0.0292259238682 -0.0264425025475 0.752 8.38831273729e-39
-0.0277601860451 -0.0263721767428 0.75 9.95527410737e-39
-0.0262666880358 -0.0262666880358 0.747 1.25367489409e-38
-0.0248509185475 -0.0262315251335 0.746 8.01881135173e-39
-0.0234073888732 -0.0261611993289 0.744 8.66383183745e-39
-0.0220304836454 -0.0261611993289 0.744 7.83443410499e-39
-0.0205980580454 -0.0260908735242 0.742 9.86128061158e-39
-0.0191989446688 -0.0260557106219 0.741 8.93679216662e-39
-0.0177554149944 -0.0259502219149 0.738 1.08718326043e-38
-0.0163451975433 -0.0258798961103 0.736 8.01522262636e-39
-0.0149830977481 -0.0258798961103 0.736 7.37309301937e-39
-0.0135839843714 -0.0258095703056 0.734 6.82028497909e-39
-0.0122089298226 -0.0257744074033 0.733 6.72666282739e-39
-0.0108227711994 -0.0257040815987 0.731 9.21520494811e-39
-0.00945697004602 -0.0256689186963 0.73 9.39887173653e-39
-0.00808376617632 -0.0255985928917 0.728 9.7687332558e-39
-0.00670871162756 -0.0254931041847 0.725 8.38580161045e-39
-0.00535216386949 -0.0254227783801 0.723 8.38616594805e-39
-0.00401412290212 -0.0254227783801 0.723 6.35750896384e-39
-0.0026723805766 -0.0253876154777 0.722 6.17384497802e-39
-0.00133248893016 -0.0253172896731 0.72 5.62031526903e-39
0.0 -0.0252118009661 0.717 5.62177542203e-39
0.00132138485575 -0.0251063122592 0.714 5.62212854924e-39
0.00263906835335 -0.0250711493568 0.713 5.25441381922e-39
0.0039419464184 -0.0249656606499 0.71 5.07002115819e-39
0.00525592855787 -0.0249656606499 0.71 4.79308254269e-39
0.00656991069733 -0.0249656606499 0.71 4.88600124256e-39
0.0078838928368 -0.0249656606499 0.71 4.70196591264e-39
0.00919787497627 -0.0249656606499 0.71 4.79451326842e-39
0.0105118571157 -0.0249656606499 0.71 2.85912110481e-39
0.0118258392552 -0.0249656606499 0.71 8.11390486682e-39
0.0131583281854 -0.0250008235522 0.711 9.95672585258e-39
0.0145759483527 -0.0251766380638 0.716 9.86380855401e-39
0.0159676590131 -0.0252821267708 0.719 1.0508107371e-38
0.0173223560921 -0.0253172896731 0.72 9.49432258272e-39
0.0187066640362 -0.0253876154777 0.722 9.49432258272e-39
0.0200706145106 -0.0254227783801 0.723 9.77198426824e-39
0.0215270989384 -0.0255634299894 0.727 1.03240790476e-38
0.0229669272546 -0.0256689186963 0.73 1.0047492158e-38
0.0244178596452 -0.0257744074033 0.733 1.07854131267e-38
0.0258095703056 -0.0258095703056 0.734 1.10620000163e-38
0.0273160230683 -0.0259502219149 0.738 1.04166306073e-38
0.0286818242218 -0.0259502219149 0.738 1.04166306073e-38
0.0300476253752 -0.0259502219149 0.738 1.06928615671e-38
0.0319242139518 -0.0263721767428 0.75 1.10616468891e-38
0.0333122232541 -0.0263721767428 0.75 1.07861389993e-38
0.0347002325563 -0.0263721767428 0.75 1.03251580474e-38
0.0361844771702 -0.0264425025475 0.752 1.1615542337e-38
0.0376761245004 -0.0265128283521 0.754 5.89942729845e-39
0.0390715365189 -0.0265128283521 0.754 1.90837793182e-38
-0.093607347344 -0.0280822042032 0.843 2.31425436305e-38
-0.091828844758 -0.0280155797567 0.841 2.31418219618e-38
-0.0902724236604 -0.0280155797567 0.841 2.3414806113e-38
-0.0887160025628 -0.0280155797567 0.841 1.33611650574e-38
-0.0867450293536 -0.0278823308637 0.837 1.54787764681e-38
-0.0849924362746 -0.0278157064172 0.835 1.17898694711e-38
-0.0834471192515 -0.0278157064172 0.835 1.3264276479e-38
-0.0815094582655 -0.0276824575241 0.831 1.418586844e-38
-0.0795866027121 -0.0275492086311 0.827 1.23419558427e-38
-0.0776785525913 -0.0274159597381 0.823 1.17895009297e-38
-0.075785307903 -0.0272827108451 0.819 1.16980269685e-38
-0.0740882351961 -0.0272160863986 0.817 1.15139986451e-38
-0.0723985652055 -0.0271494619521 0.815 1.06846037152e-38
-0.0707162979312 -0.0270828375056 0.813 1.18835028332e-38
-0.0685306459499 -0.0268163397195 0.805 1.58475491785e-38
-0.0668742881826 -0.026749715273 0.803 1.35422940943e-38
-0.0653881928896 -0.026749715273 0.803 9.94738059312e-39
-0.0638225183967 -0.0267164030498 0.802 1.38192411176e-38
-0.0621828167409 -0.0266497786033 0.8 1.29898447864e-38
-0.0605505178015 -0.0265831541568 0.798 1.08700711721e-38
-0.0589256215783 -0.0265165297102 0.796 1.37252518257e-38
-0.0573081280714 -0.0264499052637 0.794 1.12341663482e-38
-0.0554870598669 -0.0262833441475 0.789 1.40900672692e-38
-0.0538899238298 -0.026216719701 0.787 1.23372741046e-38
-0.0523001905089 -0.0261500952545 0.785 1.25213136384e-38
-0.0507178599043 -0.0260834708079 0.783 1.39056900224e-38
-0.049142932016 -0.0260168463614 0.781 1.24334284026e-38
-0.0476364792533 -0.0259835341382 0.78 1.13292248309e-38
-0.0459560626581 -0.0258502852452 0.776 1.16047383258e-38
-0.0443478225465 -0.0257503485754 0.773 1.09615269164e-38
-0.0429172476257 -0.0257503485754 0.773 9.67653762594e-39
-0.0412719939327 -0.0256170996824 0.769 8.94220257999e-39
-0.0397451837003 -0.0255504752359 0.767 9.21806920217e-39
-0.0382757445189 -0.0255171630126 0.766 9.30882289591e-39
-0.0367618890399 -0.0254505385661 0.764 9.86199947769e-39
-0.0352554362772 -0.0253839141196 0.762 9.49465609176e-39
-0.0338008025285 -0.0253506018964 0.761 8.57484518107e-39
-0.0323073045192 -0.0252839774498 0.759 8.57449205386e-39
-0.0307397793472 -0.0251507285568 0.755 9.40318072931e-39
-0.0293036523892 -0.0251174163336 0.754 8.94112217887e-39
-0.0278342132079 -0.0250507918871 0.752 8.94146970089e-39
-0.0263370138405 -0.0249508552173 0.749 7.83583960735e-39
-0.0248842307708 -0.0248842307708 0.747 8.29611290354e-39
-0.0234703119616 -0.0248509185475 0.746 8.20393268796e-39
-0.0220897053756 -0.0248509185475 0.746 7.37491190478e-39
-0.0206535784175 -0.024784294101 0.744 9.5854125881e-39
-0.0192248541757 -0.0247176696545 0.742 1.1518608917e-38
-0.0178275914781 -0.0246843574313 0.741 9.76510809667e-39
-0.016389613841 -0.0245844207615 0.738 8.19996280941e-39
-0.0149830977481 -0.024517796315 0.736 8.01952741524e-39
-0.0136209979528 -0.024517796315 0.736 6.91354839838e-39
-0.0122255859342 -0.0244511718685 0.734 7.37095603921e-39
-0.0108523820646 -0.0244178596452 0.733 6.26495039768e-39
-0.00946992479951 -0.0243512351987 0.731 6.26601818711e-39
-0.00810597432516 -0.0243179229755 0.73 1.06914056179e-38
-0.00672721841825 -0.0242179863057 0.727 7.83262222607e-39
-0.00536696930205 -0.0241513618592 0.725 9.49214356361e-39
-0.00401412290212 -0.0240847374127 0.723 6.91066873004e-39
-0.00267608193474 -0.0240847374127 0.723 5.80324637575e-39
-0.0013361902883 -0.0240514251894 0.722 6.35606422512e-39
0.0 -0.0239848007429 0.72 6.35789432092e-39
0.00132693689295 -0.0238848640732 0.717 6.17530092712e-39
0.00265017242777 -0.0238515518499 0.716 5.34624511148e-39
0.00396415456724 -0.0237849274034 0.714 4.97817865554e-39
0.00526333127414 -0.0236849907336 0.711 4.3335351191e-39
0.00656991069733 -0.0236516785104 0.71 4.79416154251e-39
0.0078838928368 -0.0236516785104 0.71 4.61048634629e-39
0.00921082972975 -0.0236849907336 0.711 4.70267777226e-39
0.0105266625483 -0.0236849907336 0.711 5.07181341893e-39
0.0118424953668 -0.0236849907336 0.711 7.28414139545e-39
0.0131953417668 -0.0237516151802 0.713 1.03262258368e-38
0.0145963058225 -0.0238848640732 0.717 9.03404788524e-39
0.015989867162 -0.0239848007429 0.72 9.40247867878e-39
0.0173704737479 -0.0240514251894 0.722 9.12554006327e-39
0.0187325735432 -0.0240847374127 0.723 9.67943410986e-39
0.0202094154408 -0.024251298529 0.728 9.77270313435e-39
0.0216455423989 -0.0243512351987 0.731 9.86310510218e-39
0.0230613118872 -0.0244178596452 0.733 1.04162788814e-38
0.0244511718685 -0.0244511718685 0.734 1.06928615671e-38
0.0258798961103 -0.024517796315 0.736 1.09698043865e-38
0.0273530366497 -0.0246177329848 0.739 1.05088234345e-38
0.0287206884822 -0.0246177329848 0.739 1.13385841033e-38
0.030414059831 -0.0248842307708 0.747 1.14307825358e-38
0.031796517096 -0.0248842307708 0.747 1.08772528268e-38
0.0333122232541 -0.0249841674406 0.75 1.01407695903e-38
0.0348853004633 -0.0251174163336 0.754 1.16158968655e-38
0.0362807124818 -0.0251174163336 0.754 1.11552830538e-38
0.0377260928352 -0.0251507285568 0.755 4.42537622045e-39
0.0391233555328 -0.0251507285568 0.755 2.31403870322e-38
-0.091828844758 -0.0264591586591 0.841 2.31418219618e-38
-0.0902724236604 -0.0264591586591 0.841 2.35088010101e-38
-0.0887160025628 -0.0264591586591 0.841 1.11488230679e-38
-0.0867450293536 -0.0263333124823 0.837 1.69542568705e-38
-0.0851960109723 -0.0263333124823 0.837 1.39107206839e-38
-0.0834471192515 -0.026270389394 0.835 1.04987621116e-38
-0.0817056302469 -0.0262074663056 0.833 1.35404962283e-38
-0.0799715439586 -0.0261445432172 0.831 1.34483034011e-38
-0.0782448603866 -0.0260816201289 0.829 9.29986439483e-39
-0.07597037581 -0.0258299277754 0.821 1.28040213996e-38
-0.074269601745 -0.025767004687 0.819 1.21593736593e-38
-0.0725762303962 -0.0257040815987 0.817 1.02247157761e-38
-0.0708902617637 -0.0256411585103 0.815 9.9477659502e-39
-0.0685306459499 -0.0253265430684 0.805 1.45560914943e-38
-0.0668742881826 -0.0252636199801 0.803 1.52003706931e-38
-0.0653881928896 -0.0252636199801 0.803 1.0867530618e-38
-0.0638225183967 -0.0252321584359 0.802 1.19749627814e-38
-0.0623382737828 -0.0252321584359 0.802 1.56653159184e-38
-0.0607022734852 -0.0251692353475 0.8 1.24402779495e-38
-0.0589256215783 -0.0250433891708 0.796 1.22522853527e-38
-0.0574524810389 -0.0250433891708 0.796 1.28018549922e-38
-0.0556980372808 -0.0249175429941 0.792 1.16011510018e-38
-0.0540953492065 -0.0248546199057 0.79 1.22450840799e-38
-0.0524334394019 -0.0247602352731 0.787 1.16908397087e-38
-0.0508474074392 -0.0246973121848 0.785 1.39049767615e-38
-0.0492687781928 -0.0246343890964 0.783 1.29858861182e-38
-0.0476975516626 -0.024571466008 0.781 1.2250465066e-38
-0.0460745061185 -0.0244770813755 0.778 1.22479525378e-38
-0.0444051935977 -0.0243512351987 0.774 1.11444818452e-38
-0.0429172476257 -0.0243197736545 0.773 9.39815567301e-39
-0.0413793333188 -0.0242568505662 0.771 9.03296328023e-39
-0.0398488217282 -0.0241939274778 0.769 9.1255134386e-39
-0.0383257128538 -0.0241310043894 0.767 9.21626713234e-39
-0.0368581243516 -0.0240995428453 0.766 9.12407150248e-39
-0.0353479702307 -0.0240366197569 0.764 9.86307847751e-39
-0.0338452188261 -0.0239736966685 0.762 9.12908955228e-39
-0.0323924357565 -0.0239422351243 0.761 9.12801755896e-39
-0.0307397793472 -0.0237534658592 0.755 9.49501202157e-39
-0.0293036523892 -0.023722004315 0.754 9.31025502294e-39
-0.0278342132079 -0.0236590812267 0.752 9.58718803325e-39
-0.0263721767428 -0.0235961581383 0.75 8.48155793971e-39
-0.0249508552173 -0.0235646965941 0.749 8.11279083454e-39
-0.0235017735058 -0.0235017735058 0.747 8.11281325531e-39
-0.0221193162407 -0.0235017735058 0.747 7.93022686801e-39
-0.0207368589757 -0.0235017735058 0.747 8.66454369707e-39
-0.0193284922036 -0.0234703119616 0.746 1.21625490016e-38
-0.017851650306 -0.0233444657848 0.742 8.38286308757e-39
-0.0164118219898 -0.0232500811523 0.739 9.58465728823e-39
-0.0150238126876 -0.0232186196081 0.738 8.6656156904e-39
-0.0136209979528 -0.0231556965197 0.736 6.5440610258e-39
-0.0122588981575 -0.0231556965197 0.736 7.92447173522e-39
-0.0108671874971 -0.0230927734314 0.734 7.27981838969e-39
-0.00949583430648 -0.0230613118872 0.733 7.37308881547e-39
-0.00811707839958 -0.0229983887988 0.731 7.28016731301e-39
-0.0067364718136 -0.0229040041662 0.728 6.91102045595e-39
-0.00536696930205 -0.0228096195337 0.725 7.92409338463e-39
-0.00402522697653 -0.0228096195337 0.725 1.01364283676e-38
-0.00267608193474 -0.0227466964453 0.723 9.76728851708e-39
-0.0013361902883 -0.0227152349011 0.722 8.29144237575e-39
0.0 -0.0227152349011 0.722 5.80471073265e-39
0.00133248893016 -0.0226523118128 0.72 5.34589338557e-39
0.00265387378591 -0.0225579271802 0.717 5.53063076601e-39
0.00397525864165 -0.022526465636 0.716 5.43915260096e-39
0.00528553942298 -0.0224635425477 0.714 4.51792077364e-39
0.00657916409268 -0.0223691579151 0.711 4.97854719704e-39
0.00789499691122 -0.0223691579151 0.711 4.6104835437e-39
0.00923673923673 -0.0224320810035 0.713 4.33425118262e-39
0.0105562734134 -0.0224320810035 0.713 3.22861688518e-39
0.0118758075901 -0.0224320810035 0.713 9.77377652897e-39
0.0133063825109 -0.0226208502686 0.719 9.40426673562e-39
0.014637020762 -0.0226208502686 0.719 9.77161012155e-39
0.0160342834596 -0.0227152349011 0.722 9.5868699385e-39
0.0173945325758 -0.0227466964453 0.723 1.06003142113e-38
0.0188362115711 -0.0228725426221 0.727 1.00482194319e-38
0.0202649358129 -0.0229669272546 0.73 1.03255209837e-38
0.0216455423989 -0.0229983887988 0.731 1.14300776826e-38
0.0230927734314 -0.0230927734314 0.734 1.11534907931e-38
0.0245844207615 -0.0232186196081 0.738 1.06006687398e-38
0.0260557106219 -0.0233130042406 0.741 1.04166306073e-38
0.0274270638125 -0.0233130042406 0.741 1.07854075215e-38
0.0289150097845 -0.0234073888732 0.744 1.179955945e-38
0.030414059831 -0.0235017735058 0.747 1.05088234345e-38
0.031796517096 -0.0235017735058 0.747 1.07854131267e-38
0.0333122232541 -0.0235961581383 0.75 1.09705302591e-38
0.0348853004633 -0.023722004315 0.754 1.14315056058e-38
0.0363288301376 -0.0237534658592 0.755 1.05099136447e-38
0.037826029505 -0.0238163889476 0.757 7.00685385663e-39
0.0392269935607 -0.0238163889476 0.757 2.35098856151e-38
-0.0920472248882 -0.0249619592917 0.843 2.34180431125e-38
-0.0904871024325 -0.0249619592917 0.843 2.35091681503e-38
-0.0889269799768 -0.0249619592917 0.843 9.4896870874e-39
-0.0871595814652 -0.0249027375615 0.841 1.51099827383e-38
-0.08539958567 -0.0248435158313 0.839 1.57539074086e-38
-0.083646992591 -0.024784294101 0.837 1.48326811864e-38
-0.0819018022283 -0.0247250723708 0.835 1.13285395959e-38
-0.0801640145819 -0.0246658506406 0.833 1.16962487207e-38
-0.0786223989168 -0.0246658506406 0.833 1.27118299737e-38
-0.07597037581 -0.0243105202592 0.821 1.17909414645e-38
-0.074269601745 -0.024251298529 0.819 1.15147063008e-38
-0.0725762303962 -0.0241920767987 0.817 1.0315461062e-38
-0.0708902617637 -0.0241328550685 0.815 1.00381553063e-38
-0.0690414333731 -0.0240144116081 0.811 1.31724353776e-38
-0.0670408492988 -0.0238367464174 0.805 1.61230458578e-38
-0.0653881928896 -0.0237775246871 0.803 1.18813252154e-38
-0.0639020975967 -0.0237775246871 0.803 1.23423061673e-38
-0.0623382737828 -0.023747913822 0.802 1.3173155645e-38
-0.0607022734852 -0.0236886920918 0.8 1.32657184151e-38
-0.0590736759039 -0.0236294703616 0.798 1.23452040526e-38
-0.0574524810389 -0.0235702486313 0.796 1.07764336062e-38
-0.0556980372808 -0.0234518051709 0.792 1.16965836311e-38
-0.0540953492065 -0.0233925834406 0.79 1.23401481677e-38
-0.0525666882949 -0.0233629725755 0.789 1.32603066004e-38
-0.0509769549741 -0.0233037508453 0.787 1.42751801976e-38
-0.0492687781928 -0.0231853073848 0.783 1.3446861465e-38
-0.0476975516626 -0.0231260856546 0.781 1.26185399297e-38
-0.046192949579 -0.0230964747895 0.78 1.28961805957e-38
-0.0445199357 -0.022978031329 0.776 1.28043380931e-38
-0.0429727679978 -0.0229188095988 0.774 1.16054445803e-38
-0.0414866727048 -0.0228891987337 0.773 1.16047215103e-38
-0.0399524597561 -0.0228299770035 0.771 1.17905491009e-38
-0.0384256495236 -0.0227707552732 0.769 1.14242833135e-38
-0.0369062420074 -0.022711533543 0.767 9.58361612347e-39
-0.0354405041842 -0.0226819226779 0.766 9.30991590872e-39
-0.0339340514215 -0.0226227009477 0.764 8.66668768373e-39
-0.0324350013751 -0.0225634792174 0.762 9.2191355903e-39
-0.0307397793472 -0.0223562031616 0.755 9.58683770864e-39
-0.0293036523892 -0.0223265922965 0.754 9.12513929191e-39
-0.0278342132079 -0.0222673705663 0.752 9.31060674886e-39
-0.0264425025475 -0.0222673705663 0.752 9.03402826706e-39
-0.0249841674406 -0.0222081488361 0.75 8.66633876041e-39
-0.0235646965941 -0.0221785379709 0.749 7.56108421485e-39
-0.0221785379709 -0.0221785379709 0.749 7.56322259631e-39
-0.0207923793478 -0.0221785379709 0.749 7.2848252291e-39
-0.0193544017106 -0.0221193162407 0.747 1.1982482149e-38
-0.0179478856177 -0.0220897053756 0.746 8.5694389716e-39
-0.0164562382875 -0.02194165105 0.741 1.11494844807e-38
-0.0150441701574 -0.0218824293198 0.739 9.67544741573e-39
-0.0136580115342 -0.0218528184547 0.738 7.64823096635e-39
-0.0122922103808 -0.0218528184547 0.738 7.18725281703e-39
-0.0108967983622 -0.0217935967244 0.736 7.37164687935e-39
-0.00950878905997 -0.0217343749942 0.734 7.37274269475e-39
-0.00813928654841 -0.0217047641291 0.733 6.54334356099e-39
-0.0067549786043 -0.0216159315338 0.73 6.17598335947e-39
-0.0053817747346 -0.0215270989384 0.727 6.17561341668e-39
-0.00402522697653 -0.0214678772082 0.725 8.7545813273e-39
-0.00267608193474 -0.021408655478 0.723 9.3970696667e-39
-0.00133804096737 -0.021408655478 0.723 9.39633118241e-39
0.0 -0.0213790446128 0.722 8.01486949915e-39
0.00133248893016 -0.0213198228826 0.72 4.60507733422e-39
0.00265387378591 -0.0212309902873 0.717 6.26495880547e-39
0.00397525864165 -0.0212013794222 0.716 5.89725528583e-39
0.00530034485554 -0.0212013794222 0.716 5.43736174153e-39
0.00660692427873 -0.0211421576919 0.714 5.71467310242e-39
0.00791720506005 -0.0211125468268 0.713 4.97782692963e-39
0.00923673923673 -0.0211125468268 0.713 5.34625351927e-39
0.0105562734134 -0.0211125468268 0.713 4.14984590991e-39
0.0118924637017 -0.0211421576919 0.714 1.03269475056e-38
0.0133248893016 -0.0213198228826 0.72 9.68050189929e-39
0.0146573782318 -0.0213198228826 0.72 1.01414800486e-38
0.0160342834596 -0.0213790446128 0.722 9.95672865518e-39
0.0175148267154 -0.0215567098035 0.728 9.77198146564e-39
0.018913940092 -0.0216159315338 0.73 9.8641827007e-39
0.0202649358129 -0.0216159315338 0.73 1.02322575644e-38
0.0217047641291 -0.0217047641291 0.733 1.05081241866e-38
0.0230613118872 -0.0217047641291 0.733 1.01393388646e-38
0.0245844207615 -0.0218528184547 0.738 1.0784705471e-38
0.0262315251335 -0.0220897053756 0.746 1.14304294086e-38
0.0276121317195 -0.0220897053756 0.746 1.1430426606e-38
0.0290316025659 -0.0221193162407 0.747 1.05088262371e-38
0.030414059831 -0.0221193162407 0.747 1.01400409151e-38
0.0319242139518 -0.0222081488361 0.75 1.11541928436e-38
0.0335343047424 -0.0223562031616 0.755 1.13389358292e-38
0.03493156744 -0.0223562031616 0.755 1.1521918784e-38
0.0364250654493 -0.0224154248919 0.757 9.31242703556e-39
0.037826029505 -0.0224154248919 0.757 9.68017819935e-39
0.0392269935607 -0.0224154248919 0.757 2.35098856151e-38
-0.0927023652789 -0.0235683979523 0.849 2.34180431125e-38
-0.0907017812046 -0.0234573572081 0.845 2.35088094179e-38
-0.0891379573907 -0.0234573572081 0.845 1.050348729e-38
-0.087366857521 -0.023401836836 0.843 1.53858689786e-38
-0.0856031603676 -0.0233463164639 0.841 1.44628196672e-38
-0.0838468659305 -0.0232907960918 0.839 1.33571951788e-38
-0.0819018022283 -0.0231797553476 0.835 1.41869558476e-38
-0.0803564852051 -0.0231797553476 0.835 1.25274345101e-38
-0.0786223989168 -0.0231242349755 0.833 1.17905855347e-38
-0.0768957153448 -0.0230687146034 0.831 1.16065502047e-38
-0.0749950679403 -0.0229576738593 0.827 1.31738759124e-38
-0.0727538955869 -0.0227355923709 0.819 1.40014883906e-38
-0.0710642255963 -0.0226800719988 0.817 1.26181910064e-38
-0.069381958322 -0.0226245516267 0.815 1.18809776934e-38
-0.0673739715314 -0.0224579905105 0.809 1.54769575827e-38
-0.0655510526477 -0.0223469497663 0.805 1.31727828996e-38
-0.0639020975967 -0.0222914293942 0.803 1.39099948113e-38
-0.0623382737828 -0.0222636692081 0.802 1.4278782936e-38
-0.0607022734852 -0.0222081488361 0.8 1.16969507713e-38
-0.0590736759039 -0.022152628464 0.798 1.38203313278e-38
-0.0575968340063 -0.022152628464 0.798 1.26221440694e-38
-0.0558386888901 -0.0220415877198 0.794 1.0499482379e-38
-0.0542322994576 -0.0219860673477 0.792 1.2340511104e-38
-0.0526333127414 -0.0219305469756 0.79 1.24330626637e-38
-0.051106502509 -0.0219027867896 0.789 1.18798888845e-38
-0.0493946243695 -0.0217917460454 0.785 1.09597374583e-38
-0.0478196964812 -0.0217362256733 0.783 1.1883135693e-38
-0.0462521713092 -0.0216807053012 0.781 1.34522340433e-38
