# .PCD v0.7 - Point Cloud Data file format
VERSION 0.7
FIELDS x y z rgb
SIZE 4 4 4 4
TYPE F F F F
COUNT 1 1 1 1
WIDTH 840
HEIGHT 1
VIEWPOINT 0 0 0 1 0 0 0
POINTS 840
DATA ascii
0.0446938995326 -0.0849184091119 0.805 8.00336764135e-39
0.0461836961836 -0.0849184091119 0.805 7.44730578604e-39
0.0476734928347 -0.0849184091119 0.805 9.29839583404e-39
0.0491632894858 -0.0849184091119 0.805 1.51085267891e-38
0.0506530861369 -0.0849184091119 0.805 5.24395032358e-39
0.0520133352531 -0.0847074316979 0.803 1.05923464282e-38
0.0534994305461 -0.0847074316979 0.803 1.1052970049e-38
0.054985525839 -0.0847074316979 0.803 4.04470788743e-39
0.0564716211319 -0.0847074316979 0.803 5.51948063413e-39
0.0579577164249 -0.0847074316979 0.803 9.94662809585e-39
0.0594438117178 -0.0847074316979 0.803 6.0754920427e-39
0.0609299070108 -0.0847074316979 0.803 8.01302679167e-39
0.0624160023037 -0.0847074316979 0.803 1.1887773991e-38
0.0639020975967 -0.0847074316979 0.803 7.09466902749e-39
0.0653881928896 -0.0847074316979 0.803 8.29282685864e-39
0.0668742881826 -0.0847074316979 0.803 8.47720690798e-39
0.0683603834755 -0.0847074316979 0.803 8.47830972987e-39
0.0698464787685 -0.0847074316979 0.803 8.84892094382e-39
0.0712437414661 -0.0846019429909 0.802 8.39010359673e-39
0.0727279860799 -0.0846019429909 0.802 8.94433395495e-39
0.0742122306938 -0.0846019429909 0.802 8.20638075637e-39
0.0756964753077 -0.0846019429909 0.802 8.48296764596e-39
0.0771807199216 -0.0846019429909 0.802 7.55960164107e-39
0.0786649645354 -0.0846019429909 0.802 7.92839957481e-39
0.0801492091493 -0.0846019429909 0.802 6.82384567849e-39
0.0816334537632 -0.0846019429909 0.802 6.73414716249e-39
0.0831176983771 -0.0846019429909 0.802 7.56355890794e-39
0.0846019429909 -0.0846019429909 0.802 7.83978986772e-39
0.0860861876048 -0.0846019429909 0.802 7.74866482988e-39
0.0873520520885 -0.084390965577 0.8 7.93413228683e-39
0.0886105138558 -0.0841799881631 0.798 6.73630516212e-39
0.0900873557534 -0.0841799881631 0.798 5.90762349317e-39
0.091564197651 -0.0841799881631 0.798 6.27676894892e-39
0.0930410395486 -0.0841799881631 0.798 4.80236053982e-39
0.0942809945253 -0.0839690107491 0.796 5.72359516974e-39
0.0957541350648 -0.0839690107491 0.796 6.46006999845e-39
-0.0412238762769 -0.0855013730188 0.825 2.32332987256e-38
-0.0396970660444 -0.0855013730188 0.825 2.35098856151e-38
-0.038170255812 -0.0855013730188 0.825 2.35098856151e-38
-0.0365546129841 -0.085294096963 0.823 2.35091681503e-38
-0.0349463728726 -0.0850868209072 0.821 2.35098744048e-38
-0.0334269653564 -0.0850868209072 0.821 1.44761558247e-38
-0.0319075578402 -0.0850868209072 0.821 1.2957484601e-39
-0.0303141231612 -0.0848795448514 0.819 5.53851587247e-39
-0.0287984170032 -0.0848795448514 0.819 5.07717198426e-39
-0.0272827108451 -0.0848795448514 0.819 7.2902076165e-39
-0.025767004687 -0.0848795448514 0.819 8.02598740117e-39
-0.024251298529 -0.0848795448514 0.819 6.82634559495e-39
-0.0227355923709 -0.0848795448514 0.819 6.64230606113e-39
-0.0212198862128 -0.0848795448514 0.819 5.62923873765e-39
-0.0197522977106 -0.0850868209072 0.821 8.02669365559e-39
-0.0181884738967 -0.0848795448514 0.819 4.89276951414e-39
-0.0166727677387 -0.0848795448514 0.819 4.7080237259e-39
-0.0151570615806 -0.0848795448514 0.819 6.64413195303e-39
-0.0136413554225 -0.0848795448514 0.819 7.38097532323e-39
-0.0121256492645 -0.0848795448514 0.819 7.56534976738e-39
-0.0105840335994 -0.0846722687956 0.817 7.2894817439e-39
-0.00907202879953 -0.0846722687956 0.817 7.10581635678e-39
-0.00756002399961 -0.0846722687956 0.817 7.28985589059e-39
-0.00603321376713 -0.0844649927398 0.815 7.10547303865e-39
-0.00452491032535 -0.0844649927398 0.815 6.09167703997e-39
-0.00301660688356 -0.0844649927398 0.815 6.09130709717e-39
-0.00150830344178 -0.0844649927398 0.815 5.44556914663e-39
0.0 -0.0844649927398 0.815 6.18350552963e-39
0.00150830344178 -0.0844649927398 0.815 4.33924120645e-39
0.00300920416729 -0.084257716684 0.813 5.62997862324e-39
0.00451380625093 -0.084257716684 0.813 7.56571690757e-39
0.00601840833457 -0.084257716684 0.813 6.55119503628e-39
0.00752301041821 -0.084257716684 0.813 6.45935673753e-39
0.00902761250186 -0.084257716684 0.813 8.30183580646e-39
0.0105322145855 -0.084257716684 0.813 8.76246222987e-39
0.0120368166691 -0.084257716684 0.813 7.84230239586e-39
0.0135081065295 -0.0840504406282 0.811 8.11924241267e-39
0.015009007255 -0.0840504406282 0.811 7.93484835034e-39
0.0165099079805 -0.0840504406282 0.811 6.82778472847e-39
0.018010808706 -0.0840504406282 0.811 8.21071917642e-39
0.0195117094315 -0.0840504406282 0.811 6.55119783888e-39
0.021012610157 -0.0840504406282 0.811 5.44556634403e-39
0.0225135108825 -0.0840504406282 0.811 5.44556494274e-39
0.0240144116081 -0.0840504406282 0.811 6.83028464493e-39
0.0255153123336 -0.0840504406282 0.811 6.46114899826e-39
0.0269495886125 -0.0838431645724 0.809 5.90904020592e-39
0.0284467879799 -0.0838431645724 0.809 7.84514002525e-39
0.0299439873473 -0.0838431645724 0.809 8.12029899171e-39
0.0314411867146 -0.0838431645724 0.809 9.03794489627e-39
0.032938386082 -0.0838431645724 0.809 2.20692176705e-39
0.0344355854494 -0.0838431645724 0.809 1.15114664987e-38
0.0358439522214 -0.0836358885166 0.807 8.82878568618e-39
0.0373374502306 -0.0836358885166 0.807 7.99542788426e-39
0.0388309482398 -0.0836358885166 0.807 1.04829120246e-38
0.0403244462491 -0.0836358885166 0.807 1.11300736944e-38
0.0418179442583 -0.0836358885166 0.807 8.27563152518e-39
0.0432041028815 -0.0834286124608 0.805 1.44552526555e-38
0.0446938995326 -0.0834286124608 0.805 1.66665198491e-38
0.0461836961836 -0.0834286124608 0.805 6.33808696713e-39
0.0476734928347 -0.0834286124608 0.805 8.27849998314e-39
0.0491632894858 -0.0834286124608 0.805 1.49270348159e-38
0.0506530861369 -0.0834286124608 0.805 1.02268625653e-38
0.052142882788 -0.0834286124608 0.805 5.0516697535e-39
0.0536326794391 -0.0834286124608 0.805 1.41718106138e-38
0.0551224760902 -0.0834286124608 0.805 5.88285274021e-39
0.0566122727412 -0.0834286124608 0.805 6.44034391996e-39
0.0581020693923 -0.0834286124608 0.805 7.81606168082e-39
0.0595918660434 -0.0834286124608 0.805 1.01266781329e-38
0.0610816626945 -0.0834286124608 0.805 1.40961671214e-38
0.0625714593456 -0.0834286124608 0.805 1.44696355829e-38
0.0640612559967 -0.0834286124608 0.805 1.27190046218e-38
0.0653881928896 -0.083221336405 0.803 6.07802699162e-39
0.0668742881826 -0.083221336405 0.803 5.70420400159e-39
0.0683603834755 -0.083221336405 0.803 1.04947529967e-38
0.0698464787685 -0.083221336405 0.803 1.2796787897e-38
0.0713325740614 -0.083221336405 0.803 1.44664055899e-38
0.0728186693543 -0.083221336405 0.803 1.55727349314e-38
0.0743047646473 -0.083221336405 0.803 8.74841000887e-39
0.0757908599402 -0.083221336405 0.803 9.48703723201e-39
0.0772769552332 -0.083221336405 0.803 1.16097465665e-38
0.0787630505261 -0.083221336405 0.803 1.38264367852e-38
0.0802491458191 -0.083221336405 0.803 1.37356732824e-38
0.081735241112 -0.083221336405 0.803 1.15222592995e-38
0.083221336405 -0.083221336405 0.803 9.39887173653e-39
0.0847074316979 -0.083221336405 0.803 1.01374933545e-38
0.0861935269909 -0.083221336405 0.803 8.6652485502e-39
0.0875704322187 -0.0831176983771 0.802 8.57734369624e-39
0.0888325953442 -0.0829104223213 0.8 4.98317148197e-39
0.0903131385999 -0.0829104223213 0.8 6.46079587105e-39
0.0917936818557 -0.0829104223213 0.8 6.09236928141e-39
0.0932742251114 -0.0829104223213 0.8 6.27745978907e-39
0.0945178814462 -0.0827031462655 0.798 5.26332187355e-39
0.0959947233438 -0.0827031462655 0.798 8.67206446593e-39
-0.0396970660444 -0.0839745627863 0.825 2.35098856151e-38
-0.038170255812 -0.0839745627863 0.825 2.35098856151e-38
-0.0366434455795 -0.0839745627863 0.825 2.35091681503e-38
-0.0350315041098 -0.0837709880887 0.823 2.33254803424e-38
-0.0335083952355 -0.0837709880887 0.823 1.39237009116e-38
-0.0319075578402 -0.083567413391 0.821 1.01915876791e-39
-0.030388150324 -0.083567413391 0.821 6.00057021901e-39
-0.0288687428078 -0.083567413391 0.821 5.07789365296e-39
-0.0272827108451 -0.0833638386933 0.819 6.92142229445e-39
-0.025767004687 -0.0833638386933 0.819 7.84195347255e-39
-0.024251298529 -0.0833638386933 0.819 6.82599386903e-39
-0.0227355923709 -0.0833638386933 0.819 7.19477498719e-39
-0.0212198862128 -0.0833638386933 0.819 7.93378336351e-39
-0.0197522977106 -0.083567413391 0.821 6.45973929201e-39
-0.0182328901944 -0.083567413391 0.821 6.92143770873e-39
-0.0166727677387 -0.0833638386933 0.819 7.56608685037e-39
-0.0151570615806 -0.0833638386933 0.819 7.84195066995e-39
-0.0136413554225 -0.0833638386933 0.819 7.56500084406e-39
-0.0121256492645 -0.0833638386933 0.819 6.91962723112e-39
-0.0106099431064 -0.0833638386933 0.819 6.18242652981e-39
-0.00909423694836 -0.0833638386933 0.819 6.82817008555e-39
-0.0075785307903 -0.0833638386933 0.819 6.09097218684e-39
-0.00604801919968 -0.0831602639957 0.817 4.89243180121e-39
-0.00453601439976 -0.0831602639957 0.817 6.18244895059e-39
-0.00302400959984 -0.0831602639957 0.817 7.65720768431e-39
-0.00151200479992 -0.0831602639957 0.817 8.11781869343e-39
0.0 -0.0831602639957 0.817 8.30365609317e-39
0.00150830344178 -0.082956689298 0.815 8.2111045335e-39
0.00301660688356 -0.082956689298 0.815 7.93487357372e-39
0.00452491032535 -0.082956689298 0.815 7.56571550627e-39
0.00603321376713 -0.082956689298 0.815 6.45970706214e-39
0.00754151720891 -0.082956689298 0.815 6.55225441792e-39
0.00902761250186 -0.0827531146003 0.813 6.08984274028e-39
0.0105322145855 -0.0827531146003 0.813 5.81290832867e-39
0.0120368166691 -0.0827531146003 0.813 6.27532561151e-39
0.0135414187528 -0.0827531146003 0.813 6.27640461132e-39
0.0150460208364 -0.0827531146003 0.813 5.90654309205e-39
0.0165506229201 -0.0827531146003 0.813 7.47350866602e-39
0.018010808706 -0.0825495399027 0.811 6.09057421807e-39
0.0195117094315 -0.0825495399027 0.811 8.3032637296e-39
0.021012610157 -0.0825495399027 0.811 8.21142402955e-39
0.0225135108825 -0.0825495399027 0.811 7.75044307763e-39
0.0240144116081 -0.0825495399027 0.811 7.84443236953e-39
0.0255153123336 -0.0825495399027 0.811 7.56749935922e-39
0.0270162130591 -0.0825495399027 0.811 7.84441135005e-39
0.0285171137846 -0.0825495399027 0.811 8.21284354489e-39
0.0299439873473 -0.082345965205 0.809 8.39652995149e-39
0.0314411867146 -0.082345965205 0.809 9.59112147804e-39
0.032938386082 -0.082345965205 0.809 4.23411859825e-39
0.0344355854494 -0.082345965205 0.809 5.70206001494e-39
0.0359327848167 -0.082345965205 0.809 8.09229964709e-39
0.0373374502306 -0.0821423905073 0.807 7.720997593e-39
0.0388309482398 -0.0821423905073 0.807 8.82627315804e-39
0.0403244462491 -0.0821423905073 0.807 9.65817781346e-39
0.0418179442583 -0.0821423905073 0.807 5.78850751851e-39
0.0433114422675 -0.0821423905073 0.807 8.74091726598e-39
0.0448049402767 -0.0821423905073 0.807 1.57452866204e-38
0.046298438286 -0.0821423905073 0.807 6.33809537492e-39
0.0477919362952 -0.0821423905073 0.807 9.10720407287e-39
0.0491632894858 -0.0819388158097 0.805 1.2254817499e-38
0.0506530861369 -0.0819388158097 0.805 1.45622151685e-38
0.0522724303229 -0.0821423905073 0.807 8.46251149098e-39
0.0537659283321 -0.0821423905073 0.807 1.25119039192e-38
0.0552594263413 -0.0821423905073 0.807 1.00330713955e-38
0.0567529243505 -0.0821423905073 0.807 1.21582666335e-38
0.0582464223598 -0.0821423905073 0.807 1.16875746833e-38
0.059739920369 -0.0821423905073 0.807 1.44591650808e-38
0.0612334183782 -0.0821423905073 0.807 1.52028832212e-38
0.0627269163874 -0.0821423905073 0.807 1.31782129312e-38
0.0642204143967 -0.0821423905073 0.807 1.50260463615e-38
0.0655510526477 -0.0819388158097 0.805 1.30852774157e-38
0.0670408492988 -0.0819388158097 0.805 6.71763426138e-39
0.0685306459499 -0.0819388158097 0.805 1.20592004373e-38
0.070020442601 -0.0819388158097 0.805 1.11343616677e-38
0.0715102392521 -0.0819388158097 0.805 1.65840198033e-38
0.0730000359032 -0.0819388158097 0.805 1.41880124266e-38
0.0744898325543 -0.0819388158097 0.805 9.20651409503e-39
0.0759796292053 -0.0819388158097 0.805 1.07756124453e-38
0.0774694258564 -0.0819388158097 0.805 1.50195471393e-38
0.0789592225075 -0.0819388158097 0.805 1.38242843907e-38
0.0804490191586 -0.0819388158097 0.805 1.35502114306e-38
0.0819388158097 -0.0819388158097 0.805 1.33636719803e-38
0.0834286124608 -0.0819388158097 0.805 1.2900524621e-38
0.0849184091119 -0.0819388158097 0.805 1.05052052819e-38
0.0861935269909 -0.081735241112 0.803 1.09694260359e-38
0.0876796222838 -0.081735241112 0.803 8.76173215337e-39
0.0890546768326 -0.0816334537632 0.802 6.73488704807e-39
0.0905389214464 -0.0816334537632 0.802 6.73665969063e-39
0.0917936818557 -0.0814298790655 0.8 7.19763783995e-39
0.0932742251114 -0.0814298790655 0.8 7.38236681261e-39
0.0947547683672 -0.0814298790655 0.8 6.27818846427e-39
0.0962353116229 -0.0814298790655 0.8 7.47461008662e-39
-0.0396970660444 -0.0824477525538 0.825 2.35098856151e-38
-0.038170255812 -0.0824477525538 0.825 2.35098856151e-38
-0.0366434455795 -0.0824477525538 0.825 2.35095268827e-38
-0.0350315041098 -0.0822478792143 0.823 2.33262006098e-38
-0.0335083952355 -0.0822478792143 0.823 1.3555997392e-38
-0.0319852863611 -0.0822478792143 0.823 9.28405074166e-40
-0.0304621774868 -0.0822478792143 0.823 6.00128908512e-39
-0.0288687428078 -0.0820480058748 0.821 5.17152841635e-39
-0.0273493352916 -0.0820480058748 0.821 6.27749061763e-39
-0.0258299277754 -0.0820480058748 0.821 8.94902269962e-39
-0.0243105202592 -0.0820480058748 0.821 7.74869005325e-39
-0.022791112743 -0.0820480058748 0.821 7.56429879353e-39
-0.0212717052268 -0.0820480058748 0.821 7.19587640778e-39
-0.0197522977106 -0.0820480058748 0.821 5.4452356376e-39
-0.0182328901944 -0.0820480058748 0.821 5.53778439467e-39
-0.0167134826782 -0.0820480058748 0.821 5.26047023118e-39
-0.0151570615806 -0.0818481325353 0.819 5.81327967276e-39
-0.0136413554225 -0.0818481325353 0.819 6.73451009879e-39
-0.0121256492645 -0.0818481325353 0.819 7.28840975057e-39
-0.0106099431064 -0.0818481325353 0.819 7.65755941022e-39
-0.00909423694836 -0.0818481325353 0.819 7.56573512445e-39
-0.0075785307903 -0.0818481325353 0.819 7.75049352438e-39
-0.00604801919968 -0.0816482591957 0.817 7.65830069711e-39
-0.00453601439976 -0.0816482591957 0.817 7.75013198937e-39
-0.00302400959984 -0.0816482591957 0.817 6.73525138568e-39
-0.00151570615806 -0.0818481325353 0.819 6.27390609616e-39
0.0 -0.0816482591957 0.817 7.38167316987e-39
0.00151200479992 -0.0816482591957 0.817 4.89382749448e-39
0.00302400959984 -0.0816482591957 0.817 5.44556494274e-39
0.00453601439976 -0.0816482591957 0.817 5.90689621927e-39
0.00604801919968 -0.0816482591957 0.817 6.36786596079e-39
0.00754151720891 -0.0814483858562 0.815 7.93519166847e-39
0.00904982065069 -0.0814483858562 0.815 7.84228838288e-39
0.0105581240925 -0.0814483858562 0.815 8.39475730893e-39
0.0120368166691 -0.0812485125167 0.813 8.85680324768e-39
0.0135414187528 -0.0812485125167 0.813 7.38310809949e-39
0.0150460208364 -0.0812485125167 0.813 8.39690409818e-39
0.0165506229201 -0.0812485125167 0.813 8.76460761782e-39
0.0180552250037 -0.0812485125167 0.813 7.65861598927e-39
0.0195598270874 -0.0812485125167 0.813 7.56569869069e-39
0.021064429171 -0.0812485125167 0.813 7.01287803873e-39
0.0225135108825 -0.0810486391772 0.811 6.45897978824e-39
0.0240144116081 -0.0810486391772 0.811 5.17076891258e-39
0.0255153123336 -0.0810486391772 0.811 7.56749935922e-39
0.0270162130591 -0.0810486391772 0.811 7.65930402681e-39
0.0285171137846 -0.0810486391772 0.811 8.3965187411e-39
0.0300180145101 -0.0810486391772 0.811 8.39473628946e-39
0.0315189152356 -0.0810486391772 0.811 1.02339797602e-38
0.0330198159611 -0.0810486391772 0.811 8.37968494265e-39
0.0345207166866 -0.0810486391772 0.811 6.98884577006e-39
0.0360216174121 -0.0810486391772 0.811 8.36925928208e-39
0.0374299841841 -0.0808487658376 0.809 8.27669090682e-39
0.0389271835515 -0.0808487658376 0.809 9.93478432123e-39
0.0404243829188 -0.0808487658376 0.809 9.6606917429e-39
0.0419215822862 -0.0808487658376 0.809 1.12309181384e-38
0.0434187816536 -0.0808487658376 0.809 8.83562402269e-39
0.0449159810209 -0.0808487658376 0.809 1.58396402499e-38
0.0464131803883 -0.0808487658376 0.809 5.60233660973e-39
0.0479103797556 -0.0808487658376 0.809 1.28886668334e-38
0.0492854343044 -0.0806488924981 0.807 1.47426547666e-38
0.0507789323136 -0.0806488924981 0.807 1.3915392613e-38
0.0522724303229 -0.0806488924981 0.807 9.5713603671e-39
0.0537659283321 -0.0806488924981 0.807 9.19789891207e-39
0.0552594263413 -0.0806488924981 0.807 1.42783779607e-38
0.0567529243505 -0.0806488924981 0.807 1.66787293626e-38
0.0582464223598 -0.0806488924981 0.807 1.06770226905e-38
0.059739920369 -0.0806488924981 0.807 9.665711194e-39
0.0613851740619 -0.0808487658376 0.809 1.60315704954e-38
0.0628823734293 -0.0808487658376 0.809 1.40072477273e-38
0.0642204143967 -0.0806488924981 0.807 1.36413140477e-38
0.0657139124059 -0.0806488924981 0.807 1.52965193859e-38
0.0672074104151 -0.0806488924981 0.807 1.16958325351e-38
0.0687009084243 -0.0806488924981 0.807 1.11397398512e-38
0.070020442601 -0.0804490191586 0.805 1.01241459866e-38
0.0715102392521 -0.0804490191586 0.805 1.63081377668e-38
0.0730000359032 -0.0804490191586 0.805 1.188239861e-38
0.0744898325543 -0.0804490191586 0.805 1.39099359568e-38
0.0759796292053 -0.0804490191586 0.805 1.05923113957e-38
0.0774694258564 -0.0804490191586 0.805 1.57571219873e-38
0.0789592225075 -0.0804490191586 0.805 1.42852653427e-38
0.0804490191586 -0.0804490191586 0.805 1.31810673761e-38
0.0819388158097 -0.0804490191586 0.805 1.36406147997e-38
0.0834286124608 -0.0804490191586 0.805 1.27161445716e-38
0.0849184091119 -0.0804490191586 0.805 1.40097350321e-38
0.0864082057629 -0.0804490191586 0.805 1.2721503137e-38
0.0876796222838 -0.0802491458191 0.803 7.28731954037e-39
0.0891657175768 -0.0802491458191 0.803 4.89167930394e-39
0.0906518128697 -0.0802491458191 0.803 6.46042592826e-39
0.0920231660603 -0.0801492091493 0.802 6.82813645438e-39
0.0935074106742 -0.0801492091493 0.802 6.73556948043e-39
0.0947547683672 -0.0799493358098 0.8 4.89598129022e-39
0.0962353116229 -0.0799493358098 0.8 8.49020254993e-39
-0.0396970660444 -0.0809209423214 0.825 2.34176899853e-38
-0.038170255812 -0.0809209423214 0.825 2.35098856151e-38
-0.0366434455795 -0.0809209423214 0.825 2.35095268827e-38
-0.035116635347 -0.0809209423214 0.825 2.30506955227e-38
-0.0335898251145 -0.0809209423214 0.825 1.32797706361e-38
-0.0319852863611 -0.08072477034 0.823 1.02131957014e-39
-0.0304621774868 -0.08072477034 0.823 5.26444711622e-39
-0.0289390686124 -0.08072477034 0.823 4.98786022663e-39
-0.0274159597381 -0.08072477034 0.823 7.20016998627e-39
-0.0258928508638 -0.08072477034 0.823 6.09167703997e-39
-0.0243697419894 -0.08072477034 0.823 3.1399959677e-39
-0.0228466331151 -0.08072477034 0.823 5.81366923373e-39
-0.0213235242407 -0.08072477034 0.823 7.01220961936e-39
-0.0198004153664 -0.08072477034 0.823 7.65793355691e-39
-0.0182328901944 -0.0805285983586 0.821 8.57916398294e-39
-0.0167134826782 -0.0805285983586 0.821 8.11781869343e-39
-0.015194075162 -0.0805285983586 0.821 7.74831030137e-39
-0.0136746676458 -0.0805285983586 0.821 8.39331537281e-39
-0.0121256492645 -0.0803324263772 0.819 6.18204397533e-39
-0.0106099431064 -0.0803324263772 0.819 6.73593802192e-39
-0.00909423694836 -0.0803324263772 0.819 5.44664534385e-39
-0.0075785307903 -0.0803324263772 0.819 5.35481825548e-39
-0.00606282463224 -0.0803324263772 0.819 4.15591773615e-39
-0.00454711847418 -0.0803324263772 0.819 5.81507753869e-39
-0.00303141231612 -0.0803324263772 0.819 7.01289205171e-39
-0.00151570615806 -0.0803324263772 0.819 7.01144871429e-39
0.0 -0.0803324263772 0.819 6.27497668819e-39
0.00151570615806 -0.0803324263772 0.819 8.2107331894e-39
0.00303141231612 -0.0803324263772 0.819 8.57951290626e-39
0.00454711847418 -0.0803324263772 0.819 8.21143523993e-39
0.00606282463224 -0.0803324263772 0.819 7.75151647226e-39
0.00756002399961 -0.0801362543958 0.817 7.75114652946e-39
0.00907202879953 -0.0801362543958 0.817 7.01358429315e-39
0.0105840335994 -0.0801362543958 0.817 6.92103693737e-39
0.0120960383994 -0.0801362543958 0.817 5.99944777894e-39
0.013574730976 -0.0799400824144 0.815 4.98602172305e-39
0.0150830344178 -0.0799400824144 0.815 6.18420898146e-39
0.0165913378596 -0.0799400824144 0.815 5.99981772173e-39
0.0180552250037 -0.0797439104331 0.813 6.368956171e-39
0.0195598270874 -0.0797439104331 0.813 6.73665688804e-39
0.021064429171 -0.0797439104331 0.813 8.67275670737e-39
0.0225690312546 -0.0797439104331 0.813 9.31704151141e-39
0.0240736333383 -0.0797439104331 0.813 8.76566840075e-39
0.0255782354219 -0.0797439104331 0.813 7.93520287886e-39
0.0270828375056 -0.0797439104331 0.813 8.12028497872e-39
0.0285874395892 -0.0797439104331 0.813 8.21212888267e-39
0.0300920416729 -0.0797439104331 0.813 8.94719680772e-39
0.0315189152356 -0.0795477384517 0.811 9.31022839827e-39
0.0330198159611 -0.0795477384517 0.811 6.90167659779e-39
0.0345207166866 -0.0795477384517 0.811 8.36782715504e-39
0.0360216174121 -0.0795477384517 0.811 8.09195913157e-39
0.0375225181376 -0.0795477384517 0.811 8.55327779641e-39
0.0390234188631 -0.0795477384517 0.811 9.7503874563e-39
0.0405243195886 -0.0795477384517 0.811 9.84578925705e-39
0.0420252203141 -0.0795477384517 0.811 1.92519239235e-38
0.0435261210396 -0.0795477384517 0.811 8.18988046696e-39
0.0449159810209 -0.0793515664703 0.809 1.37191323553e-38
0.0464131803883 -0.0793515664703 0.809 5.14279058744e-39
0.0479103797556 -0.0793515664703 0.809 1.60229328917e-38
0.049407579123 -0.0793515664703 0.809 1.62134436218e-38
0.0509047784904 -0.0793515664703 0.809 1.61230430552e-38
0.0524019778577 -0.0793515664703 0.809 8.09516249986e-39
0.0538991772251 -0.0793515664703 0.809 1.15045917285e-38
0.0553963765925 -0.0793515664703 0.809 1.32649631152e-38
0.0568935759598 -0.0793515664703 0.809 1.37288209329e-38
0.0583907753272 -0.0793515664703 0.809 1.29840392069e-38
0.0598879746946 -0.0793515664703 0.809 9.38874735512e-39
0.0613851740619 -0.0793515664703 0.809 9.94376244049e-39
0.0628823734293 -0.0793515664703 0.809 1.37284579966e-38
0.0643795727966 -0.0793515664703 0.809 1.44656825199e-38
0.0657139124059 -0.0791553944889 0.807 1.24348535231e-38
0.0672074104151 -0.0791553944889 0.807 1.34450313692e-38
0.0687009084243 -0.0791553944889 0.807 1.41825319483e-38
0.0701944064336 -0.0791553944889 0.807 1.24297387837e-38
0.0715102392521 -0.0789592225075 0.805 1.40943524399e-38
0.0730000359032 -0.0789592225075 0.805 1.49248487903e-38
0.0744898325543 -0.0789592225075 0.805 1.24366093501e-38
0.0759796292053 -0.0789592225075 0.805 1.59414670041e-38
0.0774694258564 -0.0789592225075 0.805 1.42827163808e-38
0.0789592225075 -0.0789592225075 0.805 1.39154038234e-38
0.0804490191586 -0.0789592225075 0.805 1.40097434399e-38
0.0819388158097 -0.0789592225075 0.805 1.3732807627e-38
0.0834286124608 -0.0789592225075 0.805 1.47455386388e-38
0.0849184091119 -0.0789592225075 0.805 1.4101944675e-38
0.0864082057629 -0.0789592225075 0.805 1.14325565796e-38
0.087898002414 -0.0789592225075 0.805 7.65645798963e-39
0.0893877990651 -0.0789592225075 0.805 5.35300497527e-39
0.0908775957162 -0.0789592225075 0.805 7.65824744777e-39
0.0921379081626 -0.0787630505261 0.803 7.47242966621e-39
0.0936240034556 -0.0787630505261 0.803 7.01108858059e-39
0.0951100987485 -0.0787630505261 0.803 6.09238049179e-39
0.0965961940415 -0.0787630505261 0.803 9.68731921632e-39
-0.0414237496164 -0.0797790733354 0.829 2.35098856151e-38
-0.0397933013561 -0.0795866027121 0.827 2.35098856151e-38
-0.0382627897654 -0.0795866027121 0.827 2.35098856151e-38
-0.0366434455795 -0.0793941320889 0.825 2.34173326542e-38
-0.035116635347 -0.0793941320889 0.825 2.30506955227e-38
-0.0335898251145 -0.0793941320889 0.825 1.22656215102e-38
-0.0320630148821 -0.0793941320889 0.825 9.28768010468e-40
-0.0305362046496 -0.0793941320889 0.825 5.3573616122e-39
-0.0290093944171 -0.0793941320889 0.825 5.17225148636e-39
-0.0274159597381 -0.0792016614656 0.823 7.01577872655e-39
-0.0258928508638 -0.0792016614656 0.823 8.21182059701e-39
-0.0243697419894 -0.0792016614656 0.823 7.19767427371e-39
-0.0228466331151 -0.0792016614656 0.823 5.7225441959e-39
-0.0213235242407 -0.0792016614656 0.823 6.1828034791e-39
-0.0198485330222 -0.0793941320889 0.825 2.03329528212e-39
-0.0182773064921 -0.0792016614656 0.823 4.24525331585e-39
-0.0167541976177 -0.0792016614656 0.823 2.76905544861e-39
-0.015194075162 -0.0790091908424 0.821 3.96758742644e-39
-0.0136746676458 -0.0790091908424 0.821 4.52076120562e-39
-0.0121552601296 -0.0790091908424 0.821 7.38023123375e-39
-0.0106358526134 -0.0790091908424 0.821 8.11922559709e-39
-0.0091164450972 -0.0790091908424 0.821 9.04154763462e-39
-0.007597037581 -0.0790091908424 0.821 8.02812298002e-39
-0.0060776300648 -0.0790091908424 0.821 8.5812995618e-39
-0.0045582225486 -0.0790091908424 0.821 8.02704398021e-39
-0.0030388150324 -0.0790091908424 0.821 8.02667964261e-39
-0.0015194075162 -0.0790091908424 0.821 6.91960621164e-39
0.0 -0.0790091908424 0.821 6.09056861288e-39
0.0015194075162 -0.0790091908424 0.821 5.62959606876e-39
0.00303141231612 -0.0788167202191 0.819 5.81363279997e-39
0.00454711847418 -0.0788167202191 0.819 5.99874292581e-39
0.00606282463224 -0.0788167202191 0.819 4.89239256485e-39
0.0075785307903 -0.0788167202191 0.819 5.99909465173e-39
0.00909423694836 -0.0788167202191 0.819 6.27497388559e-39
0.0105840335994 -0.0786242495959 0.817 7.56536378036e-39
0.0120960383994 -0.0786242495959 0.817 7.47422472954e-39
0.0136080431993 -0.0786242495959 0.817 7.75188781635e-39
0.0151200479992 -0.0786242495959 0.817 7.84444918511e-39
0.0165913378596 -0.0784317789727 0.815 8.30542873573e-39
0.0180996413014 -0.0784317789727 0.815 7.75261509025e-39
0.0196079447432 -0.0784317789727 0.815 6.27675773854e-39
0.0211162481849 -0.0784317789727 0.815 8.39616981778e-39
0.0225690312546 -0.0782393083494 0.813 8.48763677245e-39
0.0240736333383 -0.0782393083494 0.813 8.30396858273e-39
0.0255782354219 -0.0782393083494 0.813 8.30326933479e-39
0.0270828375056 -0.0782393083494 0.813 8.58091000083e-39
0.0285874395892 -0.0782393083494 0.813 8.30397138532e-39
0.0300920416729 -0.0782393083494 0.813 9.40781902722e-39
0.0315966437565 -0.0782393083494 0.813 9.95523767361e-39
0.0331012458401 -0.0782393083494 0.813 6.25450932282e-39
0.0346058479238 -0.0782393083494 0.813 8.82664029823e-39
0.0360216174121 -0.0780468377262 0.811 9.84079082543e-39
0.0375225181376 -0.0780468377262 0.811 8.73550124741e-39
0.0390234188631 -0.0780468377262 0.811 1.05779761125e-38
0.0405243195886 -0.0780468377262 0.811 1.12258328263e-38
0.0420252203141 -0.0780468377262 0.811 1.45466957881e-38
0.0435261210396 -0.0780468377262 0.811 1.60232607955e-38
0.0450270217651 -0.0780468377262 0.811 6.33916036175e-39
0.0465279224906 -0.0780468377262 0.811 6.61215712467e-39
0.0480288232161 -0.0780468377262 0.811 1.13180648899e-38
0.0495297239416 -0.0780468377262 0.811 1.51938826812e-38
0.0510306246671 -0.0780468377262 0.811 1.0676654149e-38
0.0525315253926 -0.0780468377262 0.811 9.01387619384e-39
0.0538991772251 -0.0778543671029 0.809 8.27882788698e-39
0.0553963765925 -0.0778543671029 0.809 1.44624315075e-38
0.0568935759598 -0.0778543671029 0.809 6.62615749763e-39
0.0583907753272 -0.0778543671029 0.809 1.27049215722e-38
0.0598879746946 -0.0778543671029 0.809 1.2889298819e-38
0.0615369297456 -0.0780468377262 0.811 1.21538861745e-38
0.0630378304711 -0.0780468377262 0.811 1.19730990544e-38
0.0643795727966 -0.0778543671029 0.809 1.55676776453e-38
0.065876772164 -0.0778543671029 0.809 4.96055872865e-39
0.0673739715314 -0.0778543671029 0.809 1.20588445075e-38
0.0688711708987 -0.0778543671029 0.809 1.25212127449e-38
0.0701944064336 -0.0776618964797 0.807 1.32580897462e-38
0.0716879044428 -0.0776618964797 0.807 1.12359249778e-38
0.073181402452 -0.0776618964797 0.807 1.76910722148e-38
0.0746749004612 -0.0776618964797 0.807 1.11480341368e-38
0.0761683984705 -0.0776618964797 0.807 1.47454545609e-38
0.0776618964797 -0.0776618964797 0.807 1.45607480091e-38
0.0791553944889 -0.0776618964797 0.807 1.45604102961e-38
0.0806488924981 -0.0776618964797 0.807 1.41008530635e-38
0.0821423905073 -0.0776618964797 0.807 1.36409665256e-38
0.0836358885166 -0.0776618964797 0.807 1.37313881116e-38
0.0851293865258 -0.0776618964797 0.807 1.39182778865e-38
0.086622884535 -0.0776618964797 0.807 1.05116722743e-38
0.0881163825442 -0.0776618964797 0.807 7.65717405315e-39
0.0893877990651 -0.0774694258564 0.805 6.46077485157e-39
0.0908775957162 -0.0774694258564 0.805 6.64481438538e-39
0.0923673923673 -0.0774694258564 0.805 7.28803560388e-39
0.0938571890184 -0.0774694258564 0.805 7.1951253118e-39
0.0951100987485 -0.0772769552332 0.803 5.72109665458e-39
0.0965961940415 -0.0772769552332 0.803 9.13128398568e-39
-0.0429579625652 -0.0782448603866 0.829 2.35098856151e-38
-0.0414237496164 -0.0782448603866 0.829 2.35098856151e-38
-0.0398895366677 -0.0782448603866 0.829 2.35098856151e-38
-0.0382627897654 -0.0780560911215 0.827 2.35098856151e-38
-0.0367322781748 -0.0780560911215 0.827 2.35091681503e-38
-0.0352017665842 -0.0780560911215 0.827 2.34180431125e-38
-0.0336712549936 -0.0780560911215 0.827 1.25414895337e-38
-0.032140743403 -0.0780560911215 0.827 1.11279913649e-39
-0.0306102318124 -0.0780560911215 0.827 5.08005725779e-39
-0.0290797202217 -0.0780560911215 0.827 4.80239136839e-39
-0.0274825841846 -0.0778673218564 0.825 6.83138886812e-39
-0.0259557739521 -0.0778673218564 0.825 6.92108177893e-39
-0.0244289637197 -0.0778673218564 0.825 5.90728578024e-39
-0.0229021534872 -0.0778673218564 0.825 6.36754366214e-39
-0.0213753432547 -0.0778673218564 0.825 8.21037866089e-39
-0.019896650678 -0.0780560911215 0.827 8.21001852719e-39
-0.0182773064921 -0.0776785525913 0.823 1.01446946273e-38
-0.0167541976177 -0.0776785525913 0.823 8.94687731167e-39
-0.0152310887434 -0.0776785525913 0.823 7.47175143775e-39
-0.0137079798691 -0.0776785525913 0.823 7.47139550794e-39
-0.0121848709947 -0.0776785525913 0.823 5.16648234058e-39
-0.0106617621204 -0.0776785525913 0.823 5.25903109766e-39
-0.00913865324604 -0.0776785525913 0.823 3.04779052874e-39
-0.0076155443717 -0.0776785525913 0.823 2.21875993647e-39
-0.0060776300648 -0.0774897833262 0.821 1.57340033652e-39
-0.0045582225486 -0.0774897833262 0.821 2.77084911064e-39
-0.0030388150324 -0.0774897833262 0.821 4.24560644306e-39
-0.0015194075162 -0.0774897833262 0.821 5.44270629387e-39
0.0 -0.0774897833262 0.821 8.6709952752e-39
0.0015194075162 -0.0774897833262 0.821 8.11746696751e-39
0.0030388150324 -0.0774897833262 0.821 9.4082085882e-39
0.0045582225486 -0.0774897833262 0.821 9.50075594397e-39
0.0060776300648 -0.0774897833262 0.821 8.57986463217e-39
0.0075785307903 -0.0773010140611 0.819 7.01324658022e-39
0.00909423694836 -0.0773010140611 0.819 8.39690409818e-39
0.0106099431064 -0.0773010140611 0.819 6.73738696454e-39
0.0121256492645 -0.0773010140611 0.819 6.18348310886e-39
0.0136080431993 -0.077112244796 0.817 5.07821595161e-39
0.0151200479992 -0.077112244796 0.817 7.01468991764e-39
0.0166320527991 -0.077112244796 0.817 8.30579447463e-39
0.0181440575991 -0.077112244796 0.817 7.29236281354e-39
0.019656062399 -0.077112244796 0.817 8.39762296429e-39
0.0211680671989 -0.077112244796 0.817 8.1199444632e-39
0.0226245516267 -0.0769234755309 0.815 8.3025294492e-39
0.0241328550685 -0.0769234755309 0.815 7.93518886587e-39
0.0256411585103 -0.0769234755309 0.815 8.57877862586e-39
0.0271494619521 -0.0769234755309 0.815 8.58091140213e-39
0.0285874395892 -0.0767347062658 0.813 8.21213869176e-39
0.0300920416729 -0.0767347062658 0.813 9.31597932717e-39
0.0315966437565 -0.0767347062658 0.813 9.12547139965e-39
0.0331012458401 -0.0767347062658 0.813 4.87194481766e-39
0.0346058479238 -0.0767347062658 0.813 7.4440561749e-39
0.0361104500074 -0.0767347062658 0.813 9.47163415929e-39
0.0376150520911 -0.0767347062658 0.813 9.47053554129e-39
0.0391196541747 -0.0767347062658 0.813 1.12204630506e-38
0.0406242562583 -0.0767347062658 0.813 1.2790637598e-38
0.042128858342 -0.0767347062658 0.813 1.19627000185e-38
0.0436334604256 -0.0767347062658 0.813 9.84327392631e-39
0.0451380625093 -0.0767347062658 0.813 1.05772712593e-38
0.0465279224906 -0.0765459370007 0.811 7.7159767406e-39
0.0480288232161 -0.0765459370007 0.811 6.61394938541e-39
0.0495297239416 -0.0765459370007 0.811 7.72137033839e-39
0.0510306246671 -0.0765459370007 0.811 9.74928603571e-39
0.0525315253926 -0.0765459370007 0.811 1.28860618195e-38
0.0540324261181 -0.0765459370007 0.811 1.29832951174e-38
0.0555333268436 -0.0765459370007 0.811 1.71357376333e-38
0.0570342275691 -0.0765459370007 0.811 7.45233364493e-39
0.0585351282946 -0.0765459370007 0.811 1.24251173014e-38
0.0600360290201 -0.0765459370007 0.811 1.31644409699e-38
0.0615369297456 -0.0765459370007 0.811 1.15084943447e-38
0.0630378304711 -0.0765459370007 0.811 1.38158948168e-38
0.0645387311966 -0.0765459370007 0.811 1.12326571498e-38
0.0660396319221 -0.0765459370007 0.811 5.5112059667e-39
0.0675405326476 -0.0765459370007 0.811 1.47318031113e-38
0.0690414333731 -0.0765459370007 0.811 1.43662211575e-38
0.0703683702661 -0.0763571677356 0.809 8.18915879825e-39
0.0718655696335 -0.0763571677356 0.809 9.02286412219e-39
0.073181402452 -0.0761683984705 0.807 1.64928779498e-38
0.0746749004612 -0.0761683984705 0.807 1.36401986141e-38
0.0763571677356 -0.0763571677356 0.809 1.41948059216e-38
0.0776618964797 -0.0761683984705 0.807 1.4100132796e-38
0.0791553944889 -0.0761683984705 0.807 1.44678503287e-38
0.0808487658376 -0.0763571677356 0.809 1.43770700102e-38
0.082345965205 -0.0763571677356 0.809 1.41937689607e-38
0.0838431645724 -0.0763571677356 0.809 1.33629545155e-38
0.0853403639397 -0.0763571677356 0.809 1.45625654932e-38
0.086622884535 -0.0761683984705 0.807 1.01425198121e-38
0.0881163825442 -0.0761683984705 0.807 7.56462249347e-39
0.0896098805535 -0.0761683984705 0.807 6.18454669439e-39
0.0911033785627 -0.0761683984705 0.807 7.47529812416e-39
0.0923673923673 -0.0759796292053 0.805 7.01324377763e-39
0.0938571890184 -0.0759796292053 0.805 7.56534696478e-39
0.0953469856695 -0.0759796292053 0.805 2.86985925494e-42
0.0968367823205 -0.0759796292053 0.805 2.30506857136e-38
-0.0429579625652 -0.0767106474379 0.829 2.35098856151e-38
-0.0414237496164 -0.0767106474379 0.829 2.35098856151e-38
-0.0398895366677 -0.0767106474379 0.829 2.35098856151e-38
-0.0382627897654 -0.0765255795309 0.827 2.35098856151e-38
-0.0367322781748 -0.0765255795309 0.827 2.35091681503e-38
-0.0352017665842 -0.0765255795309 0.827 2.35098786087e-38
-0.0336712549936 -0.0765255795309 0.827 1.21716294157e-38
-0.032140743403 -0.0765255795309 0.827 4.66352128927e-40
-0.0306102318124 -0.0765255795309 0.827 5.07861812427e-39
-0.0290797202217 -0.0765255795309 0.827 5.53959627359e-39
-0.0275492086311 -0.0765255795309 0.827 7.84374293069e-39
-0.0260186970405 -0.0765255795309 0.827 8.58024298276e-39
-0.0244881854499 -0.0765255795309 0.827 7.38134386473e-39
-0.0229576738593 -0.0765255795309 0.827 7.9337917713e-39
-0.0214271622687 -0.0765255795309 0.827 6.9192797091e-39
-0.019896650678 -0.0765255795309 0.827 6.54941678853e-39
-0.0183661390874 -0.0765255795309 0.827 6.3650269301e-39
-0.0167949125573 -0.0763405116239 0.825 7.10331784161e-39
-0.0152681023248 -0.0763405116239 0.825 6.6427054312e-39
-0.0137412920923 -0.0763405116239 0.825 8.21075561018e-39
-0.0122144818598 -0.0763405116239 0.825 7.56321979371e-39
-0.0106876716274 -0.0763405116239 0.825 7.56321979371e-39
-0.00913865324604 -0.076155443717 0.823 8.30150790262e-39
-0.0076155443717 -0.076155443717 0.823 9.03979320894e-39
-0.00609243549736 -0.076155443717 0.823 9.13163290899e-39
-0.00456932662302 -0.076155443717 0.823 8.30151210652e-39
-0.00304621774868 -0.076155443717 0.823 7.74725652492e-39
-0.0015194075162 -0.07597037581 0.821 5.90298239265e-39
0.0 -0.07597037581 0.821 3.04671433152e-39
0.0015194075162 -0.07597037581 0.821 5.62816814562e-39
0.0030388150324 -0.07597037581 0.821 3.96901534958e-39
0.0045582225486 -0.07597037581 0.821 1.57196540689e-39
0.0060776300648 -0.07597037581 0.821 2.21840120407e-39
0.007597037581 -0.07597037581 0.821 4.24775042971e-39
0.0091164450972 -0.07597037581 0.821 6.09130709717e-39
0.0106099431064 -0.075785307903 0.819 6.64413055173e-39
0.0121256492645 -0.075785307903 0.819 6.82850079198e-39
0.0136413554225 -0.075785307903 0.819 8.58129535791e-39
0.0151570615806 -0.075785307903 0.819 8.1214032149e-39
0.0166727677387 -0.075785307903 0.819 8.12212768621e-39
0.0181884738967 -0.075785307903 0.819 9.413226638e-39
0.0197041800548 -0.075785307903 0.819 8.02920478244e-39
0.0211680671989 -0.0756002399961 0.817 8.39653415538e-39
0.0226800719988 -0.0756002399961 0.817 8.48656477912e-39
0.0241920767987 -0.0756002399961 0.817 8.76315447131e-39
0.0257040815987 -0.0756002399961 0.817 8.48622706619e-39
0.0272160863986 -0.0756002399961 0.817 7.75115073336e-39
0.0286577653939 -0.0754151720891 0.815 7.84335617231e-39
0.0301660688356 -0.0754151720891 0.815 8.94755694142e-39
0.0316743722774 -0.0754151720891 0.815 8.57336961379e-39
0.0331826757192 -0.0754151720891 0.815 1.22490035117e-38
0.034690979161 -0.0754151720891 0.815 7.81426801879e-39
0.0361992826028 -0.0754151720891 0.815 1.08549175306e-38
0.0376150520911 -0.0752301041821 0.813 9.4708942737e-39
0.0391196541747 -0.0752301041821 0.813 1.00215653338e-38
0.0406242562583 -0.0752301041821 0.813 1.20512887062e-38
0.042128858342 -0.0752301041821 0.813 1.26988441408e-38
0.0436334604256 -0.0752301041821 0.813 8.91989250714e-39
0.0451380625093 -0.0752301041821 0.813 8.54789540901e-39
0.0466426645929 -0.0752301041821 0.813 8.45174671618e-39
0.0481472666766 -0.0752301041821 0.813 1.0948228594e-38
0.0496518687602 -0.0752301041821 0.813 7.35151022042e-39
0.0511564708438 -0.0752301041821 0.813 1.03935680371e-38
0.0526610729275 -0.0752301041821 0.813 1.34413795854e-38
0.0541656750111 -0.0752301041821 0.813 1.0221733813e-38
0.0556702770948 -0.0752301041821 0.813 1.69531442395e-38
0.0570342275691 -0.0750450362752 0.811 1.34439747901e-38
0.0585351282946 -0.0750450362752 0.811 8.0915681693e-39
0.0600360290201 -0.0750450362752 0.811 1.08620585475e-38
0.0615369297456 -0.0750450362752 0.811 1.42754464443e-38
0.0630378304711 -0.0750450362752 0.811 1.51084202905e-38
0.0645387311966 -0.0750450362752 0.811 1.38159102311e-38
0.0660396319221 -0.0750450362752 0.811 6.62148276595e-39
0.0675405326476 -0.0750450362752 0.811 1.5378631272e-38
0.0690414333731 -0.0750450362752 0.811 1.7043159449e-38
0.0705423340987 -0.0750450362752 0.811 1.5109591776e-38
0.0718655696335 -0.0748599683682 0.809 9.85297231298e-39
0.0733627690008 -0.0748599683682 0.809 1.55723509756e-38
0.0748599683682 -0.0748599683682 0.809 1.5577385841e-38
0.0763571677356 -0.0748599683682 0.809 1.4473556416e-38
0.0778543671029 -0.0748599683682 0.809 1.46540268426e-38
0.0793515664703 -0.0748599683682 0.809 1.51124938651e-38
0.0808487658376 -0.0748599683682 0.809 1.47458441219e-38
0.082345965205 -0.0748599683682 0.809 1.43785119464e-38
0.0838431645724 -0.0748599683682 0.809 1.43770896284e-38
0.0853403639397 -0.0748599683682 0.809 1.52079236918e-38
0.0868375633071 -0.0748599683682 0.809 9.129074138e-39
0.0883347626745 -0.0748599683682 0.809 7.28803840648e-39
0.0898319620418 -0.0748599683682 0.809 5.72465174879e-39
0.0913291614092 -0.0748599683682 0.809 7.47566386306e-39
0.0925968765719 -0.0746749004612 0.807 6.27747380205e-39
0.0940903745811 -0.0746749004612 0.807 6.8295783905e-39
0.0955838725904 -0.0746749004612 0.807 3.58732406867e-42
0.0970773705996 -0.0746749004612 0.807 2.28670315368e-38
-0.0414237496164 -0.0751764344891 0.829 2.35098856151e-38
-0.0398895366677 -0.0751764344891 0.829 2.35098856151e-38
-0.0383553237189 -0.0751764344891 0.829 2.35098856151e-38
-0.0368211107702 -0.0751764344891 0.829 2.35088094179e-38
-0.0352868978214 -0.0751764344891 0.829 2.35098786087e-38
-0.0337526848727 -0.0751764344891 0.829 1.22631061794e-38
-0.0322184719239 -0.0751764344891 0.829 1.29539533288e-39
-0.0306842589751 -0.0751764344891 0.829 6.55266920227e-39
-0.0290797202217 -0.0749950679403 0.827 5.62999403752e-39
-0.0275492086311 -0.0749950679403 0.827 7.47424154512e-39
-0.0260186970405 -0.0749950679403 0.827 6.82673095202e-39
-0.0244881854499 -0.0749950679403 0.827 6.55051120263e-39
-0.0229576738593 -0.0749950679403 0.827 7.19516034426e-39
-0.0214271622687 -0.0749950679403 0.827 7.56321699111e-39
-0.0199447683338 -0.0751764344891 0.829 8.57700318071e-39
-0.0183661390874 -0.0749950679403 0.827 8.76211190525e-39
-0.0168356274968 -0.0749950679403 0.827 8.21001712589e-39
-0.0153051159062 -0.0749950679403 0.827 7.75048231399e-39
-0.0137746043156 -0.0749950679403 0.827 7.75156131381e-39
-0.0122144818598 -0.0748137013915 0.825 6.27390609616e-39
-0.0106876716274 -0.0748137013915 0.825 6.18099019889e-39
-0.00916086139487 -0.0748137013915 0.825 7.10366956753e-39
-0.00763405116239 -0.0748137013915 0.825 5.35231413513e-39
-0.00610724092991 -0.0748137013915 0.825 6.55085732335e-39
-0.00456932662302 -0.0746323348426 0.823 7.38025785842e-39
-0.00304621774868 -0.0746323348426 0.823 7.28698322874e-39
-0.00152310887434 -0.0746323348426 0.823 7.47101295346e-39
0.0 -0.0746323348426 0.823 8.85500958564e-39
0.00152310887434 -0.0746323348426 0.823 9.13159927783e-39
0.00304621774868 -0.0746323348426 0.823 8.57915277255e-39
0.00456932662302 -0.0746323348426 0.823 9.40891344132e-39
0.0060776300648 -0.0744509682938 0.821 7.84229959327e-39
0.007597037581 -0.0744509682938 0.821 7.75153468914e-39
0.0091164450972 -0.0744509682938 0.821 7.75153609043e-39
0.0106358526134 -0.0744509682938 0.821 4.89384010617e-39
0.0121552601296 -0.0744509682938 0.821 5.07678242328e-39
0.0136413554225 -0.074269601745 0.819 5.81434746219e-39
0.0151570615806 -0.074269601745 0.819 3.05030165559e-39
0.0166727677387 -0.074269601745 0.819 1.76101738531e-39
0.0181884738967 -0.074269601745 0.819 8.39075099662e-40
0.0197041800548 -0.074269601745 0.819 6.18493905796e-39
0.0212198862128 -0.074269601745 0.819 8.85715637489e-39
0.0227355923709 -0.074269601745 0.819 8.11778506226e-39
0.0241920767987 -0.0740882351961 0.817 8.85535150247e-39
0.0257040815987 -0.0740882351961 0.817 9.13123634153e-39
0.0272160863986 -0.0740882351961 0.817 8.39616421259e-39
0.0287280911985 -0.0740882351961 0.817 8.30433432163e-39
0.0302400959984 -0.0740882351961 0.817 8.48837385544e-39
0.0317521007983 -0.0740882351961 0.817 9.95810052637e-39
0.0332641055983 -0.0740882351961 0.817 1.49244662359e-38
0.0347761103982 -0.0740882351961 0.817 9.29046308343e-39
0.0362881151981 -0.0740882351961 0.817 1.57419991742e-38
0.037800119998 -0.0740882351961 0.817 1.0763070824e-38
0.0392158894863 -0.0739068686473 0.815 9.1010565765e-39
0.0407241929281 -0.0739068686473 0.815 8.45639902708e-39
0.0422324963699 -0.0739068686473 0.815 1.53721768913e-38
0.0437407998117 -0.0739068686473 0.815 1.28843228081e-38
0.0452491032535 -0.0739068686473 0.815 6.61215992727e-39
0.0466426645929 -0.0737255020985 0.813 7.16317290422e-39
0.0481472666766 -0.0737255020985 0.813 1.58378129567e-38
0.0496518687602 -0.0737255020985 0.813 1.27009993378e-38
0.0511564708438 -0.0737255020985 0.813 1.3804449011e-38
0.0526610729275 -0.0737255020985 0.813 1.48254154539e-38
0.0541656750111 -0.0737255020985 0.813 1.53872380472e-38
0.0556702770948 -0.0737255020985 0.813 1.1976397711e-38
0.0571748791784 -0.0737255020985 0.813 1.51052925923e-38
0.0586794812621 -0.0737255020985 0.813 9.84542071556e-39
0.0601840833457 -0.0737255020985 0.813 1.44612614233e-38
0.0616886854293 -0.0737255020985 0.813 1.23418703635e-38
0.063193287513 -0.0737255020985 0.813 1.56623507708e-38
0.0646978895966 -0.0737255020985 0.813 1.39120210889e-38
0.0662024916803 -0.0737255020985 0.813 6.99384700428e-39
0.0675405326476 -0.0735441355497 0.811 1.59354021844e-38
0.0690414333731 -0.0735441355497 0.811 1.54787484421e-38
0.0705423340987 -0.0735441355497 0.811 1.53922785178e-38
0.0720432348242 -0.0735441355497 0.811 1.52017397617e-38
0.0735441355497 -0.0735441355497 0.811 1.21614643966e-38
0.0750450362752 -0.0735441355497 0.811 1.42884434876e-38
0.0765459370007 -0.0735441355497 0.811 1.4566470912e-38
0.0780468377262 -0.0735441355497 0.811 1.43781602205e-38
0.0795477384517 -0.0735441355497 0.811 1.52043265587e-38
0.0810486391772 -0.0735441355497 0.811 1.48373138792e-38
0.0825495399027 -0.0735441355497 0.811 1.41944752152e-38
0.0840504406282 -0.0735441355497 0.811 1.47458581349e-38
0.0855513413537 -0.0735441355497 0.811 1.41934004192e-38
0.0870522420792 -0.0735441355497 0.811 8.66772604589e-39
0.0883347626745 -0.0733627690008 0.809 8.30219173627e-39
0.0898319620418 -0.0733627690008 0.809 7.10757498635e-39
0.0913291614092 -0.0733627690008 0.809 7.29163694094e-39
0.0928263607766 -0.0733627690008 0.809 7.10795333693e-39
0.0943235601439 -0.0733627690008 0.809 6.46151193457e-39
0.0958207595113 -0.0733627690008 0.809 1.66778199199e-39
0.0973179588787 -0.0733627690008 0.809 2.20405176766e-38
-0.0414237496164 -0.0736422215403 0.829 2.35098856151e-38
-0.0398895366677 -0.0736422215403 0.829 2.35098856151e-38
-0.0383553237189 -0.0736422215403 0.829 2.35098856151e-38
-0.0368211107702 -0.0736422215403 0.829 2.35091681503e-38
-0.0353720290586 -0.073819886731 0.831 2.35091583412e-38
-0.0337526848727 -0.0736422215403 0.829 1.25393469483e-38
-0.0322184719239 -0.0736422215403 0.829 9.28040736565e-40
-0.0306842589751 -0.0736422215403 0.829 5.90873051896e-39
-0.0291500460264 -0.0736422215403 0.829 5.81473702316e-39
-0.0276158330776 -0.0736422215403 0.829 7.84158493105e-39
-0.0260816201289 -0.0736422215403 0.829 8.669905065e-39
-0.0244881854499 -0.0734645563497 0.827 8.39333358969e-39
-0.0229576738593 -0.0734645563497 0.827 8.30078203002e-39
-0.0214271622687 -0.0734645563497 0.827 7.28698603133e-39
-0.0199447683338 -0.0736422215403 0.829 6.82673375462e-39
-0.0184105553851 -0.0736422215403 0.829 7.01148935195e-39
-0.0168356274968 -0.0734645563497 0.827 5.53708234414e-39
-0.0153051159062 -0.0734645563497 0.827 6.73634019458e-39
-0.0137746043156 -0.0734645563497 0.827 5.44702649703e-39
-0.0122440927249 -0.0734645563497 0.827 7.01182426228e-39
-0.0107135811343 -0.0734645563497 0.827 6.9185524352e-39
-0.00918306954371 -0.0734645563497 0.827 7.6564888182e-39
-0.00763405116239 -0.073286891159 0.825 8.11746696751e-39
-0.00610724092991 -0.073286891159 0.825 7.38025645712e-39
-0.00458043069744 -0.073286891159 0.825 8.67099247261e-39
-0.00305362046496 -0.073286891159 0.825 8.76211330655e-39
-0.00152681023248 -0.073286891159 0.825 7.28663010152e-39
0.0 -0.073286891159 0.825 5.72285808675e-39
0.00152310887434 -0.0731092259683 0.823 6.64481438538e-39
0.00304621774868 -0.0731092259683 0.823 4.9838721312e-39
0.00456932662302 -0.0731092259683 0.823 4.89060030412e-39
0.00609243549736 -0.0731092259683 0.823 6.36607930525e-39
0.0076155443717 -0.0731092259683 0.823 6.64301932205e-39
0.0091164450972 -0.0729315607776 0.821 7.65754259464e-39
0.0106358526134 -0.0729315607776 0.821 8.57951570886e-39
0.0121552601296 -0.0729315607776 0.821 8.94755974402e-39
0.0136746676458 -0.0729315607776 0.821 8.57913035178e-39
0.015194075162 -0.0729315607776 0.821 9.68620378274e-39
0.0167134826782 -0.0729315607776 0.821 8.21143804253e-39
0.0182328901944 -0.0729315607776 0.821 8.85680464898e-39
0.0197041800548 -0.0727538955869 0.819 8.5805722879e-39
0.0212198862128 -0.0727538955869 0.819 9.22557315545e-39
0.0227355923709 -0.0727538955869 0.819 8.58055827491e-39
0.024251298529 -0.0727538955869 0.819 8.39402302854e-39
0.025767004687 -0.0727538955869 0.819 8.669905065e-39
0.0272827108451 -0.0727538955869 0.819 8.76424187892e-39
0.0287280911985 -0.0725762303962 0.817 6.7391554032e-39
0.0302400959984 -0.0725762303962 0.817 9.04297555775e-39
0.0317521007983 -0.0725762303962 0.817 5.7160589866e-39
0.0332641055983 -0.0725762303962 0.817 4.59787606141e-39
0.0347761103982 -0.0725762303962 0.817 5.51012976948e-39
0.0362881151981 -0.0725762303962 0.817 1.50048264989e-38
0.037800119998 -0.0725762303962 0.817 8.27165604144e-39
0.039312124798 -0.0725762303962 0.817 9.55918308344e-39
0.0408241295979 -0.0725762303962 0.817 9.74643719593e-39
0.0423361343978 -0.0725762303962 0.817 1.39024306022e-38
0.0438481391977 -0.0725762303962 0.817 1.92544644776e-38
0.0453601439976 -0.0725762303962 0.817 1.03125589729e-38
0.0467574066952 -0.0723985652055 0.815 6.16089277631e-39
0.048265710137 -0.0723985652055 0.815 1.35375619094e-38
0.0497740135788 -0.0723985652055 0.815 1.32580785358e-38
