# .PCD v0.7 - Point Cloud Data file format
VERSION 0.7
FIELDS x y z rgb
SIZE 4 4 4 4
TYPE F F F F
COUNT 1 1 1 1
WIDTH 838
HEIGHT 1
VIEWPOINT 0 0 0 1 0 0 0
POINTS 838
DATA ascii
-0.0507826336718 -0.0126956584179 0.686 2.94806291963e-39
-0.04951306783 -0.0126956584179 0.686 3.13065771473e-39
-0.0482435019882 -0.0126956584179 0.686 3.4058054708e-39
-0.0468369858952 -0.0126586448365 0.684 3.49728363585e-39
-0.0455711214116 -0.0126586448365 0.684 3.03631109172e-39
-0.0442404831605 -0.0126401380459 0.683 3.59127152645e-39
-0.0429764693559 -0.0126401380459 0.683 3.22356940811e-39
-0.0417124555513 -0.0126401380459 0.683 3.40903406246e-39
-0.0404484417467 -0.0126401380459 0.683 5.06675333017e-39
-0.0391844279421 -0.0126401380459 0.683 3.959688307e-39
-0.0379204141376 -0.0126401380459 0.683 3.77494111746e-39
-0.036656400333 -0.0126401380459 0.683 3.95933237719e-39
-0.0353923865284 -0.0126401380459 0.683 4.60470318753e-39
-0.0341283727238 -0.0126401380459 0.683 5.24935653306e-39
-0.032912476575 -0.0126586448365 0.684 3.86642208511e-39
-0.0316003451146 -0.0126401380459 0.683 4.23484867475e-39
-0.03033633131 -0.0126401380459 0.683 3.96257077794e-39
-0.0290297518869 -0.0126216312552 0.682 2.5810922791e-39
-0.0277675887613 -0.0126216312552 0.682 2.76657094643e-39
-0.0264276971149 -0.0125846176738 0.68 2.67652210581e-39
-0.0251692353475 -0.0125846176738 0.68 3.04495149805e-39
-0.0239107735801 -0.0125846176738 0.68 2.80259692865e-45
-0.0227189362593 -0.0126216312552 0.682 7.28129395697e-39
-0.0724707416892 -0.0114427486878 0.687 2.35098856151e-38
-0.0711993251684 -0.0114427486878 0.687 2.34162480492e-38
-0.0699279086475 -0.0114427486878 0.687 2.33254803424e-38
-0.0686564921267 -0.0114427486878 0.687 5.62042036641e-39
-0.0673850756058 -0.0114427486878 0.687 2.67403900494e-39
-0.0661136590849 -0.0114427486878 0.687 4.15127803694e-39
-0.0648422425641 -0.0114427486878 0.687 3.78143753714e-39
-0.0635708260432 -0.0114427486878 0.687 3.9661679111e-39
-0.0622994095223 -0.0114427486878 0.687 3.502340922e-39
-0.0610279930015 -0.0114427486878 0.687 3.68780837895e-39
-0.0597565764806 -0.0114427486878 0.687 3.50376884514e-39
-0.0584851599597 -0.0114427486878 0.687 3.41228927879e-39
-0.0572137434389 -0.0114427486878 0.687 3.32044817744e-39
-0.055942326918 -0.0114427486878 0.687 3.32044817744e-39
-0.0546709103972 -0.0114427486878 0.687 3.04386128785e-39
-0.0533994938763 -0.0114427486878 0.687 1.84568243723e-39
-0.0521280773554 -0.0114427486878 0.687 1.84568523982e-39
-0.0507826336718 -0.0114260925761 0.686 2.30701231246e-39
-0.04951306783 -0.0114260925761 0.686 2.12297838384e-39
-0.0482435019882 -0.0114260925761 0.686 2.30629624894e-39
-0.0469739361464 -0.0114260925761 0.686 2.48997284645e-39
-0.0457043703046 -0.0114260925761 0.686 1.56766061801e-39
-0.0444348044628 -0.0114260925761 0.686 2.49033578275e-39
-0.043165238621 -0.0114260925761 0.686 2.03007649955e-39
-0.0418956727792 -0.0114260925761 0.686 1.47797891759e-39
-0.0406261069374 -0.0114260925761 0.686 1.66093104379e-39
-0.0393565410956 -0.0114260925761 0.686 2.21338455556e-39
-0.0380869752538 -0.0114260925761 0.686 2.121190327e-39
-0.036817409412 -0.0114260925761 0.686 1.56766061801e-39
-0.0355478435702 -0.0114260925761 0.686 1.47546779074e-39
-0.0342782777284 -0.0114260925761 0.686 1.93716480617e-39
-0.0330087118867 -0.0114260925761 0.686 2.30559139582e-39
-0.0316466120914 -0.0113927803529 0.684 2.39778702568e-39
-0.0303807476077 -0.0113927803529 0.684 2.76762752547e-39
-0.0290723175055 -0.0113761242413 0.683 2.67472704248e-39
-0.0278083037009 -0.0113761242413 0.683 2.49178052147e-39
-0.0265054256358 -0.0113594681296 0.682 2.21626142131e-39
-0.0252432625103 -0.0113594681296 0.682 3.22969868759e-39
-0.0239810993848 -0.0113594681296 0.682 1.84391259727e-40
-0.0227189362593 -0.0113594681296 0.682 7.92666336601e-39
-0.0713029631963 -0.0101861375995 0.688 2.35095268827e-38
-0.0700296959964 -0.0101861375995 0.688 2.350988001e-38
-0.0687564287964 -0.0101861375995 0.688 8.75717933466e-39
-0.0674831615965 -0.0101861375995 0.688 1.75101491687e-39
-0.0662098943966 -0.0101861375995 0.688 4.33460290853e-39
-0.0649366271966 -0.0101861375995 0.688 4.24275760329e-39
-0.0636633599967 -0.0101861375995 0.688 4.14985712029e-39
-0.0623900927967 -0.0101861375995 0.688 4.24169962295e-39
-0.0611168255968 -0.0101861375995 0.688 4.70267917356e-39
-0.0598435583969 -0.0101861375995 0.688 4.14950539438e-39
-0.0585702911969 -0.0101861375995 0.688 3.68852724506e-39
-0.0574635851133 -0.0102157484646 0.69 3.5963302139e-39
-0.0560237567971 -0.0101861375995 0.688 3.22754769445e-39
-0.0547504895971 -0.0101861375995 0.688 3.04351236453e-39
-0.0534772223972 -0.0101861375995 0.688 3.13535206459e-39
-0.0521280773554 -0.0101713321669 0.687 3.04315643472e-39
-0.0508566608346 -0.0101713321669 0.687 3.04421441506e-39
-0.0495852443137 -0.0101713321669 0.687 2.67506755801e-39
-0.0483138277928 -0.0101713321669 0.687 2.76726318787e-39
-0.047042411272 -0.0101713321669 0.687 2.6747102269e-39
-0.0457709947511 -0.0101713321669 0.687 2.58251739963e-39
-0.0444995782302 -0.0101713321669 0.687 2.49068470607e-39
-0.0432281617094 -0.0101713321669 0.687 2.39848907621e-39
-0.0419567451885 -0.0101713321669 0.687 2.30629344635e-39
-0.0406853286676 -0.0101713321669 0.687 1.93715499708e-39
-0.0394139121468 -0.0101713321669 0.687 2.02934922565e-39
-0.0380869752538 -0.0101565267344 0.686 2.12190779181e-39
-0.036817409412 -0.0101565267344 0.686 2.1219161996e-39
-0.0355996625842 -0.0101713321669 0.687 1.84641111243e-39
-0.0343282460633 -0.0101713321669 0.687 1.75493434868e-39
-0.0330568295425 -0.0101713321669 0.687 1.57126335636e-39
-0.0317391460449 -0.0101565267344 0.686 1.57161928617e-39
-0.0304695802031 -0.0101565267344 0.686 2.03150442269e-39
-0.0291148831241 -0.0101269158692 0.684 2.67544590859e-39
-0.0278490186404 -0.0101269158692 0.684 2.6761689786e-39
-0.0265442898963 -0.0101121104367 0.683 2.67687102913e-39
-0.0252432625103 -0.0100973050041 0.682 3.50555830328e-39
-0.0239810993848 -0.0100973050041 0.682 9.1835496158e-41
-0.0227189362593 -0.0100973050041 0.682 7.92666336601e-39
-0.0715102392521 -0.00893877990651 0.69 2.35095268827e-38
-0.070233270694 -0.00893877990651 0.69 2.32332987256e-38
-0.0687564287964 -0.00891287039954 0.688 1.2630100642e-38
-0.0674831615965 -0.00891287039954 0.688 1.84285601822e-39
-0.0664023650198 -0.00893877990651 0.69 4.51863963975e-39
-0.0651253964617 -0.00893877990651 0.69 4.61153732014e-39
-0.0638484279037 -0.00893877990651 0.69 3.96511273336e-39
-0.0625714593456 -0.00893877990651 0.69 3.8732730333e-39
-0.0613833233828 -0.00895173466 0.691 3.68887897098e-39
-0.0601045041457 -0.00895173466 0.691 3.68887897098e-39
-0.0588256849086 -0.00895173466 0.691 3.68887897098e-39
-0.0575468656714 -0.00895173466 0.691 3.59668053852e-39
-0.0562680464343 -0.00895173466 0.691 3.50448490865e-39
-0.0549892271971 -0.00895173466 0.691 3.4126466099e-39
-0.0536326794391 -0.00893877990651 0.69 3.32045098004e-39
-0.0522039551973 -0.00891287039954 0.688 3.22825535017e-39
-0.0509306879973 -0.00891287039954 0.688 3.32007963594e-39
-0.0496574207974 -0.00891287039954 0.688 2.9516544476e-39
-0.0483138277928 -0.00889991564605 0.687 3.04385007746e-39
-0.047042411272 -0.00889991564605 0.687 2.85910148663e-39
-0.0457709947511 -0.00889991564605 0.687 2.85982035274e-39
-0.0444995782302 -0.00889991564605 0.687 2.76762752547e-39
-0.0432281617094 -0.00889991564605 0.687 2.76762752547e-39
-0.0420178175978 -0.00891287039954 0.688 2.67543189561e-39
-0.0407445503979 -0.00891287039954 0.688 2.6747130295e-39
-0.0394712831979 -0.00891287039954 0.688 2.67471583209e-39
-0.0381424956259 -0.00889991564605 0.687 2.76655833474e-39
-0.0368710791051 -0.00889991564605 0.687 2.58325027873e-39
-0.0355996625842 -0.00889991564605 0.687 2.21411463206e-39
-0.0343282460633 -0.00889991564605 0.687 2.12299519942e-39
-0.0330568295425 -0.00889991564605 0.687 2.12371406553e-39
-0.0317854130216 -0.00889991564605 0.687 2.2159068928e-39
-0.0305139965007 -0.00889991564605 0.687 2.492482572e-39
-0.0292425799799 -0.00889991564605 0.687 2.39993801882e-39
-0.0279304485195 -0.00888696089256 0.686 2.21554675909e-39
-0.0266608826777 -0.00888696089256 0.686 2.12405458106e-39
-0.0253172896731 -0.00886105138558 0.684 3.50483663457e-39
-0.0240514251894 -0.00886105138558 0.684 5.51730441762e-40
-0.0718211533358 -0.00769512357169 0.693 2.30485557399e-38
-0.0705386327405 -0.00769512357169 0.693 2.32332987256e-38
-0.0690562388057 -0.00767291542286 0.691 1.50268310887e-38
-0.0677774195686 -0.00767291542286 0.691 1.65846756109e-39
-0.0664986003314 -0.00767291542286 0.691 4.61083807221e-39
-0.0652197810943 -0.00767291542286 0.691 5.25690672919e-39
-0.0639409618571 -0.00767291542286 0.691 3.87291710349e-39
-0.0628435091688 -0.00769512357169 0.693 3.8732730333e-39
-0.0615609885735 -0.00769512357169 0.693 3.78142352416e-39
-0.0602784679783 -0.00769512357169 0.693 3.9661707137e-39
-0.058995947383 -0.00769512357169 0.693 3.9661679111e-39
-0.0577134267877 -0.00769512357169 0.693 3.59738539165e-39
-0.0562680464343 -0.00767291542286 0.691 3.32115583316e-39
-0.0549892271971 -0.00767291542286 0.691 3.50554709289e-39
-0.05371040796 -0.00767291542286 0.691 3.2289602033e-39
-0.052355710881 -0.00766181134844 0.69 3.13676177084e-39
-0.0510787423229 -0.00766181134844 0.69 3.2289602033e-39
-0.0498017737648 -0.00766181134844 0.69 2.9520159826e-39
-0.0483841535975 -0.0076396031996 0.688 3.04421441506e-39
-0.0471108863975 -0.0076396031996 0.688 2.58323626575e-39
-0.0458376191976 -0.0076396031996 0.688 2.76762752547e-39
-0.0446938995326 -0.00766181134844 0.69 2.76727159566e-39
-0.0434169309745 -0.00766181134844 0.69 2.76727159566e-39
-0.0421399624164 -0.00766181134844 0.69 2.76727439826e-39
-0.0408629938583 -0.00766181134844 0.69 2.58288313853e-39
-0.0395860253003 -0.00766181134844 0.69 2.58288594113e-39
-0.0383090567422 -0.00766181134844 0.69 2.58252861002e-39
-0.0370320881841 -0.00766181134844 0.69 2.49069871906e-39
-0.0356514815981 -0.0076396031996 0.688 2.39850308919e-39
-0.0343782143982 -0.0076396031996 0.688 2.39850308919e-39
-0.0331049471983 -0.0076396031996 0.688 2.49105464887e-39
-0.0318316799983 -0.0076396031996 0.688 2.49105184627e-39
-0.0305584127984 -0.0076396031996 0.688 2.39956387213e-39
-0.0292851455985 -0.0076396031996 0.688 2.30666058654e-39
-0.0280118783985 -0.0076396031996 0.688 2.58432647595e-39
-0.0266997469381 -0.00762849912518 0.687 3.22932033701e-39
-0.0254283304173 -0.00762849912518 0.687 3.78142352416e-39
-0.0241569138964 -0.00762849912518 0.687 9.20511559917e-40
-0.073525628759 -0.0064496165578 0.697 2.35098856151e-38
-0.0719247913637 -0.00642185637176 0.694 2.35088094179e-38
-0.0706404200893 -0.00642185637176 0.694 2.35095268827e-38
-0.069356048815 -0.00642185637176 0.694 1.80689267405e-38
-0.0680716775406 -0.00642185637176 0.694 1.1045777184e-39
-0.0667873062663 -0.00642185637176 0.694 4.51792637883e-39
-0.0655029349919 -0.00642185637176 0.694 5.80936164225e-39
-0.0642185637176 -0.00642185637176 0.694 4.24133668664e-39
-0.0629341924432 -0.00642185637176 0.694 4.42608107358e-39
-0.0616498211689 -0.00642185637176 0.694 4.15019763582e-39
-0.0602784679783 -0.00641260297641 0.693 4.24239046309e-39
-0.058995947383 -0.00641260297641 0.693 4.15019483322e-39
-0.0577134267877 -0.00641260297641 0.693 3.87360514104e-39
-0.0564309061924 -0.00641260297641 0.693 3.9658007709e-39
-0.0551483855971 -0.00641260297641 0.693 4.15054796044e-39
-0.0538658650018 -0.00641260297641 0.693 3.41298292153e-39
-0.0524315887229 -0.00639409618571 0.691 3.2285916618e-39
-0.0511527694857 -0.00639409618571 0.691 3.22932033701e-39
-0.0498739502486 -0.00639409618571 0.691 2.86126228886e-39
-0.0485951310114 -0.00639409618571 0.691 3.13712891104e-39
-0.0473163117743 -0.00639409618571 0.691 2.58395513186e-39
-0.0460374925371 -0.00639409618571 0.691 2.76799046177e-39
-0.0447586733 -0.00639409618571 0.691 2.76799046177e-39
-0.0434798540629 -0.00639409618571 0.691 2.95166565799e-39
-0.0422010348257 -0.00639409618571 0.691 3.04386128785e-39
-0.0409222155886 -0.00639409618571 0.691 2.39885481511e-39
-0.0396433963514 -0.00639409618571 0.691 2.49105184627e-39
-0.0383645771143 -0.00639409618571 0.691 2.58324747613e-39
-0.0370857578771 -0.00639409618571 0.691 2.76691986975e-39
-0.03580693864 -0.00639409618571 0.691 2.95131393207e-39
-0.0345281194029 -0.00639409618571 0.691 2.85911549961e-39
-0.0333455354773 -0.00641260297641 0.693 2.76727720086e-39
-0.0320630148821 -0.00641260297641 0.693 2.76655553215e-39
-0.0308249105844 -0.00642185637176 0.694 2.58395092796e-39
-0.0294979736915 -0.00641260297641 0.693 2.39921074492e-39
-0.0282154530962 -0.00641260297641 0.693 3.04422422415e-39
-0.0269717967614 -0.00642185637176 0.694 3.04492907728e-39
-0.025687425487 -0.00642185637176 0.694 4.15020604361e-39
-0.0244030542127 -0.00642185637176 0.694 1.10490281964e-39
-0.0765422356425 -0.00518930411136 0.701 2.35098856151e-38
-0.0752449096147 -0.00518930411136 0.701 2.35098856151e-38
-0.073525628759 -0.00515969324624 0.697 2.35098856151e-38
-0.0722357054474 -0.00515969324624 0.697 2.35095268827e-38
-0.070843994787 -0.00515229052996 0.696 2.3417327049e-38
-0.0695559221545 -0.00515229052996 0.696 2.02816190546e-38
-0.068267849522 -0.00515229052996 0.696 1.19677334826e-39
-0.0669797768895 -0.00515229052996 0.696 5.62427113459e-39
-0.065691704257 -0.00515229052996 0.696 5.53313208377e-39
-0.0644036316246 -0.00515229052996 0.696 6.45438493058e-39
-0.0631155589921 -0.00515229052996 0.696 5.80936724745e-39
-0.0618274863596 -0.00515229052996 0.696 4.97995830459e-39
-0.0603654498945 -0.00513748509741 0.694 4.05799920336e-39
-0.0590810786202 -0.00513748509741 0.694 4.42678172281e-39
-0.0577967073458 -0.00513748509741 0.694 4.05799920336e-39
-0.0565123360715 -0.00513748509741 0.694 3.87360514104e-39
-0.0552279647971 -0.00513748509741 0.694 4.15019203063e-39
-0.0539435935228 -0.00513748509741 0.694 3.78176544098e-39
-0.0528109779321 -0.00515229052996 0.696 3.41298292153e-39
-0.0515969324624 -0.00515969324624 0.697 3.32151596687e-39
-0.0503070091509 -0.00515969324624 0.697 3.0460094784e-39
-0.0490170858393 -0.00515969324624 0.697 3.32151736817e-39
-0.0477271625277 -0.00515969324624 0.697 3.13712610844e-39
-0.0464372392162 -0.00515969324624 0.697 2.67542909301e-39
-0.0450825421372 -0.00515229052996 0.696 3.04421441506e-39
-0.0437944695047 -0.00515229052996 0.696 2.6747130295e-39
-0.0425063968722 -0.00515229052996 0.696 2.76691146196e-39
-0.0412183242397 -0.00515229052996 0.696 2.58324607484e-39
-0.0399302516072 -0.00515229052996 0.696 2.85983296442e-39
-0.0385311382306 -0.00513748509741 0.694 2.85947283072e-39
-0.0372467669562 -0.00513748509741 0.694 2.85947002812e-39
-0.0359623956818 -0.00513748509741 0.694 2.95166565799e-39
-0.0346780244075 -0.00513748509741 0.694 3.04314242174e-39
-0.0333936531331 -0.00513748509741 0.694 3.04349835155e-39
-0.0322018158123 -0.00515229052996 0.696 2.95130272168e-39
-0.0309137431798 -0.00515229052996 0.696 2.86017768385e-39
-0.0296256705473 -0.00515229052996 0.696 3.22825254758e-39
-0.0283375979148 -0.00515229052996 0.696 2.95202859429e-39
-0.0270495252823 -0.00515229052996 0.696 3.2289602033e-39
-0.0257614526498 -0.00515229052996 0.696 4.33423436704e-39
-0.0245085429197 -0.00515969324624 0.697 1.93430195341e-39
-0.0232519318313 -0.00516709596252 0.698 8.57023771172e-39
-0.0765422356425 -0.00389197808352 0.701 2.35098856151e-38
-0.0752449096147 -0.00389197808352 0.701 2.35098856151e-38
-0.0739475835868 -0.00389197808352 0.701 2.35098856151e-38
-0.072650257559 -0.00389197808352 0.701 2.35095268827e-38
-0.0713529315312 -0.00389197808352 0.701 2.35095212775e-38
-0.0699556688336 -0.00388642604631 0.7 2.1571636204e-38
-0.0686601934848 -0.00388642604631 0.7 2.67082162366e-39
-0.067364718136 -0.00388642604631 0.7 4.97817865554e-39
-0.0660692427873 -0.00388642604631 0.7 5.53240621117e-39
-0.0647737674385 -0.00388642604631 0.7 6.17707356968e-39
-0.0632969255409 -0.00387532197189 0.698 5.71644434368e-39
-0.0620051515503 -0.00387532197189 0.698 5.34766182423e-39
-0.0606263956434 -0.00386976993468 0.697 5.07107493464e-39
-0.0593364723318 -0.00386976993468 0.697 4.79448524245e-39
-0.0580465490202 -0.00386976993468 0.697 4.51789835286e-39
-0.0567566257087 -0.00386976993468 0.697 4.05727613335e-39
-0.0554667023971 -0.00386976993468 0.697 4.33386302294e-39
-0.0542545076065 -0.00387532197189 0.698 4.24166739308e-39
-0.0529627336158 -0.00387532197189 0.698 4.24166459048e-39
-0.0516709596252 -0.00387532197189 0.698 3.7824843071e-39
-0.0503791856346 -0.00387532197189 0.698 3.32186629149e-39
-0.049087411644 -0.00387532197189 0.698 3.32150615778e-39
-0.0477956376533 -0.00387532197189 0.698 3.41334585783e-39
-0.0465038636627 -0.00387532197189 0.698 3.22823573199e-39
-0.0451473159046 -0.00386976993468 0.697 3.13604290473e-39
-0.0438573925931 -0.00386976993468 0.697 3.50374642436e-39
-0.0425674692815 -0.00386976993468 0.697 3.50338629066e-39
-0.0412183242397 -0.00386421789747 0.696 3.32008243854e-39
-0.0399302516072 -0.00386421789747 0.696 3.04349554895e-39
-0.0386421789747 -0.00386421789747 0.696 3.22788400608e-39
-0.0373541063422 -0.00386421789747 0.696 3.04385007746e-39
-0.0360660337097 -0.00386421789747 0.696 3.04349274635e-39
-0.0347779610773 -0.00386421789747 0.696 2.95129711649e-39
-0.0334898884448 -0.00386421789747 0.696 2.9520187852e-39
-0.032248082789 -0.00386976993468 0.697 3.32080130465e-39
-0.0309581594775 -0.00386976993468 0.697 3.13676457344e-39
-0.0296682361659 -0.00386976993468 0.697 3.4126466099e-39
-0.0283783128543 -0.00386976993468 0.697 3.32045098004e-39
-0.0270883895428 -0.00386976993468 0.697 3.59773992016e-39
-0.0257984662312 -0.00386976993468 0.697 4.97960097348e-39
-0.0245085429197 -0.00386976993468 0.697 2.02685071049e-39
-0.0232519318313 -0.00387532197189 0.698 7.74082876887e-39
-0.0767606157727 -0.00260205477196 0.703 2.35098856151e-38
-0.0754595883868 -0.00260205477196 0.703 2.35098856151e-38
-0.0741585610008 -0.00260205477196 0.703 2.35098856151e-38
-0.0728575336148 -0.00260205477196 0.703 2.35095212775e-38
-0.0715565062288 -0.00260205477196 0.703 2.33244013426e-38
-0.0702554788429 -0.00260205477196 0.703 2.35088094179e-38
-0.0687582794755 -0.00259465205568 0.701 5.25265238705e-39
-0.0674609534476 -0.00259465205568 0.701 4.79378319192e-39
-0.0661636274198 -0.00259465205568 0.701 6.26996704618e-39
-0.0647737674385 -0.00259095069754 0.7 6.45401078389e-39
-0.0634782920897 -0.00259095069754 0.7 6.26996844748e-39
-0.0620051515503 -0.00258354798126 0.698 5.90118592802e-39
-0.0607133775596 -0.00258354798126 0.698 6.17777562021e-39
-0.059421603569 -0.00258354798126 0.698 5.44020777871e-39
-0.0581298295784 -0.00258354798126 0.698 5.25581651898e-39
-0.0568380555877 -0.00258354798126 0.698 5.34801074754e-39
-0.0555462815971 -0.00258354798126 0.698 4.97922822809e-39
-0.0544099646483 -0.00259095069754 0.7 4.51825007877e-39
-0.0531144892996 -0.00259095069754 0.7 4.14982348913e-39
-0.0518930411136 -0.00259465205568 0.701 4.24381137973e-39
-0.0505957150857 -0.00259465205568 0.701 3.78283323041e-39
-0.0492983890579 -0.00259465205568 0.701 3.7821157656e-39
-0.0480010630301 -0.00259465205568 0.701 3.96650842663e-39
-0.0467037370022 -0.00259465205568 0.701 4.05762505667e-39
-0.0453416372069 -0.00259095069754 0.7 3.87251773343e-39
-0.0440461618582 -0.00259095069754 0.7 4.33241688293e-39
-0.0427506865094 -0.00259095069754 0.7 4.33205674922e-39
-0.0413367677002 -0.00258354798126 0.698 3.96436163738e-39
-0.0399876226584 -0.00257984662312 0.697 2.95021531408e-39
-0.0386976993468 -0.00257984662312 0.697 3.78068644117e-39
-0.0374077760353 -0.00257984662312 0.697 3.32078729167e-39
-0.0361178527237 -0.00257984662312 0.697 3.41262699172e-39
-0.034877897747 -0.00258354798126 0.698 3.13676177084e-39
-0.0335380061006 -0.00257984662312 0.697 2.9520159826e-39
-0.032248082789 -0.00257984662312 0.697 3.13712891104e-39
-0.0309581594775 -0.00257984662312 0.697 3.59738819424e-39
-0.0296682361659 -0.00257984662312 0.697 3.50448771125e-39
-0.0283783128543 -0.00257984662312 0.697 3.68887616838e-39
-0.0270883895428 -0.00257984662312 0.697 3.87432961234e-39
-0.0257984662312 -0.00257984662312 0.697 4.61009678532e-39
-0.024543705822 -0.00258354798126 0.698 2.67113831711e-39
-0.0232519318313 -0.00258354798126 0.698 8.29363680915e-39
-0.0767606157727 -0.00130102738598 0.703 2.35098856151e-38
-0.0754595883868 -0.00130102738598 0.703 2.35098856151e-38
-0.0742640497078 -0.00130287806505 0.704 2.35098856151e-38
-0.0729611716427 -0.00130287806505 0.704 2.34166025777e-38
-0.0716582935777 -0.00130287806505 0.704 2.35098687996e-38
-0.0703554155126 -0.00130287806505 0.704 2.35091681503e-38
-0.0689544514569 -0.00130102738598 0.703 5.99057475706e-39
-0.0676534240709 -0.00130102738598 0.703 4.33315816982e-39
-0.0663523966849 -0.00130102738598 0.703 6.54690706298e-39
-0.0650513692989 -0.00130102738598 0.703 6.36181095013e-39
-0.0635689753641 -0.00129732602784 0.701 6.45471423571e-39
-0.0622716493363 -0.00129732602784 0.701 5.9937332838e-39
-0.0609743233085 -0.00129732602784 0.701 5.9937332838e-39
-0.0596769972806 -0.00129732602784 0.701 5.80934202407e-39
-0.0583796712528 -0.00129732602784 0.701 5.71714359161e-39
-0.0570823452249 -0.00129732602784 0.701 6.08592611107e-39
-0.0559441775971 -0.00130102738598 0.703 5.5331082617e-39
-0.0546431502111 -0.00130102738598 0.703 5.5331082617e-39
-0.0533421228251 -0.00130102738598 0.703 5.5331082617e-39
-0.0518930411136 -0.00129732602784 0.701 4.88881364858e-39
-0.0505957150857 -0.00129732602784 0.701 4.61222675899e-39
-0.0492983890579 -0.00129732602784 0.701 4.7958977513e-39
-0.0480010630301 -0.00129732602784 0.701 4.79482295538e-39
-0.0467037370022 -0.00129732602784 0.701 5.16288520742e-39
-0.0454064109744 -0.00129732602784 0.701 4.51679973486e-39
-0.0441090849465 -0.00129732602784 0.701 4.79266635704e-39
-0.0428117589187 -0.00129732602784 0.701 6.82097021404e-39
-0.0414552111606 -0.00129547534877 0.7 5.71499119717e-39
-0.0400449937095 -0.00129177399063 0.698 3.59485744922e-39
-0.0387532197189 -0.00129177399063 0.698 4.51788433988e-39
-0.0374614457283 -0.00129177399063 0.698 3.68884533981e-39
-0.0361696717377 -0.00129177399063 0.698 3.87431559936e-39
-0.0349778344168 -0.00129547534877 0.7 3.7824843071e-39
-0.0335861237564 -0.00129177399063 0.698 3.69029848632e-39
-0.0322943497658 -0.00129177399063 0.698 3.5066316979e-39
-0.0310025757751 -0.00129177399063 0.698 3.87361915402e-39
-0.0297108017845 -0.00129177399063 0.698 3.50377164774e-39
-0.0284190277939 -0.00129177399063 0.698 3.59668614371e-39
-0.0271272538032 -0.00129177399063 0.698 3.6892194865e-39
-0.0258354798126 -0.00129177399063 0.698 5.53205308395e-39
-0.0246140316266 -0.00129547534877 0.7 3.04027816768e-39
-0.0233185562779 -0.00129547534877 0.7 7.37203503903e-39
-0.0770881859681 0.0 0.706 2.35098856151e-38
-0.0757816065449 0.0 0.706 2.35098856151e-38
-0.0744750271217 0.0 0.706 2.35098856151e-38
-0.0729611716427 0.0 0.704 2.35098856151e-38
-0.0716582935777 0.0 0.704 2.35098856151e-38
-0.0705552888521 0.0 0.706 2.30492563891e-38
-0.069248709429 0.0 0.706 7.92634667256e-39
-0.0679421300058 0.0 0.706 4.51862842936e-39
-0.0664467813175 0.0 0.704 6.27102502652e-39
-0.0651439032524 0.0 0.704 7.00681742287e-39
-0.0638410251874 0.0 0.704 6.6376831775e-39
-0.0625381471223 0.0 0.704 6.08628204088e-39
-0.0612352690573 0.0 0.704 5.71857852124e-39
-0.0599323909922 0.0 0.704 4.98030722791e-39
-0.058546232369 0.0 0.703 5.44200564464e-39
-0.0572452049831 0.0 0.703 5.16541455115e-39
-0.0560237567971 0.0 0.704 5.25760037193e-39
-0.0546431502111 0.0 0.703 5.25652137211e-39
-0.0533421228251 0.0 0.703 5.16360967873e-39
-0.0520410954391 0.0 0.703 4.05762225407e-39
-0.0507400680532 0.0 0.703 4.79554182149e-39
-0.0494390406672 0.0 0.703 4.79517888519e-39
-0.0481380132812 0.0 0.703 4.88557664912e-39
-0.0468369858952 0.0 0.703 6.3589158675e-39
-0.0455359585093 0.0 0.703 8.10991957398e-39
-0.0442349311233 0.0 0.703 7.739336386e-39
-0.0428117589187 0.0 0.701 8.84567553657e-39
-0.0415144328909 0.0 0.701 9.67400267701e-39
-0.0400449937095 0.0 0.698 7.09253064604e-39
-0.0387532197189 0.0 0.698 8.84568954956e-39
-0.0374614457283 0.0 0.698 6.81882622739e-39
-0.0362733097656 0.0 0.7 4.14731376358e-39
-0.0349778344168 0.0 0.7 3.87216600751e-39
-0.0335861237564 0.0 0.698 3.68921388131e-39
-0.0322943497658 0.0 0.698 3.68993274742e-39
-0.0310025757751 0.0 0.698 4.05692300614e-39
-0.0297959330217 0.0 0.7 4.24061081404e-39
-0.0285004576729 0.0 0.7 3.59632040481e-39
-0.0271272538032 0.0 0.698 3.87396107085e-39
-0.0258354798126 0.0 0.698 4.5196850084e-39
-0.0246140316266 0.0 0.7 3.13389891808e-39
-0.0233185562779 0.0 0.7 6.82029618948e-39
-0.0771973760332 0.00130843010226 0.707 2.35098856151e-38
-0.0758889459309 0.00130843010226 0.707 2.35098856151e-38
-0.0745805158287 0.00130843010226 0.707 2.35098856151e-38
-0.0731684476985 0.00130657942319 0.706 2.35095268827e-38
-0.0718618682753 0.00130657942319 0.706 2.29563587088e-38
-0.0706552255219 0.00130843010226 0.707 2.29574138865e-38
-0.0693467954196 0.00130843010226 0.707 1.07844154022e-38
-0.0680383653174 0.00130843010226 0.707 2.67400817637e-39
-0.0666355505826 0.00130657942319 0.706 6.54833919001e-39
-0.0653289711594 0.00130657942319 0.706 6.6380489164e-39
-0.0641130750106 0.00130843010226 0.707 6.36075717368e-39
-0.0628046449084 0.00130843010226 0.707 5.80828544503e-39
-0.0614092328898 0.00130657942319 0.706 5.71716881499e-39
-0.0601026534666 0.00130657942319 0.706 5.53278876565e-39
-0.0588793546016 0.00130843010226 0.707 5.07253228504e-39
-0.0575709244993 0.00130843010226 0.707 5.44095046689e-39
-0.0561829151971 0.00130657942319 0.706 5.4405791228e-39
-0.0548763357739 0.00130657942319 0.706 6.36181375272e-39
-0.053418000667 0.00130287806505 0.704 5.53061395043e-39
-0.0521151226019 0.00130287806505 0.704 5.44020637741e-39
-0.0508122445369 0.00130287806505 0.704 4.79482715928e-39
-0.0495093664718 0.00130287806505 0.704 4.88629551524e-39
-0.0482064884068 0.00130287806505 0.704 4.70118819199e-39
-0.0469036103417 0.00130287806505 0.704 5.89794052078e-39
-0.0456007322767 0.00130287806505 0.704 7.37199860527e-39
-0.0442978542116 0.00130287806505 0.704 7.2790799054e-39
-0.0429949761466 0.00130287806505 0.704 7.73897064711e-39
-0.0416328763513 0.00130102738598 0.703 7.27691910316e-39
-0.040217106863 0.00129732602784 0.701 6.63119656691e-39
-0.0388642604631 0.00129547534877 0.7 7.92337591982e-39
-0.0375687851143 0.00129547534877 0.7 7.37164407676e-39
-0.0363251287795 0.00129732602784 0.701 6.17489875446e-39
-0.0350278027517 0.00129732602784 0.701 5.16182582578e-39
-0.0337304767238 0.00129732602784 0.701 4.33386022035e-39
-0.032433150696 0.00129732602784 0.701 4.61152470846e-39
-0.0311358246681 0.00129732602784 0.701 4.24166318918e-39
-0.0299236298775 0.00130102738598 0.703 4.42535379968e-39
-0.0286226024915 0.00130102738598 0.703 4.24204153977e-39
-0.0273215751056 0.00130102738598 0.703 4.33529094608e-39
-0.0259465205568 0.00129732602784 0.701 4.70442659275e-39
-0.0246491945289 0.00129732602784 0.701 2.8576651557e-39
-0.0758889459309 0.00261686020451 0.707 2.35098856151e-38
-0.0745805158287 0.00261686020451 0.707 2.35098856151e-38
-0.0731684476985 0.00261315884638 0.706 2.30481885997e-38
-0.0718618682753 0.00261315884638 0.706 2.13875938676e-38
-0.0706552255219 0.00261686020451 0.707 2.34176759723e-38
-0.0696410533917 0.00262796427893 0.71 1.17985659294e-38
-0.068134600629 0.00262056156265 0.708 3.7796550855e-39
-0.0668243198477 0.00262056156265 0.708 8.29971984578e-39
-0.0655140390664 0.00262056156265 0.708 7.56074369932e-39
-0.0643851248339 0.00262796427893 0.71 8.11249656186e-39
-0.0630711426944 0.00262796427893 0.71 6.73168928498e-39
-0.0617571605549 0.00262796427893 0.71 6.45617158612e-39
-0.060272915941 0.00262056156265 0.708 6.73240534849e-39
-0.0589626351597 0.00262056156265 0.708 6.27107126937e-39
-0.0576523543784 0.00262056156265 0.708 5.80972738115e-39
-0.0563420735971 0.00262056156265 0.708 6.08630586295e-39
-0.0549540642948 0.00261686020451 0.707 6.08521565275e-39
-0.0536456341926 0.00261686020451 0.707 5.06961618294e-39
-0.0522631769275 0.00261315884638 0.706 5.62423470083e-39
-0.0509565975043 0.00261315884638 0.706 4.79482715928e-39
-0.0495093664718 0.0026057561301 0.704 5.62386055414e-39
-0.0482064884068 0.0026057561301 0.704 4.88629831783e-39
-0.0470368592348 0.00261315884638 0.706 4.42425237909e-39
-0.0457302798116 0.00261315884638 0.706 4.3309833546e-39
-0.0444237003884 0.00261315884638 0.706 4.14587042616e-39
-0.0429949761466 0.0026057561301 0.704 3.96184070144e-39
-0.0416920980815 0.0026057561301 0.704 4.7908768989e-39
-0.0403892200165 0.0026057561301 0.704 4.79052237039e-39
-0.0390308215794 0.00260205477196 0.703 4.60684997678e-39
-0.0377297941934 0.00260205477196 0.703 4.3309833546e-39
-0.0364805858214 0.0026057561301 0.704 4.97707162975e-39
-0.0351777077563 0.0026057561301 0.704 4.42569431521e-39
-0.0338748296913 0.0026057561301 0.704 4.14982068653e-39
-0.0325719516262 0.0026057561301 0.704 4.33420914366e-39
-0.0312690735612 0.0026057561301 0.704 5.07141404887e-39
-0.0300513267333 0.00261315884638 0.706 4.51790115546e-39
-0.0287447473101 0.00261315884638 0.706 4.61081845403e-39
-0.0274381678869 0.00261315884638 0.706 4.24344844343e-39
-0.0261315884638 0.00261315884638 0.706 4.42783830186e-39
-0.0248250090406 0.00261315884638 0.706 2.76546952584e-39
-0.0763183034751 0.00394749845561 0.711 2.35098856151e-38
-0.0750024706566 0.00394749845561 0.711 2.35098856151e-38
-0.0733757237543 0.00393084234398 0.708 2.35095240801e-38
-0.072065442973 0.00393084234398 0.708 2.32311435285e-38
-0.0709550355312 0.0039419464184 0.71 2.35095156724e-38
-0.0697391393824 0.00394749845561 0.711 1.39194157409e-38
-0.0683270712523 0.0039419464184 0.71 3.50273328557e-39
-0.0670130891128 0.0039419464184 0.71 7.10012007852e-39
-0.0657916409268 0.00394749845561 0.711 7.19162206564e-39
-0.0644758081083 0.00394749845561 0.711 7.00652735409e-39
-0.0631599752897 0.00394749845561 0.711 7.00723360851e-39
-0.0618441424712 0.00394749845561 0.711 7.100502633e-39
-0.0605283096527 0.00394749845561 0.711 7.100502633e-39
-0.0592124768341 0.00394749845561 0.711 6.0863535071e-39
-0.0578152141365 0.0039419464184 0.71 5.43954216194e-39
-0.0565012319971 0.0039419464184 0.71 5.06966943228e-39
-0.0550317928157 0.00393084234398 0.708 6.82064931669e-39
-0.0537215120344 0.00393084234398 0.708 8.84822029458e-39
-0.0524112312531 0.00393084234398 0.708 7.46707110088e-39
-0.051028773988 0.00392529030677 0.707 6.82205201645e-39
-0.0496500180811 0.00391973826956 0.706 7.0075180721e-39
-0.0483434386579 0.00391973826956 0.706 6.45434429292e-39
-0.0471034836813 0.00392529030677 0.707 7.19156321111e-39
-0.045795053579 0.00392529030677 0.707 6.91354279319e-39
-0.0444866234768 0.00392529030677 0.707 7.19120588e-39
-0.0431781933745 0.00392529030677 0.707 6.26960130728e-39
-0.0418697632722 0.00392529030677 0.707 7.09936758124e-39
-0.04056133317 0.00392529030677 0.707 6.36144521123e-39
-0.0392529030677 0.00392529030677 0.707 6.45364364369e-39
-0.0379444729655 0.00392529030677 0.707 6.63803210082e-39
-0.0366360428632 0.00392529030677 0.707 5.16325935411e-39
-0.035327612761 0.00392529030677 0.707 5.07106092165e-39
-0.0340191826587 0.00392529030677 0.707 4.97921561641e-39
-0.0327107525564 0.00392529030677 0.707 4.79482295538e-39
-0.0314023224542 0.00392529030677 0.707 5.16396140464e-39
-0.0300938923519 0.00392529030677 0.707 4.05727333076e-39
-0.0287854622497 0.00392529030677 0.707 4.7033686124e-39
-0.0274770321474 0.00392529030677 0.707 4.79662082131e-39
-0.0261686020451 0.00392529030677 0.707 5.25759616803e-39
-0.0248953348452 0.00393084234398 0.708 2.94986078556e-39
-0.072676167066 0.00528553942298 0.714 2.35091681503e-38
-0.0713547822102 0.00528553942298 0.714 2.35098758061e-38
-0.0699353113638 0.0052781367067 0.713 1.70547720094e-38
-0.0686157771871 0.0052781367067 0.713 2.02690115723e-39
-0.0672962430104 0.0052781367067 0.713 7.65258620197e-39
-0.0659767088338 0.0052781367067 0.713 7.92918990714e-39
-0.0646571746571 0.0052781367067 0.713 8.48166303709e-39
-0.0633376404804 0.0052781367067 0.713 7.83593769824e-39
-0.0620181063037 0.0052781367067 0.713 7.09872858914e-39
-0.0606985721271 0.0052781367067 0.713 6.63882663705e-39
-0.0593790379504 0.0052781367067 0.713 5.34701162174e-39
-0.0580595037737 0.0052781367067 0.713 1.1049392534e-39
-0.0565808111971 0.00526333127414 0.711 1.19569154585e-39
-0.0552649783785 0.00526333127414 0.711 3.1314172185e-39
-0.05394914556 0.00526333127414 0.711 8.29398853506e-39
-0.0525592855787 0.00525592855787 0.71 6.3600088803e-39
-0.0512453034392 0.00525592855787 0.71 6.453269497e-39
-0.0499313212997 0.00525592855787 0.71 6.45434429292e-39
-0.0486173391603 0.00525592855787 0.71 4.51823746709e-39
-0.0473033570208 0.00525592855787 0.71 6.82314222666e-39
-0.0459893748813 0.00525592855787 0.71 7.56035413835e-39
-0.0446753927419 0.00525592855787 0.71 6.63839783972e-39
-0.0433614106024 0.00525592855787 0.71 6.91641545504e-39
-0.0420474284629 0.00525592855787 0.71 8.0227630134e-39
-0.0407334463235 0.00525592855787 0.71 6.36288714735e-39
-0.039419464184 0.00525592855787 0.71 6.27069151748e-39
-0.0379981426585 0.00524112312531 0.708 6.7316696668e-39
-0.0366878618772 0.00524112312531 0.708 7.28411897467e-39
-0.0353775810958 0.00524112312531 0.708 7.19227927462e-39
-0.0340673003145 0.00524112312531 0.708 7.37630199285e-39
-0.0327570195332 0.00524112312531 0.708 7.92983030054e-39
-0.0315355713472 0.00525592855787 0.71 6.73128430972e-39
-0.0302215892077 0.00525592855787 0.71 7.28411897467e-39
-0.0289076070683 0.00525592855787 0.71 7.65398189524e-39
-0.0275158964079 0.00524112312531 0.708 6.64053061598e-39
-0.0262056156265 0.00524112312531 0.708 6.73272624584e-39
-0.0249656606499 0.00525592855787 0.71 2.76546952584e-39
-0.0728797417636 0.00662543106942 0.716 2.35091681503e-38
-0.0713547822102 0.00660692427873 0.714 2.35098758061e-38
-0.0700333973545 0.00660692427873 0.714 1.87149967987e-38
-0.0687120124987 0.00660692427873 0.714 2.39461308466e-39
-0.067390627643 0.00660692427873 0.714 7.56039337471e-39
-0.0660692427873 0.00660692427873 0.714 8.94332922396e-39
-0.0647478579315 0.00660692427873 0.714 9.40360252014e-39
-0.0634264730758 0.00660692427873 0.714 8.7582331111e-39
-0.06210508822 0.00660692427873 0.714 9.40323537995e-39
-0.0607837033643 0.00660692427873 0.714 8.75858203442e-39
-0.0594623185085 0.00660692427873 0.714 8.66675494605e-39
-0.0581409336528 0.00660692427873 0.714 6.54554920477e-39
-0.056819548797 0.00660692427873 0.714 5.34592701673e-39
-0.0554204354204 0.00659767088338 0.713 3.77857608568e-39
-0.0541009012437 0.00659767088338 0.713 7.74295734124e-39
-0.052781367067 0.00659767088338 0.713 7.37487687231e-39
-0.0513174799229 0.00657916409268 0.711 6.82205481905e-39
-0.0500016471044 0.00657916409268 0.711 6.63873555265e-39
-0.048822764537 0.00659767088338 0.713 5.16360967873e-39
-0.0475032303603 0.00659767088338 0.713 5.62388297492e-39
-0.0461836961836 0.00659767088338 0.713 4.33279243092e-39
-0.0447383158302 0.00657916409268 0.711 4.05692300614e-39
-0.0434224830117 0.00657916409268 0.711 4.51825148007e-39
-0.0421066501932 0.00657916409268 0.711 3.41370178764e-39
-0.0407334463235 0.00656991069733 0.71 3.87432400715e-39
-0.039419464184 0.00656991069733 0.71 3.41334866043e-39
-0.0381054820445 0.00656991069733 0.71 4.51897735268e-39
-0.0367914999051 0.00656991069733 0.71 3.50410235417e-39
-0.0354775177656 0.00656991069733 0.71 4.88667246452e-39
-0.0341635356261 0.00656991069733 0.71 6.45399256701e-39
-0.0328495534867 0.00656991069733 0.71 4.33384900996e-39
-0.0315799876449 0.00657916409268 0.711 6.270308963e-39
-0.0302641548263 0.00657916409268 0.711 4.14946896062e-39
-0.0289483220078 0.00657916409268 0.711 5.44093084871e-39
-0.0276324891893 0.00657916409268 0.711 6.8249246783e-39
-0.0263166563707 0.00657916409268 0.711 6.64053341858e-39
-0.0251063122592 0.00660692427873 0.714 2.94986078556e-39
-0.0745157420612 0.00798382950656 0.719 2.35098828126e-38
-0.0731851038101 0.00798382950656 0.719 2.33244209608e-38
-0.0716545922195 0.00796162135772 0.717 2.33258432787e-38
-0.0702295693359 0.00795051728331 0.716 2.0928393966e-38
-0.068904483122 0.00795051728331 0.716 3.31656938329e-39
-0.0675793969081 0.00795051728331 0.716 6.73062149555e-39
-0.0662543106942 0.00795051728331 0.716 4.42608107358e-39
-0.0649292244803 0.00795051728331 0.716 3.31830559209e-39
-0.0636041382665 0.00795051728331 0.716 6.08275357134e-39
-0.0622790520526 0.00795051728331 0.716 4.97640321039e-39
-0.0609539658387 0.00795051728331 0.716 5.5313706516e-39
-0.0596288796248 0.00795051728331 0.716 4.88601525554e-39
-0.0583037934109 0.00795051728331 0.716 4.79348331405e-39
-0.056819548797 0.00792830913447 0.714 4.51654329725e-39
-0.0554981639413 0.00792830913447 0.714 3.50308501149e-39
-0.0541767790855 0.00792830913447 0.714 7.09939840981e-39
-0.0528553942298 0.00792830913447 0.714 6.26925238396e-39
-0.0515340093741 0.00792830913447 0.714 7.09864170864e-39
-0.0502126245183 0.00792830913447 0.714 5.4391147659e-39
-0.0488912396626 0.00792830913447 0.714 5.34692193864e-39
-0.0475698548068 0.00792830913447 0.714 6.91354279319e-39
-0.0462484699511 0.00792830913447 0.714 7.46636764905e-39
-0.044864162007 0.00791720506005 0.713 7.00538669714e-39
-0.0435446278303 0.00791720506005 0.713 6.54476307633e-39
-0.0422843153838 0.00792830913447 0.714 6.4543597072e-39
-0.0407908173746 0.00789499691122 0.711 6.36288714735e-39
-0.0394749845561 0.00789499691122 0.711 6.36288994994e-39
-0.0381054820445 0.0078838928368 0.71 6.63840064231e-39
-0.0367914999051 0.0078838928368 0.71 6.63840064231e-39
-0.0355274861005 0.00789499691122 0.711 6.08486392683e-39
-0.0342116532819 0.00789499691122 0.711 7.00681462027e-39
-0.0328958204634 0.00789499691122 0.711 5.4398462437e-39
-0.0316688202402 0.00791720506005 0.713 6.08556597736e-39
-0.0303492860635 0.00791720506005 0.713 5.99302843067e-39
-0.0290297518869 0.00791720506005 0.713 6.63912231102e-39
-0.0277102177102 0.00791720506005 0.713 7.19335266924e-39
-0.0263906835335 0.00791720506005 0.713 6.73273044974e-39
-0.0251063122592 0.00792830913447 0.714 3.68706989466e-39
-0.0745157420612 0.00931446775765 0.719 2.33262132215e-38
-0.0731851038101 0.00931446775765 0.719 2.31411087009e-38
-0.071854465559 0.00931446775765 0.719 2.35098758061e-38
-0.0703276553266 0.00928855825068 0.717 2.32343496994e-38
-0.0690007184336 0.00928855825068 0.717 4.88389368967e-39
-0.0676737815407 0.00928855825068 0.717 7.46745785925e-39
-0.0663468446477 0.00928855825068 0.717 6.36109488661e-39
-0.0650199077548 0.00928855825068 0.717 4.70122182316e-39
-0.0636929708618 0.00928855825068 0.717 3.96258058703e-39
-0.0623660339688 0.00928855825068 0.717 3.68670135316e-39
-0.0610390970759 0.00928855825068 0.717 3.22715953477e-39
-0.0597121601829 0.00928855825068 0.717 3.04350675934e-39
-0.05838522329 0.00928855825068 0.717 7.2838176955e-39
-0.057058286397 0.00928855825068 0.717 7.28346596959e-39
-0.0557313495041 0.00928855825068 0.717 6.45476187986e-39
-0.0544044126111 0.00928855825068 0.717 6.2714103836e-39
-0.0530034485554 0.00927560349719 0.716 7.65254136042e-39
-0.0516783623415 0.00927560349719 0.716 6.7305794566e-39
-0.0503532761276 0.00927560349719 0.716 7.28302736317e-39
-0.0488912396626 0.00924969399022 0.714 5.90009852041e-39
-0.0475698548068 0.00924969399022 0.714 6.82063109981e-39
-0.0462484699511 0.00924969399022 0.714 7.09686626348e-39
-0.0449270850953 0.00924969399022 0.714 5.71357168183e-39
-0.0436057002396 0.00924969399022 0.714 5.52917621821e-39
-0.0422843153838 0.00924969399022 0.714 5.34729328273e-39
-0.0409055594769 0.00923673923673 0.713 5.4402105813e-39
-0.0394749845561 0.00921082972975 0.711 5.99302843067e-39
-0.0381591517375 0.00921082972975 0.711 5.623531249e-39
-0.036843318919 0.00921082972975 0.711 6.72987880736e-39
-0.0355274861005 0.00921082972975 0.711 5.53133561914e-39
-0.0342116532819 0.00921082972975 0.711 5.25474732825e-39
-0.0329883544169 0.00923673923673 0.713 5.99266829697e-39
-0.0316688202402 0.00923673923673 0.713 6.17741128261e-39
-0.0303918516821 0.00924969399022 0.714 5.62425011512e-39
-0.0290704668264 0.00924969399022 0.714 5.07179940594e-39
-0.0277490819706 0.00924969399022 0.714 7.10115984198e-39
-0.0265017242777 0.00927560349719 0.716 6.36359200047e-39
-0.0251766380638 0.00927560349719 0.716 4.05585521671e-39
-0.0227152349011 0.00935333201812 0.722 1.75146235147e-38
-0.073286891159 0.0106599114413 0.72 2.29563488997e-38
-0.0719544022288 0.0106599114413 0.72 2.3325483145e-38
-0.070523827308 0.0106451060087 0.719 2.31407373568e-38
-0.0691931890569 0.0106451060087 0.719 7.28025419351e-39
-0.0678625508058 0.0106451060087 0.719 7.19192474611e-39
-0.0665319125547 0.0106451060087 0.719 8.29685138783e-39
-0.0652012743036 0.0106451060087 0.719 8.38869529178e-39
-0.0638706360525 0.0106451060087 0.719 7.37345875827e-39
-0.0625399978014 0.0106451060087 0.719 7.92697865817e-39
-0.0612093595503 0.0106451060087 0.719 8.38902459691e-39
-0.0598787212992 0.0106451060087 0.719 8.11316498123e-39
-0.0585480830481 0.0106451060087 0.719 7.37526222939e-39
-0.057058286397 0.0106154951436 0.717 7.37563357348e-39
-0.0557313495041 0.0106154951436 0.717 7.28414419805e-39
-0.0544044126111 0.0106154951436 0.717 7.37703907584e-39
-0.0530774757182 0.0106154951436 0.717 7.55999120205e-39
-0.0516783623415 0.0106006897111 0.716 7.46707250218e-39
-0.0503532761276 0.0106006897111 0.716 7.9280464476e-39
-0.0490281899137 0.0106006897111 0.716 7.65181268522e-39
-0.0477031036998 0.0106006897111 0.716 7.09863890604e-39
-0.046378017486 0.0106006897111 0.716 7.09863890604e-39
-0.0450529312721 0.0106006897111 0.716 6.63729782042e-39
-0.0437278450582 0.0106006897111 0.716 6.17631826981e-39
-0.0424027588443 0.0106006897111 0.716 5.99193822047e-39
-0.0409629305281 0.010571078846 0.714 6.82170309313e-39
-0.0395860253003 0.0105562734134 0.713 6.9138973217e-39
-0.0382664911236 0.0105562734134 0.713 6.17632948019e-39
-0.0369469569469 0.0105562734134 0.713 4.79482715928e-39
-0.0356274227702 0.0105562734134 0.713 5.5331082617e-39
-0.0343078885936 0.0105562734134 0.713 7.00823693821e-39
-0.0329883544169 0.0105562734134 0.713 7.10078849789e-39
-0.0317132365379 0.010571078846 0.714 6.64088654579e-39
-0.0304769829193 0.0106006897111 0.716 7.0078824097e-39
-0.0291518967055 0.0106006897111 0.716 7.65254136042e-39
-0.0278268104916 0.0106006897111 0.716 7.37595166824e-39
-0.0265387378591 0.0106154951436 0.717 6.64018449526e-39
-0.0252821267708 0.0106451060087 0.719 3.22823853459e-39
-0.0239514885197 0.0106451060087 0.719 7.09687186868e-39
-0.0227152349011 0.0106895223064 0.722 1.83411499866e-38
-0.0757593983961 0.0121756175994 0.731 2.33247782919e-38
-0.0734904658566 0.0120257125947 0.722 2.33251286165e-38
-0.0721542755683 0.0120257125947 0.722 2.3325483145e-38
-0.07081808528 0.0120257125947 0.722 2.35095268827e-38
-0.0692894243685 0.0119924003715 0.72 8.75573739854e-39
-0.0679569354383 0.0119924003715 0.72 7.28412037597e-39
-0.0666244465082 0.0119924003715 0.72 8.66563951247e-39
-0.0652012743036 0.0119757442598 0.719 8.20430683465e-39
-0.0638706360525 0.0119757442598 0.719 8.11173705809e-39
-0.0625399978014 0.0119757442598 0.719 7.19048561259e-39
-0.0612093595503 0.0119757442598 0.719 6.453269497e-39
-0.0598787212992 0.0119757442598 0.719 6.63766075672e-39
-0.0585480830481 0.0119757442598 0.719 6.63803770601e-39
-0.057297023997 0.0119924003715 0.72 6.82172131001e-39
-0.0559645350669 0.0119924003715 0.72 6.82207303593e-39
-0.0546320461367 0.0119924003715 0.72 6.91497351892e-39
-0.0532255300437 0.0119757442598 0.719 7.00609435286e-39
-0.0517505388252 0.0119424320366 0.717 7.19012968278e-39
-0.0504236019323 0.0119424320366 0.717 7.09828858143e-39
-0.0490966650393 0.0119424320366 0.717 7.28303016577e-39
-0.0477697281463 0.0119424320366 0.717 7.19118906442e-39
-0.0464427912534 0.0119424320366 0.717 6.91460217483e-39
-0.0450529312721 0.011925775925 0.716 7.19118906442e-39
-0.0437278450582 0.011925775925 0.716 7.00679780469e-39
-0.0424027588443 0.011925775925 0.716 7.00608033988e-39
-0.0409629305281 0.0118924637017 0.714 7.1904715996e-39
-0.0396415456724 0.0118924637017 0.714 7.00679780469e-39
-0.0383201608166 0.0118924637017 0.714 7.19118906442e-39
-0.0369987759609 0.0118924637017 0.714 7.19191073313e-39
-0.0356773911051 0.0118924637017 0.714 7.19191073313e-39
-0.0343560062494 0.0118924637017 0.714 7.37702085896e-39
-0.0330346213936 0.0118924637017 0.714 6.91604130835e-39
-0.0318020691332 0.011925775925 0.716 6.82563793922e-39
-0.0304769829193 0.011925775925 0.716 6.91712030817e-39
-0.029192611645 0.0119424320366 0.717 7.83585081773e-39
-0.027865674752 0.0119424320366 0.717 7.28375884097e-39
-0.0266127650219 0.0119757442598 0.719 7.10008364476e-39
-0.0252821267708 0.0119757442598 0.719 4.42713485003e-39
-0.0239514885197 0.0119757442598 0.719 7.09686626348e-39
-0.0227152349011 0.0120257125947 0.722 1.76028660816e-38
-0.0213790446128 0.0120257125947 0.722 1.88014204802e-38
-0.0757593983961 0.0135284639993 0.731 2.35095268827e-38
-0.0743047646473 0.0135099572086 0.73 2.35098828126e-38
-0.0722542122381 0.0133804096737 0.723 2.32329315854e-38
-0.0709161712707 0.0133804096737 0.723 2.35095268827e-38
-0.0694818949917 0.013361902883 0.722 1.06921973516e-38
-0.0681457047034 0.013361902883 0.722 5.71608981517e-39
-0.0668095144151 0.013361902883 0.722 8.20430403205e-39
-0.0654733241268 0.013361902883 0.722 7.28270506452e-39
-0.0641371338385 0.013361902883 0.722 7.65218963451e-39
-0.0628009435502 0.013361902883 0.722 7.92912264482e-39
-0.0614647532619 0.013361902883 0.722 7.74508311101e-39
-0.0599620018573 0.0133248893016 0.72 7.0075180721e-39
-0.0586295129272 0.0133248893016 0.72 7.65145955801e-39
-0.057456182397 0.013361902883 0.722 7.6514637619e-39
-0.0561199921087 0.013361902883 0.722 7.19048140869e-39
-0.0547838018204 0.013361902883 0.722 7.00644047358e-39
-0.0532995572065 0.0133248893016 0.72 6.9138945191e-39
-0.0518948917926 0.0133063825109 0.719 7.09828858143e-39
-0.0505642535416 0.0133063825109 0.719 6.82169888924e-39
-0.0492336152905 0.0133063825109 0.719 7.09863890604e-39
-0.0479029770394 0.0133063825109 0.719 7.28303016577e-39
-0.0465723387883 0.0133063825109 0.719 6.72985918918e-39
-0.0452417005372 0.0133063825109 0.719 7.19048140869e-39
-0.0439110622861 0.0133063825109 0.719 6.9138973217e-39
-0.0426396457652 0.0133248893016 0.72 6.54545111388e-39
-0.0413071568351 0.0133248893016 0.72 6.82310859549e-39
-0.0399746679049 0.0133248893016 0.72 6.91495109814e-39
-0.0386421789747 0.0133248893016 0.72 7.00679500209e-39
-0.0373096900446 0.0133248893016 0.72 6.82312821367e-39
-0.0359772011144 0.0133248893016 0.72 6.63838662933e-39
-0.0346447121842 0.0133248893016 0.72 6.91461899041e-39
-0.0333122232541 0.0133248893016 0.72 6.73094939939e-39
-0.0319797343239 0.0133248893016 0.72 7.19406873276e-39
-0.0306472453938 0.0133248893016 0.72 7.28446929929e-39
-0.0292740415241 0.0133063825109 0.719 7.9280464476e-39
-0.027943403273 0.0133063825109 0.719 7.4681501007e-39
-0.0266497786033 0.0133248893016 0.72 6.91677138485e-39
-0.0253172896731 0.0133248893016 0.72 4.05835092928e-39
-0.0239848007429 0.0133248893016 0.72 7.65111343729e-39
-0.0227152349011 0.013361902883 0.722 1.75113865153e-38
-0.0213790446128 0.013361902883 0.722 1.85251881191e-38
-0.0757593983961 0.0148813103992 0.731 2.35095268827e-38
-0.0743047646473 0.0148609529295 0.73 2.3417327049e-38
-0.0727538955869 0.0148202379899 0.728 2.35095198762e-38
-0.0713085152335 0.0147998805202 0.727 2.35095268827e-38
-0.0697706009266 0.0147591655806 0.725 1.41037873824e-38
-0.0684288586011 0.0147591655806 0.725 5.07002115819e-39
-0.0670871162756 0.0147591655806 0.725 8.84967624369e-39
-0.0657453739501 0.0147591655806 0.725 7.65183790859e-39
-0.0644036316246 0.0147591655806 0.725 8.11388384734e-39
-0.0628879254665 0.0147184506411 0.723 7.46886616421e-39
-0.0615498844991 0.0147184506411 0.723 7.0078824097e-39
-0.0602118435317 0.0147184506411 0.723 7.65289168504e-39
-0.0588738025644 0.0147184506411 0.723 7.74401111768e-39
-0.057535761597 0.0147184506411 0.723 7.83548788143e-39
-0.0561977206296 0.0147184506411 0.723 7.46670255938e-39
-0.0548596796623 0.0147184506411 0.723 7.28266582817e-39
-0.0534476115321 0.0146980931713 0.722 7.09864170864e-39
-0.0521114212438 0.0146980931713 0.722 7.00644607877e-39
