# .PCD v0.7 - Point Cloud Data file format
VERSION 0.7
FIELDS x y z rgb
SIZE 4 4 4 4
TYPE F F F F
COUNT 1 1 1 1
WIDTH 843
HEIGHT 1
VIEWPOINT 0 0 0 1 0 0 0
POINTS 843
DATA ascii
-0.0107339386041 -0.110022870692 0.725 1.68799011714e-38
-0.00939219627858 -0.110022870692 0.725 1.81706399895e-38
-0.00805045395307 -0.110022870692 0.725 1.79855270611e-38
-0.00670871162756 -0.110022870692 0.725 1.87230921e-38
-0.00536696930205 -0.110022870692 0.725 1.72475990859e-38
-0.00403633105095 -0.110326382059 0.727 1.81695539832e-38
-0.0026908873673 -0.110326382059 0.727 1.8815279322e-38
-0.00134174232551 -0.110022870692 0.725 1.81688281106e-38
0.0 -0.110022870692 0.725 1.79855158507e-38
0.00134174232551 -0.110022870692 0.725 1.78918922977e-38
0.0026908873673 -0.110326382059 0.727 1.71535887745e-38
0.00403633105095 -0.110326382059 0.727 1.79815655903e-38
0.0053817747346 -0.110326382059 0.727 1.96392904632e-38
0.00672721841825 -0.110326382059 0.727 1.99165836072e-38
0.00807266210191 -0.110326382059 0.727 2.25892115046e-38
0.00941810578556 -0.110326382059 0.727 1.8348917384e-38
0.0107635494692 -0.110326382059 0.727 1.7334063405e-38
0.0121089931529 -0.110326382059 0.727 1.85390385532e-38
0.0134544368365 -0.110326382059 0.727 1.1350681513e-38
0.0147591655806 -0.110022870692 0.725 1.3653048521e-38
0.0161009079061 -0.110022870692 0.725 1.59518197972e-38
0.0173945325758 -0.109719359325 0.723 1.80676585654e-38
0.0187325735432 -0.109719359325 0.723 1.62277158466e-38
-0.0653752381361 -0.117675428645 0.785 4.2406458465e-39
-0.0637595953083 -0.117375618636 0.783 4.70162819971e-39
-0.0621513551968 -0.117075808626 0.781 4.42610909955e-39
-0.0606282463224 -0.116925903622 0.78 4.33496444354e-39
-0.0590329609644 -0.116626093613 0.778 3.50625755121e-39
-0.0574450783226 -0.116326283603 0.776 6.08556177347e-39
-0.0558645983971 -0.116026473594 0.774 5.9926430736e-39
-0.0540805437739 -0.115276948571 0.769 4.98136240565e-39
-0.0523149959415 -0.114527423548 0.764 3.50983786879e-39
-0.0505679548997 -0.113777898524 0.759 3.14396304365e-39
-0.0485803255789 -0.112428753483 0.75 3.87941772707e-39
-0.0470035470115 -0.111979038469 0.747 3.41519136791e-39
-0.0454378725186 -0.111529323455 0.744 4.88846472526e-39
-0.0439425238303 -0.111229513445 0.742 6.64016207448e-39
-0.0423398357559 -0.110629893427 0.738 7.00929071466e-39
-0.0408629938583 -0.110330083418 0.736 7.10219400025e-39
-0.039393554677 -0.110030273408 0.734 7.47061918859e-39
-0.0380351562399 -0.110030273408 0.734 7.28622792886e-39
-0.0366267894679 -0.109880368404 0.733 7.46990312507e-39
-0.0351740063982 -0.109580558394 0.731 7.65394406019e-39
-0.033682359068 -0.10913084338 0.728 7.37665371877e-39
-0.0322906484076 -0.108980938376 0.727 5.99804087528e-39
-0.030945204724 -0.108980938376 0.727 4.06516684501e-39
-0.0295183311613 -0.108681128366 0.725 3.69781364999e-39
-0.0281765888357 -0.108681128366 0.725 1.03355010314e-38
-0.0268348465102 -0.108681128366 0.725 2.10258893066e-38
-0.0254931041847 -0.108681128366 0.725 2.35098365697e-38
-0.0241513618592 -0.108681128366 0.725 2.27737414929e-38
-0.0228096195337 -0.108681128366 0.725 2.2867027333e-38
-0.0214678772082 -0.108681128366 0.725 2.34180108826e-38
-0.0201261348827 -0.108681128366 0.725 2.18531612693e-38
-0.0187843925572 -0.108681128366 0.725 2.13939417496e-38
-0.0174426502316 -0.108681128366 0.725 2.05655879845e-38
-0.0161009079061 -0.108681128366 0.725 1.9459592152e-38
-0.0147591655806 -0.108681128366 0.725 2.0196805465e-38
-0.0134174232551 -0.108681128366 0.725 1.4020401716e-38
-0.0120756809296 -0.108681128366 0.725 1.54054465195e-38
-0.0107339386041 -0.108681128366 0.725 1.78947537491e-38
-0.00939219627858 -0.108681128366 0.725 1.87234480298e-38
-0.00802824580423 -0.108381318357 0.723 1.82624698805e-38
-0.00669020483686 -0.108381318357 0.723 1.85390567701e-38
-0.00535216386949 -0.108381318357 0.723 1.82617510143e-38
-0.00402522697653 -0.108681128366 0.725 1.87227277624e-38
-0.00268348465102 -0.108681128366 0.725 1.93673741014e-38
-0.00133804096737 -0.108381318357 0.723 1.85376134326e-38
0.0 -0.108381318357 0.723 1.84447143509e-38
0.00133804096737 -0.108381318357 0.723 1.89063819391e-38
0.00268348465102 -0.108681128366 0.725 1.87194907629e-38
0.00402522697653 -0.108681128366 0.725 1.84411130139e-38
0.00536696930205 -0.108681128366 0.725 2.03775617565e-38
0.00670871162756 -0.108681128366 0.725 2.02843095476e-38
0.00805045395307 -0.108681128366 0.725 1.77939737649e-38
0.00941810578556 -0.108980938376 0.727 2.2127884432e-38
0.0107635494692 -0.108980938376 0.727 2.09289502815e-38
0.0121089931529 -0.108980938376 0.727 1.79779740623e-38
0.0134544368365 -0.108980938376 0.727 1.88109465072e-38
0.0147591655806 -0.108681128366 0.725 1.24505410594e-38
0.0161009079061 -0.108681128366 0.725 1.4203348237e-38
0.0173945325758 -0.108381318357 0.723 1.42030105241e-38
0.0187325735432 -0.108381318357 0.723 1.26381861342e-38
0.0201261348827 -0.108681128366 0.725 1.23619635822e-38
-0.0657916409268 -0.116962917203 0.79 4.5175858633e-39
-0.0639224550664 -0.116222645575 0.785 4.42610349436e-39
-0.0621513551968 -0.115630428273 0.781 4.33391066709e-39
-0.0606282463224 -0.115482373947 0.78 3.96690779669e-39
-0.0590329609644 -0.115186265296 0.778 3.69172640946e-39
-0.0574450783226 -0.114890156645 0.776 4.98244701066e-39
-0.0558645983971 -0.114594047994 0.774 5.35050786141e-39
-0.0540805437739 -0.113853776366 0.769 4.24595816898e-39
-0.0523149959415 -0.113113504738 0.764 4.61510082214e-39
-0.0507012037927 -0.112669341762 0.761 3.9708216233e-39
-0.0489041944161 -0.111781015808 0.755 2.86448807792e-39
-0.0470035470115 -0.110596581204 0.747 2.86412794422e-39
-0.0455600173372 -0.110448526878 0.746 4.43143963891e-39
-0.0440609672907 -0.110152418227 0.744 5.53525084705e-39
-0.0423972068071 -0.109412146599 0.739 6.54903703665e-39
-0.0409740346025 -0.109264092273 0.738 6.73342829637e-39
-0.0395008940631 -0.108967983622 0.736 7.47134786379e-39
-0.0380351562399 -0.108671874971 0.734 7.28622792886e-39
-0.0366267894679 -0.108523820646 0.733 7.00964103927e-39
-0.0351740063982 -0.108227711994 0.731 7.37807603671e-39
-0.033682359068 -0.107783549018 0.728 7.46956541214e-39
-0.0322906484076 -0.107635494692 0.727 7.10184227433e-39
-0.030945204724 -0.107635494692 0.727 5.90547670392e-39
-0.0295183311613 -0.107339386041 0.725 3.69568227502e-39
-0.0280988603148 -0.10704327739 0.723 3.88399576915e-39
-0.0267608193474 -0.10704327739 0.723 9.14089409055e-39
-0.0254931041847 -0.107339386041 0.725 2.2775131581e-38
-0.0241513618592 -0.107339386041 0.725 2.25882950554e-38
-0.0228096195337 -0.107339386041 0.725 2.35088094179e-38
-0.021408655478 -0.10704327739 0.723 2.35098702009e-38
-0.0200706145106 -0.10704327739 0.723 2.32343188708e-38
-0.0187325735432 -0.10704327739 0.723 2.23158910417e-38
-0.0173945325758 -0.10704327739 0.723 2.14865003158e-38
-0.0160564916085 -0.10704327739 0.723 2.08425434156e-38
-0.0147184506411 -0.10704327739 0.723 1.94592432287e-38
-0.0133804096737 -0.10704327739 0.723 2.05655501494e-38
-0.0120423687063 -0.10704327739 0.723 1.97357712638e-38
-0.010704327739 -0.10704327739 0.723 1.53111055016e-38
-0.00936628677161 -0.10704327739 0.723 1.47586491873e-38
-0.00802824580423 -0.10704327739 0.723 1.44817077692e-38
-0.00669020483686 -0.10704327739 0.723 1.95514108326e-38
-0.00535216386949 -0.10704327739 0.723 1.94585159548e-38
-0.00401412290212 -0.10704327739 0.723 1.87213012405e-38
-0.00267608193474 -0.10704327739 0.723 1.91833345676e-38
-0.00133804096737 -0.10704327739 0.723 1.82624320454e-38
0.0 -0.10704327739 0.723 1.88141863092e-38
0.00133804096737 -0.10704327739 0.723 1.87216193353e-38
0.00267608193474 -0.10704327739 0.723 1.93648503629e-38
0.00401412290212 -0.10704327739 0.723 1.92708708801e-38
0.00535216386949 -0.10704327739 0.723 1.85311814727e-38
0.00669020483686 -0.10704327739 0.723 2.02818278481e-38
0.00802824580423 -0.10704327739 0.723 2.34178637463e-38
0.00939219627858 -0.107339386041 0.725 2.09289530841e-38
0.0107339386041 -0.107339386041 0.725 2.04682986347e-38
0.0120756809296 -0.107339386041 0.725 2.00966672755e-38
0.0134174232551 -0.107339386041 0.725 1.96374281376e-38
0.0147591655806 -0.107339386041 0.725 1.89027595826e-38
0.0161009079061 -0.107339386041 0.725 1.07038575561e-38
0.0173945325758 -0.10704327739 0.723 1.16312186629e-38
0.0187325735432 -0.10704327739 0.723 1.107840782e-38
0.0200706145106 -0.10704327739 0.723 1.09837080698e-38
0.021408655478 -0.10704327739 0.723 1.16302181358e-38
-0.0657916409268 -0.115500880738 0.79 4.14951940736e-39
-0.0639224550664 -0.114769862506 0.785 4.33426239301e-39
-0.0623105135968 -0.114477455213 0.783 3.96620434486e-39
-0.0606282463224 -0.114038844273 0.78 3.96655326818e-39
-0.0591847166481 -0.114038844273 0.78 3.50733655103e-39
-0.0575931326482 -0.11374643698 0.778 3.78462689245e-39
-0.0560089513645 -0.113454029687 0.776 5.07571883775e-39
-0.0542211953832 -0.112723011455 0.771 4.52290519227e-39
-0.0524519461926 -0.111991993222 0.766 4.61510082214e-39
-0.0507012037927 -0.11126097499 0.761 3.78642195578e-39
-0.0490337419509 -0.110676160404 0.757 4.24811897121e-39
-0.0470035470115 -0.109214123938 0.747 3.14177841934e-39
-0.0455600173372 -0.109067920292 0.746 4.15556741154e-39
-0.0440609672907 -0.108775512999 0.744 4.61401621713e-39
-0.0425119489094 -0.108336902059 0.741 6.36464857952e-39
-0.0410295549746 -0.108044494766 0.739 6.64123546911e-39
-0.0396082334491 -0.10789829112 0.738 7.28695940666e-39
-0.0381387942678 -0.107605883827 0.736 6.54974188977e-39
-0.0366767578027 -0.107313476534 0.734 6.73305414968e-39
-0.0351740063982 -0.106874865594 0.731 7.19368477698e-39
-0.033682359068 -0.106436254655 0.728 7.37737258488e-39
-0.0322018158123 -0.105997643715 0.725 7.56174843032e-39
-0.0308600734868 -0.105997643715 0.725 6.82599246773e-39
-0.0294369012822 -0.105705236422 0.723 5.35412461274e-39
-0.0280599960544 -0.105559032776 0.722 2.31597641873e-39
-0.026723805766 -0.105559032776 0.722 4.34711930642e-39
-0.0253876154777 -0.105559032776 0.722 1.33804749502e-38
-0.0240514251894 -0.105559032776 0.722 2.29588109811e-38
-0.0227152349011 -0.105559032776 0.722 2.35091681503e-38
-0.0213790446128 -0.105559032776 0.722 2.35088094179e-38
-0.0200428543245 -0.105559032776 0.722 2.35098603918e-38
-0.0187066640362 -0.105559032776 0.722 2.29587829551e-38
-0.0173704737479 -0.105559032776 0.722 2.24070553159e-38
-0.0160342834596 -0.105559032776 0.722 2.09329636003e-38
-0.0147184506411 -0.105705236422 0.723 2.01950216121e-38
-0.0133804096737 -0.105705236422 0.723 1.99191031419e-38
-0.0120423687063 -0.105705236422 0.723 2.08410482301e-38
-0.010704327739 -0.105705236422 0.723 2.24994877652e-38
-0.00935333201812 -0.105559032776 0.722 2.07495686638e-38
-0.00801714172981 -0.105559032776 0.722 1.96435938508e-38
-0.00668095144151 -0.105559032776 0.722 1.49416209317e-38
-0.00534476115321 -0.105559032776 0.722 1.66004402187e-38
-0.00400857086491 -0.105559032776 0.722 1.93655986562e-38
-0.0026723805766 -0.105559032776 0.722 1.98276333846e-38
-0.0013361902883 -0.105559032776 0.722 1.78010853546e-38
0.0 -0.105559032776 0.722 1.97361229897e-38
0.0013361902883 -0.105559032776 0.722 1.96439273598e-38
0.0026723805766 -0.105559032776 0.722 1.93659209549e-38
0.00400857086491 -0.105559032776 0.722 1.9825475385e-38
0.00534476115321 -0.105559032776 0.722 1.96382478972e-38
0.00668095144151 -0.105559032776 0.722 1.97300791894e-38
0.00801714172981 -0.105559032776 0.722 1.88105611501e-38
0.00936628677161 -0.105705236422 0.723 1.88095101763e-38
0.010704327739 -0.105705236422 0.723 1.90864459892e-38
0.0120423687063 -0.105705236422 0.723 1.9548112176e-38
0.0133804096737 -0.105705236422 0.723 1.97328691747e-38
0.0147184506411 -0.105705236422 0.723 2.15793167208e-38
0.0160564916085 -0.105705236422 0.723 1.69728198713e-38
0.0173945325758 -0.105705236422 0.723 1.12603426036e-38
0.0187325735432 -0.105705236422 0.723 1.01544336516e-38
0.0200706145106 -0.105705236422 0.723 1.02470160399e-38
0.021408655478 -0.105705236422 0.723 1.18161354096e-38
0.0227466964453 -0.105705236422 0.723 8.49812689275e-39
-0.0639224550664 -0.113317079436 0.785 4.79523773973e-39
-0.0623105135968 -0.113028373501 0.783 4.15059560459e-39
-0.0606282463224 -0.112595314599 0.78 4.1509445279e-39
-0.0591847166481 -0.112595314599 0.78 2.95416277185e-39
-0.0574450783226 -0.112017902729 0.776 3.60023843532e-39
-0.0558645983971 -0.111729196794 0.774 4.79912914556e-39
-0.0542211953832 -0.111296137892 0.771 4.70765238181e-39
-0.0523149959415 -0.11028566712 0.764 4.43106549222e-39
-0.0507678282392 -0.109996961185 0.762 4.2473944999e-39
-0.0492928370207 -0.109852608218 0.761 4.33959293236e-39
-0.0475069317185 -0.108986490413 0.755 3.87861478305e-39
-0.0455600173372 -0.107687313706 0.746 3.97081041291e-39
-0.0441794107512 -0.107687313706 0.746 4.61509241435e-39
-0.0425119489094 -0.106965548869 0.741 4.89059890282e-39
-0.0411405957188 -0.106965548869 0.741 6.4575602729e-39
-0.0396619031421 -0.106676842934 0.739 6.91889295072e-39
-0.0382424322957 -0.106532489967 0.738 6.82632737807e-39
-0.0366767578027 -0.105955078097 0.734 6.91852300793e-39
-0.0351740063982 -0.105522019195 0.731 7.10148634452e-39
-0.033682359068 -0.105088960292 0.728 7.1011402238e-39
-0.0322018158123 -0.10465590139 0.725 7.55996597868e-39
-0.0308600734868 -0.10465590139 0.725 7.10078849789e-39
-0.0293961863427 -0.104222842488 0.722 5.81472020758e-39
-0.0280599960544 -0.104222842488 0.722 4.71162366166e-39
-0.026723805766 -0.104222842488 0.722 1.94791696929e-39
-0.0253876154777 -0.104222842488 0.722 6.09845231804e-39
-0.0239848007429 -0.103934136553 0.72 1.55931518501e-38
-0.0226523118128 -0.103934136553 0.72 2.27751736199e-38
-0.0213790446128 -0.104222842488 0.722 2.35091611438e-38
-0.0200428543245 -0.104222842488 0.722 2.35088094179e-38
-0.0187066640362 -0.104222842488 0.722 2.35098702009e-38
-0.0173704737479 -0.104222842488 0.722 2.35098561879e-38
-0.0160342834596 -0.104222842488 0.722 2.305061705e-38
-0.0146980931713 -0.104222842488 0.722 2.14843437174e-38
-0.013361902883 -0.104222842488 0.722 2.10243969238e-38
-0.0120257125947 -0.104222842488 0.722 2.07481449445e-38
-0.0106895223064 -0.104222842488 0.722 1.97343615575e-38
-0.00935333201812 -0.104222842488 0.722 2.04726314496e-38
-0.00799493358098 -0.103934136553 0.72 2.07495686638e-38
-0.00666244465082 -0.103934136553 0.72 2.10251003756e-38
-0.00532995572065 -0.103934136553 0.72 1.61380257384e-38
-0.00399746679049 -0.103934136553 0.72 1.77060577005e-38
-0.00266497786033 -0.103934136553 0.72 1.92740854587e-38
-0.00133248893016 -0.103934136553 0.72 1.9643223908e-38
0.0 -0.103934136553 0.72 1.89967825056e-38
0.00133248893016 -0.103934136553 0.72 1.91818786185e-38
0.00266497786033 -0.103934136553 0.72 1.85361602861e-38
0.00399746679049 -0.103934136553 0.72 1.91815296952e-38
0.00532995572065 -0.103934136553 0.72 1.95492514317e-38
0.00666244465082 -0.103934136553 0.72 1.97332769525e-38
0.00799493358098 -0.103934136553 0.72 1.99187065744e-38
0.00932742251114 -0.103934136553 0.72 2.06538109332e-38
0.0106599114413 -0.103934136553 0.72 2.03793484121e-38
0.0120257125947 -0.104222842488 0.722 1.99215848414e-38
0.013361902883 -0.104222842488 0.722 1.77054257149e-38
0.0146980931713 -0.104222842488 0.722 1.02365441364e-38
0.0160342834596 -0.104222842488 0.722 4.79594259285e-39
0.0173704737479 -0.104222842488 0.722 7.19521219231e-39
0.0187066640362 -0.104222842488 0.722 1.50390812399e-38
0.0200428543245 -0.104222842488 0.722 1.13581182039e-38
0.0213790446128 -0.104222842488 0.722 1.12673476946e-38
0.0227152349011 -0.104222842488 0.722 1.23715316481e-38
0.0240514251894 -0.104222842488 0.722 6.28582974479e-39
-0.064655323978 -0.113146816962 0.794 5.07182462932e-39
-0.0630267263967 -0.112861812385 0.792 4.33498686431e-39
-0.0607059748433 -0.111294287213 0.781 4.61192267722e-39
-0.0591847166481 -0.111151784924 0.78 3.23075246404e-39
-0.0574450783226 -0.110581775771 0.776 3.87682112101e-39
-0.0558645983971 -0.110296771194 0.774 3.78534435726e-39
-0.0542211953832 -0.109869264329 0.771 4.61545675195e-39
-0.0523149959415 -0.108871748311 0.764 4.70765238181e-39
-0.0507678282392 -0.108586743734 0.762 4.9842378701e-39
-0.0492928370207 -0.108444241446 0.761 4.52325972078e-39
-0.0476327778952 -0.107874232292 0.757 4.52325972078e-39
-0.0456210897465 -0.106449209408 0.747 4.43106409092e-39
-0.0441794107512 -0.10630670712 0.746 5.07606495847e-39
-0.0425693199606 -0.105736697967 0.742 4.70728664291e-39
-0.0411405957188 -0.105594195678 0.741 5.16826339093e-39
-0.0396619031421 -0.105309191101 0.739 6.36607930525e-39
-0.0382424322957 -0.105166688813 0.738 6.18167683513e-39
-0.0367766944725 -0.104881684236 0.736 6.64229204815e-39
-0.0351740063982 -0.104169172795 0.731 6.54938876256e-39
-0.033682359068 -0.103741665929 0.728 7.00894459394e-39
-0.0322018158123 -0.103314159064 0.725 7.65144834762e-39
-0.0307749422496 -0.103029154488 0.723 7.19190933183e-39
-0.0293961863427 -0.102886652199 0.722 6.64302212465e-39
-0.0280599960544 -0.102886652199 0.722 5.72501608639e-39
-0.026723805766 -0.102886652199 0.722 5.08112224463e-39
-0.0253876154777 -0.102886652199 0.722 1.48766329128e-39
-0.0239848007429 -0.102601647623 0.72 7.20517962828e-39
-0.0226523118128 -0.102601647623 0.72 1.96501561315e-38
-0.0213198228826 -0.102601647623 0.72 2.34179996722e-38
-0.0199873339524 -0.102601647623 0.72 2.35088094179e-38
-0.0186548450223 -0.102601647623 0.72 2.35080919531e-38
-0.0173223560921 -0.102601647623 0.72 2.35088094179e-38
-0.015989867162 -0.102601647623 0.72 2.35098267606e-38
-0.0146573782318 -0.102601647623 0.72 2.2589636098e-38
-0.0133248893016 -0.102601647623 0.72 2.27747111914e-38
-0.0119924003715 -0.102601647623 0.72 2.10243969238e-38
-0.0106599114413 -0.102601647623 0.72 2.10247458471e-38
-0.00932742251114 -0.102601647623 0.72 2.0471220342e-38
-0.00798382950656 -0.102459145334 0.719 2.16701180587e-38
-0.00665319125547 -0.102459145334 0.719 2.08406979055e-38
-0.00532255300437 -0.102459145334 0.719 2.2499496173e-38
-0.00399191475328 -0.102459145334 0.719 1.76131432046e-38
-0.00266127650219 -0.102459145334 0.719 1.79819271253e-38
-0.00133063825109 -0.102459145334 0.719 2.05641082133e-38
0.0 -0.102459145334 0.719 2.03779457123e-38
0.00133063825109 -0.102459145334 0.719 2.06552332511e-38
0.00266127650219 -0.102459145334 0.719 2.04715636601e-38
0.00399191475328 -0.102459145334 0.719 2.0564829882e-38
0.00532255300437 -0.102459145334 0.719 2.17633730702e-38
0.00665319125547 -0.102459145334 0.719 2.08407105172e-38
0.00799493358098 -0.102601647623 0.72 2.04712231446e-38
0.00932742251114 -0.102601647623 0.72 1.73323426105e-38
0.0106599114413 -0.102601647623 0.72 1.07853963111e-38
0.0119924003715 -0.102601647623 0.72 2.58430825907e-39
0.0133248893016 -0.102601647623 0.72 4.30478888241e-42
0.0146980931713 -0.102886652199 0.722 1.86920603455e-40
0.0160342834596 -0.102886652199 0.722 6.7260126249e-39
0.0173704737479 -0.102886652199 0.722 2.75590566382e-40
0.0187066640362 -0.102886652199 0.722 9.22825383941e-39
0.0200428543245 -0.102886652199 0.722 1.32063383926e-38
0.0213198228826 -0.102601647623 0.72 1.09918818438e-38
0.0226523118128 -0.102601647623 0.72 1.18187656468e-38
0.0240514251894 -0.102886652199 0.722 1.09875125951e-38
0.0253876154777 -0.102886652199 0.722 7.1151896422e-39
-0.0662913242756 -0.111958680999 0.796 4.61049475408e-39
-0.064655323978 -0.11167737778 0.794 4.79559366954e-39
-0.0630267263967 -0.111396074562 0.792 4.51937812404e-39
-0.0615609885735 -0.111396074562 0.792 4.42753422009e-39
-0.0592605944899 -0.109848906859 0.781 3.0460080771e-39
-0.0575931326482 -0.109426952032 0.778 3.416567443e-39
-0.0558645983971 -0.108864345594 0.774 3.87753858583e-39
-0.05386956636 -0.10773913272 0.766 4.707296452e-39
-0.0524519461926 -0.10773913272 0.766 4.7069335157e-39
-0.0507678282392 -0.107176526283 0.762 5.16791026372e-39
-0.0492928370207 -0.107035874673 0.761 4.70728804421e-39
-0.0476327778952 -0.106473268236 0.757 4.61509241435e-39
-0.0460485966116 -0.106051313408 0.754 4.61509241435e-39
-0.0442386324814 -0.105066752143 0.747 5.2611778869e-39
-0.0425693199606 -0.104363494097 0.742 4.52325691819e-39
-0.0411405957188 -0.104222842488 0.741 4.52325691819e-39
-0.0397692425282 -0.104222842488 0.741 4.79983960388e-39
-0.0382942513096 -0.103941539269 0.739 6.36642962987e-39
-0.0367766944725 -0.103519584441 0.736 6.55045935459e-39
-0.0352702417098 -0.103097629613 0.733 6.08841341584e-39
-0.0337748930215 -0.102675674785 0.73 7.3784473808e-39
-0.0322018158123 -0.101972416739 0.725 7.283730815e-39
-0.0307749422496 -0.10169111352 0.723 6.91637902128e-39
-0.0293961863427 -0.101550461911 0.722 7.01108297539e-39
-0.0279822675334 -0.101269158692 0.72 6.27746259166e-39
-0.0266497786033 -0.101269158692 0.72 5.81830332775e-39
-0.0253172896731 -0.101269158692 0.72 3.69785148505e-39
-0.0239848007429 -0.101269158692 0.72 1.76353551865e-39
-0.0226523118128 -0.101269158692 0.72 9.23597639524e-39
-0.0213198228826 -0.101269158692 0.72 2.29587787512e-38
-0.0199595737664 -0.101128507083 0.719 2.35098589905e-38
-0.0186289355153 -0.101128507083 0.719 2.35084506855e-38
-0.0172982972642 -0.101128507083 0.719 2.29549167726e-38
-0.0159676590131 -0.101128507083 0.719 2.35094862451e-38
-0.014637020762 -0.101128507083 0.719 2.35098225567e-38
-0.0133248893016 -0.101269158692 0.72 2.33261235384e-38
-0.0119924003715 -0.101269158692 0.72 2.1299578311e-38
-0.0106451060087 -0.101128507083 0.719 2.11155387772e-38
-0.00931446775765 -0.101128507083 0.719 2.05630656473e-38
-0.00798382950656 -0.101128507083 0.719 2.06556003913e-38
-0.00665319125547 -0.101128507083 0.719 2.04712091316e-38
-0.00530774757182 -0.100847203865 0.717 2.17615836121e-38
-0.00398081067886 -0.100847203865 0.717 2.14857015756e-38
-0.00265387378591 -0.100847203865 0.717 1.62294716736e-38
-0.00132693689295 -0.100847203865 0.717 2.02850256112e-38
0.0 -0.100847203865 0.717 2.03758003244e-38
0.00132693689295 -0.100847203865 0.717 2.03779260941e-38
0.00265387378591 -0.100847203865 0.717 2.19452840317e-38
0.00398081067886 -0.100847203865 0.717 2.10244305549e-38
0.00532255300437 -0.101128507083 0.719 1.71529455785e-38
0.00665319125547 -0.101128507083 0.719 1.0052473774e-38
0.00798382950656 -0.101128507083 0.719 6.54690426038e-39
0.00931446775765 -0.101128507083 0.719 1.74992610797e-39
0.0106451060087 -0.101128507083 0.719 3.68318549532e-39
0.0119924003715 -0.101269158692 0.72 2.94924001034e-39
0.0133248893016 -0.101269158692 0.72 2.0288433569e-38
0.0146573782318 -0.101269158692 0.72 2.05610814086e-38
0.015989867162 -0.101269158692 0.72 1.59419896885e-38
0.0173223560921 -0.101269158692 0.72 2.66406316117e-39
0.0186548450223 -0.101269158692 0.72 7.14662216806e-44
0.0199873339524 -0.101269158692 0.72 1.08060234245e-38
0.0213198228826 -0.101269158692 0.72 1.33871605452e-38
0.0226523118128 -0.101269158692 0.72 1.40296502859e-38
0.0239848007429 -0.101269158692 0.72 1.41182389735e-38
0.0253172896731 -0.101269158692 0.72 1.19948275884e-38
0.0266497786033 -0.101269158692 0.72 7.38531094068e-39
-0.0662913242756 -0.110485540459 0.796 4.61049475408e-39
-0.0648181837362 -0.110485540459 0.796 4.42681115008e-39
-0.0631858847967 -0.110207938599 0.794 3.96620434486e-39
-0.0613278030108 -0.109513933948 0.789 3.96655887337e-39
-0.0598676172248 -0.109513933948 0.789 3.13820510826e-39
-0.0581113227877 -0.108958730227 0.785 3.50840714306e-39
-0.056658539718 -0.108958730227 0.785 3.32401448203e-39
-0.05386956636 -0.106321512553 0.766 3.32437321444e-39
-0.0523149959415 -0.106043910692 0.764 4.98352320788e-39
-0.0507678282392 -0.105766308832 0.762 5.62888841303e-39
-0.0492928370207 -0.105627507901 0.761 5.16718719371e-39
-0.0477586240719 -0.105349906041 0.759 5.07498876125e-39
-0.045926451793 -0.104378299529 0.752 4.61437494953e-39
-0.0442386324814 -0.103684294878 0.747 4.15555620115e-39
-0.0426840620629 -0.103267892088 0.744 4.52470025561e-39
-0.0411961160909 -0.102990290227 0.742 4.2473944999e-39
-0.0397692425282 -0.102851489297 0.741 4.70800410772e-39
-0.0382942513096 -0.102573887437 0.739 6.09056861288e-39
-0.0368766311423 -0.102435086506 0.738 6.82704764548e-39
-0.0353183593656 -0.101879882785 0.734 6.45719873789e-39
-0.0338211599982 -0.101463479995 0.731 7.19405752237e-39
-0.0322906484076 -0.100908276274 0.727 7.10183666914e-39
-0.0308600734868 -0.100630674413 0.725 7.19473715213e-39
-0.0293961863427 -0.100214271623 0.722 7.37915503653e-39
-0.0279822675334 -0.0999366697622 0.72 7.19513932479e-39
-0.0266497786033 -0.0999366697622 0.72 6.55334743072e-39
-0.0253172896731 -0.0999366697622 0.72 5.6332086162e-39
-0.0239514885197 -0.099797868832 0.719 2.68513168358e-39
-0.0226208502686 -0.099797868832 0.719 2.13553401808e-39
-0.0212902120175 -0.099797868832 0.719 1.22723337298e-38
-0.0199595737664 -0.099797868832 0.719 2.31424735656e-38
-0.0186289355153 -0.099797868832 0.719 2.3234366515e-38
-0.0172501796084 -0.0995202669716 0.717 2.35098702009e-38
-0.0159232427154 -0.0995202669716 0.717 2.35098687996e-38
-0.014637020762 -0.099797868832 0.719 2.34176423411e-38
-0.0133063825109 -0.099797868832 0.719 2.34172653918e-38
-0.0119757442598 -0.099797868832 0.719 2.31424399344e-38
-0.0106451060087 -0.099797868832 0.719 2.26828644849e-38
-0.00928855825068 -0.0995202669716 0.717 2.21289718396e-38
-0.00796162135772 -0.0995202669716 0.717 2.23137148252e-38
-0.00663468446477 -0.0995202669716 0.717 2.19456231459e-38
-0.00530774757182 -0.0995202669716 0.717 2.08392531668e-38
-0.00397525864165 -0.0993814660413 0.716 2.11151267955e-38
-0.00265017242777 -0.0993814660413 0.716 2.19441812098e-38
-0.00132508621388 -0.0993814660413 0.716 1.54894109221e-38
0.0 -0.0993814660413 0.716 2.1851258306e-38
0.00132508621388 -0.0993814660413 0.716 2.07473980524e-38
0.00265017242777 -0.0993814660413 0.716 1.25413423973e-38
0.00397525864165 -0.0993814660413 0.716 3.78140951117e-39
0.00530034485554 -0.0993814660413 0.716 3.13644367609e-39
0.00663468446477 -0.0995202669716 0.717 4.51797122038e-39
0.00796162135772 -0.0995202669716 0.717 6.7302977956e-39
0.00928855825068 -0.0995202669716 0.717 7.83594190213e-39
0.0106154951436 -0.0995202669716 0.717 5.43673255852e-39
0.0119424320366 -0.0995202669716 0.717 8.84942260867e-39
0.0133248893016 -0.0999366697622 0.72 2.12986590592e-38
0.014637020762 -0.099797868832 0.719 8.11287771504e-39
0.0159676590131 -0.099797868832 0.719 1.80649456515e-38
0.0172982972642 -0.099797868832 0.719 2.19382186848e-38
0.0186289355153 -0.099797868832 0.719 1.65959420506e-39
0.0199595737664 -0.099797868832 0.719 8.02383500672e-42
0.0212902120175 -0.099797868832 0.719 1.24601469604e-38
0.0226208502686 -0.099797868832 0.719 5.91281810658e-39
0.0239514885197 -0.099797868832 0.719 2.03631087642e-39
0.0252118009661 -0.0995202669716 0.717 5.57227735637e-40
0.0265017242777 -0.0993814660413 0.716 8.34104694009e-40
0.0278268104916 -0.0993814660413 0.716 1.14390109604e-38
-0.0662913242756 -0.10901239992 0.796 4.42610349436e-39
-0.0648181837362 -0.10901239992 0.796 4.70339803967e-39
-0.0630267263967 -0.108464598915 0.792 4.15059560459e-39
-0.0613278030108 -0.108053748162 0.789 3.96655887337e-39
-0.0598676172248 -0.108053748162 0.789 3.32224043818e-39
-0.0581113227877 -0.107505947157 0.785 3.23146712625e-39
-0.056658539718 -0.107505947157 0.785 3.96938529237e-39
-0.05386956636 -0.104903892385 0.766 3.87718685991e-39
-0.0523149959415 -0.104629991883 0.764 4.24560504177e-39
-0.0507678282392 -0.104356091381 0.762 5.35122392492e-39
-0.0492928370207 -0.104219141129 0.761 5.35157845343e-39
-0.0477586240719 -0.103945240627 0.759 5.443411147e-39
-0.045926451793 -0.102986588869 0.752 5.16682285611e-39
-0.0443570759419 -0.102575738116 0.749 3.7871380193e-39
-0.0427988041652 -0.102164887362 0.746 4.61726442697e-39
-0.0413071568351 -0.10189098686 0.744 4.52434993099e-39
-0.0398229122212 -0.101617086357 0.742 4.61653435047e-39
-0.0383978893375 -0.101480136106 0.741 4.98422806101e-39
-0.0368766311423 -0.101069285353 0.738 6.08984834547e-39
-0.0354145946772 -0.100795384851 0.736 6.27245014706e-39
-0.0339599609285 -0.100521484348 0.734 7.10186469511e-39
-0.0323350647053 -0.0996997828413 0.728 5.90545288185e-39
-0.0308600734868 -0.0992889320879 0.725 6.36642402467e-39
-0.0293961863427 -0.0988780813344 0.722 6.73343390157e-39
-0.0279822675334 -0.0986041808321 0.72 6.73238012512e-39
-0.0266497786033 -0.0986041808321 0.72 6.91818949889e-39
-0.0252821267708 -0.0984672305809 0.719 6.64554025799e-39
-0.0239514885197 -0.0984672305809 0.719 5.44917188498e-39
-0.0225579271802 -0.0981933300786 0.717 2.59256190703e-39
-0.0212309902873 -0.0981933300786 0.717 3.69996604443e-39
-0.0199040533943 -0.0981933300786 0.717 1.72509117554e-38
-0.0185771165014 -0.0981933300786 0.717 2.28669894979e-38
-0.0172501796084 -0.0981933300786 0.717 2.30506759045e-38
-0.0159232427154 -0.0981933300786 0.717 2.35095268827e-38
-0.0145963058225 -0.0981933300786 0.717 2.35091331179e-38
-0.0132693689295 -0.0981933300786 0.717 2.35091106971e-38
-0.0119424320366 -0.0981933300786 0.717 2.31417350813e-38
-0.0106154951436 -0.0981933300786 0.717 2.29587465213e-38
-0.00928855825068 -0.0981933300786 0.717 2.26821456188e-38
-0.00796162135772 -0.0981933300786 0.717 2.25895856513e-38
-0.00662543106942 -0.0980563798275 0.716 2.24048230475e-38
-0.00530034485554 -0.0980563798275 0.716 2.13910060293e-38
-0.00397525864165 -0.0980563798275 0.716 2.24051397409e-38
-0.00265017242777 -0.0980563798275 0.716 2.19430895983e-38
-0.00132508621388 -0.0980563798275 0.716 2.19423917517e-38
0.0 -0.0980563798275 0.716 1.66872240339e-38
0.00132508621388 -0.0980563798275 0.716 2.1669330529e-38
0.00265017242777 -0.0980563798275 0.716 2.10243997264e-38
0.00397525864165 -0.0980563798275 0.716 1.56909554764e-39
0.00530034485554 -0.0980563798275 0.716 7.00869656411e-39
0.00662543106942 -0.0980563798275 0.716 8.57426924741e-39
0.00795051728331 -0.0980563798275 0.716 8.75935975507e-39
0.00927560349719 -0.0980563798275 0.716 6.7310306747e-39
0.0106006897111 -0.0980563798275 0.716 6.73178877717e-39
0.0119424320366 -0.0981933300786 0.717 1.01600584636e-39
0.0132693689295 -0.0981933300786 0.717 5.07153736313e-39
0.0145963058225 -0.0981933300786 0.717 1.79771080599e-38
0.0159232427154 -0.0981933300786 0.717 1.18918195396e-38
0.0172501796084 -0.0981933300786 0.717 1.9638374014e-38
0.0186289355153 -0.0984672305809 0.719 2.1390135823e-38
0.0199595737664 -0.0984672305809 0.719 1.32808636489e-38
0.0212902120175 -0.0984672305809 0.719 1.34703149974e-38
0.0226208502686 -0.0984672305809 0.719 2.94272677508e-42
0.0239514885197 -0.0984672305809 0.719 7.43765784611e-40
0.0252118009661 -0.0981933300786 0.717 2.67771320951e-39
0.0265017242777 -0.0980563798275 0.716 2.40002209673e-39
0.0277490819706 -0.0977824793251 0.714 1.94042983159e-39
0.0290704668264 -0.0977824793251 0.714 1.10705899759e-38
0.0304769829193 -0.0980563798275 0.716 1.31024096907e-38
-0.0630267263967 -0.106998861092 0.792 4.05839997472e-39
-0.0613278030108 -0.106593562376 0.789 4.24278983315e-39
-0.0598676172248 -0.106593562376 0.789 3.69102295763e-39
-0.0582593771132 -0.106323363232 0.787 3.69244667687e-39
-0.056658539718 -0.106053164087 0.785 3.41585838598e-39
-0.05386956636 -0.103486272218 0.766 3.50768827694e-39
-0.0523149959415 -0.103216073074 0.764 4.24560644306e-39
-0.0507678282392 -0.10294587393 0.762 4.98244701066e-39
-0.0492928370207 -0.102810774357 0.761 6.27281868855e-39
-0.0477586240719 -0.102540575213 0.759 5.443411147e-39
-0.0460485966116 -0.101865077353 0.754 5.35049384842e-39
-0.0445347411326 -0.101594878209 0.752 4.15628347505e-39
-0.0427988041652 -0.100784280776 0.746 3.88042385937e-39
-0.0413071568351 -0.100514081632 0.744 4.61726582826e-39
-0.0398229122212 -0.100243882488 0.742 4.2473973025e-39
-0.0383978893375 -0.100108782916 0.741 4.89167510004e-39
-0.0369265994771 -0.0998385837715 0.739 5.53631863648e-39
-0.0354145946772 -0.0994332850553 0.736 5.62780240672e-39
-0.0339599609285 -0.0991630859111 0.734 7.1015087653e-39
-0.0323350647053 -0.0983524884786 0.728 5.90582562724e-39
-0.030945204724 -0.0982173889065 0.727 6.36645485324e-39
-0.0293961863427 -0.0975418910461 0.722 6.73307797176e-39
-0.0279822675334 -0.0972716919019 0.72 7.00822292523e-39
-0.0266497786033 -0.0972716919019 0.72 7.19191073313e-39
-0.0252821267708 -0.0971365923298 0.719 6.54976991574e-39
-0.0238848640732 -0.0968663931857 0.717 5.90834095798e-39
-0.0225579271802 -0.0968663931857 0.717 5.26515196935e-39
-0.0212309902873 -0.0968663931857 0.717 2.04118739507e-39
-0.0199040533943 -0.0968663931857 0.717 4.62370199211e-39
-0.0185771165014 -0.0968663931857 0.717 2.1029881606e-38
-0.0172261207805 -0.0967312936136 0.716 2.29588334018e-38
-0.0159010345666 -0.0967312936136 0.716 2.33244209608e-38
-0.0145759483527 -0.0967312936136 0.716 2.35098645957e-38
-0.0132508621388 -0.0967312936136 0.716 2.3509837971e-38
-0.011925775925 -0.0967312936136 0.716 2.35098071424e-38
-0.0106006897111 -0.0967312936136 0.716 2.2958383585e-38
-0.00927560349719 -0.0967312936136 0.716 2.33260857034e-38
-0.00795051728331 -0.0967312936136 0.716 2.23126512397e-38
-0.00662543106942 -0.0967312936136 0.716 2.2773253841e-38
-0.00530034485554 -0.0967312936136 0.716 2.33260394605e-38
-0.00396415456724 -0.0964610944694 0.714 2.21281969215e-38
-0.00264276971149 -0.0964610944694 0.714 2.29572429281e-38
-0.00132138485575 -0.0964610944694 0.714 2.21260585401e-38
0.0 -0.0964610944694 0.714 2.02807208223e-38
0.00132138485575 -0.0964610944694 0.714 1.64141796268e-38
0.00264276971149 -0.0964610944694 0.714 2.28668451642e-38
0.00396415456724 -0.0964610944694 0.714 2.02876222172e-38
0.00528553942298 -0.0964610944694 0.714 2.86236651205e-39
0.00660692427873 -0.0964610944694 0.714 6.82433613295e-39
0.00795051728331 -0.0967312936136 0.716 7.65337793561e-39
0.00927560349719 -0.0967312936136 0.716 5.53321335908e-39
0.0106006897111 -0.0967312936136 0.716 2.31107467671e-39
0.0119424320366 -0.0968663931857 0.717 1.38803097046e-39
0.0132508621388 -0.0967312936136 0.716 2.03774258306e-38
0.0145759483527 -0.0967312936136 0.716 2.11149600409e-38
0.0159010345666 -0.0967312936136 0.716 1.65998825019e-38
0.0172261207805 -0.0967312936136 0.716 1.70612516135e-38
0.0185771165014 -0.0968663931857 0.717 2.24993336224e-38
0.0199040533943 -0.0968663931857 0.717 1.8345879369e-38
0.0212309902873 -0.0968663931857 0.717 1.28195954308e-38
0.0225579271802 -0.0968663931857 0.717 1.35600317302e-38
0.0238848640732 -0.0968663931857 0.717 6.16851583996e-42
0.0252118009661 -0.0968663931857 0.717 1.48057552365e-39
0.0265017242777 -0.0967312936136 0.716 1.75574149659e-39
0.0277490819706 -0.0964610944694 0.714 2.21742449904e-39
0.0290704668264 -0.0964610944694 0.714 1.02240697775e-39
0.0304769829193 -0.0967312936136 0.716 1.15365805698e-38
-0.0613278030108 -0.10513337659 0.789 4.33425118262e-39
-0.0598676172248 -0.10513337659 0.789 3.87397508383e-39
-0.0582593771132 -0.104866878804 0.787 3.96687136293e-39
-0.056658539718 -0.104600381018 0.785 3.96794335625e-39
-0.0547134760158 -0.103667638767 0.778 3.8764679938e-39
-0.0524519461926 -0.10206865205 0.766 3.78499123005e-39
-0.0509010771322 -0.101802154264 0.764 3.32437321444e-39
-0.0493576107881 -0.101535656478 0.762 5.35122672752e-39
-0.0478844702487 -0.101402407585 0.761 5.25866395746e-39
-0.0462318138395 -0.100869412013 0.757 5.6263604706e-39
-0.0447124063233 -0.100602914227 0.755 4.79912774426e-39
-0.0429709173187 -0.0998034208692 0.749 4.33959012977e-39
-0.0413071568351 -0.0991371764041 0.744 4.15520167264e-39
-0.0398229122212 -0.0988706786181 0.742 4.52470025561e-39
-0.0383978893375 -0.0987374297251 0.741 4.43214028814e-39
-0.0369265994771 -0.0984709319391 0.739 4.70800410772e-39
-0.0355108299888 -0.098337683046 0.738 5.53631863648e-39
-0.0341450288354 -0.098337683046 0.738 6.82669732086e-39
-0.0326015624913 -0.097804687474 0.734 6.64231446892e-39
-0.030945204724 -0.0968719452229 0.727 6.54976711315e-39
-0.0294369012822 -0.0963389496508 0.723 7.01038372746e-39
-0.0279822675334 -0.0959392029717 0.72 6.36501431842e-39
-0.0266497786033 -0.0959392029717 0.72 6.73344511196e-39
-0.0252821267708 -0.0958059540787 0.719 6.54977271834e-39
-0.0238848640732 -0.0955394562927 0.717 6.55084891556e-39
-0.0225579271802 -0.0955394562927 0.717 6.27462776487e-39
-0.0212309902873 -0.0955394562927 0.717 4.6197839616e-39
-0.0198762932083 -0.0954062073997 0.716 6.60426361042e-40
-0.0185512069944 -0.0954062073997 0.716 6.4683278503e-39
-0.0172261207805 -0.0954062073997 0.716 2.25914437731e-38
-0.0158566182689 -0.0951397096136 0.714 2.35098533853e-38
-0.0145352334132 -0.0951397096136 0.714 2.28670259317e-38
-0.0131953417668 -0.0950064607206 0.713 2.32343412916e-38
-0.0118758075901 -0.0950064607206 0.713 2.24016589155e-38
-0.010571078846 -0.0951397096136 0.714 2.34179520281e-38
-0.00924969399022 -0.0951397096136 0.714 2.33261039203e-38
-0.00792830913447 -0.0951397096136 0.714 2.31424063033e-38
-0.00660692427873 -0.0951397096136 0.714 2.22204317878e-38
-0.00528553942298 -0.0951397096136 0.714 2.35097356762e-38
-0.00396415456724 -0.0951397096136 0.714 2.31416706216e-38
-0.00264276971149 -0.0951397096136 0.714 2.13903053801e-38
-0.00131953417668 -0.0950064607206 0.713 2.17601528864e-38
0.0 -0.0950064607206 0.713 2.24948718881e-38
0.00131953417668 -0.0950064607206 0.713 1.8718012393e-38
0.00263906835335 -0.0950064607206 0.713 2.15768041927e-38
0.00395860253003 -0.0950064607206 0.713 2.18527002421e-38
0.0052781367067 -0.0950064607206 0.713 1.87177755736e-38
0.00659767088338 -0.0950064607206 0.713 4.61730646592e-40
0.00792830913447 -0.0951397096136 0.714 5.07618827273e-39
0.00924969399022 -0.0951397096136 0.714 9.59629787457e-39
0.010571078846 -0.0951397096136 0.714 1.40252950503e-38
0.0118924637017 -0.0951397096136 0.714 1.4856140324e-38
0.0132138485575 -0.0951397096136 0.714 1.38416240579e-38
0.0145352334132 -0.0951397096136 0.714 1.95559370267e-38
0.0158566182689 -0.0951397096136 0.714 2.02913328555e-38
0.0171780031247 -0.0951397096136 0.714 1.57705127954e-38
0.0185512069944 -0.0954062073997 0.716 2.26833661497e-38
0.0198762932083 -0.0954062073997 0.716 2.1944736124e-38
0.0212013794222 -0.0954062073997 0.716 2.01966331053e-38
0.022526465636 -0.0954062073997 0.716 1.42078926479e-38
0.0238515518499 -0.0954062073997 0.716 1.13526951788e-38
0.0251766380638 -0.0954062073997 0.716 4.00350971258e-42
0.0265017242777 -0.0954062073997 0.716 2.12489115624e-39
0.0277490819706 -0.0951397096136 0.714 3.41202723598e-39
0.0290704668264 -0.0951397096136 0.714 1.84717482009e-39
0.0303492860635 -0.0950064607206 0.713 1.944352066e-39
0.0316688202402 -0.0950064607206 0.713 1.39282691446e-38
-0.0613278030108 -0.103673190804 0.789 4.70373295001e-39
-0.0598676172248 -0.103673190804 0.789 3.96651963701e-39
-0.0582593771132 -0.103410394376 0.787 3.78283323041e-39
-0.056658539718 -0.103147597948 0.785 4.24452744325e-39
-0.0552057566483 -0.103147597948 0.785 3.96866362366e-39
-0.0534790730763 -0.102622005092 0.781 3.96938248978e-39
-0.0520336927229 -0.102622005092 0.781 3.96901955347e-39
-0.0493576107881 -0.100125439027 0.762 4.98244701066e-39
-0.0478844702487 -0.0999940408134 0.761 5.53453478353e-39
-0.0462318138395 -0.0994684479576 0.757 6.27137394984e-39
-0.0447124063233 -0.0992056515297 0.755 5.81183773664e-39
-0.0431430304722 -0.0988114568879 0.752 5.35230152344e-39
-0.0414181975792 -0.0980230676042 0.746 4.61545675195e-39
-0.0399302516072 -0.0977602711763 0.744 4.24811336602e-39
-0.0384497083515 -0.0974974747484 0.742 4.52505758671e-39
-0.0369265994771 -0.0971032801066 0.739 4.34030339069e-39
-0.0355108299888 -0.0969718818926 0.738 4.52325691819e-39
-0.0341450288354 -0.0969718818926 0.738 5.72106582602e-39
-0.0326015624913 -0.0964462890368 0.734 6.36572757933e-39
-0.030945204724 -0.0955265015392 0.727 6.36573038193e-39
-0.0294369012822 -0.0950009086834 0.723 6.55012444426e-39
-0.0279822675334 -0.0946067140416 0.72 6.08878896383e-39
-0.0266497786033 -0.0946067140416 0.72 5.9044005067e-39
-0.0252821267708 -0.0944753158276 0.719 6.27318582875e-39
-0.0238848640732 -0.0942125193997 0.717 6.6419683482e-39
-0.0225579271802 -0.0942125193997 0.717 6.64161241839e-39
-0.0212309902873 -0.0942125193997 0.717 5.72359797234e-39
-0.0198762932083 -0.0940811211858 0.716 2.96062275777e-39
-0.0185512069944 -0.0940811211858 0.716 1.30506849618e-39
-0.0171780031247 -0.0938183247579 0.714 9.88027100837e-39
-0.0158344101201 -0.093686926544 0.713 2.26832988874e-38
-0.0145148759434 -0.093686926544 0.713 2.35098533853e-38
-0.0131953417668 -0.093686926544 0.713 2.35087855959e-38
-0.0118758075901 -0.093686926544 0.713 2.35098505827e-38
-0.0105562734134 -0.093686926544 0.713 2.34176143152e-38
-0.00923673923673 -0.093686926544 0.713 2.35097889256e-38
-0.00791720506005 -0.093686926544 0.713 2.35097651035e-38
-0.00659767088338 -0.093686926544 0.713 2.32324341244e-38
-0.0052781367067 -0.093686926544 0.713 2.25874066322e-38
-0.00395860253003 -0.093686926544 0.713 2.32331249645e-38
-0.00263906835335 -0.093686926544 0.713 2.29572541385e-38
-0.00131953417668 -0.093686926544 0.713 2.26817448474e-38
0.0 -0.0934241301161 0.711 2.2314380442e-38
0.00131583281854 -0.0934241301161 0.711 2.35096852295e-38
0.00263166563707 -0.0934241301161 0.711 1.66900616633e-38
0.00394749845561 -0.0934241301161 0.711 2.26820979746e-38
0.00526333127414 -0.0934241301161 0.711 2.10219362437e-38
0.00657916409268 -0.0934241301161 0.711 1.45701212945e-38
0.00789499691122 -0.0934241301161 0.711 1.67857661445e-38
0.00921082972975 -0.0934241301161 0.711 1.6789388501e-38
0.0105266625483 -0.0934241301161 0.711 1.55937221785e-38
0.0118424953668 -0.0934241301161 0.711 1.41200340368e-38
0.0131583281854 -0.0934241301161 0.711 1.34761079652e-38
0.0144741610039 -0.0934241301161 0.711 1.30133235422e-38
0.0157899938224 -0.0934241301161 0.711 1.59588907492e-38
0.017105826641 -0.0934241301161 0.711 2.14873523052e-38
0.0184216594595 -0.0934241301161 0.711 1.47549371476e-38
0.0197930126501 -0.093686926544 0.713 1.53088325955e-38
0.0211125468268 -0.093686926544 0.713 2.00086573241e-38
0.0224320810035 -0.093686926544 0.713 1.53099340161e-38
0.0237516151802 -0.093686926544 0.713 1.35621897299e-38
0.0250711493568 -0.093686926544 0.713 7.84677954446e-39
0.0263906835335 -0.093686926544 0.713 6.0255833966e-44
0.0277102177102 -0.093686926544 0.713 2.6755271839e-39
0.0290297518869 -0.093686926544 0.713 3.13651093842e-39
0.0302641548263 -0.0934241301161 0.711 3.30846567427e-42
0.0315799876449 -0.0934241301161 0.711 5.54029412022e-39
0.0328958204634 -0.0934241301161 0.711 1.33782945298e-38
-0.0598676172248 -0.102213005018 0.789 3.78179346695e-39
-0.0582593771132 -0.101953909948 0.787 3.50661207972e-39
-0.056658539718 -0.101694814878 0.785 4.06013618352e-39
-0.0552057566483 -0.101694814878 0.785 3.87682392361e-39
-0.0534790730763 -0.101176624739 0.781 3.69279560019e-39
-0.0518338193833 -0.100787982134 0.778 3.87682392361e-39
-0.0496167058579 -0.0992334117158 0.766 4.06013478222e-39
-0.0478844702487 -0.0985856740414 0.761 4.70513845236e-39
-0.0463539586581 -0.0983265789716 0.759 5.71892744456e-39
-0.0447124063233 -0.0978083888321 0.755 5.62708634321e-39
-0.0431430304722 -0.0974197462275 0.752 5.62744927951e-39
-0.0414181975792 -0.0966424610182 0.746 4.98352040529e-39
-0.0399302516072 -0.0963833659485 0.744 4.61545675195e-39
-0.0384497083515 -0.0961242708787 0.742 4.98495953881e-39
-0.0369265994771 -0.0957356282741 0.739 4.70872998033e-39
-0.0355108299888 -0.0956060807392 0.738 4.33994465828e-39
-0.0341450288354 -0.0956060807392 0.738 4.98459099731e-39
-0.0326015624913 -0.0950878905997 0.734 5.99694505988e-39
-0.0309877703426 -0.0943106053904 0.728 6.36573038193e-39
-0.0295183311613 -0.0939219627858 0.725 6.55012164166e-39
-0.0279822675334 -0.0932742251114 0.72 6.36573318453e-39
-0.0266497786033 -0.0932742251114 0.72 6.27318022356e-39
-0.0252821267708 -0.0931446775765 0.719 6.73416117547e-39
-0.0238848640732 -0.0928855825068 0.717 6.54977271834e-39
-0.0225579271802 -0.0928855825068 0.717 6.36538145861e-39
-0.0212309902873 -0.0928855825068 0.717 6.08878896383e-39
-0.0198762932083 -0.0927560349719 0.716 5.62997862324e-39
-0.0184993879804 -0.0924969399022 0.714 3.05606099228e-39
-0.017105826641 -0.0921082972975 0.711 4.80342692795e-40
-0.0157899938224 -0.0921082972975 0.711 1.49499614601e-38
-0.0144741610039 -0.0921082972975 0.711 2.35098141489e-38
-0.0131583281854 -0.0921082972975 0.711 2.3507720609e-38
-0.0118424953668 -0.0921082972975 0.711 2.29588726382e-38
-0.0105266625483 -0.0921082972975 0.711 2.35098309645e-38
-0.00921082972975 -0.0921082972975 0.711 2.350944841e-38
-0.00789499691122 -0.0921082972975 0.711 2.35087183335e-38
-0.00657916409268 -0.0921082972975 0.711 2.35097637022e-38
-0.00526333127414 -0.0921082972975 0.711 2.32327620282e-38
-0.00394749845561 -0.0921082972975 0.711 2.3417848332e-38
-0.00263166563707 -0.0921082972975 0.711 2.20356355528e-38
-0.00131398213947 -0.0919787497627 0.71 2.27728628787e-38
0.0 -0.0919787497627 0.71 2.26831391394e-38
0.00131398213947 -0.0919787497627 0.71 2.32341969579e-38
0.00262796427893 -0.0919787497627 0.71 2.34178581411e-38
0.0039419464184 -0.0919787497627 0.71 1.0881812652e-38
0.00525592855787 -0.0919787497627 0.71 1.4939542806e-38
0.00656991069733 -0.0919787497627 0.71 1.35612943002e-38
0.0078838928368 -0.0919787497627 0.71 1.68801029584e-38
0.00919787497627 -0.0919787497627 0.71 1.66975572087e-38
0.0105118571157 -0.0919787497627 0.71 1.5040199476e-38
0.0118258392552 -0.0919787497627 0.71 1.41211270496e-38
0.0131398213947 -0.0919787497627 0.71 1.41225675845e-38
0.0144538035341 -0.0919787497627 0.71 1.38445373574e-38
0.0157677856736 -0.0919787497627 0.71 1.59614228956e-38
0.0170817678131 -0.0919787497627 0.71 1.78942801103e-38
0.0184216594595 -0.0921082972975 0.711 1.78006453469e-38
0.019737492278 -0.0921082972975 0.711 1.83534659988e-38
0.0210533250966 -0.0921082972975 0.711 1.60427766792e-38
0.0223691579151 -0.0921082972975 0.711 2.29588726382e-38
0.0236849907336 -0.0921082972975 0.711 1.39291463574e-38
0.0250008235522 -0.0921082972975 0.711 1.49454815089e-38
0.0263166563707 -0.0921082972975 0.711 7.75206998515e-39
0.0276324891893 -0.0921082972975 0.711 4.03573957726e-42
0.0289483220078 -0.0921082972975 0.711 2.40040465121e-39
0.0302641548263 -0.0921082972975 0.711 1.75540098107e-39
0.0315799876449 -0.0921082972975 0.711 4.6901459601e-42
0.0328495534867 -0.0919787497627 0.71 5.0815132069e-39
0.0341635356261 -0.0919787497627 0.71 1.32882821229e-38
0.0354775177656 -0.0919787497627 0.71 1.29190609971e-38
-0.0598676172248 -0.100752819232 0.789 4.0573265801e-39
-0.0582593771132 -0.10049742552 0.787 3.96831750294e-39
-0.0568028926854 -0.10049742552 0.787 3.78427236394e-39
-0.0552057566483 -0.100242031809 0.785 4.24525051325e-39
-0.0536160233274 -0.0999866380971 0.783 3.78427236394e-39
-0.0518338193833 -0.0993481538181 0.778 4.06121518334e-39
-0.0503939910671 -0.0993481538181 0.778 4.42891870297e-39
-0.047947393337 -0.0973050041252 0.762 4.52075279783e-39
-0.0463539586581 -0.0969219135577 0.759 5.25831503414e-39
-0.0447124063233 -0.0964111261345 0.755 5.44233915367e-39
-0.0432577725745 -0.0962834292787 0.754 5.81147760293e-39
-0.0416402790676 -0.0957726418555 0.75 5.62744927951e-39
-0.0400375909933 -0.0952618544322 0.746 4.98352040529e-39
-0.0384497083515 -0.094751067009 0.742 4.79949208186e-39
-0.0370265361469 -0.0946233701532 0.741 4.80057108168e-39
-0.0355589476447 -0.0943679764416 0.739 4.52470025561e-39
-0.0341912958122 -0.0943679764416 0.739 4.43250462574e-39
-0.0326903950867 -0.0939848858742 0.736 5.26046182339e-39
-0.0312005984356 -0.0936017953068 0.733 6.1813391222e-39
-0.0295997610403 -0.0928356141719 0.727 6.36573038193e-39
-0.0280599960544 -0.0921971298929 0.722 6.64232007412e-39
-0.026723805766 -0.0921971298929 0.722 6.36537585342e-39
-0.0252821267708 -0.0918140393254 0.719 6.64196554561e-39
-0.0238848640732 -0.0915586456138 0.717 6.18099019889e-39
-0.0225579271802 -0.0915586456138 0.717 6.36538145861e-39
-0.0212013794222 -0.091430948758 0.716 6.63947403694e-39
-0.0198207728362 -0.0911755550464 0.714 6.27388367539e-39
-0.0184216594595 -0.090792464479 0.711 4.89852885083e-39
-0.017105826641 -0.090792464479 0.711 1.86151430728e-39
-0.0157677856736 -0.0906647676232 0.71 1.12211496868e-39
-0.0144538035341 -0.0906647676232 0.71 2.00113604289e-38
-0.0131398213947 -0.0906647676232 0.71 2.35073142325e-38
-0.0118258392552 -0.0906647676232 0.71 2.31425436305e-38
-0.0105118571157 -0.0906647676232 0.71 2.35094960542e-38
