# .PCD v0.7 - Point Cloud Data file format
VERSION 0.7
FIELDS x y z rgb
SIZE 4 4 4 4
TYPE F F F F
COUNT 1 1 1 1
WIDTH 857
HEIGHT 1
VIEWPOINT 0 0 0 1 0 0 0
POINTS 857
DATA ascii
0.0327755263239 -0.174306208177 0.805 1.39336487294e-38
0.0343504542122 -0.174739267079 0.807 1.35670284135e-38
0.035755119626 -0.174306208177 0.805 1.39343675955e-38
0.0372449162771 -0.174306208177 0.805 1.40262002891e-38
0.0387347129282 -0.174306208177 0.805 1.30120483606e-38
0.0402245095793 -0.174306208177 0.805 1.31046041241e-38
0.0418179442583 -0.174739267079 0.807 1.31053201877e-38
0.0433114422675 -0.174739267079 0.807 1.30134804876e-38
0.0448049402767 -0.174739267079 0.807 1.21847974173e-38
0.046298438286 -0.174739267079 0.807 1.23691858745e-38
0.0476734928347 -0.174306208177 0.805 1.21862659781e-38
0.0491632894858 -0.174306208177 0.805 1.13572283794e-38
0.0506530861369 -0.174306208177 0.805 1.18189141844e-38
0.052142882788 -0.174306208177 0.805 1.11735447754e-38
0.0537659283321 -0.174739267079 0.807 1.07118589703e-38
0.0552594263413 -0.174739267079 0.807 1.08966201729e-38
0.0567529243505 -0.174739267079 0.807 1.02526898973e-38
0.0582464223598 -0.174739267079 0.807 9.97645753626e-39
0.059739920369 -0.174739267079 0.807 8.96481112941e-39
0.0613851740619 -0.175172325982 0.809 9.70310204092e-39
0.0628823734293 -0.175172325982 0.809 8.59712162276e-39
0.0643795727966 -0.175172325982 0.809 8.78151568509e-39
0.065876772164 -0.175172325982 0.809 8.96625867073e-39
0.0673739715314 -0.175172325982 0.809 9.24212389161e-39
0.0688711708987 -0.175172325982 0.809 9.33324612685e-39
0.0703683702661 -0.175172325982 0.809 9.14778427509e-39
0.0718655696335 -0.175172325982 0.809 9.15028138896e-39
0.0733627690008 -0.175172325982 0.809 8.41343101227e-39
0.0750450362752 -0.175605384884 0.811 8.68966617594e-39
0.0765459370007 -0.175605384884 0.811 8.78151288249e-39
0.0780468377262 -0.175605384884 0.811 8.22763144758e-39
0.0795477384517 -0.175605384884 0.811 8.96484756317e-39
0.0810486391772 -0.175605384884 0.811 8.87230160869e-39
0.0825495399027 -0.175605384884 0.811 9.05633833991e-39
0.0840504406282 -0.175605384884 0.811 8.68826067358e-39
0.0855513413537 -0.175605384884 0.811 7.85848739313e-39
0.0870522420792 -0.175605384884 0.811 9.51728285806e-39
0.0892082831954 -0.176904561591 0.817 9.60876522701e-39
0.0907202879953 -0.176904561591 0.817 8.31552509116e-39
0.0924580756417 -0.177337620493 0.819 5.63935471126e-39
-0.0450270217651 -0.174104484158 0.811 4.88601525554e-39
-0.0435261210396 -0.174104484158 0.811 4.05661051658e-39
-0.0419215822862 -0.173675126614 0.809 3.59562956467e-39
-0.0403244462491 -0.17324576907 0.807 2.3052438738e-39
-0.0387347129282 -0.172816411526 0.805 1.65987306345e-39
-0.0372449162771 -0.172816411526 0.805 4.70232604635e-39
-0.0356662870307 -0.172387053982 0.803 6.08992121299e-39
-0.0341801917378 -0.172387053982 0.803 5.38098610301e-42
-0.0326533815053 -0.17217237521 0.802 1.10717222251e-38
-0.0311691368914 -0.17217237521 0.802 3.97443977593e-39
-0.0296848922775 -0.17217237521 0.802 1.06153585516e-38
-0.028130321859 -0.171743017665 0.8 1.24603067084e-38
-0.0266497786033 -0.171743017665 0.8 1.21829995514e-38
-0.0252321584359 -0.17217237521 0.802 1.03373157129e-38
-0.023747913822 -0.17217237521 0.802 1.43043061862e-38
-0.0222914293942 -0.172387053982 0.803 1.26473674417e-38
-0.0208053341012 -0.172387053982 0.803 1.27414043778e-38
-0.0193673564641 -0.172816411526 0.805 1.24669642774e-38
-0.017877559813 -0.172816411526 0.805 1.18208549828e-38
-0.0163470482224 -0.172387053982 0.803 1.32945613414e-38
-0.0148609529295 -0.172387053982 0.803 1.15432143168e-38
-0.0133748576365 -0.172387053982 0.803 1.26520687981e-38
-0.0118887623436 -0.172387053982 0.803 1.08128491494e-38
-0.0104285765576 -0.172816411526 0.805 1.21000216629e-38
-0.00893877990651 -0.172816411526 0.805 1.48594081521e-38
-0.00744898325543 -0.172816411526 0.805 3.26362412341e-42
-0.00595918660434 -0.172816411526 0.805 3.60694224717e-42
-0.00449159810209 -0.173675126614 0.809 2.19443339513e-42
-0.00298699601845 -0.17324576907 0.807 6.52864954529e-42
-0.00149349800922 -0.17324576907 0.807 3.26642672034e-42
0.0 -0.17324576907 0.807 3.22298646795e-44
0.00149349800922 -0.17324576907 0.807 1.50324460916e-38
0.00298699601845 -0.17324576907 0.807 1.97336328823e-38
0.00448049402767 -0.17324576907 0.807 1.94523908792e-38
0.00595918660434 -0.172816411526 0.805 1.92658318108e-38
0.00744898325543 -0.172816411526 0.805 1.79765349288e-38
0.00893877990651 -0.172816411526 0.805 1.7980118049e-38
0.0104285765576 -0.172816411526 0.805 1.69681381331e-38
0.0118887623436 -0.172387053982 0.803 1.73355039398e-38
0.0133748576365 -0.172387053982 0.803 1.67833839371e-38
0.0148609529295 -0.172387053982 0.803 1.74287407344e-38
0.0163470482224 -0.172387053982 0.803 1.7243294297e-38
0.0178331435154 -0.172387053982 0.803 1.62284375153e-38
0.0193192388083 -0.172387053982 0.803 1.70603393682e-38
0.0208053341012 -0.172387053982 0.803 1.63242148641e-38
0.0222914293942 -0.172387053982 0.803 1.59547527149e-38
0.0237775246871 -0.172387053982 0.803 1.60494720833e-38
0.0252636199801 -0.172387053982 0.803 1.7155816839e-38
0.026749715273 -0.172387053982 0.803 1.51271500457e-38
0.028235810566 -0.172387053982 0.803 1.4297389377e-38
0.0297219058589 -0.172387053982 0.803 1.50349544159e-38
0.0312080011519 -0.172387053982 0.803 1.50371152181e-38
0.0327755263239 -0.172816411526 0.805 1.39325725322e-38
0.034265322975 -0.172816411526 0.805 1.36574261774e-38
0.035755119626 -0.172816411526 0.805 1.3932928462e-38
0.0372449162771 -0.172816411526 0.805 1.52236644775e-38
0.0387347129282 -0.172816411526 0.805 1.33797490776e-38
0.0402245095793 -0.172816411526 0.805 1.31042411878e-38
0.0417143062304 -0.172816411526 0.805 1.30120427554e-38
0.0432041028815 -0.172816411526 0.805 1.33815441409e-38
0.0446938995326 -0.172816411526 0.805 1.22751965826e-38
0.0461836961836 -0.172816411526 0.805 1.27361747319e-38
0.0476734928347 -0.172816411526 0.805 1.13575815066e-38
0.0491632894858 -0.172816411526 0.805 1.12661033415e-38
0.0506530861369 -0.172816411526 0.805 1.10813435403e-38
0.052142882788 -0.172816411526 0.805 1.10806232729e-38
0.0536326794391 -0.172816411526 0.805 1.09877199873e-38
0.0551224760902 -0.172816411526 0.805 1.08969718988e-38
0.0566122727412 -0.172816411526 0.805 9.51547938694e-39
0.0581020693923 -0.172816411526 0.805 1.04381489465e-38
0.0595918660434 -0.172816411526 0.805 1.02533919479e-38
0.0612334183782 -0.17324576907 0.807 8.77790874284e-39
0.0627269163874 -0.17324576907 0.807 1.00700937009e-38
0.0642204143967 -0.17324576907 0.807 9.33289159834e-39
0.0657139124059 -0.17324576907 0.807 9.97861553589e-39
0.0672074104151 -0.17324576907 0.807 8.59567828534e-39
0.0687009084243 -0.17324576907 0.807 8.96374614258e-39
0.0701944064336 -0.17324576907 0.807 9.69988325835e-39
0.0716879044428 -0.17324576907 0.807 1.01604914649e-38
0.073181402452 -0.17324576907 0.807 9.42256489096e-39
0.0746749004612 -0.17324576907 0.807 9.23817503254e-39
0.0761683984705 -0.17324576907 0.807 1.02519738338e-38
0.0776618964797 -0.17324576907 0.807 8.86868485736e-39
0.0791553944889 -0.17324576907 0.807 1.01594292806e-38
0.0806488924981 -0.17324576907 0.807 9.88248786254e-39
0.0819388158097 -0.172816411526 0.805 8.77578437437e-39
0.0834286124608 -0.172816411526 0.805 8.04038574289e-39
0.0849184091119 -0.172816411526 0.805 8.04109620121e-39
0.0864082057629 -0.172816411526 0.805 7.94888936096e-39
0.087898002414 -0.172816411526 0.805 8.13220442346e-39
0.0896098805535 -0.17324576907 0.807 9.05309573526e-39
0.0911033785627 -0.17324576907 0.807 5.08618233338e-39
0.0925968765719 -0.17324576907 0.807 6.28365633088e-39
-0.0465279224906 -0.172603583433 0.811 4.61014863336e-39
-0.0450270217651 -0.172603583433 0.811 4.88601525554e-39
-0.0435261210396 -0.172603583433 0.811 4.33247854006e-39
-0.0419215822862 -0.172177927247 0.809 3.87149758815e-39
-0.0403244462491 -0.171752271061 0.807 3.22720017243e-39
-0.0387347129282 -0.171326614875 0.805 2.12157007888e-39
-0.0371523823236 -0.170900958689 0.803 3.78109141642e-39
-0.0356662870307 -0.170900958689 0.803 5.72078696762e-39
-0.0341376261192 -0.170688130596 0.802 1.29825538305e-39
-0.0326533815053 -0.170688130596 0.802 9.13596292125e-39
-0.0310914083705 -0.17026247441 0.8 9.78206520939e-39
-0.0296108651147 -0.17026247441 0.8 8.96831017168e-42
-0.0280599960544 -0.169836818224 0.798 1.26436441917e-38
-0.0265831541568 -0.169836818224 0.798 1.20908053229e-38
-0.0251063122592 -0.169836818224 0.798 1.21812283102e-38
-0.0236886920918 -0.17026247441 0.8 1.1449488469e-38
-0.0222081488361 -0.17026247441 0.8 1.421796378e-38
-0.0207276055803 -0.17026247441 0.8 1.13610399112e-38
-0.0192951799804 -0.170688130596 0.802 1.1178435307e-38
-0.0178109353665 -0.170688130596 0.802 1.06252461136e-38
-0.0163266907526 -0.170688130596 0.802 1.20971644153e-38
-0.0148424461388 -0.170688130596 0.802 1.17273197116e-38
-0.0133582015249 -0.170688130596 0.802 1.02543392256e-38
-0.0118887623436 -0.170900958689 0.803 1.07170900175e-38
-0.0104026670506 -0.170900958689 0.803 1.13570840456e-38
-0.00890546768326 -0.170688130596 0.802 1.29186420088e-38
-0.00740271627868 -0.17026247441 0.8 1.54046477793e-38
-0.00590736759039 -0.169836818224 0.798 6.0255833966e-44
-0.00443052569279 -0.169836818224 0.798 7.00649232162e-44
-0.00295368379519 -0.169836818224 0.798 3.67419056048e-40
-0.00148054325574 -0.17026247441 0.8 4.23567964474e-39
0.0 -0.17026247441 0.8 1.74637241506e-39
0.00148054325574 -0.17026247441 0.8 8.11138813477e-39
0.00296108651147 -0.17026247441 0.8 1.86258938346e-38
0.00445273384163 -0.170688130596 0.802 2.00059261934e-38
0.0059369784555 -0.170688130596 0.802 1.80679892718e-38
0.00743047646473 -0.170900958689 0.803 2.06480459913e-38
0.00890546768326 -0.170688130596 0.802 2.00037850094e-38
0.0103897122971 -0.170688130596 0.802 1.75188049893e-38
0.011873956911 -0.170688130596 0.802 2.13921144564e-38
0.0133582015249 -0.170688130596 0.802 1.90872096968e-38
0.0148054325574 -0.17026247441 0.8 1.5951828205e-38
0.0162859758131 -0.17026247441 0.8 1.88091808711e-38
0.0177665190688 -0.17026247441 0.8 1.69656340128e-38
0.0192470623246 -0.17026247441 0.8 1.69667060061e-38
0.0207276055803 -0.17026247441 0.8 1.98258537356e-38
0.0222081488361 -0.17026247441 0.8 1.55848799852e-38
0.023747913822 -0.170688130596 0.802 1.72454873291e-38
0.0252321584359 -0.170688130596 0.802 1.72469250613e-38
0.0267164030498 -0.170688130596 0.802 1.7985930635e-38
0.0282006476636 -0.170688130596 0.802 1.70654162725e-38
0.0296848922775 -0.170688130596 0.802 1.43921087454e-38
0.0312080011519 -0.170900958689 0.803 1.58668842947e-38
0.0326940964448 -0.170900958689 0.803 1.55903002077e-38
0.0341801917378 -0.170900958689 0.803 1.58668898999e-38
0.0356662870307 -0.170900958689 0.803 1.31968165696e-38
0.0371523823236 -0.170900958689 0.803 1.53187565913e-38
0.0386384776166 -0.170900958689 0.803 1.51343653315e-38
0.0401245729095 -0.170900958689 0.803 1.32904527343e-38
0.0416106682025 -0.170900958689 0.803 1.43046046628e-38
0.0430967634954 -0.170900958689 0.803 1.20926326161e-38
0.0445828587884 -0.170900958689 0.803 1.35677654965e-38
0.0460689540813 -0.170900958689 0.803 1.24614207407e-38
0.0475550493743 -0.170900958689 0.803 1.25543464471e-38
0.0490411446672 -0.170900958689 0.803 1.13554375199e-38
0.0505272399602 -0.170900958689 0.803 1.17238528992e-38
0.0520133352531 -0.170900958689 0.803 1.10770443566e-38
0.0534328060995 -0.170688130596 0.802 1.19050211725e-38
0.0549170507134 -0.170688130596 0.802 1.18139157528e-38
0.0564716211319 -0.170900958689 0.803 1.08934013903e-38
0.0579577164249 -0.170900958689 0.803 1.05264111316e-38
0.0595918660434 -0.171326614875 0.805 9.41716708928e-39
0.0610816626945 -0.171326614875 0.805 1.01547349308e-38
0.0625714593456 -0.171326614875 0.805 8.68141112669e-39
0.0640612559967 -0.171326614875 0.805 9.60552822756e-39
0.0655510526477 -0.171326614875 0.805 7.5790166313e-39
0.0670408492988 -0.171326614875 0.805 7.48681819884e-39
0.0685306459499 -0.171326614875 0.805 7.57830337038e-39
0.070020442601 -0.171326614875 0.805 7.48432108497e-39
0.0715102392521 -0.171326614875 0.805 8.03533826582e-39
0.0728186693543 -0.170900958689 0.803 7.38924999066e-39
0.0743047646473 -0.170900958689 0.803 5.91447724396e-39
0.0757908599402 -0.170900958689 0.803 7.38960451917e-39
0.0772769552332 -0.170900958689 0.803 6.37544978808e-39
0.0787630505261 -0.170900958689 0.803 6.37545259068e-39
0.0804490191586 -0.171326614875 0.805 5.91447444136e-39
0.081735241112 -0.170900958689 0.803 5.91447724396e-39
0.083221336405 -0.170900958689 0.803 5.27020925551e-39
0.0849184091119 -0.171326614875 0.805 5.27092251643e-39
0.0864082057629 -0.171326614875 0.805 6.00919240846e-39
0.087898002414 -0.171326614875 0.805 5.08651724371e-39
0.0893877990651 -0.171326614875 0.805 5.8237347606e-39
0.0908775957162 -0.171326614875 0.805 6.00634356868e-39
0.0923673923673 -0.171326614875 0.805 6.00599324407e-39
0.0940903745811 -0.171752271061 0.807 5.91307874809e-39
0.0955838725904 -0.171752271061 0.807 5.63647924681e-39
-0.0465279224906 -0.171102682707 0.811 4.33463934229e-39
-0.0450270217651 -0.171102682707 0.811 5.16260214513e-39
-0.0435261210396 -0.171102682707 0.811 4.05589165047e-39
-0.0419215822862 -0.170680727879 0.809 3.77930195828e-39
-0.0402245095793 -0.169836818224 0.805 3.13464861276e-39
-0.0387347129282 -0.169836818224 0.805 1.93682148805e-39
-0.0371523823236 -0.169414863396 0.803 3.96620434486e-39
-0.035621870733 -0.169203885982 0.802 5.536391504e-39
-0.0341376261192 -0.169203885982 0.802 3.87901415311e-39
-0.0325719516262 -0.168781931154 0.8 3.76310294804e-40
-0.0310136798495 -0.168359976326 0.798 1.11642835938e-38
-0.0295368379519 -0.168359976326 0.798 3.78863040216e-39
-0.0279896702497 -0.167938021498 0.796 9.41396932618e-39
-0.0265165297102 -0.167938021498 0.796 1.30106358517e-38
-0.0250433891708 -0.167938021498 0.796 1.18120730453e-38
-0.0235702486313 -0.167938021498 0.796 1.0065802925e-38
-0.0220971080919 -0.167938021498 0.796 1.46771244452e-38
-0.0206239675524 -0.167938021498 0.796 1.33871731569e-38
-0.019150827013 -0.167938021498 0.796 1.56949001315e-38
-0.0177221027712 -0.168359976326 0.798 1.21910906488e-38
-0.0162452608736 -0.168359976326 0.798 1.82727512073e-38
-0.014768418976 -0.168359976326 0.798 1.07113278782e-38
-0.0132915770784 -0.168359976326 0.798 1.70745849684e-38
-0.0118147351808 -0.168359976326 0.798 1.77195858359e-38
-0.0103638027902 -0.168781931154 0.8 1.4948707298e-38
-0.00886105138558 -0.168359976326 0.798 2.19486821805e-38
-0.00738420948799 -0.168359976326 0.798 1.9916084745e-38
-0.00589256215783 -0.167938021498 0.796 1.66842280577e-38
-0.00441942161837 -0.167938021498 0.796 2.13833199072e-38
-0.00294628107892 -0.167938021498 0.796 1.83372529756e-38
-0.00147314053946 -0.167938021498 0.796 2.16502098115e-38
0.0 -0.167938021498 0.796 1.10545282929e-38
0.00147314053946 -0.167938021498 0.796 8.26565708271e-40
0.00294628107892 -0.167938021498 0.796 1.53079876126e-38
0.00443052569279 -0.168359976326 0.798 1.91812073965e-38
0.00590736759039 -0.168359976326 0.798 1.90867991164e-38
0.00740271627868 -0.168781931154 0.8 1.94509433379e-38
0.00888325953442 -0.168781931154 0.8 2.12027023443e-38
0.0103638027902 -0.168781931154 0.8 1.96382478972e-38
0.0118147351808 -0.168359976326 0.798 1.78894176046e-38
0.0132915770784 -0.168359976326 0.798 1.92723520525e-38
0.014768418976 -0.168359976326 0.798 1.70589282606e-38
0.0162452608736 -0.168359976326 0.798 1.8257814767e-38
0.0177221027712 -0.168359976326 0.798 2.07478072316e-38
0.0191989446688 -0.168359976326 0.798 1.89046233095e-38
0.0206757865664 -0.168359976326 0.798 1.89046345199e-38
0.022152628464 -0.168359976326 0.798 1.63249575523e-38
0.0236294703616 -0.168359976326 0.798 1.67834203708e-38
0.0251692353475 -0.168781931154 0.8 1.7430231716e-38
0.0266497786033 -0.168781931154 0.8 1.75260300842e-38
0.028130321859 -0.168781931154 0.8 1.49481537851e-38
0.0296108651147 -0.168781931154 0.8 1.48563266967e-38
0.0311691368914 -0.169203885982 0.802 1.45768713492e-38
0.0326533815053 -0.169203885982 0.802 1.62324410251e-38
0.0341376261192 -0.169203885982 0.802 1.47551557502e-38
0.035621870733 -0.169203885982 0.802 1.40226213728e-38
0.0370135813934 -0.168781931154 0.8 1.08908440206e-38
0.0384941246492 -0.168781931154 0.8 1.07975693909e-38
0.0400746045747 -0.169203885982 0.802 1.09819634532e-38
0.0415588491885 -0.169203885982 0.802 9.59867167417e-39
0.0430430938024 -0.169203885982 0.802 1.05202776482e-38
0.0445273384163 -0.169203885982 0.802 9.69052118331e-39
0.0460115830302 -0.169203885982 0.802 9.13699427692e-39
0.047495827644 -0.169203885982 0.802 8.58596448439e-39
0.0489800722579 -0.169203885982 0.802 1.0336588439e-38
0.0504643168718 -0.169203885982 0.802 1.26396729119e-38
0.0518190139508 -0.168781931154 0.8 1.15318890226e-38
0.0532995572065 -0.168781931154 0.8 1.17152124929e-38
0.0547801004623 -0.168781931154 0.8 8.48945565785e-39
0.056260643718 -0.168781931154 0.8 8.21467083809e-39
0.0578855399412 -0.169203885982 0.802 8.49305279101e-39
0.059369784555 -0.169203885982 0.802 1.05159616489e-38
0.0609299070108 -0.169414863396 0.803 1.00546317737e-38
0.0625714593456 -0.169836818224 0.805 8.49055427585e-39
0.0640612559967 -0.169836818224 0.805 8.03245579488e-39
0.0655510526477 -0.169836818224 0.805 7.48251621255e-39
0.0670408492988 -0.169836818224 0.805 7.48323227607e-39
0.0683603834755 -0.169414863396 0.803 7.1140966294e-39
0.0698464787685 -0.169414863396 0.803 6.92864038284e-39
0.0713325740614 -0.169414863396 0.803 7.01904235067e-39
0.0727279860799 -0.169203885982 0.802 8.12538850773e-39
0.0742122306938 -0.169203885982 0.802 7.38817939864e-39
0.0756964753077 -0.169203885982 0.802 8.12573883235e-39
0.0772769552332 -0.169414863396 0.803 8.03389913229e-39
0.0787630505261 -0.169414863396 0.803 7.4803694233e-39
0.0802491458191 -0.169414863396 0.803 7.4803722259e-39
0.0816334537632 -0.169203885982 0.802 7.20378813891e-39
0.0831176983771 -0.169203885982 0.802 6.83537976615e-39
0.0847074316979 -0.169414863396 0.803 6.19000475191e-39
0.0861935269909 -0.169414863396 0.803 7.48072535311e-39
0.0876796222838 -0.169414863396 0.803 6.46656922072e-39
0.0891657175768 -0.169414863396 0.803 6.92719844672e-39
0.0906518128697 -0.169414863396 0.803 6.83429796373e-39
0.0921379081626 -0.169414863396 0.803 6.83394623782e-39
0.0936240034556 -0.169414863396 0.803 7.20272875727e-39
0.0951100987485 -0.169414863396 0.803 6.28076965604e-39
-0.0465279224906 -0.169601781982 0.811 4.88781031888e-39
-0.0450270217651 -0.169601781982 0.811 5.34734933467e-39
-0.0435261210396 -0.169601781982 0.811 3.96369321801e-39
-0.0419215822862 -0.169183528512 0.809 4.2402801076e-39
-0.0401245729095 -0.167928768103 0.803 3.13465141535e-39
-0.0386384776166 -0.167928768103 0.803 1.2914548816e-39
-0.0371523823236 -0.167928768103 0.803 3.59778476171e-39
-0.035621870733 -0.167719641368 0.802 6.08955407279e-39
-0.0340524948819 -0.167301387898 0.8 4.52331016753e-39
-0.0324090918681 -0.166464880959 0.796 1.57377728581e-39
-0.0309359513286 -0.166464880959 0.796 8.76647554867e-39
-0.0293887836264 -0.166046627489 0.794 9.68808012139e-39
-0.0278490186404 -0.165628374019 0.792 5.38098610301e-42
-0.0263832808172 -0.165628374019 0.792 1.33769366716e-38
-0.0248546199057 -0.16521012055 0.79 1.43013410386e-38
-0.0233925834406 -0.16521012055 0.79 1.13543431058e-38
-0.0219860673477 -0.165628374019 0.792 1.29221340446e-38
-0.0205203295245 -0.165628374019 0.792 1.2830371416e-38
-0.0190545917013 -0.165628374019 0.792 1.92854527919e-38
-0.0176332701758 -0.166046627489 0.794 1.88248235659e-38
-0.0161638309945 -0.166046627489 0.794 1.91896712392e-38
-0.0146943918132 -0.166046627489 0.794 1.697520348e-38
-0.0132249526319 -0.166046627489 0.794 1.94655364601e-38
-0.0117555134506 -0.166046627489 0.794 1.2278959069e-38
-0.0103119837762 -0.166464880959 0.796 2.06629852342e-38
-0.00883884323675 -0.166464880959 0.796 1.6971208378e-38
-0.00736570269729 -0.166464880959 0.796 1.85327789529e-38
-0.00587775672528 -0.166046627489 0.794 2.03709770551e-38
-0.00440831754396 -0.166046627489 0.794 1.01336467902e-38
-0.00293887836264 -0.166046627489 0.794 1.75975103189e-38
-0.00146943918132 -0.166046627489 0.794 7.72579563894e-39
0.0 -0.166046627489 0.794 1.95347535978e-38
0.00146943918132 -0.166046627489 0.794 1.10317221604e-39
0.00293887836264 -0.166046627489 0.794 7.6579447673e-39
0.00440831754396 -0.166046627489 0.794 1.83564956061e-38
0.00587775672528 -0.166046627489 0.794 1.96446518311e-38
0.00736570269729 -0.166464880959 0.796 1.93612756505e-38
0.00883884323675 -0.166464880959 0.796 1.92690786193e-38
0.0103119837762 -0.166464880959 0.796 1.83471839778e-38
0.0117851243157 -0.166464880959 0.796 1.75224581744e-38
0.0132582648551 -0.166464880959 0.796 1.6693421977e-38
0.0147314053946 -0.166464880959 0.796 1.53097602551e-38
0.016204545934 -0.166464880959 0.796 1.48498246719e-38
0.0176776864735 -0.166464880959 0.796 1.3375393842e-38
0.019150827013 -0.166464880959 0.796 1.33750575303e-38
0.0206239675524 -0.166464880959 0.796 1.16237161109e-38
0.0220971080919 -0.166464880959 0.796 1.06117067678e-38
0.0235702486313 -0.166464880959 0.796 1.1988520344e-38
0.0250433891708 -0.166464880959 0.796 1.02382481154e-38
0.0265831541568 -0.166883134429 0.798 9.41353071976e-39
0.0280599960544 -0.166883134429 0.798 9.23418273321e-39
0.0295368379519 -0.166883134429 0.798 8.86541142414e-39
0.0310914083705 -0.167301387898 0.8 9.32244211569e-39
0.0325719516262 -0.167301387898 0.8 1.3372581436e-38
0.0340524948819 -0.167301387898 0.8 1.30913254199e-38
0.0355330381377 -0.167301387898 0.8 1.68720286766e-38
0.0370135813934 -0.167301387898 0.8 1.45678455858e-38
0.0383978893375 -0.166883134429 0.798 1.30005198781e-38
0.0398747312351 -0.166883134429 0.798 1.39221188456e-38
0.0414552111606 -0.167301387898 0.8 1.47518851196e-38
0.0430430938024 -0.167719641368 0.802 1.4935565921e-38
0.0444162976721 -0.167301387898 0.8 1.56720631705e-38
0.0458968409278 -0.167301387898 0.8 1.68702560341e-38
0.0473773841836 -0.167301387898 0.8 1.30960001516e-38
0.0488579274393 -0.167301387898 0.8 1.18052557283e-38
0.0503384706951 -0.167301387898 0.8 1.3555166422e-38
0.0516894664159 -0.166883134429 0.798 1.45678792169e-38
0.0531663083135 -0.166883134429 0.798 1.7055737504e-38
0.0546431502111 -0.166883134429 0.798 1.60415995885e-38
0.0561199921087 -0.166883134429 0.798 1.58593677297e-38
0.0575968340063 -0.166883134429 0.798 1.51235963528e-38
0.0590736759039 -0.166883134429 0.798 1.57653658261e-38
0.0608540291689 -0.167719641368 0.802 1.56728184703e-38
0.0624160023037 -0.167928768103 0.803 1.15279822024e-38
0.0639020975967 -0.167928768103 0.803 8.67459661226e-39
0.0653881928896 -0.167928768103 0.803 8.9540561637e-39
0.0668742881826 -0.167928768103 0.803 8.31048462059e-39
0.0683603834755 -0.167928768103 0.803 8.58671698166e-39
0.0698464787685 -0.167928768103 0.803 8.03319427917e-39
0.0712437414661 -0.167719641368 0.802 8.40162086881e-39
0.0725466195311 -0.167301387898 0.8 7.7576849881e-39
0.0740271627868 -0.167301387898 0.8 7.29670403618e-39
0.0755077060426 -0.167301387898 0.8 7.94207344523e-39
0.0771807199216 -0.167719641368 0.802 7.38889966605e-39
0.0786649645354 -0.167719641368 0.802 6.7435344609e-39
0.0801492091493 -0.167719641368 0.802 7.38855074273e-39
0.0816334537632 -0.167719641368 0.802 6.9272180649e-39
0.0831176983771 -0.167719641368 0.802 7.20128682115e-39
0.0847074316979 -0.167928768103 0.803 6.6488164938e-39
0.0861935269909 -0.167928768103 0.803 7.20269232351e-39
0.0876796222838 -0.167928768103 0.803 6.18817325482e-39
0.0891657175768 -0.167928768103 0.803 6.46441122109e-39
0.0906518128697 -0.167928768103 0.803 7.47785829646e-39
0.0921379081626 -0.167928768103 0.803 6.8321371615e-39
0.0935074106742 -0.167719641368 0.802 7.20091968095e-39
0.0947547683672 -0.167301387898 0.8 6.83358330151e-39
0.0962353116229 -0.167301387898 0.8 7.20237563006e-39
-0.0465279224906 -0.168100881256 0.811 4.51723693999e-39
-0.0450270217651 -0.168100881256 0.811 4.60906542965e-39
-0.0435261210396 -0.168100881256 0.811 4.70125825692e-39
-0.0419215822862 -0.167686329145 0.809 4.14808728033e-39
-0.0401245729095 -0.16644267281 0.803 3.04174252457e-39
-0.0386384776166 -0.16644267281 0.803 2.12049668426e-39
-0.0371061153469 -0.166235396754 0.802 5.16330419566e-39
-0.0355330381377 -0.165820844643 0.8 6.36362002644e-39
-0.0339673636447 -0.165406292531 0.798 5.35126316128e-39
-0.032327661989 -0.164577188308 0.794 3.97013358575e-39
-0.0307804942868 -0.164162636196 0.792 1.66633304937e-39
-0.0292407293008 -0.163748084084 0.79 1.29160131729e-38
-0.0277786928358 -0.163748084084 0.79 5.91022290182e-39
-0.0262833441475 -0.163540808029 0.789 9.04627701694e-39
-0.0248231583615 -0.163540808029 0.789 1.34737748033e-38
-0.0233629725755 -0.163540808029 0.789 1.35695269286e-38
-0.0219305469756 -0.163748084084 0.79 1.18178534015e-38
-0.0204685105106 -0.163748084084 0.79 1.56880253613e-38
-0.0190064740455 -0.163748084084 0.79 1.64270687701e-38
-0.0175444375805 -0.163748084084 0.79 1.45838778415e-38
-0.0160824011154 -0.163748084084 0.79 1.25555936027e-38
-0.0146203646504 -0.163748084084 0.79 1.61512035492e-38
-0.0131583281854 -0.163748084084 0.79 1.41225451637e-38
-0.0116962917203 -0.163748084084 0.79 1.53228946256e-38
-0.0102601647623 -0.164162636196 0.792 1.35708357414e-38
-0.00879442693908 -0.164162636196 0.792 1.31069751211e-38
-0.0073286891159 -0.164162636196 0.792 1.35657924682e-38
-0.00586295129272 -0.164162636196 0.792 1.46699932373e-38
-0.00439721346954 -0.164162636196 0.792 3.6983475447e-39
-0.00293147564636 -0.164162636196 0.792 7.29360856787e-39
-0.00146573782318 -0.164162636196 0.792 9.1360974459e-39
0.0 -0.164577188308 0.794 8.67654301582e-39
0.00146573782318 -0.164162636196 0.792 1.24583575023e-38
0.00293147564636 -0.164162636196 0.792 1.2922159268e-38
0.00439721346954 -0.164162636196 0.792 6.56200185004e-39
0.00586295129272 -0.164162636196 0.792 1.07089232501e-38
0.0073286891159 -0.164162636196 0.792 1.25474268352e-38
0.00879442693908 -0.164162636196 0.792 1.4755431806e-38
0.0102601647623 -0.164162636196 0.792 1.59503890715e-38
0.0117555134506 -0.164577188308 0.794 1.53976230701e-38
0.0132249526319 -0.164577188308 0.794 1.35544405494e-38
0.0146943918132 -0.164577188308 0.794 1.39235663869e-38
0.0161638309945 -0.164577188308 0.794 1.383170847e-38
0.0176332701758 -0.164577188308 0.794 1.40168129907e-38
0.0191027093571 -0.164577188308 0.794 1.50309789321e-38
0.0205721485385 -0.164577188308 0.794 1.51239158489e-38
0.0220415877198 -0.164577188308 0.794 1.63228275786e-38
0.0235110269011 -0.164577188308 0.794 1.74262828569e-38
0.0249804660824 -0.164577188308 0.794 1.77943352999e-38
0.0264499052637 -0.164577188308 0.794 1.86266112994e-38
0.0279193444451 -0.164577188308 0.794 1.74302289134e-38
0.0294628107892 -0.164991740419 0.796 1.54952094952e-38
0.0309359513286 -0.164991740419 0.796 9.96384585008e-39
0.0324905217471 -0.165406292531 0.798 1.47562235396e-38
0.0339673636447 -0.165406292531 0.798 1.58618522319e-38
0.0354442055423 -0.165406292531 0.798 1.41976407484e-38
0.0369210474399 -0.165406292531 0.798 1.75152414873e-38
0.0383978893375 -0.165406292531 0.798 1.66858465575e-38
0.0398747312351 -0.165406292531 0.798 1.53032862562e-38
0.0413515731327 -0.165406292531 0.798 1.53036505938e-38
0.0428284150303 -0.165406292531 0.798 1.58568229717e-38
0.0443052569279 -0.165406292531 0.798 1.42912783144e-38
0.0457820988255 -0.165406292531 0.798 1.49380686401e-38
0.0472589407231 -0.165406292531 0.798 1.11624212682e-38
0.0487357826207 -0.165406292531 0.798 9.87241532918e-39
0.0502126245183 -0.165406292531 0.798 1.17166810537e-38
0.051559918881 -0.164991740419 0.796 8.39763417468e-39
0.0530330594205 -0.164991740419 0.796 9.41214203299e-39
0.05450619996 -0.164991740419 0.796 8.39906349911e-39
0.0559793404994 -0.164991740419 0.796 7.38491016932e-39
0.0574524810389 -0.164991740419 0.796 7.75440875229e-39
0.0589256215783 -0.164991740419 0.796 8.12356962233e-39
0.0605505178015 -0.165406292531 0.798 7.38637873011e-39
0.0621828167409 -0.165820844643 0.8 7.2034336104e-39
0.0638225183967 -0.166235396754 0.802 8.58780999447e-39
0.0653067630106 -0.166235396754 0.802 6.8378838865e-39
0.0667910076244 -0.166235396754 0.802 7.6687165486e-39
0.0682752522383 -0.166235396754 0.802 7.20810834207e-39
0.0697594968522 -0.166235396754 0.802 8.77508512643e-39
0.0710660762754 -0.165820844643 0.8 7.76020732533e-39
0.0725466195311 -0.165820844643 0.8 8.1293387681e-39
0.0740271627868 -0.165820844643 0.8 8.40663051082e-39
0.0755077060426 -0.165820844643 0.8 8.49882333809e-39
0.0769882492983 -0.165820844643 0.8 8.77541303027e-39
0.0784687925541 -0.165820844643 0.8 8.12969469791e-39
0.0799493358098 -0.165820844643 0.8 8.40592565769e-39
0.0814298790655 -0.165820844643 0.8 9.05129506674e-39
0.0829104223213 -0.165820844643 0.8 9.69450647614e-39
0.0846019429909 -0.166235396754 0.802 8.86473739958e-39
0.0860861876048 -0.166235396754 0.802 9.4193391019e-39
0.0873520520885 -0.165820844643 0.8 8.40626337062e-39
0.0888325953442 -0.165820844643 0.8 8.86689259662e-39
0.0905389214464 -0.166235396754 0.802 8.49775835125e-39
0.0920231660603 -0.166235396754 0.802 8.49667935144e-39
0.0932742251114 -0.165820844643 0.8 7.29777322691e-39
0.0947547683672 -0.165820844643 0.8 3.4198590931e-39
0.0959947233438 -0.165406292531 0.798 3.32624254659e-39
0.0974715652414 -0.165406292531 0.798 1.66779320237e-39
-0.0450270217651 -0.166599980531 0.811 5.71576331263e-39
-0.0435261210396 -0.166599980531 0.811 4.51721872311e-39
-0.0419215822862 -0.166189129777 0.809 4.42502729714e-39
-0.0401245729095 -0.164956577517 0.803 3.04209284919e-39
-0.0386384776166 -0.164956577517 0.803 7.37197898709e-40
-0.0371061153469 -0.16475115214 0.802 4.79451326842e-39
-0.0355330381377 -0.164340301387 0.8 8.57739694558e-39
-0.0338822324075 -0.16351859988 0.796 5.72077435594e-39
-0.032327661989 -0.163107749126 0.794 4.61585331941e-39
-0.0307804942868 -0.162696898373 0.792 1.02239856996e-39
-0.0292407293008 -0.162286047619 0.79 1.0150144277e-38
-0.0277435299334 -0.162080622243 0.789 1.1534858374e-38
-0.026216719701 -0.161669771489 0.787 2.22415073167e-39
-0.0247602352731 -0.161669771489 0.787 1.38429132525e-38
-0.0233037508453 -0.161669771489 0.787 1.26446853565e-38
-0.0219027867896 -0.162080622243 0.789 1.39347347357e-38
-0.0204426010036 -0.162080622243 0.789 1.07058361895e-38
-0.0189824152176 -0.162080622243 0.789 5.26563962121e-39
-0.0175222294316 -0.162080622243 0.789 5.2663795068e-39
-0.0160620436457 -0.162080622243 0.789 4.71393580412e-39
-0.0146018578597 -0.162080622243 0.789 3.60829029629e-39
-0.0131416720737 -0.162080622243 0.789 2.68562914453e-39
-0.0116814862878 -0.162080622243 0.789 4.72219365597e-40
-0.0102342552553 -0.162286047619 0.79 1.20798653857e-39
-0.00877221879024 -0.162286047619 0.79 1.02359527885e-39
-0.0073101823252 -0.162286047619 0.79 1.2094228695e-39
-0.00584814586016 -0.162286047619 0.79 8.71887904503e-42
-0.00438610939512 -0.162286047619 0.79 7.38868526738e-39
-0.00292407293008 -0.162286047619 0.79 1.66096677691e-38
-0.00146203646504 -0.162286047619 0.79 1.61501315559e-38
0.0 -0.162696898373 0.792 1.50430805457e-38
0.00146203646504 -0.162286047619 0.79 1.49505303873e-38
0.00292407293008 -0.162286047619 0.79 1.6149414091e-38
0.00438610939512 -0.162286047619 0.79 9.41941617331e-39
0.00584814586016 -0.162286047619 0.79 1.16306034929e-38
0.0073101823252 -0.162286047619 0.79 1.29170010883e-38
0.00877221879024 -0.162286047619 0.79 1.42026980345e-38
0.0102342552553 -0.162286047619 0.79 1.79791063115e-38
0.0117259025854 -0.162696898373 0.792 1.68752656761e-38
0.0131916404086 -0.162696898373 0.792 1.65072020227e-38
0.0146573782318 -0.162696898373 0.792 1.62295417385e-38
0.016123116055 -0.162696898373 0.792 1.73358949021e-38
0.0175888538782 -0.162696898373 0.792 1.622991028e-38
0.0190545917013 -0.162696898373 0.792 1.52171974851e-38
0.0205203295245 -0.162696898373 0.792 1.42048406199e-38
0.0219860673477 -0.162696898373 0.792 1.57728851937e-38
0.0234518051709 -0.162696898373 0.792 1.57700111305e-38
0.0249175429941 -0.162696898373 0.792 1.25424382127e-38
0.0263832808172 -0.162696898373 0.792 1.34658224345e-38
0.0278490186404 -0.162696898373 0.792 1.15304330735e-38
0.0293147564636 -0.162696898373 0.792 1.23609280226e-38
0.0307804942868 -0.162696898373 0.792 1.13478663043e-38
0.032327661989 -0.163107749126 0.794 1.07954141939e-38
0.0337971011703 -0.163107749126 0.794 1.03351521081e-38
0.0352665403517 -0.163107749126 0.794 1.0699978762e-38
0.0368285134865 -0.16351859988 0.796 1.00538932894e-38
0.0382054187143 -0.163107749126 0.794 9.86950343097e-39
0.0396748578956 -0.163107749126 0.794 9.5007335232e-39
0.0411442970769 -0.163107749126 0.794 8.7642558919e-39
0.0426137362582 -0.163107749126 0.794 1.14393640876e-38
0.0440831754396 -0.163107749126 0.794 1.04259128083e-38
0.0455526146209 -0.163107749126 0.794 9.59756745098e-39
0.0470220538022 -0.163107749126 0.794 1.02455026375e-38
0.0484914929835 -0.163107749126 0.794 1.00622029893e-38
0.0499609321648 -0.163107749126 0.794 1.0062201588e-38
0.0514303713462 -0.163107749126 0.794 1.08930356514e-38
0.0528998105275 -0.163107749126 0.794 1.0432409228e-38
0.0543692497088 -0.163107749126 0.794 1.10788506303e-38
0.0558386888901 -0.163107749126 0.794 1.00646973006e-38
0.0573081280714 -0.163107749126 0.794 1.02490857577e-38
0.0587775672528 -0.163107749126 0.794 1.13550956031e-38
0.0603987621178 -0.16351859988 0.796 1.0525709081e-38
0.0618719026572 -0.16351859988 0.796 9.78851118233e-39
0.0635042015967 -0.163929450633 0.798 9.88070961479e-39
0.0649810434943 -0.163929450633 0.798 8.68323841989e-39
0.0664578853919 -0.163929450633 0.798 7.48576722499e-39
0.0679347272895 -0.163929450633 0.798 8.77687178198e-39
0.0694115691871 -0.163929450633 0.798 7.02552615867e-39
0.0708884110847 -0.163929450633 0.798 5.82554103432e-39
0.0723652529823 -0.163929450633 0.798 5.36454887202e-39
0.0738420948799 -0.163929450633 0.798 4.90427277323e-39
0.0753189367775 -0.163929450633 0.798 4.72023604202e-39
0.0767957786751 -0.163929450633 0.798 4.44329742652e-39
0.0784687925541 -0.164340301387 0.8 4.71917666038e-39
0.0799493358098 -0.164340301387 0.8 3.88941879421e-39
0.0814298790655 -0.164340301387 0.8 3.88941599161e-39
0.0829104223213 -0.164340301387 0.8 4.53262319712e-39
0.084390965577 -0.164340301387 0.8 3.24188017514e-39
0.0858715088327 -0.164340301387 0.8 3.15111527101e-39
0.0873520520885 -0.164340301387 0.8 2.69157765652e-39
0.0888325953442 -0.164340301387 0.8 2.96781422149e-39
0.0903131385999 -0.164340301387 0.8 3.33552194502e-39
0.0917936818557 -0.164340301387 0.8 3.24261025164e-39
0.0932742251114 -0.164340301387 0.8 2.59615904018e-39
0.0947547683672 -0.164340301387 0.8 6.82992871512e-42
0.0959947233438 -0.163929450633 0.798 1.90879271616e-40
0.0974715652414 -0.163929450633 0.798 1.11354742987e-39
-0.0450270217651 -0.165099079805 0.811 4.97854999963e-39
-0.0435261210396 -0.165099079805 0.811 4.33318059059e-39
-0.0419215822862 -0.16469193041 0.809 3.78000961401e-39
-0.0402245095793 -0.163877631619 0.805 3.59526242447e-39
-0.0387347129282 -0.163877631619 0.805 1.84389578168e-39
-0.0371523823236 -0.163470482224 0.803 5.53207270213e-39
-0.0354442055423 -0.162452608736 0.798 9.59191181038e-39
-0.0337971011703 -0.161638309945 0.794 5.99737385721e-39
-0.0321648022309 -0.160824011154 0.79 4.4325410595e-39
-0.0306639015054 -0.160620436457 0.789 3.05070242695e-39
-0.0291296885566 -0.160213287061 0.787 4.06523130474e-39
-0.0276028783241 -0.159806137666 0.785 1.20876552039e-38
-0.0261500952545 -0.159806137666 0.785 3.42125058247e-39
-0.0246973121848 -0.159806137666 0.785 1.48559721682e-38
-0.0232445291151 -0.159806137666 0.785 1.60519509803e-38
-0.0218472664175 -0.160213287061 0.787 1.60494720833e-38
-0.0203907819896 -0.160213287061 0.787 1.21758837578e-38
-0.0189342975618 -0.160213287061 0.787 3.96147075865e-42
-0.017477813134 -0.160213287061 0.787 2.30959490553e-39
-0.0160213287061 -0.160213287061 0.787 2.58726079494e-39
-0.0145648442783 -0.160213287061 0.787 2.5858356744e-39
-0.0131083598505 -0.160213287061 0.787 2.30889705889e-39
-0.0116814862878 -0.160620436457 0.789 4.05879093699e-39
-0.0102213005018 -0.160620436457 0.789 4.61123744227e-39
-0.00876111471582 -0.160620436457 0.789 3.59816171099e-39
-0.0073101823252 -0.160824011154 0.79 4.61374856912e-39
-0.00584814586016 -0.160824011154 0.79 3.60246930247e-39
-0.00438610939512 -0.160824011154 0.79 3.23656084617e-39
-0.00292407293008 -0.160824011154 0.79 1.5409618185e-38
-0.00146203646504 -0.160824011154 0.79 1.12626127071e-38
0.0 -0.160824011154 0.79 1.20934355601e-38
0.00146018578597 -0.160620436457 0.789 1.32912766978e-38
0.00292037157194 -0.160620436457 0.789 1.14477200303e-38
0.00438055735791 -0.160620436457 0.789 1.14491115197e-38
0.00584074314388 -0.160620436457 0.789 1.11710448589e-38
0.00730092892985 -0.160620436457 0.789 1.27347678282e-38
0.00876111471582 -0.160620436457 0.789 1.35609285613e-38
0.0102213005018 -0.160620436457 0.789 1.2636438715e-38
0.0116814862878 -0.160620436457 0.789 1.30999349977e-38
0.0131583281854 -0.160824011154 0.79 1.19943035028e-38
0.0146203646504 -0.160824011154 0.79 1.2086138999e-38
0.0160824011154 -0.160824011154 0.79 1.21783346288e-38
0.0175444375805 -0.160824011154 0.79 1.11645470379e-38
0.0190064740455 -0.160824011154 0.79 1.15344155637e-38
0.0204685105106 -0.160824011154 0.79 1.17202529634e-38
0.0219305469756 -0.160824011154 0.79 1.08908580336e-38
0.0233925834406 -0.160824011154 0.79 1.07050248377e-38
0.0248546199057 -0.160824011154 0.79 1.16266139962e-38
0.0263166563707 -0.160824011154 0.79 1.21808555648e-38
0.0277786928358 -0.160824011154 0.79 1.24585214542e-38
0.0293147564636 -0.16123116055 0.792 1.2365976901e-38
0.0307804942868 -0.16123116055 0.792 1.34723328671e-38
0.0321648022309 -0.160824011154 0.79 1.29198779541e-38
0.0336268386959 -0.160824011154 0.79 1.39343830098e-38
0.0351777077563 -0.16123116055 0.792 1.43946549047e-38
0.0366434455795 -0.16123116055 0.792 1.32893863461e-38
0.0381091834027 -0.16123116055 0.792 1.31979067798e-38
0.0395749212258 -0.16123116055 0.792 1.30135183227e-38
0.041040659049 -0.16123116055 0.792 1.31060866979e-38
0.0425063968722 -0.16123116055 0.792 1.22766889654e-38
0.0439721346954 -0.16123116055 0.792 1.08948251095e-38
0.0454378725186 -0.16123116055 0.792 9.69662804202e-39
0.0469036103417 -0.16123116055 0.792 8.86724151994e-39
0.0483693481649 -0.16123116055 0.792 7.66870253561e-39
0.0498350859881 -0.16123116055 0.792 6.56235497725e-39
0.0513008238113 -0.16123116055 0.792 6.65526807193e-39
0.0527665616345 -0.16123116055 0.792 4.81135547466e-39
0.0543692497088 -0.161638309945 0.794 4.53584478229e-39
0.0558386888901 -0.161638309945 0.794 4.2592578927e-39
0.057163775104 -0.16123116055 0.792 3.61388848366e-39
0.0586295129272 -0.16123116055 0.792 3.61245775793e-39
0.0602470064341 -0.161638309945 0.794 3.70430446447e-39
0.0617164456154 -0.161638309945 0.794 3.15150202939e-39
0.0633450431967 -0.16204545934 0.796 3.15150202939e-39
0.0648181837362 -0.16204545934 0.796 3.06037979415e-39
0.0662913242756 -0.16204545934 0.796 3.24548711739e-39
0.0677644648151 -0.16204545934 0.796 2.50864795109e-39
0.0694115691871 -0.162452608736 0.798 2.41646353161e-39
0.0708884110847 -0.162452608736 0.798 4.16601689419e-39
0.0723652529823 -0.162452608736 0.798 3.79722036175e-39
0.0738420948799 -0.162452608736 0.798 3.9823192772e-39
0.0753189367775 -0.162452608736 0.798 3.61353395515e-39
0.0767957786751 -0.162452608736 0.798 4.53513992917e-39
0.0782726205727 -0.162452608736 0.798 4.07381285653e-39
0.0797494624703 -0.162452608736 0.798 4.44223944617e-39
0.0812263043679 -0.162452608736 0.798 4.35004381631e-39
0.0827031462655 -0.162452608736 0.798 4.07236531522e-39
0.084390965577 -0.162859758131 0.8 4.44042336336e-39
0.0858715088327 -0.162859758131 0.8 4.71880531629e-39
0.0871336719583 -0.162452608736 0.798 4.53549305638e-39
0.0886105138558 -0.162452608736 0.798 3.98196614999e-39
0.0903131385999 -0.162859758131 0.8 4.34931794371e-39
0.0917936818557 -0.162859758131 0.8 4.25641045422e-39
0.0932742251114 -0.162859758131 0.8 3.05679106878e-39
0.0947547683672 -0.162859758131 0.8 4.68528345442e-40
0.0962353116229 -0.162859758131 0.8 1.66600374424e-39
0.0977158548786 -0.162859758131 0.8 1.39049024927e-39
0.0991963981344 -0.162859758131 0.8 6.52556668867e-40
-0.0450270217651 -0.16359817908 0.811 5.43953095155e-39
-0.0435261210396 -0.16359817908 0.811 4.33318059059e-39
-0.0419215822862 -0.163194731043 0.809 4.70160998283e-39
-0.0402245095793 -0.162387834968 0.805 2.765503157e-39
-0.0386384776166 -0.161984386931 0.803 1.01413791551e-39
-0.0371061153469 -0.161782662913 0.802 4.6101192061e-39
-0.0354442055423 -0.160975766838 0.798 1.01450855896e-38
-0.0337119699331 -0.159765422727 0.792 5.62824101314e-39
-0.0321240872913 -0.159160250671 0.789 4.15631150102e-39
-0.0305861729845 -0.158756802634 0.787 4.52547657496e-39
-0.0290556613938 -0.158353354596 0.785 2.51112684807e-42
-0.0275325525195 -0.157949906559 0.783 1.31007281326e-38
-0.0260834708079 -0.157949906559 0.783 9.59729279648e-39
-0.0246343890964 -0.157949906559 0.783 1.55913904179e-38
-0.0231853073848 -0.157949906559 0.783 1.38388845194e-38
-0.0217917460454 -0.158353354596 0.785 1.59572596378e-38
-0.0203389629757 -0.158353354596 0.785 1.57721691302e-38
-0.018886179906 -0.158353354596 0.785 1.20829496437e-38
-0.0174333968363 -0.158353354596 0.785 1.18056621048e-38
-0.0159806137666 -0.158353354596 0.785 1.32811383034e-38
-0.0145278306969 -0.158353354596 0.785 1.50314511697e-38
-0.0130750476272 -0.158353354596 0.785 1.52154822957e-38
-0.0116222645575 -0.158353354596 0.785 1.52143892829e-38
-0.0101953909948 -0.158756802634 0.787 1.6596957992e-38
-0.00873890656699 -0.158756802634 0.787 1.65054798269e-38
-0.00730092892985 -0.159160250671 0.789 1.63218046307e-38
-0.00584074314388 -0.159160250671 0.789 1.50339370732e-38
-0.00438055735791 -0.159160250671 0.789 1.54970704195e-38
-0.00292037157194 -0.159160250671 0.789 1.47623808451e-38
-0.00146018578597 -0.159160250671 0.789 1.44875890188e-38
0.0 -0.158756802634 0.787 1.43060494015e-38
0.00145648442783 -0.158756802634 0.787 1.40291219964e-38
0.00291296885566 -0.158756802634 0.787 1.37529092535e-38
0.00436945328349 -0.158756802634 0.787 1.35695745728e-38
0.00582593771132 -0.158756802634 0.787 1.43982394261e-38
0.00728242213916 -0.158756802634 0.787 1.38432761888e-38
0.00873890656699 -0.158756802634 0.787 1.38414713164e-38
0.0101953909948 -0.158756802634 0.787 1.48548791554e-38
0.0116518754226 -0.158756802634 0.787 1.51318429943e-38
0.0131416720737 -0.159160250671 0.789 1.44864735853e-38
0.0146018578597 -0.159160250671 0.789 1.54080557372e-38
0.0160620436457 -0.159160250671 0.789 1.35644948658e-38
0.0175222294316 -0.159160250671 0.789 1.48559581552e-38
0.0189824152176 -0.159160250671 0.789 1.42106027592e-38
0.0204426010036 -0.159160250671 0.789 1.41191470149e-38
0.0219305469756 -0.159361974689 0.79 1.32901220278e-38
0.0233925834406 -0.159361974689 0.79 1.31986340537e-38
0.0248546199057 -0.159361974689 0.79 1.29216730174e-38
0.0263166563707 -0.159361974689 0.79 1.11703077759e-38
0.0277786928358 -0.159361974689 0.79 1.0432742737e-38
0.0292407293008 -0.159361974689 0.79 8.77286967356e-39
0.0307027657658 -0.159361974689 0.79 7.75836461785e-39
0.0321648022309 -0.159361974689 0.79 7.20519083867e-39
0.0336268386959 -0.159361974689 0.79 6.74456161267e-39
0.035088875161 -0.159361974689 0.79 5.82406266444e-39
0.036550911626 -0.159361974689 0.79 5.54855197207e-39
0.038012948091 -0.159361974689 0.79 5.18084004465e-39
0.0394749845561 -0.159361974689 0.79 3.52131870711e-39
0.0409370210211 -0.159361974689 0.79 2.87632064216e-39
0.0423990574862 -0.159361974689 0.79 4.72060037962e-39
0.0438610939512 -0.159361974689 0.79 2.78449495509e-39
0.0453231304162 -0.159361974689 0.79 3.24546890051e-39
0.0467851668813 -0.159361974689 0.79 3.79755667338e-39
0.0483693481649 -0.159765422727 0.792 4.25781595658e-39
0.0498350859881 -0.159765422727 0.792 4.62731734215e-39
0.0513008238113 -0.159765422727 0.792 4.81135267207e-39
0.0527665616345 -0.159765422727 0.792 3.98267380571e-39
0.0542322994576 -0.159765422727 0.792 4.07451210446e-39
0.0556980372808 -0.159765422727 0.792 4.35110179665e-39
0.057163775104 -0.159765422727 0.792 4.35146473295e-39
0.0586295129272 -0.159765422727 0.792 4.44329462392e-39
0.0600952507504 -0.159765422727 0.792 4.81172681876e-39
0.0617164456154 -0.160168870764 0.794 3.98233609278e-39
0.0633450431967 -0.160572318801 0.796 4.71954520188e-39
0.0648181837362 -0.160572318801 0.796 2.78450896807e-39
0.0662913242756 -0.160572318801 0.796 3.43095457434e-39
0.0677644648151 -0.160572318801 0.796 3.61535564315e-39
0.0692376053545 -0.160572318801 0.796 3.43169445993e-39
0.070710745894 -0.160572318801 0.796 4.62806983942e-39
0.0721838864334 -0.160572318801 0.796 3.705743598e-39
0.0738420948799 -0.160975766838 0.798 3.89048658364e-39
0.0753189367775 -0.160975766838 0.798 3.61425562386e-39
0.0767957786751 -0.160975766838 0.798 4.53550426677e-39
0.0782726205727 -0.160975766838 0.798 3.61284311501e-39
0.0797494624703 -0.160975766838 0.798 3.88943280719e-39
0.0812263043679 -0.160975766838 0.798 4.62735097331e-39
0.0827031462655 -0.160975766838 0.798 4.53334346453e-39
0.0841799881631 -0.160975766838 0.798 4.25711390605e-39
0.0856568300607 -0.160975766838 0.798 3.61210603201e-39
0.0871336719583 -0.160975766838 0.798 4.07416318115e-39
0.0886105138558 -0.160975766838 0.798 3.98196755128e-39
0.0903131385999 -0.161379214875 0.8 3.79614416453e-39
0.0917936818557 -0.161379214875 0.8 4.44044858674e-39
0.0932742251114 -0.161379214875 0.8 2.31780231063e-39
0.0947547683672 -0.161379214875 0.8 2.84493015526e-40
0.0962353116229 -0.161379214875 0.8 1.11318449357e-39
0.0977158548786 -0.161379214875 0.8 9.29509297356e-40
0.0991963981344 -0.161379214875 0.8 7.18725982352e-42
0.10105447992 -0.161984386931 0.803 8.35504591175e-40
-0.0450270217651 -0.162097278354 0.811 5.62357048536e-39
-0.0435261210396 -0.162097278354 0.811 4.33283166727e-39
-0.0419215822862 -0.161697531675 0.809 3.87150039074e-39
-0.0401245729095 -0.160498291638 0.803 2.85735126484e-39
-0.0385903599608 -0.160298418299 0.802 2.58075877006e-39
-0.0368285134865 -0.159099178261 0.796 4.97855280223e-39
-0.0352665403517 -0.158699431582 0.794 9.31316692115e-39
-0.0336268386959 -0.157899938224 0.79 7.00936638477e-39
-0.0321240872913 -0.157700064885 0.789 4.70624828075e-39
-0.0305084444635 -0.156900571527 0.785 5.16833065326e-39
-0.028981634231 -0.156500824848 0.783 3.04749765736e-39
-0.0275325525195 -0.156500824848 0.783 4.06342362972e-39
-0.0260168463614 -0.156101078169 0.781 1.23606659798e-38
-0.024571466008 -0.156101078169 0.781 1.21780277445e-38
-0.0231260856546 -0.156101078169 0.781 1.57775389059e-38
-0.0217362256733 -0.156500824848 0.783 1.54995325009e-38
-0.0202871439617 -0.156500824848 0.783 1.55002401567e-38
-0.0188380622502 -0.156500824848 0.783 1.66966505686e-38
-0.0173889805386 -0.156500824848 0.783 1.60509294337e-38
-0.0159398988271 -0.156500824848 0.783 1.68810250128e-38
-0.0144908171155 -0.156500824848 0.783 1.68796209117e-38
-0.0130750476272 -0.156900571527 0.785 1.59580177403e-38
-0.0116222645575 -0.156900571527 0.785 1.59587702376e-38
-0.0101694814878 -0.156900571527 0.785 1.53126931728e-38
-0.00871669841815 -0.156900571527 0.785 1.50357447482e-38
-0.00728242213916 -0.157300318206 0.787 1.51272173081e-38
-0.00582593771132 -0.157300318206 0.787 1.44818422938e-38
-0.00436945328349 -0.157300318206 0.787 1.41141359716e-38
-0.00291296885566 -0.157300318206 0.787 1.19943539496e-38
-0.00145278306969 -0.156900571527 0.785 9.87493346252e-39
0.0 -0.156900571527 0.785 1.16287874101e-38
0.00145278306969 -0.156900571527 0.785 9.23172345441e-39
0.00290556613938 -0.156900571527 0.785 8.49381930127e-39
0.00435834920908 -0.156900571527 0.785 5.91376958823e-39
0.00581113227877 -0.156900571527 0.785 4.89997078695e-39
0.00726391534846 -0.156900571527 0.785 4.62267904423e-39
0.00871669841815 -0.156900571527 0.785 1.85644020554e-39
0.0101953909948 -0.157300318206 0.787 9.69410990868e-39
0.0116518754226 -0.157300318206 0.787 8.49481142058e-39
0.0131083598505 -0.157300318206 0.787 8.49408835058e-39
0.0146018578597 -0.157700064885 0.789 8.30827337161e-39
0.0160620436457 -0.157700064885 0.789 7.29341658999e-39
0.0175222294316 -0.157700064885 0.789 7.38526049393e-39
