# .PCD v0.7 - Point Cloud Data file format
VERSION 0.7
FIELDS x y z rgb
SIZE 4 4 4 4
TYPE F F F F
COUNT 1 1 1 1
WIDTH 844
HEIGHT 1
VIEWPOINT 0 0 0 1 0 0 0
POINTS 844
DATA ascii
-0.0319353180262 -0.105120421836 0.719 1.51296597713e-38
-0.0306046797751 -0.105120421836 0.719 1.60509014077e-38
-0.0293147564636 -0.105266625483 0.72 2.05641782782e-38
-0.0279822675334 -0.105266625483 0.72 2.35097735113e-38
-0.0266497786033 -0.105266625483 0.72 2.00960142704e-38
-0.0253172896731 -0.105266625483 0.72 1.99119915522e-38
-0.0239848007429 -0.105266625483 0.72 2.13878601143e-38
-0.0226523118128 -0.105266625483 0.72 1.93610122064e-38
-0.0213198228826 -0.105266625483 0.72 1.83482391556e-38
-0.0199873339524 -0.105266625483 0.72 1.7150407827e-38
-0.0186548450223 -0.105266625483 0.72 1.88124641134e-38
-0.0173223560921 -0.105266625483 0.72 1.78019121207e-38
-0.0160342834596 -0.105559032776 0.722 1.45775733997e-38
-0.0147184506411 -0.105705236422 0.723 1.24588689762e-38
-0.0133804096737 -0.105705236422 0.723 9.87776268411e-39
-0.0120756809296 -0.105997643715 0.725 5.35911743917e-39
-0.0107339386041 -0.105997643715 0.725 2.68547079781e-39
-0.00939219627858 -0.105997643715 0.725 3.14608320822e-39
-0.00807266210191 -0.106290051008 0.727 4.25170209138e-39
-0.00672721841825 -0.106290051008 0.727 4.62048741343e-39
-0.00538917745088 -0.106436254655 0.728 3.97476207458e-39
-0.00404188308816 -0.106436254655 0.728 3.97403900457e-39
-0.00270199144172 -0.106728661948 0.73 3.97403760327e-39
-0.00135654775807 -0.107167272887 0.733 3.97439633568e-39
0.0 -0.107313476534 0.734 3.79072674466e-39
0.00136209979528 -0.107605883827 0.736 3.51450139008e-39
0.00272419959056 -0.107605883827 0.736 3.6988940511e-39
0.00409740346025 -0.10789829112 0.738 3.60669842124e-39
0.00546320461367 -0.10789829112 0.738 3.60669982254e-39
0.00683825916243 -0.108044494766 0.739 3.60669982254e-39
0.00822811914376 -0.108336902059 0.741 3.23791870438e-39
0.00959947233438 -0.108336902059 0.741 3.05353024725e-39
0.010970825525 -0.108336902059 0.741 3.42302602762e-39
0.0123588348273 -0.108483105706 0.742 3.33083039776e-39
0.0137690522784 -0.108775512999 0.744 3.23827743679e-39
0.0151459575062 -0.108775512999 0.744 3.05388897966e-39
0.0165672790317 -0.109067920292 0.746 2.77838249119e-39
0.0179719444456 -0.109214123938 0.747 2.68618826262e-39
0.0194062207246 -0.109506531232 0.749 2.59435276646e-39
0.0207923793478 -0.109506531232 0.749 2.31777008077e-39
0.0222081488361 -0.109652734878 0.75 2.59255910443e-39
0.0236590812267 -0.109945142171 0.752 2.59363810425e-39
0.0251174163336 -0.110237549464 0.754 1.76424597697e-39
0.0265128283521 -0.110237549464 0.754 3.23793131607e-39
0.027945253952 -0.110383753111 0.755 2.86663486717e-39
0.0294202451706 -0.110676160404 0.757 3.14322175676e-39
0.0309026391054 -0.110968567697 0.759 2.13230682772e-39
0.0323073045192 -0.110968567697 0.759 1.39834172457e-39
0.0338008025285 -0.11126097499 0.761 4.06302285836e-39
0.0352554362772 -0.111407178636 0.762 5.81473982576e-39
0.0368581243516 -0.111991993222 0.766 1.85644160684e-39
0.0383257128538 -0.112138196869 0.767 1.76747456863e-39
0.0397451837003 -0.112138196869 0.767 2.2255758522e-39
0.0412719939327 -0.112430604162 0.769 2.7744448425e-39
0.0426951661373 -0.112430604162 0.769 2.86985925494e-42
0.0442330804442 -0.112723011455 0.771 1.85110125839e-40
0.0457783974674 -0.113015418748 0.773 9.1835496158e-41
0.0472089723882 -0.113015418748 0.773 2.75509291071e-40
0.0486395473091 -0.113015418748 0.773 1.36431245253e-38
-0.0858715088327 -0.10465590139 0.725 8.30479534882e-40
-0.0845297665072 -0.10465590139 0.725 2.12264347351e-39
-0.0828437978748 -0.104222842488 0.722 3.96868043925e-39
-0.0815076075865 -0.104222842488 0.722 3.04745141451e-39
-0.0799493358098 -0.103934136553 0.72 1.90486908046e-40
-0.0786168468796 -0.103934136553 0.72 1.91563105267e-40
-0.0771770185634 -0.103789783585 0.719 1.57708224823e-38
-0.0758463803123 -0.103789783585 0.719 1.18088991043e-38
-0.0745157420612 -0.103789783585 0.719 9.26964539345e-40
-0.0731851038101 -0.103789783585 0.719 2.86304333921e-39
-0.071854465559 -0.103789783585 0.719 1.67859805431e-38
-0.070523827308 -0.103789783585 0.719 1.60491203574e-38
-0.0691931890569 -0.103789783585 0.719 1.46672607053e-38
-0.0678625508058 -0.103789783585 0.719 1.54977234246e-38
-0.0665319125547 -0.103789783585 0.719 1.51293052428e-38
-0.0650199077548 -0.10350107765 0.717 1.54073032399e-38
-0.0636929708618 -0.10350107765 0.717 1.71602057058e-38
-0.0623660339688 -0.10350107765 0.717 1.70680997591e-38
-0.0610390970759 -0.10350107765 0.717 1.61486966262e-38
-0.0597121601829 -0.10350107765 0.717 1.52296241998e-38
-0.0583037934109 -0.103356724683 0.716 1.49551925073e-38
-0.056978707197 -0.103356724683 0.716 1.4768653057e-38
-0.0556536209831 -0.103356724683 0.716 1.51342013796e-38
-0.0543285347693 -0.103356724683 0.716 1.5684850019e-38
-0.0530034485554 -0.103356724683 0.716 1.71599632812e-38
-0.0516783623415 -0.103356724683 0.716 2.07548207304e-38
-0.0503532761276 -0.103356724683 0.716 1.76173036597e-38
-0.0490966650393 -0.10350107765 0.717 1.8351274368e-38
-0.0477697281463 -0.10350107765 0.717 2.31425436305e-38
-0.0464427912534 -0.10350107765 0.717 1.7793767774e-38
-0.0451158543604 -0.10350107765 0.717 2.30478382751e-38
-0.0437889174675 -0.10350107765 0.717 1.34609291002e-38
-0.0424619805745 -0.10350107765 0.717 2.35077332207e-38
-0.0411350436816 -0.10350107765 0.717 1.3823295074e-38
-0.0398081067886 -0.10350107765 0.717 6.08140972612e-39
-0.0384811698957 -0.10350107765 0.717 8.85123448758e-39
-0.0371542330027 -0.10350107765 0.717 8.85517213627e-39
-0.0358272961098 -0.10350107765 0.717 1.55882977522e-38
-0.0345003592168 -0.10350107765 0.717 1.57748007687e-38
-0.0331734223239 -0.10350107765 0.717 1.26422597088e-38
-0.0318464854309 -0.10350107765 0.717 1.69743458853e-38
-0.0305195485379 -0.10350107765 0.717 1.76175334726e-38
-0.029192611645 -0.10350107765 0.717 1.71543805081e-38
-0.027943403273 -0.103789783585 0.719 2.11169835159e-38
-0.0266127650219 -0.103789783585 0.719 2.18527548928e-38
-0.0252821267708 -0.103789783585 0.719 2.08379009138e-38
-0.0239514885197 -0.103789783585 0.719 1.80738481007e-38
-0.0226523118128 -0.103934136553 0.72 1.84433606966e-38
-0.0213198228826 -0.103934136553 0.72 1.80792052647e-38
-0.0199873339524 -0.103934136553 0.72 1.73423576906e-38
-0.0186548450223 -0.103934136553 0.72 1.4669418705e-38
-0.0173223560921 -0.103934136553 0.72 1.22737784685e-38
-0.0160342834596 -0.104222842488 0.722 9.87777109191e-39
-0.0146980931713 -0.104222842488 0.722 4.34711930642e-39
-0.0133804096737 -0.104367195455 0.723 2.41032304174e-39
-0.0120423687063 -0.104367195455 0.723 3.70033738852e-39
-0.0107339386041 -0.10465590139 0.725 3.97511380049e-39
-0.00939219627858 -0.10465590139 0.725 4.34317324994e-39
-0.00807266210191 -0.104944607325 0.727 4.06659056425e-39
-0.00672721841825 -0.104944607325 0.727 4.25062309157e-39
-0.00538917745088 -0.105088960292 0.728 4.06731363425e-39
-0.00405298716258 -0.105377666227 0.73 3.88292237453e-39
-0.00270569279986 -0.105522019195 0.731 3.6985311148e-39
-0.00135839843714 -0.105955078097 0.734 3.6985311148e-39
0.0 -0.105955078097 0.734 3.79072674466e-39
0.00136209979528 -0.106243784032 0.736 3.6985311148e-39
0.00272419959056 -0.106243784032 0.736 3.79108687837e-39
0.00409740346025 -0.106532489967 0.738 3.79108968097e-39
0.00547060732995 -0.106676842934 0.739 3.51522165749e-39
0.00683825916243 -0.106676842934 0.739 3.60705995624e-39
0.00822811914376 -0.106965548869 0.741 3.05496517688e-39
0.00959947233438 -0.106965548869 0.741 2.87057671975e-39
0.0109856309576 -0.107109901836 0.742 3.23935643661e-39
0.0123588348273 -0.107109901836 0.742 3.05496517688e-39
0.0137690522784 -0.107398607771 0.744 2.77838249119e-39
0.0151866724457 -0.107687313706 0.746 2.68690572743e-39
0.0165894871805 -0.107831666673 0.747 2.41032304174e-39
0.0179719444456 -0.107831666673 0.747 2.96277234961e-39
0.0194062207246 -0.108120372608 0.749 2.68618826262e-39
0.0208201395338 -0.108264725576 0.75 2.86950052253e-39
0.0222673705663 -0.108553431511 0.752 2.77874682879e-39
0.023722004315 -0.108842137445 0.754 2.2255758522e-39
0.0251174163336 -0.108842137445 0.754 2.22485838739e-39
0.0265479912544 -0.108986490413 0.755 7.20018540056e-39
0.027945253952 -0.108986490413 0.755 2.86447826883e-39
0.0294979736915 -0.109563902283 0.759 3.14178262324e-39
0.0309026391054 -0.109563902283 0.759 2.04011119785e-39
0.0323924357565 -0.109852608218 0.761 1.21574552817e-39
0.0338452188261 -0.109996961185 0.762 4.89278352713e-39
0.0353479702307 -0.11028566712 0.764 5.72218826609e-39
0.0368581243516 -0.110574373055 0.766 2.1319537005e-39
0.0383257128538 -0.110718726022 0.767 1.85787793776e-39
0.0398488217282 -0.111007431957 0.769 2.31705261595e-39
0.0413793333188 -0.111296137892 0.771 2.86519853624e-39
0.0428062068815 -0.111296137892 0.771 3.2285916618e-42
0.0443478225465 -0.111584843827 0.773 1.0761972206e-42
0.0458376191976 -0.111729196794 0.774 1.84029724723e-40
0.0472089723882 -0.111584843827 0.773 2.75512093668e-40
0.0486395473091 -0.111584843827 0.773 1.4289215603e-38
-0.0872132511582 -0.103314159064 0.725 1.56623830007e-39
-0.0858715088327 -0.103314159064 0.725 1.10634475576e-39
-0.0845297665072 -0.103314159064 0.725 2.39887863718e-39
-0.0828437978748 -0.102886652199 0.722 5.35089882368e-39
-0.0815076075865 -0.102886652199 0.722 4.42966139116e-39
-0.0799493358098 -0.102601647623 0.72 3.04744721062e-39
-0.0785076568145 -0.102459145334 0.719 1.94217725078e-39
-0.0771770185634 -0.102459145334 0.719 4.66352128927e-40
-0.0756354028984 -0.102174140757 0.717 1.47577299355e-38
-0.0743084660054 -0.102174140757 0.717 1.57707944564e-38
-0.0729815291125 -0.102174140757 0.717 3.60024964571e-39
-0.0716545922195 -0.102174140757 0.717 8.35129043187e-40
-0.0703276553266 -0.102174140757 0.717 1.30074058588e-38
-0.0690007184336 -0.102174140757 0.717 1.29159108781e-38
-0.0675793969081 -0.102031638469 0.716 1.55888834949e-38
-0.0662543106942 -0.102031638469 0.716 1.53137021077e-38
-0.0650199077548 -0.102174140757 0.717 1.61445025399e-38
-0.0636929708618 -0.102174140757 0.717 1.53177280382e-38
-0.0623660339688 -0.102174140757 0.717 1.61486517847e-38
-0.0610390970759 -0.102174140757 0.717 1.59661018311e-38
-0.0596288796248 -0.102031638469 0.716 1.50477468696e-38
-0.0581409336528 -0.101746633892 0.714 1.48629940748e-38
-0.056819548797 -0.101746633892 0.714 1.5227460595e-38
-0.0554981639413 -0.101746633892 0.714 1.89095012295e-38
-0.0543285347693 -0.102031638469 0.716 2.17642937233e-38
-0.0530034485554 -0.102031638469 0.716 1.50333359162e-38
-0.0516783623415 -0.102031638469 0.716 2.22241886689e-38
-0.0503532761276 -0.102031638469 0.716 1.98271064964e-38
-0.0490281899137 -0.102031638469 0.716 2.2867037142e-38
-0.0477697281463 -0.102174140757 0.717 2.29588656317e-38
-0.0464427912534 -0.102174140757 0.717 2.2867037142e-38
-0.0450529312721 -0.102031638469 0.716 1.83501953682e-38
-0.0437278450582 -0.102031638469 0.716 2.25915306536e-38
-0.0424619805745 -0.102174140757 0.717 5.62470693841e-39
-0.0411350436816 -0.102174140757 0.717 4.14923914767e-39
-0.0398081067886 -0.102174140757 0.717 1.15284782621e-38
-0.0384811698957 -0.102174140757 0.717 1.67882842778e-38
-0.0371542330027 -0.102174140757 0.717 1.8726547702e-38
-0.0358272961098 -0.102174140757 0.717 1.93729834992e-38
-0.0345003592168 -0.102174140757 0.717 1.82673674186e-38
-0.0331734223239 -0.102174140757 0.717 1.66088774367e-38
-0.0318464854309 -0.102174140757 0.717 1.53138030012e-38
-0.0305195485379 -0.102174140757 0.717 1.71565973623e-38
-0.029192611645 -0.102174140757 0.717 1.73416528375e-38
-0.027865674752 -0.102174140757 0.717 1.79859180233e-38
-0.0266127650219 -0.102459145334 0.719 1.81699575571e-38
-0.0252821267708 -0.102459145334 0.719 1.8077061278e-38
-0.0239514885197 -0.102459145334 0.719 1.90926523401e-38
-0.0226208502686 -0.102459145334 0.719 1.79880886347e-38
-0.0212902120175 -0.102459145334 0.719 1.4672282959e-38
-0.0199873339524 -0.102601647623 0.72 1.24599563838e-38
-0.0186548450223 -0.102601647623 0.72 7.94166286478e-39
-0.0173223560921 -0.102601647623 0.72 4.80701565332e-39
-0.015989867162 -0.102601647623 0.72 3.14715940545e-39
-0.0146980931713 -0.102886652199 0.722 3.88471323396e-39
-0.0133804096737 -0.103029154488 0.723 4.89779036654e-39
-0.0120423687063 -0.103029154488 0.723 4.15987360172e-39
-0.0107339386041 -0.103314159064 0.725 4.61904267472e-39
-0.00939219627858 -0.103314159064 0.725 4.80271226573e-39
-0.00807266210191 -0.103599163641 0.727 4.71123690328e-39
-0.0067364718136 -0.103741665929 0.728 4.4353702811e-39
-0.00540398288344 -0.104026670506 0.73 4.25170209138e-39
-0.00405298716258 -0.104026670506 0.73 4.15950646152e-39
-0.00270569279986 -0.104169172795 0.731 3.79144280818e-39
-0.00135839843714 -0.10459667966 0.734 3.79144280818e-39
0.0 -0.104881684236 0.736 4.06731083166e-39
0.00136209979528 -0.104881684236 0.736 3.79072534337e-39
0.00273160230683 -0.105166688813 0.738 3.88292237453e-39
0.00409740346025 -0.105166688813 0.738 3.69889124851e-39
0.00547060732995 -0.105309191101 0.739 3.33083039776e-39
0.00685676595313 -0.105594195678 0.741 3.33190939758e-39
0.00822811914376 -0.105594195678 0.741 3.05568404299e-39
0.00961242708787 -0.105736697967 0.742 2.87237178308e-39
0.0109856309576 -0.105736697967 0.742 3.14788247545e-39
0.0123921470505 -0.106021702543 0.744 2.96349121573e-39
0.0138060658597 -0.10630670712 0.746 2.59542896368e-39
0.0152070299155 -0.106449209408 0.747 2.77982022341e-39
0.0166339034782 -0.106734213985 0.749 2.96349121573e-39
0.0180200621014 -0.106734213985 0.749 2.68618826262e-39
0.0194839492455 -0.10716172085 0.752 2.68439460059e-39
0.020931180278 -0.107446725427 0.754 2.86878305772e-39
0.0223265922965 -0.107446725427 0.754 2.40996430933e-39
0.023722004315 -0.107446725427 0.754 1.76532217419e-39
0.0251507285568 -0.107589227715 0.755 2.03939373304e-39
0.0265479912544 -0.107589227715 0.755 8.12069976307e-39
0.0280192811148 -0.107874232292 0.757 3.78427236394e-39
0.0295757022124 -0.108444241446 0.761 3.6938746e-39
0.0309840689844 -0.108444241446 0.761 2.22450245758e-39
0.0324350013751 -0.108586743734 0.762 9.40596370806e-40
0.0339340514215 -0.108871748311 0.764 5.17043820615e-39
0.0353479702307 -0.108871748311 0.764 5.2619163712e-39
0.0368581243516 -0.109156752887 0.766 2.40781752009e-39
0.0383257128538 -0.109299255176 0.767 2.04083286656e-39
0.0399524597561 -0.109869264329 0.771 2.49929428384e-39
0.0414866727048 -0.110154268906 0.773 2.86377201441e-39
0.0429172476257 -0.110154268906 0.773 9.50640878198e-41
0.0444051935977 -0.110296771194 0.774 7.17464813734e-43
0.0458376191976 -0.110296771194 0.774 1.8438845713e-40
0.0472700447975 -0.110296771194 0.774 1.83682202704e-40
0.0487024703975 -0.110296771194 0.774 1.44732565381e-38
-0.0872132511582 -0.101972416739 0.725 1.65843392993e-39
-0.0858715088327 -0.101972416739 0.725 1.75171416481e-39
-0.0845297665072 -0.101972416739 0.725 1.7520827063e-39
-0.0829585399771 -0.10169111352 0.723 4.88992207566e-39
-0.0815076075865 -0.101550461911 0.722 5.3516120846e-39
-0.0798382950656 -0.101128507083 0.719 3.3240383041e-39
-0.0785076568145 -0.101128507083 0.719 4.06267113244e-39
-0.0769623397913 -0.100847203865 0.717 2.40209601846e-39
-0.0756354028984 -0.100847203865 0.717 8.35487775594e-40
-0.0742048279775 -0.100706552255 0.716 9.04051627895e-39
-0.0728797417636 -0.100706552255 0.716 1.74289116929e-38
-0.0715546555498 -0.100706552255 0.716 1.03316320463e-38
-0.0702295693359 -0.100706552255 0.716 6.09845091674e-42
-0.068904483122 -0.100706552255 0.716 1.04266653056e-38
-0.0675793969081 -0.100706552255 0.716 1.3099612699e-38
-0.0662543106942 -0.100706552255 0.716 1.68792663832e-38
-0.0649292244803 -0.100706552255 0.716 1.55906239076e-38
-0.0636041382665 -0.100706552255 0.716 1.43031473124e-38
-0.0622790520526 -0.100706552255 0.716 1.55035528262e-38
-0.0609539658387 -0.100706552255 0.716 1.59656884481e-38
-0.0594623185085 -0.100425249037 0.714 1.51366998948e-38
-0.0581409336528 -0.100425249037 0.714 1.87312112233e-38
-0.056819548797 -0.100425249037 0.714 1.9097102864e-38
-0.0554981639413 -0.100425249037 0.714 1.88140223573e-38
-0.0541767790855 -0.100425249037 0.714 2.17585357879e-38
-0.0528553942298 -0.100425249037 0.714 1.39248219504e-38
-0.0515340093741 -0.100425249037 0.714 2.18568466843e-38
-0.0502126245183 -0.100425249037 0.714 2.04739122364e-38
-0.0490281899137 -0.100706552255 0.716 1.84445377873e-38
-0.0477031036998 -0.100706552255 0.716 2.24996951574e-38
-0.046378017486 -0.100706552255 0.716 1.66013496614e-38
-0.0450529312721 -0.100706552255 0.716 1.87215226457e-38
-0.0437278450582 -0.100706552255 0.716 1.89073404273e-38
-0.0424027588443 -0.100706552255 0.716 1.54925666463e-38
-0.0410776726304 -0.100706552255 0.716 1.7154934021e-38
-0.0397525864165 -0.100706552255 0.716 1.9648487185e-38
-0.0384275002026 -0.100706552255 0.716 1.7253567216e-38
-0.0371024139888 -0.100706552255 0.716 1.84521174107e-38
-0.0357773277749 -0.100706552255 0.716 1.83599147744e-38
-0.034452241561 -0.100706552255 0.716 1.83591734875e-38
-0.0331271553471 -0.100706552255 0.716 1.98328672344e-38
-0.0318020691332 -0.100706552255 0.716 1.53137861856e-38
-0.0304769829193 -0.100706552255 0.716 1.58665704038e-38
-0.0291518967055 -0.100706552255 0.716 1.80799591633e-38
-0.027865674752 -0.100847203865 0.717 1.90018902385e-38
-0.0266127650219 -0.101128507083 0.719 2.0016741415e-38
-0.0252118009661 -0.100847203865 0.717 1.84508520382e-38
-0.0238848640732 -0.100847203865 0.717 1.30109581504e-38
-0.0226208502686 -0.101128507083 0.719 1.28265809036e-38
-0.0212902120175 -0.101128507083 0.719 7.66471584148e-39
-0.0199595737664 -0.101128507083 0.719 4.43751987295e-39
-0.0186548450223 -0.101269158692 0.72 3.05424771207e-39
-0.0173223560921 -0.101269158692 0.72 4.34353198235e-39
-0.015989867162 -0.101269158692 0.72 4.98817692008e-39
-0.0146980931713 -0.101550461911 0.722 5.17149198259e-39
-0.0133804096737 -0.10169111352 0.723 5.26296874634e-39
-0.0120423687063 -0.10169111352 0.723 5.53955563593e-39
-0.0107339386041 -0.101972416739 0.725 4.89418902949e-39
-0.00941810578556 -0.102253719957 0.727 4.80271226573e-39
-0.00807266210191 -0.102253719957 0.727 4.61832100601e-39
-0.0067364718136 -0.102394371567 0.728 4.80343253315e-39
-0.00540398288344 -0.102675674785 0.73 4.4353688798e-39
-0.00405298716258 -0.102675674785 0.73 4.15950365892e-39
-0.00271309551614 -0.103097629613 0.733 3.97583406791e-39
-0.00135839843714 -0.103238281223 0.734 3.97583406791e-39
0.0 -0.103519584441 0.736 4.43501435129e-39
0.00136580115342 -0.10380088766 0.738 4.34281872143e-39
0.00273160230683 -0.10380088766 0.738 4.06731083166e-39
0.00409740346025 -0.10380088766 0.738 3.9754781381e-39
0.00547060732995 -0.103941539269 0.739 4.06767376796e-39
0.00685676595313 -0.104222842488 0.741 3.42302602762e-39
0.00822811914376 -0.104222842488 0.741 3.33083039776e-39
0.00961242708787 -0.104363494097 0.742 3.33190939758e-39
0.0110152418227 -0.104644797315 0.744 3.42374769633e-39
0.0124254592738 -0.104926100534 0.746 3.05496517688e-39
0.0138245726504 -0.105066752143 0.747 2.68690572743e-39
0.0152070299155 -0.105066752143 0.747 3.24007810532e-39
0.0166339034782 -0.105348055362 0.749 3.14716360934e-39
0.0180441209293 -0.105488706971 0.75 3.51486712898e-39
0.0194839492455 -0.10577001019 0.752 6.37185265492e-39
0.020931180278 -0.106051313408 0.754 7.29201108763e-39
0.0223265922965 -0.106051313408 0.754 2.40924684452e-39
0.0237534658592 -0.106191965018 0.755 2.40996430933e-39
0.0252173530033 -0.106473268236 0.757 2.68475333299e-39
0.0266886428637 -0.106754571455 0.759 8.02778526709e-39
0.0280933082776 -0.106754571455 0.759 2.67829614967e-39
0.0295757022124 -0.107035874673 0.761 4.52363526877e-39
0.031024783924 -0.107176526283 0.762 2.77767343416e-39
0.0324350013751 -0.107176526283 0.762 1.12426736312e-39
0.0340228840168 -0.10773913272 0.766 3.8811259099e-39
0.0354405041842 -0.10773913272 0.766 5.0785929009e-39
0.0369062420074 -0.107879784329 0.767 2.68404147337e-39
0.0384256495236 -0.108161087548 0.769 2.49894255792e-39
0.040056097784 -0.108723693985 0.773 3.78717165046e-39
0.0415403423978 -0.108864345594 0.774 3.72364238328e-40
0.0429727679978 -0.108864345594 0.774 2.77658882915e-40
0.0444051935977 -0.108864345594 0.774 7.00649232162e-45
0.0458376191976 -0.108864345594 0.774 5.6051938573e-45
0.0472089723882 -0.108723693985 0.773 1.54142831076e-44
0.0486395473091 -0.108723693985 0.773 1.54877728042e-38
-0.0872132511582 -0.100630674413 0.725 1.65843392993e-39
-0.0856346219118 -0.100353072553 0.723 1.10670068557e-39
-0.0842965809444 -0.100353072553 0.723 1.29075283107e-39
-0.0829585399771 -0.100353072553 0.723 5.53421528748e-39
-0.0815076075865 -0.100214271623 0.722 5.62783463659e-39
-0.0798382950656 -0.099797868832 0.719 4.79773625489e-39
-0.0785076568145 -0.099797868832 0.719 3.78501224953e-39
-0.0769623397913 -0.0995202669716 0.717 4.0616145534e-39
-0.0755299141914 -0.0993814660413 0.716 2.67868290805e-39
-0.0742048279775 -0.0993814660413 0.716 2.51112684807e-42
-0.0728797417636 -0.0993814660413 0.716 5.44454900135e-39
-0.0715546555498 -0.0993814660413 0.716 1.59559396147e-38
-0.0702295693359 -0.0993814660413 0.716 1.20865762041e-38
-0.0687120124987 -0.0991038641809 0.714 7.17464813734e-42
-0.067390627643 -0.0991038641809 0.714 7.44728476656e-40
-0.0660692427873 -0.0991038641809 0.714 1.1439375298e-38
-0.0647478579315 -0.0991038641809 0.714 1.88149920559e-38
-0.0634264730758 -0.0991038641809 0.714 1.66051527854e-38
-0.06210508822 -0.0991038641809 0.714 1.51321947202e-38
-0.0607837033643 -0.0991038641809 0.714 1.44879673694e-38
-0.0593790379504 -0.0989650632507 0.713 1.72521224773e-38
-0.0580595037737 -0.0989650632507 0.713 1.57759414256e-38
-0.056739969597 -0.0989650632507 0.713 2.10285335568e-38
-0.0554204354204 -0.0989650632507 0.713 2.27752016459e-38
-0.0541009012437 -0.0989650632507 0.713 2.2126250518e-38
-0.052781367067 -0.0989650632507 0.713 2.20405176766e-38
-0.0514618328903 -0.0989650632507 0.713 2.18568438817e-38
-0.0502126245183 -0.0991038641809 0.714 2.13058267009e-38
-0.0488912396626 -0.0991038641809 0.714 2.14884285025e-38
-0.0475698548068 -0.0991038641809 0.714 2.00125991767e-38
-0.0462484699511 -0.0991038641809 0.714 1.9458361812e-38
-0.0449270850953 -0.0991038641809 0.714 1.549220371e-38
-0.0436057002396 -0.0991038641809 0.714 9.22324699999e-39
-0.0422843153838 -0.0991038641809 0.714 8.57897060375e-39
-0.0409629305281 -0.0991038641809 0.714 6.64428329327e-39
-0.0396415456724 -0.0991038641809 0.714 1.93704723723e-38
-0.0383201608166 -0.0991038641809 0.714 1.92807836654e-38
-0.0369987759609 -0.0991038641809 0.714 1.93715485695e-38
-0.0356773911051 -0.0991038641809 0.714 1.87243897023e-38
-0.0343560062494 -0.0991038641809 0.714 1.75247338831e-38
-0.0330346213936 -0.0991038641809 0.714 1.66952815e-38
-0.0317132365379 -0.0991038641809 0.714 1.78037324074e-38
-0.0303918516821 -0.0991038641809 0.714 1.86341979293e-38
-0.0290704668264 -0.0991038641809 0.714 2.01104070069e-38
-0.0278268104916 -0.0993814660413 0.716 1.8727472559e-38
-0.0265387378591 -0.0995202669716 0.717 1.22727022713e-38
-0.0252118009661 -0.0995202669716 0.717 1.20879564831e-38
-0.0238848640732 -0.0995202669716 0.717 8.76891661059e-39
-0.0226208502686 -0.099797868832 0.719 3.97439633568e-39
-0.0212902120175 -0.099797868832 0.719 4.52684564356e-39
-0.0199595737664 -0.099797868832 0.719 5.07929355013e-39
-0.0186289355153 -0.099797868832 0.719 5.26332187355e-39
-0.0173223560921 -0.0999366697622 0.72 5.26188694393e-39
-0.015989867162 -0.0999366697622 0.72 5.62959326616e-39
-0.0146980931713 -0.100214271623 0.722 5.44484747792e-39
-0.0133804096737 -0.100353072553 0.723 5.26081074671e-39
-0.0120756809296 -0.100630674413 0.725 5.26116947911e-39
-0.0107635494692 -0.100908276274 0.727 5.07857748662e-39
-0.00941810578556 -0.100908276274 0.727 4.894905093e-39
-0.00808376617632 -0.101047077204 0.728 4.52720297466e-39
-0.0067549786043 -0.101324679064 0.73 4.61939720323e-39
-0.00540398288344 -0.101324679064 0.73 4.61939720323e-39
-0.00405853919979 -0.101463479995 0.731 4.4353688798e-39
-0.00271309551614 -0.101741081855 0.733 4.34317465124e-39
-0.00135839843714 -0.101879882785 0.734 4.34281872143e-39
0.0 -0.102157484646 0.736 4.15878479281e-39
0.00136580115342 -0.102435086506 0.738 4.1584274617e-39
0.00273160230683 -0.102435086506 0.738 4.1584274617e-39
0.00410295549746 -0.102573887437 0.739 4.25062309157e-39
0.0054854127625 -0.102851489297 0.741 3.78964914614e-39
0.00685676595313 -0.102851489297 0.741 3.97511800439e-39
0.00823922321818 -0.102990290227 0.742 3.69817518499e-39
0.00963833659485 -0.103267892088 0.744 3.51378392526e-39
0.0110448526878 -0.103545493948 0.746 2.95990108906e-39
0.0124421153854 -0.103684294878 0.747 3.97476207458e-39
0.0138615862318 -0.103961896739 0.749 3.23791870438e-39
0.015247744855 -0.103961896739 0.749 3.33047306665e-39
0.016656111627 -0.104100697669 0.75 2.31633515114e-39
0.0180922385851 -0.104378299529 0.752 6.1878243315e-39
0.0195357682594 -0.10465590139 0.754 3.88077558528e-39
0.020958940464 -0.10479470232 0.755 3.51019800249e-39
0.0223562031616 -0.10479470232 0.755 3.42123656949e-39
0.0238163889476 -0.105072304181 0.757 2.96134022258e-39
0.0252839774498 -0.105349906041 0.759 2.1315879616e-39
0.0267589686684 -0.105627507901 0.761 7.1079855668e-39
0.0281673354404 -0.105627507901 0.761 3.04850799356e-39
0.0296145664729 -0.105766308832 0.762 3.04922545837e-39
0.031106213803 -0.106043910692 0.764 3.4223225758e-39
0.0325201326123 -0.106043910692 0.764 2.13625989068e-39
0.0340673003145 -0.106460313483 0.767 3.14357208138e-39
0.0354867711609 -0.106460313483 0.767 3.97152927902e-39
0.037002477319 -0.106737915343 0.769 3.41945692044e-39
0.0385255861933 -0.107015517204 0.771 1.48264944537e-39
0.0401079167979 -0.107431919994 0.774 3.94605647554e-42
0.0415403423978 -0.107431919994 0.774 7.17464813734e-43
0.0429727679978 -0.107431919994 0.774 9.25585661656e-41
0.0444051935977 -0.107431919994 0.774 1.54142831076e-44
0.0458376191976 -0.107431919994 0.774 7.00649232162e-45
0.0472089723882 -0.107293119064 0.773 1.68155815719e-44
0.0486395473091 -0.107293119064 0.773 1.511899589e-38
-0.088799283121 -0.0995628325902 0.727 2.02650879366e-39
-0.0872132511582 -0.0992889320879 0.725 1.84246785855e-39
-0.0856346219118 -0.0990150315855 0.723 7.37202102604e-40
-0.0842965809444 -0.0990150315855 0.723 6.44312830001e-40
-0.0828437978748 -0.0988780813344 0.722 5.99483750699e-39
-0.0815076075865 -0.0988780813344 0.722 5.6281905664e-39
-0.0798382950656 -0.0984672305809 0.719 5.35091423796e-39
-0.0782892766843 -0.0981933300786 0.717 4.79881245211e-39
-0.0768550004053 -0.0980563798275 0.716 4.15381018326e-39
-0.0755299141914 -0.0980563798275 0.716 3.78467874049e-39
-0.0742048279775 -0.0980563798275 0.716 3.69212718082e-39
-0.072676167066 -0.0977824793251 0.714 5.38098610301e-42
-0.0713547822102 -0.0977824793251 0.714 3.32763823986e-39
-0.0700333973545 -0.0977824793251 0.714 1.2824155256e-38
-0.0687120124987 -0.0977824793251 0.714 1.26401297352e-38
-0.0672962430104 -0.097645529074 0.713 3.9722845789e-39
-0.0659767088338 -0.097645529074 0.713 3.2285916618e-42
-0.0646571746571 -0.097645529074 0.713 8.02599300636e-39
-0.0633376404804 -0.097645529074 0.713 1.79831028147e-38
-0.0620181063037 -0.097645529074 0.713 1.59580037273e-38
-0.0606985721271 -0.097645529074 0.713 1.66977239633e-38
-0.0593790379504 -0.097645529074 0.713 1.55917925905e-38
-0.0580595037737 -0.097645529074 0.713 1.76180113154e-38
-0.0565808111971 -0.0973716285717 0.711 1.66024538846e-38
-0.0552649783785 -0.0973716285717 0.711 2.04735745234e-38
-0.0541009012437 -0.097645529074 0.713 2.24996951574e-38
-0.0526333127414 -0.0973716285717 0.711 1.41142592859e-38
-0.0513174799229 -0.0973716285717 0.711 1.69741090659e-38
-0.0500016471044 -0.0973716285717 0.711 1.98307260503e-38
-0.048822764537 -0.097645529074 0.713 1.81680013445e-38
-0.0475032303603 -0.097645529074 0.713 1.43861686412e-38
-0.0461836961836 -0.097645529074 0.713 9.77387461987e-39
-0.044864162007 -0.097645529074 0.713 1.08780781916e-38
-0.0435446278303 -0.097645529074 0.713 1.18007253304e-38
-0.0422250936536 -0.097645529074 0.713 1.12489738691e-38
-0.0409629305281 -0.0977824793251 0.714 1.20787541561e-38
-0.0396415456724 -0.0977824793251 0.714 7.56262424186e-39
-0.0383201608166 -0.0977824793251 0.714 1.93665109015e-38
-0.0369987759609 -0.0977824793251 0.714 1.71569967323e-38
-0.0356773911051 -0.0977824793251 0.714 1.56829092206e-38
-0.0343560062494 -0.0977824793251 0.714 1.86317274401e-38
-0.0330346213936 -0.0977824793251 0.714 1.93671428872e-38
-0.0317132365379 -0.0977824793251 0.714 2.01997509944e-38
-0.0303918516821 -0.0977824793251 0.714 1.84498094722e-38
-0.0290704668264 -0.0977824793251 0.714 1.07064527609e-38
-0.0278268104916 -0.0980563798275 0.716 4.89743443673e-39
-0.0265387378591 -0.0981933300786 0.717 7.17464813734e-42
-0.0252118009661 -0.0981933300786 0.717 9.298343986e-40
-0.0238848640732 -0.0981933300786 0.717 4.80165708799e-39
-0.0226208502686 -0.0984672305809 0.719 5.72393428397e-39
-0.0212902120175 -0.0984672305809 0.719 5.17041298277e-39
-0.0199595737664 -0.0984672305809 0.719 5.90689621927e-39
-0.0186289355153 -0.0984672305809 0.719 5.90688781147e-39
-0.0173223560921 -0.0986041808321 0.72 5.72106442472e-39
-0.015989867162 -0.0986041808321 0.72 6.08914629494e-39
-0.0146980931713 -0.0988780813344 0.722 6.18171467019e-39
-0.0134174232551 -0.0992889320879 0.725 6.1820748039e-39
-0.0120756809296 -0.0992889320879 0.725 5.35374205826e-39
-0.0107635494692 -0.0995628325902 0.727 4.71123830458e-39
-0.00941810578556 -0.0995628325902 0.727 4.4350087461e-39
-0.00808376617632 -0.0996997828413 0.728 4.71159143179e-39
-0.0067549786043 -0.0999736833436 0.73 4.89598129022e-39
-0.00540398288344 -0.0999736833436 0.73 4.4350087461e-39
-0.00405853919979 -0.100110633595 0.731 4.34281451753e-39
-0.00271309551614 -0.100384534097 0.733 4.43357381647e-39
-0.00136209979528 -0.100795384851 0.736 4.52577084763e-39
0.0 -0.100795384851 0.736 4.06659056425e-39
0.00136580115342 -0.101069285353 0.738 4.06659056425e-39
0.00273160230683 -0.101069285353 0.738 4.25026295786e-39
0.00410295549746 -0.101206235604 0.739 4.34245858772e-39
0.0054854127625 -0.101480136106 0.741 4.158067328e-39
0.00686601934848 -0.101617086357 0.742 4.43357802037e-39
0.00826143136701 -0.10189098686 0.744 4.24846789453e-39
0.00966424610182 -0.102164887362 0.746 4.70872717773e-39
0.0110448526878 -0.102164887362 0.746 7.10509048417e-39
0.0124754276087 -0.102575738116 0.749 5.17006125686e-39
0.0138615862318 -0.102575738116 0.749 3.23576630994e-39
0.0152681023248 -0.102712688367 0.75 3.51378532656e-39
0.0167005279247 -0.102986588869 0.752 2.77658882915e-39
0.0181403562409 -0.103260489371 0.754 7.01686893675e-39
0.0195616777664 -0.103397439623 0.755 5.5392221269e-39
0.0210144608361 -0.103671340125 0.757 3.6938746e-39
0.0224154248919 -0.103671340125 0.757 3.2336139155e-39
0.023879312036 -0.103945240627 0.759 3.51343219935e-39
0.0253506018964 -0.104219141129 0.761 1.94719950447e-39
0.0267941315707 -0.104356091381 0.762 7.66331734561e-39
0.0282043490218 -0.104356091381 0.762 6.37042192919e-39
0.0296922949938 -0.104629991883 0.764 6.73848558253e-39
0.0311876436821 -0.104903892385 0.766 2.77623149804e-39
0.0326478294681 -0.105040842636 0.767 2.96278356e-39
0.0341561329098 -0.105314743139 0.769 4.80130396078e-39
0.0355793051144 -0.105314743139 0.769 2.95596764427e-39
0.0370987126306 -0.105588643641 0.771 5.02225369614e-42
0.0386255228631 -0.105862544143 0.773 3.58732406867e-42
0.0401079167979 -0.105999494394 0.774 7.17464813734e-43
0.0415403423978 -0.105999494394 0.774 2.76223953288e-40
0.0429727679978 -0.105999494394 0.774 9.21956298633e-41
0.0444051935977 -0.105999494394 0.774 7.24471306056e-43
0.0458376191976 -0.105999494394 0.774 7.27273902985e-43
0.0472700447975 -0.105999494394 0.774 1.01381701816e-39
-0.088799283121 -0.0982173889065 0.727 2.57968677674e-39
-0.0872132511582 -0.0979471897623 0.725 2.02686192087e-39
-0.0856346219118 -0.0976769906182 0.723 8.29397732468e-40
-0.0842965809444 -0.0976769906182 0.723 9.18621208288e-41
-0.0828437978748 -0.0975418910461 0.722 5.99484030959e-39
-0.0815076075865 -0.0975418910461 0.722 5.25940524435e-39
-0.0798382950656 -0.0971365923298 0.719 5.44275393802e-39
-0.0782892766843 -0.0968663931857 0.717 4.52222836512e-39
-0.0768550004053 -0.0967312936136 0.716 4.79846072619e-39
-0.0755299141914 -0.0967312936136 0.716 4.2453037626e-39
-0.0739975519217 -0.0964610944694 0.714 3.87653245353e-39
-0.072676167066 -0.0964610944694 0.714 3.51023723885e-39
-0.0713547822102 -0.0964610944694 0.714 4.69939452996e-40
-0.0700333973545 -0.0964610944694 0.714 1.02348037237e-39
-0.0686157771871 -0.0963259948973 0.713 1.42067505897e-38
-0.0672962430104 -0.0963259948973 0.713 1.49439386793e-38
-0.0659767088338 -0.0963259948973 0.713 9.40931000879e-39
-0.0646571746571 -0.0963259948973 0.713 1.87258316385e-40
-0.0631599752897 -0.0960557957531 0.711 4.98174215754e-39
-0.0618441424712 -0.0960557957531 0.711 1.89965288706e-38
-0.0604431784155 -0.095920696181 0.71 1.65111775065e-38
-0.059129196276 -0.095920696181 0.71 1.69753842475e-38
-0.0578152141365 -0.095920696181 0.71 1.62378668527e-38
-0.0565012319971 -0.095920696181 0.71 1.78041934346e-38
-0.0551872498576 -0.095920696181 0.71 1.67900709334e-38
-0.0538732677181 -0.095920696181 0.71 1.83591762901e-38
-0.0525592855787 -0.095920696181 0.71 1.99247139409e-38
-0.0512453034392 -0.095920696181 0.71 1.9094248419e-38
-0.0499313212997 -0.095920696181 0.71 1.13480372627e-38
-0.0486858142858 -0.0960557957531 0.711 8.30164382857e-39
-0.0473699814673 -0.0960557957531 0.711 1.10642631133e-38
-0.0460541486488 -0.0960557957531 0.711 1.11528588074e-38
-0.0447383158302 -0.0960557957531 0.711 1.29935372079e-38
-0.0434224830117 -0.0960557957531 0.711 1.23474110976e-38
-0.0421066501932 -0.0960557957531 0.711 1.05949612511e-38
-0.0409055594769 -0.0963259948973 0.713 1.0596749308e-38
-0.0395860253003 -0.0963259948973 0.713 1.44732565381e-38
-0.0382664911236 -0.0963259948973 0.713 1.72448371266e-38
-0.0369469569469 -0.0963259948973 0.713 1.94614460699e-38
-0.0356274227702 -0.0963259948973 0.713 2.0477370641e-38
-0.0343560062494 -0.0964610944694 0.714 1.94625138593e-38
-0.0330346213936 -0.0964610944694 0.714 1.81707212648e-38
-0.0316688202402 -0.0963259948973 0.713 1.1071308842e-38
-0.0303492860635 -0.0963259948973 0.713 4.98677422032e-39
-0.0290297518869 -0.0963259948973 0.713 7.89211295108e-42
-0.0278268104916 -0.0967312936136 0.716 3.94605647554e-42
-0.0265387378591 -0.0968663931857 0.717 2.86985925494e-42
-0.0252118009661 -0.0968663931857 0.717 2.86557268293e-39
-0.0238848640732 -0.0968663931857 0.717 5.81542646201e-39
-0.0226208502686 -0.0971365923298 0.719 6.46112938008e-39
-0.0212902120175 -0.0971365923298 0.719 5.99944357504e-39
-0.0199595737664 -0.0971365923298 0.719 5.44555793624e-39
-0.0186289355153 -0.0971365923298 0.719 6.27458852851e-39
-0.0173223560921 -0.0972716919019 0.72 7.38023123375e-39
-0.0160342834596 -0.0975418910461 0.722 5.81185595352e-39
-0.0147184506411 -0.0976769906182 0.723 1.75563639921e-39
-0.0134174232551 -0.0979471897623 0.725 5.02225369614e-42
-0.0120756809296 -0.0979471897623 0.725 2.9581284465e-39
-0.0107635494692 -0.0982173889065 0.727 4.98891400308e-39
-0.00943106053904 -0.0983524884786 0.728 4.34424944716e-39
-0.00810597432516 -0.0986226876228 0.73 4.71230889661e-39
-0.0067549786043 -0.0986226876228 0.73 4.4350087461e-39
-0.00540398288344 -0.0986226876228 0.73 4.89526242411e-39
-0.00405853919979 -0.0987577871949 0.731 4.80199199832e-39
-0.00271309551614 -0.099027986339 0.733 4.70979917106e-39
-0.00136209979528 -0.0994332850553 0.736 4.80164167371e-39
0.0 -0.0994332850553 0.736 4.34281872143e-39
0.00136580115342 -0.0997034841995 0.738 4.25097902138e-39
0.00273530366497 -0.0998385837715 0.739 4.34245578513e-39
0.00411405957188 -0.100108782916 0.741 4.52577084763e-39
0.00549281547878 -0.100243882488 0.742 4.52505198152e-39
0.00686601934848 -0.100243882488 0.742 4.52325691819e-39
0.00828363951585 -0.100784280776 0.746 5.72143997271e-39
0.00966424610182 -0.100784280776 0.746 6.64231727152e-39
0.0110596581204 -0.100919380348 0.747 4.52110452375e-39
0.0124754276087 -0.101189579492 0.749 8.39438596484e-39
0.0138800930225 -0.101324679064 0.75 5.53920391002e-39
0.0152681023248 -0.101324679064 0.75 3.60526068901e-39
0.0167005279247 -0.101594878209 0.752 3.42123656949e-39
0.0181403562409 -0.101865077353 0.754 4.71090059165e-39
0.0195616777664 -0.102000176925 0.755 6.73741218791e-39
0.0210144608361 -0.102270376069 0.757 9.03978900505e-39
0.0224154248919 -0.102270376069 0.757 5.35267146624e-39
0.0239422351243 -0.102810774357 0.761 3.7875009556e-39
0.0253839141196 -0.10294587393 0.762 2.50072360827e-39
0.0268644573753 -0.103216073074 0.764 6.00667287382e-39
0.0283524033474 -0.103486272218 0.766 2.4081706473e-39
0.0297700235147 -0.103486272218 0.766 2.77479516712e-39
0.0312283586216 -0.10362137179 0.767 3.88113992288e-39
0.0326478294681 -0.10362137179 0.767 2.96062275777e-39
0.0341561329098 -0.103891570934 0.769 1.89769443233e-40
0.0355793051144 -0.103891570934 0.769 1.79366203434e-42
0.0370987126306 -0.104161770078 0.771 2.1565983366e-42
0.0386255228631 -0.104431969222 0.773 3.72030729294e-40
0.0401079167979 -0.104567068795 0.774 1.84038132514e-40
0.0415403423978 -0.104567068795 0.774 6.43924670327e-40
0.0429727679978 -0.104567068795 0.774 1.84747189537e-40
0.0445199357 -0.104837267939 0.776 2.86985925494e-42
0.0459560626581 -0.104837267939 0.776 3.64337600724e-43
-0.088799283121 -0.0968719452229 0.727 2.30382295715e-39
-0.0874538394373 -0.0968719452229 0.727 1.9350432403e-39
-0.0858715088327 -0.0966054474368 0.725 1.65987446475e-39
-0.0845297665072 -0.0966054474368 0.725 1.10422599248e-39
-0.0829585399771 -0.0963389496508 0.723 5.80971897336e-39
-0.0815076075865 -0.0962057007578 0.722 5.90333551987e-39
-0.0799493358098 -0.0959392029717 0.72 7.19338349781e-39
-0.0782892766843 -0.0955394562927 0.717 8.02599020376e-39
-0.0768550004053 -0.0954062073997 0.716 5.26087660773e-39
-0.0755299141914 -0.0954062073997 0.716 3.87903096869e-39
-0.0739975519217 -0.0951397096136 0.714 4.42969221972e-39
-0.072676167066 -0.0951397096136 0.714 4.33748537947e-39
-0.0713547822102 -0.0951397096136 0.714 4.0616131521e-39
-0.0699353113638 -0.0950064607206 0.713 1.5730514132e-39
-0.0684233065639 -0.0947399629346 0.711 2.86985925494e-42
-0.0671074737453 -0.0947399629346 0.711 9.77918554105e-39
-0.0657916409268 -0.0947399629346 0.711 1.52176487032e-38
-0.0644758081083 -0.0947399629346 0.711 1.30046018605e-38
-0.0630711426944 -0.0946067140416 0.71 4.66710861334e-40
-0.0617571605549 -0.0946067140416 0.71 5.62999684012e-39
-0.0604431784155 -0.0946067140416 0.71 1.8446240365e-38
-0.059129196276 -0.0946067140416 0.71 1.78026309868e-38
-0.0578152141365 -0.0946067140416 0.71 1.73427178243e-38
-0.0563420735971 -0.0943402162556 0.708 1.76204229501e-38
-0.0550317928157 -0.0943402162556 0.708 1.88172313308e-38
-0.0537215120344 -0.0943402162556 0.708 1.68808134167e-38
-0.0524112312531 -0.0943402162556 0.708 1.26366138773e-38
-0.0512453034392 -0.0946067140416 0.71 7.28640449247e-39
-0.0499313212997 -0.0946067140416 0.71 9.77317677323e-39
-0.0484803889091 -0.0943402162556 0.708 1.19840628136e-38
-0.0471701081278 -0.0943402162556 0.708 1.15219804411e-38
-0.0459893748813 -0.0946067140416 0.71 1.20737080803e-38
-0.0446753927419 -0.0946067140416 0.71 1.27194306165e-38
-0.0433614106024 -0.0946067140416 0.71 1.14286721803e-38
-0.0421066501932 -0.0947399629346 0.711 1.55770691476e-38
-0.0407908173746 -0.0947399629346 0.711 1.97280052677e-38
-0.0394749845561 -0.0947399629346 0.711 2.139146005e-38
-0.0381591517375 -0.0947399629346 0.711 2.07503842195e-38
-0.036843318919 -0.0947399629346 0.711 2.09376439372e-38
-0.0355274861005 -0.0947399629346 0.711 1.79884655839e-38
-0.0343078885936 -0.0950064607206 0.713 1.08883441041e-38
-0.0329883544169 -0.0950064607206 0.713 4.24955530214e-39
-0.0316688202402 -0.0950064607206 0.713 4.66352128927e-42
-0.0303492860635 -0.0950064607206 0.713 1.20211229541e-39
-0.0290297518869 -0.0950064607206 0.713 1.38615182922e-39
-0.0278268104916 -0.0954062073997 0.716 1.94076193933e-39
-0.0265017242777 -0.0954062073997 0.716 8.37281437628e-40
-0.0252118009661 -0.0955394562927 0.717 1.66846442434e-39
-0.0238848640732 -0.0955394562927 0.717 6.64554306059e-39
-0.0226208502686 -0.0958059540787 0.719 5.99764711041e-39
-0.0212902120175 -0.0958059540787 0.719 6.27531299982e-39
-0.0199595737664 -0.0958059540787 0.719 7.28913001798e-39
-0.0186548450223 -0.0959392029717 0.72 5.26012411046e-39
-0.0173223560921 -0.0959392029717 0.72 6.47870726802e-40
-0.0160342834596 -0.0962057007578 0.722 7.20267410663e-43
-0.0147591655806 -0.0966054474368 0.725 3.68541496117e-43
-0.0134544368365 -0.0968719452229 0.727 3.79751883832e-43
-0.0121089931529 -0.0968719452229 0.727 3.23219440016e-39
-0.0107783549018 -0.0970051941159 0.728 5.07894182422e-39
-0.00943106053904 -0.0970051941159 0.728 4.98710072286e-39
-0.00810597432516 -0.0972716919019 0.73 5.17149198259e-39
-0.0067549786043 -0.0972716919019 0.73 4.894905093e-39
-0.00541138559972 -0.0974049407949 0.731 4.70979776976e-39
-0.00405853919979 -0.0974049407949 0.731 4.70979776976e-39
-0.00271309551614 -0.097671438581 0.733 4.89418902949e-39
-0.00136209979528 -0.09807118526 0.736 4.61760354119e-39
0.0 -0.098337683046 0.738 5.07966769682e-39
0.00136765183249 -0.0984709319391 0.739 4.25062028897e-39
0.00273530366497 -0.0984709319391 0.739 4.89420023987e-39
0.00411961160909 -0.0988706786181 0.742 4.6179636749e-39
0.00550762091134 -0.0991371764041 0.744 4.8949078956e-39
0.00690303292987 -0.0994036741902 0.746 3.97152927902e-39
0.00829474359027 -0.0995369230832 0.747 6.73738276064e-39
0.00967720085531 -0.0995369230832 0.747 4.15555620115e-39
0.0110892689855 -0.0998034208692 0.749 4.15448000393e-39
0.0124920837203 -0.0999366697622 0.75 8.3036308698e-39
0.0138800930225 -0.0999366697622 0.75 4.52470025561e-39
0.0153088172643 -0.100203167548 0.752 4.5250701984e-39
0.0167449442224 -0.100469665334 0.754 4.24920918142e-39
0.0181644150688 -0.100602914227 0.755 3.97154048941e-39
0.0196134967804 -0.100869412013 0.757 3.04958419078e-39
0.0210699812082 -0.101135909799 0.759 5.53741164928e-39
0.0224746466221 -0.101135909799 0.759 4.98639586974e-39
0.0239736966685 -0.101535656478 0.762 3.51234899564e-39
0.0254505385661 -0.101802154264 0.764 4.06623183184e-39
0.0268644573753 -0.101802154264 0.764 3.88292237453e-39
0.0283524033474 -0.10206865205 0.766 4.25027697085e-39
0.0297700235147 -0.10206865205 0.766 3.78787930618e-39
0.0312283586216 -0.102201900944 0.767 4.67428326148e-40
0.0327329607053 -0.10246839873 0.769 3.2285916618e-42
0.0341561329098 -0.10246839873 0.769 5.56035230644e-40
0.0355793051144 -0.10246839873 0.769 4.63482269672e-40
0.0370987126306 -0.102734896516 0.771 3.23980204952e-42
0.0386255228631 -0.103001394302 0.773 3.24260464645e-42
0.0402115548258 -0.103401140981 0.776 3.59152796406e-42
0.0416476817839 -0.103401140981 0.776 3.58732406867e-42
0.0431948494861 -0.103667638767 0.778 3.58732406867e-42
0.0446346778023 -0.103667638767 0.778 2.1523944412e-42
0.0460745061185 -0.103667638767 0.778 1.85105921943e-40
0.0476975516626 -0.104067385446 0.781 6.82140601786e-39
-0.088799283121 -0.0955265015392 0.727 2.12015056354e-39
-0.0874538394373 -0.0955265015392 0.727 1.29003676756e-39
-0.0858715088327 -0.0952637051113 0.725 1.38328617386e-39
-0.0845297665072 -0.0952637051113 0.725 9.19834732758e-40
-0.0829585399771 -0.0950009086834 0.723 5.99302843067e-39
-0.0815076075865 -0.0948695104695 0.722 6.17812454353e-39
-0.0799493358098 -0.0946067140416 0.72 8.85182303294e-39
-0.0782892766843 -0.0942125193997 0.717 8.48515927676e-39
-0.0768550004053 -0.0940811211858 0.716 8.20897736243e-39
-0.0755299141914 -0.0940811211858 0.716 4.89102209496e-39
-0.0739975519217 -0.0938183247579 0.714 4.2449380237e-39
-0.072676167066 -0.0938183247579 0.714 4.06054676397e-39
-0.0712548455405 -0.093686926544 0.713 4.06054536267e-39
-0.0699353113638 -0.093686926544 0.713 3.7846745366e-39
-0.0684233065639 -0.0934241301161 0.711 3.14002119107e-39
-0.0670130891128 -0.0932927319021 0.71 6.09845091674e-42
-0.0656991069733 -0.0932927319021 0.71 1.19918918682e-38
-0.0643851248339 -0.0932927319021 0.71 1.73392412028e-38
-0.0630711426944 -0.0932927319021 0.71 1.30053095163e-38
-0.0617571605549 -0.0932927319021 0.71 2.86985925494e-42
-0.060272915941 -0.0930299354742 0.708 2.86233007829e-39
-0.0589626351597 -0.0930299354742 0.708 2.00121227352e-38
-0.0576523543784 -0.0930299354742 0.708 1.76168005935e-38
-0.0563420735971 -0.0930299354742 0.708 1.90930068686e-38
-0.0550317928157 -0.0930299354742 0.708 1.83547621999e-38
-0.0537215120344 -0.0930299354742 0.708 1.199259532e-38
-0.0524112312531 -0.0930299354742 0.708 6.36332715507e-39
-0.0511009504718 -0.0930299354742 0.708 1.21698623783e-38
-0.0497906696904 -0.0930299354742 0.708 1.29052778254e-38
-0.0484803889091 -0.0930299354742 0.708 1.12428936351e-38
-0.0471701081278 -0.0930299354742 0.708 1.14272652766e-38
-0.0458598273464 -0.0930299354742 0.708 1.18907013034e-38
-0.0446753927419 -0.0932927319021 0.71 1.60419863469e-38
-0.0433614106024 -0.0932927319021 0.71 1.82553989284e-38
-0.0420474284629 -0.0932927319021 0.71 2.16698251874e-38
-0.0407334463235 -0.0932927319021 0.71 2.16708915755e-38
-0.039419464184 -0.0932927319021 0.71 2.13039181324e-38
-0.0381591517375 -0.0934241301161 0.711 1.79866845336e-38
-0.036843318919 -0.0934241301161 0.711 1.11649436054e-38
-0.0355274861005 -0.0934241301161 0.711 3.3286920163e-39
-0.0343078885936 -0.093686926544 0.713 6.53610445312e-40
-0.0329883544169 -0.093686926544 0.713 6.45718332361e-42
-0.0316688202402 -0.093686926544 0.713 1.38829441458e-39
-0.0303492860635 -0.093686926544 0.713 2.21589568241e-39
-0.0290704668264 -0.0938183247579 0.714 1.93895566561e-39
-0.0278268104916 -0.0940811211858 0.716 2.03259183029e-39
-0.0265017242777 -0.0940811211858 0.716 7.45087209063e-40
-0.0252118009661 -0.0942125193997 0.717 1.85285708536e-39
-0.0238848640732 -0.0942125193997 0.717 7.19767147111e-39
-0.0226208502686 -0.0944753158276 0.719 8.30076801703e-39
-0.0212902120175 -0.0944753158276 0.719 5.16720961448e-39
-0.0199873339524 -0.0946067140416 0.72 1.11027679925e-39
-0.0186548450223 -0.0946067140416 0.72 1.79366203434e-42
-0.0173704737479 -0.0948695104695 0.722 1.54142831076e-44
-0.0160564916085 -0.0950009086834 0.723 3.83955779225e-43
-0.0147591655806 -0.0952637051113 0.725 2.24207754292e-44
-0.0134544368365 -0.0955265015392 0.727 7.55299872271e-43
-0.0121256492645 -0.0956578997532 0.728 3.600251047e-39
-0.0107783549018 -0.0956578997532 0.728 5.17041298277e-39
-0.00945697004602 -0.095920696181 0.73 5.07893341643e-39
-0.00810597432516 -0.095920696181 0.73 5.07893341643e-39
-0.00676423199965 -0.096052094395 0.731 4.89418622689e-39
-0.00541138559972 -0.096052094395 0.731 5.17077311648e-39
-0.00406964327421 -0.0963148908229 0.733 5.07857748662e-39
-0.00271679687428 -0.0964462890368 0.734 4.89418622689e-39
-0.00136580115342 -0.0969718818926 0.738 4.43321508406e-39
0.0 -0.0971032801066 0.739 4.43285635166e-39
0.00136765183249 -0.0971032801066 0.739 5.17112764499e-39
0.00274270638125 -0.0973660765345 0.741 4.24847069712e-39
0.00413071568351 -0.0977602711763 0.744 4.70979917106e-39
0.0055224263439 -0.0980230676042 0.746 4.70979776976e-39
0.00691228632522 -0.0981544658181 0.747 4.80057388428e-39
0.00829474359027 -0.0981544658181 0.747 8.02812157873e-39
0.00970311036229 -0.098417262246 0.749 4.24775183101e-39
0.011104074418 -0.09854866046 0.75 4.79984661037e-39
0.0125253959435 -0.0988114568879 0.752 7.75082843471e-39
0.0139171066039 -0.0988114568879 0.752 4.70909712053e-39
0.0153495322039 -0.0990742533158 0.754 4.15628767895e-39
0.0167671523712 -0.0992056515297 0.755 3.69530952963e-39
0.0181644150688 -0.0992056515297 0.755 4.70909431793e-39
0.0196653157943 -0.0997312443855 0.759 4.70908310754e-39
0.0211255015803 -0.0999940408134 0.761 6.64446406077e-39
0.0225338683523 -0.0999940408134 0.761 3.88076717749e-39
0.0239736966685 -0.100125439027 0.762 4.15699113078e-39
0.0255171630126 -0.100651031883 0.766 5.0785957035e-39
0.02693478318 -0.100651031883 0.766 4.248127379e-39
0.0283524033474 -0.100651031883 0.766 9.28399468972e-40
