# .PCD v0.7 - Point Cloud Data file format
VERSION 0.7
FIELDS x y z rgb
SIZE 4 4 4 4
TYPE F F F F
COUNT 1 1 1 1
WIDTH 835
HEIGHT 1
VIEWPOINT 0 0 0 1 0 0 0
POINTS 835
DATA ascii
0.00693079311592 -0.0651494552896 0.749 2.21230555575e-39
0.00829474359027 -0.0649754914571 0.747 1.19816623894e-39
0.00967720085531 -0.0649754914571 0.747 2.30629905154e-39
0.0110596581204 -0.0649754914571 0.747 1.6612897762e-39
0.0124254592738 -0.0648885095408 0.746 1.75456580718e-39
0.0137690522784 -0.0647145457083 0.744 1.47762859298e-39
0.0151052425667 -0.0645405818757 0.742 1.84605658392e-39
0.0164784464364 -0.0645405818757 0.742 1.56947249692e-39
0.0178275914781 -0.0644535999594 0.741 1.47799012798e-39
0.0191989446688 -0.0644535999594 0.741 1.29395339676e-39
0.0205702978594 -0.0644535999594 0.741 7.41141152588e-40
0.0218824293198 -0.0642796361269 0.739 5.57112829163e-40
0.0232186196081 -0.0641926542106 0.738 7.41506891487e-40
0.0245844207615 -0.0641926542106 0.738 3.72724372033e-40
0.0258798961103 -0.0640186903781 0.736 3.72368442223e-40
0.0272419959056 -0.0640186903781 0.736 2.51112684807e-42
0.0286818242218 -0.0641926542106 0.738 2.79098016438e-40
0.0300883403147 -0.0642796361269 0.739 9.43508269015e-41
0.0314559921472 -0.0642796361269 0.739 7.17464813734e-43
0.032912476575 -0.0644535999594 0.741 9.31388018207e-39
0.0344226306959 -0.0647145457083 0.744 1.27254744168e-38
0.0361844771702 -0.0654104010385 0.752 1.22637914144e-38
-0.0938571890184 -0.0685306459499 0.805 2.35095268827e-38
-0.0923673923673 -0.0685306459499 0.805 2.35088094179e-38
-0.0908775957162 -0.0685306459499 0.805 2.350988001e-38
-0.0891657175768 -0.0683603834755 0.803 2.3418050119e-38
-0.0876796222838 -0.0683603834755 0.803 2.28670343394e-38
-0.0861935269909 -0.0683603834755 0.803 6.64211128065e-39
-0.0847074316979 -0.0683603834755 0.803 6.500623576e-42
-0.0831176983771 -0.0682752522383 0.802 5.71969535612e-39
-0.0816334537632 -0.0682752522383 0.802 6.36360881606e-39
-0.0801492091493 -0.0682752522383 0.802 7.47067524053e-39
-0.0784687925541 -0.0681049897639 0.8 8.94580251574e-39
-0.0766033080518 -0.0677644648151 0.796 7.10116264458e-39
-0.0751301675124 -0.0677644648151 0.796 1.04173172435e-38
-0.0734719590659 -0.0675942023407 0.794 1.16122548908e-38
-0.0720025198846 -0.0675942023407 0.794 1.07796117511e-38
-0.0703554155126 -0.0674239398663 0.792 1.06845420581e-38
-0.0688896776894 -0.0674239398663 0.792 8.75023169687e-39
-0.0672536773918 -0.0672536773918 0.79 1.07803362224e-38
-0.0657916409268 -0.0672536773918 0.79 1.19795982767e-38
-0.0642481745827 -0.0671685461546 0.789 8.93642642772e-39
-0.0627879887967 -0.0671685461546 0.789 6.17127359534e-39
-0.0611723459689 -0.0669982836802 0.787 6.82131913735e-39
-0.0597158615411 -0.0669982836802 0.787 7.01038372746e-39
-0.0581113227877 -0.0668280212058 0.785 6.36645345194e-39
-0.0565141867505 -0.0666577587314 0.783 6.36680938175e-39
-0.055065105039 -0.0666577587314 0.783 6.82706165846e-39
-0.0534790730763 -0.066487496257 0.781 6.73414576119e-39
-0.0520336927229 -0.066487496257 0.781 7.01036691188e-39
-0.050523538602 -0.0664023650198 0.78 6.54866288996e-39
-0.0490800089277 -0.0664023650198 0.78 6.73269401598e-39
-0.0473921896161 -0.066061840071 0.776 7.37698302391e-39
-0.0459560626581 -0.066061840071 0.776 1.05112687004e-38
-0.0445199357 -0.066061840071 0.776 1.06949438966e-38
-0.0429727679978 -0.0658915775966 0.774 1.00477808255e-38
-0.0415403423978 -0.0658915775966 0.774 1.02314448113e-38
-0.040056097784 -0.0658064463594 0.773 7.83435703357e-39
-0.0386255228631 -0.0658064463594 0.773 1.0323982358e-38
-0.0370987126306 -0.065636183885 0.771 1.05087393566e-38
-0.0356718390679 -0.065636183885 0.771 7.83543743469e-39
-0.0341561329098 -0.0654659214105 0.769 7.19007363084e-39
-0.0327329607053 -0.0654659214105 0.769 9.86374409428e-39
-0.0313097885007 -0.0654659214105 0.769 6.63726699186e-39
-0.0298088877752 -0.0652956589361 0.767 9.31273111733e-39
-0.0283894169288 -0.0652956589361 0.767 8.6684463133e-39
-0.02693478318 -0.0652105276989 0.766 6.64123266651e-39
-0.0254505385661 -0.0650402652245 0.764 5.53525505094e-39
-0.0240366197569 -0.0650402652245 0.764 4.6133085614e-39
-0.0226227009477 -0.0650402652245 0.764 5.35086238992e-39
-0.0212087821384 -0.0650402652245 0.764 5.25866395746e-39
-0.0197430443153 -0.0648700027501 0.762 5.62888841303e-39
-0.0183328268642 -0.0648700027501 0.762 4.8016444763e-39
-0.0169226094131 -0.0648700027501 0.762 4.24883083083e-39
-0.015512391962 -0.0648700027501 0.762 4.61761475158e-39
-0.0140836677202 -0.0647848715129 0.761 4.43322629445e-39
-0.0126753009482 -0.0647848715129 0.761 3.97224814514e-39
-0.011237323311 -0.0646146090385 0.759 4.33528113699e-39
-0.00983265789716 -0.0646146090385 0.759 4.14838155301e-39
-0.00838357618561 -0.0642740840897 0.755 5.07105811906e-39
-0.00698631348801 -0.0642740840897 0.755 3.78283323041e-39
-0.00558905079041 -0.0642740840897 0.755 4.98171693416e-39
-0.0041862360556 -0.0641889528525 0.754 6.36251300066e-39
-0.00279082403706 -0.0641889528525 0.754 3.04348573986e-39
-0.00139541201853 -0.0641889528525 0.754 7.6546643276e-39
0.0 -0.0640186903781 0.752 6.54005471349e-39
0.00138800930225 -0.0638484279037 0.75 7.09395576657e-39
0.00277601860451 -0.0638484279037 0.75 4.05582859204e-39
0.00415847586955 -0.0637632966664 0.749 8.482296424e-39
0.00554463449273 -0.0637632966664 0.749 3.5941399844e-39
0.00693079311592 -0.0637632966664 0.749 9.12371557267e-39
0.0083169517391 -0.0637632966664 0.749 7.18760734554e-39
0.00967720085531 -0.063593034192 0.747 3.03953968339e-39
0.0110596581204 -0.063593034192 0.747 1.75133161033e-39
0.0124421153854 -0.063593034192 0.747 1.29179539713e-39
0.0138060658597 -0.0635079029548 0.746 1.75312527236e-39
0.0151459575062 -0.0633376404804 0.744 2.21589568241e-39
0.016522862734 -0.0633376404804 0.744 1.7552804694e-39
0.017851650306 -0.063167378006 0.742 1.20283396412e-39
0.0191989446688 -0.0630822467688 0.741 7.41869827789e-40
0.0205702978594 -0.0630822467688 0.741 5.5784570826e-40
0.02194165105 -0.0630822467688 0.741 6.49311261623e-40
0.0233130042406 -0.0630822467688 0.741 1.01701197866e-39
0.0245844207615 -0.0628268530572 0.738 6.48232261806e-40
0.0259502219149 -0.0628268530572 0.738 5.56039434539e-40
0.0273160230683 -0.0628268530572 0.738 3.71292245003e-40
0.0287206884822 -0.0629119842944 0.739 4.63487874866e-40
0.0301697701938 -0.0630822467688 0.741 2.51112684807e-42
0.031583689003 -0.063167378006 0.742 2.86985925494e-42
0.0329568928727 -0.063167378006 0.742 1.01450715766e-38
0.0345151646494 -0.0635079029548 0.746 1.29098614727e-38
0.0361844771702 -0.0640186903781 0.752 1.20797518806e-38
-0.0940903745811 -0.0672074104151 0.807 2.35095268827e-38
-0.0925968765719 -0.0672074104151 0.807 2.35088094179e-38
-0.0911033785627 -0.0672074104151 0.807 2.350988001e-38
-0.0893877990651 -0.0670408492988 0.805 2.3418050119e-38
-0.087898002414 -0.0670408492988 0.805 2.29588698356e-38
-0.0864082057629 -0.0670408492988 0.805 7.93177109892e-39
-0.0847074316979 -0.0668742881826 0.803 4.34122264248e-42
-0.083221336405 -0.0668742881826 0.803 8.39480775568e-39
-0.0816334537632 -0.0667910076244 0.802 9.3153109078e-39
-0.0801492091493 -0.0667910076244 0.802 8.76285038954e-39
-0.0786649645354 -0.0667910076244 0.802 8.11783691031e-39
-0.0767957786751 -0.0664578853919 0.798 9.5911607144e-39
-0.0751301675124 -0.0662913242756 0.796 9.86486233045e-39
-0.0736570269729 -0.0662913242756 0.796 9.8612567895e-39
-0.0720025198846 -0.0661247631593 0.794 1.04126270976e-38
-0.0705330807033 -0.0661247631593 0.794 1.22536600265e-38
-0.0688896776894 -0.0659582020431 0.792 1.38199095369e-38
-0.0674239398663 -0.0659582020431 0.792 1.26210118202e-38
-0.0657916409268 -0.0657916409268 0.79 1.16068654969e-38
-0.0642481745827 -0.0657083603687 0.789 1.20685667162e-38
-0.0627879887967 -0.0657083603687 0.789 1.40983027002e-38
-0.0613278030108 -0.0657083603687 0.789 1.15218557256e-38
-0.0597158615411 -0.0655417992524 0.787 6.82418759531e-39
-0.0581113227877 -0.0653752381361 0.785 6.82562672883e-39
-0.0565141867505 -0.0652086770199 0.783 6.27316901317e-39
-0.055065105039 -0.0652086770199 0.783 6.73414576119e-39
-0.0534790730763 -0.0650421159036 0.781 6.55010762867e-39
-0.0520336927229 -0.0650421159036 0.781 6.27351793649e-39
-0.0505883123695 -0.0650421159036 0.781 6.45790919621e-39
-0.0490800089277 -0.0649588353455 0.78 7.01072284169e-39
-0.0476364792533 -0.0649588353455 0.78 6.54938876256e-39
-0.0459560626581 -0.0646257131129 0.776 6.36319543301e-39
-0.0445199357 -0.0646257131129 0.776 7.56100854473e-39
-0.0430838087419 -0.0646257131129 0.776 7.56029528381e-39
-0.0415403423978 -0.0644591519966 0.774 7.46702065413e-39
-0.0401079167979 -0.0644591519966 0.774 7.65176223848e-39
-0.0386255228631 -0.0643758714385 0.773 1.04179856629e-38
-0.0371949479422 -0.0643758714385 0.773 8.94250105656e-39
-0.0357643730214 -0.0643758714385 0.773 6.82273164621e-39
-0.0342449655052 -0.0642093103222 0.771 8.75704481e-39
-0.0327329607053 -0.064042749206 0.769 1.11534067151e-38
-0.0313097885007 -0.064042749206 0.769 7.00568517371e-39
-0.0298866162961 -0.064042749206 0.769 9.8644559539e-39
-0.0284634440915 -0.064042749206 0.769 8.48260190706e-39
-0.0269699460823 -0.0638761880897 0.767 6.26992500722e-39
-0.0255171630126 -0.0637929075316 0.766 7.37592644486e-39
-0.0240366197569 -0.0636263464153 0.764 9.12801755896e-39
-0.0226227009477 -0.0636263464153 0.764 9.58897749139e-39
-0.0212087821384 -0.0636263464153 0.764 6.91638042258e-39
-0.0197948633292 -0.0636263464153 0.764 5.07391116273e-39
-0.0183328268642 -0.063459785299 0.762 5.2604562182e-39
-0.0169226094131 -0.063459785299 0.762 5.17042139056e-39
-0.015512391962 -0.063459785299 0.762 4.43357802037e-39
-0.0141021745109 -0.063459785299 0.762 4.61761335028e-39
-0.0126919570598 -0.063459785299 0.762 4.43322209056e-39
-0.0112669341762 -0.0633765047409 0.761 9.59112428064e-39
-0.00985856740414 -0.0633765047409 0.761 1.02332749071e-38
-0.00842799248328 -0.0632099436246 0.759 3.96363436348e-39
-0.0070048202787 -0.0630433825083 0.757 3.78139830079e-39
-0.00558905079041 -0.0628768213921 0.755 4.79768720944e-39
-0.0041917880928 -0.0628768213921 0.755 2.309160503e-39
-0.0027945253952 -0.0628768213921 0.755 3.50660927713e-39
-0.00139541201853 -0.0627935408339 0.754 5.71999803659e-39
0.0 -0.0627935408339 0.754 6.90991343016e-39
0.00139171066039 -0.0626269797177 0.752 9.67614666366e-39
0.00278342132079 -0.0626269797177 0.752 8.11242369434e-39
0.00416402790676 -0.0624604186014 0.75 7.09971370196e-39
0.00555203720901 -0.0624604186014 0.75 4.33169381292e-39
0.00694004651127 -0.0624604186014 0.75 7.18651573404e-39
0.0083169517391 -0.0623771380433 0.749 4.51249494598e-39
0.00970311036229 -0.0623771380433 0.749 7.74076290784e-39
0.0110596581204 -0.062210576927 0.747 6.54438612704e-39
0.0124421153854 -0.062210576927 0.747 6.08341918811e-39
0.0138245726504 -0.062210576927 0.747 3.41083613228e-39
0.0151866724457 -0.0621272963689 0.746 6.45000867547e-40
0.016522862734 -0.0619607352526 0.744 1.19924523875e-39
0.017851650306 -0.0617941741363 0.742 1.10884607352e-39
0.0192248541757 -0.0617941741363 0.742 1.10955933444e-39
0.0205702978594 -0.0617108935782 0.741 1.20318849263e-39
0.02194165105 -0.0617108935782 0.741 8.32617916339e-40
0.0233130042406 -0.0617108935782 0.741 1.29215553083e-39
0.0246177329848 -0.0615443324619 0.739 8.31901852823e-40
0.0259853848173 -0.0615443324619 0.739 7.40427891669e-40
0.0274270638125 -0.0617108935782 0.741 5.56039434539e-40
0.0287984170032 -0.0617108935782 0.741 3.72368442223e-40
0.0302104851333 -0.0617941741363 0.742 3.2285916618e-42
0.031583689003 -0.0617941741363 0.742 3.73090110933e-40
0.033045725468 -0.0619607352526 0.744 1.16201988518e-38
0.0345614316261 -0.062210576927 0.747 1.30946058596e-38
0.0361844771702 -0.0626269797177 0.752 1.16187709287e-38
0.037826029505 -0.0630433825083 0.757 1.25403741001e-38
0.0429172476257 -0.0643758714385 0.773 1.29091566195e-38
0.0443478225465 -0.0643758714385 0.773 1.31853917832e-38
0.0457783974674 -0.0643758714385 0.773 1.23585079802e-38
-0.0925968765719 -0.0657139124059 0.807 2.35088094179e-38
-0.0911033785627 -0.0657139124059 0.807 2.350988001e-38
-0.0896098805535 -0.0657139124059 0.807 2.35098856151e-38
-0.0881163825442 -0.0657139124059 0.807 2.28666714031e-38
-0.0864082057629 -0.0655510526477 0.805 9.58985330293e-39
-0.0849184091119 -0.0655510526477 0.805 2.18322300742e-42
-0.083221336405 -0.0653881928896 0.803 8.5792004167e-39
-0.081735241112 -0.0653881928896 0.803 8.76357766344e-39
-0.0802491458191 -0.0653881928896 0.803 7.935250523e-39
-0.0786649645354 -0.0653067630106 0.802 8.39658179953e-39
-0.0769882492983 -0.0651439032524 0.8 9.04086520227e-39
-0.0753189367775 -0.0649810434943 0.798 8.3933293858e-39
-0.0736570269729 -0.0648181837362 0.796 9.22056631603e-39
-0.0721838864334 -0.0648181837362 0.796 1.07857312215e-38
-0.0705330807033 -0.064655323978 0.794 1.10579965066e-38
-0.069063641522 -0.064655323978 0.794 1.20692743719e-38
-0.0674239398663 -0.0644924642199 0.792 9.39272844406e-39
-0.0657916409268 -0.0643296044618 0.79 7.4551880899e-39
-0.0643296044618 -0.0643296044618 0.79 8.47041901821e-39
-0.0627879887967 -0.0642481745827 0.789 1.00416977889e-38
-0.0613278030108 -0.0642481745827 0.789 9.49355326987e-39
-0.0598676172248 -0.0642481745827 0.789 7.56031770459e-39
-0.0582593771132 -0.0640853148246 0.787 7.10149054842e-39
-0.056658539718 -0.0639224550664 0.785 6.64158999762e-39
-0.0552057566483 -0.0639224550664 0.785 6.91817408461e-39
-0.0536160233274 -0.0637595953083 0.783 7.93303927403e-39
-0.0521669416159 -0.0637595953083 0.783 7.47278279342e-39
-0.0505883123695 -0.0635967355502 0.781 6.73521775451e-39
-0.049142932016 -0.0635967355502 0.781 7.01145151689e-39
-0.0476364792533 -0.0635153056711 0.78 6.55047476887e-39
-0.0460745061185 -0.063352445913 0.778 6.82632737807e-39
-0.0446346778023 -0.063352445913 0.778 7.10291426766e-39
-0.0430838087419 -0.0631895861548 0.776 6.4571931327e-39
-0.0416476817839 -0.0631895861548 0.776 6.91817128201e-39
-0.0401079167979 -0.0630267263967 0.774 6.91852440923e-39
-0.038675491198 -0.0630267263967 0.774 8.76279153501e-39
-0.0372430655981 -0.0630267263967 0.774 7.19511129882e-39
-0.0357643730214 -0.0629452965177 0.773 7.10256534434e-39
-0.0343337981005 -0.0629452965177 0.773 7.65178325795e-39
-0.0328180919425 -0.0627824367595 0.771 1.06931502345e-38
-0.0313912183798 -0.0627824367595 0.771 6.91420840996e-39
-0.029964344817 -0.0627824367595 0.771 1.01413987733e-38
-0.0284634440915 -0.0626195770014 0.769 7.37553828519e-39
-0.027040271887 -0.0626195770014 0.769 8.11239006318e-39
-0.0255171630126 -0.0623752873642 0.766 1.18917074357e-38
-0.0240995428453 -0.0623752873642 0.766 9.77158209558e-39
-0.0226819226779 -0.0623752873642 0.766 7.09753328155e-39
-0.0212087821384 -0.0622124276061 0.764 9.77263867462e-39
-0.0197948633292 -0.0622124276061 0.764 8.29966939904e-39
-0.01838094452 -0.0622124276061 0.764 5.53595850277e-39
-0.0169226094131 -0.0620495678479 0.762 5.5377619739e-39
-0.015512391962 -0.0620495678479 0.762 4.80127873741e-39
-0.0141021745109 -0.0620495678479 0.762 4.98603013084e-39
-0.0126919570598 -0.0620495678479 0.762 4.61725041398e-39
-0.0112669341762 -0.0619681379689 0.761 3.87574492379e-39
-0.00985856740414 -0.0619681379689 0.761 9.03543657202e-39
-0.00842799248328 -0.0618052782107 0.759 9.95594813193e-39
-0.0070048202787 -0.0616424184526 0.757 4.1480228206e-39
-0.00560385622296 -0.0616424184526 0.757 4.79662222261e-39
-0.00420289216722 -0.0616424184526 0.757 3.32401448203e-39
-0.0027945253952 -0.0614795586945 0.755 3.69279139629e-39
-0.0013972626976 -0.0614795586945 0.755 4.6125812875e-39
0.0 -0.0613981288154 0.754 5.16000694038e-39
0.00139541201853 -0.0613981288154 0.754 4.23949958436e-39
0.00278342132079 -0.0612352690573 0.752 2.95272644092e-39
0.00417513198118 -0.0612352690573 0.752 5.3508778042e-39
0.00555203720901 -0.0610724092991 0.75 7.19227366943e-39
0.00694004651127 -0.0610724092991 0.75 4.23949958436e-39
0.0083169517391 -0.0609909794201 0.749 8.01807286744e-39
0.00970311036229 -0.0609909794201 0.749 7.37341952191e-39
0.0110892689855 -0.0609909794201 0.749 8.38542746376e-39
0.0124754276087 -0.0609909794201 0.749 2.20835669667e-39
0.0138245726504 -0.0608281196619 0.747 8.01771833893e-39
0.0152070299155 -0.0608281196619 0.747 3.22428687292e-39
0.0165672790317 -0.0607466897829 0.746 6.72914032307e-39
0.0178997679619 -0.0605838300248 0.744 3.59450011811e-39
0.0192248541757 -0.0604209702666 0.742 5.52447906575e-40
0.0205980580454 -0.0604209702666 0.742 1.38255469607e-39
0.02194165105 -0.0603395403876 0.741 1.29143666472e-39
0.0233130042406 -0.0603395403876 0.741 1.75276794125e-39
0.0246843574313 -0.0603395403876 0.741 6.46794529581e-40
0.0260557106219 -0.0603395403876 0.741 6.47513395694e-40
0.0274270638125 -0.0603395403876 0.741 9.50640878198e-41
0.0287984170032 -0.0603395403876 0.741 2.8052874217e-40
0.0302104851333 -0.0604209702666 0.742 4.30478888241e-42
0.0316688202402 -0.0605838300248 0.744 5.57475765465e-40
0.0331345580634 -0.0607466897829 0.746 1.18971416712e-38
0.0346539655796 -0.0609909794201 0.749 1.23570408207e-38
0.0361844771702 -0.0612352690573 0.752 1.21719447078e-38
0.037826029505 -0.0616424184526 0.757 1.20793973521e-38
0.0396933646863 -0.0623752873642 0.766 1.23563387702e-38
0.0412719939327 -0.0626195770014 0.769 1.29095097467e-38
0.0426951661373 -0.0626195770014 0.769 1.33701347688e-38
0.0442330804442 -0.0627824367595 0.771 1.28166092637e-38
0.0457783974674 -0.0629452965177 0.773 1.21730377206e-38
-0.0928263607766 -0.0643795727966 0.809 2.35091681503e-38
-0.0913291614092 -0.0643795727966 0.809 2.350988001e-38
-0.0898319620418 -0.0643795727966 0.809 2.35098856151e-38
-0.0883347626745 -0.0643795727966 0.809 2.32343763241e-38
-0.086622884535 -0.0642204143967 0.807 1.10628253811e-38
-0.0851293865258 -0.0642204143967 0.807 2.78414182787e-40
-0.0834286124608 -0.0640612559967 0.805 8.85219717963e-39
-0.0819388158097 -0.0640612559967 0.805 8.76178540271e-39
-0.0802491458191 -0.0639020975967 0.803 8.21040248297e-39
-0.0787630505261 -0.0639020975967 0.803 8.02744335027e-39
-0.0771807199216 -0.0638225183967 0.802 7.19911340723e-39
-0.0755077060426 -0.0636633599967 0.8 8.11998089696e-39
-0.0738420948799 -0.0635042015967 0.798 8.85610540104e-39
-0.0721838864334 -0.0633450431967 0.796 9.22344598438e-39
-0.070710745894 -0.0633450431967 0.796 1.04169543072e-38
-0.069063641522 -0.0631858847967 0.794 8.38325545114e-39
-0.0675942023407 -0.0631858847967 0.794 8.65444734164e-39
-0.0659582020431 -0.0630267263967 0.792 1.09571800886e-38
-0.0643296044618 -0.0628675679967 0.79 1.29880020789e-38
-0.0628675679967 -0.0628675679967 0.79 9.21337625361e-39
-0.0613278030108 -0.0627879887967 0.789 7.92659330109e-39
-0.0598676172248 -0.0627879887967 0.789 7.744360041e-39
-0.0582593771132 -0.0626288303967 0.787 7.00894459394e-39
-0.0568028926854 -0.0626288303967 0.787 6.54903983924e-39
-0.0552057566483 -0.0624696719967 0.785 6.64195013132e-39
-0.0537529735786 -0.0624696719967 0.785 7.10328140785e-39
-0.0523001905089 -0.0624696719967 0.785 7.38023123375e-39
-0.0507178599043 -0.0623105135968 0.783 7.10472614657e-39
-0.049142932016 -0.0621513551968 0.781 7.56534976738e-39
-0.0476975516626 -0.0621513551968 0.781 6.82815046737e-39
-0.046192949579 -0.0620717759968 0.78 6.82740777918e-39
-0.0447494199046 -0.0620717759968 0.78 6.91960621164e-39
-0.0433058902303 -0.0620717759968 0.78 6.64339066615e-39
-0.0417550211699 -0.0619126175968 0.778 6.2753298154e-39
-0.0402115548258 -0.0617534591968 0.776 6.46115180086e-39
-0.0387754278677 -0.0617534591968 0.776 5.90797241649e-39
-0.0372430655981 -0.0615943007968 0.774 6.27567873872e-39
-0.0358106399981 -0.0615943007968 0.774 6.18241251683e-39
-0.0343782143982 -0.0615943007968 0.774 7.28623353406e-39
-0.0329032231797 -0.0615147215968 0.773 1.06953082342e-38
-0.0314726482588 -0.0615147215968 0.773 8.48296484337e-39
-0.030042073338 -0.0615147215968 0.773 1.06960158899e-38
-0.0285374712543 -0.0613555631968 0.771 7.46844997857e-39
-0.027040271887 -0.0611964047968 0.769 9.21873762154e-39
-0.0256170996824 -0.0611964047968 0.769 9.21838869822e-39
-0.0241310043894 -0.0610372463968 0.767 7.09681861934e-39
-0.022711533543 -0.0610372463968 0.767 6.72766755839e-39
-0.0212643025105 -0.0609576671968 0.766 8.20423116453e-39
-0.0198466823432 -0.0609576671968 0.766 7.46810806174e-39
-0.01838094452 -0.0607985087968 0.764 5.53416484074e-39
-0.0169226094131 -0.0606393503968 0.762 5.16754032092e-39
-0.015512391962 -0.0606393503968 0.762 5.90582842984e-39
-0.0141021745109 -0.0606393503968 0.762 5.35301758696e-39
-0.0126919570598 -0.0606393503968 0.762 4.9842350675e-39
-0.0112817396087 -0.0606393503968 0.762 5.44306923017e-39
-0.00985856740414 -0.0605597711968 0.761 7.10039753561e-39
-0.00845020063212 -0.0605597711968 0.761 1.12455855294e-38
-0.0070233270694 -0.0604006127969 0.759 9.03184784665e-39
-0.00561866165552 -0.0604006127969 0.759 3.31970969315e-39
-0.00420289216722 -0.0602414543969 0.757 3.87718405732e-39
-0.00280192811148 -0.0602414543969 0.757 3.96865661717e-39
-0.00140096405574 -0.0602414543969 0.757 7.65216721373e-39
0.0 -0.0600822959969 0.755 9.12586376322e-39
0.0013972626976 -0.0600822959969 0.755 3.87431279676e-39
0.00279082403706 -0.0600027167969 0.754 2.77156657546e-39
0.0041862360556 -0.0600027167969 0.754 2.31095416504e-39
0.00556684264157 -0.0598435583969 0.752 3.13855263028e-39
0.00695855330196 -0.0598435583969 0.752 5.80898889686e-39
0.00832805581352 -0.0596843999969 0.75 5.25545218138e-39
0.00970311036229 -0.0596048207969 0.749 7.83764588107e-39
0.0110892689855 -0.0596048207969 0.749 4.3306176157e-39
0.0124754276087 -0.0596048207969 0.749 7.27978195593e-39
0.0138615862318 -0.0596048207969 0.749 7.2790743002e-39
0.0152070299155 -0.0594456623969 0.747 9.12263657285e-39
0.0165894871805 -0.0594456623969 0.747 3.03882221857e-39
0.0179478856177 -0.0593660831969 0.746 8.38507293525e-39
0.0192766731897 -0.0592069247969 0.744 8.47762309362e-39
0.0205980580454 -0.0590477663969 0.742 2.20943289389e-39
0.0219712619151 -0.0590477663969 0.742 4.14767950248e-39
0.0233444657848 -0.0590477663969 0.742 2.21230555575e-39
0.0246843574313 -0.0589681871969 0.741 1.29107793231e-39
0.0260557106219 -0.0589681871969 0.741 1.38435536459e-39
0.0274640773939 -0.0590477663969 0.742 7.40427891669e-40
0.0288372812636 -0.0590477663969 0.742 6.49311261623e-40
0.0302919150124 -0.0592069247969 0.744 4.66352128927e-42
0.0317539514774 -0.0593660831969 0.746 1.01952450681e-39
0.0331789743611 -0.0594456623969 0.747 1.24499595206e-38
0.0346539655796 -0.0596048207969 0.749 1.25410789532e-38
0.0362807124818 -0.0600027167969 0.754 1.22637872105e-38
0.0379259661748 -0.0604006127969 0.759 1.18950088949e-38
0.0396933646863 -0.0609576671968 0.766 1.25403741001e-38
0.0412719939327 -0.0611964047968 0.769 1.28173169195e-38
0.0426951661373 -0.0611964047968 0.769 1.25403741001e-38
0.0442330804442 -0.0613555631968 0.771 1.27244136339e-38
0.0457783974674 -0.0615147215968 0.773 1.38321961219e-38
0.0472089723882 -0.0615147215968 0.773 1.19875758689e-38
-0.0928263607766 -0.0628823734293 0.809 2.35095268827e-38
-0.0913291614092 -0.0628823734293 0.809 2.350988001e-38
-0.0898319620418 -0.0628823734293 0.809 2.35098856151e-38
-0.0883347626745 -0.0628823734293 0.809 2.35098828126e-38
-0.0868375633071 -0.0628823734293 0.809 1.40105688047e-38
-0.0851293865258 -0.0627269163874 0.807 9.20905324785e-40
-0.0836358885166 -0.0627269163874 0.807 1.06910791154e-38
-0.0821423905073 -0.0627269163874 0.807 1.07836236686e-38
-0.0804490191586 -0.0625714593456 0.805 9.58830626943e-39
-0.0787630505261 -0.0624160023037 0.803 7.65578676767e-39
-0.0772769552332 -0.0624160023037 0.803 7.47390523349e-39
-0.0756964753077 -0.0623382737828 0.802 7.29058596709e-39
-0.0740271627868 -0.0621828167409 0.8 7.28986429838e-39
-0.0723652529823 -0.0620273596991 0.798 8.11926483344e-39
-0.070710745894 -0.0618719026572 0.796 9.40605339116e-39
-0.0692376053545 -0.0618719026572 0.796 1.0229340061e-38
-0.0675942023407 -0.0617164456154 0.794 9.48457094671e-39
-0.0661247631593 -0.0617164456154 0.794 1.14181526327e-38
-0.0644924642199 -0.0615609885735 0.792 1.01317298139e-38
-0.0628675679967 -0.0614055315317 0.79 7.55636884552e-39
-0.0614055315317 -0.0614055315317 0.79 7.1908345359e-39
-0.0598676172248 -0.0613278030108 0.789 7.09972771495e-39
-0.0584074314388 -0.0613278030108 0.789 6.91712030817e-39
-0.0568028926854 -0.0611723459689 0.787 6.45721134958e-39
-0.0553464082576 -0.0611723459689 0.787 6.64195433522e-39
-0.0538899238298 -0.0611723459689 0.787 6.27388647798e-39
-0.0523001905089 -0.0610168889271 0.785 7.01145151689e-39
-0.0508474074392 -0.0610168889271 0.785 6.64339066615e-39
-0.0492687781928 -0.0608614318852 0.783 7.01182286098e-39
-0.0476975516626 -0.0607059748433 0.781 7.28841395447e-39
-0.0462521713092 -0.0607059748433 0.781 7.93303927403e-39
-0.0447494199046 -0.0606282463224 0.78 7.10363453507e-39
-0.0433058902303 -0.0606282463224 0.78 6.36680377656e-39
-0.041862360556 -0.0606282463224 0.78 6.18421038276e-39
-0.0403151928537 -0.0604727892806 0.778 6.3689533684e-39
-0.0387754278677 -0.0603173322387 0.776 6.09271820472e-39
-0.0373393009097 -0.0603173322387 0.776 6.55261875552e-39
-0.0359031739516 -0.0603173322387 0.776 6.27495987261e-39
-0.0343782143982 -0.0601618751969 0.774 6.55046075589e-39
-0.0329457887983 -0.0601618751969 0.774 6.64193611834e-39
-0.0315133631984 -0.0601618751969 0.774 6.18024190551e-39
-0.030042073338 -0.0600841466759 0.773 1.03283235806e-38
-0.0286114984171 -0.0600841466759 0.773 8.3911363537e-39
-0.0271105976916 -0.0599286896341 0.771 8.20602903046e-39
-0.0256170996824 -0.0597732325922 0.769 8.5740954864e-39
-0.0241939274778 -0.0597732325922 0.769 6.08374288806e-39
-0.022711533543 -0.0596177755504 0.767 8.20279203101e-39
-0.0212920626966 -0.0596177755504 0.767 1.12463268163e-38
-0.0198466823432 -0.0595400470295 0.766 8.5740954864e-39
-0.0184290621758 -0.0595400470295 0.766 7.46990873027e-39
-0.0169670257107 -0.0593845899876 0.764 8.20891570529e-39
-0.0155531069015 -0.0593845899876 0.764 5.53560677686e-39
-0.0141391880923 -0.0593845899876 0.764 5.1664683276e-39
-0.0126919570598 -0.0592291329458 0.762 5.44305801978e-39
-0.0112817396087 -0.0592291329458 0.762 4.79913194816e-39
-0.00987152215763 -0.0592291329458 0.762 9.22089702247e-39
-0.00845020063212 -0.0591514044248 0.761 7.27939800015e-39
-0.0070418338601 -0.0591514044248 0.761 1.04133291481e-38
-0.00563346708808 -0.0591514044248 0.761 7.55961425276e-39
-0.00421399624164 -0.058995947383 0.759 4.33745174831e-39
-0.00280933082776 -0.058995947383 0.759 4.05941731741e-39
-0.00140466541388 -0.058995947383 0.759 9.58611183603e-39
0.0 -0.0588404903411 0.757 7.74292651267e-39
0.0013972626976 -0.0586850332993 0.755 3.22895039421e-39
0.0027945253952 -0.0586850332993 0.755 2.6797324806e-39
0.0041917880928 -0.0586850332993 0.755 2.21947740129e-39
0.00558164807413 -0.0586073047783 0.754 2.95560470797e-39
0.00697706009266 -0.0586073047783 0.754 2.49139656569e-39
0.00835026396236 -0.0584518477365 0.752 1.84567823333e-39
0.00971606511577 -0.0582963906946 0.75 8.02348328081e-39
0.011104074418 -0.0582963906946 0.75 4.14875009451e-39
0.0124754276087 -0.0582186621737 0.749 3.87144293751e-39
0.0138615862318 -0.0582186621737 0.749 2.85694488829e-39
0.015247744855 -0.0582186621737 0.749 7.37414679581e-39
0.0165894871805 -0.0580632051319 0.747 6.08196604161e-39
0.0179719444456 -0.0580632051319 0.747 3.68310562131e-39
0.0193284922036 -0.0579854766109 0.746 7.7389762523e-39
0.0206535784175 -0.0578300195691 0.744 8.19959847181e-39
0.0219712619151 -0.0576745625272 0.742 6.35893688698e-39
0.0233444657848 -0.0576745625272 0.742 4.05585241411e-39
0.0247176696545 -0.0576745625272 0.742 1.38255469607e-39
0.0260908735242 -0.0576745625272 0.742 1.01485397903e-39
0.0274640773939 -0.0576745625272 0.742 9.24100285284e-40
0.0288372812636 -0.0576745625272 0.742 7.4150408889e-40
0.0302919150124 -0.0578300195691 0.744 4.30478888241e-42
0.0317539514774 -0.0579854766109 0.746 2.31133952212e-39
0.0331345580634 -0.0579854766109 0.746 1.25421593543e-38
0.0346539655796 -0.0582186621737 0.749 1.24485315974e-38
0.0362807124818 -0.0586073047783 0.754 1.2540378304e-38
0.0379259661748 -0.058995947383 0.759 1.22634382872e-38
0.0395897266584 -0.0593845899876 0.764 1.30935520831e-38
0.0410036454676 -0.0593845899876 0.764 1.28169609897e-38
0.0429727679978 -0.0601618751969 0.774 1.24481798715e-38
0.0446346778023 -0.0604727892806 0.778 1.33697830429e-38
0.046192949579 -0.0606282463224 0.78 1.3923308548e-38
0.0476364792533 -0.0606282463224 0.78 1.07883054068e-38
-0.0915549442557 -0.0615369297456 0.811 2.350988001e-38
-0.0900540435302 -0.0615369297456 0.811 2.3509166749e-38
-0.0885531428047 -0.0615369297456 0.811 2.35095240801e-38
-0.0868375633071 -0.0613851740619 0.809 1.59452378983e-38
-0.0853403639397 -0.0613851740619 0.809 2.30132304069e-39
-0.0838431645724 -0.0613851740619 0.809 9.30239373856e-39
-0.0821423905073 -0.0612334183782 0.807 1.20678912904e-38
-0.0806488924981 -0.0612334183782 0.807 1.2625372661e-38
-0.0789592225075 -0.0610816626945 0.805 8.75818126306e-39
-0.0772769552332 -0.0609299070108 0.803 7.83945215479e-39
-0.0756964753077 -0.0608540291689 0.802 7.6568545571e-39
-0.0742122306938 -0.0608540291689 0.802 8.02671607637e-39
-0.0725466195311 -0.0607022734852 0.8 7.38134666732e-39
-0.0708884110847 -0.0605505178015 0.798 7.93237365726e-39
-0.0692376053545 -0.0603987621178 0.796 9.58505805959e-39
-0.0677644648151 -0.0603987621178 0.796 1.20667702516e-38
-0.0661247631593 -0.0602470064341 0.794 1.3815956474e-38
-0.064655323978 -0.0602470064341 0.794 8.84242452414e-39
-0.0630267263967 -0.0600952507504 0.792 6.08267790123e-39
-0.0615609885735 -0.0600952507504 0.792 5.71714919681e-39
-0.0599434950666 -0.0599434950666 0.79 6.08630586295e-39
-0.0584074314388 -0.0598676172248 0.789 7.00968307823e-39
-0.0569472456528 -0.0598676172248 0.789 6.27318582875e-39
-0.0554870598669 -0.0598676172248 0.789 6.73451570398e-39
-0.0538899238298 -0.0597158615411 0.787 6.36608350914e-39
-0.0524334394019 -0.0597158615411 0.787 6.82706165846e-39
-0.0508474074392 -0.0595641058574 0.785 6.64231446892e-39
-0.0493946243695 -0.0595641058574 0.785 6.36645485324e-39
-0.0478196964812 -0.0594123501736 0.783 6.36610172602e-39
-0.0462521713092 -0.0592605944899 0.781 7.56245328345e-39
-0.0448067909558 -0.0592605944899 0.781 8.57660240935e-39
-0.0433614106024 -0.0592605944899 0.781 8.48549979229e-39
-0.041916030249 -0.0592605944899 0.781 8.02560064279e-39
-0.0404188308816 -0.0591847166481 0.78 7.47385618804e-39
-0.0388753645375 -0.0590329609644 0.778 7.01322976464e-39
-0.0374355362213 -0.0590329609644 0.778 6.36714148949e-39
-0.0359031739516 -0.0588812052807 0.776 7.19582596103e-39
-0.0344670469936 -0.0588812052807 0.776 5.53811089722e-39
-0.0330309200355 -0.0588812052807 0.776 6.27567033093e-39
-0.0315133631984 -0.0587294495969 0.774 7.19619310123e-39
-0.0300809375984 -0.0587294495969 0.774 5.90402215611e-39
-0.0286485119985 -0.0587294495969 0.774 7.19368197438e-39
-0.0271809234963 -0.0586535717551 0.773 7.56102536031e-39
-0.0256837241289 -0.0585018160714 0.771 1.01417813278e-38
-0.0242568505662 -0.0585018160714 0.771 1.11555675174e-38
-0.0227707552732 -0.0583500603877 0.769 9.21802015672e-39
-0.0212920626966 -0.0581983047039 0.767 9.95558799823e-39
-0.0198466823432 -0.0581224268621 0.766 7.74433481763e-39
-0.0184290621758 -0.0581224268621 0.766 6.82453932123e-39
-0.0169670257107 -0.0579706711784 0.764 8.11564247691e-39
-0.0155531069015 -0.0579706711784 0.764 9.59149562473e-39
-0.0141391880923 -0.0579706711784 0.764 9.40675123779e-39
-0.0127252692831 -0.0579706711784 0.764 6.17882659406e-39
-0.0113113504738 -0.0579706711784 0.764 5.44556634403e-39
-0.00987152215763 -0.0578189154947 0.762 8.29966939904e-39
-0.00846130470654 -0.0578189154947 0.762 6.72515643154e-39
-0.00705108725545 -0.0578189154947 0.762 8.56832353802e-39
-0.00563346708808 -0.0577430376528 0.761 9.68045425514e-39
-0.00422510031606 -0.0577430376528 0.761 4.15163256545e-39
-0.00281673354404 -0.0577430376528 0.761 4.97887650218e-39
-0.00140466541388 -0.0575912819691 0.759 1.05984574908e-38
0.0 -0.0575912819691 0.759 5.99012213766e-39
0.00140096405574 -0.0574395262854 0.757 4.05726352167e-39
0.00280192811148 -0.0574395262854 0.757 3.13926869379e-39
0.0041917880928 -0.0572877706017 0.755 3.4172989208e-39
0.00558905079041 -0.0572877706017 0.755 2.86233007829e-39
0.00697706009266 -0.0572118927598 0.754 3.41334585783e-39
0.00837247211119 -0.0572118927598 0.754 3.7824843071e-39
0.00971606511577 -0.0569083813924 0.75 4.24382259012e-39
0.011104074418 -0.0569083813924 0.75 2.76978272251e-39
0.0124754276087 -0.0568325035505 0.749 2.67758709265e-39
0.0138615862318 -0.0568325035505 0.749 1.93858992671e-39
0.015247744855 -0.0568325035505 0.749 3.59594205423e-39
0.0166339034782 -0.0568325035505 0.749 8.29611430483e-39
0.0179719444456 -0.0566807478668 0.747 4.69868126904e-39
0.0193544017106 -0.0566807478668 0.747 8.38470579505e-39
0.0207090987896 -0.056604870025 0.746 6.07945211216e-39
0.0220304836454 -0.0564531143412 0.744 1.56514949116e-39
0.0234073888732 -0.0564531143412 0.744 2.39561501306e-39
0.0247176696545 -0.0563013586575 0.742 2.30450118561e-39
0.0260908735242 -0.0563013586575 0.742 1.93644874266e-39
0.0274640773939 -0.0563013586575 0.742 1.20068717487e-39
0.0288372812636 -0.0563013586575 0.742 7.4150408889e-40
0.0302919150124 -0.0564531143412 0.744 3.2285916618e-42
0.0317539514774 -0.056604870025 0.746 3.14109738829e-39
0.0331345580634 -0.056604870025 0.746 1.30956988724e-38
0.0346539655796 -0.0568325035505 0.749 1.26325697299e-38
0.0371949479422 -0.0586535717551 0.773 1.26322222079e-38
0.0381758078492 -0.0579706711784 0.764 1.20786924989e-38
0.0395897266584 -0.0579706711784 0.764 1.29088048936e-38
0.0414866727048 -0.0586535717551 0.773 1.22637872105e-38
0.0429727679978 -0.0587294495969 0.774 1.30013536507e-38
0.0446346778023 -0.0590329609644 0.778 1.4015152452e-38
0.046192949579 -0.0591847166481 0.78 1.38314660454e-38
0.0476364792533 -0.0591847166481 0.78 1.02354847548e-38
-0.0900540435302 -0.0600360290201 0.811 2.34176913866e-38
-0.0885531428047 -0.0600360290201 0.811 2.35080919531e-38
-0.0870522420792 -0.0600360290201 0.811 1.76972701579e-38
-0.0855513413537 -0.0600360290201 0.811 2.94523650063e-39
-0.0838431645724 -0.0598879746946 0.809 9.11405221846e-39
-0.082345965205 -0.0598879746946 0.809 9.29736868227e-39
-0.0806488924981 -0.059739920369 0.807 1.4189821503e-38
-0.0791553944889 -0.059739920369 0.807 1.18906564619e-38
-0.0774694258564 -0.0595918660434 0.805 8.39011480712e-39
-0.0757908599402 -0.0594438117178 0.803 8.57630113018e-39
-0.0742122306938 -0.059369784555 0.802 7.6561202767e-39
-0.0727279860799 -0.059369784555 0.802 7.01004321193e-39
-0.0710660762754 -0.0592217302295 0.8 8.75925325638e-39
-0.0694115691871 -0.0590736759039 0.798 1.0413023665e-38
-0.0677644648151 -0.0589256215783 0.796 9.94664210883e-39
-0.0662913242756 -0.0589256215783 0.796 1.04980054104e-38
-0.064655323978 -0.0587775672528 0.794 1.09632869473e-38
-0.0631858847967 -0.0587775672528 0.794 1.12434639636e-38
-0.0615609885735 -0.0586295129272 0.792 1.02275197743e-38
-0.0599434950666 -0.0584814586016 0.79 8.01088000242e-39
-0.0584074314388 -0.0584074314388 0.789 8.47940134137e-39
-0.0569472456528 -0.0584074314388 0.789 7.00822572782e-39
-0.0554870598669 -0.0584074314388 0.789 7.19297852255e-39
-0.0540268740809 -0.0584074314388 0.789 6.54940697944e-39
-0.0524334394019 -0.0582593771132 0.787 6.9185524352e-39
-0.0509769549741 -0.0582593771132 0.787 6.73416117547e-39
-0.0493946243695 -0.0581113227877 0.785 6.27318022356e-39
-0.0478196964812 -0.0579632684621 0.783 6.91818949889e-39
-0.0462521713092 -0.0578152141365 0.781 7.10256534434e-39
-0.0448067909558 -0.0578152141365 0.781 7.01036691188e-39
-0.0433614106024 -0.0578152141365 0.781 7.19368477698e-39
-0.041916030249 -0.0578152141365 0.781 7.47134786379e-39
-0.0404188308816 -0.0577411869737 0.78 8.945752069e-39
-0.0389753012073 -0.0577411869737 0.78 7.93195186642e-39
-0.0375317715329 -0.0577411869737 0.78 7.84010936377e-39
-0.0359957079051 -0.0575931326482 0.778 6.82596023787e-39
-0.0345558795889 -0.0575931326482 0.778 6.45861825324e-39
-0.0331160512727 -0.0575931326482 0.778 7.01179903891e-39
-0.0315947930774 -0.0574450783226 0.776 6.91925308443e-39
-0.0301586661194 -0.0574450783226 0.776 6.27388367539e-39
-0.0287225391613 -0.0574450783226 0.776 7.84119957397e-39
-0.0272160863986 -0.057297023997 0.774 6.82560430806e-39
-0.0257836607987 -0.057297023997 0.774 6.17844824347e-39
-0.0243197736545 -0.0572229968342 0.773 5.62456540727e-39
-0.0227707552732 -0.0569268881831 0.769 8.47900337261e-39
-0.0213475830687 -0.0569268881831 0.769 1.13367105673e-38
-0.0198725918501 -0.0567788338575 0.767 7.83652764489e-39
-0.0184290621758 -0.0567048066947 0.766 5.81182932885e-39
-0.0170114420084 -0.0567048066947 0.766 5.35300917917e-39
-0.015593821841 -0.0567048066947 0.766 5.17041298277e-39
-0.0141762016737 -0.0567048066947 0.766 5.26225268283e-39
-0.0127252692831 -0.0565567523691 0.764 4.89239536745e-39
-0.0113113504738 -0.0565567523691 0.764 7.56032050719e-39
-0.0098974316646 -0.0565567523691 0.764 1.10633774927e-38
-0.00848351285537 -0.0565567523691 0.764 6.08482188788e-39
-0.00705108725545 -0.0564086980436 0.762 5.43982242163e-39
-0.00564086980436 -0.0564086980436 0.762 1.00499416277e-38
-0.00423065235327 -0.0564086980436 0.762 7.00534185558e-39
-0.00281673354404 -0.0563346708808 0.761 7.09433271586e-39
-0.00140836677202 -0.0563346708808 0.761 9.30665088329e-39
0.0 -0.0563346708808 0.761 4.97525975084e-39
0.00140466541388 -0.0561866165552 0.759 5.43623089366e-39
0.00280933082776 -0.0561866165552 0.759 4.79589494871e-39
0.00420289216722 -0.0560385622296 0.757 2.49570135457e-39
0.00560385622296 -0.0560385622296 0.757 4.5185933969e-39
0.00698631348801 -0.0558905079041 0.755 4.33277001014e-39
0.00838357618561 -0.0558905079041 0.755 3.23076647702e-39
0.00974197462275 -0.0556684264157 0.752 3.13677298123e-39
0.0111336852831 -0.0556684264157 0.752 3.32439003002e-39
0.0124920837203 -0.0555203720901 0.75 2.58682218852e-39
0.0138800930225 -0.0555203720901 0.75 2.76941838491e-39
0.015247744855 -0.0554463449273 0.749 2.86053921885e-39
0.0166339034782 -0.0554463449273 0.749 1.93751372949e-39
0.0180200621014 -0.0554463449273 0.749 2.21446355538e-39
0.0193544017106 -0.0552982906018 0.747 2.03115269677e-39
0.0207090987896 -0.055224263439 0.746 1.11063833426e-39
0.0220897053756 -0.055224263439 0.746 1.57053748376e-39
0.0234073888732 -0.0550762091134 0.744 1.66236877602e-39
0.024784294101 -0.0550762091134 0.744 1.84603696574e-39
0.0261611993289 -0.0550762091134 0.744 1.75348680736e-39
0.0275381045567 -0.0550762091134 0.744 1.38435396329e-39
0.0289150097845 -0.0550762091134 0.744 7.39709025557e-40
0.0303733448914 -0.055224263439 0.746 1.43492962747e-42
0.031796517096 -0.0552982906018 0.747 4.61479113518e-39
0.0331789743611 -0.0552982906018 0.747 1.31868239102e-38
0.0345614316261 -0.0552982906018 0.747 1.24481826741e-38
0.0371949479422 -0.0572229968342 0.773 1.2540378304e-38
0.0386255228631 -0.0572229968342 0.773 1.30013564533e-38
0.040056097784 -0.0572229968342 0.773 1.29091580208e-38
0.0414866727048 -0.0572229968342 0.773 1.26325697299e-38
0.0429727679978 -0.057297023997 0.774 1.3831468848e-38
0.0446346778023 -0.0575931326482 0.778 1.3831468848e-38
0.046192949579 -0.0577411869737 0.78 1.14372635412e-38
0.0476364792533 -0.0577411869737 0.78 8.39445883236e-39
-0.0887715229349 -0.0586794812621 0.813 2.35088094179e-38
-0.0870522420792 -0.0585351282946 0.811 1.82511487902e-38
-0.0855513413537 -0.0585351282946 0.811 1.19387546304e-39
-0.0840504406282 -0.0585351282946 0.811 7.73218555994e-39
-0.082345965205 -0.0583907753272 0.809 8.5608602224e-39
-0.0808487658376 -0.0583907753272 0.809 7.5506403374e-39
-0.0791553944889 -0.0582464223598 0.807 1.00442159222e-38
-0.0776618964797 -0.0582464223598 0.807 8.20176067534e-39
-0.0757908599402 -0.0579577164249 0.803 9.31026903593e-39
-0.0743047646473 -0.0579577164249 0.803 8.57484798367e-39
-0.0727279860799 -0.0578855399412 0.802 7.83729275385e-39
-0.0712437414661 -0.0578855399412 0.802 1.06932006813e-38
-0.0695855330196 -0.0577411869737 0.8 1.11502257676e-38
-0.0679347272895 -0.0575968340063 0.798 1.30809389957e-38
-0.0662913242756 -0.0574524810389 0.796 1.19742242971e-38
-0.0648181837362 -0.0574524810389 0.796 9.39632557722e-39
-0.0631858847967 -0.0573081280714 0.794 1.10579965066e-38
-0.0617164456154 -0.0573081280714 0.794 9.85693938894e-39
-0.0600952507504 -0.057163775104 0.792 1.32635127713e-38
-0.0584814586016 -0.0570194221366 0.79 1.05055471987e-38
-0.0570194221366 -0.0570194221366 0.79 7.55960164107e-39
-0.0554870598669 -0.0569472456528 0.789 6.82347993959e-39
-0.0540268740809 -0.0569472456528 0.789 7.28661889113e-39
-0.0525666882949 -0.0569472456528 0.789 6.55049578835e-39
-0.0509769549741 -0.0568028926854 0.787 6.55049298575e-39
-0.0495204705463 -0.0568028926854 0.787 6.18206639611e-39
-0.0479418412998 -0.056658539718 0.785 6.36645345194e-39
-0.0463706147697 -0.0565141867505 0.783 6.91890135851e-39
-0.0449215330581 -0.0565141867505 0.783 7.01145291819e-39
-0.0434724513466 -0.0565141867505 0.783 6.91853842221e-39
-0.041916030249 -0.0563698337831 0.781 6.9178195561e-39
-0.0404706498956 -0.0563698337831 0.781 7.56354629625e-39
-0.0389753012073 -0.0562976572994 0.78 6.82525258214e-39
-0.0375317715329 -0.0562976572994 0.78 7.37878088984e-39
-0.0360882418586 -0.0562976572994 0.78 8.02414469368e-39
-0.0346447121842 -0.0562976572994 0.78 8.39400901555e-39
-0.0331160512727 -0.056153304332 0.778 7.47206112471e-39
-0.0316762229565 -0.056153304332 0.778 7.10364714675e-39
-0.0302363946403 -0.056153304332 0.778 6.91925308443e-39
-0.0287225391613 -0.0560089513645 0.776 6.64265638575e-39
-0.0272864122032 -0.0560089513645 0.776 1.00524485507e-38
-0.0257836607987 -0.0558645983971 0.774 1.02350475497e-38
-0.0243512351987 -0.0558645983971 0.774 1.03261725875e-38
-0.0228891987337 -0.0557924219134 0.773 1.15243332212e-38
-0.0214031034407 -0.0556480689459 0.771 9.31236257583e-39
-0.0199244108641 -0.0555037159785 0.769 6.9174510146e-39
-0.0184531210037 -0.0553593630111 0.767 6.64267039873e-39
-0.0170336501573 -0.0553593630111 0.767 6.5519125011e-39
-0.0156141793108 -0.0553593630111 0.767 5.26152821152e-39
-0.0141762016737 -0.0552871865274 0.766 6.08984834547e-39
-0.0127585815063 -0.0552871865274 0.766 5.81182932885e-39
-0.0113409613389 -0.0552871865274 0.766 7.55851283217e-39
-0.0098974316646 -0.0551428335599 0.764 1.03265285173e-38
-0.00848351285537 -0.0551428335599 0.764 5.16610539129e-39
-0.00706959404614 -0.0551428335599 0.764 5.53525364965e-39
-0.00564086980436 -0.0549984805925 0.762 8.20674509397e-39
-0.00423065235327 -0.0549984805925 0.762 9.40241421905e-39
-0.00281673354404 -0.0549263041088 0.761 8.93786556124e-39
-0.00140836677202 -0.0549263041088 0.761 7.73932237302e-39
0.0 -0.0549263041088 0.761 8.01807006484e-39
0.00140466541388 -0.0547819511413 0.759 1.1057993704e-38
0.00280933082776 -0.0547819511413 0.759 3.41190392171e-39
0.00420289216722 -0.0546375981739 0.757 3.97047269998e-39
0.00560385622296 -0.0546375981739 0.757 4.33420493977e-39
0.0070048202787 -0.0546375981739 0.757 4.24093451398e-39
0.00838357618561 -0.0544932452065 0.755 3.23291887146e-39
0.00976788412972 -0.0544210687227 0.754 3.23040073812e-39
0.0111336852831 -0.0542767157553 0.752 3.13820370696e-39
0.0125253959435 -0.0542767157553 0.752 3.41550946266e-39
0.0138800930225 -0.0541323627879 0.75 2.67722695894e-39
0.0152681023248 -0.0541323627879 0.75 2.58467539927e-39
0.0166339034782 -0.0540601863042 0.749 2.86162802776e-39
0.0180200621014 -0.0540601863042 0.749 1.94075353154e-39
0.0194062207246 -0.0540601863042 0.749 1.94111506654e-39
0.0207368589757 -0.0539158333367 0.747 1.66489111326e-39
0.0221193162407 -0.0539158333367 0.747 1.66417504974e-39
0.0234703119616 -0.053843656853 0.746 1.7560049407e-39
0.0248509185475 -0.053843656853 0.746 1.93930879282e-39
0.0262315251335 -0.053843656853 0.746 1.84603696574e-39
0.0276121317195 -0.053843656853 0.746 1.75313368015e-39
0.0289927383055 -0.053843656853 0.746 1.75278195424e-39
0.0303733448914 -0.053843656853 0.746 1.79366203434e-42
0.031796517096 -0.0539158333367 0.747 5.81261545729e-39
0.0332678069564 -0.0540601863042 0.749 1.337121517e-38
0.0355793051144 -0.0555037159785 0.769 1.19872017222e-38
0.037002477319 -0.0555037159785 0.769 1.30935492806e-38
0.0385255861933 -0.0556480689459 0.771 1.24481798715e-38
0.0399524597561 -0.0556480689459 0.771 1.26325697299e-38
0.0414866727048 -0.0557924219134 0.773 1.30935478793e-38
0.0429727679978 -0.0558645983971 0.774 1.35545260286e-38
0.0444051935977 -0.0558645983971 0.774 1.34626863285e-38
-0.0889899030651 -0.0573155307877 0.815 2.35088094179e-38
-0.0874815996233 -0.0573155307877 0.815 1.98191947653e-38
-0.0857623187676 -0.0571748791784 0.813 3.3151008225e-39
-0.0840504406282 -0.0570342275691 0.811 1.23455543772e-38
-0.0825495399027 -0.0570342275691 0.811 1.3450073241e-38
-0.0808487658376 -0.0568935759598 0.809 1.28968882515e-38
-0.0793515664703 -0.0568935759598 0.809 1.07763887646e-38
-0.0776618964797 -0.0567529243505 0.807 1.09611415593e-38
-0.0759796292053 -0.0566122727412 0.805 1.05941695175e-38
-0.0744898325543 -0.0566122727412 0.805 8.75278626397e-39
-0.0728186693543 -0.0564716211319 0.803 6.26637131432e-39
-0.0712437414661 -0.0564012953273 0.802 7.92588844796e-39
-0.0697594968522 -0.0564012953273 0.802 8.75277645488e-39
-0.0681049897639 -0.056260643718 0.8 1.09618786423e-38
-0.0664578853919 -0.0561199921087 0.798 1.39124933265e-38
-0.0649810434943 -0.0561199921087 0.798 1.46529226194e-38
-0.0633450431967 -0.0559793404994 0.796 9.12297848968e-39
-0.0618719026572 -0.0559793404994 0.796 9.48925128358e-39
-0.0602470064341 -0.0558386888901 0.794 9.39311099854e-39
-0.0587775672528 -0.0558386888901 0.794 8.29142415887e-39
-0.057163775104 -0.0556980372808 0.792 7.27942882871e-39
-0.0555573856715 -0.0555573856715 0.79 6.08412263994e-39
-0.0540953492065 -0.0555573856715 0.79 7.10043396937e-39
-0.0525666882949 -0.0554870598669 0.789 6.18063426908e-39
-0.051106502509 -0.0554870598669 0.789 6.36682059214e-39
-0.049646316723 -0.0554870598669 0.789 6.18350552963e-39
-0.0480639861184 -0.0553464082576 0.787 6.46044694773e-39
-0.0464890582301 -0.0552057566483 0.785 6.2753298154e-39
-0.0450362751604 -0.0552057566483 0.785 6.73558909861e-39
-0.0435834920908 -0.0552057566483 0.785 6.82778753107e-39
-0.042023369635 -0.055065105039 0.783 6.55120064148e-39
-0.0404706498956 -0.0549244534297 0.781 7.10329542084e-39
-0.0390252695422 -0.0549244534297 0.781 6.7348660286e-39
-0.0375798891887 -0.0549244534297 0.781 6.91853702091e-39
-0.0361345088353 -0.0549244534297 0.781 7.01108858059e-39
-0.0346891284819 -0.0549244534297 0.781 7.47206112471e-39
-0.0332011825099 -0.054854127625 0.78 7.84120938306e-39
-0.0317576528356 -0.054854127625 0.78 8.94720521551e-39
-0.0302363946403 -0.0547134760158 0.778 7.84121358696e-39
-0.0287965663241 -0.0547134760158 0.778 7.65645518703e-39
-0.0272864122032 -0.0545728244065 0.776 5.99657091319e-39
-0.0258502852452 -0.0545728244065 0.776 6.82488964584e-39
-0.0244141582871 -0.0545728244065 0.776 7.74469775393e-39
-0.0229188095988 -0.0544321727972 0.774 6.36570655986e-39
-0.0214586238128 -0.0543618469925 0.773 5.99764711041e-39
-0.0199244108641 -0.0540805437739 0.769 6.36752264267e-39
-0.0185012386595 -0.0540805437739 0.769 6.18277825573e-39
-0.0170336501573 -0.0539398921646 0.767 5.35265184806e-39
-0.0156141793108 -0.0539398921646 0.767 8.39330135983e-39
-0.0141947084644 -0.0539398921646 0.767 8.20602903046e-39
-0.0127752376179 -0.0539398921646 0.767 6.7283850232e-39
-0.0113557667715 -0.0539398921646 0.767 9.40420788108e-39
-0.00992334117158 -0.05386956636 0.766 7.83940731324e-39
-0.00850572100421 -0.05386956636 0.766 5.44520480903e-39
-0.00706959404614 -0.0537289147507 0.764 4.70836284013e-39
-0.00564086980436 -0.0535882631414 0.762 5.53452357315e-39
-0.00423065235327 -0.0535882631414 0.762 9.86375250207e-39
-0.00282043490218 -0.0535882631414 0.762 1.078391654e-38
-0.00140836677202 -0.0535179373367 0.761 6.63440974429e-39
0.0 -0.0535179373367 0.761 6.54259106371e-39
0.00140836677202 -0.0535179373367 0.761 1.10572888509e-38
0.00281673354404 -0.0535179373367 0.761 4.51788714247e-39
