# .PCD v0.7 - Point Cloud Data file format
VERSION 0.7
FIELDS x y z rgb
SIZE 4 4 4 4
TYPE F F F F
COUNT 1 1 1 1
WIDTH 834
HEIGHT 1
VIEWPOINT 0 0 0 1 0 0 0
POINTS 834
DATA ascii
-0.0175148267154 -0.0237701219709 0.676 1.08460501139e-42
-0.0162637676643 -0.0237701219709 0.676 3.67377017094e-40
-0.0150127086132 -0.0237701219709 0.676 2.01904800038e-38
-0.0686046731127 -0.0224524384732 0.674 2.35095212775e-38
-0.0671574420802 -0.0223858140267 0.672 2.35091681503e-38
-0.0659137857454 -0.0223858140267 0.672 2.35091681503e-38
-0.0646701294106 -0.0223858140267 0.672 2.35091681503e-38
-0.0634264730758 -0.0223858140267 0.672 1.58586993103e-38
-0.0623678846479 -0.0224524384732 0.674 2.66246708222e-44
-0.061120526955 -0.0224524384732 0.674 2.21269791932e-39
-0.059873169262 -0.0224524384732 0.674 3.78216200845e-39
-0.058625811569 -0.0224524384732 0.674 2.67689064731e-39
-0.0573784538761 -0.0224524384732 0.674 2.67688784471e-39
-0.0562143767413 -0.0224857506965 0.675 2.49356997961e-39
-0.0549651683692 -0.0224857506965 0.675 2.67796123934e-39
-0.0537159599972 -0.0224857506965 0.675 2.7701568692e-39
-0.0524667516252 -0.0224857506965 0.675 2.21698309002e-39
-0.0512175432531 -0.0224857506965 0.675 2.12479026275e-39
-0.0499683348811 -0.0224857506965 0.675 2.30740047213e-39
-0.0486469500254 -0.0224524384732 0.674 1.93861935398e-39
-0.0473995923324 -0.0224524384732 0.674 1.75530569277e-39
-0.0461522346395 -0.0224524384732 0.674 1.4794320641e-39
-0.0449048769465 -0.0224524384732 0.674 1.29504080437e-39
-0.0436575192535 -0.0224524384732 0.674 1.84785444985e-39
-0.0424101615606 -0.0224524384732 0.674 1.84677825263e-39
-0.0411628038676 -0.0224524384732 0.674 1.66166812679e-39
-0.0399746679049 -0.0224857506965 0.675 1.57126475766e-39
-0.0387254595329 -0.0224857506965 0.675 1.38687349793e-39
-0.0374207307887 -0.0224524384732 0.674 1.11028660834e-39
-0.0361733730958 -0.0224524384732 0.674 9.25895348616e-40
-0.0349778344168 -0.0224857506965 0.675 1.01809097848e-39
-0.0337286260448 -0.0224857506965 0.675 1.01809097848e-39
-0.0324794176727 -0.0224857506965 0.675 8.3370252135e-40
-0.0312302093007 -0.0224857506965 0.675 1.2024850408e-39
-0.0299810009287 -0.0224857506965 0.675 1.10920760853e-39
-0.0287317925566 -0.0224857506965 0.675 9.25173679907e-40
-0.0274825841846 -0.0224857506965 0.675 1.29467786807e-39
-0.0262333758126 -0.0224857506965 0.675 1.20320110432e-39
-0.0249841674406 -0.0224857506965 0.675 8.34418584865e-40
-0.0237349590685 -0.0224857506965 0.675 1.38687349793e-39
-0.0224857506965 -0.0224857506965 0.675 1.20140323839e-39
-0.0212680038687 -0.0225190629198 0.676 1.56946689173e-39
-0.0200169448176 -0.0225190629198 0.676 1.20212911099e-39
-0.0188214061386 -0.0225856873663 0.678 2.03153805385e-39
-0.0175666457293 -0.0225856873663 0.678 9.32858400686e-41
-0.0163118853201 -0.0225856873663 0.678 4.90454462514e-44
-0.0671574420802 -0.0211421576919 0.672 2.35091681503e-38
-0.0659137857454 -0.0211421576919 0.672 2.35088094179e-38
-0.0646701294106 -0.0211421576919 0.672 2.32322267322e-38
-0.0634264730758 -0.0211421576919 0.672 2.05610281593e-38
-0.0623678846479 -0.0212050807803 0.674 1.01311496763e-39
-0.061120526955 -0.0212050807803 0.674 2.02867099719e-39
-0.059873169262 -0.0212050807803 0.674 3.78396267698e-39
-0.058625811569 -0.0212050807803 0.674 2.95491807172e-39
-0.0573784538761 -0.0212050807803 0.674 2.7705226081e-39
-0.0562143767413 -0.0212365423245 0.675 2.30917871988e-39
-0.0549651683692 -0.0212365423245 0.675 2.86270983017e-39
-0.0537159599972 -0.0212365423245 0.675 1.94075072894e-39
-0.0524667516252 -0.0212365423245 0.675 2.4928455083e-39
-0.0512175432531 -0.0212365423245 0.675 2.30845424858e-39
-0.0499683348811 -0.0212365423245 0.675 2.39993801882e-39
-0.0487191265091 -0.0212365423245 0.675 2.03151563307e-39
-0.0474699181371 -0.0212365423245 0.675 1.66416664195e-39
-0.0461522346395 -0.0212050807803 0.674 1.38829441458e-39
-0.0449048769465 -0.0212050807803 0.674 1.5726870756e-39
-0.0436575192535 -0.0212050807803 0.674 2.12550912887e-39
-0.0424101615606 -0.0212050807803 0.674 1.93897388249e-39
-0.0412238762769 -0.0212365423245 0.675 1.93790329046e-39
-0.0399746679049 -0.0212365423245 0.675 1.20319970302e-39
-0.0387254595329 -0.0212365423245 0.675 8.35487775594e-40
-0.0374762511608 -0.0212365423245 0.675 7.43293547029e-40
-0.0362270427888 -0.0212365423245 0.675 9.27326074349e-40
-0.0349778344168 -0.0212365423245 0.675 9.27326074349e-40
-0.0337286260448 -0.0212365423245 0.675 6.50741987355e-40
-0.0324794176727 -0.0212365423245 0.675 6.50741987355e-40
-0.0312302093007 -0.0212365423245 0.675 8.35136049679e-40
-0.0299810009287 -0.0212365423245 0.675 1.38650215384e-39
-0.0287317925566 -0.0212365423245 0.675 1.38650215384e-39
-0.0275232991241 -0.0212680038687 0.676 9.26610010833e-40
-0.0262722400731 -0.0212680038687 0.676 7.42583088707e-40
-0.0249841674406 -0.0212365423245 0.675 8.34428393955e-40
-0.0237349590685 -0.0212365423245 0.675 1.20249625119e-39
-0.0224857506965 -0.0212365423245 0.675 9.24114298268e-40
-0.0212680038687 -0.0212680038687 0.676 1.47584894393e-39
-0.0200169448176 -0.0212680038687 0.676 1.47871880318e-39
-0.0188214061386 -0.021330926957 0.678 1.75530709407e-39
-0.0175666457293 -0.021330926957 0.678 9.80908925027e-45
-0.0648626000338 -0.0199577230873 0.674 2.34169739218e-38
-0.0636152423409 -0.0199577230873 0.674 2.34180206917e-38
-0.0624604186014 -0.0199873339524 0.675 7.00649232162e-44
-0.0612112102294 -0.0199873339524 0.675 1.81888540669e-42
-0.0599620018573 -0.0199873339524 0.675 2.95419920561e-39
-0.058625811569 -0.0199577230873 0.674 2.49357278221e-39
-0.0573784538761 -0.0199577230873 0.674 2.40209321586e-39
-0.0562143767413 -0.0199873339524 0.675 1.94146959505e-39
-0.0549651683692 -0.0199873339524 0.675 2.30988637561e-39
-0.0537955391972 -0.0200169448176 0.676 2.67687102913e-39
-0.0524667516252 -0.0199873339524 0.675 2.6747130295e-39
-0.0512175432531 -0.0199873339524 0.675 2.94878458834e-39
-0.0499683348811 -0.0199873339524 0.675 2.30522565692e-39
-0.0487191265091 -0.0199873339524 0.675 2.12335112923e-39
-0.0474699181371 -0.0199873339524 0.675 1.38757694976e-39
-0.046220709765 -0.0199873339524 0.675 1.20569961948e-39
-0.044971501393 -0.0199873339524 0.675 6.53251712905e-40
-0.043722293021 -0.0199873339524 0.675 7.44369744249e-40
-0.042473084649 -0.0199873339524 0.675 1.20320110432e-39
-0.0412238762769 -0.0199873339524 0.675 8.32271795618e-40
-0.0399746679049 -0.0199873339524 0.675 1.38865875218e-39
-0.0387254595329 -0.0199873339524 0.675 7.43293547029e-40
-0.0374762511608 -0.0199873339524 0.675 8.3477031078e-40
-0.0362270427888 -0.0199873339524 0.675 1.01880844329e-39
-0.0349778344168 -0.0199873339524 0.675 1.57126475766e-39
-0.0337286260448 -0.0199873339524 0.675 3.72005505921e-40
-0.0324794176727 -0.0199873339524 0.675 1.84676423964e-39
-0.0312302093007 -0.0199873339524 0.675 7.40782420181e-40
-0.0300254172263 -0.0200169448176 0.676 6.49307057728e-40
-0.0287743581752 -0.0200169448176 0.676 1.11028520704e-39
-0.0275232991241 -0.0200169448176 0.676 1.01736650717e-39
-0.0262722400731 -0.0200169448176 0.676 1.38579449812e-39
-0.025021181022 -0.0200169448176 0.676 8.32271795618e-40
-0.0237701219709 -0.0200169448176 0.676 1.20214312398e-39
-0.0225190629198 -0.0200169448176 0.676 6.50764408131e-40
-0.021330926957 -0.0200761665478 0.678 1.20500877934e-39
-0.0200761665478 -0.0200761665478 0.678 1.11136560816e-39
-0.0188214061386 -0.0200761665478 0.678 2.12444133944e-39
-0.0175666457293 -0.0200761665478 0.678 9.29144959755e-41
-0.0649588353455 -0.0187381255804 0.675 2.35098856151e-38
-0.0637096269734 -0.0187381255804 0.675 2.33261879982e-38
-0.0624604186014 -0.0187381255804 0.675 9.2167603894e-40
-0.0612112102294 -0.0187381255804 0.675 2.90208911962e-42
-0.0600508344527 -0.0187658857665 0.676 3.96692180967e-39
-0.0587997754016 -0.0187658857665 0.676 2.67581445009e-39
-0.0575487163505 -0.0187658857665 0.676 2.95347193171e-39
-0.0562976572994 -0.0187658857665 0.676 2.40100580825e-39
-0.0550465982483 -0.0187658857665 0.676 2.76942118751e-39
-0.0537955391972 -0.0187658857665 0.676 3.3229480939e-39
-0.0525444801461 -0.0187658857665 0.676 3.69028867723e-39
-0.051293421095 -0.0187658857665 0.676 3.5051771501e-39
-0.0500423620439 -0.0187658857665 0.676 2.67363683228e-39
-0.0487913029928 -0.0187658857665 0.676 1.75276794125e-39
-0.0475402439417 -0.0187658857665 0.676 1.93932000321e-39
-0.046220709765 -0.0187381255804 0.675 1.47978379001e-39
-0.044971501393 -0.0187381255804 0.675 1.11172293927e-39
-0.043722293021 -0.0187381255804 0.675 1.0188056407e-39
-0.042473084649 -0.0187381255804 0.675 1.20031863338e-39
-0.0412849486862 -0.0187658857665 0.676 3.69135646666e-40
-0.0400338896351 -0.0187658857665 0.676 1.01449524662e-39
-0.038782830584 -0.0187658857665 0.676 1.29107933361e-39
-0.0374762511608 -0.0187381255804 0.675 1.47403706501e-39
-0.0362270427888 -0.0187381255804 0.675 1.84282518966e-39
-0.0350296534307 -0.0187658857665 0.676 1.56588096896e-39
-0.0337785943796 -0.0187658857665 0.676 7.36477631298e-40
-0.0325275353285 -0.0187658857665 0.676 1.19745017542e-39
-0.0312764762774 -0.0187658857665 0.676 1.75097988441e-39
-0.0300254172263 -0.0187658857665 0.676 1.38327496348e-39
-0.0287743581752 -0.0187658857665 0.676 3.13426185438e-39
-0.0275232991241 -0.0187658857665 0.676 2.0268380988e-39
-0.0262722400731 -0.0187658857665 0.676 2.0268380988e-39
-0.025021181022 -0.0187658857665 0.676 1.56622568838e-39
-0.0237701219709 -0.0187658857665 0.676 1.93681308026e-39
-0.0225190629198 -0.0187658857665 0.676 1.93897107989e-39
-0.021330926957 -0.0188214061386 0.678 6.50741987355e-40
-0.0200761665478 -0.0188214061386 0.678 1.29539533288e-39
-0.0188214061386 -0.0188214061386 0.678 2.49214205648e-39
-0.0175666457293 -0.0188214061386 0.678 2.76584086993e-40
-0.0163118853201 -0.0188214061386 0.678 3.96049545492e-39
-0.0650550706571 -0.0175148267154 0.676 2.35098856151e-38
-0.063804011606 -0.0175148267154 0.676 2.34180305008e-38
-0.0625529525549 -0.0175148267154 0.676 4.97791240883e-39
-0.0613018935038 -0.0175148267154 0.676 1.82308930209e-42
-0.0602284996434 -0.0175666457293 0.678 3.50559193444e-39
-0.0589737392341 -0.0175666457293 0.678 3.78073408531e-39
-0.0577189788249 -0.0175666457293 0.678 3.68816571006e-39
-0.0564642184157 -0.0175666457293 0.678 4.24096253995e-39
-0.0552094580064 -0.0175666457293 0.678 6.54655813966e-39
-0.0539546975972 -0.0175666457293 0.678 6.17920074075e-39
-0.0525444801461 -0.0175148267154 0.676 5.62853668712e-39
-0.051293421095 -0.0175148267154 0.676 6.09130709717e-39
-0.0500423620439 -0.0175148267154 0.676 5.716793267e-39
-0.0487913029928 -0.0175148267154 0.676 2.5807223363e-39
-0.047680895551 -0.0175666457293 0.678 1.65878285325e-39
-0.0462891848906 -0.0175148267154 0.676 1.93574248823e-39
-0.0450381258395 -0.0175148267154 0.676 2.76442695978e-39
-0.0437870667884 -0.0175148267154 0.676 4.51505091438e-39
-0.0425360077373 -0.0175148267154 0.676 6.54153728727e-39
-0.0414070935048 -0.0175666457293 0.678 6.54008133816e-39
-0.0400338896351 -0.0175148267154 0.676 7.18258228925e-39
-0.038782830584 -0.0175148267154 0.676 6.44394105312e-39
-0.0375317715329 -0.0175148267154 0.676 4.60074732197e-39
-0.0362807124818 -0.0175148267154 0.676 3.03451742969e-39
-0.0350296534307 -0.0175148267154 0.676 3.49692350214e-39
-0.0337785943796 -0.0175148267154 0.676 6.17131283169e-39
-0.0325275353285 -0.0175148267154 0.676 6.72484954717e-39
-0.0312764762774 -0.0175148267154 0.676 4.60507313033e-39
-0.0301142498217 -0.0175666457293 0.678 4.78802245393e-39
-0.0288594894125 -0.0175666457293 0.678 8.10705391862e-39
-0.0276047290032 -0.0175666457293 0.678 6.81594095385e-39
-0.026349968594 -0.0175666457293 0.678 5.4326435696e-39
-0.0250952081847 -0.0175666457293 0.678 6.4478857083e-39
-0.0238404477755 -0.0175666457293 0.678 6.26495039768e-39
-0.0225856873663 -0.0175666457293 0.678 1.38183723125e-39
-0.0213623885012 -0.0175925552363 0.679 2.39813735029e-39
-0.0201057774129 -0.0175925552363 0.679 1.93932280581e-39
-0.0188491663246 -0.0175925552363 0.679 2.6765333162e-39
-0.0175925552363 -0.0175925552363 0.679 3.58732406867e-43
-0.016335944148 -0.0175925552363 0.679 3.96049545492e-39
-0.0668946456523 -0.0164081206317 0.682 2.35088094179e-38
-0.0653437765919 -0.016335944148 0.679 2.33247754893e-38
-0.0640871655036 -0.016335944148 0.679 2.35098702009e-38
-0.0628305544153 -0.016335944148 0.679 8.48133233066e-39
-0.061573943327 -0.016335944148 0.679 2.24207754292e-44
-0.0603173322387 -0.016335944148 0.679 3.78361095106e-39
-0.0590607211504 -0.016335944148 0.679 3.32118666173e-39
-0.0578041100621 -0.016335944148 0.679 3.59344634166e-39
-0.0564642184157 -0.0163118853201 0.678 6.08055633535e-39
-0.0552094580064 -0.0163118853201 0.678 7.83118028995e-39
-0.0539546975972 -0.0163118853201 0.678 6.54294419092e-39
-0.0525444801461 -0.0162637676643 0.676 4.9781296101e-39
-0.051293421095 -0.0162637676643 0.676 4.70405805125e-39
-0.0501904163695 -0.0163118853201 0.678 5.98906415732e-39
-0.049007832444 -0.016335944148 0.679 7.27765758746e-39
-0.0477512213557 -0.016335944148 0.679 6.81633191612e-39
-0.0464261351418 -0.0163118853201 0.678 4.60292914368e-39
-0.0451713747325 -0.0163118853201 0.678 5.80003039578e-39
-0.0439166143233 -0.0163118853201 0.678 6.53542622466e-39
-0.0427247770024 -0.016335944148 0.679 7.27045631465e-39
-0.0414681659141 -0.016335944148 0.679 6.53179966424e-39
-0.0401523330956 -0.0163118853201 0.678 6.80551249068e-39
-0.0388975726863 -0.0163118853201 0.678 6.62148276595e-39
-0.0376428122771 -0.0163118853201 0.678 8.00511926443e-39
-0.0363880518679 -0.0163118853201 0.678 8.65300120162e-39
-0.0351332914586 -0.0163118853201 0.678 7.54845150919e-39
-0.0338785310494 -0.0163118853201 0.678 6.25952176742e-39
-0.0326237706402 -0.0163118853201 0.678 5.61595582951e-39
-0.0313690102309 -0.0163118853201 0.678 6.44644517348e-39
-0.0301142498217 -0.0163118853201 0.678 6.44429838423e-39
-0.0288594894125 -0.0163118853201 0.678 8.0105338817e-39
-0.0276454439427 -0.016335944148 0.679 7.64173174407e-39
-0.0263888328544 -0.016335944148 0.679 7.27366528813e-39
-0.0251322217661 -0.016335944148 0.679 7.09072297102e-39
-0.0238756106778 -0.016335944148 0.679 8.65914869799e-39
-0.0226189995895 -0.016335944148 0.679 7.18726683001e-39
-0.0214567731338 -0.0164081206317 0.682 4.14805364917e-39
-0.0201946100083 -0.0164081206317 0.682 1.84676423964e-39
-0.0189324468827 -0.0164081206317 0.682 2.76836741106e-39
-0.0176702837572 -0.0164081206317 0.682 3.58732406867e-43
-0.0668946456523 -0.0151459575062 0.682 2.35091681503e-38
-0.0654400119036 -0.0151015412085 0.68 2.34162508518e-38
-0.0641815501362 -0.0151015412085 0.68 2.35098786087e-38
-0.0629230883688 -0.0151015412085 0.68 1.32751309369e-38
-0.0616646266014 -0.0151015412085 0.68 5.53915066068e-40
-0.0604061648341 -0.0151015412085 0.68 2.58613134837e-39
-0.0591477030667 -0.0151015412085 0.68 3.69174462634e-39
-0.0578892412993 -0.0151015412085 0.68 4.14660610786e-39
-0.0565474989738 -0.0150793330597 0.679 5.52450008523e-39
-0.0552908878855 -0.0150793330597 0.679 7.27261151169e-39
-0.0540342767972 -0.0150793330597 0.679 7.54883406367e-39
-0.0527776657089 -0.0150793330597 0.679 6.90453664796e-39
-0.0515210546206 -0.0150793330597 0.679 7.18291860088e-39
-0.0502644435323 -0.0150793330597 0.679 7.18114595832e-39
-0.049007832444 -0.0150793330597 0.679 6.62654005211e-39
-0.0478215471603 -0.0151015412085 0.68 5.05992200016e-39
-0.0464946102673 -0.0150793330597 0.679 6.90274438722e-39
-0.045237999179 -0.0150793330597 0.679 6.53287726276e-39
-0.0439813880907 -0.0150793330597 0.679 7.17572853846e-39
-0.0427247770024 -0.0150793330597 0.679 7.26504870387e-39
-0.0414681659141 -0.0150793330597 0.679 8.27740416774e-39
-0.0402115548258 -0.0150793330597 0.679 7.63096696927e-39
-0.0389549437375 -0.0150793330597 0.679 8.00010401723e-39
-0.0376983326492 -0.0150793330597 0.679 8.18700360121e-39
-0.0364417215609 -0.0150793330597 0.679 8.46538555413e-39
-0.0352369294865 -0.0151015412085 0.68 8.19095666418e-39
-0.0339784677192 -0.0151015412085 0.68 8.65374248851e-39
-0.0327200059518 -0.0151015412085 0.68 8.74774719469e-39
-0.0314615441844 -0.0151015412085 0.68 5.15320784023e-39
-0.030203082417 -0.0151015412085 0.68 6.35175102845e-39
-0.0289446206497 -0.0151015412085 0.68 4.41527846372e-39
-0.0276861588823 -0.0151015412085 0.68 6.25916443632e-39
-0.0264276971149 -0.0151015412085 0.68 5.338655679e-39
-0.0251692353475 -0.0151015412085 0.68 3.12671165825e-39
-0.0239107735801 -0.0151015412085 0.68 3.31396997464e-39
-0.0226523118128 -0.0151015412085 0.68 5.34479897146e-39
-0.021488234678 -0.015168165655 0.683 3.13426325568e-39
-0.0202242208734 -0.015168165655 0.683 2.58325027873e-39
-0.0189602070688 -0.015168165655 0.683 2.58289434892e-39
-0.0668946456523 -0.0138837943807 0.682 2.33240552219e-38
-0.0656324825268 -0.0138837943807 0.682 2.35095240801e-38
-0.0643703194013 -0.0138837943807 0.682 2.3509166749e-38
-0.0631081562758 -0.0138837943807 0.682 1.44736573095e-38
-0.0618459931503 -0.0138837943807 0.682 1.96181785005e-44
-0.0605838300248 -0.0138837943807 0.682 2.5868362015e-39
-0.0591477030667 -0.0138430794411 0.68 3.23074966144e-39
-0.0578892412993 -0.0138430794411 0.68 4.14767389729e-39
-0.0566307795319 -0.0138430794411 0.68 5.80144010203e-39
-0.0553723177646 -0.0138430794411 0.68 8.28532710926e-39
-0.0541138559972 -0.0138430794411 0.68 7.36085407858e-39
-0.0528553942298 -0.0138430794411 0.68 8.37356407096e-39
-0.0515969324624 -0.0138430794411 0.68 7.91366352016e-39
-0.0503384706951 -0.0138430794411 0.68 6.07121387849e-39
-0.0490800089277 -0.0138430794411 0.68 6.3485168316e-39
-0.0478215471603 -0.0138430794411 0.68 5.79568076535e-39
-0.0465630853929 -0.0138430794411 0.68 6.7179817834e-39
-0.0453046236255 -0.0138430794411 0.68 6.43996416808e-39
-0.0440461618582 -0.0138430794411 0.68 6.99133587743e-39
-0.0427877000908 -0.0138430794411 0.68 7.17357194012e-39
-0.0415292383234 -0.0138430794411 0.68 7.44873370917e-39
-0.040270776556 -0.0138430794411 0.68 7.1728628831e-39
-0.0390123147887 -0.0138430794411 0.68 6.89735359203e-39
-0.0377538530213 -0.0138430794411 0.68 7.08317978138e-39
-0.03660273064 -0.0138837943807 0.682 7.27044510426e-39
-0.0353405675144 -0.0138837943807 0.682 7.82470068585e-39
-0.0340784043889 -0.0138837943807 0.682 4.231248739e-39
-0.0328162412634 -0.0138837943807 0.682 3.58660660386e-39
-0.0315540781379 -0.0138837943807 0.682 6.5375814217e-39
-0.0302919150124 -0.0138837943807 0.682 3.68168050077e-39
-0.0290297518869 -0.0138837943807 0.682 3.22105828126e-39
-0.0277675887613 -0.0138837943807 0.682 9.30595023406e-39
-0.0265054256358 -0.0138837943807 0.682 8.84497208474e-39
-0.0252432625103 -0.0138837943807 0.682 7.00178816268e-39
-0.0239810993848 -0.0138837943807 0.682 3.59308200406e-39
-0.0227189362593 -0.0138837943807 0.682 2.02863876733e-39
-0.0215196962221 -0.0139245093202 0.684 1.47797891759e-39
-0.0202242208734 -0.0139041518504 0.683 2.39885621641e-39
-0.0189602070688 -0.0139041518504 0.683 2.49033858535e-39
-0.0176961932642 -0.0139041518504 0.683 9.1835496158e-41
-0.066992731643 -0.0126401380459 0.683 2.35095184749e-38
-0.0657287178384 -0.0126401380459 0.683 2.35091653477e-38
-0.0644647040339 -0.0126401380459 0.683 2.35091681503e-38
-0.0632006902293 -0.0126401380459 0.683 1.58565805471e-38
-0.0619366764247 -0.0126401380459 0.683 9.1856515635e-41
-0.0606726626201 -0.0126401380459 0.683 3.59775393314e-39
-0.0593216668992 -0.0126216312552 0.682 4.15054796044e-39
-0.0580595037737 -0.0126216312552 0.682 4.33206515701e-39
-0.0567973406482 -0.0126216312552 0.682 3.86821294455e-39
-0.0555351775227 -0.0126216312552 0.682 4.78693504632e-39
-0.0542730143972 -0.0126216312552 0.682 5.15283789743e-39
-0.0530108512717 -0.0126216312552 0.682 4.59751452641e-39
-0.0517486881461 -0.0126216312552 0.682 5.05740947201e-39
-0.0504865250206 -0.0126216312552 0.682 4.32272830535e-39
-0.0492243618951 -0.0126216312552 0.682 5.24540347009e-39
-0.0480325245742 -0.0126401380459 0.683 6.44429277904e-39
-0.0467000356441 -0.0126216312552 0.682 8.19599573345e-39
-0.0454378725186 -0.0126216312552 0.682 9.39381445037e-39
-0.044175709393 -0.0126216312552 0.682 7.91868577386e-39
-0.0429135462675 -0.0126216312552 0.682 7.18005154422e-39
-0.041651383142 -0.0126216312552 0.682 6.99530855858e-39
-0.0403892200165 -0.0126216312552 0.682 6.8123368142e-39
-0.039127056891 -0.0126216312552 0.682 8.28890182164e-39
-0.0379204141376 -0.0126401380459 0.683 6.6297434204e-39
-0.036656400333 -0.0126401380459 0.683 7.27655616686e-39
-0.0353923865284 -0.0126401380459 0.683 8.66057942372e-39
-0.0341283727238 -0.0126401380459 0.683 7.27836384188e-39
-0.0328643589192 -0.0126401380459 0.683 5.06603026017e-39
-0.0316003451146 -0.0126401380459 0.683 4.88271800026e-39
-0.03033633131 -0.0126401380459 0.683 4.5146725638e-39
-0.0290297518869 -0.0126216312552 0.682 3.5005206353e-39
-0.0277675887613 -0.0126216312552 0.682 6.26566365859e-39
-0.0265054256358 -0.0126216312552 0.682 5.34299409904e-39
-0.0252802760917 -0.0126401380459 0.683 4.42212801061e-39
-0.0240162622871 -0.0126401380459 0.683 3.96331066353e-39
-0.0227522484825 -0.0126401380459 0.683 3.50520377477e-39
-0.0215826193105 -0.0126956584179 0.686 2.67758989524e-39
-0.0203130534687 -0.0126956584179 0.686 3.32045098004e-39
-0.019099007999 -0.0127326719993 0.688 3.50376884514e-39
-0.0178257407991 -0.0127326719993 0.688 9.21942285649e-41
-0.0166005912549 -0.0127696855807 0.69 6.54376815442e-39
-0.0685565554569 -0.0114260925761 0.686 2.3509166749e-38
-0.0670908176337 -0.0113927803529 0.684 2.3415880909e-38
-0.0657287178384 -0.0113761242413 0.683 2.34155291831e-38
-0.0644647040339 -0.0113761242413 0.683 2.3323703496e-38
-0.0632006902293 -0.0113761242413 0.683 1.79774345624e-38
-0.0619366764247 -0.0113761242413 0.683 4.59921570275e-40
-0.0606726626201 -0.0113761242413 0.683 4.33209038039e-39
-0.0594086488155 -0.0113761242413 0.683 5.53025661932e-39
-0.0581446350109 -0.0113761242413 0.683 5.06927847001e-39
-0.0568806212063 -0.0113761242413 0.683 4.42498806078e-39
-0.0556166074018 -0.0113761242413 0.683 4.42354752596e-39
-0.0543525935972 -0.0113761242413 0.683 4.88308093656e-39
-0.0530885797926 -0.0113761242413 0.683 4.78907903297e-39
-0.051824565988 -0.0113761242413 0.683 5.06386665534e-39
-0.0505605521834 -0.0113761242413 0.683 5.06531419665e-39
-0.0492965383788 -0.0113761242413 0.683 4.97312977717e-39
-0.0480325245742 -0.0113761242413 0.683 4.69582962667e-39
-0.0467685107697 -0.0113761242413 0.683 4.32741004352e-39
-0.0455044969651 -0.0113761242413 0.683 3.68239656428e-39
-0.0442404831605 -0.0113761242413 0.683 3.13029898232e-39
-0.0430393924443 -0.0113927803529 0.684 3.96112744052e-39
-0.0417124555513 -0.0113761242413 0.683 3.59270505477e-39
-0.0404484417467 -0.0113761242413 0.683 3.59270505477e-39
-0.0392417989933 -0.0113927803529 0.684 3.0402571482e-39
-0.0379759345096 -0.0113927803529 0.684 3.13209404566e-39
-0.036710070026 -0.0113927803529 0.684 3.22358201979e-39
-0.0354442055423 -0.0113927803529 0.684 2.2097958302e-39
-0.0341783410587 -0.0113927803529 0.684 2.76368847549e-39
-0.032912476575 -0.0113927803529 0.684 2.67184597284e-39
-0.0316466120914 -0.0113927803529 0.684 3.31721117799e-39
-0.0303807476077 -0.0113927803529 0.684 2.94950765835e-39
-0.0290723175055 -0.0113761242413 0.683 2.94878458834e-39
-0.0278083037009 -0.0113761242413 0.683 3.68491189503e-39
-0.0265442898963 -0.0113761242413 0.683 3.68348116929e-39
-0.0253172896731 -0.0113927803529 0.684 3.03884183675e-39
-0.0240514251894 -0.0113927803529 0.684 3.40978095454e-39
-0.0228521851523 -0.0114260925761 0.686 2.76727159566e-39
-0.0216140808547 -0.0114427486878 0.687 2.40171346398e-39
-0.0203722751989 -0.0114594047994 0.688 3.22824974498e-39
-0.019099007999 -0.0114594047994 0.688 4.24133388405e-39
-0.017877559813 -0.0114927170227 0.69 9.21942285649e-41
-0.0166005912549 -0.0114927170227 0.69 7.00474630374e-39
-0.0153902471434 -0.0115426853575 0.693 2.02819511623e-38
-0.0685565554569 -0.0101565267344 0.686 2.35095268827e-38
-0.0670908176337 -0.0101269158692 0.684 2.35098828126e-38
-0.0658249531501 -0.0101269158692 0.684 2.32318539868e-38
-0.0645590886664 -0.0101269158692 0.684 2.17560078455e-38
-0.0632932241827 -0.0101269158692 0.684 1.8528811877e-38
-0.0620273596991 -0.0101269158692 0.684 1.74742338891e-39
-0.0607614952154 -0.0101269158692 0.684 4.05477621689e-39
-0.0594956307318 -0.0101269158692 0.684 4.70049595055e-39
-0.0582297662481 -0.0101269158692 0.684 4.42428320765e-39
-0.0569639017645 -0.0101269158692 0.684 3.87183109718e-39
-0.0556980372808 -0.0101269158692 0.684 4.05656847763e-39
-0.0544321727972 -0.0101269158692 0.684 2.67435009319e-39
-0.0531663083135 -0.0101269158692 0.684 2.67399136079e-39
-0.0519004438299 -0.0101269158692 0.684 2.58107966741e-39
-0.0506345793462 -0.0101269158692 0.684 2.85802528941e-39
-0.0493687148625 -0.0101269158692 0.684 3.31900343872e-39
-0.0481028503789 -0.0101269158692 0.684 2.95022652446e-39
-0.0468369858952 -0.0101269158692 0.684 2.58144400501e-39
-0.0455711214116 -0.0101269158692 0.684 2.12010992588e-39
-0.0443052569279 -0.0101269158692 0.684 2.1211861231e-39
-0.0430393924443 -0.0101269158692 0.684 2.30593331264e-39
-0.0417735279606 -0.0101269158692 0.684 2.30593331264e-39
-0.040507663477 -0.0101269158692 0.684 2.21373768278e-39
-0.0393565410956 -0.0101565267344 0.686 1.66093104379e-39
-0.0380869752538 -0.0101565267344 0.686 2.21374609057e-39
-0.036817409412 -0.0101565267344 0.686 1.84496637371e-39
-0.0355478435702 -0.0101565267344 0.686 1.66057791658e-39
-0.0342782777284 -0.0101565267344 0.686 1.75241761664e-39
-0.0330087118867 -0.0101565267344 0.686 1.8446132465e-39
-0.0316466120914 -0.0101269158692 0.684 1.75241761664e-39
-0.0303807476077 -0.0101269158692 0.684 1.84496917631e-39
-0.0291148831241 -0.0101269158692 0.684 2.30594452303e-39
-0.0278490186404 -0.0101269158692 0.684 2.12083719979e-39
-0.0266608826777 -0.0101565267344 0.686 2.21303563225e-39
-0.0253913168359 -0.0101565267344 0.686 1.93644874266e-39
-0.0241217509941 -0.0101565267344 0.686 2.858765175e-39
-0.0228854973756 -0.0101713321669 0.687 3.04422842805e-39
-0.0216455423989 -0.0101861375995 0.688 3.13642125531e-39
-0.0203722751989 -0.0101861375995 0.688 3.04387249824e-39
-0.019099007999 -0.0101861375995 0.688 4.51863683715e-39
-0.017877559813 -0.0102157484646 0.69 2.76223953288e-40
-0.0166727677387 -0.0102601647623 0.693 8.387306605e-39
-0.0685565554569 -0.00888696089256 0.686 2.35095268827e-38
-0.0672869896151 -0.00888696089256 0.686 2.35095268827e-38
-0.0660174237733 -0.00888696089256 0.686 2.35095212775e-38
-0.0647478579315 -0.00888696089256 0.686 2.24939288142e-38
-0.0635708260432 -0.00889991564605 0.687 2.2676536221e-38
-0.0622087262479 -0.00888696089256 0.686 2.85305488375e-39
-0.0609391604061 -0.00888696089256 0.686 4.05585241411e-39
-0.0596695945643 -0.00888696089256 0.686 4.61009818662e-39
-0.0584000287225 -0.00888696089256 0.686 3.96402672705e-39
-0.0572137434389 -0.00889991564605 0.687 3.87147516737e-39
-0.055860897039 -0.00888696089256 0.686 3.412280871e-39
-0.0545913311972 -0.00888696089256 0.686 3.04456614098e-39
-0.0533217653554 -0.00888696089256 0.686 3.41299413192e-39
-0.0520521995136 -0.00888696089256 0.686 2.6754417047e-39
-0.0507826336718 -0.00888696089256 0.686 2.76727159566e-39
-0.04951306783 -0.00888696089256 0.686 3.04421441506e-39
-0.0482435019882 -0.00888696089256 0.686 2.9520187852e-39
-0.0469739361464 -0.00888696089256 0.686 2.76727159566e-39
-0.0457043703046 -0.00888696089256 0.686 2.6750759658e-39
-0.0444348044628 -0.00888696089256 0.686 2.6750787684e-39
-0.043165238621 -0.00888696089256 0.686 2.39849187881e-39
-0.0418956727792 -0.00888696089256 0.686 2.12190498922e-39
-0.0406261069374 -0.00888696089256 0.686 2.21481948519e-39
-0.0394139121468 -0.00889991564605 0.687 2.30701511505e-39
-0.0381424956259 -0.00889991564605 0.687 2.39921074492e-39
-0.0368710791051 -0.00889991564605 0.687 2.30701511505e-39
-0.0355996625842 -0.00889991564605 0.687 2.30665918525e-39
-0.0343282460633 -0.00889991564605 0.687 2.30665918525e-39
-0.0330568295425 -0.00889991564605 0.687 2.30666058654e-39
-0.0317854130216 -0.00889991564605 0.687 2.30666058654e-39
-0.0305139965007 -0.00889991564605 0.687 2.398859019e-39
-0.0292425799799 -0.00889991564605 0.687 2.49105464887e-39
-0.027971163459 -0.00889991564605 0.687 2.21446775928e-39
-0.0266997469381 -0.00889991564605 0.687 2.49105464887e-39
-0.0254283304173 -0.00889991564605 0.687 2.49105464887e-39
-0.0241569138964 -0.00889991564605 0.687 2.85983716832e-39
-0.0229188095988 -0.00891287039954 0.688 2.58325027873e-39
-0.0217084654872 -0.00893877990651 0.69 2.67544590859e-39
-0.0204314969292 -0.00893877990651 0.69 3.1360681281e-39
-0.0191545283711 -0.00893877990651 0.69 3.96582038908e-39
-0.01790346932 -0.00895173466 0.691 9.1835496158e-41
-0.0166727677387 -0.00897764416697 0.693 8.57097619601e-39
-0.0674831615965 -0.0076396031996 0.688 2.35091681503e-38
-0.0662098943966 -0.0076396031996 0.688 2.23098976882e-38
-0.0649366271966 -0.0076396031996 0.688 2.35091611438e-38
-0.0636633599967 -0.0076396031996 0.688 2.35077332207e-38
-0.0623900927967 -0.0076396031996 0.688 3.49914315891e-39
-0.0611168255968 -0.0076396031996 0.688 2.95095099577e-39
-0.0598435583969 -0.0076396031996 0.688 4.24204153977e-39
-0.0585702911969 -0.0076396031996 0.688 3.5959672776e-39
-0.057297023997 -0.0076396031996 0.688 3.8732730333e-39
-0.055942326918 -0.00762849912518 0.687 3.78142912935e-39
-0.0546709103972 -0.00762849912518 0.687 3.32151736817e-39
-0.0533994938763 -0.00762849912518 0.687 3.2293245409e-39
-0.0521280773554 -0.00762849912518 0.687 2.67652070452e-39
-0.0508566608346 -0.00762849912518 0.687 3.13641004493e-39
-0.0495852443137 -0.00762849912518 0.687 3.13640724233e-39
-0.0483138277928 -0.00762849912518 0.687 3.22860567479e-39
-0.047042411272 -0.00762849912518 0.687 3.22860567479e-39
-0.0457709947511 -0.00762849912518 0.687 3.13605411512e-39
-0.0444995782302 -0.00762849912518 0.687 3.04385848525e-39
-0.0432281617094 -0.00762849912518 0.687 2.85947002812e-39
-0.0419567451885 -0.00762849912518 0.687 2.6750787684e-39
-0.0406853286676 -0.00762849912518 0.687 2.30701231246e-39
-0.0394712831979 -0.0076396031996 0.688 2.30808850968e-39
-0.038198015998 -0.0076396031996 0.688 2.21589287982e-39
-0.0369247487981 -0.0076396031996 0.688 2.40028413954e-39
-0.0356514815981 -0.0076396031996 0.688 2.12369724995e-39
-0.0343782143982 -0.0076396031996 0.688 2.03150162009e-39
-0.0331049471983 -0.0076396031996 0.688 1.93930739152e-39
-0.0318316799983 -0.0076396031996 0.688 2.12405458106e-39
-0.0305584127984 -0.0076396031996 0.688 2.58360200464e-39
-0.0292851455985 -0.0076396031996 0.688 2.39885481511e-39
-0.0280118783985 -0.0076396031996 0.688 2.49105044497e-39
-0.0267386111986 -0.0076396031996 0.688 2.6754417047e-39
-0.0254653439987 -0.0076396031996 0.688 2.85983296442e-39
-0.0242624026034 -0.00766181134844 0.69 3.04422422415e-39
-0.0229854340453 -0.00766181134844 0.69 2.76763733456e-39
-0.0218028501198 -0.00769512357169 0.693 3.13641985401e-39
-0.0205203295245 -0.00769512357169 0.693 3.59740220723e-39
-0.0192378089292 -0.00769512357169 0.693 4.05801321635e-39
-0.0179552883339 -0.00769512357169 0.693 6.43924670327e-40
-0.0166727677387 -0.00769512357169 0.693 9.58548545562e-39
-0.0676793335779 -0.00638484279037 0.69 2.29559957725e-38
-0.0664023650198 -0.00638484279037 0.69 2.06503763507e-38
-0.0651253964617 -0.00638484279037 0.69 2.24017331844e-38
-0.0638484279037 -0.00638484279037 0.69 2.35080919531e-38
-0.0625714593456 -0.00638484279037 0.69 8.01780802203e-39
-0.0611168255968 -0.00636633599967 0.688 2.58217828541e-39
-0.0598435583969 -0.00636633599967 0.688 4.98033245128e-39
-0.0585702911969 -0.00636633599967 0.688 4.24277161627e-39
-0.057297023997 -0.00636633599967 0.688 4.24277161627e-39
-0.0560237567971 -0.00636633599967 0.688 3.50628137329e-39
-0.0547504895971 -0.00636633599967 0.688 3.41444167323e-39
-0.0534772223972 -0.00636633599967 0.688 3.13785478364e-39
-0.0522039551973 -0.00636633599967 0.688 3.04530322397e-39
-0.0509306879973 -0.00636633599967 0.688 3.41299693452e-39
-0.0496574207974 -0.00636633599967 0.688 3.22788400608e-39
-0.0483841535975 -0.00636633599967 0.688 3.41227526581e-39
-0.0471108863975 -0.00636633599967 0.688 3.41227526581e-39
-0.0458376191976 -0.00636633599967 0.688 3.13569117881e-39
-0.0445643519977 -0.00636633599967 0.688 2.85910428922e-39
-0.0432910847977 -0.00636633599967 0.688 2.58252020223e-39
-0.0420178175978 -0.00636633599967 0.688 2.67471583209e-39
-0.0408629938583 -0.00638484279037 0.69 2.9523845241e-39
-0.0395860253003 -0.00638484279037 0.69 2.30809411487e-39
-0.0383090567422 -0.00638484279037 0.69 2.4924853746e-39
-0.0370320881841 -0.00638484279037 0.69 2.492482572e-39
-0.035755119626 -0.00638484279037 0.69 2.769066659e-39
-0.034478151068 -0.00638484279037 0.69 2.58503132908e-39
-0.0332493001657 -0.00639409618571 0.691 2.49283569922e-39
-0.0319704809286 -0.00639409618571 0.691 2.67722555764e-39
-0.0307804942868 -0.00641260297641 0.693 2.58360200464e-39
-0.0294979736915 -0.00641260297641 0.693 2.58288594113e-39
-0.0282561680357 -0.00642185637176 0.694 2.95166846058e-39
-0.0269717967614 -0.00642185637176 0.694 2.76727720086e-39
-0.025687425487 -0.00642185637176 0.694 2.49069031127e-39
-0.0244030542127 -0.00642185637176 0.694 2.95166846058e-39
-0.0231186829383 -0.00642185637176 0.694 2.95166846058e-39
-0.0218972347523 -0.00644036316246 0.696 3.32045098004e-39
-0.0206091621199 -0.00644036316246 0.696 3.22825535017e-39
-0.0193210894874 -0.00644036316246 0.696 3.96545184758e-39
-0.0180330168549 -0.00644036316246 0.696 1.10526015075e-39
-0.0167449442224 -0.00644036316246 0.696 9.76987391275e-39
-0.0664986003314 -0.00511527694857 0.691 2.12957457597e-38
-0.0652197810943 -0.00511527694857 0.691 2.27708758375e-38
-0.0639409618571 -0.00511527694857 0.691 2.3323703496e-38
-0.06266214262 -0.00511527694857 0.691 1.01383075089e-38
-0.0612944907875 -0.00510787423229 0.69 2.30595853601e-39
-0.0600175222294 -0.00510787423229 0.69 4.61263313554e-39
-0.0587405536714 -0.00510787423229 0.69 4.15165218363e-39
-0.0574635851133 -0.00510787423229 0.69 4.52043470308e-39
-0.0561866165552 -0.00510787423229 0.69 3.69067263301e-39
-0.0549096479971 -0.00510787423229 0.69 3.78178926306e-39
-0.0536326794391 -0.00510787423229 0.69 3.41336267341e-39
-0.0525833444066 -0.00513008238113 0.693 3.32116704355e-39
-0.0513008238113 -0.00513008238113 0.693 3.2289602033e-39
-0.050018303216 -0.00513008238113 0.693 3.41263259691e-39
-0.0488061084254 -0.00513748509741 0.694 3.50482822678e-39
-0.047521737151 -0.00513748509741 0.694 3.50482822678e-39
-0.0462373658767 -0.00513748509741 0.694 3.41227526581e-39
-0.0449529946023 -0.00513748509741 0.694 3.22788400608e-39
-0.043668623328 -0.00513748509741 0.694 3.22788680868e-39
-0.0423231796443 -0.00513008238113 0.693 3.04349554895e-39
-0.041040659049 -0.00513008238113 0.693 2.85983296442e-39
-0.0397581384537 -0.00513008238113 0.693 2.21446495668e-39
-0.0384756178585 -0.00513008238113 0.693 2.675443106e-39
-0.0371930972632 -0.00513008238113 0.693 2.39885481511e-39
-0.0359105766679 -0.00513008238113 0.693 2.49140637478e-39
-0.0346780244075 -0.00513748509741 0.694 3.04457735136e-39
-0.0333936531331 -0.00513748509741 0.694 3.04457735136e-39
-0.0321092818588 -0.00513748509741 0.694 2.76834639158e-39
-0.0308249105844 -0.00513748509741 0.694 2.58288594113e-39
-0.0296256705473 -0.00515229052996 0.696 2.67472704248e-39
-0.0283375979148 -0.00515229052996 0.696 2.95131393207e-39
-0.0270495252823 -0.00515229052996 0.696 3.1357051918e-39
-0.0257614526498 -0.00515229052996 0.696 3.32009645152e-39
-0.0244733800173 -0.00515229052996 0.696 3.22790082166e-39
-0.0231853073848 -0.00515229052996 0.696 2.76692267234e-39
-0.0218972347523 -0.00515229052996 0.696 3.41229208139e-39
-0.0206091621199 -0.00515229052996 0.696 3.59703506703e-39
-0.0193210894874 -0.00515229052996 0.696 4.70301408389e-39
-0.0180330168549 -0.00515229052996 0.696 1.28964580528e-39
-0.0667873062663 -0.00385311382306 0.694 2.18489195389e-38
-0.0655029349919 -0.00385311382306 0.694 2.26786802077e-38
-0.0641260297641 -0.00384756178585 0.693 2.35088094179e-38
-0.0628435091688 -0.00384756178585 0.693 1.15216020905e-38
-0.0615609885735 -0.00384756178585 0.693 1.56803896859e-39
-0.0602784679783 -0.00384756178585 0.693 4.98141565499e-39
-0.058995947383 -0.00384756178585 0.693 4.33531897205e-39
-0.0577967073458 -0.00385311382306 0.694 4.15092490972e-39
-0.0565123360715 -0.00385311382306 0.694 3.78214519287e-39
-0.0552279647971 -0.00385311382306 0.694 3.78107179824e-39
-0.0539435935228 -0.00385311382306 0.694 3.68923349949e-39
-0.0526592222484 -0.00385311382306 0.694 3.68958382411e-39
-0.0515229052996 -0.00386421789747 0.696 3.68921668391e-39
-0.0502348326672 -0.00386421789747 0.696 3.68813768409e-39
-0.0489467600347 -0.00386421789747 0.696 3.59594205423e-39
-0.0477271625277 -0.00386976993468 0.697 3.59594485682e-39
-0.0464372392162 -0.00386976993468 0.697 4.149118636e-39
-0.0450825421372 -0.00386421789747 0.696 3.13496670751e-39
-0.0437944695047 -0.00386421789747 0.696 2.67399136079e-39
-0.0425063968722 -0.00386421789747 0.696 2.95057684908e-39
-0.0412183242397 -0.00386421789747 0.696 2.95094679187e-39
-0.0398155095049 -0.00385311382306 0.694 2.85875536591e-39
-0.0385311382306 -0.00385311382306 0.694 3.04314522433e-39
-0.0372467669562 -0.00385311382306 0.694 2.76655553215e-39
-0.0359623956818 -0.00385311382306 0.694 2.95094679187e-39
-0.0347779610773 -0.00386421789747 0.696 3.32008524114e-39
-0.0334898884448 -0.00386421789747 0.696 3.04349835155e-39
-0.0322018158123 -0.00386421789747 0.696 2.95130272168e-39
-0.0309137431798 -0.00386421789747 0.696 2.95095099577e-39
-0.0296682361659 -0.00386976993468 0.697 3.04279069582e-39
-0.0283783128543 -0.00386976993468 0.697 3.13498632569e-39
-0.0270883895428 -0.00386976993468 0.697 3.22718195555e-39
-0.0257984662312 -0.00386976993468 0.697 3.31937758541e-39
-0.0245085429197 -0.00386976993468 0.697 3.04279069582e-39
-0.0232186196081 -0.00386976993468 0.697 3.41157321528e-39
-0.0219286962965 -0.00386976993468 0.697 3.78035573473e-39
-0.0206683838501 -0.00387532197189 0.698 4.70337982279e-39
-0.0193766098595 -0.00387532197189 0.698 4.7033686124e-39
-0.0180848358688 -0.00387532197189 0.698 1.01270158459e-39
-0.0655029349919 -0.0025687425487 0.694 2.3139658357e-38
-0.0642185637176 -0.0025687425487 0.694 2.35091681503e-38
-0.0629341924432 -0.0025687425487 0.694 1.46573325057e-38
-0.0616498211689 -0.0025687425487 0.694 2.48999806982e-39
-0.0603654498945 -0.0025687425487 0.694 4.61155413572e-39
-0.0590810786202 -0.0025687425487 0.694 5.34910235905e-39
-0.0577967073458 -0.0025687425487 0.694 5.44165532002e-39
-0.0566751958296 -0.00257614526498 0.696 4.88741094881e-39
-0.0553871231971 -0.00257614526498 0.696 4.33388544372e-39
-0.0540990505646 -0.00257614526498 0.696 4.42535379968e-39
-0.052886855774 -0.00257984662312 0.697 4.149118636e-39
-0.0515969324624 -0.00257984662312 0.697 4.14947176322e-39
-0.0503070091509 -0.00257984662312 0.697 3.78068924376e-39
-0.0490170858393 -0.00257984662312 0.697 3.41190672431e-39
-0.0477271625277 -0.00257984662312 0.697 3.50374642436e-39
-0.0464372392162 -0.00257984662312 0.697 3.87252894382e-39
-0.0451473159046 -0.00257984662312 0.697 3.50374922696e-39
-0.0438573925931 -0.00257984662312 0.697 3.50374922696e-39
-0.0425674692815 -0.00257984662312 0.697 3.50374922696e-39
-0.0412775459699 -0.00257984662312 0.697 3.4115535971e-39
-0.0399302516072 -0.00257614526498 0.696 3.41083473099e-39
-0.0386421789747 -0.00257614526498 0.696 2.94985658167e-39
-0.0373541063422 -0.00257614526498 0.696 3.50303036085e-39
-0.0361178527237 -0.00257984662312 0.697 3.22644347126e-39
-0.034877897747 -0.00258354798126 0.698 3.31863910112e-39
-0.0335861237564 -0.00258354798126 0.698 2.94985798297e-39
-0.0322943497658 -0.00258354798126 0.698 3.22644487256e-39
-0.0310025757751 -0.00258354798126 0.698 3.04349835155e-39
-0.0297108017845 -0.00258354798126 0.698 3.13569398141e-39
-0.0284190277939 -0.00258354798126 0.698 3.22788961127e-39
-0.0271272538032 -0.00258354798126 0.698 3.22788961127e-39
-0.0258354798126 -0.00258354798126 0.698 4.24204153977e-39
-0.024543705822 -0.00258354798126 0.698 3.87325902032e-39
-0.0232519318313 -0.00258354798126 0.698 4.24204153977e-39
-0.0220230809291 -0.00259095069754 0.7 4.14984590991e-39
-0.0207276055803 -0.00259095069754 0.7 4.05764467485e-39
-0.0194321302315 -0.00259095069754 0.7 5.34801214884e-39
-0.0181366548828 -0.00259095069754 0.7 1.84281117667e-39
-0.0169374148456 -0.0026057561301 0.704 9.76842917403e-39
-0.064496165578 -0.00128992331156 0.697 2.35091681503e-38
-0.0632062422665 -0.00128992331156 0.697 1.64090494731e-38
-0.0618274863596 -0.00128807263249 0.696 2.7658688959e-39
-0.0605394137271 -0.00128807263249 0.696 4.79522372674e-39
-0.0593364723318 -0.00128992331156 0.697 5.80971617076e-39
-0.0580465490202 -0.00128992331156 0.697 5.62532210844e-39
-0.0568380555877 -0.00129177399063 0.698 5.25511166585e-39
-0.0555462815971 -0.00129177399063 0.698 4.60903179849e-39
-0.0542545076065 -0.00129177399063 0.698 4.60902619329e-39
-0.0529627336158 -0.00129177399063 0.698 4.33314415683e-39
-0.0516709596252 -0.00129177399063 0.698 4.33386022035e-39
-0.0503070091509 -0.00128992331156 0.697 4.24166739308e-39
-0.0490170858393 -0.00128992331156 0.697 4.14947176322e-39
-0.0477956376533 -0.00129177399063 0.698 4.05727613335e-39
-0.0465038636627 -0.00129177399063 0.698 3.87252894382e-39
-0.0452120896721 -0.00129177399063 0.698 3.87252894382e-39
-0.0439203156814 -0.00129177399063 0.698 4.149118636e-39
-0.0426285416908 -0.00129177399063 0.698 4.05692300614e-39
-0.0413367677002 -0.00129177399063 0.698 3.59593364644e-39
-0.0399876226584 -0.00128992331156 0.697 4.4249684426e-39
-0.0386976993468 -0.00128992331156 0.697 3.77960463875e-39
-0.0374077760353 -0.00128992331156 0.697 4.14838155301e-39
-0.0361696717377 -0.00129177399063 0.698 4.1480256232e-39
-0.0349778344168 -0.00129547534877 0.7 4.05583279594e-39
-0.0335861237564 -0.00129177399063 0.698 3.59485744922e-39
-0.0322943497658 -0.00129177399063 0.698 4.51681234655e-39
-0.0310025757751 -0.00129177399063 0.698 3.50410235417e-39
-0.0297959330217 -0.00129547534877 0.7 3.41262699172e-39
-0.0285004576729 -0.00129547534877 0.7 3.59701825145e-39
-0.0272049823242 -0.00129547534877 0.7 3.78140951117e-39
-0.0259095069754 -0.00129547534877 0.7 4.24238766049e-39
-0.0246140316266 -0.00129547534877 0.7 4.33458329035e-39
-0.0233185562779 -0.00129547534877 0.7 4.15019203063e-39
-0.0220545424733 -0.00129732602784 0.701 4.33458329035e-39
-0.0207572164454 -0.00129732602784 0.701 4.79556424227e-39
-0.0195154107897 -0.00130102738598 0.703 5.34801074754e-39
-0.0182402929107 -0.00130287806505 0.704 1.56514949116e-39
-0.0169374148456 -0.00130287806505 0.704 9.76878650514e-39
-0.0647737674385 0.0 0.7 2.35098828126e-38
-0.0632969255409 0.0 0.698 1.86231542961e-38
-0.0620051515503 0.0 0.698 2.02760320776e-39
-0.0607133775596 0.0 0.698 4.79486219174e-39
-0.059421603569 0.0 0.698 5.34836387476e-39
-0.0582963906946 0.0 0.7 6.08522406054e-39
-0.0570009153459 0.0 0.7 5.99266269177e-39
-0.0557054399971 0.0 0.7 5.25581511768e-39
-0.0544099646483 0.0 0.7 6.08522406054e-39
-0.0531144892996 0.0 0.7 5.07250425907e-39
-0.0518190139508 0.0 0.7 4.88919480176e-39
-0.0503791856346 0.0 0.698 4.79735370041e-39
-0.049087411644 0.0 0.698 5.07285318239e-39
-0.0477956376533 0.0 0.698 4.70334759293e-39
-0.0465038636627 0.0 0.698 4.79447122947e-39
-0.0452120896721 0.0 0.698 4.61044570864e-39
-0.0439203156814 0.0 0.698 4.42713344873e-39
-0.0426285416908 0.0 0.698 4.24381418233e-39
-0.0413367677002 0.0 0.698 4.70299166312e-39
-0.0400449937095 0.0 0.698 4.79374535686e-39
-0.0387532197189 0.0 0.698 5.25220537284e-39
-0.0374614457283 0.0 0.698 4.51213621358e-39
-0.0362733097656 0.0 0.7 7.82972714345e-39
-0.0349778344168 0.0 0.7 7.09216490714e-39
-0.033682359068 0.0 0.7 4.1422831021e-39
-0.0323868837192 0.0 0.7 5.06530158496e-39
-0.0311358246681 0.0 0.701 4.42245451316e-39
-0.0298384986403 0.0 0.701 4.05618732445e-39
-0.0286226024915 0.0 0.703 4.51931086171e-39
-0.0273215751056 0.0 0.703 3.78247449801e-39
-0.0260205477196 0.0 0.703 4.33672307311e-39
-0.0247195203336 0.0 0.703 4.3363699459e-39
-0.0234184929476 0.0 0.703 4.33600700959e-39
-0.0221174655616 0.0 0.703 4.42819983686e-39
-0.0208460490408 0.0 0.704 4.79411950355e-39
-0.0195431709757 0.0 0.704 5.53205448525e-39
-0.0182402929107 0.0 0.704 1.84389578168e-39
-0.0169374148456 0.0 0.704 9.86277719834e-39
-0.063750341913 0.00130102738598 0.703 2.000644047e-38
-0.062449314527 0.00130102738598 0.703 1.84285601822e-39
-0.0609743233085 0.00129732602784 0.701 5.90192581361e-39
-0.0596769972806 0.00129732602784 0.701 6.17847767074e-39
-0.058546232369 0.00130102738598 0.703 6.73023053328e-39
-0.0572452049831 0.00130102738598 0.703 5.99301722029e-39
-0.0557850191971 0.00129732602784 0.701 5.90189078115e-39
-0.0544876931693 0.00129732602784 0.701 5.34908974736e-39
-0.0531903671414 0.00129732602784 0.701 4.88918359137e-39
-0.0518930411136 0.00129732602784 0.701 4.88954933027e-39
-0.050523538602 0.00129547534877 0.7 4.52076120562e-39
-0.0492280632532 0.00129547534877 0.7 4.52003393172e-39
-0.0479325879045 0.00129547534877 0.7 4.5185933969e-39
-0.0466371125557 0.00129547534877 0.7 4.14945775023e-39
-0.0453416372069 0.00129547534877 0.7 4.79519009558e-39
-0.0440461618582 0.00129547534877 0.7 4.42820544205e-39
-0.0427506865094 0.00129547534877 0.7 4.24453024584e-39
-0.0414552111606 0.00129547534877 0.7 4.79483696836e-39
-0.0401597358119 0.00129547534877 0.7 5.8997453932e-39
-0.0388642604631 0.00129547534877 0.7 7.83333268439e-39
-0.0375687851143 0.00129547534877 0.7 7.36911193043e-39
-0.0363251287795 0.00129732602784 0.701 9.11938696171e-39
-0.0350278027517 0.00129732602784 0.701 9.11974149023e-39
-0.0337304767238 0.00129732602784 0.701 8.56764390827e-39
-0.032433150696 0.00129732602784 0.701 9.21480838064e-39
-0.0311358246681 0.00129732602784 0.701 8.84749302068e-39
-0.0299236298775 0.00130102738598 0.703 5.52989228172e-39
-0.0286226024915 0.00130102738598 0.703 4.42569151261e-39
-0.0273215751056 0.00130102738598 0.703 4.42748657594e-39
-0.0260205477196 0.00130102738598 0.703 4.05943133039e-39
-0.0247546832359 0.00130287806505 0.704 4.61189184865e-39
-0.0234518051709 0.00130287806505 0.704 4.98067436811e-39
-0.0221489271058 0.00130287806505 0.704 4.88811299934e-39
-0.020905270771 0.00130657942319 0.706 4.88631793601e-39
-0.0195986913478 0.00130657942319 0.706 5.07072320872e-39
-0.0182921119246 0.00130657942319 0.706 1.29144367121e-39
-0.0169855325014 0.00130657942319 0.706 9.77129763199e-39
-0.0655140390664 0.00262056156265 0.708 2.350988001e-38
-0.0640223917362 0.00261315884638 0.706 2.12049836582e-38
-0.0625381471223 0.0026057561301 0.704 2.11944571041e-39
-0.0612352690573 0.0026057561301 0.704 5.34875203443e-39
-0.0599323909922 0.0026057561301 0.704 5.71857852124e-39
-0.0586295129272 0.0026057561301 0.704 6.36216687994e-39
-0.0573266348621 0.0026057561301 0.704 6.36216267604e-39
-0.0560237567971 0.0026057561301 0.704 5.62530389156e-39
-0.054720878732 0.0026057561301 0.704 5.16541735375e-39
-0.053418000667 0.0026057561301 0.704 4.88989965489e-39
-0.0521151226019 0.0026057561301 0.704 5.16504881225e-39
-0.0507400680532 0.00260205477196 0.703 4.88846192266e-39
-0.0494390406672 0.00260205477196 0.703 5.07212871108e-39
-0.0481380132812 0.00260205477196 0.703 5.16360547483e-39
-0.0468369858952 0.00260205477196 0.703 4.97993308122e-39
-0.0455359585093 0.00260205477196 0.703 4.7962662928e-39
-0.0442349311233 0.00260205477196 0.703 4.24381418233e-39
-0.0429339037373 0.00260205477196 0.703 4.3363699459e-39
-0.0415144328909 0.00259465205568 0.701 4.51789835286e-39
-0.040217106863 0.00259465205568 0.701 5.34550382459e-39
-0.0389197808352 0.00259465205568 0.701 7.09577605328e-39
-0.0377297941934 0.00260205477196 0.703 6.90957851983e-39
-0.0364287668074 0.00260205477196 0.703 7.4616634901e-39
-0.0351277394214 0.00260205477196 0.703 5.89612583927e-39
-0.0338267120354 0.00260205477196 0.703 5.89720203649e-39
-0.0325256846495 0.00260205477196 0.703 5.25363609857e-39
-0.0312690735612 0.0026057561301 0.704 6.54440014003e-39
-0.0299661954961 0.0026057561301 0.704 5.07035606853e-39
-0.0286633174311 0.0026057561301 0.704 5.34801074754e-39
