# .PCD v0.7 - Point Cloud Data file format
VERSION 0.7
FIELDS x y z rgb
SIZE 4 4 4 4
TYPE F F F F
COUNT 1 1 1 1
WIDTH 832
HEIGHT 1
VIEWPOINT 0 0 0 1 0 0 0
POINTS 832
DATA ascii
-0.0640853148246 -0.0218472664175 0.787 9.59261105831e-39
-0.0624696719967 -0.0217917460454 0.785 8.85612221662e-39
-0.0607059748433 -0.0216807053012 0.781 9.2259781307e-39
-0.0591847166481 -0.0216529451152 0.78 1.00557331943e-38
-0.0574450783226 -0.021541904371 0.776 1.01472155632e-38
-0.0558645983971 -0.0214863839989 0.774 9.22418306737e-39
-0.0544321727972 -0.0214863839989 0.774 8.76285038954e-39
-0.0529312720717 -0.0214586238128 0.773 8.76285319214e-39
-0.0513674482578 -0.0214031034407 0.771 8.94724445186e-39
-0.0498110271602 -0.0213475830687 0.769 1.00535892076e-38
-0.0481990856905 -0.0212643025105 0.766 9.31638009853e-39
-0.0466593207045 -0.0212087821384 0.764 7.56466172983e-39
-0.0452454018953 -0.0212087821384 0.764 8.66921842875e-39
-0.0438314830861 -0.0212087821384 0.764 9.59187397532e-39
-0.0423065235327 -0.0211532617663 0.762 9.13232234784e-39
-0.0408963060816 -0.0211532617663 0.762 6.45938756609e-39
-0.0395897266584 -0.0212087821384 0.764 4.52328494416e-39
-0.0381758078492 -0.0212087821384 0.764 5.07715797127e-39
-0.0368581243516 -0.0212643025105 0.766 5.72180290901e-39
-0.0354405041842 -0.0212643025105 0.766 5.72003026645e-39
-0.0340673003145 -0.0212920626966 0.767 7.28698322874e-39
-0.0326478294681 -0.0212920626966 0.767 6.64232007412e-39
-0.0313097885007 -0.0213475830687 0.769 6.7348660286e-39
-0.029964344817 -0.0214031034407 0.771 6.55047476887e-39
-0.0286114984171 -0.0214586238128 0.773 6.45757148328e-39
-0.0272160863986 -0.0214863839989 0.774 6.91819930798e-39
-0.0258502852452 -0.021541904371 0.776 6.73380944956e-39
-0.0244770813755 -0.0215974247431 0.778 7.28698182744e-39
-0.0231260856546 -0.0216807053012 0.781 7.38097532323e-39
-0.0216807053012 -0.0216807053012 0.781 5.16828020651e-39
-0.0203389629757 -0.0217917460454 0.785 5.99767513638e-39
-0.0189342975618 -0.0218472664175 0.787 6.73451290138e-39
-0.017477813134 -0.0218472664175 0.787 7.37915503653e-39
-0.0160620436457 -0.0219027867896 0.789 9.12942446261e-39
-0.0146203646504 -0.0219305469756 0.79 9.86590209391e-39
-0.0131916404086 -0.0219860673477 0.792 9.49675383556e-39
-0.0117555134506 -0.0220415877198 0.794 8.85320331192e-39
-0.0103119837762 -0.0220971080919 0.796 8.02417271965e-39
-0.00886105138558 -0.022152628464 0.798 7.6557545378e-39
-0.00738420948799 -0.022152628464 0.798 7.6561202767e-39
-0.0059369784555 -0.0222636692081 0.802 7.93235123648e-39
-0.00446938995326 -0.0223469497663 0.805 7.19586239479e-39
-0.00299439873473 -0.0224579905105 0.809 7.10402269474e-39
-0.0015009007255 -0.0225135108825 0.811 7.7501081673e-39
0.0 -0.0225135108825 0.811 7.65540141059e-39
0.0015009007255 -0.0225135108825 0.811 7.8394409444e-39
0.00300920416729 -0.0225690312546 0.813 7.8398038807e-39
0.00451380625093 -0.0225690312546 0.813 7.9337973765e-39
0.00606282463224 -0.0227355923709 0.819 7.84160174663e-39
0.0075785307903 -0.0227355923709 0.819 8.67029042208e-39
0.0091164450972 -0.022791112743 0.821 9.4982714418e-39
0.0106617621204 -0.0228466331151 0.823 1.19861339328e-38
0.0122440927249 -0.0229576738593 0.827 8.47982032961e-39
0.0138079165388 -0.0230131942314 0.829 7.92521021951e-39
0.015379143069 -0.0230687146034 0.831 1.29034183023e-38
0.0169170573759 -0.0230687146034 0.831 1.47466064283e-38
0.0184993879804 -0.0231242349755 0.833 1.52082922333e-38
0.0201853566129 -0.0232907960918 0.839 1.47491063447e-38
0.0217898953663 -0.0233463164639 0.841 1.48427467133e-38
0.023401836836 -0.023401836836 0.843 1.44739726017e-38
0.025021181022 -0.0234573572081 0.845 1.31767597847e-38
0.0265850048358 -0.0234573572081 0.845 1.35437262213e-38
0.0281488286497 -0.0234573572081 0.845 1.07796369745e-38
0.0299236298775 -0.0236239183244 0.851 9.76692417948e-39
0.0314985577658 -0.0236239183244 0.851 1.12438633336e-38
0.0332678069564 -0.0237627192546 0.856 1.11541928436e-38
0.0349334181191 -0.0238182396267 0.858 1.1526566891e-38
0.0366915632353 -0.0239292803708 0.862 1.00535807998e-38
0.0385089300817 -0.0240680813011 0.867 1.12542679747e-38
0.0402060027886 -0.0241236016732 0.869 1.19889855751e-38
0.0419104782118 -0.0241791220453 0.871 1.1710236482e-38
0.0436223563512 -0.0242346424173 0.873 1.21712174339e-38
0.045237999179 -0.0242346424173 0.873 1.13446825542e-38
0.0469609813929 -0.0242901627894 0.875 8.95153803036e-39
0.0485803255789 -0.0242901627894 0.875 5.63003327388e-39
-0.0771807199216 -0.0207794245943 0.802 2.35091681503e-38
-0.0756964753077 -0.0207794245943 0.802 2.35091611438e-38
-0.0740271627868 -0.0207276055803 0.8 2.29588726382e-38
-0.0721838864334 -0.0206239675524 0.796 5.07620228572e-39
-0.070710745894 -0.0206239675524 0.796 9.40751774805e-39
-0.0692376053545 -0.0206239675524 0.796 1.11588465558e-38
-0.0674239398663 -0.0205203295245 0.792 1.09744609012e-38
-0.0657916409268 -0.0204685105106 0.79 1.08829869401e-38
-0.0642481745827 -0.0204426010036 0.789 9.86955387771e-39
-0.0626288303967 -0.0203907819896 0.787 9.22490473608e-39
-0.0607059748433 -0.0202353249478 0.781 7.93488338281e-39
-0.0591847166481 -0.0202094154408 0.78 9.2259781307e-39
-0.0575931326482 -0.0201575964269 0.778 1.05152750127e-38
-0.0560089513645 -0.0201057774129 0.776 9.96210123349e-39
-0.0544321727972 -0.020053958399 0.774 9.77735684655e-39
-0.0529312720717 -0.020028048892 0.773 9.31638009853e-39
-0.0513674482578 -0.019976229878 0.771 8.39406787009e-39
-0.0498110271602 -0.0199244108641 0.769 8.39406787009e-39
-0.0482620087789 -0.0198725918501 0.767 9.22382853886e-39
-0.0467814655231 -0.0198466823432 0.766 8.67101068949e-39
-0.0452454018953 -0.0197948633292 0.764 8.85360968848e-39
-0.0438314830861 -0.0197948633292 0.764 8.94650456628e-39
-0.0424175642769 -0.0197948633292 0.764 9.68549752832e-39
-0.0410036454676 -0.0197948633292 0.764 6.45939036869e-39
-0.0395897266584 -0.0197948633292 0.764 4.33853915592e-39
-0.0382757445189 -0.0198466823432 0.766 5.16935640373e-39
-0.0368581243516 -0.0198466823432 0.766 5.53705712077e-39
-0.0354867711609 -0.0198725918501 0.767 5.3512491483e-39
-0.0340673003145 -0.0198725918501 0.767 6.45686943275e-39
-0.0327329607053 -0.0199244108641 0.769 6.18098739629e-39
-0.0313912183798 -0.019976229878 0.771 6.4579232092e-39
-0.030042073338 -0.020028048892 0.773 6.18169224942e-39
-0.0286114984171 -0.020028048892 0.773 6.36573318453e-39
-0.0272864122032 -0.0201057774129 0.776 7.19478619757e-39
-0.0259169096917 -0.0201575964269 0.778 6.6419683482e-39
-0.0245400044638 -0.0202094154408 0.78 5.9043977041e-39
-0.0231260856546 -0.0202353249478 0.781 6.27318022356e-39
-0.0217362256733 -0.0202871439617 0.783 6.1813419248e-39
-0.0203907819896 -0.0203907819896 0.787 7.28696781445e-39
-0.0189824152176 -0.0204426010036 0.789 7.28660207555e-39
-0.0175222294316 -0.0204426010036 0.789 8.30002953274e-39
-0.0160824011154 -0.0204685105106 0.79 8.20674789657e-39
-0.0146573782318 -0.0205203295245 0.792 7.83760103952e-39
-0.0132249526319 -0.0205721485385 0.794 7.92907500067e-39
-0.0117555134506 -0.0205721485385 0.794 8.20783810678e-39
-0.0103119837762 -0.0206239675524 0.796 7.47136187678e-39
-0.00886105138558 -0.0206757865664 0.798 7.47100734826e-39
-0.00738420948799 -0.0206757865664 0.798 7.37953338711e-39
-0.00594438117178 -0.0208053341012 0.803 7.01039493785e-39
-0.00448049402767 -0.0209089721291 0.807 7.56392464684e-39
-0.00300180145101 -0.021012610157 0.811 7.01182706488e-39
-0.0015009007255 -0.021012610157 0.811 7.28841395447e-39
0.0 -0.021064429171 0.813 7.47101295346e-39
0.00150460208364 -0.021064429171 0.813 7.93163657426e-39
0.00301660688356 -0.0211162481849 0.815 8.11639357289e-39
0.00453601439976 -0.0211680671989 0.817 8.30186102984e-39
0.0060776300648 -0.0212717052268 0.821 7.56464911814e-39
0.007597037581 -0.0212717052268 0.821 8.30113795983e-39
0.00916086139487 -0.0213753432547 0.825 1.02358224677e-38
0.0107135811343 -0.0214271622687 0.827 1.097196659e-38
0.0122737035901 -0.0214789812826 0.829 1.19853954485e-38
0.0138412287621 -0.0215308002966 0.831 1.37363963524e-38
0.015379143069 -0.0215308002966 0.831 1.45650808239e-38
0.0169577723154 -0.0215826193105 0.833 1.32739790695e-38
0.0185882205758 -0.0216862573384 0.837 1.45643493461e-38
0.0202334742687 -0.0217898953663 0.841 1.44728711811e-38
0.0218417143803 -0.0218417143803 0.843 1.41037369357e-38
0.023401836836 -0.0218417143803 0.843 8.84860004647e-39
0.025021181022 -0.0218935333942 0.845 9.3981710873e-39
0.0266479279242 -0.0219453524082 0.847 9.30596144445e-39
0.0282820775427 -0.0219971714221 0.849 8.7538540534e-39
0.0300291185845 -0.022126718957 0.854 1.30884835866e-38
0.03160959851 -0.022126718957 0.854 1.21683335617e-38
0.0334232639983 -0.0222821759988 0.86 9.95744331739e-39
0.0350962778772 -0.0223339950128 0.862 1.04216556636e-38
0.0367766944725 -0.0223858140267 0.864 1.11602912945e-38
0.0385977626771 -0.0225153615616 0.869 1.04252261721e-38
0.0402985367421 -0.0225671805756 0.871 1.11592207025e-38
0.0420067135234 -0.0226189995895 0.873 1.17105882079e-38
0.0436223563512 -0.0226189995895 0.873 1.20790190015e-38
0.045237999179 -0.0226189995895 0.873 1.08837058062e-38
0.0469609813929 -0.0226708186035 0.875 9.68874854075e-39
0.0485803255789 -0.0226708186035 0.875 8.85652719188e-39
-0.0772769552332 -0.0193192388083 0.803 2.35091681503e-38
-0.0757908599402 -0.0193192388083 0.803 2.35095184749e-38
-0.0742122306938 -0.0192951799804 0.802 2.29588726382e-38
-0.0725466195311 -0.0192470623246 0.8 5.35278917531e-39
-0.0708884110847 -0.0191989446688 0.798 8.66995270915e-39
-0.0692376053545 -0.019150827013 0.796 1.05138330765e-38
-0.0675942023407 -0.0191027093571 0.794 1.04223605167e-38
-0.0659582020431 -0.0190545917013 0.792 1.08829855388e-38
-0.0642481745827 -0.0189824152176 0.789 1.09759000348e-38
-0.0626288303967 -0.0189342975618 0.787 1.05156435542e-38
-0.0610168889271 -0.018886179906 0.785 9.04051347635e-39
-0.0592605944899 -0.0187899445944 0.781 9.50149162567e-39
-0.0577411869737 -0.0187658857665 0.78 8.9479465024e-39
-0.056153304332 -0.0187177681107 0.778 9.59331591144e-39
-0.0545728244065 -0.0186696504548 0.776 9.50112308417e-39
-0.0529997471972 -0.018621532799 0.774 9.59296558682e-39
-0.0515006971508 -0.0185974739711 0.773 9.96174950757e-39
-0.0499405746951 -0.0185493563153 0.771 8.39406787009e-39
-0.0483878549556 -0.0185012386595 0.769 8.30187504282e-39
-0.0468425379324 -0.0184531210037 0.767 8.67065756227e-39
-0.0453638453558 -0.0184290621758 0.766 8.66886249894e-39
-0.0439462251884 -0.0184290621758 0.766 1.00528521246e-38
-0.042528605021 -0.0184290621758 0.766 8.39476151283e-39
-0.0411109848537 -0.0184290621758 0.766 6.1828062817e-39
-0.0396933646863 -0.0184290621758 0.766 4.8917157377e-39
-0.0383257128538 -0.0184531210037 0.767 5.62998002454e-39
-0.0369062420074 -0.0184531210037 0.767 5.62925555323e-39
-0.0354867711609 -0.0184531210037 0.767 5.62783884048e-39
-0.0341561329098 -0.0185012386595 0.769 6.8256547548e-39
-0.0328180919425 -0.0185493563153 0.771 6.45757708848e-39
-0.0314726482588 -0.0185974739711 0.773 6.73451009879e-39
-0.0300809375984 -0.018621532799 0.774 6.82634279235e-39
-0.0286485119985 -0.018621532799 0.774 6.45720714568e-39
-0.0273567380079 -0.0187177681107 0.778 6.3646597899e-39
-0.0259835341382 -0.0187658857665 0.78 5.71964631067e-39
-0.024571466008 -0.0187899445944 0.781 6.64195433522e-39
-0.0231853073848 -0.0188380622502 0.783 7.19440924829e-39
-0.0218472664175 -0.0189342975618 0.787 7.74758302747e-39
-0.0204426010036 -0.0189824152176 0.789 8.11564107561e-39
-0.0189824152176 -0.0189824152176 0.789 8.85284317822e-39
-0.0175444375805 -0.0190064740455 0.79 8.02200070703e-39
-0.016123116055 -0.0190545917013 0.792 8.11347747079e-39
-0.0146943918132 -0.0191027093571 0.794 8.57481154991e-39
-0.0132249526319 -0.0191027093571 0.794 8.94323813956e-39
-0.0117555134506 -0.0191027093571 0.794 8.3925993093e-39
-0.0103378932832 -0.0191989446688 0.798 7.10294369492e-39
-0.00886105138558 -0.0191989446688 0.798 6.64196554561e-39
-0.00743047646473 -0.0193192388083 0.803 7.01075086766e-39
-0.00595918660434 -0.0193673564641 0.805 6.73416397807e-39
-0.00450270217651 -0.0195117094315 0.811 7.19514212738e-39
-0.00300920416729 -0.0195598270874 0.813 7.37953338711e-39
-0.00150460208364 -0.0195598270874 0.813 7.19513932479e-39
0.0 -0.0196079447432 0.815 7.37916624691e-39
0.00150830344178 -0.0196079447432 0.815 7.83978986772e-39
0.00303141231612 -0.0197041800548 0.819 7.84015560662e-39
0.00454711847418 -0.0197041800548 0.819 7.84123600773e-39
0.00609243549736 -0.0198004153664 0.823 8.48660401548e-39
0.00763405116239 -0.0198485330222 0.825 8.02454826764e-39
0.00918306954371 -0.019896650678 0.827 1.19871764988e-38
0.0107394906413 -0.0199447683338 0.829 1.33683298964e-38
0.0123033144552 -0.0199928859897 0.831 1.25403614884e-38
0.0138412287621 -0.0199928859897 0.831 1.42920784558e-38
0.0154161566504 -0.0200410036455 0.833 1.41058949353e-38
0.0169984872549 -0.0200891213013 0.835 1.37356704798e-38
0.0186770531711 -0.0202334742687 0.841 1.36423916462e-38
0.0202815919245 -0.0202815919245 0.843 1.3734587276e-38
0.0218417143803 -0.0202815919245 0.843 1.41959353682e-38
0.0234573572081 -0.0203297095803 0.845 8.66313539212e-39
0.0250804027522 -0.0203778272361 0.847 1.17981301256e-38
0.0267108510126 -0.020425944892 0.849 1.47480161345e-38
0.028448638659 -0.0205462390315 0.854 1.3366872546e-38
0.0300291185845 -0.0205462390315 0.854 1.18002629019e-38
0.0317576528356 -0.0206424743431 0.858 9.49681409139e-39
0.0335009925192 -0.0207387096547 0.862 1.04209325936e-38
0.0351777077563 -0.0207868273105 0.864 1.06989586167e-38
0.0369043913283 -0.0208590037943 0.867 1.05156435542e-38
0.0385977626771 -0.0209071214501 0.869 1.06096174318e-38
0.0402985367421 -0.0209552391059 0.871 1.10680970659e-38
0.042102948835 -0.0210514744175 0.875 1.23563079416e-38
0.043722293021 -0.0210514744175 0.875 1.27254604038e-38
0.0453416372069 -0.0210514744175 0.875 1.07922360489e-38
0.047121990472 -0.0211236509012 0.878 8.58205065778e-39
-0.0772769552332 -0.0178331435154 0.803 2.35091681503e-38
-0.0757908599402 -0.0178331435154 0.803 2.35095184749e-38
-0.0743047646473 -0.0178331435154 0.803 2.26833647484e-38
-0.0727279860799 -0.0178109353665 0.802 4.15460191689e-39
-0.0712437414661 -0.0178109353665 0.802 9.40859955047e-39
-0.0694115691871 -0.0177221027712 0.798 9.59260265052e-39
-0.0677644648151 -0.0176776864735 0.796 9.22382013107e-39
-0.0661247631593 -0.0176332701758 0.794 1.02376161298e-38
-0.0643296044618 -0.0175444375805 0.79 1.0791508775e-38
-0.0627879887967 -0.0175222294316 0.789 1.08837058062e-38
-0.0610168889271 -0.0174333968363 0.785 1.03301760972e-38
-0.0594123501736 -0.0173889805386 0.783 9.77700512063e-39
-0.0578152141365 -0.017344564241 0.781 9.13234056472e-39
-0.0562976572994 -0.0173223560921 0.78 8.57916398294e-39
-0.0545728244065 -0.0172335234968 0.776 9.31673182445e-39
-0.0529997471972 -0.0171891071991 0.774 9.96174530368e-39
-0.0515673215973 -0.0171891071991 0.774 1.05149218855e-38
-0.0500701222299 -0.0171668990503 0.773 8.94724164927e-39
-0.0485137011324 -0.0171224827526 0.771 8.67065756227e-39
-0.0470868275696 -0.0171224827526 0.771 8.02529095583e-39
-0.0455415105465 -0.0170780664549 0.769 1.00521528767e-38
-0.0440035962396 -0.0170336501573 0.767 9.96065509347e-39
-0.0425841253931 -0.0170336501573 0.767 9.50110907119e-39
-0.0411646545467 -0.0170336501573 0.767 6.82781835963e-39
-0.0397451837003 -0.0170336501573 0.767 5.07575246891e-39
-0.0384256495236 -0.0170780664549 0.769 5.35339593754e-39
-0.037002477319 -0.0170780664549 0.769 5.26047583637e-39
-0.0355793051144 -0.0170780664549 0.769 5.8118741704e-39
-0.0342449655052 -0.0171224827526 0.771 7.01004881713e-39
-0.0329032231797 -0.0171668990503 0.773 7.28733775725e-39
-0.0315133631984 -0.0171891071991 0.774 7.01109698838e-39
-0.0300809375984 -0.0171891071991 0.774 6.54975590276e-39
-0.0287225391613 -0.0172335234968 0.776 5.81147760293e-39
-0.0274622267148 -0.017344564241 0.781 5.71892744456e-39
-0.0260168463614 -0.017344564241 0.781 7.10186049121e-39
-0.0246343890964 -0.0173889805386 0.783 7.28588180814e-39
-0.0233037508453 -0.017477813134 0.787 8.48406906656e-39
-0.0219027867896 -0.0175222294316 0.789 8.94468427957e-39
-0.0204426010036 -0.0175222294316 0.789 8.29931346923e-39
-0.0190064740455 -0.0175444375805 0.79 7.19332184068e-39
-0.0175444375805 -0.0175444375805 0.79 8.02308250945e-39
-0.016123116055 -0.0175888538782 0.792 8.851766981e-39
-0.0146943918132 -0.0176332701758 0.794 9.40458342907e-39
-0.0132582648551 -0.0176776864735 0.796 7.283730815e-39
-0.0117851243157 -0.0176776864735 0.796 7.10186469511e-39
-0.0103378932832 -0.0177221027712 0.798 7.10259056771e-39
-0.00891657175768 -0.0178331435154 0.803 7.47172901697e-39
-0.00744898325543 -0.017877559813 0.805 7.56392464684e-39
-0.0059739920369 -0.0179219761107 0.807 6.64196554561e-39
-0.00450270217651 -0.018010808706 0.811 7.19514212738e-39
-0.00300920416729 -0.0180552250037 0.813 7.47172901697e-39
-0.00150830344178 -0.0180996413014 0.815 7.01003200154e-39
0.0 -0.0180996413014 0.815 7.47206392731e-39
0.00151200479992 -0.0181440575991 0.817 7.84084924936e-39
0.00303141231612 -0.0181884738967 0.819 8.02525452207e-39
0.0045582225486 -0.0182328901944 0.821 7.74903617397e-39
0.00609243549736 -0.0182773064921 0.823 7.47137308716e-39
0.00763405116239 -0.0183217227897 0.825 8.39261752618e-39
0.00918306954371 -0.0183661390874 0.827 9.68157809651e-39
0.0107394906413 -0.0184105553851 0.829 1.07857844708e-38
0.0123033144552 -0.0184549716828 0.831 1.08797709601e-38
0.0138745409853 -0.0184993879804 0.833 1.17095316289e-38
0.0154531702318 -0.0185438042781 0.835 1.13393099759e-38
0.0170392021945 -0.0185882205758 0.837 1.17073666228e-38
0.0186770531711 -0.0186770531711 0.841 1.1706283419e-38
0.0202815919245 -0.0187214694688 0.843 1.3366525024e-38
0.0218417143803 -0.0187214694688 0.843 1.19828857229e-38
0.0234573572081 -0.0187658857665 0.845 9.12483801274e-39
0.0250804027522 -0.0188103020641 0.847 1.16151681903e-38
0.0267737741009 -0.0188991346595 0.851 1.07861151773e-38
0.028448638659 -0.018965759106 0.854 7.19192474611e-39
0.0301697701938 -0.0190545917013 0.858 8.94507524184e-39
0.0318316799983 -0.019099007999 0.86 1.07900668389e-38
0.0335787210401 -0.0191878405943 0.864 1.08833414686e-38
0.0352998525749 -0.0192544650409 0.867 1.01468610347e-38
0.0369043913283 -0.0192544650409 0.867 1.01468638373e-38
0.0385977626771 -0.0192988813385 0.869 9.59510957347e-39
0.0403910706956 -0.0193877139339 0.873 1.06993145465e-38
0.042102948835 -0.0194321302315 0.875 1.20807944466e-38
0.043722293021 -0.0194321302315 0.875 1.23573953492e-38
0.0453416372069 -0.0194321302315 0.875 1.1161382906e-38
-0.0778543671029 -0.016469193041 0.809 2.35088094179e-38
-0.0763571677356 -0.016469193041 0.809 2.35098758061e-38
-0.0744898325543 -0.0163877631619 0.805 2.24067750562e-38
-0.0728186693543 -0.0163470482224 0.803 5.26094807396e-39
-0.0712437414661 -0.0163266907526 0.802 9.77702754141e-39
-0.0694115691871 -0.0162452608736 0.798 1.04227276569e-38
-0.0677644648151 -0.016204545934 0.796 9.50077135826e-39
-0.0661247631593 -0.0161638309945 0.794 8.3944237999e-39
-0.0644924642199 -0.016123116055 0.792 1.00539451374e-38
-0.0628675679967 -0.0160824011154 0.79 1.06067629868e-38
-0.0613278030108 -0.0160620436457 0.789 1.0883352679e-38
-0.0595641058574 -0.0159806137666 0.785 1.05145729621e-38
-0.0579632684621 -0.0159398988271 0.783 9.31638009853e-39
-0.0562976572994 -0.0158788264178 0.78 8.85539774532e-39
-0.0547134760158 -0.0158381114782 0.778 8.48661522587e-39
-0.0531366974484 -0.0157973965387 0.776 9.13198743751e-39
-0.0515673215973 -0.0157566815992 0.774 1.01461407673e-38
-0.0501348959974 -0.0157566815992 0.774 1.01457848375e-38
-0.0486395473091 -0.0157363241294 0.773 9.22383134145e-39
-0.0470868275696 -0.0156956091899 0.771 7.5639554754e-39
-0.0456599540069 -0.0156956091899 0.771 7.37847400547e-39
-0.0441183383419 -0.0156548942503 0.769 9.50003007137e-39
-0.0425841253931 -0.0156141793108 0.767 8.48695434009e-39
-0.0411646545467 -0.0156141793108 0.767 5.81366643114e-39
-0.0398488217282 -0.0156548942503 0.769 5.26014372864e-39
-0.0385255861933 -0.0156956091899 0.771 5.07645311814e-39
-0.0370987126306 -0.0156956091899 0.771 5.07608177405e-39
-0.0356718390679 -0.0156956091899 0.771 5.81223010021e-39
-0.0343337981005 -0.0157363241294 0.773 7.01112501435e-39
-0.0329032231797 -0.0157363241294 0.773 5.53562078984e-39
-0.0315133631984 -0.0157566815992 0.774 5.35157565084e-39
-0.0301586661194 -0.0157973965387 0.776 5.99658072228e-39
-0.0288705934869 -0.0158788264178 0.78 6.6412382717e-39
-0.0274622267148 -0.0158991838875 0.781 7.65395667187e-39
-0.0260834708079 -0.0159398988271 0.783 7.65359513687e-39
-0.0246973121848 -0.0159806137666 0.785 9.03687990943e-39
-0.0233629725755 -0.0160620436457 0.789 9.03652958482e-39
-0.0219027867896 -0.0160620436457 0.789 7.83798639659e-39
-0.0204685105106 -0.0160824011154 0.79 7.1007744849e-39
-0.0190545917013 -0.016123116055 0.792 8.02272798094e-39
-0.0175888538782 -0.016123116055 0.792 8.57662062623e-39
-0.0161638309945 -0.0161638309945 0.794 7.28552868093e-39
-0.0147314053946 -0.016204545934 0.796 7.10006402658e-39
-0.0132582648551 -0.016204545934 0.796 6.8242016083e-39
-0.0117851243157 -0.016204545934 0.796 6.73380944956e-39
-0.0103378932832 -0.0162452608736 0.798 6.36610592992e-39
-0.00891657175768 -0.0163470482224 0.803 6.73380804826e-39
-0.00744898325543 -0.0163877631619 0.805 7.56392464684e-39
-0.00598879746946 -0.016469193041 0.809 6.82635680533e-39
-0.00451380625093 -0.0165506229201 0.813 6.91783356908e-39
-0.00300920416729 -0.0165506229201 0.813 7.28661889113e-39
-0.00150830344178 -0.0165913378596 0.815 7.74759984305e-39
0.0 -0.0166320527991 0.817 7.65680831425e-39
0.00151570615806 -0.0166727677387 0.819 7.56497281809e-39
0.0030388150324 -0.0167134826782 0.821 7.74866202728e-39
0.00456932662302 -0.0167541976177 0.823 8.02489999356e-39
0.00610724092991 -0.0167949125573 0.825 8.66919881057e-39
0.00765255795309 -0.0168356274968 0.827 8.66813242244e-39
0.00920527769254 -0.0168763424363 0.829 9.4039178123e-39
0.0107394906413 -0.0168763424363 0.829 8.94079847893e-39
0.0123033144552 -0.0169170573759 0.831 1.07843453373e-38
0.0139078532086 -0.0169984872549 0.835 1.32729084775e-38
0.0154901838131 -0.0170392021945 0.837 1.12446046205e-38
0.017079917134 -0.017079917134 0.839 1.13371491737e-38
0.0187214694688 -0.0171613470131 0.843 1.21676174982e-38
0.0203297095803 -0.0172020619526 0.845 1.44728711811e-38
0.0218935333942 -0.0172020619526 0.845 1.08783346292e-38
0.0235683979523 -0.0172834918317 0.849 8.66529619435e-39
0.0251988462126 -0.0173242067712 0.851 9.68120955502e-39
0.0268681587335 -0.0173852791805 0.854 8.20607527331e-39
0.028448638659 -0.0173852791805 0.854 1.01439827677e-38
0.0302400959984 -0.0175074239991 0.86 9.96030897275e-39
0.0319057071611 -0.0175481389386 0.862 1.04223577141e-38
0.0336953138215 -0.0176499262875 0.867 9.50112028158e-39
0.0352998525749 -0.0176499262875 0.867 1.00539409335e-38
0.0369895225655 -0.017690641227 0.869 1.07911570491e-38
0.0386865952724 -0.0177313561665 0.871 1.00557331943e-38
0.0404836046491 -0.0178127860456 0.875 1.09755455063e-38
0.042102948835 -0.0178127860456 0.875 1.18971192504e-38
0.043722293021 -0.0178127860456 0.875 1.18049418374e-38
0.0453416372069 -0.0178127860456 0.875 1.05163764333e-38
-0.0778543671029 -0.0149719936736 0.809 2.35091681503e-38
-0.0763571677356 -0.0149719936736 0.809 2.35087954049e-38
-0.0746749004612 -0.0149349800922 0.807 2.29588726382e-38
-0.073181402452 -0.0149349800922 0.807 5.35314370382e-39
-0.0713325740614 -0.0148609529295 0.803 9.31641653229e-39
-0.0695855330196 -0.0148054325574 0.8 1.06986068908e-38
-0.0677644648151 -0.0147314053946 0.796 1.04223773323e-38
-0.0661247631593 -0.0146943918132 0.794 9.59261386091e-39
-0.0644924642199 -0.0146573782318 0.792 9.40821979858e-39
-0.0628675679967 -0.0146203646504 0.79 9.86848188439e-39
-0.0613278030108 -0.0146018578597 0.789 1.06982453558e-38
-0.0598676172248 -0.0146018578597 0.789 1.06982467571e-38
-0.0581113227877 -0.0145278306969 0.785 1.00535948128e-38
-0.0565141867505 -0.0144908171155 0.783 9.50041823104e-39
-0.0549244534297 -0.0144538035341 0.781 8.48626349995e-39
-0.0532736476996 -0.014398283162 0.778 8.85540194921e-39
-0.0517005704903 -0.0143612695806 0.776 8.85540194921e-39
-0.0501348959974 -0.0143242559993 0.774 9.68480668817e-39
-0.0487024703975 -0.0143242559993 0.774 9.40822540378e-39
-0.0472089723882 -0.0143057492086 0.773 9.22347681294e-39
-0.0456599540069 -0.0142687356272 0.771 9.03835267412e-39
-0.0442330804442 -0.0142687356272 0.771 9.77697148947e-39
-0.0426951661373 -0.0142317220458 0.769 9.04012671798e-39
-0.0412719939327 -0.0142317220458 0.769 6.45939317129e-39
-0.0399524597561 -0.0142687356272 0.771 4.33818602871e-39
-0.0385255861933 -0.0142687356272 0.771 4.7080265285e-39
-0.0370987126306 -0.0142687356272 0.771 5.16827740391e-39
-0.0357643730214 -0.0143057492086 0.773 5.16685788857e-39
-0.0343782143982 -0.0143242559993 0.774 5.35159807161e-39
-0.0329457887983 -0.0143242559993 0.774 5.35122392492e-39
-0.0315947930774 -0.0143612695806 0.776 6.55047476887e-39
-0.0302363946403 -0.014398283162 0.778 6.73414576119e-39
-0.0289076070683 -0.0144538035341 0.781 7.56319176774e-39
-0.0276028783241 -0.0145278306969 0.785 8.66738973426e-39
-0.026216719701 -0.0145648442783 0.787 9.31311647441e-39
-0.0248231583615 -0.0146018578597 0.789 8.29823867331e-39
-0.0233925834406 -0.0146203646504 0.79 7.74508311101e-39
-0.0219305469756 -0.0146203646504 0.79 7.92947437073e-39
-0.0204685105106 -0.0146203646504 0.79 8.20713325365e-39
-0.0190545917013 -0.0146573782318 0.792 7.74650963284e-39
-0.0176332701758 -0.0146943918132 0.794 6.82527360162e-39
-0.0161638309945 -0.0146943918132 0.794 6.64088654579e-39
-0.0147314053946 -0.0147314053946 0.796 7.19406873276e-39
-0.0132915770784 -0.014768418976 0.798 7.19371840814e-39
-0.0118147351808 -0.014768418976 0.798 6.6423396923e-39
-0.0103897122971 -0.0148424461388 0.802 6.73453251956e-39
-0.00893877990651 -0.0148979665109 0.805 6.36610452862e-39
-0.00746749004612 -0.0149349800922 0.807 6.6419683482e-39
-0.00600360290201 -0.015009007255 0.811 7.01074806506e-39
-0.00451380625093 -0.0150460208364 0.813 7.28661608854e-39
-0.00301660688356 -0.0150830344178 0.815 7.65468254448e-39
-0.00151200479992 -0.0151200479992 0.817 7.65468534707e-39
0.0 -0.0151570615806 0.819 7.28767547018e-39
0.0015194075162 -0.015194075162 0.821 7.10364714675e-39
0.00304621774868 -0.0152310887434 0.823 7.19513652219e-39
0.00458043069744 -0.0152681023248 0.825 7.74796137805e-39
0.00612204636247 -0.0153051159062 0.827 6.8252890159e-39
0.00765255795309 -0.0153051159062 0.827 9.95922717034e-39
0.00920527769254 -0.0153421294876 0.829 1.14322104589e-38
0.0107654001483 -0.015379143069 0.831 1.10612839528e-38
0.0123329253203 -0.0154161566504 0.833 1.1241367621e-38
0.0139078532086 -0.0154531702318 0.835 1.05030865186e-38
0.0154901838131 -0.0154901838131 0.837 8.75172267844e-39
0.0171206320735 -0.0155642109759 0.841 1.08732871521e-38
0.0187214694688 -0.0156012245573 0.843 1.2351281484e-38
0.0203778272361 -0.0156752517201 0.847 1.22612410512e-38
0.0219971714221 -0.0157122653015 0.849 9.31315010557e-39
0.0236239183244 -0.0157492788829 0.851 8.02278823677e-39
0.025287678808 -0.015804799255 0.854 8.20751020294e-39
0.0269310818219 -0.0158418128364 0.856 8.94507243924e-39
0.028581887552 -0.0158788264178 0.858 1.00521472715e-38
0.0303104218031 -0.0159528535806 0.862 9.13126997269e-39
0.0319057071611 -0.0159528535806 0.862 8.76355244007e-39
0.0336953138215 -0.016045387534 0.867 9.87025732954e-39
0.0352998525749 -0.016045387534 0.867 1.02379720596e-38
0.0369895225655 -0.0160824011154 0.869 9.3153109078e-39
0.0386865952724 -0.0161194146968 0.871 1.01472155632e-38
0.0404836046491 -0.0161934418596 0.875 1.09755483089e-38
0.0422473018025 -0.0162489622317 0.878 1.18971192504e-38
0.0438721980256 -0.0162489622317 0.878 1.17134650737e-38
0.0454970942488 -0.0162489622317 0.878 1.07929661254e-38
-0.0780468377262 -0.0135081065295 0.811 2.35091681503e-38
-0.0763571677356 -0.0134747943063 0.809 2.35095156724e-38
-0.0748599683682 -0.0134747943063 0.809 2.29588698356e-38
-0.073181402452 -0.013441482083 0.807 5.26094527136e-39
-0.0713325740614 -0.0133748576365 0.803 1.06990006556e-38
-0.0695855330196 -0.0133248893016 0.8 1.18046069271e-38
-0.0679347272895 -0.0132915770784 0.798 1.11595878427e-38
-0.0662913242756 -0.0132582648551 0.796 1.01457904427e-38
-0.0644924642199 -0.0131916404086 0.792 1.03294600337e-38
-0.0628675679967 -0.0131583281854 0.79 9.49969936493e-39
-0.0613278030108 -0.0131416720737 0.789 9.96068031685e-39
-0.0598676172248 -0.0131416720737 0.789 1.03291083078e-38
-0.0582593771132 -0.0131083598505 0.787 1.04220256064e-38
-0.056658539718 -0.0130750476272 0.785 9.59226213499e-39
-0.055065105039 -0.013041735404 0.783 8.94724725446e-39
-0.0534105979507 -0.0129917670691 0.78 8.94724164927e-39
-0.0518338193833 -0.0129584548458 0.778 8.94724164927e-39
-0.0502644435323 -0.0129251426226 0.776 9.03944008173e-39
-0.0487024703975 -0.0128918303993 0.774 9.03944288432e-39
-0.0472700447975 -0.0128918303993 0.774 9.40787087527e-39
-0.0457783974674 -0.0128751742877 0.773 9.68371647797e-39
-0.0443478225465 -0.0128751742877 0.773 9.40818336482e-39
-0.0428062068815 -0.0128418620644 0.771 8.85609138806e-39
-0.0413793333188 -0.0128418620644 0.771 6.09060784924e-39
-0.0399524597561 -0.0128418620644 0.771 4.98391136756e-39
-0.0386255228631 -0.0128751742877 0.773 4.89241498563e-39
-0.0371949479422 -0.0128751742877 0.773 5.35266586104e-39
-0.0358106399981 -0.0128918303993 0.774 5.62783463659e-39
-0.0343782143982 -0.0128918303993 0.774 6.27391030006e-39
-0.0330309200355 -0.0129251426226 0.776 7.74866763248e-39
-0.0317576528356 -0.0129917670691 0.78 8.02560344539e-39
-0.0303529874217 -0.0130084231807 0.781 7.74865361949e-39
-0.0290556613938 -0.0130750476272 0.785 7.93089528738e-39
-0.0276732041288 -0.0131083598505 0.787 7.65323780576e-39
-0.0262833441475 -0.0131416720737 0.789 7.00714812931e-39
-0.0248231583615 -0.0131416720737 0.789 8.20568711363e-39
-0.0233925834406 -0.0131583281854 0.79 8.85143487326e-39
-0.0219860673477 -0.0131916404086 0.792 7.56106179407e-39
-0.0205203295245 -0.0131916404086 0.792 7.10043396937e-39
-0.0191027093571 -0.0132249526319 0.794 6.73272624584e-39
-0.0176332701758 -0.0132249526319 0.794 7.10222763141e-39
-0.016204545934 -0.0132582648551 0.796 6.54869932372e-39
-0.014768418976 -0.0132915770784 0.798 6.8256547548e-39
-0.0132915770784 -0.0132915770784 0.798 6.73418639884e-39
-0.0118443460459 -0.0133248893016 0.8 6.45831417147e-39
-0.0104026670506 -0.0133748576365 0.803 6.73453532216e-39
-0.00896098805535 -0.013441482083 0.807 6.36610592992e-39
-0.00748599683682 -0.0134747943063 0.809 7.10294649752e-39
-0.00601840833457 -0.0135414187528 0.813 7.37916764821e-39
-0.00452491032535 -0.013574730976 0.815 7.65539860799e-39
-0.00302400959984 -0.0136080431993 0.817 7.74687817434e-39
-0.00151570615806 -0.0136413554225 0.819 7.28590282762e-39
0.0 -0.0136746676458 0.821 7.19477638848e-39
0.00152310887434 -0.0137079798691 0.823 7.10294649752e-39
0.00305362046496 -0.0137412920923 0.825 7.37882573139e-39
0.00459153477185 -0.0137746043156 0.827 7.74761105344e-39
0.00612204636247 -0.0137746043156 0.827 8.11602783399e-39
0.00767106474379 -0.0138079165388 0.829 9.77410723541e-39
0.00922748584138 -0.0138412287621 0.831 1.03254887539e-38
0.0107913096553 -0.0138745409853 0.833 1.04158949256e-38
0.0123625361854 -0.0139078532086 0.835 9.85519337105e-39
0.0139411654318 -0.0139411654318 0.837 9.11655213492e-39
0.0155271973945 -0.0139744776551 0.839 1.00392202932e-38
0.0171613470131 -0.0140411021016 0.843 1.17941560432e-38
0.0187658857665 -0.0140744143248 0.845 1.25345797309e-38
0.020425944892 -0.0141410387714 0.849 9.12729168635e-39
0.0220489904361 -0.0141743509946 0.851 7.37845999249e-39
0.0236239183244 -0.0141743509946 0.851 8.1174809805e-39
0.025287678808 -0.0142243193295 0.854 8.66883867687e-39
0.0269940049102 -0.014290943776 0.858 9.40605058856e-39
0.0286485119985 -0.0143242559993 0.86 9.03799814561e-39
0.0303104218031 -0.0143575682225 0.862 8.76320631935e-39
0.0319797343239 -0.0143908804458 0.864 9.04121832948e-39
0.0336953138215 -0.0144408487806 0.867 9.31707794517e-39
0.035381282454 -0.0144741610039 0.869 9.77699110765e-39
0.0369895225655 -0.0144741610039 0.869 1.03276663717e-38
0.0386865952724 -0.0145074732272 0.871 1.01468610347e-38
0.0406224055793 -0.0146240660085 0.878 1.08833554816e-38
0.0423435371141 -0.0146573782318 0.88 1.14368641711e-38
0.0439721346954 -0.0146573782318 0.88 1.12524869244e-38
0.0456007322767 -0.0146573782318 0.88 9.87065389701e-39
-0.0780468377262 -0.012007205804 0.811 2.35088038127e-38
-0.0765459370007 -0.012007205804 0.811 2.35095212775e-38
-0.0748599683682 -0.0119775949389 0.809 2.32343791267e-38
-0.073181402452 -0.0119479840738 0.807 5.99670263525e-39
-0.0715102392521 -0.0119183732087 0.805 9.86850010127e-39
-0.0697594968522 -0.011873956911 0.802 1.18960626714e-38
-0.0681049897639 -0.0118443460459 0.8 1.18964171999e-38
-0.0662913242756 -0.0117851243157 0.796 1.13439636881e-38
-0.064655323978 -0.0117555134506 0.794 1.13443196179e-38
-0.0630267263967 -0.0117259025854 0.792 9.40785686228e-39
-0.0614055315317 -0.0116962917203 0.79 9.96139638036e-39
-0.0598676172248 -0.0116814862878 0.789 9.40786807267e-39
-0.0584074314388 -0.0116814862878 0.789 1.023798327e-38
-0.056658539718 -0.0116222645575 0.785 1.05145701595e-38
-0.055065105039 -0.0115926536924 0.783 9.96139918296e-39
-0.0534790730763 -0.0115630428273 0.781 1.00543192841e-38
-0.0519670682764 -0.0115482373947 0.78 8.57918920631e-39
-0.0503939910671 -0.0115186265296 0.778 8.1182082544e-39
-0.0488283165742 -0.0114890156645 0.776 8.1182068531e-39
-0.0472700447975 -0.0114594047994 0.774 8.76393219196e-39
-0.0458376191976 -0.0114594047994 0.774 9.6851444011e-39
-0.0443478225465 -0.0114445993668 0.773 9.86989159064e-39
-0.0429172476257 -0.0114445993668 0.773 8.2111045335e-39
-0.0414866727048 -0.0114445993668 0.773 5.44525385448e-39
-0.040056097784 -0.0114445993668 0.773 5.16903270379e-39
-0.038675491198 -0.0114594047994 0.774 4.89279754011e-39
-0.0372430655981 -0.0114594047994 0.774 4.43180537781e-39
-0.0358106399981 -0.0114594047994 0.774 5.35304000773e-39
-0.0344670469936 -0.0114890156645 0.776 7.10222763141e-39
-0.0331160512727 -0.0115186265296 0.778 9.22128237955e-39
-0.0317983677751 -0.0115630428273 0.781 9.77445615873e-39
-0.0304307159426 -0.0115926536924 0.783 8.29932608091e-39
-0.0291296885566 -0.0116518754226 0.787 7.37665371877e-39
-0.0277435299334 -0.0116814862878 0.789 7.65323780576e-39
-0.0262833441475 -0.0116814862878 0.789 9.03652958482e-39
-0.0248546199057 -0.0116962917203 0.79 7.46955700435e-39
-0.0234518051709 -0.0117259025854 0.792 6.36394372639e-39
-0.0219860673477 -0.0117259025854 0.792 6.3646653951e-39
-0.0205721485385 -0.0117555134506 0.794 6.27246976524e-39
-0.0191027093571 -0.0117555134506 0.794 6.82564354442e-39
-0.0176776864735 -0.0117851243157 0.796 6.45722115867e-39
-0.0162452608736 -0.0118147351808 0.798 6.54977271834e-39
-0.014768418976 -0.0118147351808 0.798 6.36538145861e-39
-0.0133248893016 -0.0118443460459 0.8 6.36537865602e-39
-0.011873956911 -0.011873956911 0.802 5.90475503521e-39
-0.0104285765576 -0.0119183732087 0.805 6.73415837287e-39
-0.00900540435302 -0.012007205804 0.811 7.93198830018e-39
-0.00752301041821 -0.0120368166691 0.813 7.65504688208e-39
-0.00604801919968 -0.0120960383994 0.817 7.37845999249e-39
-0.00454711847418 -0.0121256492645 0.819 7.47101295346e-39
-0.00303141231612 -0.0121256492645 0.819 7.28697201835e-39
-0.00151570615806 -0.0121256492645 0.819 6.9181880976e-39
0.0 -0.0121848709947 0.823 6.18062305869e-39
0.00152681023248 -0.0122144818598 0.825 7.47208074289e-39
0.00306102318124 -0.0122440927249 0.827 7.19657005052e-39
0.00459153477185 -0.0122440927249 0.827 7.74866482988e-39
0.00613685179503 -0.0122737035901 0.829 7.74650963284e-39
0.00768957153448 -0.0123033144552 0.831 9.67759420498e-39
0.00924969399022 -0.0123329253203 0.833 1.01324725021e-38
0.0107913096553 -0.0123329253203 0.833 9.6679056274e-39
0.0123625361854 -0.0123625361854 0.835 8.00730809264e-39
0.0139411654318 -0.0123921470505 0.837 1.0313277839e-38
0.0155271973945 -0.0124217579156 0.839 8.1056119825e-39
0.0171613470131 -0.0124809796459 0.843 9.5850468492e-39
0.0188103020641 -0.0125402013761 0.847 6.17775740333e-39
0.0204740625478 -0.0125994231063 0.851 6.64124667949e-39
0.0220489904361 -0.0125994231063 0.851 7.74939210378e-39
0.0237071988825 -0.012643839404 0.854 8.02562306356e-39
0.0253469005382 -0.0126734502691 0.856 8.6702666e-39
0.0270569279986 -0.0127326719993 0.86 7.93270436369e-39
0.028715136445 -0.0127622828645 0.862 8.48660541678e-39
0.0303104218031 -0.0127622828645 0.862 8.3940538571e-39
0.0320907750681 -0.0128363100272 0.867 8.30221415705e-39
0.0336953138215 -0.0128363100272 0.867 9.22416905438e-39
0.035381282454 -0.0128659208924 0.869 9.31528568443e-39
0.0370746538027 -0.0128955317575 0.871 1.02372433844e-38
0.0387754278677 -0.0129251426226 0.873 1.09741091753e-38
0.0407149395328 -0.0130287806505 0.88 1.11588353454e-38
-0.0782393083494 -0.0105322145855 0.813 2.35095198762e-38
-0.0765459370007 -0.0105063050785 0.811 2.35095240801e-38
-0.0750450362752 -0.0105063050785 0.811 2.32343791267e-38
-0.0733627690008 -0.0104803955715 0.809 6.55023374554e-39
-0.0716879044428 -0.0104544860646 0.807 9.59190900778e-39
-0.0698464787685 -0.0104026670506 0.803 9.68372208316e-39
-0.0682752522383 -0.0103897122971 0.802 1.10666509259e-38
-0.0666244465082 -0.0103638027902 0.8 1.14365096426e-38
-0.0649810434943 -0.0103378932832 0.798 1.0883338666e-38
-0.0631858847967 -0.0102860742692 0.794 1.09755370985e-38
-0.0615609885735 -0.0102601647623 0.792 9.59296698812e-39
-0.0599434950666 -0.0102342552553 0.79 9.13163290899e-39
-0.0584074314388 -0.0102213005018 0.789 8.39370773638e-39
-0.0568028926854 -0.0101953909948 0.787 9.31602697132e-39
-0.0552057566483 -0.0101694814878 0.785 9.68480949077e-39
-0.0536160233274 -0.0101435719809 0.783 9.77700792323e-39
-0.0520336927229 -0.0101176624739 0.781 9.77772819064e-39
-0.050523538602 -0.0101047077204 0.78 8.76393219196e-39
-0.0489541627509 -0.0100787982134 0.778 7.84269195684e-39
-0.0473921896161 -0.0100528887065 0.776 8.30366730356e-39
-0.0458376191976 -0.0100269791995 0.774 8.48732007899e-39
-0.0444051935977 -0.0100269791995 0.774 9.77806169968e-39
-0.0429727679978 -0.0100269791995 0.774 8.11855717772e-39
-0.0415403423978 -0.0100269791995 0.774 5.35341835832e-39
-0.0401079167979 -0.0100269791995 0.774 4.98464144406e-39
-0.038675491198 -0.0100269791995 0.774 4.70805175187e-39
-0.0373393009097 -0.0100528887065 0.776 4.80023617135e-39
-0.0359031739516 -0.0100528887065 0.776 5.44523844019e-39
-0.0345558795889 -0.0100787982134 0.778 7.1015087653e-39
-0.0332437481285 -0.0101176624739 0.781 9.12908955228e-39
-0.0318797976542 -0.0101435719809 0.783 6.63981034857e-39
-0.0305084444635 -0.0101694814878 0.785 6.45541908884e-39
-0.0292037157194 -0.0102213005018 0.789 8.29933168611e-39
-0.0277435299334 -0.0102213005018 0.789 7.74615510433e-39
-0.0263166563707 -0.0102342552553 0.79 6.91674896407e-39
-0.0249175429941 -0.0102601647623 0.792 6.73235490175e-39
-0.0234518051709 -0.0102601647623 0.792 6.6416026093e-39
-0.0220415877198 -0.0102860742692 0.794 6.6419683482e-39
-0.0205721485385 -0.0102860742692 0.794 6.45722115867e-39
-0.019150827013 -0.0103119837762 0.796 6.3650269301e-39
-0.0177221027712 -0.0103378932832 0.798 6.54941678853e-39
-0.0162859758131 -0.0103638027902 0.8 6.54977271834e-39
-0.0148054325574 -0.0103638027902 0.8 6.45757148328e-39
-0.0133582015249 -0.0103897122971 0.802 6.73451290138e-39
-0.0118887623436 -0.0104026670506 0.803 6.91854122481e-39
-0.0104803955715 -0.0104803955715 0.809 7.19477498719e-39
-0.00902761250186 -0.0105322145855 0.813 7.65539860799e-39
-0.00754151720891 -0.0105581240925 0.815 7.10223043401e-39
-0.00604801919968 -0.0105840335994 0.817 6.82528621331e-39
-0.00454711847418 -0.0106099431064 0.819 6.91783917428e-39
-0.00303141231612 -0.0106099431064 0.819 6.91818949889e-39
-0.0015194075162 -0.0106358526134 0.821 6.82599246773e-39
0.0 -0.0106617621204 0.823 7.47135907418e-39
0.00152681023248 -0.0106876716274 0.825 7.56427076756e-39
0.00306102318124 -0.0107135811343 0.827 7.47350866602e-39
0.00460263884627 -0.0107394906413 0.829 7.47242966621e-39
0.00613685179503 -0.0107394906413 0.829 7.74650402765e-39
0.00768957153448 -0.0107654001483 0.831 8.93930609606e-39
0.00924969399022 -0.0107913096553 0.833 9.5789357866e-39
0.0108172191622 -0.0108172191622 0.835 9.29696510831e-39
0.0123921470505 -0.0108431286692 0.837 1.07738874469e-38
0.0139744776551 -0.0108690381762 0.839 9.20979733733e-39
0.0156012245573 -0.0109208571901 0.843 8.93751944052e-39
0.0172834918317 -0.0109985857111 0.849 7.74328944897e-39
0.0188991346595 -0.011024495218 0.851 6.73344791455e-39
0.0204740625478 -0.011024495218 0.851 7.84123180384e-39
0.022126718957 -0.0110633594785 0.854 8.11817182064e-39
0.0237627192546 -0.0110892689855 0.856 7.74831030137e-39
0.0254061222684 -0.0111151784924 0.858 7.10402269474e-39
0.027119851087 -0.0111669975064 0.862 7.28805802466e-39
0.0287817608915 -0.0111929070134 0.864 7.56464911814e-39
0.0303807476077 -0.0111929070134 0.864 7.84088288052e-39
0.0320907750681 -0.0112317712738 0.867 8.30186102984e-39
0.0337730423424 -0.0112576807808 0.869 8.11746977011e-39
0.035462712333 -0.0112835902878 0.871 8.30113795983e-39
0.0371597850399 -0.0113094997948 0.873 9.40748271559e-39
0.0389975093561 -0.0113742735622 0.878 9.77556598711e-39
-0.0782393083494 -0.00902761250186 0.813 2.350988001e-38
-0.0765459370007 -0.00900540435302 0.811 2.35095240801e-38
-0.0750450362752 -0.00900540435302 0.811 2.32343791267e-38
-0.0735441355497 -0.00900540435302 0.811 6.55023374554e-39
-0.0716879044428 -0.00896098805535 0.807 1.05138653064e-38
-0.070020442601 -0.00893877990651 0.805 1.03290914922e-38
-0.0683603834755 -0.00891657175768 0.803 1.04212843195e-38
-0.0667910076244 -0.00890546768326 0.802 1.06989446037e-38
-0.0651439032524 -0.00888325953442 0.8 1.09755314933e-38
-0.0633450431967 -0.00883884323675 0.796 1.14365096426e-38
-0.0617164456154 -0.00881663508791 0.794 1.07918619023e-38
-0.0600952507504 -0.00879442693908 0.792 1.05149218855e-38
-0.0584814586016 -0.00877221879024 0.79 9.77628905712e-39
-0.0569472456528 -0.00876111471582 0.789 9.03872401821e-39
-0.0552057566483 -0.00871669841815 0.785 1.01457848375e-38
-0.0536160233274 -0.00869449026931 0.783 9.68516121669e-39
-0.0520336927229 -0.00867228212048 0.781 1.02394111931e-38
-0.050523538602 -0.00866117804606 0.78 9.59404178404e-39
-0.0490800089277 -0.00866117804606 0.78 8.39514406731e-39
-0.0475143344347 -0.00863896989722 0.778 7.38171380752e-39
-0.0459560626581 -0.00861676174839 0.776 8.67064354929e-39
-0.0445199357 -0.00861676174839 0.776 9.03942606874e-39
-0.0429727679978 -0.00859455359955 0.774 8.48733969717e-39
-0.0415403423978 -0.00859455359955 0.774 5.72255540628e-39
-0.0401079167979 -0.00859455359955 0.774 4.892440209e-39
-0.0387754278677 -0.00861676174839 0.776 4.43181939079e-39
-0.0374355362213 -0.00863896989722 0.778 4.24670646236e-39
-0.0359957079051 -0.00863896989722 0.778 4.24634352606e-39
-0.0346891284819 -0.00867228212048 0.781 6.82600367812e-39
-0.0333288793657 -0.00869449026931 0.783 6.91711750557e-39
-0.0319612275332 -0.00871669841815 0.785 7.37809845748e-39
-0.0305861729845 -0.00873890656699 0.787 8.30005475612e-39
-0.0292037157194 -0.00876111471582 0.789 7.47029408735e-39
-0.0277435299334 -0.00876111471582 0.789 6.3642996562e-39
-0.0263166563707 -0.00877221879024 0.79 6.27210122374e-39
-0.0249175429941 -0.00879442693908 0.792 6.73343390157e-39
-0.0235110269011 -0.00881663508791 0.794 6.08879176643e-39
-0.0220415877198 -0.00881663508791 0.794 6.36538145861e-39
-0.0206239675524 -0.00883884323675 0.796 6.27282989894e-39
-0.0191989446688 -0.00886105138558 0.798 6.3650255288e-39
-0.0177221027712 -0.00886105138558 0.798 5.90404737949e-39
-0.0162859758131 -0.00888325953442 0.8 6.27318582875e-39
-0.0148424461388 -0.00890546768326 0.802 6.54976711315e-39
-0.0133748576365 -0.00891657175768 0.803 7.10294089233e-39
-0.0119183732087 -0.00893877990651 0.805 7.3788117184e-39
-0.0105322145855 -0.00902761250186 0.813 7.10222763141e-39
-0.00904982065069 -0.00904982065069 0.815 7.01002919895e-39
-0.00756002399961 -0.00907202879953 0.817 6.27282008985e-39
-0.00606282463224 -0.00909423694836 0.819 6.6416026093e-39
-0.0045582225486 -0.0091164450972 0.821 6.6416026093e-39
-0.0030388150324 -0.0091164450972 0.821 6.82563793922e-39
-0.0015194075162 -0.0091164450972 0.821 7.01003200154e-39
0.0 -0.00916086139487 0.825 6.45684701198e-39
0.00153051159062 -0.00918306954371 0.827 7.28732094167e-39
0.00306842589751 -0.00920527769254 0.829 6.91925588703e-39
0.00460263884627 -0.00920527769254 0.829 7.28803980778e-39
0.00616646266014 -0.00924969399022 0.833 7.28660487815e-39
0.00772658511588 -0.00927190213905 0.835 8.2042563879e-39
0.00929411028789 -0.00929411028789 0.837 9.39741578742e-39
0.0108690381762 -0.00931631843672 0.839 9.39418859706e-39
0.0124513687807 -0.00933852658556 0.841 8.93499850458e-39
0.0140744143248 -0.00938294288323 0.845 8.56873131588e-39
0.0156752517201 -0.00940515103207 0.847 6.26671743504e-39
0.0173242067712 -0.00944956732974 0.851 6.45506315903e-39
0.0188991346595 -0.00944956732974 0.851 7.01075086766e-39
0.0205462390315 -0.00948287955299 0.854 7.47280521419e-39
0.0221785379709 -0.00950508770183 0.856 7.10402269474e-39
0.0238182396267 -0.00952729585067 0.858 7.37953058451e-39
0.0255245657289 -0.00957171214834 0.862 6.9192783078e-39
0.0271827741753 -0.00959392029717 0.864 7.56429318833e-39
0.0288816975613 -0.00962723252043 0.867 7.56429599093e-39
0.0304862363147 -0.00962723252043 0.867 8.02527694284e-39
0.0321648022309 -0.00964944066926 0.869 7.56394286372e-39
0.0337730423424 -0.00964944066926 0.869 7.65613989488e-39
0.0355441422121 -0.00969385696694 0.873 7.93272538317e-39
0.0373726131329 -0.00974937733903 0.878 8.20966820257e-39
-0.0801362543958 -0.00756002399961 0.817 2.3418050119e-38
-0.0784317789727 -0.00754151720891 0.815 2.350988001e-38
-0.0767347062658 -0.00752301041821 0.813 2.35091639464e-38
-0.0752301041821 -0.00752301041821 0.813 2.32343791267e-38
-0.0737255020985 -0.00752301041821 0.813 7.56438567403e-39
-0.0720432348242 -0.00750450362752 0.811 1.07904549986e-38
-0.0701944064336 -0.00746749004612 0.807 1.12510477908e-38
-0.0685306459499 -0.00744898325543 0.805 1.05134799493e-38
-0.0668742881826 -0.00743047646473 0.803 9.86918673751e-39
-0.0653881928896 -0.00743047646473 0.803 1.03301620842e-38
-0.0636633599967 -0.00740271627868 0.8 1.09755314933e-38
-0.0620273596991 -0.00738420948799 0.798 1.11606416191e-38
-0.0603987621178 -0.00736570269729 0.796 1.07918590997e-38
-0.0586295129272 -0.0073286891159 0.792 9.68409482855e-39
-0.0569472456528 -0.00730092892985 0.789 8.66994290006e-39
-0.0553464082576 -0.00728242213916 0.787 8.48589916235e-39
-0.0536160233274 -0.00724540855776 0.783 9.22453058939e-39
-0.0520336927229 -0.00722690176707 0.781 1.0515623936e-38
-0.0505883123695 -0.00722690176707 0.781 1.02397601164e-38
-0.0490800089277 -0.00721764837172 0.78 9.68623741391e-39
-0.0476364792533 -0.00721764837172 0.78 8.85612501922e-39
-0.0460745061185 -0.00719914158102 0.778 8.67029182338e-39
-0.0446346778023 -0.00719914158102 0.778 8.67029182338e-39
-0.0430838087419 -0.00718063479032 0.776 8.21003113887e-39
-0.0416476817839 -0.00718063479032 0.776 5.53779840766e-39
-0.0403151928537 -0.00719914158102 0.778 4.61620504533e-39
-0.0388753645375 -0.00719914158102 0.778 4.61584491162e-39
-0.0375317715329 -0.00721764837172 0.78 4.8917157377e-39
-0.0361345088353 -0.00722690176707 0.781 6.0891827287e-39
-0.0348667936726 -0.00726391534846 0.785 6.73380944956e-39
-0.0334991418401 -0.00728242213916 0.787 8.94650316498e-39
-0.0320426574123 -0.00728242213916 0.787 7.65576574819e-39
-0.0306639015054 -0.00730092892985 0.789 5.6274618912e-39
-0.0292407293008 -0.0073101823252 0.79 6.08844004051e-39
-0.0278490186404 -0.0073286891159 0.792 6.08879456902e-39
-0.0264499052637 -0.00734719590659 0.794 6.08878896383e-39
-0.0250433891708 -0.00736570269729 0.796 6.45792881439e-39
