# .PCD v0.7 - Point Cloud Data file format
VERSION 0.7
FIELDS x y z rgb
SIZE 4 4 4 4
TYPE F F F F
COUNT 1 1 1 1
WIDTH 843
HEIGHT 1
VIEWPOINT 0 0 0 1 0 0 0
POINTS 843
DATA ascii
0.03493156744 -0.0964111261345 0.755 4.98716238e-39
0.0364250654493 -0.0966665198461 0.757 4.8034703682e-39
0.037826029505 -0.0966665198461 0.757 9.13807047414e-39
0.0393306315886 -0.0969219135577 0.759 8.30866153128e-39
0.0407352970025 -0.0969219135577 0.759 5.17295774078e-39
0.0422510031606 -0.0971773072694 0.761 4.71127333704e-39
0.0436593699326 -0.0971773072694 0.761 5.63428341212e-39
0.0450677367046 -0.0971773072694 0.761 6.37184985233e-39
0.0465371758859 -0.0973050041252 0.762 6.27858082784e-39
0.047947393337 -0.0973050041252 0.762 6.46296928497e-39
0.0493576107881 -0.0973050041252 0.762 6.92358449798e-39
0.0507678282392 -0.0973050041252 0.762 6.27713889172e-39
0.0523149959415 -0.0975603978368 0.764 6.36897859177e-39
0.0537289147507 -0.0975603978368 0.764 6.46117842553e-39
0.0552871865274 -0.0978157915484 0.766 7.0139962749e-39
0.0567788338575 -0.0979434884042 0.767 6.37115060439e-39
0.0581983047039 -0.0979434884042 0.767 5.0800558565e-39
0.0596177755504 -0.0979434884042 0.767 4.71019573852e-39
0.0611964047968 -0.0981988821158 0.769 5.35377008423e-39
0.0626195770014 -0.0981988821158 0.769 5.4459657141e-39
0.0642093103222 -0.0984542758274 0.771 6.27608091138e-39
0.065636183885 -0.0984542758274 0.771 5.44667336982e-39
0.0672370212802 -0.098709669539 0.773 5.2622793075e-39
0.0686675962011 -0.098709669539 0.773 5.2640995942e-39
0.0701888543963 -0.0988373663949 0.774 5.07970833448e-39
0.0715287460428 -0.098709669539 0.773 5.72434766702e-39
0.0729593209636 -0.098709669539 0.773 4.80202703079e-39
0.0743898958845 -0.098709669539 0.773 6.55051120263e-39
-0.0255837874591 -0.108731096701 0.864 6.36005652445e-39
-0.0239848007429 -0.108731096701 0.864 7.5593045658e-39
-0.0224635425477 -0.109108635232 0.867 6.08666739796e-39
-0.0207387096547 -0.108479404348 0.862 7.10224444699e-39
-0.0190545917013 -0.107976019641 0.858 6.3657556053e-39
-0.0172834918317 -0.10684340405 0.849 7.93200511576e-39
-0.0156382381387 -0.106340019343 0.845 6.8256547548e-39
-0.0140744143248 -0.106340019343 0.845 8.11603063659e-39
-0.0124513687807 -0.105836634636 0.841 7.28807484024e-39
-0.0108690381762 -0.105584942283 0.839 7.84197028813e-39
-0.00927190213905 -0.105081557576 0.835 7.56466172983e-39
-0.00768957153448 -0.104578172869 0.831 8.76355804527e-39
-0.00613685179503 -0.104326480515 0.829 7.28806222855e-39
-0.00458043069744 -0.103823095809 0.825 9.31636188165e-39
-0.00304621774868 -0.103571403455 0.823 9.50110907119e-39
-0.00152310887434 -0.103571403455 0.823 9.59222289864e-39
0.0 -0.103319711102 0.821 7.47065562235e-39
0.00151200479992 -0.102816326395 0.817 1.04212703065e-38
0.00300180145101 -0.102061249334 0.811 1.0053201048e-38
0.00448049402767 -0.101557864627 0.807 1.042198637e-38
0.00595918660434 -0.101306172274 0.805 8.48660541678e-39
0.00742122306938 -0.100928633744 0.802 1.16209065075e-38
0.00890546768326 -0.100928633744 0.802 7.28842796745e-39
0.0103119837762 -0.100173556683 0.796 1.04234311087e-38
0.0117259025854 -0.0996701719762 0.792 8.39370353249e-39
0.0131583281854 -0.0994184796227 0.79 9.86811054029e-39
0.0146018578597 -0.099292633446 0.789 9.31636608555e-39
0.0160213287061 -0.0990409410925 0.787 9.59295157384e-39
0.0174333968363 -0.098789248739 0.785 9.77699110765e-39
0.018886179906 -0.098789248739 0.785 1.02376161298e-38
0.0202353249478 -0.0982858640321 0.781 9.31601295833e-39
0.021541904371 -0.0976566331484 0.776 8.76319090507e-39
0.0229188095988 -0.0974049407949 0.774 8.30151210652e-39
0.0243197736545 -0.0972790946182 0.773 9.40785966488e-39
0.0256170996824 -0.0967757099112 0.769 8.48697115568e-39
0.0269699460823 -0.0965240175578 0.767 7.74975784268e-39
0.0283524033474 -0.096398171381 0.766 9.13233495952e-39
0.0296922949938 -0.0961464790275 0.764 9.04087080746e-39
0.0309840689844 -0.0957689404973 0.761 9.68553676467e-39
0.0323073045192 -0.0955172481439 0.759 6.18139517414e-39
0.0336231373378 -0.0952655557904 0.757 6.09171487502e-39
0.0350241013935 -0.0952655557904 0.757 5.9076851503e-39
0.0364250654493 -0.0952655557904 0.757 4.98678543071e-39
0.0379259661748 -0.0955172481439 0.759 9.96675214309e-39
0.0394342696166 -0.0957689404973 0.761 7.10903934324e-39
0.0408426363886 -0.0957689404973 0.761 6.83140007851e-39
0.0422510031606 -0.0957689404973 0.761 7.01544381621e-39
0.0437167409838 -0.0958947866741 0.762 6.92394743428e-39
0.0451269584349 -0.0958947866741 0.762 6.0938336383e-39
0.0465371758859 -0.0958947866741 0.762 6.00163940974e-39
0.047947393337 -0.0958947866741 0.762 6.55481178762e-39
0.0493576107881 -0.0958947866741 0.762 7.56931964592e-39
0.0509010771322 -0.0961464790275 0.764 7.8451876694e-39
0.0524519461926 -0.096398171381 0.766 7.47532895273e-39
0.05386956636 -0.096398171381 0.766 6.55301812558e-39
0.0553593630111 -0.0965240175578 0.767 6.46010643221e-39
0.0567788338575 -0.0965240175578 0.767 5.72614413165e-39
0.0583500603877 -0.0967757099112 0.769 5.72650846925e-39
0.0597732325922 -0.0967757099112 0.769 4.71092161113e-39
0.0611964047968 -0.0967757099112 0.769 5.44776638262e-39
0.0627824367595 -0.0970274022647 0.771 4.98607216979e-39
0.0642093103222 -0.0970274022647 0.771 4.71020134372e-39
0.0658064463594 -0.0972790946182 0.773 3.42053592025e-39
0.0673240031965 -0.0974049407949 0.774 5.54175287192e-39
0.0687564287964 -0.0974049407949 0.774 5.17262142915e-39
0.0701888543963 -0.0974049407949 0.774 5.54103540711e-39
0.0716212799963 -0.0974049407949 0.774 5.63285689028e-39
0.0730537055962 -0.0974049407949 0.774 5.90800324505e-39
-0.0275288511614 -0.108496060459 0.875 4.05624477768e-39
-0.0257318417847 -0.107752087473 0.869 5.52957698957e-39
-0.0241236016732 -0.107752087473 0.869 6.8217381256e-39
-0.0224635425477 -0.107504096478 0.867 5.99375290198e-39
-0.0207868273105 -0.107132109985 0.864 7.37847400547e-39
-0.019099007999 -0.106636127994 0.86 6.73418219495e-39
-0.0173852791805 -0.105892155008 0.854 7.19516034426e-39
-0.0156752517201 -0.105024186525 0.847 7.47210316366e-39
-0.0141077265481 -0.105024186525 0.847 6.91820351188e-39
-0.012510590511 -0.104776195529 0.845 7.47246329737e-39
-0.0108949476832 -0.104280213539 0.841 7.01256695047e-39
-0.00929411028789 -0.103784231548 0.837 8.11783550901e-39
-0.00770807832518 -0.103288249557 0.833 8.02563707655e-39
-0.00613685179503 -0.102792267567 0.829 8.94722763628e-39
-0.00459153477185 -0.102544276571 0.827 8.21001712589e-39
-0.00304621774868 -0.102048294581 0.823 9.59330470105e-39
-0.00152310887434 -0.102048294581 0.823 1.11599059374e-38
0.0 -0.101800303585 0.821 1.05134659364e-38
0.00151200479992 -0.101304321595 0.817 1.08822456532e-38
0.00300920416729 -0.100808339604 0.813 9.96064108049e-39
0.00448049402767 -0.100064366618 0.807 9.40818897002e-39
0.00595918660434 -0.0998163756227 0.805 9.86846086491e-39
0.00743047646473 -0.0995683846274 0.803 9.8688336103e-39
0.00890546768326 -0.0994443891297 0.802 9.22346420126e-39
0.0103638027902 -0.0991963981344 0.8 8.67064635189e-39
0.0117259025854 -0.098204434153 0.792 1.03287369637e-38
0.0131583281854 -0.0979564431577 0.79 9.31493956371e-39
0.0146018578597 -0.09783244766 0.789 9.77626523505e-39
0.0160620436457 -0.09783244766 0.789 9.03977919596e-39
0.017477813134 -0.0975844566647 0.787 9.1316245012e-39
0.018886179906 -0.0973364656693 0.785 9.96103064146e-39
0.0202353249478 -0.0968404836787 0.781 1.02383349959e-38
0.021541904371 -0.0962205061903 0.776 9.96209843089e-39
0.0229188095988 -0.095972515195 0.774 8.8546858857e-39
0.0243197736545 -0.0958485196973 0.773 7.5635911378e-39
0.0256170996824 -0.0953525377067 0.769 9.50005249215e-39
0.0269699460823 -0.0951045467113 0.767 8.02563707655e-39
0.0283894169288 -0.0951045467113 0.767 8.94759617778e-39
0.0296922949938 -0.0947325602183 0.764 7.93417152319e-39
0.031024783924 -0.094484569223 0.762 8.85542296869e-39
0.0323073045192 -0.09411258273 0.759 6.73457175592e-39
0.0337119699331 -0.09411258273 0.759 7.104789205e-39
0.035116635347 -0.09411258273 0.759 5.44599093747e-39
0.0365213007609 -0.09411258273 0.759 5.07826219446e-39
0.0379259661748 -0.09411258273 0.759 8.58345335754e-39
0.0394342696166 -0.0943605737253 0.761 8.95258620161e-39
0.0408426363886 -0.0943605737253 0.761 6.27786196173e-39
0.0422510031606 -0.0943605737253 0.761 7.2916649669e-39
0.0437167409838 -0.094484569223 0.762 7.20016998627e-39
0.0451269584349 -0.094484569223 0.762 6.92323417337e-39
0.0465371758859 -0.094484569223 0.762 6.73920444864e-39
0.047947393337 -0.094484569223 0.762 7.29237682652e-39
0.049487158323 -0.0947325602183 0.764 7.01686613416e-39
0.0509010771322 -0.0947325602183 0.764 7.20053712647e-39
0.0524519461926 -0.0949805512137 0.766 7.47640795255e-39
0.0539398921646 -0.0951045467113 0.767 7.10654783457e-39
0.0553593630111 -0.0951045467113 0.767 7.19766866851e-39
0.0569268881831 -0.0953525377067 0.769 5.44919150316e-39
0.0583500603877 -0.0953525377067 0.769 5.26516317974e-39
0.0597732325922 -0.0953525377067 0.769 3.788596771e-39
0.0613555631968 -0.095600528702 0.771 5.17045782432e-39
0.0627824367595 -0.095600528702 0.771 4.43289558801e-39
0.0643758714385 -0.0958485196973 0.773 5.81726916949e-39
0.0658064463594 -0.0958485196973 0.773 6.18856561839e-39
0.0673240031965 -0.095972515195 0.774 5.54463534287e-39
0.0687564287964 -0.095972515195 0.774 5.63431564198e-39
0.0703702209452 -0.0962205061903 0.776 5.81797402261e-39
0.0718063479032 -0.0962205061903 0.776 5.6332058136e-39
0.0732424748613 -0.0962205061903 0.776 5.8161607424e-39
-0.0275288511614 -0.106876716274 0.875 4.24063603741e-39
-0.0257910635149 -0.106388136999 0.871 6.17494639861e-39
-0.0241791220453 -0.106388136999 0.871 6.8217381256e-39
-0.0225153615616 -0.106143847362 0.869 5.90156007471e-39
-0.0209071214501 -0.106143847362 0.869 7.37847400547e-39
-0.0191434242967 -0.105288833632 0.862 6.55051120263e-39
-0.0174667090596 -0.104800254357 0.858 7.65685876099e-39
-0.0157122653015 -0.10370095099 0.849 6.6427026286e-39
-0.0141077265481 -0.103456661353 0.847 7.01183547267e-39
-0.012510590511 -0.103212371716 0.845 6.45938756609e-39
-0.0108949476832 -0.102723792441 0.841 7.47354229719e-39
-0.00931631843672 -0.102479502804 0.839 7.74905298956e-39
-0.00770807832518 -0.101746633892 0.833 8.48661802846e-39
-0.00613685179503 -0.101258054618 0.829 7.65649442339e-39
-0.00459153477185 -0.101013764981 0.827 8.6709966765e-39
-0.00305362046496 -0.100769475344 0.825 8.48660121288e-39
-0.00152310887434 -0.100525185706 0.823 1.0053201048e-38
0.0 -0.100525185706 0.823 1.0329071874e-38
0.00151200479992 -0.0997923167948 0.817 1.08825973791e-38
0.00300920416729 -0.0993037375204 0.813 1.10673417661e-38
0.00448049402767 -0.0985708686088 0.807 1.05138148597e-38
0.00595918660434 -0.0983265789716 0.805 7.28698182744e-39
0.00743047646473 -0.0980822893344 0.803 9.95995164164e-39
0.00891657175768 -0.0980822893344 0.803 9.68409062466e-39
0.0103897122971 -0.0979601445158 0.802 9.96103344406e-39
0.0117259025854 -0.0967386963298 0.792 9.49862316771e-39
0.0131583281854 -0.0964944066926 0.79 9.77520024821e-39
0.0146203646504 -0.0964944066926 0.79 9.59187677792e-39
0.0160620436457 -0.096372261874 0.789 8.57772484942e-39
0.017477813134 -0.0961279722369 0.787 1.03298117596e-38
0.0189342975618 -0.0961279722369 0.787 8.30187224022e-39
0.0202871439617 -0.0956393929625 0.783 9.50041542845e-39
0.021541904371 -0.0947843792323 0.776 1.05149218855e-38
0.0229188095988 -0.0945400895951 0.774 1.005322487e-38
0.0243197736545 -0.0944179447765 0.773 8.57701719369e-39
0.0256837241289 -0.0941736551393 0.771 9.77663938174e-39
0.027040271887 -0.0939293655021 0.769 9.03907434283e-39
0.0283894169288 -0.0936850758649 0.767 9.50041823104e-39
0.0297700235147 -0.0935629310463 0.766 8.94688992335e-39
0.031024783924 -0.0930743517719 0.762 9.3156752454e-39
0.0323924357565 -0.0929522069533 0.761 6.8271163091e-39
0.0338008025285 -0.0929522069533 0.761 7.1044248674e-39
0.0352091693005 -0.0929522069533 0.761 5.16796071046e-39
0.0366175360725 -0.0929522069533 0.761 6.4601092348e-39
0.0380259028445 -0.0929522069533 0.761 9.22773115508e-39
0.0394342696166 -0.0929522069533 0.761 8.58306940176e-39
0.0408426363886 -0.0929522069533 0.761 7.84445058641e-39
0.0423065235327 -0.0930743517719 0.762 6.36861285287e-39
0.0437167409838 -0.0930743517719 0.762 6.27747380205e-39
0.0451269584349 -0.0930743517719 0.762 7.10689535659e-39
0.0466593207045 -0.0933186414091 0.764 8.39835864599e-39
0.0480732395138 -0.0933186414091 0.764 8.30687907964e-39
0.0496167058579 -0.0935629310463 0.766 7.29380474966e-39
0.0510343260252 -0.0935629310463 0.766 5.54244371207e-39
0.0525204213182 -0.0936850758649 0.767 6.73919183696e-39
0.0539398921646 -0.0936850758649 0.767 6.92178663205e-39
0.0555037159785 -0.0939293655021 0.769 7.10546182826e-39
0.0569268881831 -0.0939293655021 0.769 5.35481545289e-39
0.0585018160714 -0.0941736551393 0.771 6.5526425776e-39
0.0599286896341 -0.0941736551393 0.771 7.47280521419e-39
0.0615147215968 -0.0944179447765 0.773 8.94758356609e-39
0.0629452965177 -0.0944179447765 0.773 7.56501485704e-39
0.0644591519966 -0.0945400895951 0.774 6.55374399819e-39
0.0658915775966 -0.0945400895951 0.774 5.35807767571e-39
0.067497967029 -0.0947843792323 0.776 4.89961765974e-39
0.0689340939871 -0.0947843792323 0.776 5.8179908382e-39
0.0703702209452 -0.0947843792323 0.776 5.91017245507e-39
0.0718063479032 -0.0947843792323 0.776 5.72540704866e-39
0.0732424748613 -0.0947843792323 0.776 5.81580901649e-39
-0.0275288511614 -0.105257372088 0.875 4.14844040755e-39
-0.0257910635149 -0.104776195529 0.871 7.7426280361e-39
-0.0241791220453 -0.104776195529 0.871 7.28271627491e-39
-0.0225153615616 -0.10453560725 0.869 5.81008331096e-39
-0.0209071214501 -0.10453560725 0.869 7.37955580789e-39
-0.0191434242967 -0.103693548274 0.862 6.27464458045e-39
-0.0175074239991 -0.103452959995 0.86 6.1831678167e-39
-0.0157492788829 -0.102370312739 0.851 7.38134666732e-39
-0.0141410387714 -0.10212972446 0.849 7.19730573221e-39
-0.012510590511 -0.101648547902 0.845 5.81437408686e-39
-0.0109208571901 -0.101407959623 0.843 6.73597445568e-39
-0.00933852658556 -0.101167371344 0.841 7.56466172983e-39
-0.00772658511588 -0.100445606506 0.835 7.93344424928e-39
-0.00615165722759 -0.0999644299483 0.831 9.31601576093e-39
-0.00459153477185 -0.0994832533902 0.827 8.76283637656e-39
-0.00306102318124 -0.0994832533902 0.827 9.86953846343e-39
-0.00152681023248 -0.0992426651111 0.825 7.74831310397e-39
0.0 -0.0990020768321 0.823 9.96064528438e-39
0.0015194075162 -0.098761488553 0.821 1.05141707895e-38
0.00300920416729 -0.0977991354368 0.813 9.59221028695e-39
0.00448049402767 -0.0970773705996 0.807 1.05141707895e-38
0.00595918660434 -0.0968367823205 0.805 1.05138288727e-38
0.00744898325543 -0.0968367823205 0.805 7.74725652492e-39
0.00891657175768 -0.0965961940415 0.803 8.20896334944e-39
0.0103897122971 -0.096475899902 0.802 9.13091964808e-39
0.0117555134506 -0.0955135467857 0.794 1.12496226703e-38
0.0131916404086 -0.0952729585067 0.792 9.774847121e-39
0.0146203646504 -0.0950323702276 0.79 1.0329085887e-38
0.0160620436457 -0.0949120760881 0.789 9.40712958838e-39
0.0175222294316 -0.0949120760881 0.789 1.00532262713e-38
0.0189342975618 -0.094671487809 0.787 9.22383414405e-39
0.0202871439617 -0.0941903112509 0.783 9.40822540378e-39
0.0216529451152 -0.0938294288323 0.78 9.87027694772e-39
0.022978031329 -0.0933482522742 0.776 9.96173549459e-39
0.0243512351987 -0.0931076639951 0.774 1.02372433844e-38
0.0257503485754 -0.0929873698556 0.773 8.76284198175e-39
0.0271105976916 -0.0927467815766 0.771 7.47174863515e-39
0.0284634440915 -0.0925061932975 0.769 8.30187784542e-39
0.0297700235147 -0.0921453108789 0.766 9.31602977391e-39
0.031106213803 -0.0919047225999 0.764 9.31602697132e-39
0.0324350013751 -0.0916641343208 0.762 7.19552468186e-39
0.0338008025285 -0.0915438401813 0.761 6.73527240515e-39
0.0352091693005 -0.0915438401813 0.761 5.3523393585e-39
0.0366175360725 -0.0915438401813 0.761 6.7363261816e-39
0.0380259028445 -0.0915438401813 0.761 9.04332728367e-39
0.0394342696166 -0.0915438401813 0.761 9.0440321368e-39
0.0408963060816 -0.0916641343208 0.762 6.73808481117e-39
0.0423065235327 -0.0916641343208 0.762 7.65969218649e-39
0.0437167409838 -0.0916641343208 0.762 7.84514002525e-39
0.0452454018953 -0.0919047225999 0.764 7.75296961876e-39
0.0466593207045 -0.0919047225999 0.764 6.37076244472e-39
0.0481990856905 -0.0921453108789 0.766 6.00269458748e-39
0.0496167058579 -0.0921453108789 0.766 6.55694456388e-39
0.0511009504718 -0.0922656050184 0.767 7.38670243005e-39
0.0525204213182 -0.0922656050184 0.767 8.03063550817e-39
0.0540805437739 -0.0925061932975 0.769 8.30542733443e-39
0.0555037159785 -0.0925061932975 0.769 8.02812298002e-39
0.0569268881831 -0.0925061932975 0.769 9.50072091151e-39
0.0585018160714 -0.0927467815766 0.771 7.194032299e-39
0.0599286896341 -0.0927467815766 0.771 1.1156654925e-38
0.0615147215968 -0.0929873698556 0.773 1.00495997109e-38
0.0630267263967 -0.0931076639951 0.774 8.20713325365e-39
0.0644591519966 -0.0931076639951 0.774 7.93414629981e-39
0.0658915775966 -0.0931076639951 0.774 5.44846422926e-39
0.067497967029 -0.0933482522742 0.776 5.81940474835e-39
0.0689340939871 -0.0933482522742 0.776 5.63324504996e-39
0.0703702209452 -0.0933482522742 0.776 6.09385605908e-39
0.0718063479032 -0.0933482522742 0.776 5.91016684988e-39
0.0732424748613 -0.0933482522742 0.776 5.72398753331e-39
-0.0275288511614 -0.103638027902 0.875 2.58040704415e-39
-0.0257910635149 -0.10316425406 0.871 6.08454443078e-39
-0.0241791220453 -0.10316425406 0.871 6.91574002918e-39
-0.0225153615616 -0.102927367139 0.869 3.69103697061e-39
-0.0209071214501 -0.102927367139 0.869 5.90513758969e-39
-0.0191878405943 -0.102335149837 0.864 7.65539860799e-39
-0.0175074239991 -0.101861375995 0.86 7.46993955883e-39
-0.0158418128364 -0.101387602153 0.856 7.10116264458e-39
-0.0141743509946 -0.100795384851 0.851 7.38025365452e-39
-0.0125402013761 -0.100321611009 0.847 8.48660401548e-39
-0.0109467666971 -0.100084724088 0.845 5.25870459511e-39
-0.00933852658556 -0.099610950246 0.841 7.83982630148e-39
-0.00772658511588 -0.0989002894832 0.835 7.19621552201e-39
-0.00615165722759 -0.0984265156414 0.831 8.48802212952e-39
-0.00460263884627 -0.0981896287205 0.829 8.3944237999e-39
-0.00306102318124 -0.0979527417995 0.827 7.93309252337e-39
-0.00153051159062 -0.0979527417995 0.827 8.76568801893e-39
0.0 -0.0977158548786 0.825 8.94650456628e-39
0.00152310887434 -0.0974789679577 0.823 1.05123953443e-38
0.00301660688356 -0.096531420274 0.815 1.12503121091e-38
0.00448049402767 -0.0955838725904 0.807 1.01432414808e-38
0.00595918660434 -0.0953469856695 0.805 1.12488813834e-38
0.00744898325543 -0.0953469856695 0.805 1.08808289405e-38
0.00891657175768 -0.0951100987485 0.803 7.37811387177e-39
0.0104026670506 -0.0951100987485 0.803 1.05134827519e-38
0.011873956911 -0.0949916552881 0.802 9.95959150794e-39
0.0131916404086 -0.0938072206835 0.792 1.01446946273e-38
0.0146203646504 -0.0935703337626 0.79 1.07922108256e-38
0.0160824011154 -0.0935703337626 0.79 9.22596131512e-39
0.0175222294316 -0.0934518903021 0.789 9.68658773852e-39
0.0189342975618 -0.0932150033812 0.787 8.57989265814e-39
0.0203389629757 -0.0929781164603 0.785 9.59261105831e-39
0.0216807053012 -0.0925043426184 0.781 9.50005249215e-39
0.022978031329 -0.0919121253161 0.776 9.13019377547e-39
0.0243512351987 -0.0916752383952 0.774 1.0514553344e-38
0.0257503485754 -0.0915567949348 0.773 9.77734423486e-39
0.0271105976916 -0.0913199080138 0.771 9.77664218433e-39
0.0284634440915 -0.0910830210929 0.769 5.72004568073e-39
0.0298088877752 -0.090846134172 0.767 9.13163290899e-39
0.0311876436821 -0.0907276907116 0.766 8.48733969717e-39
0.0325201326123 -0.0904908037906 0.764 7.28809726101e-39
0.0338452188261 -0.0902539168697 0.762 7.563958278e-39
0.0352554362772 -0.0902539168697 0.762 4.8906199223e-39
0.0366656537283 -0.0902539168697 0.762 7.47245208698e-39
0.0380758711794 -0.0902539168697 0.762 1.07939582448e-38
0.0394860886305 -0.0902539168697 0.762 8.58090719823e-39
0.0408963060816 -0.0902539168697 0.762 8.85964087707e-39
0.0424175642769 -0.0904908037906 0.764 9.41212802e-39
0.0438314830861 -0.0904908037906 0.764 8.21359604217e-39
0.0453638453558 -0.0907276907116 0.766 6.92608021055e-39
0.0467814655231 -0.0907276907116 0.766 7.94059507535e-39
0.0482620087789 -0.090846134172 0.767 8.67780698704e-39
0.0496814796253 -0.090846134172 0.767 7.29486273e-39
0.0511009504718 -0.090846134172 0.767 8.30864051181e-39
0.0526573715693 -0.0910830210929 0.769 7.84729522229e-39
0.0540805437739 -0.0910830210929 0.769 8.58343233806e-39
0.0555037159785 -0.0910830210929 0.769 9.31957646033e-39
0.0569268881831 -0.0910830210929 0.769 9.86304204375e-39
0.0585018160714 -0.0913199080138 0.771 9.58319853653e-39
0.0600841466759 -0.0915567949348 0.773 1.42841022649e-38
0.0615943007968 -0.0916752383952 0.774 1.43769971427e-38
0.0630267263967 -0.0916752383952 0.774 1.31806427827e-38
0.0644591519966 -0.0916752383952 0.774 1.37374108924e-38
0.066061840071 -0.0919121253161 0.776 7.19513652219e-39
0.067497967029 -0.0919121253161 0.776 6.46152594755e-39
0.0689340939871 -0.0919121253161 0.776 6.18603347206e-39
0.0703702209452 -0.0919121253161 0.776 6.64665569157e-39
0.0718063479032 -0.0919121253161 0.776 6.18568034485e-39
0.0732424748613 -0.0919121253161 0.776 5.53889142046e-39
-0.0276232357939 -0.10236846206 0.878 3.87042419352e-39
-0.0259095069754 -0.102018683716 0.875 6.63807133717e-39
-0.0242901627894 -0.102018683716 0.875 7.19232972137e-39
-0.0226189995895 -0.101785498153 0.873 4.9825016613e-39
-0.0210033567617 -0.101785498153 0.873 4.89134159101e-39
-0.0191878405943 -0.10073616312 0.864 6.82598966514e-39
-0.0175074239991 -0.100269791995 0.86 7.56141211869e-39
-0.0158418128364 -0.0998034208692 0.856 7.56178486408e-39
-0.0142243193295 -0.0995702353064 0.854 7.10402269474e-39
-0.0125402013761 -0.0987540858367 0.847 7.47102136125e-39
-0.0109467666971 -0.0985209002739 0.845 9.03764641969e-39
-0.00933852658556 -0.0980545291484 0.841 6.18101261966e-39
-0.00774509190657 -0.0975881580228 0.837 7.56499804146e-39
-0.00616646266014 -0.0971217868973 0.833 7.56571550627e-39
-0.00460263884627 -0.0966554157717 0.829 8.57989265814e-39
-0.00306842589751 -0.0966554157717 0.829 8.39514406731e-39
-0.00153051159062 -0.0964222302089 0.827 8.85788645139e-39
0.0 -0.0964222302089 0.827 9.77698830505e-39
0.00152681023248 -0.0961890446462 0.825 1.15269130117e-38
0.00302400959984 -0.095256302395 0.817 1.12485184471e-38
0.00449159810209 -0.0943235601439 0.809 1.03244069514e-38
0.0059739920369 -0.0940903745811 0.807 6.54295820391e-39
0.00744898325543 -0.0938571890184 0.805 1.14300496567e-38
0.00893877990651 -0.0938571890184 0.805 1.10634223343e-38
0.0104026670506 -0.0936240034556 0.803 7.74652644842e-39
0.011873956911 -0.0935074106742 0.802 9.40641772876e-39
0.0132249526319 -0.0925746684231 0.794 1.04223633193e-38
0.0146573782318 -0.0923414828603 0.792 9.50147200749e-39
0.0160824011154 -0.0921082972975 0.79 9.77985396041e-39
0.0175222294316 -0.0919917045161 0.789 8.85754593586e-39
0.0189342975618 -0.0917585189534 0.787 1.04234479243e-38
0.0203389629757 -0.0915253333906 0.785 8.8546858857e-39
0.0216807053012 -0.091058962265 0.781 1.08819107429e-38
0.022978031329 -0.0904759983581 0.776 9.59082019887e-39
0.0243512351987 -0.0902428127953 0.774 9.40821139079e-39
0.0257836607987 -0.0902428127953 0.774 1.0330518014e-38
0.0271809234963 -0.0901262200139 0.773 9.86848188439e-39
0.0285374712543 -0.0898930344511 0.771 9.68445776486e-39
0.0298088877752 -0.0894266633256 0.767 9.22418306737e-39
0.0312283586216 -0.0894266633256 0.767 8.67208828801e-39
0.0325201326123 -0.0890768849814 0.764 7.01151317402e-39
0.0339340514215 -0.0890768849814 0.764 7.19446249763e-39
0.0352554362772 -0.0888436994186 0.762 5.90477185079e-39
0.0366656537283 -0.0888436994186 0.762 8.66991627539e-39
0.0380758711794 -0.0888436994186 0.762 1.00553114034e-38
0.0395897266584 -0.0890768849814 0.764 9.22663253708e-39
0.0410036454676 -0.0890768849814 0.764 8.95146516284e-39
0.0424175642769 -0.0890768849814 0.764 9.32028131346e-39
0.0439462251884 -0.0893100705442 0.766 8.6756489874e-39
0.0453638453558 -0.0893100705442 0.766 8.86110943786e-39
0.0468425379324 -0.0894266633256 0.767 8.67744405074e-39
0.0482620087789 -0.0894266633256 0.767 8.95295614441e-39
0.0496814796253 -0.0894266633256 0.767 9.04478463407e-39
0.0511009504718 -0.0894266633256 0.767 9.87452568466e-39
0.0526573715693 -0.0896598488884 0.769 9.41354193015e-39
0.0540805437739 -0.0896598488884 0.769 9.13588725113e-39
0.0556480689459 -0.0898930344511 0.771 7.93592594886e-39
0.0570749425087 -0.0898930344511 0.771 1.27207548436e-38
0.0586535717551 -0.0901262200139 0.773 1.16111506676e-38
0.0600841466759 -0.0901262200139 0.773 1.29933634468e-38
0.0615943007968 -0.0902428127953 0.774 1.12434303324e-38
0.0630267263967 -0.0902428127953 0.774 1.15204053817e-38
0.0646257131129 -0.0904759983581 0.776 9.77228694871e-39
0.066061840071 -0.0904759983581 0.776 7.74759704045e-39
0.067497967029 -0.0904759983581 0.776 6.73668211141e-39
0.0689340939871 -0.0904759983581 0.776 5.3559028605e-39
0.0703702209452 -0.0904759983581 0.776 6.83103574091e-39
0.0719914158102 -0.0907091839209 0.778 4.61798889827e-39
0.0734312441264 -0.0907091839209 0.778 5.63144157883e-39
-0.0293813809101 -0.101202534246 0.882 4.24063323481e-39
-0.0276861588823 -0.100973050041 0.88 3.13356400774e-39
-0.0259983395707 -0.100743565837 0.878 6.45403180336e-39
-0.0243734433476 -0.100743565837 0.878 7.19232411617e-39
-0.0226708186035 -0.10039933953 0.875 5.07505322098e-39
-0.0210514744175 -0.10039933953 0.875 6.73597445568e-39
-0.0191878405943 -0.0991371764041 0.864 6.36573318453e-39
-0.0175481389386 -0.0989076921995 0.862 6.82457014979e-39
-0.0159158399992 -0.0986782079949 0.86 7.47066963533e-39
-0.0142243193295 -0.0979897553809 0.854 6.55229085168e-39
-0.0125698122412 -0.0974160448693 0.849 8.30187224022e-39
-0.0109467666971 -0.0969570764601 0.845 6.45759670666e-39
-0.00938294288323 -0.0969570764601 0.845 9.13197482582e-39
-0.00776359869727 -0.0962686238461 0.839 4.89097445081e-39
-0.0061812680927 -0.0958096554369 0.835 9.04014213226e-39
-0.00462484699511 -0.0955801712322 0.833 8.67135961281e-39
-0.00307582861379 -0.0953506870276 0.831 7.84267514126e-39
-0.00153421294876 -0.095121202823 0.829 9.59474663717e-39
0.0 -0.095121202823 0.829 9.04122113208e-39
0.00152681023248 -0.0946622344137 0.825 1.04209185806e-38
0.00302400959984 -0.0937442975951 0.817 1.16147898397e-38
0.00449159810209 -0.0928263607766 0.809 1.16090459173e-38
0.0059739920369 -0.0925968765719 0.807 9.39420401134e-39
0.00744898325543 -0.0923673923673 0.805 1.15154223643e-38
0.00893877990651 -0.0923673923673 0.805 1.40090091595e-38
0.0104026670506 -0.0921379081626 0.803 1.27222093914e-38
0.011873956911 -0.0920231660603 0.802 8.7606951925e-39
0.0132582648551 -0.0913347134464 0.796 9.13127277529e-39
0.0146573782318 -0.0908757450371 0.792 9.6855115413e-39
0.0160824011154 -0.0906462608325 0.79 8.94902129832e-39
0.0175222294316 -0.0905315187302 0.789 1.03316040204e-38
0.0189824152176 -0.0905315187302 0.789 9.77700231804e-39
0.0203907819896 -0.0903020345255 0.787 9.86848468698e-39
0.0216807053012 -0.0896135819116 0.781 1.0144345704e-38
0.0230372530593 -0.0892693556047 0.778 9.59046707166e-39
0.0243512351987 -0.0888103871954 0.774 9.03907294153e-39
0.0257836607987 -0.0888103871954 0.774 9.4082057856e-39
0.0271809234963 -0.0886956450931 0.773 9.68409342726e-39
0.0285374712543 -0.0884661608884 0.771 9.86884902458e-39
0.0298866162961 -0.0882366766838 0.769 9.86954967382e-39
0.0312283586216 -0.0880071924791 0.767 9.50184335158e-39
0.0326052638495 -0.0878924503768 0.766 7.38029008828e-39
0.0339340514215 -0.0876629661722 0.764 7.47140952092e-39
0.0353479702307 -0.0876629661722 0.764 4.98281835476e-39
0.0367618890399 -0.0876629661722 0.764 9.04012811927e-39
0.0381758078492 -0.0876629661722 0.764 1.02407788604e-38
0.0395897266584 -0.0876629661722 0.764 1.02411361915e-38
0.0411109848537 -0.0878924503768 0.766 8.76814729774e-39
0.042528605021 -0.0878924503768 0.766 8.30719437179e-39
0.0440035962396 -0.0880071924791 0.767 8.86109822747e-39
0.045423067086 -0.0880071924791 0.767 1.05191916419e-38
0.0468425379324 -0.0880071924791 0.767 1.11634890576e-38
0.0482620087789 -0.0880071924791 0.767 1.0610318081e-38
0.0496814796253 -0.0880071924791 0.767 9.68871210699e-39
0.0512341993648 -0.0882366766838 0.769 9.59650246415e-39
0.0526573715693 -0.0882366766838 0.769 9.13552291353e-39
0.0540805437739 -0.0882366766838 0.769 9.31956524994e-39
0.0556480689459 -0.0884661608884 0.771 8.5812967592e-39
0.0570749425087 -0.0884661608884 0.771 1.15247297887e-38
0.0587294495969 -0.0888103871954 0.774 1.06931642475e-38
0.0601618751969 -0.0888103871954 0.774 1.18916962254e-38
0.0615943007968 -0.0888103871954 0.774 8.29571353347e-39
0.0631895861548 -0.0890398714 0.776 7.00498592577e-39
0.0646257131129 -0.0890398714 0.776 7.83728294477e-39
0.0662321025454 -0.0892693556047 0.778 7.19443447166e-39
0.0676719308616 -0.0892693556047 0.778 5.35304000773e-39
0.0689340939871 -0.0890398714 0.776 6.09274763199e-39
0.0703702209452 -0.0890398714 0.776 6.64591720728e-39
0.0719914158102 -0.0892693556047 0.778 9.41251337708e-39
0.0734312441264 -0.0892693556047 0.778 9.22742146812e-39
-0.0311894943612 -0.100134692423 0.887 3.96439526854e-39
-0.0293813809101 -0.0995702353064 0.882 4.05587063099e-39
-0.0277490819706 -0.0995702353064 0.882 3.40978235584e-39
-0.026057561301 -0.0993444524599 0.88 6.91536167859e-39
-0.0243734433476 -0.0991186696134 0.878 7.00828738496e-39
-0.0226708186035 -0.0987799953437 0.875 4.61407226906e-39
-0.0210514744175 -0.0987799953437 0.875 7.93451764391e-39
-0.0193432976362 -0.0983284296507 0.871 7.93378056091e-39
-0.0175888538782 -0.0975381896879 0.864 5.44235737055e-39
-0.0159158399992 -0.0970866239949 0.86 8.02492241433e-39
-0.014290943776 -0.0968608411484 0.858 6.46117422164e-39
-0.0125994231063 -0.0960706011857 0.851 6.73490246236e-39
-0.0109726762041 -0.0956190354927 0.847 8.94687871297e-39
-0.00933852658556 -0.0949416869532 0.841 6.82672814943e-39
-0.00774509190657 -0.0944901212602 0.837 8.57951851145e-39
-0.0061812680927 -0.0942643384137 0.835 6.55086012595e-39
-0.00462484699511 -0.0940385555672 0.833 8.85539774532e-39
-0.00308323133007 -0.0940385555672 0.833 1.03308837529e-38
-0.0015379143069 -0.0938127727207 0.831 9.9624529594e-39
0.0 -0.0935869898742 0.829 9.68802406945e-39
0.00153051159062 -0.0933612070277 0.827 1.09748084233e-38
0.00305362046496 -0.0931354241812 0.825 1.21654482882e-38
0.00450270217651 -0.0915549442557 0.811 9.6686300987e-39
0.00598879746946 -0.0913291614092 0.809 1.11394609928e-38
0.00744898325543 -0.0908775957162 0.805 1.14174842133e-38
0.00893877990651 -0.0908775957162 0.805 1.42809269226e-38
0.0104026670506 -0.0906518128697 0.803 1.18884928571e-38
0.011873956911 -0.0905389214464 0.802 1.1155983703e-38
0.0132582648551 -0.0898615729069 0.796 1.07897123104e-38
0.0147314053946 -0.0898615729069 0.796 1.14357865726e-38
0.016123116055 -0.0894100072139 0.792 1.03305138101e-38
0.0175444375805 -0.0891842243674 0.79 9.03942326615e-39
0.0189824152176 -0.0890713329442 0.789 1.08829855388e-38
0.0203907819896 -0.0888455500977 0.787 8.57701719369e-39
0.0217362256733 -0.0883939844047 0.783 1.06978740117e-38
0.0230964747895 -0.0880553101349 0.78 9.95924959111e-39
0.0244141582871 -0.0876037444419 0.776 9.50005529474e-39
0.0257836607987 -0.0873779615954 0.774 9.50040141546e-39
0.0272160863986 -0.0873779615954 0.774 9.22311527794e-39
0.0286114984171 -0.0872650701722 0.773 9.68445776486e-39
0.0298866162961 -0.0868135044792 0.769 9.77735404395e-39
0.0312283586216 -0.0865877216327 0.767 8.67243861262e-39
0.0326052638495 -0.0864748302094 0.766 7.28845038823e-39
0.0340228840168 -0.0864748302094 0.766 7.1040591285e-39
0.0354405041842 -0.0864748302094 0.766 5.35231693773e-39
0.0368581243516 -0.0864748302094 0.766 9.87095517618e-39
0.0382757445189 -0.0864748302094 0.766 1.07024744745e-38
0.0396933646863 -0.0864748302094 0.766 9.31989595638e-39
0.0411109848537 -0.0864748302094 0.766 1.11652476872e-38
0.0425841253931 -0.0865877216327 0.767 1.09815949117e-38
0.0440035962396 -0.0865877216327 0.767 1.00600071546e-38
0.045423067086 -0.0865877216327 0.767 9.9660178627e-39
0.0468425379324 -0.0865877216327 0.767 9.68871210699e-39
0.0483878549556 -0.0868135044792 0.769 8.85930596674e-39
0.0498110271602 -0.0868135044792 0.769 1.00581994796e-38
0.0512341993648 -0.0868135044792 0.769 1.03351380951e-38
0.0526573715693 -0.0868135044792 0.769 9.50574036261e-39
0.0542211953832 -0.0870392873257 0.771 9.41319580943e-39
0.0557924219134 -0.0872650701722 0.773 8.49053465767e-39
0.0572229968342 -0.0872650701722 0.773 9.31634366477e-39
0.0587294495969 -0.0873779615954 0.774 7.37880331061e-39
0.0601618751969 -0.0873779615954 0.774 7.37842355873e-39
0.0617534591968 -0.0876037444419 0.776 7.8383507342e-39
0.0631895861548 -0.0876037444419 0.776 6.17990419258e-39
0.0647922742292 -0.0878295272884 0.778 6.82458696537e-39
0.0662321025454 -0.0878295272884 0.778 7.10332064421e-39
0.0676719308616 -0.0878295272884 0.778 1.0422723453e-38
0.0691117591778 -0.0878295272884 0.778 1.07010913929e-38
0.070551587494 -0.0878295272884 0.778 1.01489910084e-38
0.0719914158102 -0.0878295272884 0.778 9.41251617968e-39
0.0736200133915 -0.0880553101349 0.78 9.41145679804e-39
-0.0311894943612 -0.0984931400879 0.887 3.96474979705e-39
-0.0294813175799 -0.0982710585995 0.885 4.79343146601e-39
-0.0277490819706 -0.097937936367 0.882 2.4871043885e-39
-0.026057561301 -0.0977158548786 0.88 7.00683423845e-39
-0.0243734433476 -0.0974937733903 0.878 6.82389332263e-39
-0.0226708186035 -0.0971606511577 0.875 3.69211316783e-39
-0.0210514744175 -0.0971606511577 0.875 7.38134386473e-39
-0.0193432976362 -0.096716488181 0.871 8.48695434009e-39
-0.0175888538782 -0.0959392029717 0.864 6.64090055877e-39
-0.0159528535806 -0.0957171214834 0.862 5.99589688863e-39
-0.0143242559993 -0.095495039995 0.86 7.01398786711e-39
-0.012643839404 -0.0948287955299 0.854 7.01291307119e-39
-0.0109726762041 -0.0940515103207 0.847 7.1033346572e-39
-0.00933852658556 -0.0933852658556 0.841 8.30187504282e-39
-0.00774509190657 -0.0929411028789 0.837 7.28913001798e-39
-0.0061812680927 -0.0927190213905 0.835 9.22523684381e-39
-0.00462484699511 -0.0924969399022 0.833 7.65578957026e-39
-0.00308323133007 -0.0924969399022 0.833 1.04213039377e-38
-0.0015379143069 -0.0922748584138 0.831 1.03305138101e-38
0.0 -0.0920527769254 0.829 8.95081215775e-39
0.00153051159062 -0.0918306954371 0.827 1.06982215337e-38
0.00305362046496 -0.0916086139487 0.825 1.22565705234e-38
0.00452491032535 -0.0904982065069 0.815 1.14178387419e-38
0.00598879746946 -0.0898319620418 0.809 1.16901236452e-38
0.00746749004612 -0.0896098805535 0.807 1.19667105347e-38
0.00893877990651 -0.0893877990651 0.805 1.5567714079e-38
0.0104285765576 -0.0893877990651 0.805 1.07785579746e-38
0.0118887623436 -0.0891657175768 0.803 1.13385728929e-38
0.0133582015249 -0.0890546768326 0.802 1.20786476574e-38
0.0147314053946 -0.0883884323675 0.796 1.08808065197e-38
0.0161638309945 -0.0881663508791 0.794 1.08818813156e-38
0.0175444375805 -0.0877221879024 0.79 1.04209073702e-38
0.0189824152176 -0.0876111471582 0.789 1.06053070377e-38
0.0203907819896 -0.0873890656699 0.787 1.04216346441e-38
0.0217362256733 -0.0869449026931 0.783 9.31636468425e-39
0.0230964747895 -0.0866117804606 0.78 9.95960552092e-39
0.0244141582871 -0.0861676174839 0.776 9.8688378142e-39
0.0258502852452 -0.0861676174839 0.776 1.04223605167e-38
0.0272160863986 -0.0859455359955 0.774 9.96068031685e-39
0.0286114984171 -0.0858344952513 0.773 1.01454359142e-38
0.0298866162961 -0.0853903322746 0.769 9.50076715436e-39
0.0312283586216 -0.0851682507863 0.767 9.13341676194e-39
0.0326478294681 -0.0851682507863 0.767 7.93381699467e-39
0.0340228840168 -0.0850572100421 0.766 6.82818690113e-39
0.0354405041842 -0.0850572100421 0.766 4.89276951414e-39
0.0368581243516 -0.0850572100421 0.766 9.41175807721e-39
0.0382757445189 -0.0850572100421 0.766 1.06113578445e-38
0.0396933646863 -0.0850572100421 0.766 9.32061902639e-39
0.0411646545467 -0.0851682507863 0.767 9.9656507225e-39
0.0425841253931 -0.0851682507863 0.767 9.59796121585e-39
0.0440035962396 -0.0851682507863 0.767 9.59904862346e-39
0.045423067086 -0.0851682507863 0.767 9.04550350018e-39
0.046964682751 -0.0853903322746 0.769 9.22952481712e-39
0.0483878549556 -0.0853903322746 0.769 9.23095133895e-39
0.0498110271602 -0.0853903322746 0.769 9.23130026227e-39
0.0512341993648 -0.0853903322746 0.769 9.6933574114e-39
0.0527943218205 -0.085612413763 0.771 8.77104938686e-39
0.0542211953832 -0.085612413763 0.771 9.32351551031e-39
0.0557924219134 -0.0858344952513 0.773 8.03278229742e-39
0.057297023997 -0.0859455359955 0.774 6.6462591241e-39
0.0588812052807 -0.0861676174839 0.776 5.07750969719e-39
0.0603173322387 -0.0861676174839 0.776 6.27711086575e-39
0.0617534591968 -0.0861676174839 0.776 9.87097899825e-39
0.063352445913 -0.0863896989722 0.778 1.07010913929e-38
0.0649588353455 -0.0866117804606 0.78 1.07911598517e-38
0.0664023650198 -0.0866117804606 0.78 1.06996662724e-38
0.0678458946941 -0.0866117804606 0.78 1.14368655724e-38
0.0692894243685 -0.0866117804606 0.78 7.84123460643e-39
0.0707329540428 -0.0866117804606 0.78 1.00546485893e-38
0.0721764837172 -0.0866117804606 0.78 1.01486532954e-38
0.0737143980241 -0.0867228212048 0.781 8.67354283581e-39
-0.0311191685565 -0.0966332076229 0.885 3.68816571006e-39
-0.0293813809101 -0.0963056374275 0.882 4.70052117393e-39
-0.0276861588823 -0.0960872572973 0.88 2.9477280093e-39
-0.026057561301 -0.0960872572973 0.88 6.17707356968e-39
-0.0243734433476 -0.0958688771671 0.878 6.91752388212e-39
-0.0226708186035 -0.0955413069718 0.875 3.96870005742e-39
-0.0210514744175 -0.0955413069718 0.875 7.10475697514e-39
-0.0193877139339 -0.0953229268415 0.873 9.59186276493e-39
-0.0175888538782 -0.0943402162556 0.864 9.03618626669e-39
-0.0159528535806 -0.0941218361253 0.862 5.99481508622e-39
-0.0143242559993 -0.0939034559951 0.86 6.4586490818e-39
-0.0126734502691 -0.0934666957347 0.856 7.65898733336e-39
-0.011024495218 -0.0929207454091 0.851 7.1040563259e-39
-0.00940515103207 -0.0924839851487 0.847 8.02493922991e-39
-0.00776359869727 -0.0916104646278 0.839 8.11924241267e-39
-0.00619607352526 -0.0913920844976 0.837 8.39546496466e-39
-0.00462484699511 -0.0909553242371 0.833 8.30080725339e-39
-0.00308323133007 -0.0909553242371 0.833 7.93131988081e-39
-0.0015379143069 -0.0907369441069 0.831 1.10684347789e-38
0.0 -0.0905185639767 0.829 1.08858483916e-38
0.00153051159062 -0.0903001838465 0.827 1.14350733117e-38
0.00305362046496 -0.0900818037162 0.825 1.16112011143e-38
0.00453601439976 -0.0892082831954 0.817 1.09582955222e-38
0.00600360290201 -0.0885531428047 0.811 1.19674294009e-38
0.00746749004612 -0.0881163825442 0.807 9.66146245706e-39
0.00893877990651 -0.087898002414 0.805 1.64875235884e-38
0.0104285765576 -0.087898002414 0.805 1.17894869167e-38
0.0118887623436 -0.0876796222838 0.803 1.31785324272e-38
0.0133582015249 -0.0875704322187 0.802 1.17055491387e-38
0.014768418976 -0.0871336719583 0.798 1.22597851021e-38
0.0161638309945 -0.0866969116978 0.794 1.16158464188e-38
0.0175888538782 -0.0864785315676 0.792 1.15247339926e-38
0.0190064740455 -0.0862601514374 0.79 1.13417874716e-38
0.0203907819896 -0.085932581242 0.787 9.22272711826e-39
0.0217362256733 -0.0854958209816 0.783 1.06996494568e-38
0.0231260856546 -0.0852774408514 0.781 1.00517983482e-38
0.0244141582871 -0.0847314905258 0.776 9.03907434283e-39
0.0258502852452 -0.0847314905258 0.776 8.85503200642e-39
0.0272160863986 -0.0845131103956 0.774 8.48555023903e-39
0.0286114984171 -0.0844039203305 0.773 1.03298271739e-38
0.029964344817 -0.0841855402003 0.771 1.03305278231e-38
0.0313097885007 -0.08396716007 0.769 8.67208268281e-39
0.0326478294681 -0.0837487799398 0.767 7.47284164795e-39
0.0340228840168 -0.0836395898747 0.766 7.38171380752e-39
0.0354405041842 -0.0836395898747 0.766 4.5247030582e-39
0.0368581243516 -0.0836395898747 0.766 9.0443964744e-39
0.0382757445189 -0.0836395898747 0.766 1.0335489821e-38
0.0397451837003 -0.0837487799398 0.767 1.0612073908e-38
0.0411646545467 -0.0837487799398 0.767 1.02422516251e-38
0.0425841253931 -0.0837487799398 0.767 1.02433390327e-38
0.0440035962396 -0.0837487799398 0.767 9.78380562208e-39
0.0455415105465 -0.08396716007 0.769 9.41537342724e-39
0.046964682751 -0.08396716007 0.769 8.49375764414e-39
0.0483878549556 -0.08396716007 0.769 9.87811020613e-39
0.0499405746951 -0.0841855402003 0.771 9.60115617635e-39
0.0513674482578 -0.0841855402003 0.771 9.60116178154e-39
0.0527943218205 -0.0841855402003 0.771 7.47995744156e-39
0.0543618469925 -0.0844039203305 0.773 5.8200871807e-39
0.0558645983971 -0.0845131103956 0.774 1.0245120083e-38
0.057297023997 -0.0845131103956 0.774 1.00578575627e-38
0.0588812052807 -0.0847314905258 0.776 1.05184867887e-38
0.0603173322387 -0.0847314905258 0.776 1.03351703249e-38
0.0619126175968 -0.084949870656 0.778 9.96605429646e-39
0.0635153056711 -0.0851682507863 0.78 8.5827639187e-39
0.0649588353455 -0.0851682507863 0.78 9.31818777355e-39
0.0664023650198 -0.0851682507863 0.78 8.85647394254e-39
0.0679328766104 -0.0852774408514 0.781 9.86989159064e-39
0.0693782569638 -0.0852774408514 0.781 8.76211330655e-39
0.0707329540428 -0.0851682507863 0.78 5.35160087421e-39
0.0721764837172 -0.0851682507863 0.78 9.22490473608e-39
0.0737143980241 -0.0852774408514 0.781 8.21221155928e-39
0.0757371902472 -0.085932581242 0.787 1.94185635343e-39
-0.0311191685565 -0.0949953566462 0.885 4.14771033105e-39
-0.0293813809101 -0.0946733384881 0.882 5.06895336876e-39
-0.0276861588823 -0.094458659716 0.88 4.05300777823e-39
-0.026057561301 -0.094458659716 0.88 7.83731937853e-39
-0.0243734433476 -0.0942439809439 0.878 6.36399417313e-39
-0.0226708186035 -0.0939219627858 0.875 4.79846352879e-39
-0.0210514744175 -0.0939219627858 0.875 7.6568545571e-39
-0.0193877139339 -0.0937072840137 0.873 8.3926007106e-39
-0.0175888538782 -0.0927412295394 0.864 9.67975360591e-39
-0.015989867162 -0.0927412295394 0.864 8.66596461372e-39
-0.0143242559993 -0.0923118719952 0.86 7.00929491855e-39
-0.0126734502691 -0.091882514451 0.856 8.11889068675e-39
-0.0110633594785 -0.0916678356789 0.854 8.02636715305e-39
-0.0094273591809 -0.0911311387487 0.849 8.11856278291e-39
-0.00776359869727 -0.0900577448883 0.839 8.11888928545e-39
-0.00619607352526 -0.0898430661163 0.837 1.02386699062e-38
-0.00463595106953 -0.0896283873442 0.835 1.04213039377e-38
-0.00308323133007 -0.0894137085721 0.833 1.00510934951e-38
-0.0015379143069 -0.0891990298 0.831 1.05138330765e-38
0.0 -0.0889843510279 0.829 1.10677327283e-38
0.00153051159062 -0.0887696722558 0.827 1.18027838378e-38
0.00304621774868 -0.0883403147117 0.823 1.17041156103e-38
0.0045582225486 -0.0881256359396 0.821 1.10533624126e-38
0.00601840833457 -0.0872669208513 0.813 1.11409001263e-38
0.00750450362752 -0.0870522420792 0.811 1.39971737927e-38
0.00893877990651 -0.0864082057629 0.805 1.46432606665e-38
0.0104285765576 -0.0864082057629 0.805 1.0403689616e-38
0.0118887623436 -0.0861935269909 0.803 1.58475449746e-38
0.0133582015249 -0.0860861876048 0.802 1.25299260187e-38
0.0148054325574 -0.0858715088327 0.8 1.15175551406e-38
0.016204545934 -0.0854421512886 0.796 1.36398426843e-38
0.0175888538782 -0.0850127937444 0.792 1.18902893217e-38
0.0190064740455 -0.0847981149723 0.79 1.20772029187e-38
0.0204426010036 -0.0846907755863 0.789 1.09740895572e-38
0.0217917460454 -0.0842614180421 0.785 9.68586326722e-39
0.0231260856546 -0.083832060498 0.781 1.09748322453e-38
0.0245400044638 -0.0837247211119 0.78 9.68479828038e-39
0.0258502852452 -0.0832953635678 0.776 9.40856171541e-39
0.0272160863986 -0.0830806847957 0.774 1.09748294427e-38
0.0286114984171 -0.0829733454096 0.773 1.06986096934e-38
0.029964344817 -0.0827586666375 0.771 9.96174810628e-39
0.0313097885007 -0.0825439878655 0.769 9.22525926459e-39
0.0326478294681 -0.0823293090934 0.767 8.30224918951e-39
0.0340673003145 -0.0823293090934 0.767 7.28988391656e-39
0.0354867711609 -0.0823293090934 0.767 5.53957385281e-39
0.0369062420074 -0.0823293090934 0.767 9.32168821711e-39
0.0383257128538 -0.0823293090934 0.767 1.07968182949e-38
0.0397451837003 -0.0823293090934 0.767 9.78373695846e-39
0.0411646545467 -0.0823293090934 0.767 1.08890503586e-38
0.0425841253931 -0.0823293090934 0.767 1.0337673044e-38
0.0441183383419 -0.0825439878655 0.769 9.69338263478e-39
0.0455415105465 -0.0825439878655 0.769 9.13807327674e-39
0.046964682751 -0.0825439878655 0.769 8.40013409114e-39
0.0485137011324 -0.0827586666375 0.771 7.47851270284e-39
0.0499405746951 -0.0827586666375 0.771 9.22950239634e-39
0.0515006971508 -0.0829733454096 0.773 1.24560033208e-38
0.0529312720717 -0.0829733454096 0.773 1.41141023404e-38
0.0543618469925 -0.0829733454096 0.773 1.38371651262e-38
0.0558645983971 -0.0830806847957 0.774 1.30066855913e-38
0.0574450783226 -0.0832953635678 0.776 1.07943576148e-38
0.0588812052807 -0.0832953635678 0.776 1.01504301419e-38
0.0604727892806 -0.0835100423398 0.778 1.00593261235e-38
0.0619126175968 -0.0835100423398 0.778 9.04590567284e-39
0.0635153056711 -0.0837247211119 0.78 7.2931293238e-39
0.0650421159036 -0.083832060498 0.781 5.53961028657e-39
0.066487496257 -0.083832060498 0.781 8.85684108274e-39
0.0679328766104 -0.083832060498 0.781 6.18242652981e-39
0.0693782569638 -0.083832060498 0.781 5.81077274981e-39
0.0710050038661 -0.08404673927 0.783 4.24452744325e-39
0.0724540855776 -0.08404673927 0.783 9.87063147623e-39
0.0740919365543 -0.0842614180421 0.785 7.38244808792e-39
0.0757371902472 -0.0844760968142 0.787 3.50917785721e-39
-0.0311191685565 -0.0933575056696 0.885 3.96332467651e-39
-0.0293147564636 -0.0928300621347 0.88 4.97532701317e-39
-0.0276861588823 -0.0928300621347 0.88 3.68351760305e-39
-0.0259983395707 -0.0926190847208 0.878 7.28379247213e-39
-0.0243734433476 -0.0926190847208 0.878 7.65473579382e-39
-0.0226708186035 -0.0923026185998 0.875 5.2594444807e-39
-0.0210514744175 -0.0923026185998 0.875 8.48589916235e-39
-0.0193877139339 -0.0920916411859 0.873 9.03617225371e-39
-0.0176499262875 -0.0914587089441 0.867 9.77015136985e-39
-0.015989867162 -0.0911422428232 0.864 1.08764989282e-38
-0.0143242559993 -0.0907202879953 0.86 9.21983063434e-39
-0.0127030611342 -0.0905093105813 0.858 6.9192797091e-39
-0.0110633594785 -0.0900873557534 0.854 7.75012918678e-39
-0.0094273591809 -0.0895599122186 0.849 8.11926203085e-39
-0.00778210548797 -0.0887160025628 0.841 8.94829822831e-39
-0.00621087895782 -0.0885050251489 0.839 8.57844791943e-39
-0.00463595106953 -0.088083070321 0.835 1.02372644038e-38
-0.00309063404635 -0.088083070321 0.835 1.04205794663e-38
-0.00154161566504 -0.0878720929071 0.833 1.15272773493e-38
0.0 -0.0874501380792 0.829 1.14343684585e-38
0.00153051159062 -0.0872391606652 0.827 1.20782959315e-38
0.00304621774868 -0.0868172058373 0.823 1.11527396971e-38
0.0045582225486 -0.0866062284234 0.821 1.05948967914e-38
0.00603321376713 -0.0859732961816 0.815 1.00377839622e-38
0.00752301041821 -0.0857623187676 0.813 1.59354400194e-38
0.00898319620418 -0.0853403639397 0.809 1.64868187353e-38
0.0104285765576 -0.0849184091119 0.805 1.16004475499e-38
0.0118887623436 -0.0847074316979 0.803 1.72268963023e-38
0.0133582015249 -0.0846019429909 0.802 1.19738893868e-38
0.0148054325574 -0.084390965577 0.8 1.02228744699e-38
0.016204545934 -0.0839690107491 0.796 1.3083804651e-38
0.0176332701758 -0.0837580333352 0.794 1.20725337922e-38
0.0190064740455 -0.0833360785073 0.79 1.14307657202e-38
0.0204685105106 -0.0833360785073 0.79 1.08815464053e-38
0.0218472664175 -0.0830196123864 0.787 1.0976253162e-38
0.0231853073848 -0.0825976575585 0.783 9.3153109078e-39
0.024571466008 -0.0823866801445 0.781 1.0237969257e-38
0.0258502852452 -0.0818592366097 0.776 9.22416905438e-39
0.0272160863986 -0.0816482591957 0.774 1.0145068774e-38
0.0286114984171 -0.0815427704888 0.773 1.06064140635e-38
0.030042073338 -0.0815427704888 0.773 9.86955387771e-39
0.0313097885007 -0.0811208156609 0.769 8.9486751776e-39
0.0326478294681 -0.0809098382469 0.767 8.02530777141e-39
0.0340673003145 -0.0809098382469 0.767 7.84270316723e-39
0.0354867711609 -0.0809098382469 0.767 5.63141775676e-39
0.0369062420074 -0.0809098382469 0.767 9.87557665851e-39
