# .PCD v0.7 - Point Cloud Data file format
VERSION 0.7
FIELDS x y z rgb
SIZE 4 4 4 4
TYPE F F F F
COUNT 1 1 1 1
WIDTH 833
HEIGHT 1
VIEWPOINT 0 0 0 1 0 0 0
POINTS 833
DATA ascii
0.0127752376179 -0.0766514257076 0.767 1.05074165309e-38
0.0141947084644 -0.0766514257076 0.767 8.66420598414e-39
0.0156141793108 -0.0766514257076 0.767 8.20358376464e-39
0.0170780664549 -0.0768512990472 0.769 8.48054059702e-39
0.0185012386595 -0.0768512990472 0.769 1.28857801585e-39
-0.103045810599 -0.068267849522 0.696 9.18387191445e-40
-0.101757737967 -0.068267849522 0.696 4.05265465102e-39
-0.100469665334 -0.068267849522 0.696 1.65926532031e-38
-0.0991815927018 -0.068267849522 0.696 1.23530569292e-38
-0.0980341716786 -0.0683659355127 0.697 1.54887789365e-38
-0.0967442483671 -0.0683659355127 0.697 1.50281679274e-38
-0.0954543250555 -0.0683659355127 0.697 1.5213647996e-38
-0.0941644017439 -0.0683659355127 0.697 1.63214416944e-38
-0.0928744784324 -0.0683659355127 0.697 1.59526563724e-38
-0.0915845551208 -0.0683659355127 0.697 1.74277864502e-38
-0.0902946318092 -0.0683659355127 0.697 1.76114616464e-38
-0.0890047084977 -0.0683659355127 0.697 1.79802469684e-38
-0.0878406313629 -0.0684640215034 0.698 1.98227260374e-38
-0.0865488573722 -0.0684640215034 0.698 1.91762874376e-38
-0.0852570833816 -0.0684640215034 0.698 2.1388633631e-38
-0.083965309391 -0.0684640215034 0.698 2.23102354011e-38
-0.0826735354003 -0.0684640215034 0.698 2.3509504462e-38
-0.0813817614097 -0.0684640215034 0.698 2.35098702009e-38
-0.0800899874191 -0.0684640215034 0.698 2.35098786087e-38
-0.0787982134285 -0.0684640215034 0.698 2.35091639464e-38
-0.0775064394378 -0.0684640215034 0.698 2.35095268827e-38
-0.0762146654472 -0.0684640215034 0.698 2.35098856151e-38
-0.0749228914566 -0.0684640215034 0.698 2.35098856151e-38
-0.0736311174659 -0.0684640215034 0.698 2.35098828126e-38
-0.0723393434753 -0.0684640215034 0.698 2.35098856151e-38
-0.0710475694847 -0.0684640215034 0.698 2.35098856151e-38
-0.069755795494 -0.0684640215034 0.698 2.35098856151e-38
-0.0684640215034 -0.0684640215034 0.698 2.35098856151e-38
-0.0671722475128 -0.0684640215034 0.698 2.32332987256e-38
-0.0658804735221 -0.0684640215034 0.698 2.2956711836e-38
-0.0645886995315 -0.0684640215034 0.698 2.35098856151e-38
-0.0632969255409 -0.0684640215034 0.698 2.34176899853e-38
-0.0620051515503 -0.0684640215034 0.698 2.35098856151e-38
-0.0607133775596 -0.0684640215034 0.698 2.30489074658e-38
-0.059421603569 -0.0684640215034 0.698 2.33254943554e-38
-0.0581298295784 -0.0684640215034 0.698 2.35098856151e-38
-0.0568380555877 -0.0684640215034 0.698 2.35098856151e-38
-0.0555462815971 -0.0684640215034 0.698 2.35098856151e-38
-0.0542545076065 -0.0684640215034 0.698 2.35098856151e-38
-0.0529627336158 -0.0684640215034 0.698 2.35098856151e-38
-0.0518190139508 -0.0686601934848 0.7 2.32343721202e-38
-0.050523538602 -0.0686601934848 0.7 2.32343735215e-38
-0.0492280632532 -0.0686601934848 0.7 2.3418050119e-38
-0.0479325879045 -0.0686601934848 0.7 2.35095268827e-38
-0.0466371125557 -0.0686601934848 0.7 2.35095268827e-38
-0.0453416372069 -0.0686601934848 0.7 2.35091583412e-38
-0.0440461618582 -0.0686601934848 0.7 2.35098617931e-38
-0.0427506865094 -0.0686601934848 0.7 2.29552334661e-38
-0.0413367677002 -0.0684640215034 0.698 2.35098463788e-38
-0.0400449937095 -0.0684640215034 0.698 2.18521088942e-38
-0.0388642604631 -0.0686601934848 0.7 1.86252422308e-38
-0.0375687851143 -0.0686601934848 0.7 1.90869182268e-38
-0.0362733097656 -0.0686601934848 0.7 1.67838085305e-38
-0.0349778344168 -0.0686601934848 0.7 1.48494841563e-38
-0.0337304767238 -0.0687582794755 0.701 9.68940154584e-39
-0.032433150696 -0.0687582794755 0.701 7.20119853935e-39
-0.0311358246681 -0.0687582794755 0.701 1.11709271498e-39
-0.0299236298775 -0.0689544514569 0.703 3.88184337471e-39
-0.0286226024915 -0.0689544514569 0.703 4.70944324125e-39
-0.027360439366 -0.0690525374476 0.704 4.70728804421e-39
-0.0261315884638 -0.069248709429 0.706 5.71929318346e-39
-0.0248953348452 -0.0694448814103 0.708 6.17991960686e-39
-0.0236516785104 -0.0696410533917 0.71 5.99732341047e-39
-0.0223691579151 -0.0697391393824 0.711 5.63033175045e-39
-0.0211421576919 -0.0700333973545 0.714 6.08879176643e-39
-0.0198762932083 -0.0702295693359 0.716 6.27246416004e-39
-0.0185771165014 -0.0703276553266 0.717 5.90368164059e-39
-0.0172982972642 -0.070523827308 0.719 5.6270975536e-39
-0.015989867162 -0.0706219132986 0.72 5.25796050563e-39
-0.0146980931713 -0.07081808528 0.722 5.5341970706e-39
-0.0133804096737 -0.0709161712707 0.723 6.64019290305e-39
-0.0120756809296 -0.0711123432521 0.725 7.19337228742e-39
-0.0107635494692 -0.0713085152335 0.727 6.73132074348e-39
-0.00943106053904 -0.0714066012242 0.728 9.58973979776e-39
-0.00811707839958 -0.0717008591963 0.731 7.00753348638e-39
-0.00678273879034 -0.0718970311777 0.733 7.46886616421e-39
-0.00543359374855 -0.0719951171683 0.734 8.94327737591e-39
-0.00408629938583 -0.0721912891497 0.736 1.02325854683e-38
-0.00273160230683 -0.0723874611311 0.738 8.94149772686e-39
-0.00137135319063 -0.0726817191032 0.741 8.57236628409e-39
0.0 -0.0726817191032 0.741 7.0997683526e-39
0.00138060658597 -0.0731721490567 0.746 6.91574283178e-39
0.00278342132079 -0.0737606650008 0.752 7.74406576832e-39
0.00417513198118 -0.0737606650008 0.752 8.01921352439e-39
0.00558905079041 -0.0740549229729 0.755 8.01777158827e-39
0.00698631348801 -0.0740549229729 0.755 8.20144398188e-39
0.00846130470654 -0.0747415249077 0.762 8.75389469106e-39
0.0098974316646 -0.0749376968891 0.764 9.67584818709e-39
0.0113557667715 -0.0752319548612 0.767 9.86238483477e-39
0.0128085498412 -0.0754281268426 0.769 8.84789659464e-39
0.0142317220458 -0.0754281268426 0.769 8.20430683465e-39
0.0156548942503 -0.0754281268426 0.769 8.5730921567e-39
0.0170780664549 -0.0754281268426 0.769 8.02028131382e-39
-0.104034073222 -0.0667873062663 0.694 9.18713693987e-40
-0.102749701948 -0.0667873062663 0.694 1.84359085914e-38
-0.101757737967 -0.0669797768895 0.696 1.88057476899e-38
-0.100469665334 -0.0669797768895 0.696 1.33675914121e-38
-0.0991815927018 -0.0669797768895 0.696 1.56738750494e-38
-0.0980341716786 -0.0670760122012 0.697 1.53061575168e-38
-0.0967442483671 -0.0670760122012 0.697 1.46604391844e-38
-0.0954543250555 -0.0670760122012 0.697 1.57675266284e-38
-0.0941644017439 -0.0670760122012 0.697 1.64132701841e-38
-0.0928744784324 -0.0670760122012 0.697 1.6136328766e-38
-0.0915845551208 -0.0670760122012 0.697 1.89022004645e-38
-0.0902946318092 -0.0670760122012 0.697 1.78880513386e-38
-0.0890047084977 -0.0670760122012 0.697 1.94539435179e-38
-0.0877147851861 -0.0670760122012 0.697 2.09287232711e-38
-0.0864248618746 -0.0670760122012 0.697 2.06517874582e-38
-0.085134938563 -0.0670760122012 0.697 2.28637749192e-38
-0.0838450152514 -0.0670760122012 0.697 2.35091527361e-38
-0.0826735354003 -0.0671722475128 0.698 2.35091583412e-38
-0.0813817614097 -0.0671722475128 0.698 2.35098786087e-38
-0.0800899874191 -0.0671722475128 0.698 2.35098828126e-38
-0.0787982134285 -0.0671722475128 0.698 2.25872104504e-38
-0.0773953986936 -0.0670760122012 0.697 2.35098856151e-38
-0.0761054753821 -0.0670760122012 0.697 2.35098856151e-38
-0.0748155520705 -0.0670760122012 0.697 2.35098856151e-38
-0.073525628759 -0.0670760122012 0.697 2.35098828126e-38
-0.0722357054474 -0.0670760122012 0.697 2.35098856151e-38
-0.0709457821358 -0.0670760122012 0.697 2.35098856151e-38
-0.069755795494 -0.0671722475128 0.698 2.35098856151e-38
-0.0684640215034 -0.0671722475128 0.698 2.35098856151e-38
-0.0671722475128 -0.0671722475128 0.698 2.35098856151e-38
-0.0657860888896 -0.0670760122012 0.697 2.35098856151e-38
-0.064496165578 -0.0670760122012 0.697 2.35098856151e-38
-0.0632062422665 -0.0670760122012 0.697 2.35098856151e-38
-0.0619163189549 -0.0670760122012 0.697 2.35098856151e-38
-0.0606263956434 -0.0670760122012 0.697 2.33254943554e-38
-0.0593364723318 -0.0670760122012 0.697 2.35098856151e-38
-0.0580465490202 -0.0670760122012 0.697 2.32332987256e-38
-0.0567566257087 -0.0670760122012 0.697 2.32332987256e-38
-0.0554667023971 -0.0670760122012 0.697 2.35098856151e-38
-0.0542545076065 -0.0671722475128 0.698 2.35098856151e-38
-0.0529627336158 -0.0671722475128 0.698 2.33254943554e-38
-0.0516709596252 -0.0671722475128 0.698 2.32343721202e-38
-0.0503791856346 -0.0671722475128 0.698 2.30506997266e-38
-0.049087411644 -0.0671722475128 0.698 2.3418050119e-38
-0.0477956376533 -0.0671722475128 0.698 2.35098856151e-38
-0.0465038636627 -0.0671722475128 0.698 2.35095226788e-38
-0.0452120896721 -0.0671722475128 0.698 2.23098864778e-38
-0.0439203156814 -0.0671722475128 0.698 2.22176712298e-38
-0.0426285416908 -0.0671722475128 0.698 2.28630238232e-38
-0.0413367677002 -0.0671722475128 0.698 1.93617478881e-38
-0.0400449937095 -0.0671722475128 0.698 1.95482887396e-38
-0.0387532197189 -0.0671722475128 0.698 1.78912631147e-38
-0.0374614457283 -0.0671722475128 0.698 1.6971076656e-38
-0.0361696717377 -0.0671722475128 0.698 1.19942894898e-38
-0.0349778344168 -0.067364718136 0.7 1.0612073908e-38
-0.033682359068 -0.067364718136 0.7 5.81756624476e-39
-0.032433150696 -0.0674609534476 0.701 3.05030165559e-39
-0.0311358246681 -0.0674609534476 0.701 2.95918362425e-39
-0.0299236298775 -0.0676534240709 0.703 3.51234899564e-39
-0.0286226024915 -0.0676534240709 0.703 5.35408117249e-39
-0.027360439366 -0.0677496593825 0.704 5.53524103796e-39
-0.0261686020451 -0.0680383653174 0.707 5.99371646822e-39
-0.0248953348452 -0.068134600629 0.708 5.99480948102e-39
-0.0236849907336 -0.0684233065639 0.711 5.62781641971e-39
-0.0224320810035 -0.0686157771871 0.713 5.63103660358e-39
-0.0212013794222 -0.068904483122 0.716 5.81255940535e-39
-0.0199040533943 -0.0690007184336 0.717 6.18026853018e-39
-0.0186289355153 -0.0691931890569 0.719 6.18026853018e-39
-0.0173223560921 -0.0692894243685 0.72 5.99588007305e-39
-0.0160342834596 -0.0694818949917 0.722 5.35015613549e-39
-0.0147184506411 -0.0695781303034 0.723 6.08737084978e-39
-0.0133804096737 -0.0695781303034 0.723 7.65434483155e-39
-0.0121089931529 -0.0699630715498 0.727 6.82423243686e-39
-0.0108079657669 -0.0702517774847 0.73 7.00791043567e-39
-0.00949583430648 -0.0705404834196 0.733 9.86489315902e-39
-0.00815039062283 -0.0706367187312 0.734 7.46815850849e-39
-0.00679199218569 -0.0706367187312 0.734 9.12803297324e-39
-0.00544839918111 -0.0708291893544 0.736 8.9429228474e-39
-0.00409740346025 -0.0710216599777 0.738 8.02061622415e-39
-0.00274270638125 -0.0713103659126 0.741 7.83587604111e-39
-0.00138060658597 -0.0717915424707 0.746 7.74333148793e-39
0.0 -0.0720802484055 0.749 7.19232972137e-39
0.00139541201853 -0.0725614249637 0.754 7.65330787068e-39
0.00279082403706 -0.0725614249637 0.754 7.65114706845e-39
0.0041862360556 -0.0725614249637 0.754 8.66314099731e-39
0.00558905079041 -0.0726576602753 0.755 8.56950343133e-39
0.0070048202787 -0.0728501308985 0.757 8.66097739248e-39
0.00846130470654 -0.0733313074566 0.762 1.17959861389e-38
0.0098974316646 -0.0735237780799 0.764 1.18885419025e-38
0.0113557667715 -0.0738124840148 0.767 8.38690583364e-39
0.0128085498412 -0.074004954638 0.769 8.6631522077e-39
0.0142687356272 -0.0741974252613 0.771 8.38834496716e-39
0.0156956091899 -0.0741974252613 0.771 9.12627994886e-39
0.0171224827526 -0.0741974252613 0.771 8.11320141499e-39
-0.105166688813 -0.0654085503594 0.693 2.85410025241e-39
-0.103884168218 -0.0654085503594 0.693 2.23087808533e-38
-0.102601647623 -0.0654085503594 0.693 1.17999700305e-38
-0.101465330674 -0.0655029349919 0.694 0.0
-0.100180959399 -0.0655029349919 0.694 1.47690131907e-39
-0.0991815927018 -0.065691704257 0.696 1.25410285065e-38
-0.0978935200693 -0.065691704257 0.696 1.52146877595e-38
-0.0966054474368 -0.065691704257 0.696 1.62292040256e-38
-0.0954543250555 -0.0657860888896 0.697 1.65054447945e-38
-0.0941644017439 -0.0657860888896 0.697 1.77965549567e-38
-0.0927412295394 -0.065691704257 0.696 1.80724397957e-38
-0.0914531569069 -0.065691704257 0.696 1.89007683375e-38
-0.0901650842744 -0.065691704257 0.696 1.89929653686e-38
-0.0888770116419 -0.065691704257 0.696 1.95457888232e-38
-0.0873372466559 -0.0655029349919 0.694 2.21269147334e-38
-0.0860528753816 -0.0655029349919 0.694 2.21265658101e-38
-0.0847685041072 -0.0655029349919 0.694 2.35098730035e-38
-0.0834841328329 -0.0655029349919 0.694 2.35091611438e-38
-0.0821997615585 -0.0655029349919 0.694 2.35098828126e-38
-0.0809153902842 -0.0655029349919 0.694 2.3233295923e-38
-0.0796310190098 -0.0655029349919 0.694 2.22191439945e-38
-0.078572430582 -0.065691704257 0.696 2.34176899853e-38
-0.0772843579495 -0.065691704257 0.696 2.35098856151e-38
-0.075996285317 -0.065691704257 0.696 2.35098856151e-38
-0.0747082126845 -0.065691704257 0.696 2.35098856151e-38
-0.073420140052 -0.065691704257 0.696 2.35098856151e-38
-0.0721320674195 -0.065691704257 0.696 2.35098856151e-38
-0.070843994787 -0.065691704257 0.696 2.35098856151e-38
-0.0695559221545 -0.065691704257 0.696 2.35098856151e-38
-0.0683659355127 -0.0657860888896 0.697 2.35098856151e-38
-0.0670760122012 -0.0657860888896 0.697 2.35098856151e-38
-0.0657860888896 -0.0657860888896 0.697 2.35098856151e-38
-0.064496165578 -0.0657860888896 0.697 2.35098856151e-38
-0.0632062422665 -0.0657860888896 0.697 2.35098856151e-38
-0.0619163189549 -0.0657860888896 0.697 2.35098856151e-38
-0.0606263956434 -0.0657860888896 0.697 2.34176899853e-38
-0.0593364723318 -0.0657860888896 0.697 2.35098856151e-38
-0.0580465490202 -0.0657860888896 0.697 2.33254943554e-38
-0.0567566257087 -0.0657860888896 0.697 2.27723205762e-38
-0.0554667023971 -0.0657860888896 0.697 2.30489074658e-38
-0.0541767790855 -0.0657860888896 0.697 2.34176899853e-38
-0.052886855774 -0.0657860888896 0.697 2.35098856151e-38
-0.0516709596252 -0.0658804735221 0.698 2.33262076163e-38
-0.0503791856346 -0.0658804735221 0.698 2.34180445138e-38
-0.049087411644 -0.0658804735221 0.698 2.35098786087e-38
-0.0477956376533 -0.0658804735221 0.698 2.35098744048e-38
-0.0465038636627 -0.0658804735221 0.698 2.3416951501e-38
-0.0452120896721 -0.0658804735221 0.698 2.35098561879e-38
-0.0439203156814 -0.0658804735221 0.698 2.30488570191e-38
-0.0426285416908 -0.0658804735221 0.698 2.11123774479e-38
-0.0413367677002 -0.0658804735221 0.698 1.90858868711e-38
-0.0400449937095 -0.0658804735221 0.698 1.83508105382e-38
-0.0387532197189 -0.0658804735221 0.698 1.66959204921e-38
-0.0374614457283 -0.0658804735221 0.698 9.59971424023e-39
-0.0361696717377 -0.0658804735221 0.698 8.8621632143e-39
-0.0349778344168 -0.0660692427873 0.7 3.60490195661e-39
-0.033682359068 -0.0660692427873 0.7 3.14141968694e-39
-0.032433150696 -0.0661636274198 0.701 4.43000751188e-39
-0.0311358246681 -0.0661636274198 0.701 4.61725041398e-39
-0.0299236298775 -0.0663523966849 0.703 4.43249761925e-39
-0.0286633174311 -0.0664467813175 0.704 5.35158125603e-39
-0.0274770321474 -0.0667299352151 0.707 6.0869882953e-39
-0.0262796427893 -0.0670130891128 0.71 6.45540087196e-39
-0.0250008235522 -0.0671074737453 0.711 6.54831256534e-39
-0.0237849274034 -0.067390627643 0.714 5.99658492618e-39
-0.022526465636 -0.0675793969081 0.716 5.99767513638e-39
-0.0212902120175 -0.0678625508058 0.719 6.3646625925e-39
-0.0199595737664 -0.0678625508058 0.719 6.27174809653e-39
-0.0186548450223 -0.0679569354383 0.72 6.27174809653e-39
-0.0173704737479 -0.0681457047034 0.722 6.27175089912e-39
-0.0160564916085 -0.068240089336 0.723 6.45614356015e-39
-0.0147591655806 -0.0684288586011 0.725 6.5479888654e-39
-0.0134544368365 -0.0686176278662 0.727 8.66777789393e-39
-0.0121589614877 -0.0689007817639 0.73 6.82386809926e-39
-0.0108523820646 -0.0691839356615 0.733 7.19121989298e-39
-0.00950878905997 -0.0692783202941 0.734 9.21916361627e-39
-0.00815039062283 -0.0692783202941 0.734 7.651835106e-39
-0.00681049897639 -0.0694670895592 0.736 8.75818266436e-39
-0.00546320461367 -0.0696558588243 0.738 8.20501168777e-39
-0.00409740346025 -0.0696558588243 0.738 7.83587604111e-39
-0.00276121317195 -0.0704109358847 0.746 7.92771714246e-39
-0.00138615862318 -0.0706940897824 0.749 7.83552431519e-39
0.0 -0.07097724368 0.752 8.02172465124e-39
0.00139541201853 -0.0711660129451 0.754 7.28344354881e-39
0.0027945253952 -0.0712603975777 0.755 8.29507454137e-39
0.0041917880928 -0.0712603975777 0.755 8.29291233784e-39
0.00561866165552 -0.0716379361079 0.759 1.02286604313e-38
0.00705108725545 -0.0719210900056 0.762 1.04119698886e-38
0.00850572100421 -0.0722986285358 0.766 9.95207073908e-39
0.00993629592506 -0.0723930131683 0.767 9.39961582601e-39
0.0113853776366 -0.0725817824334 0.769 8.57022369874e-39
0.0128418620644 -0.0727705516985 0.771 8.84646446761e-39
0.0142687356272 -0.0727705516985 0.771 8.84788398295e-39
0.0156956091899 -0.0727705516985 0.771 8.6631550103e-39
-0.106141996683 -0.0639409618571 0.691 1.0594228372e-38
-0.104863177446 -0.0639409618571 0.691 2.31371360197e-38
-0.103884168218 -0.0641260297641 0.693 2.35094932516e-38
-0.102601647623 -0.0641260297641 0.693 3.68928114364e-39
-0.101319127027 -0.0641260297641 0.693 8.76111418074e-39
-0.100180959399 -0.0642185637176 0.694 1.15273011714e-38
-0.0988965881251 -0.0642185637176 0.694 4.63841002079e-40
-0.0974715652414 -0.0641260297641 0.693 7.93234142739e-39
-0.0961890446462 -0.0641260297641 0.693 1.58604467295e-38
-0.095043474302 -0.0642185637176 0.694 1.64143393748e-38
-0.0937591030277 -0.0642185637176 0.694 1.89039815148e-38
-0.0923414828603 -0.0641260297641 0.693 1.83486735581e-38
-0.091058962265 -0.0641260297641 0.693 1.91770035011e-38
-0.0897764416697 -0.0641260297641 0.693 2.14818970503e-38
-0.0884939210745 -0.0641260297641 0.693 2.22191075607e-38
-0.0872114004792 -0.0641260297641 0.693 2.24953441257e-38
-0.0859288798839 -0.0641260297641 0.693 2.2771582092e-38
-0.0847685041072 -0.0642185637176 0.694 2.35098786087e-38
-0.0834841328329 -0.0642185637176 0.694 2.35098828126e-38
-0.0821997615585 -0.0642185637176 0.694 2.31411002931e-38
-0.0809153902842 -0.0642185637176 0.694 2.34180445138e-38
-0.0796310190098 -0.0642185637176 0.694 2.3049260593e-38
-0.0783466477355 -0.0642185637176 0.694 2.350988001e-38
-0.0770622764611 -0.0642185637176 0.694 2.35098828126e-38
-0.0757779051868 -0.0642185637176 0.694 2.35098828126e-38
-0.0744935339124 -0.0642185637176 0.694 2.35098856151e-38
-0.073209162638 -0.0642185637176 0.694 2.35098856151e-38
-0.0719247913637 -0.0642185637176 0.694 2.35098856151e-38
-0.0706404200893 -0.0642185637176 0.694 2.35098856151e-38
-0.069356048815 -0.0642185637176 0.694 2.35098856151e-38
-0.068267849522 -0.0644036316246 0.696 2.35098856151e-38
-0.0669797768895 -0.0644036316246 0.696 2.35098856151e-38
-0.065691704257 -0.0644036316246 0.696 2.35098856151e-38
-0.0644036316246 -0.0644036316246 0.696 2.35098856151e-38
-0.0631155589921 -0.0644036316246 0.696 2.35098856151e-38
-0.0618274863596 -0.0644036316246 0.696 2.35098856151e-38
-0.0606263956434 -0.064496165578 0.697 2.35098856151e-38
-0.0592513410946 -0.0644036316246 0.696 2.35098856151e-38
-0.0579632684621 -0.0644036316246 0.696 2.35098856151e-38
-0.0567566257087 -0.064496165578 0.697 2.35098856151e-38
-0.0554667023971 -0.064496165578 0.697 2.35098856151e-38
-0.0541767790855 -0.064496165578 0.697 2.33254943554e-38
-0.052886855774 -0.064496165578 0.697 2.34176899853e-38
-0.0515969324624 -0.064496165578 0.697 2.35095268827e-38
-0.0503070091509 -0.064496165578 0.697 2.350988001e-38
-0.0490170858393 -0.064496165578 0.697 2.35091485322e-38
-0.0477271625277 -0.064496165578 0.697 2.16655834569e-38
-0.0464372392162 -0.064496165578 0.697 2.32336140177e-38
-0.0451473159046 -0.064496165578 0.697 2.29573774527e-38
-0.0438573925931 -0.064496165578 0.697 1.97308821334e-38
-0.0426285416908 -0.0645886995315 0.698 1.97308793308e-38
-0.0413367677002 -0.0645886995315 0.698 2.01018142447e-38
-0.0400449937095 -0.0645886995315 0.698 1.52186548355e-38
-0.0387532197189 -0.0645886995315 0.698 1.02436543248e-38
-0.0374614457283 -0.0645886995315 0.698 8.03419620757e-39
-0.0361696717377 -0.0645886995315 0.698 3.14644194063e-39
-0.0349778344168 -0.0647737674385 0.7 3.69674866315e-39
-0.033682359068 -0.0647737674385 0.7 3.97046148959e-39
-0.032433150696 -0.064866301392 0.701 5.07427690163e-39
-0.0312246572635 -0.0650513692989 0.703 4.98315186379e-39
-0.0299661954961 -0.0651439032524 0.704 5.62781081451e-39
-0.0287447473101 -0.0653289711594 0.706 5.81113428481e-39
-0.0275158964079 -0.0655140390664 0.708 6.18027133278e-39
-0.0262796427893 -0.0656991069733 0.71 5.9036676276e-39
-0.0250008235522 -0.0657916409268 0.711 6.18060624311e-39
-0.0237849274034 -0.0660692427873 0.714 6.18026012239e-39
-0.022526465636 -0.0662543106942 0.716 6.5483489991e-39
-0.0213198228826 -0.0666244465082 0.72 6.5479832602e-39
-0.0199873339524 -0.0666244465082 0.72 6.27175230042e-39
-0.0187066640362 -0.0668095144151 0.722 6.45614215885e-39
-0.0173945325758 -0.0669020483686 0.723 6.17955526926e-39
-0.0161009079061 -0.0670871162756 0.725 6.73273044974e-39
-0.0148202379899 -0.067364718136 0.728 6.5479860628e-39
-0.0135654775807 -0.0678273879034 0.733 8.85252368217e-39
-0.0122089298226 -0.0678273879034 0.733 7.00825655639e-39
-0.0108671874971 -0.0679199218569 0.734 7.9291366578e-39
-0.00950878905997 -0.0679199218569 0.734 9.12696518381e-39
-0.00817259877167 -0.0681049897639 0.736 8.8500279696e-39
-0.00681049897639 -0.0681049897639 0.736 8.48089372424e-39
-0.00547060732995 -0.0683825916243 0.739 7.65113585806e-39
-0.00413071568351 -0.0688452613918 0.744 7.46710473204e-39
-0.00277601860451 -0.0694004651127 0.75 7.65184911898e-39
-0.00139171066039 -0.0695855330196 0.752 7.19086956837e-39
0.0 -0.0697706009266 0.754 6.82281712541e-39
0.0013972626976 -0.0698631348801 0.755 8.29615073859e-39
0.0027945253952 -0.0698631348801 0.755 8.01740164547e-39
0.00420289216722 -0.070048202787 0.757 9.95134486648e-39
0.00563346708808 -0.070418338601 0.761 9.95062600036e-39
0.00706959404614 -0.0706959404614 0.764 1.08733011651e-38
0.00850572100421 -0.0708810083684 0.766 9.21522176369e-39
0.00993629592506 -0.0709735423219 0.767 8.75568555049e-39
0.0114149885017 -0.0713436781358 0.771 9.58365255723e-39
0.0128751742877 -0.0715287460428 0.773 9.95136588595e-39
0.0143242559993 -0.0716212799963 0.774 1.05992324089e-38
0.0157566815992 -0.0716212799963 0.774 9.58438964022e-39
0.017344564241 -0.0722690176707 0.781 8.94152295023e-39
-0.106141996683 -0.06266214262 0.691 2.35080849466e-38
-0.104863177446 -0.06266214262 0.691 2.2678320074e-38
-0.103884168218 -0.0628435091688 0.693 2.32343791267e-38
-0.102601647623 -0.0628435091688 0.693 2.76877939281e-39
-0.101319127027 -0.0628435091688 0.693 3.81153182296e-43
-0.100036606432 -0.0628435091688 0.693 1.08826744505e-38
-0.0987540858367 -0.0628435091688 0.693 1.48466997763e-38
-0.0974715652414 -0.0628435091688 0.693 5.44237138354e-39
-0.0961890446462 -0.0628435091688 0.693 2.51112684807e-42
-0.0949065240509 -0.0628435091688 0.693 1.0329085887e-38
-0.0936240034556 -0.0628435091688 0.693 1.37417521151e-38
-0.0923414828603 -0.0628435091688 0.693 1.90858840685e-38
-0.091058962265 -0.0628435091688 0.693 2.10209203023e-38
-0.0897764416697 -0.0628435091688 0.693 2.15737381517e-38
-0.0884939210745 -0.0628435091688 0.693 2.2403501623e-38
-0.0872114004792 -0.0628435091688 0.693 2.33251061957e-38
-0.0859288798839 -0.0628435091688 0.693 2.35098702009e-38
-0.0846463592886 -0.0628435091688 0.693 2.350988001e-38
-0.0833638386933 -0.0628435091688 0.693 2.286379734e-38
-0.082081318098 -0.0628435091688 0.693 2.34180431125e-38
-0.0807987975028 -0.0628435091688 0.693 2.32343693176e-38
-0.0795162769075 -0.0628435091688 0.693 2.34180431125e-38
-0.0782337563122 -0.0628435091688 0.693 2.34180417112e-38
-0.0769512357169 -0.0628435091688 0.693 2.350988001e-38
-0.0756687151216 -0.0628435091688 0.693 2.35098828126e-38
-0.0743861945264 -0.0628435091688 0.693 2.35098856151e-38
-0.0731036739311 -0.0628435091688 0.693 2.35098856151e-38
-0.0718211533358 -0.0628435091688 0.693 2.35098856151e-38
-0.0705386327405 -0.0628435091688 0.693 2.35098856151e-38
-0.0692561121452 -0.0628435091688 0.693 2.35098856151e-38
-0.0680716775406 -0.0629341924432 0.694 2.35098856151e-38
-0.0667873062663 -0.0629341924432 0.694 2.35098856151e-38
-0.0655029349919 -0.0629341924432 0.694 2.35098856151e-38
-0.0642185637176 -0.0629341924432 0.694 2.35098856151e-38
-0.0631155589921 -0.0631155589921 0.696 2.35098856151e-38
-0.0618274863596 -0.0631155589921 0.696 2.35098856151e-38
-0.0605394137271 -0.0631155589921 0.696 2.35098856151e-38
-0.0592513410946 -0.0631155589921 0.696 2.35098856151e-38
-0.0579632684621 -0.0631155589921 0.696 2.35098856151e-38
-0.0566751958296 -0.0631155589921 0.696 2.34176899853e-38
-0.0553871231971 -0.0631155589921 0.696 2.34176899853e-38
-0.0540990505646 -0.0631155589921 0.696 2.35098856151e-38
-0.0528109779321 -0.0631155589921 0.696 2.35098856151e-38
-0.0515229052996 -0.0631155589921 0.696 2.35091681503e-38
-0.0502348326672 -0.0631155589921 0.696 2.27705157038e-38
-0.0489467600347 -0.0631155589921 0.696 2.3509504462e-38
-0.0476586874022 -0.0631155589921 0.696 2.29570271281e-38
-0.0463706147697 -0.0631155589921 0.696 2.12060150138e-38
-0.0451473159046 -0.0632062422665 0.697 2.10219740787e-38
-0.0438573925931 -0.0632062422665 0.697 1.99167055202e-38
-0.0426285416908 -0.0632969255409 0.698 1.94557273709e-38
-0.0413367677002 -0.0632969255409 0.698 1.50335264927e-38
-0.0400449937095 -0.0632969255409 0.698 1.10719870705e-38
-0.0387532197189 -0.0632969255409 0.698 7.20158529772e-39
-0.0374614457283 -0.0632969255409 0.698 1.94899316651e-39
-0.0362733097656 -0.0634782920897 0.7 2.9616947511e-39
-0.0349778344168 -0.0634782920897 0.7 3.78893168133e-39
-0.0337304767238 -0.0635689753641 0.701 4.98422806101e-39
-0.0325256846495 -0.063750341913 0.703 5.99513598356e-39
-0.0312690735612 -0.0638410251874 0.704 5.99372207341e-39
-0.0300513267333 -0.0640223917362 0.706 6.91604130835e-39
-0.0287854622497 -0.0641130750106 0.707 6.27281868855e-39
-0.0275158964079 -0.064203758285 0.708 6.45792881439e-39
-0.0262796427893 -0.0643851248339 0.71 6.18099019889e-39
-0.0250008235522 -0.0644758081083 0.711 6.54870492891e-39
-0.0238515518499 -0.0649292244803 0.716 6.45579323553e-39
-0.0225579271802 -0.0650199077548 0.717 7.09971790586e-39
-0.0213198228826 -0.065291957578 0.72 6.73129552011e-39
-0.0200428543245 -0.0654733241268 0.722 6.73237451993e-39
-0.0187325735432 -0.0655640074012 0.723 7.47029548864e-39
-0.0174907678875 -0.0659267404989 0.727 6.17955526926e-39
-0.0162119486503 -0.0661987903221 0.73 6.8249260796e-39
-0.0148813103992 -0.0662894735965 0.731 7.10115703938e-39
-0.0135654775807 -0.0664708401454 0.733 8.76068398212e-39
-0.0122255859342 -0.0665615234198 0.734 8.39154553285e-39
-0.0108967983622 -0.0667428899686 0.736 9.31170536685e-39
-0.00953469856695 -0.0667428899686 0.736 8.66598563319e-39
-0.0081948069205 -0.0669242565174 0.738 8.48124825275e-39
-0.00683825916243 -0.0670149397919 0.739 8.11175947887e-39
-0.00549281547878 -0.0672869896151 0.742 7.65114706845e-39
-0.00416402790676 -0.0680124558104 0.75 7.46710893594e-39
-0.00278342132079 -0.0681938223592 0.752 7.74404474884e-39
-0.00139541201853 -0.0683751889081 0.754 7.56000521503e-39
0.0 -0.0684658721825 0.755 8.02063444103e-39
0.00140096405574 -0.0686472387313 0.757 8.29542346469e-39
0.00280192811148 -0.0686472387313 0.757 1.01371752597e-38
0.00420289216722 -0.0686472387313 0.757 1.15183062366e-38
0.00564086980436 -0.0691006551034 0.762 1.08722179614e-38
0.00708810083684 -0.069463388201 0.766 9.95134346518e-39
0.00851682507863 -0.0695540714754 0.767 8.57093135446e-39
0.00996220543204 -0.0697354380243 0.769 8.57201315688e-39
0.0114445993668 -0.0700981711219 0.773 9.67619991301e-39
0.0129584548458 -0.070551587494 0.778 1.19796515261e-38
0.014398283162 -0.070551587494 0.778 1.02293568766e-38
0.0158991838875 -0.0708236373172 0.781 9.3999899727e-39
0.017344564241 -0.0708236373172 0.781 8.0188365751e-39
-0.106449209408 -0.0615609885735 0.693 2.35098828126e-38
-0.105166688813 -0.0615609885735 0.693 2.3418050119e-38
-0.103884168218 -0.0615609885735 0.693 2.31425436305e-38
-0.102601647623 -0.0615609885735 0.693 8.20797123013e-39
-0.101319127027 -0.0615609885735 0.693 5.46506401087e-44
-0.100036606432 -0.0615609885735 0.693 2.52233723578e-44
-0.0987540858367 -0.0615609885735 0.693 5.35091283666e-39
-0.0974715652414 -0.0615609885735 0.693 1.70583130906e-38
-0.0961890446462 -0.0615609885735 0.693 1.03266111939e-38
-0.0946326235486 -0.0613833233828 0.691 1.43492962747e-42
-0.0933538043114 -0.0613833233828 0.691 2.49104063588e-39
-0.0920749850743 -0.0613833233828 0.691 1.45708107333e-38
-0.0907961658371 -0.0613833233828 0.691 2.24971503994e-38
-0.0895173466 -0.0613833233828 0.691 2.25893376215e-38
-0.0882385273628 -0.0613833233828 0.691 2.32325602413e-38
-0.0869597081257 -0.0613833233828 0.691 2.35091569399e-38
-0.0856808888886 -0.0613833233828 0.691 2.33236992921e-38
-0.0846463592886 -0.0615609885735 0.693 2.24957168711e-38
-0.0833638386933 -0.0615609885735 0.693 2.34176913866e-38
-0.082081318098 -0.0615609885735 0.693 2.35095268827e-38
-0.0807987975028 -0.0615609885735 0.693 2.35098828126e-38
-0.0795162769075 -0.0615609885735 0.693 2.35098828126e-38
-0.0782337563122 -0.0615609885735 0.693 2.35098828126e-38
-0.0769512357169 -0.0615609885735 0.693 2.35098828126e-38
-0.0756687151216 -0.0615609885735 0.693 2.35098856151e-38
-0.0743861945264 -0.0615609885735 0.693 2.35098856151e-38
-0.0731036739311 -0.0615609885735 0.693 2.35098856151e-38
-0.0718211533358 -0.0615609885735 0.693 2.35098856151e-38
-0.0705386327405 -0.0615609885735 0.693 2.35098828126e-38
-0.0692561121452 -0.0615609885735 0.693 2.35098828126e-38
-0.0679735915499 -0.0615609885735 0.693 2.35098828126e-38
-0.0666910709547 -0.0615609885735 0.693 2.35098828126e-38
-0.0654085503594 -0.0615609885735 0.693 2.34180473164e-38
-0.0641260297641 -0.0615609885735 0.693 2.34180473164e-38
-0.0628435091688 -0.0615609885735 0.693 2.34180473164e-38
-0.0616498211689 -0.0616498211689 0.694 2.32343791267e-38
-0.0603654498945 -0.0616498211689 0.694 2.31425436305e-38
-0.0590810786202 -0.0616498211689 0.694 2.35098828126e-38
-0.0577967073458 -0.0616498211689 0.694 2.35098758061e-38
-0.0565123360715 -0.0616498211689 0.694 2.35098702009e-38
-0.0552279647971 -0.0616498211689 0.694 2.34176759723e-38
-0.0540990505646 -0.0618274863596 0.696 2.350988001e-38
-0.0526592222484 -0.0616498211689 0.694 2.3418050119e-38
-0.0513748509741 -0.0616498211689 0.694 2.26826486849e-38
-0.0500904796997 -0.0616498211689 0.694 2.26833549393e-38
-0.0489467600347 -0.0618274863596 0.696 2.01007716787e-38
-0.0476586874022 -0.0618274863596 0.696 2.12985819878e-38
-0.0463706147697 -0.0618274863596 0.696 2.26804374359e-38
-0.0451473159046 -0.0619163189549 0.697 2.11138165814e-38
-0.0438573925931 -0.0619163189549 0.697 1.97333666356e-38
-0.0426285416908 -0.0620051515503 0.698 1.16226287033e-38
-0.0413367677002 -0.0620051515503 0.698 9.59757025358e-39
-0.0400449937095 -0.0620051515503 0.698 5.35623636953e-39
-0.0387532197189 -0.0620051515503 0.698 3.14357208138e-39
-0.0374614457283 -0.0620051515503 0.698 4.34067753738e-39
-0.0362733097656 -0.0621828167409 0.7 4.5247030582e-39
-0.0350278027517 -0.0622716493363 0.701 6.09023089995e-39
-0.0338267120354 -0.062449314527 0.703 5.07322312518e-39
-0.0325719516262 -0.0625381471223 0.704 1.84317131038e-39
-0.0313579061565 -0.062715812313 0.706 4.97887650218e-39
-0.0300938923519 -0.0628046449084 0.707 6.08736104069e-39
-0.0288261771892 -0.0628934775037 0.708 6.45649248347e-39
-0.0275936249288 -0.0630711426944 0.71 6.91747343538e-39
-0.0263166563707 -0.0631599752897 0.711 6.36359480307e-39
-0.0250711493568 -0.0633376404804 0.713 7.28519797449e-39
-0.0238515518499 -0.0636041382665 0.716 6.73238012512e-39
-0.0226208502686 -0.0638706360525 0.719 6.08628063958e-39
-0.0213790446128 -0.0641371338385 0.722 7.2844580889e-39
-0.0200706145106 -0.0642259664339 0.723 7.00787119931e-39
-0.0187843925572 -0.0644036316246 0.725 9.95813135494e-39
-0.0175148267154 -0.0646701294106 0.728 6.17775740333e-39
-0.0162341567992 -0.0649366271966 0.731 7.19262959924e-39
-0.0149220253388 -0.0651142923873 0.733 7.56105899148e-39
-0.0135839843714 -0.0652031249826 0.734 8.75924905249e-39
-0.0122588981575 -0.0653807901733 0.736 1.02354595314e-38
-0.0108967983622 -0.0653807901733 0.736 8.94257672668e-39
-0.00956060807392 -0.065558455364 0.738 8.29685699302e-39
-0.00820591099492 -0.0656472879594 0.739 7.55786122838e-39
-0.00685676595313 -0.0658249531501 0.741 7.7418979596e-39
-0.00550762091134 -0.0660914509361 0.744 7.83409639206e-39
-0.00417513198118 -0.0668021116988 0.752 7.7418979596e-39
-0.00279082403706 -0.0669797768895 0.754 8.7564072192e-39
-0.0013972626976 -0.0670686094849 0.755 8.0188365751e-39
0.0 -0.0672462746756 0.757 8.38581001824e-39
0.00140466541388 -0.0674239398663 0.759 9.67618309742e-39
0.00280933082776 -0.0674239398663 0.759 9.03261435691e-39
0.00422510031606 -0.0676016050569 0.761 1.05081101736e-38
0.00565567523691 -0.067868102843 0.764 1.00474949606e-38
0.00709735423219 -0.068134600629 0.767 9.12626313328e-39
0.00853903322746 -0.0683122658197 0.769 8.94187467615e-39
0.010014024446 -0.0686675962011 0.773 8.94151874634e-39
0.0114890156645 -0.0689340939871 0.776 1.05977890714e-38
0.0129917670691 -0.0692894243685 0.78 9.39957378706e-39
0.0144352967434 -0.0692894243685 0.78 9.58434199607e-39
0.0158991838875 -0.0693782569638 0.781 9.39996474933e-39
0.0173889805386 -0.0695559221545 0.783 8.84716651814e-39
0.0188380622502 -0.0695559221545 0.783 5.43419760959e-39
-0.106602815771 -0.0603654498945 0.694 2.35098856151e-38
-0.105166688813 -0.0602784679783 0.693 2.3418050119e-38
-0.103884168218 -0.0602784679783 0.693 2.32343791267e-38
-0.102601647623 -0.0602784679783 0.693 1.14337336703e-38
-0.101319127027 -0.0602784679783 0.693 6.16571324303e-44
-0.100036606432 -0.0602784679783 0.693 4.42614553331e-39
-0.0987540858367 -0.0602784679783 0.693 3.72005505921e-40
-0.0971902620228 -0.0601045041457 0.691 2.03042822547e-39
-0.0959114427857 -0.0601045041457 0.691 1.34616297495e-38
-0.0946326235486 -0.0601045041457 0.691 1.40147895157e-38
-0.0933538043114 -0.0601045041457 0.691 4.42644400988e-39
-0.0920749850743 -0.0601045041457 0.691 2.86985925494e-42
-0.0907961658371 -0.0601045041457 0.691 1.13425609884e-38
-0.0895173466 -0.0601045041457 0.691 2.32343567059e-38
-0.0882385273628 -0.0601045041457 0.691 2.30489102684e-38
-0.0869597081257 -0.0601045041457 0.691 2.27726610918e-38
-0.0856808888886 -0.0601045041457 0.691 2.32329329867e-38
-0.0844020696514 -0.0601045041457 0.691 2.32340035787e-38
-0.0831232504143 -0.0601045041457 0.691 2.35098856151e-38
-0.0818444311771 -0.0601045041457 0.691 2.35098856151e-38
-0.08056561194 -0.0601045041457 0.691 2.35098856151e-38
-0.0792867927028 -0.0601045041457 0.691 2.35098856151e-38
-0.0782337563122 -0.0602784679783 0.693 2.35098856151e-38
-0.0769512357169 -0.0602784679783 0.693 2.35098856151e-38
-0.0756687151216 -0.0602784679783 0.693 2.35098856151e-38
-0.0743861945264 -0.0602784679783 0.693 2.35098856151e-38
-0.0728926965171 -0.0601045041457 0.691 2.35098856151e-38
-0.07161387728 -0.0601045041457 0.691 2.35098828126e-38
-0.0703350580428 -0.0601045041457 0.691 2.35098828126e-38
-0.0690562388057 -0.0601045041457 0.691 2.35098828126e-38
-0.0679735915499 -0.0602784679783 0.693 2.35098828126e-38
-0.0666910709547 -0.0602784679783 0.693 2.35098828126e-38
-0.0654085503594 -0.0602784679783 0.693 2.35098828126e-38
-0.0641260297641 -0.0602784679783 0.693 2.34180473164e-38
-0.0628435091688 -0.0602784679783 0.693 2.34180473164e-38
-0.0615609885735 -0.0602784679783 0.693 2.32343791267e-38
-0.0603654498945 -0.0603654498945 0.694 2.32343791267e-38
-0.0590810786202 -0.0603654498945 0.694 2.34176871827e-38
-0.0577967073458 -0.0603654498945 0.694 2.35098786087e-38
-0.0565123360715 -0.0603654498945 0.694 2.35087954049e-38
-0.0552279647971 -0.0603654498945 0.694 2.35098786087e-38
-0.0539435935228 -0.0603654498945 0.694 2.33254915528e-38
-0.0526592222484 -0.0603654498945 0.694 2.33258558904e-38
-0.0513748509741 -0.0603654498945 0.694 2.3418050119e-38
-0.0500904796997 -0.0603654498945 0.694 2.29574250969e-38
-0.0488061084254 -0.0603654498945 0.694 2.11138558177e-38
-0.047521737151 -0.0603654498945 0.694 2.24974895136e-38
-0.0463706147697 -0.0605394137271 0.696 2.11163305108e-38
-0.0450825421372 -0.0605394137271 0.696 1.71526190759e-38
-0.0437944695047 -0.0605394137271 0.696 1.16223092073e-38
-0.0425674692815 -0.0606263956434 0.697 1.014932732e-38
-0.0413367677002 -0.0607133775596 0.698 4.80270946314e-39
-0.0400449937095 -0.0607133775596 0.698 3.78893168133e-39
-0.0388642604631 -0.0608873413922 0.7 4.52540931263e-39
-0.0375687851143 -0.0608873413922 0.7 4.89276390895e-39
-0.0363251287795 -0.0609743233085 0.701 5.351247747e-39
-0.0351277394214 -0.061148287141 0.703 4.15020884621e-39
-0.0338748296913 -0.0612352690573 0.704 8.29749458382e-40
-0.0326644855797 -0.0614092328898 0.706 1.6577304781e-39
-0.0314023224542 -0.0614962148061 0.707 5.80864137484e-39
-0.0301364579705 -0.0615831967224 0.708 6.73165144992e-39
-0.0288261771892 -0.0615831967224 0.708 6.8242016083e-39
-0.0275936249288 -0.0617571605549 0.71 6.91604130835e-39
-0.0263166563707 -0.0618441424712 0.711 7.0078824097e-39
-0.0251766380638 -0.0622790520526 0.716 6.63874956563e-39
-0.0239514885197 -0.0625399978014 0.719 7.28447210189e-39
-0.0226523118128 -0.0626269797177 0.72 6.63945441876e-39
-0.021408655478 -0.0628879254665 0.723 6.82347993959e-39
-0.0201261348827 -0.063061889299 0.725 7.55996597868e-39
-0.0188362115711 -0.0632358531316 0.727 9.31240881868e-39
-0.0175629443712 -0.0634967988804 0.73 7.46850042531e-39
-0.0162785730968 -0.0637577446292 0.733 7.7454530538e-39
-0.0149423828085 -0.0638447265455 0.734 7.65290289543e-39
-0.0135839843714 -0.0638447265455 0.734 8.2060794772e-39
-0.0122588981575 -0.0640186903781 0.736 8.02241128748e-39
-0.0109264092273 -0.0641926542106 0.738 8.20466136316e-39
-0.00957356282741 -0.0642796361269 0.739 7.19015770875e-39
-0.00822811914376 -0.0644535999594 0.741 7.65005966084e-39
-0.00686601934848 -0.0645405818757 0.742 7.7418979596e-39
-0.00554463449273 -0.0651494552896 0.749 7.55678783376e-39
-0.00417513198118 -0.0654104010385 0.752 8.38654850253e-39
-0.00279082403706 -0.065584364871 0.754 7.74153642459e-39
-0.0013972626976 -0.0656713467873 0.755 9.12374920383e-39
0.0 -0.0658453106198 0.757 9.03046336377e-39
0.00140836677202 -0.0661932382849 0.761 1.05055934416e-38
0.00281673354404 -0.0661932382849 0.761 1.059958974e-38
0.00424175642769 -0.0664541840337 0.764 8.94114880354e-39
0.00567048066947 -0.0666281478663 0.766 7.65113305547e-39
0.00709735423219 -0.0667151297826 0.767 8.11211400738e-39
0.0085612413763 -0.0670630574477 0.771 1.0138622801e-38
0.0100269791995 -0.0673240031965 0.774 9.30814466746e-39
0.0115186265296 -0.0676719308616 0.778 1.32714665414e-38
0.0130084231807 -0.0679328766104 0.781 1.3456181501e-38
0.0144538035341 -0.0679328766104 0.781 1.19810766466e-38
0.0159398988271 -0.068106840443 0.783 8.84679097015e-39
0.0173889805386 -0.068106840443 0.783 8.01777158827e-39
0.0188380622502 -0.068106840443 0.783 7.27881225739e-39
-0.106602815771 -0.0590810786202 0.694 2.35095268827e-38
-0.105318444497 -0.0590810786202 0.694 2.35098856151e-38
-0.104034073222 -0.0590810786202 0.694 2.35098856151e-38
-0.102601647623 -0.058995947383 0.693 1.58580336936e-38
-0.101319127027 -0.058995947383 0.693 1.83735452045e-40
-0.100036606432 -0.058995947383 0.693 4.51761949447e-39
-0.0987540858367 -0.058995947383 0.693 4.79702019137e-39
-0.0971902620228 -0.0588256849086 0.691 2.86091196424e-39
-0.0959114427857 -0.0588256849086 0.691 3.6985311148e-40
-0.0946326235486 -0.0588256849086 0.691 1.04195228873e-38
-0.0933538043114 -0.0588256849086 0.691 1.8071760166e-38
-0.0920749850743 -0.0588256849086 0.691 1.11570879262e-38
-0.0907961658371 -0.0588256849086 0.691 2.86985925494e-42
-0.0895173466 -0.0588256849086 0.691 1.03302041232e-38
-0.0882385273628 -0.0588256849086 0.691 2.2867037142e-38
-0.0869597081257 -0.0588256849086 0.691 1.93664408366e-38
-0.0856808888886 -0.0588256849086 0.691 2.31425212097e-38
-0.0844020696514 -0.0588256849086 0.691 2.30499752553e-38
-0.0831232504143 -0.0588256849086 0.691 2.35098687996e-38
-0.0818444311771 -0.0588256849086 0.691 2.350988001e-38
-0.08056561194 -0.0588256849086 0.691 2.35098856151e-38
-0.0792867927028 -0.0588256849086 0.691 2.35098856151e-38
-0.0780079734657 -0.0588256849086 0.691 2.35098856151e-38
-0.0767291542286 -0.0588256849086 0.691 2.35098856151e-38
-0.0754503349914 -0.0588256849086 0.691 2.35098856151e-38
-0.0741715157543 -0.0588256849086 0.691 2.35098856151e-38
-0.0728926965171 -0.0588256849086 0.691 2.35098856151e-38
-0.07161387728 -0.0588256849086 0.691 2.35098828126e-38
-0.0703350580428 -0.0588256849086 0.691 2.35098828126e-38
-0.0690562388057 -0.0588256849086 0.691 2.35098828126e-38
-0.0677774195686 -0.0588256849086 0.691 2.35098828126e-38
-0.0664986003314 -0.0588256849086 0.691 2.35098828126e-38
-0.0652197810943 -0.0588256849086 0.691 2.35098828126e-38
-0.0639409618571 -0.0588256849086 0.691 2.35098828126e-38
-0.0628435091688 -0.058995947383 0.693 2.35098828126e-38
-0.0615609885735 -0.058995947383 0.693 2.3418050119e-38
-0.0602784679783 -0.058995947383 0.693 2.3141466032e-38
-0.058995947383 -0.058995947383 0.693 2.35095268827e-38
-0.0577134267877 -0.058995947383 0.693 2.35084506855e-38
-0.0564309061924 -0.058995947383 0.693 2.35088094179e-38
-0.0551483855971 -0.058995947383 0.693 2.34169739218e-38
-0.0538658650018 -0.058995947383 0.693 2.35098856151e-38
-0.0525833444066 -0.058995947383 0.693 2.3418050119e-38
-0.0513008238113 -0.058995947383 0.693 2.15701746497e-38
-0.050018303216 -0.058995947383 0.693 2.04641816198e-38
-0.0487357826207 -0.058995947383 0.693 2.18499761179e-38
-0.047521737151 -0.0590810786202 0.694 2.09323091939e-38
-0.0463706147697 -0.0592513410946 0.696 1.61413496184e-38
-0.0450825421372 -0.0592513410946 0.696 8.76677262394e-39
-0.0437944695047 -0.0592513410946 0.696 8.37281437628e-40
-0.0425674692815 -0.0593364723318 0.697 2.58790399093e-39
-0.0413367677002 -0.059421603569 0.698 4.15483873634e-39
-0.0400449937095 -0.059421603569 0.698 5.16933398296e-39
-0.0388642604631 -0.0595918660434 0.7 4.98494552583e-39
-0.0375687851143 -0.0595918660434 0.7 6.18098739629e-39
-0.0363251287795 -0.0596769972806 0.701 2.58253141262e-39
-0.0351277394214 -0.059847259755 0.703 1.01308694166e-39
-0.0338748296913 -0.0599323909922 0.704 2.58006092343e-39
-0.0326644855797 -0.0601026534666 0.706 2.3949423898e-39
-0.0314023224542 -0.0601877847038 0.707 5.71608981517e-39
-0.0301364579705 -0.060272915941 0.708 6.45470863052e-39
-0.0289076070683 -0.0604431784155 0.71 6.91639723816e-39
-0.0276324891893 -0.0605283096527 0.711 6.8242016083e-39
-0.0264276971149 -0.0607837033643 0.714 6.82349114997e-39
-0.0252821267708 -0.0612093595503 0.719 7.09972771495e-39
-0.0239514885197 -0.0612093595503 0.719 8.20642840052e-39
-0.0226523118128 -0.0612944907875 0.72 7.19262819794e-39
-0.021408655478 -0.0615498844991 0.723 7.09863610344e-39
-0.0201261348827 -0.0617201469735 0.725 8.48157615659e-39
-0.0188621210781 -0.0619755406851 0.728 9.03547300578e-39
-0.0175870031991 -0.0622309343968 0.731 8.11316217863e-39
-0.0162785730968 -0.0624011968712 0.733 7.83694102794e-39
-0.0149423828085 -0.0624863281084 0.734 8.39011901102e-39
-0.0136209979528 -0.0626565905828 0.736 8.85074123052e-39
-0.0122922103808 -0.0628268530572 0.738 7.56108421485e-39
-0.0109264092273 -0.0628268530572 0.738 7.46674179574e-39
-0.00959947233438 -0.0630822467688 0.741 7.65077992825e-39
-0.00823922321818 -0.063167378006 0.742 7.92628921932e-39
-0.00690303292987 -0.0635079029548 0.746 8.29435287266e-39
-0.00555203720901 -0.0638484279037 0.75 8.47838259739e-39
-0.00417513198118 -0.0640186903781 0.752 9.12302893642e-39
-0.0027945253952 -0.0642740840897 0.755 8.9382719378e-39
-0.00140096405574 -0.0644443465641 0.757 9.952422465e-39
0.0 -0.0646146090385 0.759 9.9535098726e-39
0.00140836677202 -0.0647848715129 0.761 9.03155777787e-39
0.00282043490218 -0.0648700027501 0.762 8.75568835309e-39
0.00424175642769 -0.0650402652245 0.764 8.4791014635e-39
0.00567048066947 -0.0652105276989 0.766 8.66349272323e-39
0.00709735423219 -0.0652956589361 0.767 1.04137677545e-38
0.00858344952513 -0.0658064463594 0.773 1.2163686856e-38
0.0100528887065 -0.066061840071 0.776 1.02272184951e-38
0.0115482373947 -0.0664023650198 0.78 1.01364648014e-38
0.0130084231807 -0.066487496257 0.781 1.12442276712e-38
0.0144908171155 -0.0666577587314 0.783 1.02293764948e-38
0.0159398988271 -0.0666577587314 0.783 9.86203591145e-39
0.0173889805386 -0.0666577587314 0.783 7.28021495715e-39
0.0188380622502 -0.0666577587314 0.783 1.01386704452e-38
-0.105621955864 -0.0579632684621 0.696 2.35095268827e-38
-0.104034073222 -0.0577967073458 0.694 2.35095268827e-38
-0.102749701948 -0.0577967073458 0.694 2.08358634258e-38
-0.101465330674 -0.0577967073458 0.694 9.19141090018e-40
-0.100036606432 -0.0577134267877 0.693 5.25446006207e-39
-0.0987540858367 -0.0577134267877 0.693 5.99448858367e-39
-0.0971902620228 -0.0575468656714 0.691 4.4271600734e-39
-0.0959114427857 -0.0575468656714 0.691 4.42824187581e-39
-0.0944956732974 -0.0574635851133 0.69 4.63123537265e-40
-0.0932187047393 -0.0574635851133 0.69 5.62607740831e-39
-0.0919417361813 -0.0574635851133 0.69 1.77018958441e-38
-0.0906647676232 -0.0574635851133 0.69 1.20793959508e-38
-0.0893877990651 -0.0574635851133 0.69 1.89410710826e-40
-0.088110830507 -0.0574635851133 0.69 9.79577691486e-41
-0.086833861949 -0.0574635851133 0.69 1.4666977643e-38
-0.0855568933909 -0.0574635851133 0.69 2.26833409264e-38
-0.0844020696514 -0.0575468656714 0.691 2.34180375073e-38
-0.0831232504143 -0.0575468656714 0.691 2.31396499492e-38
-0.0818444311771 -0.0575468656714 0.691 2.35098828126e-38
-0.08056561194 -0.0575468656714 0.691 2.35098856151e-38
-0.0792867927028 -0.0575468656714 0.691 2.35098856151e-38
-0.0780079734657 -0.0575468656714 0.691 2.35098856151e-38
-0.0767291542286 -0.0575468656714 0.691 2.35098856151e-38
-0.0754503349914 -0.0575468656714 0.691 2.35098856151e-38
-0.0741715157543 -0.0575468656714 0.691 2.35098856151e-38
-0.0727872078102 -0.0574635851133 0.69 2.35098856151e-38
-0.0715102392521 -0.0574635851133 0.69 2.35098828126e-38
-0.0703350580428 -0.0575468656714 0.691 2.35098828126e-38
-0.0690562388057 -0.0575468656714 0.691 2.35098828126e-38
-0.0677774195686 -0.0575468656714 0.691 2.35098856151e-38
-0.0664986003314 -0.0575468656714 0.691 2.35095268827e-38
-0.0652197810943 -0.0575468656714 0.691 2.35095268827e-38
-0.0639409618571 -0.0575468656714 0.691 2.35095268827e-38
-0.06266214262 -0.0575468656714 0.691 2.35095268827e-38
-0.0613833233828 -0.0575468656714 0.691 2.35095226788e-38
-0.0602784679783 -0.0577134267877 0.693 2.35095268827e-38
-0.058995947383 -0.0577134267877 0.693 2.26779781571e-38
-0.0577134267877 -0.0577134267877 0.693 2.19393425262e-38
-0.0564309061924 -0.0577134267877 0.693 2.35084506855e-38
-0.0551483855971 -0.0577134267877 0.693 2.35091681503e-38
-0.0538658650018 -0.0577134267877 0.693 2.27726835125e-38
-0.0525833444066 -0.0577134267877 0.693 1.99160483112e-38
-0.0513008238113 -0.0577134267877 0.693 2.25846783041e-38
-0.050018303216 -0.0577134267877 0.693 2.24935364507e-38
-0.0487357826207 -0.0577134267877 0.693 1.99177831187e-38
-0.047521737151 -0.0577967073458 0.694 1.32840039587e-38
-0.0462373658767 -0.0577967073458 0.694 6.0945609122e-39
-0.0450825421372 -0.0579632684621 0.696 7.17464813734e-42
-0.0437944695047 -0.0579632684621 0.696 3.58732406867e-42
-0.0425674692815 -0.0580465490202 0.697 4.7980865795e-39
-0.0413367677002 -0.0581298295784 0.698 5.53525364965e-39
-0.0401597358119 -0.0582963906946 0.7 6.08841621844e-39
-0.0388642604631 -0.0582963906946 0.7 6.27245575225e-39
-0.0376224548073 -0.0583796712528 0.701 1.75312527236e-39
-0.0364287668074 -0.058546232369 0.703 1.56588377156e-39
-0.0351777077563 -0.0586295129272 0.704 2.48643316653e-39
-0.0340191826587 -0.0588793546016 0.707 2.39423893797e-39
-0.0327107525564 -0.0588793546016 0.707 2.48678349115e-39
-0.0314467387519 -0.0589626351597 0.708 6.36146482941e-39
-0.0301364579705 -0.0589626351597 0.708 6.91569238503e-39
-0.0289076070683 -0.059129196276 0.71 7.56141071739e-39
-0.0276324891893 -0.0592124768341 0.711 7.19298412775e-39
-0.0266127650219 -0.0598787212992 0.719 7.10007803956e-39
-0.0253172896731 -0.0599620018573 0.72 6.54690986558e-39
