# .PCD v0.7 - Point Cloud Data file format
VERSION 0.7
FIELDS x y z rgb
SIZE 4 4 4 4
TYPE F F F F
COUNT 1 1 1 1
WIDTH 846
HEIGHT 1
VIEWPOINT 0 0 0 1 0 0 0
POINTS 846
DATA ascii
-0.031106213803 -0.152703231397 0.764 1.15433894791e-38
-0.0296922949938 -0.152703231397 0.764 1.09905674258e-38
-0.0282783761846 -0.152703231397 0.764 8.7789513089e-39
-0.0268644573753 -0.152703231397 0.764 1.07147078101e-38
-0.0254505385661 -0.152703231397 0.764 9.88459401413e-39
-0.0240366197569 -0.152703231397 0.764 9.70092442311e-39
-0.0226227009477 -0.152703231397 0.764 1.00693552166e-38
-0.0212643025105 -0.153102978076 0.766 9.42398020241e-39
-0.0198466823432 -0.153102978076 0.766 1.01622500944e-38
-0.0184290621758 -0.153102978076 0.766 9.88566180356e-39
-0.0170114420084 -0.153102978076 0.766 9.70127474773e-39
-0.015593821841 -0.153102978076 0.766 9.33213910106e-39
-0.0141762016737 -0.153102978076 0.766 9.42433192833e-39
-0.0127585815063 -0.153102978076 0.766 9.14809816595e-39
-0.0113409613389 -0.153102978076 0.766 9.51508562207e-39
-0.00992334117158 -0.153102978076 0.766 9.97640428691e-39
-0.00850572100421 -0.153102978076 0.766 7.4832056514e-39
-0.00709735423219 -0.153302851415 0.767 6.83428114815e-39
-0.00567788338575 -0.153302851415 0.767 7.84840224808e-39
-0.00425841253931 -0.153302851415 0.767 8.03314383242e-39
-0.00283894169288 -0.153302851415 0.767 8.03208865468e-39
-0.00141947084644 -0.153302851415 0.767 7.75655974543e-39
0.0 -0.153302851415 0.767 7.57142719882e-39
-0.0552871865274 -0.151685357908 0.766 5.07075964248e-39
-0.0537289147507 -0.151289312587 0.764 5.43950572818e-39
-0.0523149959415 -0.151289312587 0.764 5.71324517929e-39
-0.0509010771322 -0.151289312587 0.764 5.43633038586e-39
-0.049487158323 -0.151289312587 0.764 5.16330699826e-39
-0.0480732395138 -0.151289312587 0.764 5.02225369614e-42
-0.0465371758859 -0.150893267267 0.762 8.86146396637e-39
-0.0451269584349 -0.150893267267 0.762 1.42113216253e-38
-0.0437167409838 -0.150893267267 0.762 1.33826469628e-38
-0.0423065235327 -0.150893267267 0.762 1.30163783728e-38
-0.0408963060816 -0.150893267267 0.762 1.20962143349e-38
-0.0394342696166 -0.150695244606 0.761 1.16366669113e-38
-0.0380259028445 -0.150695244606 0.761 1.14526273775e-38
-0.0366175360725 -0.150695244606 0.761 1.15440929309e-38
-0.0352091693005 -0.150695244606 0.761 1.14508112947e-38
-0.0338008025285 -0.150695244606 0.761 1.16348690454e-38
-0.0323924357565 -0.150695244606 0.761 1.18189113818e-38
-0.031024783924 -0.150893267267 0.762 1.10824141323e-38
-0.0296145664729 -0.150893267267 0.762 1.14522476256e-38
-0.0282043490218 -0.150893267267 0.762 8.78000508534e-39
-0.0267941315707 -0.150893267267 0.762 9.97749449712e-39
-0.0253839141196 -0.150893267267 0.762 9.88424228821e-39
-0.0239736966685 -0.150893267267 0.762 9.60837706733e-39
-0.0225634792174 -0.150893267267 0.762 9.88496395692e-39
-0.0212087821384 -0.151289312587 0.764 9.88495835173e-39
-0.0197948633292 -0.151289312587 0.764 9.88531007764e-39
-0.01838094452 -0.151289312587 0.764 9.60907631527e-39
-0.0169670257107 -0.151289312587 0.764 9.33284395419e-39
-0.0155531069015 -0.151289312587 0.764 9.5168792841e-39
-0.0141391880923 -0.151289312587 0.764 9.88566320486e-39
-0.0127252692831 -0.151289312587 0.764 9.60907911786e-39
-0.0113113504738 -0.151289312587 0.764 8.96370550493e-39
-0.0098974316646 -0.151289312587 0.764 1.04384474231e-38
-0.00848351285537 -0.151289312587 0.764 9.23670647174e-39
-0.00708810083684 -0.151685357908 0.766 6.83535594407e-39
-0.00567048066947 -0.151685357908 0.766 7.38778703507e-39
-0.0042528605021 -0.151685357908 0.766 7.1115392597e-39
-0.00283524033474 -0.151685357908 0.766 7.75620661822e-39
-0.00141762016737 -0.151685357908 0.766 7.48068751806e-39
0.0 -0.151685357908 0.766 7.66434870128e-39
-0.0552871865274 -0.150267737741 0.766 5.0711127697e-39
-0.05386956636 -0.150267737741 0.766 5.53064758159e-39
-0.0524519461926 -0.150267737741 0.766 5.89693018459e-39
-0.0509010771322 -0.149875393778 0.764 5.89658126127e-39
-0.049487158323 -0.149875393778 0.764 4.61013462038e-39
-0.047947393337 -0.149483049815 0.762 2.49429164832e-39
-0.0465371758859 -0.149483049815 0.762 5.72577839275e-39
-0.0450677367046 -0.149286877834 0.761 1.36556339167e-38
-0.0436593699326 -0.149286877834 0.761 1.4303150115e-38
-0.0422510031606 -0.149286877834 0.761 1.28312570366e-38
-0.0408426363886 -0.149286877834 0.761 1.20958499973e-38
-0.0394342696166 -0.149286877834 0.761 1.20965660608e-38
-0.0380259028445 -0.149286877834 0.761 1.16359396374e-38
-0.0366175360725 -0.149286877834 0.761 1.14504595688e-38
-0.0352091693005 -0.149286877834 0.761 1.16337704274e-38
-0.0337119699331 -0.148894533871 0.759 1.1450103639e-38
-0.0323073045192 -0.148894533871 0.759 1.11738965013e-38
-0.0309840689844 -0.149286877834 0.761 1.15430391544e-38
-0.0295757022124 -0.149286877834 0.761 1.15444460581e-38
-0.0281673354404 -0.149286877834 0.761 1.09005073748e-38
-0.0267589686684 -0.149286877834 0.761 9.97713996861e-39
-0.0253506018964 -0.149286877834 0.761 1.05299676271e-38
-0.0239422351243 -0.149286877834 0.761 9.79346617369e-39
-0.0225634792174 -0.149483049815 0.762 9.9775113127e-39
-0.0211532617663 -0.149483049815 0.762 1.05303277608e-38
-0.0197430443153 -0.149483049815 0.762 9.9775085101e-39
-0.0183328268642 -0.149483049815 0.762 9.70127054383e-39
-0.0169226094131 -0.149483049815 0.762 9.33283834899e-39
-0.015512391962 -0.149483049815 0.762 9.60978256969e-39
-0.0141021745109 -0.149483049815 0.762 9.60942804118e-39
-0.0126919570598 -0.149483049815 0.762 9.42468505554e-39
-0.0112817396087 -0.149483049815 0.762 8.87258186839e-39
-0.0098974316646 -0.149875393778 0.764 9.51792605406e-39
-0.00848351285537 -0.149875393778 0.764 9.51472128447e-39
-0.00706959404614 -0.149875393778 0.764 7.11301482699e-39
-0.00565567523691 -0.149875393778 0.764 7.66510119856e-39
-0.00424175642769 -0.149875393778 0.764 7.38884221281e-39
-0.00282783761846 -0.149875393778 0.764 8.31079851144e-39
-0.00141391880923 -0.149875393778 0.764 8.1260541245e-39
0.0 -0.149875393778 0.764 8.12604571671e-39
-0.0539398921646 -0.149044438876 0.767 5.52959380515e-39
-0.0523149959415 -0.148461474969 0.764 5.89621552237e-39
-0.0507678282392 -0.148072832364 0.762 5.80509048453e-39
-0.0493576107881 -0.148072832364 0.762 4.88601525554e-39
-0.0478844702487 -0.147878511062 0.761 3.96906579632e-39
-0.0464761034766 -0.147878511062 0.761 1.02239856996e-39
-0.0449492932442 -0.147489868457 0.759 1.22723337298e-38
-0.0435446278303 -0.147489868457 0.759 1.45789957177e-38
-0.0421399624164 -0.147489868457 0.759 1.39357885121e-38
-0.0407352970025 -0.147489868457 0.759 1.29245204559e-38
-0.0393306315886 -0.147489868457 0.759 1.2279869913e-38
-0.0379259661748 -0.147489868457 0.759 1.20954786532e-38
-0.0365213007609 -0.147489868457 0.759 1.15412230716e-38
-0.035116635347 -0.147489868457 0.759 1.18160120953e-38
-0.0337119699331 -0.147489868457 0.759 1.15433586505e-38
-0.0323073045192 -0.147489868457 0.759 1.15430265428e-38
-0.0309840689844 -0.147878511062 0.761 1.16348830584e-38
-0.0295757022124 -0.147878511062 0.761 1.12671585193e-38
-0.0281673354404 -0.147878511062 0.761 1.13607820723e-38
-0.0267589686684 -0.147878511062 0.761 8.77824925837e-39
-0.0253506018964 -0.147878511062 0.761 9.97678964399e-39
-0.0239422351243 -0.147878511062 0.761 9.61048462022e-39
-0.0225338683523 -0.147878511062 0.761 9.79346757499e-39
-0.0211255015803 -0.147878511062 0.761 1.00693496115e-38
-0.0197171348083 -0.147878511062 0.761 9.79312005297e-39
-0.0183087680363 -0.147878511062 0.761 9.5168792841e-39
-0.0169004012642 -0.147878511062 0.761 9.6097797671e-39
-0.0154920344922 -0.147878511062 0.761 9.70232852417e-39
-0.0140836677202 -0.147878511062 0.761 9.24100005024e-39
-0.0126753009482 -0.147878511062 0.761 9.33248802438e-39
-0.0112669341762 -0.147878511062 0.761 9.33391454622e-39
-0.00987152215763 -0.148072832364 0.762 9.70267744749e-39
-0.00846130470654 -0.148072832364 0.762 1.01611626868e-38
-0.00705108725545 -0.148072832364 0.762 7.66725919819e-39
-0.00565567523691 -0.148461474969 0.764 7.2963214817e-39
-0.00423065235327 -0.148072832364 0.762 7.57323207124e-39
-0.00282043490218 -0.148072832364 0.762 7.94271944382e-39
-0.00141391880923 -0.148461474969 0.764 7.84982316472e-39
0.0 -0.148461474969 0.764 8.03456054517e-39
-0.0539398921646 -0.14762496803 0.767 5.06931490377e-39
-0.0521780456903 -0.146662614913 0.762 5.80543940785e-39
-0.0507678282392 -0.146662614913 0.762 5.34553745576e-39
-0.0492928370207 -0.14647014429 0.761 4.88708444627e-39
-0.0478844702487 -0.14647014429 0.761 4.15275640682e-39
-0.0463539586581 -0.146085203044 0.759 8.3551860416e-40
-0.0448308497837 -0.145700261797 0.757 1.29158996677e-38
-0.043429885728 -0.145700261797 0.757 1.48552336839e-38
-0.041917880928 -0.145315320551 0.755 1.43074521012e-38
-0.0405206182304 -0.145315320551 0.755 1.24646325168e-38
-0.0391233555328 -0.145315320551 0.755 1.23716956e-38
-0.037826029505 -0.145700261797 0.757 1.25539400705e-38
-0.0364250654493 -0.145700261797 0.757 1.16341319624e-38
-0.0350241013935 -0.145700261797 0.757 1.12678815893e-38
-0.0336231373378 -0.145700261797 0.757 1.14522336127e-38
-0.032222173282 -0.145700261797 0.757 1.18185400377e-38
-0.0309026391054 -0.146085203044 0.759 1.10806414898e-38
-0.0294979736915 -0.146085203044 0.759 1.14515343647e-38
-0.0280933082776 -0.146085203044 0.759 1.136111418e-38
-0.0266886428637 -0.146085203044 0.759 9.05411307795e-39
-0.0252839774498 -0.146085203044 0.759 1.03437925144e-38
-0.023879312036 -0.146085203044 0.759 9.24028118413e-39
-0.0224746466221 -0.146085203044 0.759 1.0162252897e-38
-0.0210699812082 -0.146085203044 0.759 9.7009328309e-39
-0.0196653157943 -0.146085203044 0.759 9.2403064075e-39
-0.0182606503804 -0.146085203044 0.759 1.01633206865e-38
-0.0168559849666 -0.146085203044 0.759 1.02551645904e-38
-0.0154513195527 -0.146085203044 0.759 9.79313266466e-39
-0.0140466541388 -0.146085203044 0.759 9.33215031145e-39
-0.0126419887249 -0.146085203044 0.759 9.05732205143e-39
-0.011237323311 -0.146085203044 0.759 9.33428589031e-39
-0.00985856740414 -0.14647014429 0.761 9.51792185016e-39
-0.00845020063212 -0.14647014429 0.761 9.42320948826e-39
-0.0070418338601 -0.14647014429 0.761 1.02504786484e-38
-0.00563346708808 -0.14647014429 0.761 7.11371968011e-39
-0.00422510031606 -0.14647014429 0.761 6.7449035295e-39
-0.00281673354404 -0.14647014429 0.761 8.03275427145e-39
-0.00140836677202 -0.14647014429 0.761 8.0298802083e-39
0.0 -0.14647014429 0.761 7.93950766774e-39
-0.0539398921646 -0.146205497183 0.767 5.34589338557e-39
-0.0521780456903 -0.145252397462 0.762 5.62247747256e-39
-0.0507678282392 -0.145252397462 0.762 5.71503603872e-39
-0.0492928370207 -0.145061777518 0.761 5.071475706e-39
-0.0477586240719 -0.14468053763 0.759 4.1524060822e-39
-0.0463539586581 -0.14468053763 0.759 1.48053908989e-39
-0.0448308497837 -0.144299297741 0.757 8.76568661763e-39
-0.0433151436257 -0.143918057853 0.755 1.58690198735e-38
-0.041917880928 -0.143918057853 0.755 1.33854958026e-38
-0.0405206182304 -0.143918057853 0.755 1.3294390383e-38
-0.0391233555328 -0.143918057853 0.755 1.26472161015e-38
-0.0377260928352 -0.143918057853 0.755 1.31989465432e-38
-0.0363288301376 -0.143918057853 0.755 1.22795125819e-38
-0.03493156744 -0.143918057853 0.755 1.10845693294e-38
-0.0335343047424 -0.143918057853 0.755 1.1176012462e-38
-0.0321370420448 -0.143918057853 0.755 1.20951269273e-38
-0.0308212092263 -0.144299297741 0.757 1.17252850262e-38
-0.0294202451706 -0.144299297741 0.757 1.11749446725e-38
-0.0280192811148 -0.144299297741 0.757 1.10838084243e-38
-0.0266183170591 -0.144299297741 0.757 1.03452022207e-38
-0.0252173530033 -0.144299297741 0.757 9.69877763386e-39
-0.0238163889476 -0.144299297741 0.757 9.88421986744e-39
-0.0224154248919 -0.144299297741 0.757 9.79346617369e-39
-0.0210144608361 -0.144299297741 0.757 1.00704174009e-38
-0.0196134967804 -0.144299297741 0.757 8.96477749825e-39
-0.0182125327246 -0.144299297741 0.757 9.70269706567e-39
-0.0168115686689 -0.144299297741 0.757 9.88603174635e-39
-0.0154106046132 -0.144299297741 0.757 9.42364529208e-39
-0.0140096405574 -0.144299297741 0.757 9.97717079717e-39
-0.0126086765017 -0.144299297741 0.757 9.24136158524e-39
-0.0112077124459 -0.144299297741 0.757 9.05734447221e-39
-0.00980674839019 -0.144299297741 0.757 9.79487868255e-39
-0.00842799248328 -0.14468053763 0.759 9.60759934669e-39
-0.0070233270694 -0.14468053763 0.759 9.42249342474e-39
-0.00561866165552 -0.14468053763 0.759 7.85270143177e-39
-0.00421399624164 -0.14468053763 0.759 6.56087800867e-39
-0.00280192811148 -0.144299297741 0.757 8.03240815073e-39
-0.00140096405574 -0.144299297741 0.757 8.02844107478e-39
0.0 -0.14468053763 0.759 7.38381015002e-39
-0.0507678282392 -0.143842180011 0.762 5.53065038419e-39
-0.0492928370207 -0.143653410746 0.761 4.88673131906e-39
-0.0477586240719 -0.143275872216 0.759 4.3357239473e-39
-0.0462318138395 -0.142898333686 0.757 2.95459857567e-39
-0.0447124063233 -0.142520795155 0.755 6.27322226251e-39
-0.0433151436257 -0.142520795155 0.755 1.66980532684e-38
-0.041917880928 -0.142520795155 0.755 1.26464776172e-38
-0.0405206182304 -0.142520795155 0.755 1.28319702975e-38
-0.0390715365189 -0.14233202589 0.754 1.3844704112e-38
-0.0376761245004 -0.14233202589 0.754 1.3476252299e-38
-0.0362807124818 -0.14233202589 0.754 1.25546785548e-38
-0.0348853004633 -0.14233202589 0.754 1.14522700464e-38
-0.0334898884448 -0.14233202589 0.754 1.17281184517e-38
-0.0320944764262 -0.14233202589 0.754 1.22791482442e-38
-0.0307397793472 -0.142520795155 0.755 1.1634148778e-38
-0.0293425166496 -0.142520795155 0.755 1.19114377181e-38
-0.027945253952 -0.142520795155 0.755 1.12664158311e-38
-0.0265479912544 -0.142520795155 0.755 1.18203196868e-38
-0.0251507285568 -0.142520795155 0.755 9.33033002474e-39
-0.0237534658592 -0.142520795155 0.755 1.05288746143e-38
-0.0223562031616 -0.142520795155 0.755 1.00696929296e-38
-0.020958940464 -0.142520795155 0.755 9.42574163458e-39
-0.0195616777664 -0.142520795155 0.755 9.88706870722e-39
-0.0181644150688 -0.142520795155 0.755 1.0070760719e-38
-0.0167671523712 -0.142520795155 0.755 1.01615480439e-38
-0.0153698896736 -0.142520795155 0.755 1.02533947505e-38
-0.013972626976 -0.142520795155 0.755 9.88496395692e-39
-0.0125753642784 -0.142520795155 0.755 9.97750570751e-39
-0.0111781015808 -0.142520795155 0.755 9.42648292147e-39
-0.00978083888321 -0.142520795155 0.755 9.60942804118e-39
-0.00838357618561 -0.142520795155 0.755 1.03458888569e-38
-0.00698631348801 -0.142520795155 0.755 1.00682229675e-38
-0.00558905079041 -0.142520795155 0.755 9.05336898846e-39
-0.0041917880928 -0.142520795155 0.755 7.20661595921e-39
-0.0027945253952 -0.142520795155 0.755 8.95473859605e-39
-0.00139541201853 -0.14233202589 0.754 1.19939433691e-38
0.0 -0.14233202589 0.754 1.54008516618e-38
0.00139541201853 -0.14233202589 0.754 1.134640475e-38
-0.0509010771322 -0.142805799732 0.764 5.25478516331e-39
-0.0492928370207 -0.142245043974 0.761 4.97892975152e-39
-0.0476327778952 -0.14149736963 0.757 4.42792518236e-39
-0.0461096690209 -0.141123532458 0.755 3.59889178749e-39
-0.0447124063233 -0.141123532458 0.755 3.59743864099e-39
-0.0432577725745 -0.140936613872 0.754 1.35626871908e-38
-0.041862360556 -0.140936613872 0.754 1.29216043538e-38
-0.0404669485374 -0.140936613872 0.754 1.30138504304e-38
-0.0390715365189 -0.140936613872 0.754 1.36588821265e-38
-0.0374762511608 -0.140188939528 0.75 1.32000339509e-38
-0.0360882418586 -0.140188939528 0.75 1.30160266469e-38
-0.0347002325563 -0.140188939528 0.75 1.21891134166e-38
-0.0333122232541 -0.140188939528 0.75 1.15419391352e-38
-0.0319242139518 -0.140188939528 0.75 1.18181616871e-38
-0.0306176345286 -0.1405627767 0.752 1.13578996013e-38
-0.0292259238682 -0.1405627767 0.752 1.23713438741e-38
-0.0278342132079 -0.1405627767 0.752 1.16344948987e-38
-0.0264425025475 -0.1405627767 0.752 1.21887280595e-38
-0.0250507918871 -0.1405627767 0.752 1.00678726429e-38
-0.0236590812267 -0.1405627767 0.752 1.11742440233e-38
-0.0223265922965 -0.140936613872 0.754 1.07136316129e-38
-0.020931180278 -0.140936613872 0.754 1.00696677062e-38
-0.0195357682594 -0.140936613872 0.754 1.06235463385e-38
-0.0180922385851 -0.1405627767 0.752 1.02533555141e-38
-0.0167005279247 -0.1405627767 0.752 1.07132826896e-38
-0.0153088172643 -0.1405627767 0.752 1.05292403532e-38
-0.0139171066039 -0.1405627767 0.752 9.9764154973e-39
-0.0125253959435 -0.1405627767 0.752 1.04370447233e-38
-0.0111632961483 -0.140936613872 0.754 9.70306560716e-39
-0.00976788412972 -0.140936613872 0.754 1.03462910296e-38
-0.00837247211119 -0.140936613872 0.754 9.70016632064e-39
-0.00697706009266 -0.140936613872 0.754 1.06217526765e-38
-0.00558164807413 -0.140936613872 0.754 1.00700068204e-38
-0.0041862360556 -0.140936613872 0.754 7.66831577724e-39
-0.00279082403706 -0.140936613872 0.754 6.65057792597e-39
-0.00139171066039 -0.1405627767 0.752 1.162517206e-38
0.0 -0.1405627767 0.752 1.44752800131e-38
0.00139171066039 -0.1405627767 0.752 1.25402633975e-38
-0.0505679548997 -0.140466541388 0.759 5.34698079317e-39
-0.0489041944161 -0.13972626976 0.755 4.70234286193e-39
-0.0475069317185 -0.13972626976 0.755 4.70343307213e-39
-0.0460485966116 -0.139541201853 0.754 3.96659530713e-39
-0.0445347411326 -0.139171066039 0.752 1.47588537769e-39
-0.0431430304722 -0.139171066039 0.752 9.04224968515e-39
-0.0417513198118 -0.139171066039 0.752 1.36569931762e-38
-0.0403596091514 -0.139171066039 0.752 1.42098838931e-38
-0.0388124414491 -0.138615862318 0.749 1.45815432783e-38
-0.037426282826 -0.138615862318 0.749 1.34766348534e-38
-0.0360401242028 -0.138615862318 0.749 1.33844532366e-38
-0.0346539655796 -0.138615862318 0.749 1.26482951013e-38
-0.0332678069564 -0.138615862318 0.749 1.11720860237e-38
-0.0318816483332 -0.138615862318 0.749 1.23706095937e-38
-0.0305362046496 -0.138800930225 0.75 1.22794859572e-38
-0.0291481953473 -0.138800930225 0.75 1.26472147002e-38
-0.0278342132079 -0.139171066039 0.752 1.22791510468e-38
-0.0264425025475 -0.139171066039 0.752 1.17273799674e-38
-0.0249841674406 -0.138800930225 0.75 1.21887140466e-38
-0.0235961581383 -0.138800930225 0.75 1.13579136143e-38
-0.0222081488361 -0.138800930225 0.75 1.11735447754e-38
-0.0208201395338 -0.138800930225 0.75 1.06217764986e-38
-0.0194321302315 -0.138800930225 0.75 1.06224757465e-38
-0.0180441209293 -0.138800930225 0.75 1.11745985518e-38
-0.016656111627 -0.138800930225 0.75 1.12660893286e-38
-0.0152681023248 -0.138800930225 0.75 1.10827518453e-38
-0.0139171066039 -0.139171066039 0.752 1.07146741789e-38
-0.0125253959435 -0.139171066039 0.752 1.11749502777e-38
-0.0111336852831 -0.139171066039 0.752 1.03469902775e-38
-0.00974197462275 -0.139171066039 0.752 1.08065545167e-38
-0.00835026396236 -0.139171066039 0.752 1.05288521935e-38
-0.00695855330196 -0.139171066039 0.752 1.0621036613e-38
-0.00556684264157 -0.139171066039 0.752 9.42498633471e-39
-0.00417513198118 -0.139171066039 0.752 7.2998835824e-39
-0.00278342132079 -0.139171066039 0.752 7.38814016228e-39
-0.00139171066039 -0.139171066039 0.752 1.0610665603e-38
0.0 -0.138800930225 0.75 1.53032330069e-38
0.00138800930225 -0.138800930225 0.75 1.6224487255e-38
-0.0503014571137 -0.138329007063 0.755 5.16330699826e-39
-0.0489041944161 -0.138329007063 0.755 4.88708724887e-39
-0.0474440086301 -0.138145789835 0.754 5.07184985269e-39
-0.0460485966116 -0.138145789835 0.754 5.16441262275e-39
-0.0445347411326 -0.137779355379 0.752 2.94272677508e-44
-0.0431430304722 -0.137779355379 0.752 7.01109979097e-39
-0.0416402790676 -0.137412920923 0.75 1.55902357479e-38
-0.0402522697653 -0.137412920923 0.75 1.45761482792e-38
-0.0388124414491 -0.137229703695 0.749 1.35677318653e-38
-0.0373263461562 -0.136863269239 0.747 1.38461390416e-38
-0.0359438888912 -0.136863269239 0.747 1.38461418442e-38
-0.0345614316261 -0.136863269239 0.747 1.39375989898e-38
-0.0331789743611 -0.136863269239 0.747 1.39361598562e-38
-0.031796517096 -0.136863269239 0.747 1.29230645068e-38
-0.03049548971 -0.137229703695 0.749 1.24631569495e-38
-0.0291093310869 -0.137229703695 0.749 1.24621003705e-38
-0.0277601860451 -0.137412920923 0.75 1.24631765677e-38
-0.0263370138405 -0.137229703695 0.749 1.2095796748e-38
-0.0249508552173 -0.137229703695 0.749 1.20043171816e-38
-0.0235646965941 -0.137229703695 0.749 1.06199828365e-38
-0.0221785379709 -0.137229703695 0.749 1.13561353666e-38
-0.0207923793478 -0.137229703695 0.749 1.12650005196e-38
-0.0194062207246 -0.137229703695 0.749 1.07121756638e-38
-0.0180200621014 -0.137229703695 0.749 1.09884094262e-38
-0.0166339034782 -0.137229703695 0.749 1.0988765356e-38
-0.015247744855 -0.137229703695 0.749 1.15426397844e-38
-0.0138615862318 -0.137229703695 0.749 1.06210324091e-38
-0.0124754276087 -0.137229703695 0.749 1.10816644377e-38
-0.0110892689855 -0.137229703695 0.749 1.09909191517e-38
-0.00970311036229 -0.137229703695 0.749 1.08976599363e-38
-0.00832805581352 -0.137412920923 0.75 1.13571779326e-38
-0.00694004651127 -0.137412920923 0.75 1.13578855884e-38
-0.00555203720901 -0.137412920923 0.75 1.13596666387e-38
-0.00416402790676 -0.137412920923 0.75 9.51328215095e-39
-0.00277601860451 -0.137412920923 0.75 8.1256911882e-39
-0.00138800930225 -0.137412920923 0.75 9.04369722646e-39
0.0 -0.137412920923 0.75 1.48426177939e-38
0.00138800930225 -0.137412920923 0.75 1.79754811524e-38
0.00277601860451 -0.137412920923 0.75 1.13417370249e-38
0.00416402790676 -0.137412920923 0.75 1.04262617316e-38
-0.0503014571137 -0.136931744365 0.755 4.70304210986e-39
-0.0488394206486 -0.136750377816 0.754 4.97927727354e-39
-0.0474440086301 -0.136750377816 0.754 4.7945356892e-39
-0.0460485966116 -0.136750377816 0.754 6.08527871118e-39
-0.0445347411326 -0.136387644718 0.752 1.68155815719e-44
-0.0430282883699 -0.136024911621 0.75 3.50553307991e-39
-0.0416402790676 -0.136024911621 0.75 1.42033818682e-38
-0.0401986000723 -0.135843545072 0.749 1.51282178352e-38
-0.0387088034212 -0.135480811974 0.747 1.37524720483e-38
-0.0373263461562 -0.135480811974 0.747 1.3017806296e-38
-0.0359438888912 -0.135480811974 0.747 1.37539406091e-38
-0.0345614316261 -0.135480811974 0.747 1.37514154693e-38
-0.0331789743611 -0.135480811974 0.747 1.31985920147e-38
-0.031796517096 -0.135480811974 0.747 1.37524692457e-38
-0.03049548971 -0.135843545072 0.749 1.33840398535e-38
-0.0291093310869 -0.135843545072 0.749 1.31074641743e-38
-0.0277231724637 -0.135843545072 0.749 1.30159790028e-38
-0.0263370138405 -0.135843545072 0.749 1.29255574168e-38
-0.0249508552173 -0.135843545072 0.749 1.25571308271e-38
-0.0235646965941 -0.135843545072 0.749 9.88204785482e-39
-0.0221785379709 -0.135843545072 0.749 1.10798889925e-38
-0.0207923793478 -0.135843545072 0.749 1.14483197861e-38
-0.0194062207246 -0.135843545072 0.749 1.22780776522e-38
-0.0179719444456 -0.135480811974 0.747 1.19099999859e-38
-0.0165894871805 -0.135480811974 0.747 1.13575324611e-38
-0.0152070299155 -0.135480811974 0.747 1.21872931299e-38
-0.0138245726504 -0.135480811974 0.747 1.10809469729e-38
-0.0124421153854 -0.135480811974 0.747 1.14497294923e-38
-0.0110596581204 -0.135480811974 0.747 1.18199651583e-38
-0.00967720085531 -0.135480811974 0.747 1.11731524118e-38
-0.00829474359027 -0.135480811974 0.747 1.18167169484e-38
-0.00691228632522 -0.135480811974 0.747 1.16323214848e-38
-0.00552982906018 -0.135480811974 0.747 1.11731426027e-38
-0.00415847586955 -0.135843545072 0.749 1.16341193507e-38
-0.00277231724637 -0.135843545072 0.749 8.12602890113e-39
-0.00138615862318 -0.135843545072 0.749 1.06106543926e-38
0.0 -0.135843545072 0.749 1.49366281052e-38
0.00138615862318 -0.135843545072 0.749 1.80691187184e-38
0.00277231724637 -0.135843545072 0.749 1.22622485848e-38
0.00415847586955 -0.135843545072 0.749 8.85570322838e-39
0.00554463449273 -0.135843545072 0.749 8.49304998841e-39
-0.0503014571137 -0.135534481667 0.755 4.88850956681e-39
-0.0488394206486 -0.135354965798 0.754 5.44060995137e-39
-0.0474440086301 -0.135354965798 0.754 3.78073408531e-39
-0.045926451793 -0.134995934058 0.752 5.8090435475e-39
-0.0444162976721 -0.134636902319 0.75 2.77305755702e-40
-0.0430282883699 -0.134636902319 0.75 3.78033331395e-39
-0.0415847586955 -0.134457386449 0.749 9.86698950152e-39
-0.0400912606863 -0.134098354709 0.747 1.52207483754e-38
-0.0386569844073 -0.13391883884 0.746 1.46733493472e-38
-0.0372763778213 -0.13391883884 0.746 1.36642406918e-38
-0.0358957712353 -0.13391883884 0.746 1.43071143883e-38
-0.0345151646494 -0.13391883884 0.746 1.4672296972e-38
-0.0331345580634 -0.13391883884 0.746 1.43964107317e-38
-0.0317539514774 -0.13391883884 0.746 1.38435886784e-38
-0.030414059831 -0.134098354709 0.747 1.25539288601e-38
-0.0290316025659 -0.134098354709 0.747 1.24617304277e-38
-0.0276491453009 -0.134098354709 0.747 1.22787628872e-38
-0.0262666880358 -0.134098354709 0.747 1.20950764806e-38
-0.0248842307708 -0.134098354709 0.747 1.29244812195e-38
-0.0235017735058 -0.134098354709 0.747 1.21872903273e-38
-0.0221193162407 -0.134098354709 0.747 1.18185078079e-38
-0.0207368589757 -0.134098354709 0.747 1.26472161015e-38
-0.0193544017106 -0.134098354709 0.747 1.1909300738e-38
-0.0179719444456 -0.134098354709 0.747 1.16337648222e-38
-0.0165894871805 -0.134098354709 0.747 1.19110537623e-38
-0.0152070299155 -0.134098354709 0.747 1.22791398365e-38
-0.0138245726504 -0.134098354709 0.747 1.1724903873e-38
-0.0124421153854 -0.134098354709 0.747 1.17256115288e-38
-0.0110596581204 -0.134098354709 0.747 1.22795125819e-38
-0.00966424610182 -0.13391883884 0.746 1.20021788002e-38
-0.00828363951585 -0.13391883884 0.746 1.23688145304e-38
-0.00690303292987 -0.13391883884 0.746 1.22766132953e-38
-0.00552982906018 -0.134098354709 0.747 1.1724180803e-38
-0.00414737179513 -0.134098354709 0.747 1.15411866379e-38
-0.00276491453009 -0.134098354709 0.747 1.07074869191e-38
-0.00138615862318 -0.134457386449 0.749 1.37445813367e-38
0.0 -0.134457386449 0.749 1.65054041568e-38
0.00138615862318 -0.134457386449 0.749 1.43827326573e-38
0.00277231724637 -0.134457386449 0.749 1.54887312924e-38
0.00414737179513 -0.134098354709 0.747 1.16194225324e-38
0.00552982906018 -0.134098354709 0.747 8.76784461727e-39
0.00693079311592 -0.134457386449 0.749 8.21789802845e-39
-0.0502348326672 -0.133959553779 0.754 5.34876604742e-39
-0.0488394206486 -0.133959553779 0.754 4.61262893165e-39
-0.0473181624533 -0.133604223398 0.752 4.79666846546e-39
-0.045926451793 -0.133604223398 0.752 6.27109369014e-39
-0.0444162976721 -0.133248893016 0.75 1.47549581671e-39
-0.0429709173187 -0.133071227826 0.749 5.99375290198e-39
-0.0414737179513 -0.132715897444 0.747 5.44305521719e-39
-0.0400375909933 -0.132538232254 0.746 1.44845916414e-38
-0.0386569844073 -0.132538232254 0.746 1.51314352164e-38
-0.0371764411516 -0.132182901872 0.744 1.49488726512e-38
-0.0357995359237 -0.132182901872 0.744 1.43974925341e-38
-0.0344226306959 -0.132182901872 0.744 1.42127607588e-38
-0.0331345580634 -0.132538232254 0.746 1.42116593382e-38
-0.0317539514774 -0.132538232254 0.746 1.48566616071e-38
-0.030414059831 -0.132715897444 0.747 1.45804250421e-38
-0.0290316025659 -0.132715897444 0.747 1.4027956116e-38
-0.0276121317195 -0.132538232254 0.746 1.3475848725e-38
-0.0262315251335 -0.132538232254 0.746 1.3845347308e-38
-0.0248509185475 -0.132538232254 0.746 1.20947233534e-38
-0.0234703119616 -0.132538232254 0.746 1.1634120752e-38
-0.0220897053756 -0.132538232254 0.746 1.22780468237e-38
-0.0207090987896 -0.132538232254 0.746 1.27386690432e-38
-0.0193284922036 -0.132538232254 0.746 1.20936555639e-38
-0.0179478856177 -0.132538232254 0.746 1.26471782664e-38
-0.0165672790317 -0.132538232254 0.746 1.24631429365e-38
-0.0151866724457 -0.132538232254 0.746 1.26471824703e-38
-0.0138060658597 -0.132538232254 0.746 1.25542777834e-38
-0.0124254592738 -0.132538232254 0.746 1.30152573341e-38
-0.0110152418227 -0.132182901872 0.744 1.32925658924e-38
-0.00963833659485 -0.132182901872 0.744 1.25560518273e-38
-0.00826143136701 -0.132182901872 0.744 1.24627870067e-38
-0.00688452613918 -0.132182901872 0.744 1.21858483912e-38
-0.0055224263439 -0.132538232254 0.746 1.26475313936e-38
-0.00414181975792 -0.132538232254 0.746 1.2002159182e-38
-0.00276491453009 -0.132715897444 0.747 1.27372453239e-38
-0.00138245726504 -0.132715897444 0.747 7.57286633234e-39
0.0 -0.132715897444 0.747 7.29161171756e-39
0.00138245726504 -0.132715897444 0.747 1.00534883141e-38
0.00276491453009 -0.132715897444 0.747 1.18920087149e-38
0.00414181975792 -0.132538232254 0.746 9.49710836407e-39
0.0055224263439 -0.132538232254 0.746 9.13623897705e-39
0.00693079311592 -0.133071227826 0.749 8.49627998137e-39
-0.0502348326672 -0.132564141761 0.754 4.61120100851e-39
-0.0488394206486 -0.132564141761 0.754 5.2583542705e-39
-0.0473181624533 -0.132212512737 0.752 2.03115549937e-39
-0.045926451793 -0.132212512737 0.752 4.79631954214e-39
-0.0443570759419 -0.131685069202 0.749 4.60629225999e-40
-0.0428561752164 -0.131333440179 0.747 4.51934169028e-39
-0.0414181975792 -0.131157625668 0.746 5.53560397426e-39
-0.0400375909933 -0.131157625668 0.746 1.32846177275e-38
-0.0385533463794 -0.130805996644 0.744 1.53140173999e-38
-0.0371764411516 -0.130805996644 0.744 1.53154943684e-38
-0.0357033006121 -0.130454367621 0.742 1.48570231421e-38
-0.0343300967424 -0.130454367621 0.742 1.54109396094e-38
-0.0329568928727 -0.130454367621 0.742 1.46722815577e-38
-0.0316688202402 -0.130805996644 0.744 1.46711913475e-38
-0.0302919150124 -0.130805996644 0.744 1.46715416721e-38
-0.0289150097845 -0.130805996644 0.744 1.4672245124e-38
-0.0275381045567 -0.130805996644 0.744 1.37520698757e-38
-0.0261611993289 -0.130805996644 0.744 1.30152237029e-38
-0.024784294101 -0.130805996644 0.744 1.16337424014e-38
-0.0234073888732 -0.130805996644 0.744 1.21869386014e-38
-0.0220304836454 -0.130805996644 0.744 1.24624380834e-38
-0.0206535784175 -0.130805996644 0.744 1.25539078406e-38
-0.0192766731897 -0.130805996644 0.744 1.23695137783e-38
-0.0178997679619 -0.130805996644 0.744 1.2646457999e-38
-0.016522862734 -0.130805996644 0.744 1.27386536289e-38
-0.0151459575062 -0.130805996644 0.744 1.2553905038e-38
-0.0137690522784 -0.130805996644 0.744 1.22773181485e-38
-0.0123588348273 -0.130454367621 0.742 1.28304947302e-38
-0.0109856309576 -0.130454367621 0.742 1.283157373e-38
-0.00961242708787 -0.130454367621 0.742 1.25546309106e-38
-0.00823922321818 -0.130454367621 0.742 1.23695165809e-38
-0.00686601934848 -0.130454367621 0.742 1.26464551964e-38
-0.00550762091134 -0.130805996644 0.744 1.246241286e-38
-0.00413071568351 -0.130805996644 0.744 1.20936331432e-38
-0.00276121317195 -0.131157625668 0.746 1.20000123928e-38
-0.00138060658597 -0.131157625668 0.746 9.69442239824e-39
0.0 -0.131157625668 0.746 8.12388491448e-39
0.00138060658597 -0.131157625668 0.746 1.3097039915e-38
0.00276121317195 -0.131157625668 0.746 1.49358742067e-38
0.00414181975792 -0.131157625668 0.746 1.74237605197e-38
0.0055224263439 -0.131157625668 0.746 1.34686810833e-38
0.00690303292987 -0.131157625668 0.746 8.40301796338e-39
-0.0516302446857 -0.131168729742 0.754 4.97928007613e-39
-0.0502348326672 -0.131168729742 0.754 6.08597655781e-39
-0.0488394206486 -0.131168729742 0.754 4.98141565499e-39
-0.0473181624533 -0.130820802077 0.752 3.13714993051e-39
-0.045926451793 -0.130820802077 0.752 4.05875450323e-39
-0.0442386324814 -0.129950982914 0.747 4.14773835702e-39
-0.0427988041652 -0.129777019082 0.746 6.177422493e-39
-0.0414181975792 -0.129777019082 0.746 6.27315780278e-39
-0.0398229122212 -0.129081163751 0.742 1.0148200676e-38
-0.0384497083515 -0.129081163751 0.742 1.39307144104e-38
-0.0370265361469 -0.128907199919 0.741 1.69739240945e-38
-0.0356551829563 -0.128907199919 0.741 1.52247210565e-38
-0.0342838297657 -0.128907199919 0.741 1.56864334862e-38
-0.032912476575 -0.128907199919 0.741 1.56860705499e-38
-0.0315411233844 -0.128907199919 0.741 1.55009562202e-38
-0.0302104851333 -0.129081163751 0.742 1.52239993878e-38
-0.0288372812636 -0.129081163751 0.742 1.43027451397e-38
-0.0274640773939 -0.129081163751 0.742 1.45807515446e-38
-0.0260908735242 -0.129081163751 0.742 1.31074165302e-38
-0.024784294101 -0.129429091417 0.744 1.18177707249e-38
-0.0234073888732 -0.129429091417 0.744 1.31081704287e-38
-0.0219712619151 -0.129081163751 0.742 1.31992772497e-38
-0.0205980580454 -0.129081163751 0.742 1.31985583836e-38
-0.0192248541757 -0.129081163751 0.742 1.33829524459e-38
-0.017851650306 -0.129081163751 0.742 1.35669877758e-38
-0.0164784464364 -0.129081163751 0.742 1.3474792146e-38
-0.0151052425667 -0.129081163751 0.742 1.2921971494e-38
-0.013732038697 -0.129081163751 0.742 1.26457391329e-38
-0.0123588348273 -0.129081163751 0.742 1.29223204173e-38
-0.0109856309576 -0.129081163751 0.742 1.32911057394e-38
-0.00961242708787 -0.129081163751 0.742 1.39350668434e-38
-0.00823922321818 -0.129081163751 0.742 1.347444042e-38
-0.00686601934848 -0.129081163751 0.742 1.31063515433e-38
-0.00549281547878 -0.129081163751 0.742 1.29216071564e-38
-0.00411961160909 -0.129081163751 0.742 1.28301163796e-38
-0.00275381045567 -0.129429091417 0.744 1.34754633679e-38
-0.00137690522784 -0.129429091417 0.744 1.16304969942e-38
0.0 -0.129429091417 0.744 8.03383607386e-39
0.00137690522784 -0.129429091417 0.744 1.18992296059e-38
0.00275381045567 -0.129429091417 0.744 1.56741398948e-38
0.00413071568351 -0.129429091417 0.744 1.65943235509e-38
0.00550762091134 -0.129429091417 0.744 1.1253090884e-38
0.00688452613918 -0.129429091417 0.744 1.02429760964e-38
-0.0516302446857 -0.129773317723 0.754 5.071475706e-39
-0.0502348326672 -0.129773317723 0.754 4.51865365273e-39
-0.0488394206486 -0.129773317723 0.754 5.71827023558e-39
-0.0473181624533 -0.129429091417 0.752 5.07290362913e-39
-0.045926451793 -0.129429091417 0.752 1.93825501638e-39
-0.0442386324814 -0.128568525649 0.747 4.14738242721e-39
-0.0427988041652 -0.128396412496 0.746 5.62388577751e-39
-0.0413071568351 -0.128052186189 0.744 5.81146499125e-39
-0.0397692425282 -0.127535846728 0.741 6.18131810273e-39
-0.0383978893375 -0.127535846728 0.741 1.47593960794e-38
-0.0370265361469 -0.127535846728 0.741 1.55898966337e-38
-0.0355589476447 -0.127191620421 0.739 1.60530369866e-38
-0.0341912958122 -0.127191620421 0.739 1.58700904656e-38
-0.0328236439797 -0.127191620421 0.739 1.59615784397e-38
-0.0314559921472 -0.127191620421 0.739 1.60537740696e-38
-0.0301697701938 -0.127535846728 0.741 1.61459612916e-38
-0.0287984170032 -0.127535846728 0.741 1.64221684293e-38
-0.0274270638125 -0.127535846728 0.741 1.47644267408e-38
-0.0260557106219 -0.127535846728 0.741 1.41208495925e-38
-0.0246843574313 -0.127535846728 0.741 1.23695025679e-38
-0.0233130042406 -0.127535846728 0.741 1.28312178002e-38
-0.0219712619151 -0.127707959882 0.742 1.26453818018e-38
-0.0205980580454 -0.127707959882 0.742 1.34747823369e-38
-0.0192248541757 -0.127707959882 0.742 1.34740760824e-38
-0.017851650306 -0.127707959882 0.742 1.37503112461e-38
-0.0164784464364 -0.127707959882 0.742 1.45800719149e-38
-0.0150848850969 -0.127535846728 0.741 1.40276057914e-38
-0.0137135319063 -0.127535846728 0.741 1.3843563455e-38
-0.0123421787156 -0.127535846728 0.741 1.34754857887e-38
-0.010970825525 -0.127535846728 0.741 1.3382934229e-38
-0.00959947233438 -0.127535846728 0.741 1.36573925462e-38
-0.00822811914376 -0.127535846728 0.741 1.39339794358e-38
-0.00685676595313 -0.127535846728 0.741 1.39339626202e-38
-0.0054854127625 -0.127535846728 0.741 1.3841769793e-38
-0.00411961160909 -0.127707959882 0.742 1.3011989506e-38
-0.00274640773939 -0.127707959882 0.742 1.29201259839e-38
-0.0013732038697 -0.127707959882 0.742 1.32882064528e-38
0.0 -0.127707959882 0.742 9.04833692568e-39
0.0013732038697 -0.127707959882 0.742 8.67381889161e-39
0.00274640773939 -0.127707959882 0.742 1.44770386427e-38
0.00411961160909 -0.127707959882 0.742 1.55808400417e-38
0.00549281547878 -0.127707959882 0.742 1.2908656356e-38
0.00686601934848 -0.127707959882 0.742 9.68655130476e-39
-0.0503014571137 -0.128548168179 0.755 5.99378653314e-39
-0.0487098731137 -0.128037380756 0.752 5.07255050192e-39
-0.0473181624533 -0.128037380756 0.752 4.70412110968e-39
-0.045926451793 -0.128037380756 0.752 2.95240414228e-39
-0.0441794107512 -0.12701580591 0.746 3.77895303497e-39
-0.0425693199606 -0.126334756012 0.742 5.43985465149e-39
-0.0411961160909 -0.126334756012 0.742 6.7337660093e-39
-0.0397692425282 -0.126164493538 0.741 4.79661101222e-39
-0.0383978893375 -0.126164493538 0.741 1.27300300381e-38
-0.0369265994771 -0.125823968589 0.739 1.60508635726e-38
-0.0355589476447 -0.125823968589 0.739 1.6329256736e-38
-0.0341912958122 -0.125823968589 0.739 1.60541159864e-38
-0.0328236439797 -0.125823968589 0.739 1.55931518501e-38
-0.0314559921472 -0.125823968589 0.739 1.63300008254e-38
-0.0300883403147 -0.125823968589 0.739 1.5960133701e-38
-0.0287206884822 -0.125823968589 0.739 1.63299784047e-38
-0.0273160230683 -0.125653706114 0.738 1.47633519449e-38
-0.0259502219149 -0.125653706114 0.738 1.56867389693e-38
-0.0246177329848 -0.125823968589 0.739 1.19078083551e-38
-0.0232500811523 -0.125823968589 0.739 1.3290756816e-38
-0.02194165105 -0.126164493538 0.741 1.34747809356e-38
-0.0205702978594 -0.126164493538 0.741 1.3934684289e-38
-0.0191989446688 -0.126164493538 0.741 1.40261722631e-38
-0.0178275914781 -0.126164493538 0.741 1.40258219385e-38
-0.0164562382875 -0.126164493538 0.741 1.43946058592e-38
-0.0150848850969 -0.126164493538 0.741 1.43027591527e-38
-0.0137135319063 -0.126164493538 0.741 1.39346800851e-38
-0.0123088664924 -0.125823968589 0.739 1.37509964811e-38
-0.0109412146599 -0.125823968589 0.739 1.44881957811e-38
-0.00957356282741 -0.125823968589 0.739 1.38424704422e-38
-0.00822811914376 -0.126164493538 0.741 1.29187372971e-38
-0.00685676595313 -0.126164493538 0.741 1.56835384036e-38
-0.0054854127625 -0.126164493538 0.741 1.41169147465e-38
-0.00411405957188 -0.126164493538 0.741 1.58686205035e-38
-0.00274270638125 -0.126164493538 0.741 1.62363240231e-38
-0.0013732038697 -0.126334756012 0.742 1.46686311752e-38
0.0 -0.126334756012 0.742 1.03397805969e-38
0.0013732038697 -0.126334756012 0.742 8.76780678221e-39
0.00274270638125 -0.126164493538 0.741 1.09750592557e-38
0.00411405957188 -0.126164493538 0.741 1.57670221609e-38
0.0054854127625 -0.126164493538 0.741 1.56737993793e-38
0.00685676595313 -0.126164493538 0.741 1.06988941569e-38
-0.0487098731137 -0.126645670096 0.752 4.70376938377e-39
-0.0473181624533 -0.126645670096 0.752 5.16510206159e-39
-0.045926451793 -0.126645670096 0.752 2.03080237215e-39
-0.0438833021 -0.124793140347 0.741 2.39708637645e-39
-0.0425119489094 -0.124793140347 0.741 5.34838349294e-39
-0.0411405957188 -0.124793140347 0.741 6.27243613407e-39
-0.0397692425282 -0.124793140347 0.741 5.07355663422e-39
-0.0382942513096 -0.124456316756 0.739 9.22483186856e-39
-0.0369265994771 -0.124456316756 0.739 1.50370619688e-38
-0.0355589476447 -0.124456316756 0.739 1.63292455256e-38
-0.0341450288354 -0.124287904961 0.738 1.62374310489e-38
-0.032779227682 -0.124287904961 0.738 1.66994966058e-38
-0.0314134265286 -0.124287904961 0.738 1.64221936527e-38
-0.0300476253752 -0.124287904961 0.738 1.65133074802e-38
-0.0286818242218 -0.124287904961 0.738 1.73434114671e-38
-0.0273160230683 -0.124287904961 0.738 1.62377659592e-38
-0.0259502219149 -0.124287904961 0.738 1.57775024721e-38
-0.0245844207615 -0.124287904961 0.738 1.42109040383e-38
-0.0232500811523 -0.124456316756 0.739 1.338115458e-38
-0.0218824293198 -0.124456316756 0.739 1.31049208176e-38
-0.0204870173013 -0.124287904961 0.738 1.41183566826e-38
-0.0191212161478 -0.124287904961 0.738 1.46711801371e-38
-0.0177794738223 -0.124456316756 0.739 1.46708284112e-38
-0.0164118219898 -0.124456316756 0.739 1.43020486944e-38
-0.0150441701574 -0.124456316756 0.739 1.45789859086e-38
-0.0136580115342 -0.124287904961 0.738 1.41183594852e-38
-0.0122922103808 -0.124287904961 0.738 1.43952981007e-38
-0.0109264092273 -0.124287904961 0.738 1.40275805681e-38
-0.00956060807392 -0.124287904961 0.738 1.3566941533e-38
-0.00820591099492 -0.124456316756 0.739 1.44864147307e-38
-0.00683825916243 -0.124456316756 0.739 1.75270992749e-38
-0.00547060732995 -0.124456316756 0.739 1.60526614386e-38
-0.00410295549746 -0.124456316756 0.739 1.53140173999e-38
-0.00273530366497 -0.124456316756 0.739 1.53111671588e-38
-0.00137135319063 -0.124793140347 0.741 1.33757623835e-38
0.0 -0.124793140347 0.741 1.35658877565e-38
0.00137135319063 -0.124793140347 0.741 1.03358541586e-38
0.00273530366497 -0.124456316756 0.739 1.32828366771e-38
0.00410295549746 -0.124456316756 0.739 1.64145902072e-38
0.00547060732995 -0.124456316756 0.739 1.65060613658e-38
0.00683825916243 -0.124456316756 0.739 1.42938034542e-38
-0.0438833021 -0.123421787156 0.741 2.30595853601e-39
-0.0425119489094 -0.123421787156 0.741 5.80972738115e-39
-0.0411405957188 -0.123421787156 0.741 5.62815273134e-39
-0.0396619031421 -0.123088664924 0.739 5.35121271454e-39
-0.0382942513096 -0.123088664924 0.739 5.4434083444e-39
-0.0368766311423 -0.122922103808 0.738 1.44838867883e-38
-0.0355108299888 -0.122922103808 0.738 1.61459248579e-38
-0.0340524948819 -0.122588981575 0.736 1.51318093631e-38
-0.0326903950867 -0.122588981575 0.736 1.65151053461e-38
-0.0313282952914 -0.122588981575 0.736 1.70679175903e-38
-0.0299661954961 -0.122588981575 0.736 1.74356211099e-38
-0.0286040957008 -0.122588981575 0.736 1.8356847332e-38
-0.0272419959056 -0.122588981575 0.736 1.89107259643e-38
-0.0258798961103 -0.122588981575 0.736 1.63299587865e-38
-0.024517796315 -0.122588981575 0.736 1.60537404384e-38
-0.0231556965197 -0.122588981575 0.736 1.40258079255e-38
-0.0217935967244 -0.122588981575 0.736 1.46715332643e-38
-0.0204314969292 -0.122588981575 0.736 1.46715332643e-38
-0.0190693971339 -0.122588981575 0.736 1.43945904449e-38
-0.0177072973386 -0.122588981575 0.736 1.4763375767e-38
-0.0163451975433 -0.122588981575 0.736 1.52243553176e-38
-0.0149830977481 -0.122588981575 0.736 1.54083906475e-38
-0.0136209979528 -0.122588981575 0.736 1.48555727982e-38
-0.0122588981575 -0.122588981575 0.736 1.4947768428e-38
-0.0108967983622 -0.122588981575 0.736 1.52257720304e-38
-0.00953469856695 -0.122588981575 0.736 1.46729471745e-38
-0.00817259877167 -0.122588981575 0.736 1.49481173513e-38
-0.00682900576709 -0.122922103808 0.738 1.4761582105e-38
-0.00546320461367 -0.122922103808 0.738 1.4853407792e-38
-0.00409740346025 -0.122922103808 0.738 1.4944167091e-38
-0.00273530366497 -0.123088664924 0.739 1.41126267732e-38
-0.00136765183249 -0.123088664924 0.739 1.68781397392e-38
0.0 -0.123088664924 0.739 1.42108844202e-38
0.00136765183249 -0.123088664924 0.739 9.69083367287e-39
0.00273530366497 -0.123088664924 0.739 1.15325854679e-38
0.00410295549746 -0.123088664924 0.739 1.32821500409e-38
0.00546320461367 -0.122922103808 0.738 1.48504930912e-38
0.00682900576709 -0.122922103808 0.738 1.12531385281e-38
-0.0437648586396 -0.121721013091 0.739 2.86056023833e-39
-0.0423972068071 -0.121721013091 0.739 5.53386216027e-39
-0.0410295549746 -0.121721013091 0.739 5.62851847024e-39
-0.0396619031421 -0.121721013091 0.739 6.08984834547e-39
-0.0382424322957 -0.121556302654 0.738 3.78319616672e-39
-0.0368766311423 -0.121556302654 0.738 1.07967804599e-38
-0.0354145946772 -0.12122688178 0.736 1.63303105124e-38
-0.0339599609285 -0.120897460905 0.734 1.68831746046e-38
-0.0326015624913 -0.120897460905 0.734 1.70682791253e-38
-0.0312431640542 -0.120897460905 0.734 1.69757191578e-38
-0.0299661954961 -0.12122688178 0.736 1.88178338891e-38
-0.0285263671799 -0.120897460905 0.734 1.8356847332e-38
-0.0271679687428 -0.120897460905 0.734 1.73434002567e-38
-0.0258095703056 -0.120897460905 0.734 1.68824165022e-38
-0.0244511718685 -0.120897460905 0.734 1.70678937682e-38
-0.0231556965197 -0.12122688178 0.736 1.46701025386e-38
-0.0217935967244 -0.12122688178 0.736 1.4854492397e-38
-0.0203759765571 -0.120897460905 0.734 1.5039236784e-38
-0.0190175781199 -0.120897460905 0.734 1.51314324138e-38
-0.0177072973386 -0.12122688178 0.736 1.58689974528e-38
-0.0163451975433 -0.12122688178 0.736 1.51314324138e-38
-0.0149830977481 -0.12122688178 0.736 1.49466894282e-38
-0.0136209979528 -0.12122688178 0.736 1.52229259932e-38
-0.0122588981575 -0.12122688178 0.736 1.49459845751e-38
-0.0108967983622 -0.12122688178 0.736 1.43034640058e-38
-0.00953469856695 -0.12122688178 0.736 1.43960337824e-38
-0.00817259877167 -0.12122688178 0.736 1.50399640579e-38
-0.00681049897639 -0.12122688178 0.736 1.41172776828e-38
-0.00544839918111 -0.12122688178 0.736 1.67891670958e-38
-0.00408629938583 -0.12122688178 0.736 1.80788269141e-38
-0.00273160230683 -0.121556302654 0.738 1.78007980884e-38
-0.00136580115342 -0.121556302654 0.738 2.0196833491e-38
0.0 -0.121556302654 0.738 1.47629735943e-38
0.00136580115342 -0.121556302654 0.738 1.39328892256e-38
0.00273160230683 -0.121556302654 0.738 9.2291730912e-39
0.00409740346025 -0.121556302654 0.738 1.00578463524e-38
0.00546320461367 -0.121556302654 0.738 1.31935039e-38
0.00681049897639 -0.12122688178 0.736 1.29151583808e-38
0.00817259877167 -0.12122688178 0.736 1.014932732e-38
-0.0437648586396 -0.120353361259 0.739 3.32298172506e-39
-0.0423972068071 -0.120353361259 0.739 5.62605779013e-39
-0.0409740346025 -0.120190501501 0.738 6.82418339142e-39
-0.0396082334491 -0.120190501501 0.738 5.25794088745e-39
-0.0381387942678 -0.119864781984 0.736 3.87648200678e-39
-0.0367766944725 -0.119864781984 0.736 5.90976187462e-39
-0.0353183593656 -0.119539062468 0.734 1.5408008093e-38
-0.0339599609285 -0.119539062468 0.734 1.78007896806e-38
-0.0325571461937 -0.11937620271 0.733 1.72494207739e-38
-0.0312005984356 -0.11937620271 0.733 1.74356070969e-38
-0.029884765617 -0.119539062468 0.734 1.75270866633e-38
-0.0285263671799 -0.119539062468 0.734 1.82642971737e-38
-0.0271679687428 -0.119539062468 0.734 1.76189305672e-38
-0.0257744074033 -0.11937620271 0.733 1.6696971466e-38
-0.0244178596452 -0.11937620271 0.733 1.73426954035e-38
-0.0230927734314 -0.119539062468 0.734 1.65132822568e-38
-0.0217343749942 -0.119539062468 0.734 1.45775537815e-38
-0.020348216371 -0.11937620271 0.733 1.43945946488e-38
-0.018991668613 -0.11937620271 0.733 1.58704225733e-38
-0.0176591796828 -0.119539062468 0.734 1.44881957811e-38
-0.0163007812457 -0.119539062468 0.734 1.54087199527e-38
-0.0149423828085 -0.119539062468 0.734 1.57767990203e-38
-0.0135839843714 -0.119539062468 0.734 1.60519649932e-38
-0.0122255859342 -0.119539062468 0.734 1.53140482284e-38
-0.0108967983622 -0.119864781984 0.736 1.56846033904e-38
-0.00953469856695 -0.119864781984 0.736 1.47615779011e-38
-0.00817259877167 -0.119864781984 0.736 1.60523209231e-38
-0.00681049897639 -0.119864781984 0.736 1.51314029866e-38
-0.00544839918111 -0.119864781984 0.736 1.73412618752e-38
-0.00408629938583 -0.119864781984 0.736 1.58664723129e-38
-0.00272419959056 -0.119864781984 0.736 1.44831637183e-38
-0.00136209979528 -0.119864781984 0.736 1.50349179821e-38
0.0 -0.119864781984 0.736 1.36548337752e-38
0.00136209979528 -0.119864781984 0.736 1.48551860398e-38
0.00272419959056 -0.119864781984 0.736 9.87736891925e-39
0.00408629938583 -0.119864781984 0.736 8.76886195995e-39
0.00544839918111 -0.119864781984 0.736 1.59575665222e-38
0.00679199218569 -0.119539062468 0.734 1.09761354529e-38
0.00815039062283 -0.119539062468 0.734 9.40990976453e-39
-0.0437648586396 -0.118985709426 0.739 4.06089848988e-39
-0.0423398357559 -0.118824700347 0.738 5.81044624726e-39
-0.0409740346025 -0.118824700347 0.738 6.91638322517e-39
-0.0396082334491 -0.118824700347 0.738 5.81110625884e-39
-0.0381387942678 -0.118502682189 0.736 5.62963250252e-39
-0.0366767578027 -0.118180664031 0.734 3.88112871249e-39
-0.0352702417098 -0.118019654952 0.733 1.40236499259e-38
-0.0339136939517 -0.118019654952 0.733 1.80773625572e-38
-0.0325571461937 -0.118019654952 0.733 1.7617840357e-38
-0.0312005984356 -0.118019654952 0.733 1.79877074815e-38
-0.0298440506775 -0.118019654952 0.733 1.80799059139e-38
-0.0284875029194 -0.118019654952 0.733 1.83561396763e-38
-0.0271309551614 -0.118019654952 0.733 1.85405351399e-38
-0.0257744074033 -0.118019654952 0.733 1.81717484166e-38
-0.0243512351987 -0.117697636794 0.731 1.78958663801e-38
-0.0229983887988 -0.117697636794 0.731 1.6974612132e-38
-0.0217047641291 -0.118019654952 0.733 1.50388878607e-38
-0.0202926959989 -0.117697636794 0.731 1.48555713969e-38
-0.018939849599 -0.117697636794 0.731 1.56853068423e-38
-0.0176351208549 -0.118019654952 0.733 1.50406450889e-38
