# .PCD v0.7 - Point Cloud Data file format
VERSION 0.7
FIELDS x y z rgb
SIZE 4 4 4 4
TYPE F F F F
COUNT 1 1 1 1
WIDTH 854
HEIGHT 1
VIEWPOINT 0 0 0 1 0 0 0
POINTS 854
DATA ascii
0.0318797976542 -0.0028981634231 0.783 9.589703364e-39
0.0334140106029 -0.00290556613938 0.785 9.77409462372e-39
0.0349556262679 -0.00291296885566 0.787 9.49785665745e-39
0.0364121106958 -0.00291296885566 0.787 9.58934883549e-39
0.0378685951236 -0.00291296885566 0.787 1.03265761615e-38
0.0393250795514 -0.00291296885566 0.787 9.2202286031e-39
0.0408852020072 -0.00292037157194 0.789 8.94542556646e-39
0.0423453877931 -0.00292037157194 0.789 8.57663884311e-39
0.0438610939512 -0.00292407293008 0.79 8.39154693415e-39
0.0454378725186 -0.00293147564636 0.792 3.1357051918e-39
0.0470220538022 -0.00293887836264 0.794 2.31411058983e-38
-0.078787109354 -0.00135839843714 0.734 1.92638293553e-38
-0.0774287109169 -0.00135839843714 0.734 1.89883130577e-38
-0.0760703124798 -0.00135839843714 0.734 8.20430403205e-39
-0.0746101266938 -0.00135654775807 0.733 5.34838909813e-39
-0.0732535789357 -0.00135654775807 0.733 6.45508277721e-39
-0.0718970311777 -0.00135654775807 0.733 6.82349675517e-39
-0.0706367187312 -0.00135839843714 0.734 5.53275793708e-39
-0.0692783202941 -0.00135839843714 0.734 7.00788801489e-39
-0.0679199218569 -0.00135839843714 0.734 7.19191073313e-39
-0.0665615234198 -0.00135839843714 0.734 5.90187816946e-39
-0.0652031249826 -0.00135839843714 0.734 7.46741021511e-39
-0.0638447265455 -0.00135839843714 0.734 6.63765795413e-39
-0.0626565905828 -0.00136209979528 0.736 6.91568958243e-39
-0.0615443324619 -0.00136765183249 0.739 6.45579323553e-39
-0.0601766806294 -0.00136765183249 0.739 5.44200424334e-39
-0.0588090287969 -0.00136765183249 0.739 5.71714919681e-39
-0.0575968340063 -0.00137135319063 0.741 6.26960130728e-39
-0.0562254808157 -0.00137135319063 0.741 6.91388471001e-39
-0.054854127625 -0.00137135319063 0.741 7.00644327618e-39
-0.0534827744344 -0.00137135319063 0.741 6.36215286695e-39
-0.0521114212438 -0.00137135319063 0.741 6.08556177347e-39
-0.0508085431787 -0.0013732038697 0.742 6.45469742013e-39
-0.0494353393091 -0.0013732038697 0.742 6.5468902474e-39
-0.0480621354394 -0.0013732038697 0.742 6.17811053054e-39
-0.0466889315697 -0.0013732038697 0.742 6.270308963e-39
-0.0453157277 -0.0013732038697 0.742 6.17775740333e-39
-0.0439425238303 -0.0013732038697 0.742 6.45362402551e-39
-0.0425693199606 -0.0013732038697 0.742 6.82205201645e-39
-0.0413071568351 -0.00137690522784 0.744 6.72985638659e-39
-0.0400375909933 -0.00138060658597 0.746 6.63801248264e-39
-0.0386569844073 -0.00138060658597 0.746 6.17738325664e-39
-0.0373263461562 -0.00138245726504 0.747 6.45432607604e-39
-0.0359438888912 -0.00138245726504 0.747 6.63836420855e-39
-0.0346539655796 -0.00138615862318 0.749 6.45362402551e-39
-0.0333122232541 -0.00138800930225 0.75 6.91424764631e-39
-0.0319242139518 -0.00138800930225 0.75 6.17703713592e-39
-0.0305362046496 -0.00138800930225 0.75 6.54616997999e-39
-0.0291481953473 -0.00138800930225 0.75 6.45397294883e-39
-0.0278342132079 -0.00139171066039 0.752 7.0067921995e-39
-0.0264425025475 -0.00139171066039 0.752 7.37557752155e-39
-0.0250507918871 -0.00139171066039 0.752 6.2695816891e-39
-0.0236590812267 -0.00139171066039 0.752 6.823463124e-39
-0.0222673705663 -0.00139171066039 0.752 7.00787400191e-39
-0.020958940464 -0.0013972626976 0.755 7.00859286802e-39
-0.0195616777664 -0.0013972626976 0.755 6.73163883823e-39
-0.0181644150688 -0.0013972626976 0.755 6.73198916285e-39
-0.0167671523712 -0.0013972626976 0.755 6.91565875387e-39
-0.0153698896736 -0.0013972626976 0.755 7.5606708318e-39
-0.0140096405574 -0.00140096405574 0.757 7.37556631116e-39
-0.0126753009482 -0.00140836677202 0.761 6.45325828661e-39
-0.0112669341762 -0.00140836677202 0.761 5.70566555589e-39
-0.00985856740414 -0.00140836677202 0.761 6.07050342017e-39
-0.00845020063212 -0.00140836677202 0.761 5.88574922414e-39
-0.00705108725545 -0.00141021745109 0.762 5.33185097365e-39
-0.00567048066947 -0.00141762016737 0.766 6.16124590352e-39
-0.00424175642769 -0.00141391880923 0.764 6.43818592033e-39
-0.00282783761846 -0.00141391880923 0.764 6.71476860602e-39
-0.00141762016737 -0.00141762016737 0.766 7.45304970844e-39
0.0 -0.00141947084644 0.767 7.18110812326e-39
0.00141947084644 -0.00141947084644 0.767 8.4739937306e-39
0.00283894169288 -0.00141947084644 0.767 8.84421117968e-39
0.00425841253931 -0.00141947084644 0.767 8.01588964443e-39
0.00570749425087 -0.00142687356272 0.771 7.18864290511e-39
0.00713436781358 -0.00142687356272 0.771 7.37375723484e-39
0.00858344952513 -0.00143057492086 0.773 7.2830035411e-39
0.010014024446 -0.00143057492086 0.773 7.74398309171e-39
0.0114594047994 -0.00143242559993 0.774 7.18975553609e-39
0.0129251426226 -0.00143612695806 0.776 7.09864170864e-39
0.0143612695806 -0.00143612695806 0.776 7.00823833951e-39
0.0157973965387 -0.00143612695806 0.776 7.10187590549e-39
0.0172779397944 -0.0014398283162 0.778 7.56250373019e-39
0.0187658857665 -0.00144352967434 0.78 7.56250373019e-39
0.0202353249478 -0.00144538035341 0.781 7.37809985878e-39
0.0216807053012 -0.00144538035341 0.781 7.46992274325e-39
0.0231260856546 -0.00144538035341 0.781 7.93017922386e-39
0.024571466008 -0.00144538035341 0.781 8.85213832509e-39
0.0260834708079 -0.00144908171155 0.783 8.66774426277e-39
0.0275325525195 -0.00144908171155 0.783 9.12872241208e-39
0.0290556613938 -0.00145278306969 0.785 9.12907834189e-39
0.0305084444635 -0.00145278306969 0.785 9.31238779921e-39
0.0319612275332 -0.00145278306969 0.785 8.5748227603e-39
0.0334140106029 -0.00145278306969 0.785 8.851766981e-39
0.0349556262679 -0.00145648442783 0.787 9.68224931848e-39
0.0365046446493 -0.00146018578597 0.789 9.40532331466e-39
0.0379648304352 -0.00146018578597 0.789 9.49646236548e-39
0.0394250162212 -0.00146018578597 0.789 9.03584014597e-39
0.0409370210211 -0.00146203646504 0.79 8.20786052755e-39
0.0423990574862 -0.00146203646504 0.79 9.22201105475e-39
0.0439721346954 -0.00146573782318 0.792 7.19337228742e-39
0.0455526146209 -0.00146943918132 0.794 7.92917589416e-39
0.0470220538022 -0.00146943918132 0.794 2.35098856151e-38
0.0484914929835 -0.00146943918132 0.794 2.35098856151e-38
-0.0792164668982 0.0 0.738 1.91719966617e-38
-0.0776396883308 0.0 0.736 1.85269831825e-38
-0.0762775885356 0.0 0.736 7.55788084656e-39
-0.0747119140426 0.0 0.734 6.08417028409e-39
-0.0733535156055 0.0 0.734 6.17812734612e-39
-0.0719951171683 0.0 0.734 6.73128711232e-39
-0.0706367187312 0.0 0.734 5.62423189824e-39
-0.0692783202941 0.0 0.734 6.63803490341e-39
-0.0679199218569 0.0 0.734 7.28267984115e-39
-0.0667428899686 0.0 0.736 6.63801248264e-39
-0.0653807901733 0.0 0.736 6.63801248264e-39
-0.0640186903781 0.0 0.736 6.36214866306e-39
-0.0629119842944 0.0 0.739 6.17775880463e-39
-0.0615443324619 0.0 0.739 6.08592611107e-39
-0.0603395403876 0.0 0.741 6.17812454353e-39
-0.0589681871969 0.0 0.741 6.4539953696e-39
-0.0575968340063 0.0 0.741 6.17740848001e-39
-0.0562254808157 0.0 0.741 6.17740848001e-39
-0.054854127625 0.0 0.741 6.73093538641e-39
-0.0535549509181 0.0 0.742 6.82349395257e-39
-0.0521817470484 0.0 0.742 6.27032017339e-39
-0.0508085431787 0.0 0.742 6.17883219925e-39
-0.0494353393091 0.0 0.742 6.3635695797e-39
-0.0480621354394 0.0 0.742 5.71855610047e-39
-0.0468147777464 0.0 0.744 5.90224530966e-39
-0.0454378725186 0.0 0.744 6.08557718775e-39
-0.0439425238303 0.0 0.742 6.17668260741e-39
-0.0425693199606 0.0 0.742 7.00607893858e-39
-0.0413071568351 0.0 0.744 6.4529023568e-39
-0.0400912606863 0.0 0.747 6.26922716059e-39
-0.0388124414491 0.0 0.749 6.08591209808e-39
-0.037426282826 0.0 0.749 6.36250179027e-39
-0.0360882418586 0.0 0.75 6.54654132408e-39
-0.0347002325563 0.0 0.75 6.36179693714e-39
-0.0334010558494 0.0 0.752 7.19155760591e-39
-0.032009345189 0.0 0.752 6.36215006436e-39
-0.0306176345286 0.0 0.752 6.17811333314e-39
-0.0292259238682 0.0 0.752 5.99371927082e-39
-0.0279082403706 0.0 0.754 4.5185933969e-39
-0.0265128283521 0.0 0.754 4.795534815e-39
-0.0251507285568 0.0 0.755 5.809679737e-39
-0.0237534658592 0.0 0.755 6.27101101353e-39
-0.0224154248919 0.0 0.757 6.45541628625e-39
-0.0210699812082 0.0 0.759 6.63980754597e-39
-0.0197171348083 0.0 0.761 5.99407379933e-39
-0.0183087680363 0.0 0.761 5.809679737e-39
-0.0169226094131 0.0 0.762 7.28408674481e-39
-0.015512391962 0.0 0.762 7.5606736344e-39
-0.0141021745109 0.0 0.762 7.28301475148e-39
-0.0126919570598 0.0 0.762 5.90008170483e-39
-0.0112817396087 0.0 0.762 4.69329748034e-39
-0.00987152215763 0.0 0.762 7.54884947796e-39
-0.00846130470654 0.0 0.762 6.25810925857e-39
-0.00706959404614 0.0 0.764 3.86247182474e-39
-0.00567788338575 0.0 0.767 6.16734155184e-39
-0.00425841253931 0.0 0.767 6.3528048049e-39
-0.00283894169288 0.0 0.767 8.19743066308e-39
-0.00142317220458 0.0 0.769 8.47509515119e-39
0.0 0.0 0.771 7.74255096468e-39
0.00142687356272 0.0 0.771 7.37556070596e-39
0.00286114984171 0.0 0.773 7.74434322542e-39
0.00429172476257 0.0 0.773 7.37556350856e-39
0.0057297023997 0.0 0.774 6.73019690211e-39
0.00716212799963 0.0 0.774 7.55960164107e-39
0.00859455359955 0.0 0.774 7.28301475148e-39
0.0100528887065 0.0 0.776 7.0067837917e-39
0.0114890156645 0.0 0.776 7.37522299303e-39
0.0129584548458 0.0 0.778 7.37665652136e-39
0.014398283162 0.0 0.778 7.56211557052e-39
0.0158381114782 0.0 0.778 6.73343390157e-39
0.0173223560921 0.0 0.78 7.19370719776e-39
0.0187899445944 0.0 0.781 7.37774392897e-39
0.0202353249478 0.0 0.781 7.74615510433e-39
0.0217362256733 0.0 0.783 8.29966939904e-39
0.0231853073848 0.0 0.783 8.39078883168e-39
0.0246343890964 0.0 0.783 8.85104811489e-39
0.0260834708079 0.0 0.783 8.75956854854e-39
0.0276028783241 0.0 0.785 7.83725772139e-39
0.0291296885566 0.0 0.787 7.74579076673e-39
0.0305861729845 0.0 0.787 9.40460444855e-39
0.0320426574123 0.0 0.787 8.7592350395e-39
0.0334991418401 0.0 0.787 9.40495757576e-39
0.0350444588633 0.0 0.789 9.77375691079e-39
0.036550911626 0.0 0.79 9.40567363927e-39
0.038012948091 0.0 0.79 9.58971597568e-39
0.0394749845561 0.0 0.79 9.03724564833e-39
0.0409370210211 0.0 0.79 9.68261505738e-39
0.0425063968722 0.0 0.792 1.04195004665e-38
0.0440831754396 0.0 0.794 6.4550883824e-39
0.0456673567232 0.0 0.796 1.2446393216e-38
0.0471404972627 0.0 0.796 2.35098828126e-38
0.0486136378021 0.0 0.796 2.35098856151e-38
-0.0810190283121 0.0013732038697 0.742 1.91720008656e-38
-0.0793238062842 0.00136765183249 0.739 1.89876068033e-38
-0.0778506657448 0.00136580115342 0.738 1.86199018824e-38
-0.0764848645914 0.00136580115342 0.738 8.75607511147e-39
-0.0749154887403 0.00136209979528 0.736 5.34625351927e-39
-0.073553388945 0.00136209979528 0.736 6.26996704618e-39
-0.0721912891497 0.00136209979528 0.736 6.270308963e-39
-0.0708291893544 0.00136209979528 0.736 6.54654412668e-39
-0.0694670895592 0.00136209979528 0.736 6.82242896574e-39
-0.0681049897639 0.00136209979528 0.736 6.82170309313e-39
-0.0670149397919 0.00136765183249 0.739 6.63765795413e-39
-0.0656472879594 0.00136765183249 0.739 6.17811333314e-39
-0.0644535999594 0.00137135319063 0.741 6.36214866306e-39
-0.063167378006 0.0013732038697 0.742 6.45434569422e-39
-0.0617941741363 0.0013732038697 0.742 6.26995723709e-39
-0.0604209702666 0.0013732038697 0.742 5.7164275281e-39
-0.0590477663969 0.0013732038697 0.742 6.26960410988e-39
-0.0576745625272 0.0013732038697 0.742 6.36180254234e-39
-0.0563013586575 0.0013732038697 0.742 6.73058506179e-39
-0.0550762091134 0.00137690522784 0.744 6.27032017339e-39
-0.0536993038856 0.00137690522784 0.744 6.73129832271e-39
-0.0523223986577 0.00137690522784 0.744 6.45471423571e-39
-0.0510824436811 0.00138060658597 0.746 6.27067189931e-39
-0.0497018370951 0.00138060658597 0.746 5.81039580052e-39
-0.0483212305091 0.00138060658597 0.746 5.71855610047e-39
-0.0469406239231 0.00138060658597 0.746 6.54761471871e-39
-0.0455600173372 0.00138060658597 0.746 6.82278909944e-39
-0.0441794107512 0.00138060658597 0.746 6.4532666944e-39
-0.0427988041652 0.00138060658597 0.746 6.36106265675e-39
-0.0414737179513 0.00138245726504 0.747 6.7302081125e-39
-0.0400912606863 0.00138245726504 0.747 6.08483870346e-39
-0.0388642604631 0.00138800930225 0.75 5.99372207341e-39
-0.0374762511608 0.00138800930225 0.75 5.44019236442e-39
-0.0361844771702 0.00139171066039 0.752 5.16432574224e-39
-0.0348853004633 0.00139541201853 0.754 5.9937304812e-39
-0.0334898884448 0.00139541201853 0.754 5.44091263183e-39
-0.0320944764262 0.00139541201853 0.754 5.62530389156e-39
-0.0306990644077 0.00139541201853 0.754 6.45506315903e-39
-0.0293425166496 0.0013972626976 0.755 6.73200317584e-39
-0.027945253952 0.0013972626976 0.755 6.45541348365e-39
-0.0266183170591 0.00140096405574 0.757 6.27137675243e-39
-0.0252173530033 0.00140096405574 0.757 6.3635695797e-39
-0.023879312036 0.00140466541388 0.759 6.27172987965e-39
-0.0224746466221 0.00140466541388 0.759 6.63980754597e-39
-0.0211255015803 0.00140836677202 0.761 6.27102502652e-39
-0.0197430443153 0.00141021745109 0.762 6.91567276685e-39
-0.0183328268642 0.00141021745109 0.762 6.91602729536e-39
-0.0169670257107 0.00141391880923 0.764 7.09969548508e-39
-0.0155531069015 0.00141391880923 0.764 7.283730815e-39
-0.0141762016737 0.00141762016737 0.766 7.83618853066e-39
-0.0127252692831 0.00141391880923 0.764 5.90008170483e-39
-0.0113113504738 0.00141391880923 0.764 4.05080633834e-39
-0.0098974316646 0.00141391880923 0.764 9.02828714725e-39
-0.00851682507863 0.00141947084644 0.767 8.1996026757e-39
-0.00711586102289 0.00142317220458 0.769 7.27836103928e-39
-0.00569268881831 0.00142317220458 0.769 7.74005244952e-39
-0.00426951661373 0.00142317220458 0.769 7.92587723758e-39
-0.00285374712543 0.00142687356272 0.771 8.47976708027e-39
-0.00143057492086 0.00143057492086 0.773 6.72912631009e-39
0.0 0.00143057492086 0.773 6.36320944599e-39
0.00143057492086 0.00143057492086 0.773 5.99514299006e-39
0.00286485119985 0.00143242559993 0.774 6.54760070572e-39
0.00430838087419 0.00143612695806 0.776 6.82418759531e-39
0.00574450783226 0.00143612695806 0.776 6.91494829555e-39
0.00718063479032 0.00143612695806 0.776 7.56032050719e-39
0.00863896989722 0.0014398283162 0.778 7.2837336176e-39
0.0100787982134 0.0014398283162 0.778 7.09933955527e-39
0.0115482373947 0.00144352967434 0.78 7.19118906442e-39
0.0129584548458 0.0014398283162 0.778 7.37521178265e-39
0.014398283162 0.0014398283162 0.778 7.46883253305e-39
0.0158788264178 0.00144352967434 0.78 7.37627957208e-39
0.017344564241 0.00144538035341 0.781 7.92874849813e-39
0.0187899445944 0.00144538035341 0.781 8.38937492153e-39
0.0202871439617 0.00144908171155 0.783 8.57447383698e-39
0.0217362256733 0.00144908171155 0.783 8.94324094215e-39
0.0232445291151 0.00145278306969 0.785 9.0350820435e-39
0.0246973121848 0.00145278306969 0.785 9.3120262642e-39
0.026216719701 0.00145648442783 0.787 9.49641472133e-39
0.0277435299334 0.00146018578597 0.789 9.49678186153e-39
0.0292037157194 0.00146018578597 0.789 9.496079811e-39
0.0307027657658 0.00146203646504 0.79 9.86523367455e-39
0.0321648022309 0.00146203646504 0.79 8.94328017851e-39
0.0337119699331 0.00146573782318 0.792 8.94327457332e-39
0.0351777077563 0.00146573782318 0.792 9.40390660191e-39
0.0366434455795 0.00146573782318 0.792 9.3131276848e-39
0.0381091834027 0.00146573782318 0.792 9.77445896132e-39
0.0395749212258 0.00146573782318 0.792 8.48406906656e-39
0.041040659049 0.00146573782318 0.792 9.22128237955e-39
0.0426137362582 0.00146943918132 0.794 9.22060274979e-39
0.0440831754396 0.00146943918132 0.794 4.70266375928e-39
0.0456673567232 0.00147314053946 0.796 1.62264140404e-38
0.0471404972627 0.00147314053946 0.796 2.35098828126e-38
-0.0810190283121 0.00274640773939 0.742 2.06467750136e-38
-0.0793238062842 0.00273530366497 0.739 1.92641964955e-38
-0.0779561544518 0.00273530366497 0.739 1.93574683226e-38
-0.0765885026193 0.00273530366497 0.739 9.67875027621e-39
-0.0752208507868 0.00273530366497 0.739 5.07039250229e-39
-0.0738531989543 0.00273530366497 0.739 6.54620220985e-39
-0.0724855471218 0.00273530366497 0.739 6.17847767074e-39
-0.0711178952893 0.00273530366497 0.739 5.62423189824e-39
-0.0697502434568 0.00273530366497 0.739 6.73023053328e-39
-0.0685676595313 0.00274270638125 0.741 6.73058506179e-39
-0.0672869896151 0.00274640773939 0.742 6.54581965537e-39
-0.0660914509361 0.00275381045567 0.744 6.08591770328e-39
-0.0647145457083 0.00275381045567 0.744 6.36214866306e-39
-0.0633376404804 0.00275381045567 0.744 6.54654132408e-39
-0.0619607352526 0.00275381045567 0.744 6.36215286695e-39
-0.0607466897829 0.00276121317195 0.746 6.26960130728e-39
-0.0593660831969 0.00276121317195 0.746 6.26960410988e-39
-0.0579854766109 0.00276121317195 0.746 6.08521285015e-39
-0.056604870025 0.00276121317195 0.746 6.36180254234e-39
-0.0552982906018 0.00276491453009 0.747 6.17740567742e-39
-0.0539158333367 0.00276491453009 0.747 6.73058225919e-39
-0.0525333760717 0.00276491453009 0.747 6.45399256701e-39
-0.0511509188066 0.00276491453009 0.747 6.17775740333e-39
-0.0499017104346 0.00277231724637 0.749 6.73163883823e-39
-0.0485155518114 0.00277231724637 0.749 6.45505194864e-39
-0.0471293931882 0.00277231724637 0.749 6.54654132408e-39
-0.0456210897465 0.00276491453009 0.747 5.80827703724e-39
-0.0442386324814 0.00276491453009 0.747 5.07068677496e-39
-0.0429709173187 0.00277231724637 0.749 5.80860494108e-39
-0.0416402790676 0.00277601860451 0.75 6.26922996319e-39
-0.0402522697653 0.00277601860451 0.75 6.08448417495e-39
-0.038967898491 0.00278342132079 0.752 6.17776160723e-39
-0.0376761245004 0.00279082403706 0.754 5.90117191504e-39
-0.0363288301376 0.0027945253952 0.755 5.90117051374e-39
-0.03493156744 0.0027945253952 0.755 6.17882939666e-39
-0.0335343047424 0.0027945253952 0.755 6.63873555265e-39
-0.0321370420448 0.0027945253952 0.755 6.08556177347e-39
-0.0308212092263 0.00280192811148 0.757 6.08591770328e-39
-0.0294202451706 0.00280192811148 0.757 7.10006682918e-39
-0.0280192811148 0.00280192811148 0.757 6.45469461754e-39
-0.0266183170591 0.00280192811148 0.757 6.27065788632e-39
-0.0252839774498 0.00280933082776 0.759 6.36320944599e-39
-0.023879312036 0.00280933082776 0.759 6.54759790312e-39
-0.0225338683523 0.00281673354404 0.761 6.36322065638e-39
-0.0211532617663 0.00282043490218 0.762 6.73200317584e-39
-0.0197948633292 0.00282783761846 0.764 6.63908587726e-39
-0.0184290621758 0.00283524033474 0.766 6.73163603564e-39
-0.0170114420084 0.00283524033474 0.766 7.09969548508e-39
-0.015593821841 0.00283524033474 0.766 7.19153518514e-39
-0.0141762016737 0.00283524033474 0.766 7.00642786189e-39
-0.0127585815063 0.00283524033474 0.766 8.11277682155e-39
-0.0113557667715 0.00283894169288 0.767 8.29610309445e-39
-0.00993629592506 0.00283894169288 0.767 7.28159803874e-39
-0.00853903322746 0.00284634440915 0.769 7.00572721266e-39
-0.00713436781358 0.00285374712543 0.771 6.72985638659e-39
-0.00572229968342 0.00286114984171 0.773 6.91424484372e-39
-0.00429172476257 0.00286114984171 0.773 6.26995303319e-39
-0.00286114984171 0.00286114984171 0.773 6.45541628625e-39
-0.00143242559993 0.00286485119985 0.774 6.27210402634e-39
0.0 0.00286485119985 0.774 7.46847800454e-39
0.00143612695806 0.00287225391613 0.776 6.823463124e-39
0.00287225391613 0.00287225391613 0.776 7.10005001359e-39
0.00431948494861 0.00287965663241 0.778 7.37627957208e-39
0.00577411869737 0.00288705934869 0.78 6.63979353299e-39
0.00721764837172 0.00288705934869 0.78 6.91638322517e-39
0.00863896989722 0.00287965663241 0.778 6.91638322517e-39
0.0100787982134 0.00287965663241 0.778 6.82418759531e-39
0.0115630428273 0.00289076070683 0.781 7.28266302557e-39
0.0130084231807 0.00289076070683 0.781 7.55888417626e-39
0.0144538035341 0.00289076070683 0.781 7.46739620212e-39
0.0158991838875 0.00289076070683 0.781 8.0205699813e-39
0.0173889805386 0.0028981634231 0.783 8.75670709707e-39
0.0188380622502 0.0028981634231 0.783 8.94146829959e-39
0.0203389629757 0.00290556613938 0.785 8.84962579694e-39
0.0217917460454 0.00290556613938 0.785 8.66558346054e-39
0.0233037508453 0.00291296885566 0.787 8.94217595532e-39
0.0248231583615 0.00292037157194 0.789 9.21876004231e-39
0.0262833441475 0.00292037157194 0.789 8.66630232665e-39
0.0277786928358 0.00292407293008 0.79 8.85034186046e-39
0.0292407293008 0.00292407293008 0.79 8.6652485502e-39
0.0307804942868 0.00293147564636 0.792 8.66526536578e-39
0.032327661989 0.00293887836264 0.794 8.75746099565e-39
0.0337971011703 0.00293887836264 0.794 9.49502042936e-39
0.0352665403517 0.00293887836264 0.794 1.00489200811e-38
0.036735979533 0.00293887836264 0.794 9.6804906889e-39
0.0382054187143 0.00293887836264 0.794 9.86593572508e-39
0.0396748578956 0.00293887836264 0.794 9.31347800941e-39
0.0411442970769 0.00293887836264 0.794 9.3138549587e-39
0.0427210756443 0.00294628107892 0.796 8.66778349912e-39
0.0441942161837 0.00294628107892 0.796 4.14878652827e-39
0.0457820988255 0.00295368379519 0.798 2.15741291139e-38
-0.0795384850563 0.00411405957188 0.741 1.86184711566e-38
-0.0781671318657 0.00411405957188 0.741 1.94493080226e-38
-0.0767957786751 0.00411405957188 0.741 8.9411852373e-39
-0.0754244254844 0.00411405957188 0.741 5.71576331263e-39
-0.0740530722938 0.00411405957188 0.741 6.08595413704e-39
-0.0726817191032 0.00411405957188 0.741 5.90118452672e-39
-0.0713103659126 0.00411405957188 0.741 5.16397541763e-39
-0.0700333973545 0.00411961160909 0.742 6.82278069165e-39
-0.0688452613918 0.00413071568351 0.744 6.91497351892e-39
-0.0676497227128 0.00414181975792 0.746 6.36214866306e-39
-0.0662691161268 0.00414181975792 0.746 6.45434429292e-39
-0.0648885095408 0.00414181975792 0.746 6.45434569422e-39
-0.0635079029548 0.00414181975792 0.746 6.45434569422e-39
-0.0621272963689 0.00414181975792 0.746 6.36215286695e-39
-0.0608281196619 0.00414737179513 0.747 6.08521004755e-39
-0.0594456623969 0.00414737179513 0.747 5.90081878783e-39
-0.0580632051319 0.00414737179513 0.747 6.26960410988e-39
-0.0568325035505 0.00415847586955 0.749 5.62423470083e-39
-0.0554463449273 0.00415847586955 0.749 5.7164303307e-39
-0.0541323627879 0.00416402790676 0.75 5.80862315796e-39
-0.0527443534856 0.00416402790676 0.75 5.07105811906e-39
-0.0513563441834 0.00416402790676 0.75 4.79482295538e-39
-0.0501015837741 0.00417513198118 0.752 4.70298185403e-39
-0.0487098731137 0.00417513198118 0.752 4.79517888519e-39
-0.0473181624533 0.00417513198118 0.752 5.7164275281e-39
-0.045926451793 0.00417513198118 0.752 5.99266549437e-39
-0.044653184593 0.0041862360556 0.754 6.63836560985e-39
-0.0432577725745 0.0041862360556 0.754 6.54616857869e-39
-0.041917880928 0.0041917880928 0.755 6.82240654496e-39
-0.0405206182304 0.0041917880928 0.755 6.45327229959e-39
-0.0392269935607 0.00420289216722 0.757 6.08521285015e-39
-0.037826029505 0.00420289216722 0.757 6.26995723709e-39
-0.0364250654493 0.00420289216722 0.757 6.27030616041e-39
-0.0350241013935 0.00420289216722 0.757 5.99407099673e-39
-0.0336231373378 0.00420289216722 0.757 6.36250179027e-39
-0.032222173282 0.00420289216722 0.757 6.54689585259e-39
-0.0309026391054 0.00421399624164 0.759 6.36250459287e-39
-0.0294979736915 0.00421399624164 0.759 6.36250179027e-39
-0.0280933082776 0.00421399624164 0.759 6.45505194864e-39
-0.0266886428637 0.00421399624164 0.759 6.08626662659e-39
-0.0253506018964 0.00422510031606 0.761 6.0866225564e-39
-0.0239422351243 0.00422510031606 0.761 6.36320944599e-39
-0.0225634792174 0.00423065235327 0.762 6.27102502652e-39
-0.0212087821384 0.00424175642769 0.764 6.45541628625e-39
-0.0198466823432 0.0042528605021 0.766 6.5468902474e-39
-0.0184290621758 0.0042528605021 0.766 6.63944040577e-39
-0.0170336501573 0.00425841253931 0.767 7.00749985522e-39
-0.0156141793108 0.00425841253931 0.767 7.283730815e-39
-0.0142317220458 0.00426951661373 0.769 6.45325408271e-39
-0.0128085498412 0.00426951661373 0.769 6.54545111388e-39
-0.0113557667715 0.00425841253931 0.767 5.43947209701e-39
-0.00993629592506 0.00425841253931 0.767 6.63873555265e-39
-0.0085612413763 0.00428062068815 0.771 6.17775740333e-39
-0.00715287460428 0.00429172476257 0.773 6.45541908884e-39
-0.00572229968342 0.00429172476257 0.773 6.27102782912e-39
-0.00429172476257 0.00429172476257 0.773 6.64088654579e-39
-0.00286485119985 0.00429727679978 0.774 6.82599386903e-39
-0.00143612695806 0.00430838087419 0.776 5.99623320026e-39
0.0 0.00430838087419 0.776 7.46847520194e-39
0.0014398283162 0.00431948494861 0.778 7.00641665151e-39
0.00287965663241 0.00431948494861 0.778 6.91493708516e-39
0.00433614106024 0.00433614106024 0.781 6.8227414553e-39
0.00578152141365 0.00433614106024 0.781 6.73126469154e-39
0.00722690176707 0.00433614106024 0.781 6.54759650183e-39
0.00867228212048 0.00433614106024 0.781 6.82454772902e-39
0.0101176624739 0.00433614106024 0.781 7.00894179134e-39
0.0115926536924 0.00434724513466 0.783 7.2844580889e-39
0.013041735404 0.00434724513466 0.783 7.92910442794e-39
0.0144908171155 0.00434724513466 0.783 7.7439929008e-39
0.0159398988271 0.00434724513466 0.783 8.38899937354e-39
0.0173889805386 0.00434724513466 0.783 7.92766669571e-39
0.018886179906 0.00435834920908 0.785 8.20390326069e-39
0.0203389629757 0.00435834920908 0.785 8.11242649694e-39
0.0218472664175 0.00436945328349 0.787 8.29753382018e-39
0.0233629725755 0.00438055735791 0.789 8.29609889055e-39
0.0248546199057 0.00438610939512 0.79 8.47976708027e-39
0.0263166563707 0.00438610939512 0.79 7.74327823858e-39
0.0277786928358 0.00438610939512 0.79 8.57268998404e-39
0.0293147564636 0.00439721346954 0.792 9.40210873598e-39
0.0308582228077 0.00440831754396 0.794 1.03237189139e-38
0.0324090918681 0.00441942161837 0.796 9.95458046463e-39
0.0338822324075 0.00441942161837 0.796 9.49467430864e-39
0.035355372947 0.00441942161837 0.796 7.74295453864e-39
0.0369210474399 0.00443052569279 0.798 9.21881048906e-39
0.0383978893375 0.00443052569279 0.798 9.49715320562e-39
0.0398747312351 0.00443052569279 0.798 8.94434516534e-39
0.0413515731327 0.00443052569279 0.798 9.4975413653e-39
0.0428284150303 0.00443052569279 0.798 8.29900097967e-39
0.0443052569279 0.00443052569279 0.798 4.70197712303e-39
-0.0796458244424 0.00549281547878 0.742 1.96326258877e-38
-0.0782726205727 0.00549281547878 0.742 1.94493108252e-38
-0.076899416703 0.00549281547878 0.742 9.2177707256e-39
-0.0755262128333 0.00549281547878 0.742 4.70197432043e-39
-0.0741530089636 0.00549281547878 0.742 6.26999367085e-39
-0.0729759770753 0.00550762091134 0.744 5.53312928117e-39
-0.0715990718474 0.00550762091134 0.744 5.80898889686e-39
-0.0704109358847 0.0055224263439 0.746 6.63910549544e-39
-0.0691228632522 0.00552982906018 0.747 7.09936197605e-39
-0.0677404059872 0.00552982906018 0.747 6.73093258381e-39
-0.0665356139128 0.00554463449273 0.749 6.36215006436e-39
-0.0651494552896 0.00554463449273 0.749 6.82313101627e-39
-0.0637632966664 0.00554463449273 0.749 5.34800093846e-39
-0.0623771380433 0.00554463449273 0.749 6.08556597736e-39
-0.0609909794201 0.00554463449273 0.749 5.53239219818e-39
-0.0596048207969 0.00554463449273 0.749 4.97886248919e-39
-0.0582963906946 0.00555203720901 0.75 4.05690619056e-39
-0.0569083813924 0.00555203720901 0.75 5.43984063851e-39
-0.0555203720901 0.00555203720901 0.75 6.36072073992e-39
-0.0542767157553 0.00556684264157 0.752 6.17668260741e-39
-0.0528850050949 0.00556684264157 0.752 6.26923276578e-39
-0.0516302446857 0.00558164807413 0.754 6.08483870346e-39
-0.0503014571137 0.00558905079041 0.755 6.7302081125e-39
-0.0489041944161 0.00558905079041 0.755 6.26887823727e-39
-0.0475069317185 0.00558905079041 0.755 6.82169888924e-39
-0.0461096690209 0.00558905079041 0.755 6.82170309313e-39
-0.0448308497837 0.00560385622296 0.757 5.99371646822e-39
-0.043429885728 0.00560385622296 0.757 6.27066068892e-39
-0.0420289216722 0.00560385622296 0.757 6.45470022273e-39
-0.0407352970025 0.00561866165552 0.759 6.45399256701e-39
-0.0393306315886 0.00561866165552 0.759 6.54546792946e-39
-0.0379259661748 0.00561866165552 0.759 6.26887543467e-39
-0.0366175360725 0.00563346708808 0.761 7.19153938903e-39
-0.0352091693005 0.00563346708808 0.761 6.2695788865e-39
-0.0338008025285 0.00563346708808 0.761 6.82275686958e-39
-0.0323924357565 0.00563346708808 0.761 6.08483590086e-39
-0.0309840689844 0.00563346708808 0.761 6.73020530991e-39
-0.0295757022124 0.00563346708808 0.761 6.45397435013e-39
-0.0281673354404 0.00563346708808 0.761 6.82275546828e-39
-0.0267589686684 0.00563346708808 0.761 6.73055703582e-39
-0.0253839141196 0.00564086980436 0.762 7.19189111495e-39
-0.0239736966685 0.00564086980436 0.762 7.09969548508e-39
-0.0226227009477 0.00565567523691 0.764 6.63980754597e-39
-0.0212643025105 0.00567048066947 0.766 6.54761191611e-39
-0.0198725918501 0.00567788338575 0.767 6.45469461754e-39
-0.0184531210037 0.00567788338575 0.767 6.27065788632e-39
-0.0170780664549 0.00569268881831 0.769 5.808956667e-39
-0.0156548942503 0.00569268881831 0.769 5.5320138476e-39
-0.0142317220458 0.00569268881831 0.769 5.71568904381e-39
-0.0128085498412 0.00569268881831 0.769 6.63764674374e-39
-0.0113853776366 0.00569268881831 0.769 7.19082332552e-39
-0.00996220543204 0.00569268881831 0.769 7.09862769565e-39
-0.00859455359955 0.0057297023997 0.774 6.91459656963e-39
-0.00716212799963 0.0057297023997 0.774 7.19153938903e-39
-0.0057297023997 0.0057297023997 0.774 6.73056123972e-39
-0.00429727679978 0.0057297023997 0.774 6.54724757851e-39
-0.00287225391613 0.00574450783226 0.776 6.8238344681e-39
-0.0014398283162 0.00575931326482 0.778 6.45504914605e-39
0.0 0.00577411869737 0.78 7.28264901259e-39
0.00144352967434 0.00577411869737 0.78 6.35996964394e-39
0.00288705934869 0.00577411869737 0.78 7.00641665151e-39
0.00433614106024 0.00578152141365 0.781 7.28371960461e-39
0.00578152141365 0.00578152141365 0.781 7.28444127332e-39
0.00724540855776 0.00579632684621 0.783 6.91638042258e-39
0.00869449026931 0.00579632684621 0.783 7.19297011476e-39
0.0101435719809 0.00579632684621 0.783 7.28553148353e-39
0.0115926536924 0.00579632684621 0.783 7.46956821474e-39
0.013041735404 0.00579632684621 0.783 7.46957101734e-39
0.0144908171155 0.00579632684621 0.783 8.11314256045e-39
0.0159398988271 0.00579632684621 0.783 8.20497525401e-39
0.0174333968363 0.00581113227877 0.785 7.4670542853e-39
0.0189342975618 0.00582593771132 0.787 7.65144834762e-39
0.0204426010036 0.00584074314388 0.789 6.7305794566e-39
0.0219027867896 0.00584074314388 0.789 6.08557578645e-39
0.0233925834406 0.00584814586016 0.79 7.09720958161e-39
0.0249175429941 0.00586295129272 0.792 8.29430803111e-39
0.0263832808172 0.00586295129272 0.792 9.77015417244e-39
0.0278490186404 0.00586295129272 0.792 9.30882709981e-39
0.0293887836264 0.00587775672528 0.794 8.94006279723e-39
0.0309359513286 0.00589256215783 0.796 9.76911861288e-39
0.0324090918681 0.00589256215783 0.796 1.08754661712e-38
0.0338822324075 0.00589256215783 0.796 1.17984972658e-38
0.0354442055423 0.00590736759039 0.798 1.38271528487e-38
0.0369210474399 0.00590736759039 0.798 1.08769011009e-38
0.0383978893375 0.00590736759039 0.798 9.12837348877e-39
0.0398747312351 0.00590736759039 0.798 9.12838189656e-39
0.0413515731327 0.00590736759039 0.798 9.49718683679e-39
0.0428284150303 0.00590736759039 0.798 7.83838436536e-39
-0.0798605032144 0.00688452613918 0.744 1.92638447696e-38
-0.0784835979866 0.00688452613918 0.744 1.97255431863e-38
-0.0771066927588 0.00688452613918 0.744 1.10616805203e-38
-0.0757297875309 0.00688452613918 0.744 4.88672150997e-39
-0.0743528823031 0.00688452613918 0.744 5.90157689029e-39
-0.0731721490567 0.00690303292987 0.746 5.62497318512e-39
-0.0718877777823 0.00691228632522 0.747 6.17849588762e-39
-0.0705053205173 0.00691228632522 0.747 6.27032297599e-39
-0.0693079311592 0.00693079311592 0.749 6.36251860585e-39
-0.067921772536 0.00693079311592 0.749 4.79519289817e-39
-0.0666244465082 0.00694004651127 0.75 5.71678345791e-39
-0.0652364372059 0.00694004651127 0.75 6.45434849682e-39
-0.0638484279037 0.00694004651127 0.75 5.90117471764e-39
-0.0624604186014 0.00694004651127 0.75 6.63873975654e-39
-0.0610724092991 0.00694004651127 0.75 6.73093538641e-39
-0.0598435583969 0.00695855330196 0.752 6.45434849682e-39
-0.0584518477365 0.00695855330196 0.752 6.54654412668e-39
-0.0570601370761 0.00695855330196 0.752 6.54654412668e-39
-0.0556684264157 0.00695855330196 0.752 5.99229415028e-39
-0.0542767157553 0.00695855330196 0.752 5.90045024633e-39
-0.0530256567042 0.00697706009266 0.754 6.36177872026e-39
-0.0516987198113 0.00698631348801 0.755 6.54616857869e-39
-0.0504347060067 0.0070048202787 0.757 6.54581965537e-39
-0.0490337419509 0.0070048202787 0.757 6.08413385033e-39
-0.0476327778952 0.0070048202787 0.757 6.36072073992e-39
-0.0462318138395 0.0070048202787 0.757 6.54546792946e-39
-0.0449492932442 0.0070233270694 0.759 6.17811333314e-39
-0.0435446278303 0.0070233270694 0.759 6.08591490068e-39
-0.0421399624164 0.0070233270694 0.759 5.90152644355e-39
-0.0407352970025 0.0070233270694 0.759 5.90117051374e-39
-0.0394342696166 0.0070418338601 0.761 5.90045024633e-39
-0.0380259028445 0.0070418338601 0.761 6.36142559305e-39
-0.0366175360725 0.0070418338601 0.761 5.43982242163e-39
-0.0352554362772 0.00705108725545 0.762 6.08447156326e-39
-0.0338452188261 0.00705108725545 0.762 6.82275686958e-39
-0.0324350013751 0.00705108725545 0.762 6.54616997999e-39
-0.031024783924 0.00705108725545 0.762 6.91495249944e-39
-0.0296922949938 0.00706959404614 0.764 6.73055983842e-39
-0.0282783761846 0.00706959404614 0.764 6.91494829555e-39
-0.0268644573753 0.00706959404614 0.764 6.54616577609e-39
-0.0254505385661 0.00706959404614 0.764 6.36213044618e-39
-0.0240366197569 0.00706959404614 0.764 6.17773918645e-39
-0.0226819226779 0.00708810083684 0.766 5.44054549164e-39
-0.0212920626966 0.00709735423219 0.767 5.71785124734e-39
-0.0199244108641 0.00711586102289 0.769 6.36249898767e-39
-0.0185012386595 0.00711586102289 0.769 6.91602729536e-39
-0.0171224827526 0.00713436781358 0.771 7.19189111495e-39
-0.0157363241294 0.00715287460428 0.773 7.56031770459e-39
-0.0143057492086 0.00715287460428 0.773 7.55960164107e-39
-0.0128751742877 0.00715287460428 0.773 7.09862489306e-39
-0.0114445993668 0.00715287460428 0.773 7.00498872837e-39
-0.0100269791995 0.00716212799963 0.774 7.37377124783e-39
-0.00861676174839 0.00718063479032 0.776 6.91279309851e-39
-0.00718063479032 0.00718063479032 0.776 6.82059466605e-39
-0.00574450783226 0.00718063479032 0.776 6.26849708409e-39
-0.00431948494861 0.00719914158102 0.778 6.36104864376e-39
-0.00288705934869 0.00721764837172 0.78 7.09861228137e-39
-0.00144352967434 0.00721764837172 0.78 7.37519917096e-39
0.0 0.00721764837172 0.78 7.83582839696e-39
0.00144538035341 0.00722690176707 0.781 8.75778469559e-39
0.00289076070683 0.00722690176707 0.781 8.38899937354e-39
0.00434724513466 0.00724540855776 0.783 7.74434602801e-39
0.00579632684621 0.00724540855776 0.783 7.00677818651e-39
0.00726391534846 0.00726391534846 0.785 6.91458816184e-39
0.00871669841815 0.00726391534846 0.785 7.19153938903e-39
0.0101694814878 0.00726391534846 0.785 7.46777595401e-39
0.0116222645575 0.00726391534846 0.785 7.46921508753e-39
0.0130750476272 0.00726391534846 0.785 6.54654412668e-39
0.0145278306969 0.00726391534846 0.785 6.45255343348e-39
0.0159806137666 0.00726391534846 0.785 6.54330712723e-39
0.0175222294316 0.00730092892985 0.789 7.00428247395e-39
0.0189824152176 0.00730092892985 0.789 7.55853805554e-39
0.0204685105106 0.0073101823252 0.79 9.12623790991e-39
0.0219860673477 0.0073286891159 0.792 1.11556347797e-38
0.0235110269011 0.00734719590659 0.794 1.18895998829e-38
0.0249804660824 0.00734719590659 0.794 1.28101100415e-38
0.0264499052637 0.00734719590659 0.794 1.30881290581e-38
0.0279896702497 0.00736570269729 0.796 1.22580180647e-38
0.0294628107892 0.00736570269729 0.796 1.17966965973e-38
0.0310136798495 0.00738420948799 0.798 1.01368263364e-38
0.0324905217471 0.00738420948799 0.798 9.12375340773e-39
0.0339673636447 0.00738420948799 0.798 1.11520530608e-38
0.0355330381377 0.00740271627868 0.8 1.08765367633e-38
0.0370135813934 0.00740271627868 0.8 1.01393276542e-38
0.0384941246492 0.00740271627868 0.8 9.03510166168e-39
0.0399746679049 0.00740271627868 0.8 9.31312908609e-39
0.0414552111606 0.00740271627868 0.8 9.31315010557e-39
0.0429357544164 0.00740271627868 0.8 6.7320396096e-39
-0.0870892556606 0.00842799248328 0.759 2.34155319856e-38
-0.0801825213726 0.00829474359027 0.747 2.00010538787e-38
-0.0788000641075 0.00829474359027 0.747 1.99099372486e-38
-0.0774176068425 0.00829474359027 0.747 1.20761827734e-38
-0.0760351495774 0.00829474359027 0.747 4.79452447881e-39
-0.0746526923124 0.00829474359027 0.747 5.71682970076e-39
-0.0732702350473 0.00829474359027 0.747 5.80973018375e-39
-0.0720802484055 0.0083169517391 0.749 5.44093084871e-39
-0.0707884744149 0.00832805581352 0.75 5.90226352654e-39
-0.0694004651127 0.00832805581352 0.75 7.19192334481e-39
-0.0680124558104 0.00832805581352 0.75 6.17777562021e-39
-0.0668021116988 0.00835026396236 0.752 5.43984344111e-39
-0.0654104010385 0.00835026396236 0.752 5.90081878783e-39
-0.0640186903781 0.00835026396236 0.752 5.9933703475e-39
-0.0626269797177 0.00835026396236 0.752 6.45434849682e-39
-0.0612352690573 0.00835026396236 0.752 6.63873975654e-39
-0.0600027167969 0.00837247211119 0.754 5.9933703475e-39
-0.0586073047783 0.00837247211119 0.754 6.45434849682e-39
-0.0572118927598 0.00837247211119 0.754 6.26995723709e-39
-0.0558164807413 0.00837247211119 0.754 6.63766075672e-39
-0.0544932452065 0.00838357618561 0.755 6.45325828661e-39
-0.0530959825089 0.00838357618561 0.755 6.45360440733e-39
-0.0518356700624 0.00840578433445 0.757 6.2692159502e-39
-0.0504347060067 0.00840578433445 0.757 6.4529023568e-39
-0.0490337419509 0.00840578433445 0.757 6.26816497635e-39
-0.0477586240719 0.00842799248328 0.759 6.26816497635e-39
-0.0463539586581 0.00842799248328 0.759 6.4529065607e-39
-0.0449492932442 0.00842799248328 0.759 6.36215006436e-39
-0.0435446278303 0.00842799248328 0.759 6.08628204088e-39
-0.0422510031606 0.00845020063212 0.761 6.08591490068e-39
-0.0408426363886 0.00845020063212 0.761 6.17846505905e-39
-0.0394342696166 0.00845020063212 0.761 6.63836140596e-39
-0.0380758711794 0.00846130470654 0.762 6.54616857869e-39
-0.0367618890399 0.00848351285537 0.764 6.45325548401e-39
-0.0353479702307 0.00848351285537 0.764 6.72948924639e-39
-0.0339340514215 0.00848351285537 0.764 6.26886422429e-39
-0.0325201326123 0.00848351285537 0.764 6.36105845285e-39
-0.0311876436821 0.00850572100421 0.766 6.08447156326e-39
-0.0297700235147 0.00850572100421 0.766 5.80824060348e-39
-0.0283524033474 0.00850572100421 0.766 5.99263186321e-39
-0.02693478318 0.00850572100421 0.766 6.17702312293e-39
-0.0255171630126 0.00850572100421 0.766 6.54580283979e-39
-0.0240995428453 0.00850572100421 0.766 6.91458535924e-39
-0.022711533543 0.00851682507863 0.767 7.00787119931e-39
-0.0212920626966 0.00851682507863 0.767 6.91639443556e-39
-0.019976229878 0.0085612413763 0.771 7.00786839672e-39
-0.0185974739711 0.00858344952513 0.773 6.91602729536e-39
-0.0171891071991 0.00859455359955 0.774 6.82310859549e-39
-0.0157566815992 0.00859455359955 0.774 6.82275266568e-39
-0.0143242559993 0.00859455359955 0.774 6.82203660217e-39
-0.0128918303993 0.00859455359955 0.774 6.63764674374e-39
-0.0114594047994 0.00859455359955 0.774 6.35961931933e-39
-0.0100528887065 0.00861676174839 0.776 7.00498872837e-39
-0.00863896989722 0.00863896989722 0.778 7.09718155564e-39
-0.00719914158102 0.00863896989722 0.778 7.28192874517e-39
-0.00575931326482 0.00863896989722 0.778 8.4804677295e-39
-0.00433058902303 0.00866117804606 0.78 8.57301648658e-39
-0.00289076070683 0.00867228212048 0.781 8.57301368398e-39
-0.00144538035341 0.00867228212048 0.781 8.20386822823e-39
0.0 0.00867228212048 0.781 7.4670542853e-39
0.00144908171155 0.00869449026931 0.783 6.4529065607e-39
0.0028981634231 0.00869449026931 0.783 6.26886702688e-39
0.00435834920908 0.00871669841815 0.785 6.7298423736e-39
0.00581113227877 0.00871669841815 0.785 7.46704587751e-39
0.00728242213916 0.00873890656699 0.787 7.28230008927e-39
0.00873890656699 0.00873890656699 0.787 7.37414399322e-39
0.0101953909948 0.00873890656699 0.787 7.3737936686e-39
0.0116518754226 0.00873890656699 0.787 6.9131686465e-39
0.0131083598505 0.00873890656699 0.787 8.29431083371e-39
0.0145648442783 0.00873890656699 0.787 1.02275506029e-38
0.0160620436457 0.00876111471582 0.789 1.09636765083e-38
0.0175888538782 0.00879442693908 0.792 1.40064812171e-38
0.0191027093571 0.00881663508791 0.794 1.30852465872e-38
0.0205721485385 0.00881663508791 0.794 1.27179186155e-38
0.0220971080919 0.00883884323675 0.796 1.14275637532e-38
0.0235702486313 0.00883884323675 0.796 7.18655497039e-39
0.0250433891708 0.00883884323675 0.796 5.52630355635e-39
0.0265165297102 0.00883884323675 0.796 4.69689881739e-39
0.0279896702497 0.00883884323675 0.796 7.74007767289e-39
0.0295368379519 0.00886105138558 0.798 1.05974373455e-38
0.0310914083705 0.00888325953442 0.8 1.21651301934e-38
0.0325719516262 0.00888325953442 0.8 1.19807389337e-38
0.0340524948819 0.00888325953442 0.8 1.27186585011e-38
0.035621870733 0.00890546768326 0.802 1.08761766296e-38
0.0371061153469 0.00890546768326 0.802 1.07853991137e-38
0.0385903599608 0.00890546768326 0.802 9.03474713317e-39
0.0400746045747 0.00890546768326 0.802 9.77374289781e-39
0.0416106682025 0.00891657175768 0.803 9.95922717034e-39
0.0430967634954 0.00891657175768 0.803 5.53314609676e-39
-0.0870892556606 0.00983265789716 0.759 2.35091681503e-38
-0.0856845902467 0.00983265789716 0.759 1.83429744772e-38
-0.0842799248328 0.00983265789716 0.759 2.02776407682e-38
-0.0826568792887 0.00980674839019 0.757 1.86181194307e-38
-0.081255915233 0.00980674839019 0.757 1.91712932099e-38
-0.0791165302284 0.00971606511577 0.75 1.9633350359e-38
-0.0777285209262 0.00971606511577 0.75 1.17088337823e-38
-0.0763405116239 0.00971606511577 0.75 4.88671730607e-39
-0.0749525023217 0.00971606511577 0.75 5.71683110206e-39
-0.0735644930194 0.00971606511577 0.75 5.44095046689e-39
-0.0721764837172 0.00971606511577 0.75 5.25654239158e-39
-0.07097724368 0.00974197462275 0.752 6.45543730572e-39
-0.0695855330196 0.00974197462275 0.752 6.73094659679e-39
-0.0681938223592 0.00974197462275 0.752 6.26961812286e-39
-0.0669797768895 0.00976788412972 0.754 6.82278069165e-39
-0.065584364871 0.00976788412972 0.754 6.26960130728e-39
-0.0641889528525 0.00976788412972 0.754 5.99301441769e-39
-0.0627935408339 0.00976788412972 0.754 5.9933703475e-39
-0.0613981288154 0.00976788412972 0.754 6.17776160723e-39
-0.0600822959969 0.00978083888321 0.755 5.80897908777e-39
-0.0586850332993 0.00978083888321 0.755 5.9933703475e-39
-0.0572877706017 0.00978083888321 0.755 6.08556597736e-39
-0.0558905079041 0.00978083888321 0.755 6.08412404124e-39
-0.0546375981739 0.00980674839019 0.757 5.90008030353e-39
-0.0532366341182 0.00980674839019 0.757 6.08517781769e-39
-0.0519726203136 0.00983265789716 0.759 6.08517921899e-39
-0.0505679548997 0.00983265789716 0.759 6.54509798666e-39
-0.0491632894858 0.00983265789716 0.759 6.9135343854e-39
-0.0477586240719 0.00983265789716 0.759 6.82133595294e-39
-0.0463539586581 0.00983265789716 0.759 6.63729361653e-39
-0.0450677367046 0.00985856740414 0.761 6.82277508646e-39
-0.0436593699326 0.00985856740414 0.761 6.63910269284e-39
-0.0422510031606 0.00985856740414 0.761 6.27102502652e-39
-0.0408963060816 0.00987152215763 0.762 5.99442412394e-39
-0.0394860886305 0.00987152215763 0.762 6.36248217209e-39
-0.0381758078492 0.0098974316646 0.764 5.71604217102e-39
-0.0368581243516 0.00992334117158 0.766 6.26886702688e-39
-0.0354405041842 0.00992334117158 0.766 5.71534152179e-39
-0.0340228840168 0.00992334117158 0.766 6.08447296456e-39
-0.0326478294681 0.00993629592506 0.767 7.0067837917e-39
-0.0312283586216 0.00993629592506 0.767 6.73019690211e-39
-0.0298088877752 0.00993629592506 0.767 7.0067837917e-39
-0.0283894169288 0.00993629592506 0.767 7.28337068129e-39
-0.0269699460823 0.00993629592506 0.767 7.83654446047e-39
-0.0255504752359 0.00993629592506 0.767 7.55995476829e-39
-0.0241310043894 0.00993629592506 0.767 7.19117224883e-39
-0.0227707552732 0.00996220543204 0.769 6.91567556945e-39
-0.0214031034407 0.00998811493901 0.771 6.73200317584e-39
-0.020053958399 0.0100269791995 0.774 6.82347713699e-39
-0.018621532799 0.0100269791995 0.774 6.73163603564e-39
-0.0172335234968 0.0100528887065 0.776 7.28408674481e-39
-0.0157973965387 0.0100528887065 0.776 7.00714392541e-39
-0.0143612695806 0.0100528887065 0.776 7.19081912162e-39
-0.0129251426226 0.0100528887065 0.776 7.55960304237e-39
-0.0114890156645 0.0100528887065 0.776 7.92838556183e-39
-0.0101047077204 0.0101047077204 0.78 7.37485024764e-39
-0.00867228212048 0.0101176624739 0.781 7.55923870477e-39
-0.00722690176707 0.0101176624739 0.781 7.46739620212e-39
-0.00578152141365 0.0101176624739 0.781 7.37519636836e-39
-0.00434724513466 0.0101435719809 0.783 6.73018008653e-39
-0.0028981634231 0.0101435719809 0.783 6.54614896051e-39
-0.00144908171155 0.0101435719809 0.783 7.0993143319e-39
0.0 0.0101435719809 0.783 8.20534099291e-39
0.00145278306969 0.0101694814878 0.785 7.65145955801e-39
0.00291296885566 0.0101953909948 0.787 8.66596181112e-39
0.00436945328349 0.0101953909948 0.787 8.29681495407e-39
0.00582593771132 0.0101953909948 0.787 7.09791163214e-39
0.00730092892985 0.0102213005018 0.789 7.18867373367e-39
0.00876111471582 0.0102213005018 0.789 7.64930155837e-39
0.0102342552553 0.0102342552553 0.79 8.10920911566e-39
0.0116962917203 0.0102342552553 0.79 9.67472854962e-39
0.0131583281854 0.0102342552553 0.79 1.08707578084e-38
0.0146573782318 0.0102601647623 0.792 1.04069140037e-38
0.0161638309945 0.0102860742692 0.794 9.57499393402e-39
0.0176776864735 0.0103119837762 0.796 7.54739773275e-39
0.019150827013 0.0103119837762 0.796 7.73214912618e-39
0.0206239675524 0.0103119837762 0.796 5.7060256896e-39
0.022152628464 0.0103378932832 0.798 7.73471630497e-39
0.0236294703616 0.0103378932832 0.798 1.03190581952e-38
0.0251063122592 0.0103378932832 0.798 1.27168494248e-38
0.0265831541568 0.0103378932832 0.798 1.22565845364e-38
0.0280599960544 0.0103378932832 0.798 1.05048703716e-38
0.0296848922775 0.0103897122971 0.802 9.58328821963e-39
0.0311691368914 0.0103897122971 0.802 8.38439330549e-39
0.0326533815053 0.0103897122971 0.802 8.29219487303e-39
0.0341801917378 0.0104026670506 0.803 8.66204798451e-39
0.035755119626 0.0104285765576 0.805 9.95422033093e-39
0.0372449162771 0.0104285765576 0.805 1.02329273851e-38
0.0387347129282 0.0104285765576 0.805 9.03474713317e-39
0.0402245095793 0.0104285765576 0.805 9.58934603289e-39
0.0417143062304 0.0104285765576 0.805 8.85250546529e-39
-0.0874334819675 0.0112817396087 0.762 2.32315064648e-38
-0.0856845902467 0.011237323311 0.759 1.74217398473e-38
-0.0842799248328 0.011237323311 0.759 1.89869047528e-38
-0.0826568792887 0.0112077124459 0.757 1.92631259034e-38
-0.081255915233 0.0112077124459 0.757 1.90790891722e-38
-0.0796439737633 0.0111781015808 0.755 1.97244557787e-38
-0.0781430730378 0.0111632961483 0.754 1.22598579696e-38
-0.0765440863216 0.0111336852831 0.752 5.5313748555e-39
-0.0751523756612 0.0111336852831 0.752 6.27000488124e-39
-0.0737606650008 0.0111336852831 0.752 5.16436077471e-39
-0.0723689543404 0.0111336852831 0.752 5.16506562783e-39
-0.07097724368 0.0111336852831 0.752 6.54763293559e-39
-0.0697706009266 0.0111632961483 0.754 6.91533645522e-39
-0.0683751889081 0.0111632961483 0.754 6.36144521123e-39
-0.0669797768895 0.0111632961483 0.754 6.54509798666e-39
-0.0656713467873 0.0111781015808 0.755 6.54545391647e-39
-0.0642740840897 0.0111781015808 0.755 5.53238939559e-39
-0.0628768213921 0.0111781015808 0.755 6.17812734612e-39
-0.0614795586945 0.0111781015808 0.755 6.17885041613e-39
-0.0600822959969 0.0111781015808 0.755 5.90261665376e-39
-0.0588404903411 0.0112077124459 0.757 5.53418726152e-39
-0.0574395262854 0.0112077124459 0.757 6.17882939666e-39
-0.0560385622296 0.0112077124459 0.757 6.36142279045e-39
-0.0546375981739 0.0112077124459 0.757 6.73056123972e-39
-0.0532366341182 0.0112077124459 0.757 7.00714812931e-39
-0.0519726203136 0.011237323311 0.759 6.36142279045e-39
-0.0505679548997 0.011237323311 0.759 6.26923276578e-39
-0.0492928370207 0.0112669341762 0.761 6.26887543467e-39
-0.0478844702487 0.0112669341762 0.761 4.79410268797e-39
-0.0464761034766 0.0112669341762 0.761 5.07068397237e-39
-0.0450677367046 0.0112669341762 0.761 5.53094605817e-39
