# .PCD v0.7 - Point Cloud Data file format
VERSION 0.7
FIELDS x y z rgb
SIZE 4 4 4 4
TYPE F F F F
COUNT 1 1 1 1
WIDTH 853
HEIGHT 1
VIEWPOINT 0 0 0 1 0 0 0
POINTS 853
DATA ascii
-0.013732038697 -0.00274640773939 0.742 1.16036509182e-38
-0.0123588348273 -0.00274640773939 0.742 8.00766962764e-39
-0.0109856309576 -0.00274640773939 0.742 8.46829464974e-39
-0.00959947233438 -0.00274270638125 0.741 1.07735413261e-38
-0.00822811914376 -0.00274270638125 0.741 1.12327188069e-38
-0.00683825916243 -0.00273530366497 0.739 1.16933326186e-38
-0.00546320461367 -0.00273160230683 0.738 8.92817978626e-39
-0.00409740346025 -0.00273160230683 0.738 1.1511458091e-38
-0.00273160230683 -0.00273160230683 0.738 1.14221435307e-38
-0.00136209979528 -0.00272419959056 0.736 1.07789335226e-38
0.0 -0.00272419959056 0.736 1.09618814449e-38
0.00136209979528 -0.00272419959056 0.736 6.26060637244e-39
0.00272419959056 -0.00272419959056 0.736 6.63009374502e-39
0.00408629938583 -0.00272419959056 0.736 7.64496453963e-39
0.00544839918111 -0.00272419959056 0.736 9.76583537058e-39
0.00681049897639 -0.00272419959056 0.736 1.17941518393e-38
0.00815039062283 -0.00271679687428 0.734 1.00427908017e-38
0.00950878905997 -0.00271679687428 0.734 7.55385771867e-39
0.0108671874971 -0.00271679687428 0.734 7.64784841187e-39
0.0122255859342 -0.00271679687428 0.734 7.37162445858e-39
0.0135839843714 -0.00271679687428 0.734 7.64785962225e-39
0.0149423828085 -0.00271679687428 0.734 6.8191807559e-39
0.0163007812457 -0.00271679687428 0.734 7.28051903892e-39
0.0176591796828 -0.00271679687428 0.734 7.46670255938e-39
0.0190175781199 -0.00271679687428 0.734 7.55924991516e-39
0.020348216371 -0.00271309551614 0.733 6.91495109814e-39
0.0217047641291 -0.00271309551614 0.733 7.46740601121e-39
0.0230613118872 -0.00271309551614 0.733 7.65216441114e-39
0.0243512351987 -0.00270569279986 0.731 6.54618819687e-39
0.0256689186963 -0.00270199144172 0.73 6.17777141631e-39
0.0270199144172 -0.00270199144172 0.73 6.63982856545e-39
0.0282931816171 -0.00269458872544 0.728 5.81150282631e-39
0.0296404759799 -0.00269458872544 0.728 5.53528728081e-39
0.0310729015798 -0.00270199144172 0.73 2.0322232888e-39
-0.107809458525 -0.0014768418976 0.798 2.35098856151e-38
-0.106066118841 -0.00147314053946 0.796 2.35098828126e-38
-0.103804589018 -0.00146203646504 0.79 2.35098828126e-38
-0.101694814878 -0.00145278306969 0.785 2.35098856151e-38
-0.100242031809 -0.00145278306969 0.785 2.35098856151e-38
-0.0985375563856 -0.00144908171155 0.783 2.35098758061e-38
-0.097088474674 -0.00144908171155 0.783 1.68693381836e-38
-0.0956393929625 -0.00144908171155 0.783 3.87151440373e-39
-0.0939497229719 -0.00144538035341 0.781 7.56074650192e-39
-0.0925043426184 -0.00144538035341 0.781 7.65149599177e-39
-0.091058962265 -0.00144538035341 0.781 8.8500279696e-39
-0.0894988398093 -0.00144352967434 0.78 9.49466029565e-39
-0.0876037444419 -0.00143612695806 0.776 9.49321695824e-39
-0.0861676174839 -0.00143612695806 0.776 1.03211811624e-38
-0.0847314905258 -0.00143612695806 0.776 9.49107016899e-39
-0.0830806847957 -0.00143242559993 0.774 9.12264077675e-39
-0.0816482591957 -0.00143242559993 0.774 1.05066500206e-38
-0.0802158335958 -0.00143242559993 0.774 9.21805518918e-39
-0.0786816206471 -0.00143057492086 0.773 9.40281078651e-39
-0.0772510457262 -0.00143057492086 0.773 9.31026483203e-39
-0.075624298824 -0.00142687356272 0.771 8.85000554883e-39
-0.074004954638 -0.00142317220458 0.769 8.02167420449e-39
-0.0725817824334 -0.00142317220458 0.769 7.93019463814e-39
-0.0711586102289 -0.00142317220458 0.769 7.19227647202e-39
-0.0697354380243 -0.00142317220458 0.769 6.82314222666e-39
-0.0683122658197 -0.00142317220458 0.769 6.73094659679e-39
-0.0666281478663 -0.00141762016737 0.766 7.46815850849e-39
-0.0652105276989 -0.00141762016737 0.766 7.55964227873e-39
-0.0636263464153 -0.00141391880923 0.764 7.55963947613e-39
-0.0622124276061 -0.00141391880923 0.764 7.74365939177e-39
-0.0607985087968 -0.00141391880923 0.764 7.55961425276e-39
-0.0592291329458 -0.00141021745109 0.762 7.28266302557e-39
-0.0578189154947 -0.00141021745109 0.762 7.09827176584e-39
-0.0564086980436 -0.00141021745109 0.762 7.28268124245e-39
-0.0549263041088 -0.00140836677202 0.761 7.19012968278e-39
-0.0535179373367 -0.00140836677202 0.761 7.00609295156e-39
-0.0521095705647 -0.00140836677202 0.761 6.91424764631e-39
-0.0505679548997 -0.00140466541388 0.759 6.82240654496e-39
-0.0491632894858 -0.00140466541388 0.759 7.28337908909e-39
-0.0475069317185 -0.0013972626976 0.755 6.63800968004e-39
-0.0460485966116 -0.00139541201853 0.754 6.73020530991e-39
-0.044653184593 -0.00139541201853 0.754 6.54761471871e-39
-0.0433151436257 -0.0013972626976 0.755 6.17847626944e-39
-0.041917880928 -0.0013972626976 0.755 6.73093258381e-39
-0.0405206182304 -0.0013972626976 0.755 6.91424484372e-39
-0.0390715365189 -0.00139541201853 0.754 7.1904701983e-39
-0.0376761245004 -0.00139541201853 0.754 7.46669134899e-39
-0.0362807124818 -0.00139541201853 0.754 7.55816250755e-39
-0.0348853004633 -0.00139541201853 0.754 7.65071126463e-39
-0.0334898884448 -0.00139541201853 0.754 7.28266302557e-39
-0.032009345189 -0.00139171066039 0.752 8.47726716381e-39
-0.0306176345286 -0.00139171066039 0.752 9.7626235945e-39
-0.0291481953473 -0.00138800930225 0.75 8.92855393295e-39
-0.0277601860451 -0.00138800930225 0.75 8.28389498223e-39
-0.0263721767428 -0.00138800930225 0.75 7.36228900821e-39
-0.0249841674406 -0.00138800930225 0.75 7.36120860709e-39
-0.0235017735058 -0.00138245726504 0.747 9.11076897616e-39
-0.0221193162407 -0.00138245726504 0.747 7.1739558959e-39
-0.0206535784175 -0.00137690522784 0.744 8.37215016081e-39
-0.0192766731897 -0.00137690522784 0.744 8.00301451414e-39
-0.0178997679619 -0.00137690522784 0.744 6.52823616224e-39
-0.016522862734 -0.00137690522784 0.744 6.98991355949e-39
-0.0151459575062 -0.00137690522784 0.744 7.91329077477e-39
-0.0137690522784 -0.00137690522784 0.744 8.46681627986e-39
-0.0123921470505 -0.00137690522784 0.744 6.80730615271e-39
-0.0110152418227 -0.00137690522784 0.744 7.27189544817e-39
-0.00963833659485 -0.00137690522784 0.744 1.05913038621e-38
-0.00826143136701 -0.00137690522784 0.744 9.3909586041e-39
-0.00686601934848 -0.0013732038697 0.742 1.08653670132e-38
-0.0054854127625 -0.00137135319063 0.741 7.36228900821e-39
-0.00411405957188 -0.00137135319063 0.741 7.91654178721e-39
-0.00273530366497 -0.00136765183249 0.739 1.02243136034e-38
-0.00136580115342 -0.00136580115342 0.738 1.05030612953e-38
0.0 -0.00136580115342 0.738 1.12377494684e-38
0.00136580115342 -0.00136580115342 0.738 1.15136020776e-38
0.00273160230683 -0.00136580115342 0.738 9.30160901142e-39
0.00408629938583 -0.00136209979528 0.736 9.30196914512e-39
0.00544839918111 -0.00136209979528 0.736 8.84064487509e-39
0.00682900576709 -0.00136580115342 0.738 1.16068879177e-38
0.0081948069205 -0.00136580115342 0.738 9.76297251781e-39
0.00953469856695 -0.00136209979528 0.736 7.82756774251e-39
0.0108967983622 -0.00136209979528 0.736 8.29035216555e-39
0.0122588981575 -0.00136209979528 0.736 9.39814586392e-39
0.0136209979528 -0.00136209979528 0.736 1.16108507897e-38
0.0149830977481 -0.00136209979528 0.736 1.00442453495e-38
0.0163007812457 -0.00135839843714 0.734 8.10886019235e-39
0.0176591796828 -0.00135839843714 0.734 7.18797448574e-39
0.0190175781199 -0.00135839843714 0.734 6.91281832188e-39
0.0203759765571 -0.00135839843714 0.734 7.09792003993e-39
0.0217343749942 -0.00135839843714 0.734 7.46740601121e-39
0.0230613118872 -0.00135654775807 0.733 7.37521458524e-39
0.0244178596452 -0.00135654775807 0.733 6.17776160723e-39
0.0257040815987 -0.00135284639993 0.731 6.63910549544e-39
0.0270569279986 -0.00135284639993 0.731 6.27140197581e-39
0.0283709101381 -0.00135099572086 0.73 5.99589128344e-39
0.0297219058589 -0.00135099572086 0.73 5.62819897419e-39
0.0310729015798 -0.00135099572086 0.73 1.94002485634e-39
0.0324238973006 -0.00135099572086 0.73 1.89908424014e-38
-0.107809458525 0.0 0.798 2.35098856151e-38
-0.106066118841 0.0 0.796 2.35098828126e-38
-0.104067385446 0.0 0.792 2.35095268827e-38
-0.102213005018 0.0 0.789 2.35098828126e-38
-0.100752819232 0.0 0.789 2.35095268827e-38
-0.0990409410925 0.0 0.787 2.35098786087e-38
-0.0973364656693 0.0 0.785 1.77008588832e-38
-0.0958836825997 0.0 0.785 4.88533142189e-39
-0.0941903112509 0.0 0.783 6.36328932001e-39
-0.0927412295394 0.0 0.783 8.39085329141e-39
-0.0912921478278 0.0 0.783 9.31172218244e-39
-0.0896135819116 0.0 0.781 8.02061622415e-39
-0.0880553101349 0.0 0.78 9.21771747625e-39
-0.0863896989722 0.0 0.778 9.49251070381e-39
-0.084949870656 0.0 0.778 1.06896133572e-38
-0.0832953635678 0.0 0.776 1.03208196274e-38
-0.0818592366097 0.0 0.776 9.39921085076e-39
-0.0804231096516 0.0 0.776 8.94003056737e-39
-0.0787834079959 0.0 0.774 9.30917882572e-39
-0.077350982396 0.0 0.774 9.67796134518e-39
-0.075918556796 0.0 0.774 1.01389366919e-38
-0.0743898958845 0.0 0.773 9.67795573998e-39
-0.0727705516985 0.0 0.771 9.86270433082e-39
-0.0713436781358 0.0 0.771 8.75635677246e-39
-0.0699168045731 0.0 0.771 8.75707844117e-39
-0.0684899310104 0.0 0.771 7.37450973212e-39
-0.0667151297826 0.0 0.767 7.46706829828e-39
-0.0652956589361 0.0 0.767 7.00609295156e-39
-0.0637929075316 0.0 0.766 6.54439593613e-39
-0.0623752873642 0.0 0.766 6.72914312567e-39
-0.0609576671968 0.0 0.766 7.1904715996e-39
-0.0593845899876 0.0 0.764 7.37486145803e-39
-0.0579706711784 0.0 0.764 7.74364117489e-39
-0.0565567523691 0.0 0.764 7.46957101734e-39
-0.0549984805925 0.0 0.762 6.63981034857e-39
-0.0535882631414 0.0 0.762 6.36286752917e-39
-0.0521095705647 0.0 0.761 6.5472587889e-39
-0.0507012037927 0.0 0.761 6.36286752917e-39
-0.0492928370207 0.0 0.761 6.91567556945e-39
-0.0476327778952 0.0 0.757 6.73128150713e-39
-0.0461096690209 0.0 0.755 6.63944320837e-39
-0.0447124063233 0.0 0.755 6.91638042258e-39
-0.043429885728 0.0 0.757 6.17881538367e-39
-0.0420289216722 0.0 0.757 7.00749705262e-39
-0.0406279576165 0.0 0.757 6.26993481631e-39
-0.0391233555328 0.0 0.755 6.63871733577e-39
-0.0377260928352 0.0 0.755 7.00749985522e-39
-0.0363288301376 0.0 0.755 7.19117224883e-39
-0.03493156744 0.0 0.755 7.46775913842e-39
-0.0334898884448 0.0 0.754 7.46775633583e-39
-0.0320944764262 0.0 0.754 3.40509361118e-39
-0.0306990644077 0.0 0.754 4.41277714596e-39
-0.0292259238682 0.0 0.752 7.63744377077e-39
-0.0278342132079 0.0 0.752 9.01860557616e-39
-0.0264425025475 0.0 0.752 7.36014221896e-39
-0.0250507918871 0.0 0.752 7.45302448507e-39
-0.0235961581383 0.0 0.75 7.44945537788e-39
-0.0222081488361 0.0 0.75 1.06795450277e-38
-0.0208756599059 0.0 0.752 8.65302782629e-39
-0.0194321302315 0.0 0.75 6.62366598896e-39
-0.0180200621014 0.0 0.749 5.69956710498e-39
-0.0165894871805 0.0 0.747 9.11042705933e-39
-0.0152070299155 0.0 0.747 5.69989921271e-39
-0.0138245726504 0.0 0.747 6.9902694893e-39
-0.0124254592738 0.0 0.746 9.75647189424e-39
-0.0110448526878 0.0 0.746 1.05912716323e-38
-0.00966424610182 0.0 0.746 1.08685843945e-38
-0.00828363951585 0.0 0.746 8.37750452224e-39
-0.00690303292987 0.0 0.746 8.65372847553e-39
-0.00550762091134 0.0 0.744 8.9292363653e-39
-0.00413071568351 0.0 0.744 9.85262479096e-39
-0.00275381045567 0.0 0.744 8.83955186228e-39
-0.00137690522784 0.0 0.744 1.05008696645e-38
0.0 0.0 0.744 1.15121951739e-38
0.0013732038697 0.0 0.742 8.56050709519e-39
0.00274640773939 0.0 0.742 9.94483443381e-39
0.00411961160909 0.0 0.742 1.04969390223e-38
0.0054854127625 0.0 0.741 8.74592410539e-39
0.00685676595313 0.0 0.741 1.19720803105e-38
0.00820591099492 0.0 0.739 1.04994473465e-38
0.00957356282741 0.0 0.739 1.03161238762e-38
0.0109412146599 0.0 0.739 9.11868491118e-39
0.0122922103808 0.0 0.738 1.08711319551e-38
0.0136580115342 0.0 0.738 1.13317569772e-38
0.0149830977481 0.0 0.736 1.09636933238e-38
0.0163451975433 0.0 0.736 1.170233456e-38
0.0177072973386 0.0 0.736 1.05963359249e-38
0.0190175781199 0.0 0.734 9.95131824181e-39
0.0203759765571 0.0 0.734 9.12262396117e-39
0.0217343749942 0.0 0.734 7.83404594531e-39
0.0230927734314 0.0 0.734 7.190107262e-39
0.0244178596452 0.0 0.733 7.09792564512e-39
0.0257744074033 0.0 0.733 6.54581405018e-39
0.0271309551614 0.0 0.733 6.91567837205e-39
0.0283709101381 0.0 0.73 7.1015087653e-39
0.0297219058589 0.0 0.73 5.25901708467e-39
0.0310729015798 0.0 0.73 4.42610629695e-39
-0.107809458525 0.0014768418976 0.798 2.35098856151e-38
-0.106066118841 0.00147314053946 0.796 2.35098828126e-38
-0.104067385446 0.00146573782318 0.792 2.35095268827e-38
-0.102342552553 0.00146203646504 0.79 2.35098828126e-38
-0.100752819232 0.00146018578597 0.789 2.35091681503e-38
-0.099292633446 0.00146018578597 0.789 2.35095198762e-38
-0.0975844566647 0.00145648442783 0.787 1.94529247739e-38
-0.0961279722369 0.00145648442783 0.787 4.05521902721e-39
-0.09443089953 0.00145278306969 0.785 6.27181395755e-39
-0.0929781164603 0.00145278306969 0.785 7.28414419805e-39
-0.0915253333906 0.00145278306969 0.785 8.85074403312e-39
-0.0900725503209 0.00145278306969 0.785 8.3894001449e-39
-0.0883939844047 0.00144908171155 0.783 8.57271240481e-39
-0.0869449026931 0.00144908171155 0.783 8.38724494786e-39
-0.0852774408514 0.00144538035341 0.781 8.84714409736e-39
-0.083832060498 0.00144538035341 0.781 8.57018726498e-39
-0.0822811914376 0.00144352967434 0.78 9.39957378706e-39
-0.0806303857074 0.0014398283162 0.778 1.03226146907e-38
-0.0791905573912 0.0014398283162 0.778 9.95419510755e-39
-0.077750729075 0.0014398283162 0.778 9.12443163619e-39
-0.0761147287774 0.00143612695806 0.776 8.57125785701e-39
-0.0746786018194 0.00143612695806 0.776 8.57161378682e-39
-0.0730537055962 0.00143242559993 0.774 9.40137165299e-39
-0.0716212799963 0.00143242559993 0.774 9.40136885039e-39
-0.0701888543963 0.00143242559993 0.774 9.58576011012e-39
-0.0686675962011 0.00143057492086 0.773 8.84927407103e-39
-0.0670630574477 0.00142687356272 0.771 9.12586376322e-39
-0.065636183885 0.00142687356272 0.771 9.30989909313e-39
-0.064042749206 0.00142317220458 0.769 8.11135590491e-39
-0.0624567172433 0.00141947084644 0.767 8.20355153477e-39
-0.0610372463968 0.00141947084644 0.767 7.28194836335e-39
-0.0595400470295 0.00141762016737 0.766 7.00536007246e-39
-0.0581224268621 0.00141762016737 0.766 7.09790882954e-39
-0.0567048066947 0.00141762016737 0.766 6.27102502652e-39
-0.0551428335599 0.00141391880923 0.764 6.54761471871e-39
-0.0537289147507 0.00141391880923 0.764 7.10043256808e-39
-0.0521780456903 0.00141021745109 0.762 7.19262959924e-39
-0.0507678282392 0.00141021745109 0.762 7.09971790586e-39
-0.0492928370207 0.00140836677202 0.761 7.0075180721e-39
-0.0477586240719 0.00140466541388 0.759 6.63801248264e-39
-0.0463539586581 0.00140466541388 0.759 6.45397435013e-39
-0.0449492932442 0.00140466541388 0.759 6.73091016303e-39
-0.0435446278303 0.00140466541388 0.759 6.63907186428e-39
-0.0421399624164 0.00140466541388 0.759 7.10005001359e-39
-0.0407352970025 0.00140466541388 0.759 7.19224564346e-39
-0.0392269935607 0.00140096405574 0.757 6.823463124e-39
-0.037826029505 0.00140096405574 0.757 7.10005001359e-39
-0.0364250654493 0.00140096405574 0.757 7.00785438373e-39
-0.0350241013935 0.00140096405574 0.757 7.19224564346e-39
-0.0335343047424 0.0013972626976 0.755 7.65250492666e-39
-0.0321370420448 0.0013972626976 0.755 4.51108664103e-39
-0.0306990644077 0.00139541201853 0.754 5.98010565624e-39
-0.0293036523892 0.00139541201853 0.754 5.33255722808e-39
-0.0279082403706 0.00139541201853 0.754 6.06799369462e-39
-0.0265128283521 0.00139541201853 0.754 6.34563996585e-39
-0.0250507918871 0.00139171066039 0.752 7.36011279169e-39
-0.0236590812267 0.00139171066039 0.752 7.54129928183e-39
-0.0222673705663 0.00139171066039 0.752 1.04958852458e-38
-0.020931180278 0.00139541201853 0.754 1.36326708387e-38
-0.0194839492455 0.00139171066039 0.752 8.65268871207e-39
-0.0180441209293 0.00138800930225 0.75 6.62332827603e-39
-0.0166339034782 0.00138615862318 0.749 1.11412518523e-38
-0.015247744855 0.00138615862318 0.749 9.85014169008e-39
-0.0138615862318 0.00138615862318 0.749 1.10476114837e-38
-0.0124421153854 0.00138245726504 0.747 1.17855058277e-38
-0.0110596581204 0.00138245726504 0.747 9.85370238948e-39
-0.00967720085531 0.00138245726504 0.747 1.17908910177e-38
-0.00829474359027 0.00138245726504 0.747 1.24348282997e-38
-0.00691228632522 0.00138245726504 0.747 7.54774385347e-39
-0.0055224263439 0.00138060658597 0.746 9.39129351443e-39
-0.00414181975792 0.00138060658597 0.746 9.57639803508e-39
-0.00276121317195 0.00138060658597 0.746 1.0223917036e-38
-0.00138060658597 0.00138060658597 0.746 1.06856098475e-38
0.0 0.00138060658597 0.746 5.05921714703e-39
0.00138060658597 0.00138060658597 0.746 6.0723040887e-39
0.00276121317195 0.00138060658597 0.746 1.14199603077e-38
0.00414181975792 0.00138060658597 0.746 8.56082799254e-39
0.00550762091134 0.00137690522784 0.744 8.37749331185e-39
0.00686601934848 0.0013732038697 0.742 9.48350595988e-39
0.00822811914376 0.00137135319063 0.741 1.21593176074e-38
0.00959947233438 0.00137135319063 0.741 1.00398887125e-38
0.010970825525 0.00137135319063 0.741 1.14235644474e-38
0.0123088664924 0.00136765183249 0.739 1.19778284368e-38
0.0136765183249 0.00136765183249 0.739 1.15164985615e-38
0.0150238126876 0.00136580115342 0.738 1.12399144745e-38
0.016389613841 0.00136580115342 0.738 1.15168614978e-38
0.0177554149944 0.00136580115342 0.738 1.14250203965e-38
0.0190693971339 0.00136209979528 0.736 1.08729200119e-38
0.0204314969292 0.00136209979528 0.736 1.12420542573e-38
0.0217935967244 0.00136209979528 0.736 7.83404594531e-39
0.0230927734314 0.00135839843714 0.734 7.28301895538e-39
0.0244511718685 0.00135839843714 0.734 6.54474626075e-39
0.0258095703056 0.00135839843714 0.734 6.63836420855e-39
0.0271679687428 0.00135839843714 0.734 7.10006963177e-39
0.0285263671799 0.00135839843714 0.734 6.63945441876e-39
0.029884765617 0.00135839843714 0.734 4.98171693416e-39
0.0312431640542 0.00135839843714 0.734 6.91397159052e-39
-0.105799621055 0.00293887836264 0.794 2.35098828126e-38
-0.104330181874 0.00293887836264 0.794 2.35095268827e-38
-0.102601647623 0.00293147564636 0.792 2.35098828126e-38
-0.100880516088 0.00292407293008 0.79 2.35091681503e-38
-0.0994184796227 0.00292407293008 0.79 2.35095198762e-38
-0.09783244766 0.00292037157194 0.789 2.08358592219e-38
-0.096372261874 0.00292037157194 0.789 4.42400154666e-39
-0.094671487809 0.00291296885566 0.787 7.47035714578e-39
-0.0932150033812 0.00291296885566 0.787 7.37633982791e-39
-0.0917585189534 0.00291296885566 0.787 8.48196151367e-39
-0.0903020345255 0.00291296885566 0.787 8.66598703449e-39
-0.0886197672512 0.00290556613938 0.785 8.57379140463e-39
-0.0871669841815 0.00290556613938 0.785 8.5723620802e-39
-0.0854958209816 0.0028981634231 0.783 8.75639320622e-39
-0.08404673927 0.0028981634231 0.783 8.20285088554e-39
-0.0823866801445 0.00289076070683 0.781 8.38759106859e-39
-0.0809412997911 0.00289076070683 0.781 7.65002883228e-39
-0.0793941320889 0.00288705934869 0.78 8.20320541405e-39
-0.0779506024145 0.00288705934869 0.78 8.66418076077e-39
-0.0765070727402 0.00288705934869 0.78 9.21735453995e-39
-0.0750635430659 0.00288705934869 0.78 8.57198232831e-39
-0.0734312441264 0.00287965663241 0.778 8.94112217887e-39
-0.0719914158102 0.00287965663241 0.778 8.48014122696e-39
-0.0703702209452 0.00287225391613 0.776 8.01916027505e-39
-0.0687564287964 0.00286485119985 0.774 8.57268998404e-39
-0.0673240031965 0.00286485119985 0.774 8.57160818162e-39
-0.0658915775966 0.00286485119985 0.774 9.40137165299e-39
-0.0642093103222 0.00285374712543 0.771 9.21698039326e-39
-0.0627824367595 0.00285374712543 0.771 8.57161098422e-39
-0.0611964047968 0.00284634440915 0.769 7.83440047382e-39
-0.0596177755504 0.00283894169288 0.767 8.01878612836e-39
-0.0581983047039 0.00283894169288 0.767 7.46596827899e-39
-0.0567788338575 0.00283894169288 0.767 7.37557752155e-39
-0.0552871865274 0.00283524033474 0.766 6.54654132408e-39
-0.05386956636 0.00283524033474 0.766 6.17776160723e-39
-0.0524519461926 0.00283524033474 0.766 6.26888103987e-39
-0.0509010771322 0.00282783761846 0.764 7.09863890604e-39
-0.049487158323 0.00282783761846 0.764 7.00608033988e-39
-0.0478844702487 0.00281673354404 0.761 7.00607893858e-39
-0.0464761034766 0.00281673354404 0.761 7.28266302557e-39
-0.0450677367046 0.00281673354404 0.761 6.82275266568e-39
-0.0436593699326 0.00281673354404 0.761 6.82310859549e-39
-0.0422510031606 0.00281673354404 0.761 6.45432607604e-39
-0.0408426363886 0.00281673354404 0.761 6.54651890331e-39
-0.0394342696166 0.00281673354404 0.761 7.28408394221e-39
-0.0379259661748 0.00280933082776 0.759 7.46883253305e-39
-0.0365213007609 0.00280933082776 0.759 7.28443847072e-39
-0.035116635347 0.00280933082776 0.759 7.28443847072e-39
-0.0336231373378 0.00280192811148 0.757 6.823463124e-39
-0.032222173282 0.00280192811148 0.757 5.34191790182e-39
-0.0307397793472 0.0027945253952 0.755 5.42764513797e-39
-0.0293425166496 0.0027945253952 0.755 6.3477839525e-39
-0.027945253952 0.0027945253952 0.755 6.43749508018e-39
-0.0265479912544 0.0027945253952 0.755 6.89917808263e-39
-0.0251174163336 0.00279082403706 0.754 6.89914164887e-39
-0.023722004315 0.00279082403706 0.754 6.80337831312e-39
-0.0223265922965 0.00279082403706 0.754 6.34565397883e-39
-0.020931180278 0.00279082403706 0.754 1.21564757741e-38
-0.0195357682594 0.00279082403706 0.754 8.28390899521e-39
-0.0180922385851 0.00278342132079 0.752 8.74346202399e-39
-0.0167005279247 0.00278342132079 0.752 1.03118415081e-38
-0.0152681023248 0.00277601860451 0.75 1.01278019743e-38
-0.0138615862318 0.00277231724637 0.749 1.09572137198e-38
-0.0124754276087 0.00277231724637 0.749 1.04040175198e-38
-0.0110892689855 0.00277231724637 0.749 7.36442178447e-39
-0.00970311036229 0.00277231724637 0.749 7.45626428712e-39
-0.0083169517391 0.00277231724637 0.749 6.34920486914e-39
-0.00691228632522 0.00276491453009 0.747 9.85228847933e-39
-0.00552982906018 0.00276491453009 0.747 9.39167046372e-39
-0.00414737179513 0.00276491453009 0.747 1.02221373869e-38
-0.00276491453009 0.00276491453009 0.747 1.12384347034e-38
-0.00138245726504 0.00276491453009 0.747 1.08717989732e-38
0.0 0.00276491453009 0.747 7.36588614137e-39
0.00138245726504 0.00276491453009 0.747 7.91763059611e-39
0.00276491453009 0.00276491453009 0.747 1.06845420581e-38
0.00414737179513 0.00276491453009 0.747 1.44631321567e-38
0.0055224263439 0.00276121317195 0.746 9.30196073733e-39
0.00688452613918 0.00275381045567 0.744 9.67040133996e-39
0.00826143136701 0.00275381045567 0.744 1.19770759395e-38
0.00961242708787 0.00274640773939 0.742 1.14246154212e-38
0.0109856309576 0.00274640773939 0.742 1.1424985364e-38
0.0123421787156 0.00274270638125 0.741 1.14253567081e-38
0.0137135319063 0.00274270638125 0.741 1.11484194939e-38
0.0150441701574 0.00273530366497 0.739 1.1332821964e-38
0.0164118219898 0.00273530366497 0.739 1.09640436485e-38
0.0177554149944 0.00273160230683 0.738 1.12413508055e-38
0.0191212161478 0.00273160230683 0.738 1.08729228145e-38
0.0204870173013 0.00273160230683 0.738 1.14260937911e-38
0.0218528184547 0.00273160230683 0.738 7.28266722947e-39
0.0232186196081 0.00273160230683 0.738 7.00714672801e-39
0.0245844207615 0.00273160230683 0.738 6.17775740333e-39
0.0259502219149 0.00273160230683 0.738 6.91674896407e-39
0.0272419959056 0.00272419959056 0.736 6.63981034857e-39
0.0286040957008 0.00272419959056 0.736 6.5479860628e-39
0.0299661954961 0.00272419959056 0.736 2.95308517333e-39
0.0314559921472 0.00273530366497 0.739 8.94264118641e-39
-0.105799621055 0.00440831754396 0.794 2.35098828126e-38
-0.104330181874 0.00440831754396 0.794 2.35095268827e-38
-0.102601647623 0.00439721346954 0.792 2.35098828126e-38
-0.101135909799 0.00439721346954 0.792 2.35091681503e-38
-0.0996701719762 0.00439721346954 0.792 2.350988001e-38
-0.0979564431577 0.00438610939512 0.79 2.28641630789e-38
-0.0964944066926 0.00438610939512 0.79 4.23961028693e-39
-0.0949120760881 0.00438055735791 0.789 6.82498773673e-39
-0.0934518903021 0.00438055735791 0.789 7.74512234736e-39
-0.0919917045161 0.00438055735791 0.789 8.57343827742e-39
-0.0903020345255 0.00436945328349 0.787 9.03476955395e-39
-0.0888455500977 0.00436945328349 0.787 8.66598983709e-39
-0.0871669841815 0.00435834920908 0.785 8.11246573329e-39
-0.0857142011118 0.00435834920908 0.785 8.5730865515e-39
-0.0842614180421 0.00435834920908 0.785 8.29577519061e-39
-0.0823866801445 0.00433614106024 0.781 8.38832114509e-39
-0.0809412997911 0.00433614106024 0.781 8.20393268796e-39
-0.0794959194377 0.00433614106024 0.781 8.29612831782e-39
-0.0780505390843 0.00433614106024 0.781 8.1117342555e-39
-0.0766051587309 0.00433614106024 0.781 8.1117342555e-39
-0.0751597783775 0.00433614106024 0.781 7.74330906715e-39
-0.0736200133915 0.00433058902303 0.78 7.83550189442e-39
-0.0721764837172 0.00433058902303 0.78 8.29647724114e-39
-0.0707329540428 0.00433058902303 0.78 9.03439820985e-39
-0.0691117591778 0.00431948494861 0.778 8.75708124376e-39
-0.067497967029 0.00430838087419 0.776 8.66380661408e-39
-0.066061840071 0.00430838087419 0.776 8.38721972449e-39
-0.0644591519966 0.00429727679978 0.774 8.29502409463e-39
-0.0629452965177 0.00429172476257 0.773 9.03258633094e-39
-0.0613555631968 0.00428062068815 0.771 8.94074522959e-39
-0.0599286896341 0.00428062068815 0.771 8.84890272694e-39
-0.0583500603877 0.00426951661373 0.769 8.48011880619e-39
-0.0569268881831 0.00426951661373 0.769 7.00607893858e-39
-0.0555037159785 0.00426951661373 0.769 7.46705848919e-39
-0.0540805437739 0.00426951661373 0.769 8.02023226837e-39
-0.0526573715693 0.00426951661373 0.769 7.74364537878e-39
-0.0511009504718 0.00425841253931 0.767 6.63657755301e-39
-0.0496167058579 0.0042528605021 0.766 6.36034659323e-39
-0.0480732395138 0.00424175642769 0.764 6.4525394205e-39
-0.0466593207045 0.00424175642769 0.764 6.35962072063e-39
-0.0452454018953 0.00424175642769 0.764 6.91423363333e-39
-0.0437167409838 0.00423065235327 0.762 6.82275686958e-39
-0.0423065235327 0.00423065235327 0.762 7.09934235787e-39
-0.0408963060816 0.00423065235327 0.762 7.283730815e-39
-0.0394860886305 0.00423065235327 0.762 7.09969268249e-39
-0.0380259028445 0.00422510031606 0.761 7.28444127332e-39
-0.0366175360725 0.00422510031606 0.761 7.19224284086e-39
-0.0352091693005 0.00422510031606 0.761 7.28443566813e-39
-0.0337119699331 0.00421399624164 0.759 7.56210436013e-39
-0.0323073045192 0.00421399624164 0.759 2.66968657191e-39
-0.0308212092263 0.00420289216722 0.757 7.64355483337e-39
-0.0294202451706 0.00420289216722 0.757 7.91797251294e-39
-0.0280192811148 0.00420289216722 0.757 4.31985844609e-39
-0.0265479912544 0.0041917880928 0.755 5.42656053296e-39
-0.0251507285568 0.0041917880928 0.755 6.25629317576e-39
-0.0237534658592 0.0041917880928 0.755 6.80517057385e-39
-0.0223562031616 0.0041917880928 0.755 6.89702989208e-39
-0.020958940464 0.0041917880928 0.755 7.82112036828e-39
-0.0195357682594 0.0041862360556 0.754 6.80732857349e-39
-0.0181403562409 0.0041862360556 0.754 7.08356513846e-39
-0.0167449442224 0.0041862360556 0.754 9.02108307185e-39
-0.0153088172643 0.00417513198118 0.752 6.07118725382e-39
-0.0139171066039 0.00417513198118 0.752 5.24036299952e-39
-0.0125253959435 0.00417513198118 0.752 6.16302274998e-39
-0.011104074418 0.00416402790676 0.75 7.08675869766e-39
-0.00971606511577 0.00416402790676 0.75 9.4834891443e-39
-0.00832805581352 0.00416402790676 0.75 9.11328150431e-39
-0.00693079311592 0.00415847586955 0.749 6.43890058254e-39
-0.00554463449273 0.00415847586955 0.749 6.43890058254e-39
-0.00414737179513 0.00414737179513 0.747 8.74593811838e-39
-0.00276491453009 0.00414737179513 0.747 1.18830866476e-38
-0.00138615862318 0.00415847586955 0.749 1.19763486656e-38
0.0 0.00415847586955 0.749 1.16997841968e-38
0.00138615862318 0.00415847586955 0.749 9.5789301814e-39
0.00277231724637 0.00415847586955 0.749 1.15161005928e-38
0.00415847586955 0.00415847586955 0.749 1.18845285837e-38
0.00554463449273 0.00415847586955 0.749 1.24380568914e-38
0.00691228632522 0.00414737179513 0.747 1.13317177408e-38
0.00828363951585 0.00414181975792 0.746 1.02264421758e-38
0.00963833659485 0.00413071568351 0.744 1.09650848132e-38
0.0110152418227 0.00413071568351 0.744 1.16100996938e-38
0.0123588348273 0.00411961160909 0.742 1.17941392276e-38
0.013732038697 0.00411961160909 0.742 1.16101165093e-38
0.0150848850969 0.00411405957188 0.741 1.14253735237e-38
0.0164562382875 0.00411405957188 0.741 1.1241705334e-38
0.0178275914781 0.00411405957188 0.741 1.14260965937e-38
0.0191471256548 0.00410295549746 0.739 1.12420584612e-38
0.0205147774873 0.00410295549746 0.739 1.09661862338e-38
0.0218824293198 0.00410295549746 0.739 7.65181268522e-39
0.0232186196081 0.00409740346025 0.738 6.5472587889e-39
0.0245844207615 0.00409740346025 0.738 6.64053481987e-39
0.0259502219149 0.00409740346025 0.738 6.54869091593e-39
0.0272419959056 0.00408629938583 0.736 6.64124948209e-39
0.0286040957008 0.00408629938583 0.736 6.91713151855e-39
0.0300883403147 0.00410295549746 0.739 3.13712470714e-39
0.0314559921472 0.00410295549746 0.739 1.24464212419e-38
-0.105799621055 0.00587775672528 0.794 2.35098828126e-38
-0.104330181874 0.00587775672528 0.794 2.35095268827e-38
-0.102860742692 0.00587775672528 0.794 2.35098828126e-38
-0.101391303511 0.00587775672528 0.794 2.35091681503e-38
-0.0999218643297 0.00587775672528 0.794 2.350988001e-38
-0.098204434153 0.00586295129272 0.792 2.30485543386e-38
-0.0967386963298 0.00586295129272 0.792 5.16156658557e-39
-0.0950323702276 0.00584814586016 0.79 5.71864017837e-39
-0.0935703337626 0.00584814586016 0.79 6.54550156062e-39
-0.0921082972975 0.00584814586016 0.79 8.02026449824e-39
-0.0905315187302 0.00584074314388 0.789 8.85037829422e-39
-0.0890713329442 0.00584074314388 0.789 8.57379140463e-39
-0.0873890656699 0.00582593771132 0.787 8.75783514234e-39
-0.085932581242 0.00582593771132 0.787 8.48089372424e-39
-0.0844760968142 0.00582593771132 0.787 8.38869529178e-39
-0.0825976575585 0.00579632684621 0.783 8.02026449824e-39
-0.0811485758469 0.00579632684621 0.783 7.83659210462e-39
-0.0796994941354 0.00579632684621 0.783 7.92878773449e-39
-0.0782504124238 0.00579632684621 0.783 7.74439647476e-39
-0.0766051587309 0.00578152141365 0.781 7.6521980423e-39
-0.0751597783775 0.00578152141365 0.781 7.65255397211e-39
-0.0737143980241 0.00578152141365 0.781 7.56035694095e-39
-0.0722690176707 0.00578152141365 0.781 7.37596287862e-39
-0.0708236373172 0.00578152141365 0.781 7.1915716189e-39
-0.0692894243685 0.00577411869737 0.78 7.92696464518e-39
-0.0678458946941 0.00577411869737 0.78 8.57161378682e-39
-0.0662321025454 0.00575931326482 0.778 9.58576571531e-39
-0.0646257131129 0.00574450783226 0.776 9.49356728285e-39
-0.0631895861548 0.00574450783226 0.776 8.47941255176e-39
-0.0615943007968 0.0057297023997 0.774 8.11098456082e-39
-0.0600841466759 0.00572229968342 0.773 7.74255516858e-39
-0.0586535717551 0.00572229968342 0.773 8.29572474386e-39
-0.0572229968342 0.00572229968342 0.773 8.29645201776e-39
-0.0557924219134 0.00572229968342 0.773 8.02022806448e-39
-0.0543618469925 0.00572229968342 0.773 8.01986512817e-39
-0.0529312720717 0.00572229968342 0.773 8.66523173462e-39
-0.0513674482578 0.00570749425087 0.771 8.11241528655e-39
-0.0498110271602 0.00569268881831 0.769 7.74255096468e-39
-0.0482620087789 0.00567788338575 0.767 7.4663200049e-39
-0.0467814655231 0.00567048066947 0.766 7.4663200049e-39
-0.0453638453558 0.00567048066947 0.766 7.46741021511e-39
-0.0438314830861 0.00565567523691 0.764 5.80825181387e-39
-0.0424175642769 0.00565567523691 0.764 6.08483590086e-39
-0.0410036454676 0.00565567523691 0.764 6.17738605924e-39
-0.0395897266584 0.00565567523691 0.764 6.63871733577e-39
-0.0381758078492 0.00565567523691 0.764 6.54687623441e-39
-0.0367618890399 0.00565567523691 0.764 7.00785158113e-39
-0.0352554362772 0.00564086980436 0.762 7.1000444084e-39
-0.0338008025285 0.00563346708808 0.761 6.6401424563e-39
-0.0323924357565 0.00563346708808 0.761 7.19010165681e-39
-0.0309026391054 0.00561866165552 0.759 8.10846082228e-39
-0.0294979736915 0.00561866165552 0.759 9.02789758628e-39
-0.0280933082776 0.00561866165552 0.759 4.69365481145e-39
-0.0266886428637 0.00561866165552 0.759 5.15462875687e-39
-0.0251507285568 0.00558905079041 0.755 6.16732753886e-39
-0.0237534658592 0.00558905079041 0.755 7.1786096081e-39
-0.0223562031616 0.00558905079041 0.755 7.26687039188e-39
-0.0210144608361 0.00560385622296 0.757 7.72818625412e-39
-0.0195616777664 0.00558905079041 0.755 9.66429167866e-39
-0.0181644150688 0.00558905079041 0.755 1.08631978032e-38
-0.0167671523712 0.00558905079041 0.755 1.08646075094e-38
-0.0153495322039 0.00558164807413 0.754 8.37640450294e-39
-0.0139541201853 0.00558164807413 0.754 1.12334124497e-38
-0.0125587081668 0.00558164807413 0.754 1.20638793729e-38
-0.0111632961483 0.00558164807413 0.754 1.18794853105e-38
-0.00974197462275 0.00556684264157 0.752 8.55901190973e-39
-0.00835026396236 0.00556684264157 0.752 8.09696597098e-39
-0.00694004651127 0.00555203720901 0.75 8.37320253595e-39
-0.00554463449273 0.00554463449273 0.749 7.63563749705e-39
-0.00415847586955 0.00554463449273 0.749 7.72962258505e-39
-0.00277231724637 0.00554463449273 0.749 6.25593444336e-39
-0.00138615862318 0.00554463449273 0.749 8.00977858183e-39
0.0 0.00555203720901 0.75 1.21596721359e-38
0.00138800930225 0.00555203720901 0.75 1.1700137324e-38
0.00277601860451 0.00555203720901 0.75 1.17005030629e-38
0.00416402790676 0.00555203720901 0.75 1.20692855823e-38
0.00555203720901 0.00555203720901 0.75 1.27150165264e-38
0.00693079311592 0.00554463449273 0.749 1.17019435977e-38
0.0083169517391 0.00554463449273 0.749 1.21632846833e-38
0.00967720085531 0.00552982906018 0.747 1.15189970767e-38
0.0110448526878 0.0055224263439 0.746 1.17941532406e-38
0.0123921470505 0.00550762091134 0.744 1.14250175939e-38
0.013732038697 0.00549281547878 0.742 1.17938029159e-38
0.0151052425667 0.00549281547878 0.742 1.16101333249e-38
0.0164784464364 0.00549281547878 0.742 1.13339009638e-38
0.017851650306 0.00549281547878 0.742 1.09661890364e-38
0.0191989446688 0.0054854127625 0.741 1.13353190779e-38
0.0205702978594 0.0054854127625 0.741 1.06903013948e-38
0.02194165105 0.0054854127625 0.741 7.56034573056e-39
0.0233130042406 0.0054854127625 0.741 6.91606092653e-39
0.0246843574313 0.0054854127625 0.741 6.45579323553e-39
0.0260557106219 0.0054854127625 0.741 6.73309058344e-39
0.0273530366497 0.00547060732995 0.739 7.10258075862e-39
0.0287206884822 0.00547060732995 0.739 6.82528621331e-39
0.0300883403147 0.00547060732995 0.739 2.03042822547e-39
0.0314559921472 0.00547060732995 0.739 1.56746765921e-38
-0.106066118841 0.00736570269729 0.796 2.35098828126e-38
-0.104592978302 0.00736570269729 0.796 2.35095268827e-38
-0.103119837762 0.00736570269729 0.796 2.35098828126e-38
-0.101646697223 0.00736570269729 0.796 2.35091681503e-38
-0.100173556683 0.00736570269729 0.796 2.32329329867e-38
-0.0987004161437 0.00736570269729 0.796 2.35095268827e-38
-0.096982985967 0.00734719590659 0.794 7.37426170229e-39
-0.0952729585067 0.0073286891159 0.792 5.81083580824e-39
-0.0938072206835 0.0073286891159 0.792 7.28378966954e-39
-0.0923414828603 0.0073286891159 0.792 8.3897686864e-39
-0.0906462608325 0.0073101823252 0.79 8.85037689292e-39
-0.0891842243674 0.0073101823252 0.79 8.29720311374e-39
-0.0876111471582 0.00730092892985 0.789 8.94150052946e-39
-0.0861509613723 0.00730092892985 0.789 8.47981472442e-39
-0.0846907755863 0.00730092892985 0.789 8.94042993743e-39
-0.0828086349724 0.00726391534846 0.785 8.2954150569e-39
-0.0813558519027 0.00726391534846 0.785 8.02026449824e-39
-0.0796994941354 0.00724540855776 0.783 7.92878773449e-39
-0.0782504124238 0.00724540855776 0.783 7.74439367216e-39
-0.0768013307123 0.00724540855776 0.783 7.28341552285e-39
-0.0753522490007 0.00724540855776 0.783 7.37596708252e-39
-0.0739031672892 0.00724540855776 0.783 7.37596568122e-39
-0.0724540855776 0.00724540855776 0.783 7.28376724876e-39
-0.0710050038661 0.00724540855776 0.783 7.19192754871e-39
-0.0693782569638 0.00722690176707 0.781 7.6510994243e-39
-0.0679328766104 0.00722690176707 0.781 7.55818492833e-39
-0.0664023650198 0.00721764837172 0.78 7.28160084133e-39
-0.0649588353455 0.00721764837172 0.78 7.3737936686e-39
-0.0635153056711 0.00721764837172 0.78 7.28195116595e-39
-0.0617534591968 0.00718063479032 0.776 8.11170763082e-39
-0.0601618751969 0.00716212799963 0.774 7.74327543599e-39
-0.0587294495969 0.00716212799963 0.774 7.55923870477e-39
-0.057297023997 0.00716212799963 0.774 7.37485865543e-39
-0.0558645983971 0.00716212799963 0.774 7.28301895538e-39
-0.0543618469925 0.00715287460428 0.773 7.46740741251e-39
-0.0529312720717 0.00715287460428 0.773 8.20460811382e-39
-0.0513674482578 0.00713436781358 0.771 8.11240968136e-39
-0.0499405746951 0.00713436781358 0.771 7.92837435144e-39
-0.0483878549556 0.00711586102289 0.769 8.29607646978e-39
-0.0468425379324 0.00709735423219 0.767 8.38827350094e-39
-0.0453638453558 0.00708810083684 0.766 8.11277962415e-39
-0.0439462251884 0.00708810083684 0.766 7.28338469428e-39
-0.042528605021 0.00708810083684 0.766 7.37557471895e-39
-0.0411109848537 0.00708810083684 0.766 6.82275686958e-39
-0.0396933646863 0.00708810083684 0.766 6.73055703582e-39
-0.0382757445189 0.00708810083684 0.766 6.26993201372e-39
-0.0368581243516 0.00708810083684 0.766 6.27028934482e-39
-0.0353479702307 0.00706959404614 0.764 5.99370105394e-39
-0.0339340514215 0.00706959404614 0.764 6.45575119658e-39
-0.0324350013751 0.00705108725545 0.762 6.45395613325e-39
-0.031024783924 0.00705108725545 0.762 8.11059640114e-39
-0.0295757022124 0.0070418338601 0.761 7.64890218831e-39
-0.0281673354404 0.0070418338601 0.761 8.29501288424e-39
-0.0267589686684 0.0070418338601 0.761 8.29466115833e-39
-0.0252839774498 0.0070233270694 0.759 7.74003843653e-39
-0.023879312036 0.0070233270694 0.759 7.0006699265e-39
-0.0224746466221 0.0070233270694 0.759 7.08748597156e-39
-0.0210699812082 0.0070233270694 0.759 7.45589434433e-39
-0.0195616777664 0.00698631348801 0.755 7.73247703002e-39
-0.0181644150688 0.00698631348801 0.755 1.16043417584e-38
-0.0168115686689 0.0070048202787 0.757 1.15131985036e-38
-0.0154106046132 0.0070048202787 0.757 1.06834378349e-38
-0.0140096405574 0.0070048202787 0.757 1.28950763726e-38
-0.0125753642784 0.00698631348801 0.755 1.19738221245e-38
-0.0111781015808 0.00698631348801 0.755 1.00362887768e-38
-0.00976788412972 0.00697706009266 0.754 8.9288706264e-39
-0.00837247211119 0.00697706009266 0.754 7.26827729554e-39
-0.00695855330196 0.00695855330196 0.752 8.37390178389e-39
-0.00555203720901 0.00694004651127 0.75 1.08631837902e-38
-0.00416402790676 0.00694004651127 0.75 1.0772061555e-38
-0.00277601860451 0.00694004651127 0.75 1.06812952495e-38
-0.00139171066039 0.00695855330196 0.752 8.93029294434e-39
0.0 0.00695855330196 0.752 7.54952350252e-39
0.00139171066039 0.00695855330196 0.752 8.93389708399e-39
0.00278342132079 0.00695855330196 0.752 1.16079585097e-38
0.00417513198118 0.00695855330196 0.752 1.21618455498e-38
0.00556684264157 0.00695855330196 0.752 1.17012415472e-38
0.00694004651127 0.00694004651127 0.75 1.21632874859e-38
0.0083169517391 0.00693079311592 0.749 1.1518289421e-38
0.00970311036229 0.00693079311592 0.749 1.18870775456e-38
0.0110892689855 0.00693079311592 0.749 1.16090599303e-38
0.0124254592738 0.00690303292987 0.746 1.14243155434e-38
0.0137690522784 0.00688452613918 0.744 1.16097858029e-38
0.0151459575062 0.00688452613918 0.744 1.17019786302e-38
0.016522862734 0.00688452613918 0.744 1.18874390806e-38
0.0178997679619 0.00688452613918 0.744 1.15193628156e-38
0.0192248541757 0.00686601934848 0.742 1.15197089363e-38
0.0205980580454 0.00686601934848 0.742 1.07835704192e-38
0.0219712619151 0.00686601934848 0.742 7.37595447083e-39
0.0233444657848 0.00686601934848 0.742 7.1922960902e-39
0.0247176696545 0.00686601934848 0.742 6.82421982518e-39
0.0260557106219 0.00685676595313 0.741 7.00931733933e-39
0.0274270638125 0.00685676595313 0.741 7.19405612107e-39
0.0287984170032 0.00685676595313 0.741 6.73272624584e-39
0.0301697701938 0.00685676595313 0.741 3.41157601787e-39
0.0315411233844 0.00685676595313 0.741 1.74260138076e-38
-0.106332616627 0.00886105138558 0.798 2.35098828126e-38
-0.104855774729 0.00886105138558 0.798 2.35095268827e-38
-0.103638027902 0.00888325953442 0.8 2.35098828126e-38
-0.102157484646 0.00888325953442 0.8 2.35091681503e-38
-0.10067694139 0.00888325953442 0.8 2.34173242464e-38
-0.098948407139 0.00886105138558 0.798 2.35095268827e-38
-0.0972272756042 0.00883884323675 0.796 8.75719615024e-39
-0.0957541350648 0.00883884323675 0.796 3.59814069152e-39
-0.0940441076044 0.00881663508791 0.794 7.19159403967e-39
-0.0925746684231 0.00881663508791 0.794 8.11318179681e-39
-0.0908757450371 0.00879442693908 0.792 9.12696378251e-39
-0.0894100072139 0.00879442693908 0.792 9.1262407125e-39
-0.0877221879024 0.00877221879024 0.79 9.03297449061e-39
-0.0862601514374 0.00877221879024 0.79 8.20250336352e-39
-0.0847981149723 0.00877221879024 0.79 8.4780084507e-39
-0.0832305898003 0.00876111471582 0.789 8.47836157791e-39
-0.0817704040143 0.00876111471582 0.789 8.20393268796e-39
-0.0801066435307 0.00873890656699 0.787 7.92842199559e-39
-0.0786501591029 0.00873890656699 0.787 8.11281325531e-39
-0.0769975026937 0.00871669841815 0.785 7.92842059429e-39
-0.075544719624 0.00871669841815 0.785 7.37560274492e-39
-0.0740919365543 0.00871669841815 0.785 7.37559994232e-39
-0.0726391534846 0.00871669841815 0.785 7.37559713972e-39
-0.0710050038661 0.00869449026931 0.783 7.37559713972e-39
-0.0695559221545 0.00869449026931 0.783 6.54511620354e-39
-0.0679328766104 0.00867228212048 0.781 7.28268124245e-39
-0.066487496257 0.00867228212048 0.781 7.00573842305e-39
-0.0649588353455 0.00866117804606 0.78 6.82170309313e-39
-0.0635153056711 0.00866117804606 0.78 6.82169888924e-39
-0.0620717759968 0.00866117804606 0.78 7.28302736317e-39
-0.0604727892806 0.00863896989722 0.778 6.73020530991e-39
-0.0590329609644 0.00863896989722 0.778 6.63836420855e-39
-0.0574450783226 0.00861676174839 0.776 7.74400831508e-39
-0.0560089513645 0.00861676174839 0.776 7.1908345359e-39
-0.0544321727972 0.00859455359955 0.774 7.00679780469e-39
-0.0529997471972 0.00859455359955 0.774 6.91459656963e-39
-0.0515673215973 0.00859455359955 0.774 7.09862349176e-39
-0.0500701222299 0.00858344952513 0.773 7.19117505143e-39
-0.0485137011324 0.0085612413763 0.771 7.46704307491e-39
-0.0470868275696 0.0085612413763 0.771 7.28265461778e-39
-0.0455415105465 0.00853903322746 0.769 7.65144554502e-39
-0.0441183383419 0.00853903322746 0.769 7.28338189168e-39
-0.0425841253931 0.00851682507863 0.767 7.09898782936e-39
-0.0411646545467 0.00851682507863 0.767 7.19153938903e-39
-0.0397451837003 0.00851682507863 0.767 7.83690739678e-39
-0.0383257128538 0.00851682507863 0.767 7.37592644486e-39
-0.0369062420074 0.00851682507863 0.767 7.46847800454e-39
-0.0354405041842 0.00850572100421 0.766 7.19188831235e-39
-0.0340228840168 0.00850572100421 0.766 6.91637902128e-39
-0.0326052638495 0.00850572100421 0.766 6.45503092917e-39
-0.031106213803 0.00848351285537 0.764 7.09823813468e-39
-0.0296145664729 0.00846130470654 0.762 6.5457916294e-39
-0.0282043490218 0.00846130470654 0.762 5.99407099673e-39
-0.0267941315707 0.00846130470654 0.762 5.99516120694e-39
-0.0253506018964 0.00845020063212 0.761 6.63908587726e-39
-0.0239422351243 0.00845020063212 0.761 7.55959043069e-39
-0.0225338683523 0.00845020063212 0.761 7.92441848587e-39
-0.0211532617663 0.00846130470654 0.762 8.84563630022e-39
-0.0197171348083 0.00845020063212 0.761 8.29211359772e-39
-0.0183087680363 0.00845020063212 0.761 7.83043339787e-39
-0.0169004012642 0.00845020063212 0.761 8.01479943423e-39
-0.0154513195527 0.00842799248328 0.759 9.95018879524e-39
-0.0140466541388 0.00842799248328 0.759 1.25309629796e-38
-0.0126086765017 0.00840578433445 0.757 1.15171515666e-38
-0.0112077124459 0.00840578433445 0.757 1.01338766031e-38
-0.00978083888321 0.00838357618561 0.755 9.76437802017e-39
-0.00837247211119 0.00837247211119 0.754 9.76329341516e-39
-0.00697706009266 0.00837247211119 0.754 1.17901497308e-38
-0.00558164807413 0.00837247211119 0.754 1.30805242113e-38
-0.0041862360556 0.00837247211119 0.754 1.2158569314e-38
-0.0027945253952 0.00838357618561 0.755 1.13291715815e-38
-0.0013972626976 0.00838357618561 0.755 1.07763635412e-38
0.0 0.00837247211119 0.754 1.08692668268e-38
0.00139541201853 0.00837247211119 0.754 9.02499689846e-39
0.00279082403706 0.00837247211119 0.754 8.01161007892e-39
0.0041862360556 0.00837247211119 0.754 8.6584088124e-39
0.00558164807413 0.00837247211119 0.754 1.19781941757e-38
0.00695855330196 0.00835026396236 0.752 1.26253418325e-38
0.00832805581352 0.00832805581352 0.75 1.15172160263e-38
0.00971606511577 0.00832805581352 0.75 1.18856468199e-38
0.011104074418 0.00832805581352 0.75 1.22540762121e-38
0.0124754276087 0.0083169517391 0.749 1.20707653535e-38
0.0138245726504 0.00829474359027 0.747 1.1886018164e-38
0.0152070299155 0.00829474359027 0.747 1.17016269043e-38
0.0165894871805 0.00829474359027 0.747 1.18870915586e-38
0.0179719444456 0.00829474359027 0.747 1.18874390806e-38
0.0193284922036 0.00828363951585 0.746 1.15197229493e-38
0.0207090987896 0.00828363951585 0.746 1.05059213454e-38
0.0220304836454 0.00826143136701 0.744 7.19083173331e-39
0.0234073888732 0.00826143136701 0.744 7.37631460454e-39
0.024784294101 0.00826143136701 0.744 6.8242016083e-39
0.0260908735242 0.00823922321818 0.742 7.10078849789e-39
0.0274640773939 0.00823922321818 0.742 7.74650402765e-39
0.0288372812636 0.00823922321818 0.742 4.97921561641e-39
0.0302104851333 0.00823922321818 0.742 6.1749520038e-39
0.031583689003 0.00823922321818 0.742 1.99138566804e-38
-0.104026670506 0.0104026670506 0.803 2.35098828126e-38
-0.102412878357 0.0103897122971 0.802 2.35091681503e-38
-0.100928633744 0.0103897122971 0.802 2.35095198762e-38
-0.0991963981344 0.0103638027902 0.8 2.33251384256e-38
-0.0977158548786 0.0103638027902 0.8 1.15230650461e-38
-0.0959947233438 0.0103378932832 0.798 3.50594506165e-39
-0.0945178814462 0.0103378932832 0.798 7.37670696811e-39
-0.0928078539859 0.0103119837762 0.796 8.02098616695e-39
-0.0913347134464 0.0103119837762 0.796 9.03512408246e-39
-0.0896357900604 0.0102860742692 0.794 9.12623790991e-39
-0.0879442693908 0.0102601647623 0.792 1.04155460023e-38
-0.0864785315676 0.0102601647623 0.792 1.05981450013e-38
-0.0850127937444 0.0102601647623 0.792 9.85950096253e-39
-0.0835470559212 0.0102601647623 0.792 9.6747425626e-39
-0.0818740420422 0.0102342552553 0.79 8.48015523995e-39
-0.0803102182284 0.0102213005018 0.789 7.74330626455e-39
-0.0788500324424 0.0102213005018 0.789 8.01989315414e-39
-0.0773898466564 0.0102213005018 0.789 8.20428161127e-39
-0.0759296608705 0.0102213005018 0.789 7.92805065149e-39
-0.0742807058194 0.0101953909948 0.787 7.83585362033e-39
-0.0728242213916 0.0101953909948 0.787 7.74365518787e-39
-0.0713677369637 0.0101953909948 0.787 7.65145955801e-39
-0.0697335873452 0.0101694814878 0.785 7.55999120205e-39
-0.0682808042755 0.0101694814878 0.785 6.82242896574e-39
-0.0666577587314 0.0101435719809 0.783 6.63803770601e-39
-0.0650421159036 0.0101176624739 0.781 7.00681742287e-39
-0.0635967355502 0.0101176624739 0.781 6.82278069165e-39
-0.0621513551968 0.0101176624739 0.781 6.45399256701e-39
-0.0606282463224 0.0101047077204 0.78 6.63873555265e-39
-0.0590329609644 0.0100787982134 0.778 6.5468902474e-39
-0.0575931326482 0.0100787982134 0.778 6.82242336054e-39
-0.056153304332 0.0100787982134 0.778 6.26925238396e-39
-0.0545728244065 0.0100528887065 0.776 6.73058506179e-39
-0.0531366974484 0.0100528887065 0.776 7.00644327618e-39
-0.0517005704903 0.0100528887065 0.776 7.00679780469e-39
-0.0501348959974 0.0100269791995 0.774 7.37485865543e-39
-0.0486395473091 0.010014024446 0.773 7.65144554502e-39
-0.0472089723882 0.010014024446 0.773 7.1904701983e-39
-0.0457783974674 0.010014024446 0.773 7.09899063196e-39
-0.0442330804442 0.00998811493901 0.771 7.65216441114e-39
-0.0426951661373 0.00996220543204 0.769 7.19118345922e-39
-0.0412719939327 0.00996220543204 0.769 7.2837350189e-39
-0.0398488217282 0.00996220543204 0.769 7.46812487732e-39
-0.0384256495236 0.00996220543204 0.769 7.09934235787e-39
-0.037002477319 0.00996220543204 0.769 7.283730815e-39
-0.0354867711609 0.00993629592506 0.767 7.09933955527e-39
-0.0340673003145 0.00993629592506 0.767 6.73163883823e-39
