# .PCD v0.7 - Point Cloud Data file format
VERSION 0.7
FIELDS x y z rgb
SIZE 4 4 4 4
TYPE F F F F
COUNT 1 1 1 1
WIDTH 835
HEIGHT 1
VIEWPOINT 0 0 0 1 0 0 0
POINTS 835
DATA ascii
0.00411961160909 -0.0563013586575 0.742 9.95273635585e-39
0.0054854127625 -0.0562254808157 0.741 1.02289715195e-38
0.00683825916243 -0.056073725132 0.739 4.69904560664e-39
0.0081948069205 -0.0559978472901 0.738 3.40975993506e-39
0.00953469856695 -0.0558460916064 0.736 2.8583994361e-39
0.0108967983622 -0.0558460916064 0.736 3.13535206459e-39
0.0122255859342 -0.0556943359227 0.734 2.95167967097e-39
0.0135839843714 -0.0556943359227 0.734 2.58433768634e-39
0.0149423828085 -0.0556943359227 0.734 2.30847666935e-39
0.0163007812457 -0.0556943359227 0.734 1.75602175629e-39
0.0176591796828 -0.0556943359227 0.734 1.29395059417e-39
0.0190175781199 -0.0556943359227 0.734 4.98246522754e-39
0.0203759765571 -0.0556943359227 0.734 6.27317181577e-39
0.0218528184547 -0.0559978472901 0.738 6.4575602729e-39
0.0232500811523 -0.056073725132 0.739 7.01039633915e-39
0.0246843574313 -0.0562254808157 0.741 7.10154099516e-39
0.0260557106219 -0.0562254808157 0.741 7.00863630827e-39
0.0276121317195 -0.056604870025 0.746 6.64163904306e-39
0.0290316025659 -0.0566807478668 0.747 6.82673375462e-39
0.030414059831 -0.0566807478668 0.747 6.82673095202e-39
0.0318816483332 -0.0568325035505 0.749 7.56394286372e-39
0.0334010558494 -0.0570601370761 0.752 7.83945775998e-39
0.03493156744 -0.0572877706017 0.755 7.37919987808e-39
0.0365213007609 -0.0575912819691 0.759 7.19480861835e-39
0.0379259661748 -0.0575912819691 0.759 8.02456928712e-39
0.0394342696166 -0.0577430376528 0.761 8.20968221555e-39
0.0411109848537 -0.0581224268621 0.766 8.57846473501e-39
0.0425841253931 -0.0581983047039 0.767 8.48699077385e-39
0.0440035962396 -0.0581983047039 0.767 7.93381979727e-39
0.0455415105465 -0.0583500603877 0.769 1.01987623272e-39
0.046964682751 -0.0583500603877 0.769 2.2867037142e-38
-0.0861232011862 -0.0615165722759 0.831 2.35095268827e-38
-0.0845852868793 -0.0615165722759 0.831 2.3418050119e-38
-0.0830473725724 -0.0615165722759 0.831 2.32343763241e-38
-0.0815094582655 -0.0615165722759 0.831 1.54889190664e-38
-0.0797790733354 -0.0613685179503 0.829 1.31850680833e-38
-0.0780560911215 -0.0612204636247 0.827 1.46580177407e-38
-0.0763405116239 -0.0610724092991 0.825 8.75531981159e-39
-0.0746323348426 -0.0609243549736 0.823 8.10636307848e-39
-0.0729315607776 -0.060776300648 0.821 1.06820827793e-38
-0.0710642255963 -0.0604801919968 0.817 1.01267481979e-38
-0.069381958322 -0.0603321376713 0.815 1.03115023939e-38
-0.0677070937639 -0.0601840833457 0.813 1.15122063843e-38
-0.0662024916803 -0.0601840833457 0.813 9.76264881787e-39
-0.0645387311966 -0.0600360290201 0.811 9.67045178671e-39
-0.0628823734293 -0.0598879746946 0.809 1.16965864337e-38
-0.0612334183782 -0.059739920369 0.807 1.2707488751e-38
-0.0595918660434 -0.0595918660434 0.805 1.22465063978e-38
-0.0579577164249 -0.0594438117178 0.803 1.2061743794e-38
-0.0564716211319 -0.0594438117178 0.803 1.16940346692e-38
-0.0549170507134 -0.059369784555 0.802 1.23401229443e-38
-0.0532995572065 -0.0592217302295 0.8 1.16976402101e-38
-0.0516894664159 -0.0590736759039 0.798 1.05030612953e-38
-0.0500867783416 -0.0589256215783 0.796 8.111004179e-39
-0.0484914929835 -0.0587775672528 0.794 8.48409428993e-39
-0.0469036103417 -0.0586295129272 0.792 8.02420074562e-39
-0.0453231304162 -0.0584814586016 0.79 7.56465892723e-39
-0.0438610939512 -0.0584814586016 0.79 7.2909390943e-39
-0.0423453877931 -0.0584074314388 0.789 7.38276478137e-39
-0.0406779259514 -0.0581113227877 0.785 8.0266824452e-39
-0.0391252062119 -0.0579632684621 0.783 8.30002953274e-39
-0.0376761245004 -0.0579632684621 0.783 8.3922293665e-39
-0.0361345088353 -0.0578152141365 0.781 8.20820804957e-39
-0.0346891284819 -0.0578152141365 0.781 9.49857272097e-39
-0.0332011825099 -0.0577411869737 0.78 9.13014052613e-39
-0.0316762229565 -0.0575931326482 0.778 7.83975903915e-39
-0.0301586661194 -0.0574450783226 0.776 8.76136080927e-39
-0.0287225391613 -0.0574450783226 0.776 9.96027534159e-39
-0.0271809234963 -0.0572229968342 0.773 7.56355890794e-39
-0.0256837241289 -0.0570749425087 0.771 6.82743580515e-39
-0.0241939274778 -0.0569268881831 0.769 6.91999156872e-39
-0.0226819226779 -0.0567048066947 0.766 6.73629395173e-39
-0.0212087821384 -0.0565567523691 0.764 7.28555110171e-39
-0.0197430443153 -0.0564086980436 0.762 7.46671937496e-39
-0.0183328268642 -0.0564086980436 0.762 8.94002636347e-39
-0.0169004012642 -0.0563346708808 0.761 8.84709645322e-39
-0.0154920344922 -0.0563346708808 0.761 7.37338589075e-39
-0.0140836677202 -0.0563346708808 0.761 1.00474276983e-38
-0.0126419887249 -0.0561866165552 0.759 6.63552798046e-39
-0.011237323311 -0.0561866165552 0.759 9.03149892333e-39
-0.00978083888321 -0.0558905079041 0.755 9.58576011012e-39
-0.00837247211119 -0.0558164807413 0.754 5.90153765394e-39
-0.00697706009266 -0.0558164807413 0.754 5.16650896525e-39
-0.00556684264157 -0.0556684264157 0.752 4.61442399498e-39
-0.00416402790676 -0.0555203720901 0.75 4.15342482618e-39
-0.00277231724637 -0.0554463449273 0.749 4.42750339152e-39
-0.00138245726504 -0.0552982906018 0.747 6.7313011253e-39
0.0 -0.0552982906018 0.747 7.46779276959e-39
0.00138060658597 -0.055224263439 0.746 8.11244191122e-39
0.00275381045567 -0.0550762091134 0.744 5.99121234786e-39
0.00411961160909 -0.0549281547878 0.742 1.03233139386e-38
0.00549281547878 -0.0549281547878 0.742 5.52806638982e-39
0.00685676595313 -0.054854127625 0.741 9.58429715452e-39
0.00820591099492 -0.0547060732995 0.739 6.90991623276e-39
0.00956060807392 -0.0546320461367 0.738 1.74559189182e-39
0.0108967983622 -0.0544839918111 0.736 3.87037514808e-39
0.0122588981575 -0.0544839918111 0.736 3.13356120515e-39
0.0135839843714 -0.0543359374855 0.734 2.85913231519e-39
0.0149423828085 -0.0543359374855 0.734 2.49322105629e-39
0.0163007812457 -0.0543359374855 0.734 2.21664817969e-39
0.0176591796828 -0.0543359374855 0.734 2.03296037179e-39
0.0190175781199 -0.0543359374855 0.734 4.06230399224e-39
0.0203759765571 -0.0543359374855 0.734 7.19730573221e-39
0.0218824293198 -0.0547060732995 0.739 7.93414910241e-39
0.0232500811523 -0.0547060732995 0.739 6.6423368897e-39
0.0246843574313 -0.054854127625 0.741 5.07501678722e-39
0.0260908735242 -0.0549281547878 0.742 6.64198796638e-39
0.0276491453009 -0.0552982906018 0.747 6.91893779227e-39
0.0290316025659 -0.0552982906018 0.747 7.103329052e-39
0.03049548971 -0.0554463449273 0.749 7.56431280651e-39
0.032009345189 -0.0556684264157 0.752 7.563958278e-39
0.0334898884448 -0.0558164807413 0.754 7.28521338878e-39
0.035116635347 -0.0561866165552 0.759 7.93093172114e-39
0.0365213007609 -0.0561866165552 0.759 8.02527133765e-39
0.0381758078492 -0.0565567523691 0.764 8.21146046331e-39
0.0396933646863 -0.0567048066947 0.766 8.57953812963e-39
0.0411646545467 -0.0567788338575 0.767 8.21040668686e-39
0.0425841253931 -0.0567788338575 0.767 8.67066036487e-39
0.0440035962396 -0.0567788338575 0.767 8.11783691031e-39
0.0455415105465 -0.0569268881831 0.769 2.51112684807e-42
0.046964682751 -0.0569268881831 0.769 2.26833661497e-38
-0.084788861577 -0.0601230109364 0.833 2.34180473164e-38
-0.0832472459119 -0.0601230109364 0.833 2.34180445138e-38
-0.0817056302469 -0.0601230109364 0.833 1.58551848538e-38
-0.0799715439586 -0.059978657969 0.831 1.26300852278e-38
-0.0782448603866 -0.0598343050015 0.829 1.50264317186e-38
-0.0765255795309 -0.0596899520341 0.827 1.61309702007e-38
-0.0748137013915 -0.0595455990667 0.825 1.1335005187e-38
-0.0731092259683 -0.0594012460992 0.823 7.91981381912e-39
-0.0710642255963 -0.0589681871969 0.817 9.02292437803e-39
-0.0695522207964 -0.0589681871969 0.817 9.76012928323e-39
-0.0678736548802 -0.0588238342295 0.815 1.19742635335e-38
-0.0663653514384 -0.0588238342295 0.815 1.14225246839e-38
-0.0646978895966 -0.0586794812621 0.813 1.14225190787e-38
-0.0628823734293 -0.0583907753272 0.809 1.14192764741e-38
-0.0613851740619 -0.0583907753272 0.809 1.03086101139e-38
-0.0595918660434 -0.0581020693923 0.805 1.27074873497e-38
-0.0581020693923 -0.0581020693923 0.805 1.15092944861e-38
-0.0564716211319 -0.0579577164249 0.803 1.18777056615e-38
-0.054985525839 -0.0579577164249 0.803 1.20613808577e-38
-0.0534328060995 -0.0578855399412 0.802 1.14178177224e-38
-0.0516894664159 -0.0575968340063 0.798 1.17902029802e-38
-0.0502126245183 -0.0575968340063 0.798 1.04126579261e-38
-0.0486136378021 -0.0574524810389 0.796 8.11207477102e-39
-0.0470220538022 -0.0573081280714 0.794 8.11423557325e-39
-0.0454378725186 -0.057163775104 0.792 7.84088288052e-39
-0.0438610939512 -0.0570194221366 0.79 7.75119697621e-39
-0.0423990574862 -0.0570194221366 0.79 7.19909098646e-39
-0.0408852020072 -0.0569472456528 0.789 7.65826426335e-39
-0.0392251428817 -0.056658539718 0.785 7.93197428719e-39
-0.0376761245004 -0.0565141867505 0.783 8.11636554692e-39
-0.0362270427888 -0.0565141867505 0.783 7.47315413751e-39
-0.0346891284819 -0.0563698337831 0.781 8.11672007543e-39
-0.0332011825099 -0.0562976572994 0.78 8.85355643914e-39
-0.0317576528356 -0.0562976572994 0.78 8.85463263636e-39
-0.0302363946403 -0.056153304332 0.778 7.84084644676e-39
-0.0287225391613 -0.0560089513645 0.776 7.56427637275e-39
-0.0272160863986 -0.0558645983971 0.774 7.19586519739e-39
-0.0257503485754 -0.0557924219134 0.773 7.65756221282e-39
-0.0242568505662 -0.0556480689459 0.771 7.01218719858e-39
-0.022711533543 -0.0553593630111 0.767 7.65826146075e-39
-0.0212643025105 -0.0552871865274 0.766 8.11494042638e-39
-0.0197948633292 -0.0551428335599 0.764 5.80717001145e-39
-0.0183328268642 -0.0549984805925 0.762 1.06009686177e-38
-0.0169004012642 -0.0549263041088 0.761 8.11277542025e-39
-0.0154920344922 -0.0549263041088 0.761 6.36177451637e-39
-0.0140836677202 -0.0549263041088 0.761 9.0347205085e-39
-0.0126753009482 -0.0549263041088 0.761 9.30773268571e-39
-0.011237323311 -0.0547819511413 0.759 9.58572367636e-39
-0.00978083888321 -0.0544932452065 0.755 7.92659049849e-39
-0.00838357618561 -0.0544932452065 0.755 6.45434849682e-39
-0.00697706009266 -0.0544210687227 0.754 5.34982402776e-39
-0.00556684264157 -0.0542767157553 0.752 4.88993188475e-39
-0.00416402790676 -0.0541323627879 0.75 4.79879283393e-39
-0.00277231724637 -0.0540601863042 0.749 5.25762839789e-39
-0.00138245726504 -0.0539158333367 0.747 4.51825007877e-39
0.0 -0.0539158333367 0.747 4.79448804505e-39
0.00138060658597 -0.053843656853 0.746 3.68814188799e-39
0.00275381045567 -0.0536993038856 0.744 4.24094572437e-39
0.00411961160909 -0.0535549509181 0.742 8.11242649694e-39
0.00549281547878 -0.0535549509181 0.742 6.35996964394e-39
0.00685676595313 -0.0534827744344 0.741 6.54327910126e-39
0.00822811914376 -0.0534827744344 0.741 1.06902901844e-38
0.00957356282741 -0.053338421467 0.739 1.06885063314e-38
0.0109264092273 -0.0532662449833 0.738 5.71428354145e-39
0.0122588981575 -0.0531218920158 0.736 3.31795246487e-39
0.0135839843714 -0.0529775390484 0.734 3.41158722826e-39
0.0149423828085 -0.0529775390484 0.734 2.67688784471e-39
0.0163007812457 -0.0529775390484 0.734 1.9400584875e-39
0.0176591796828 -0.0529775390484 0.734 1.66489391585e-39
0.0190693971339 -0.0531218920158 0.736 5.53815013357e-39
0.0204314969292 -0.0531218920158 0.736 6.55230206207e-39
0.0218824293198 -0.053338421467 0.739 5.53671100005e-39
0.0233130042406 -0.0534827744344 0.741 6.27427603896e-39
0.0247176696545 -0.0535549509181 0.742 6.18208040909e-39
0.0261611993289 -0.0536993038856 0.744 6.82744981814e-39
0.0276491453009 -0.0539158333367 0.747 7.01148795065e-39
0.0290316025659 -0.0539158333367 0.747 7.103329052e-39
0.0305362046496 -0.0541323627879 0.75 7.1033346572e-39
0.0320944764262 -0.0544210687227 0.754 7.01078449882e-39
0.0336231373378 -0.0546375981739 0.757 7.10153819256e-39
0.035116635347 -0.0547819511413 0.759 8.66885268985e-39
0.0366175360725 -0.0549263041088 0.761 8.76319230637e-39
0.0381758078492 -0.0551428335599 0.764 8.30330016336e-39
0.0396933646863 -0.0552871865274 0.766 6.73599127126e-39
0.0411646545467 -0.0553593630111 0.767 6.8271163091e-39
0.0425841253931 -0.0553593630111 0.767 7.8408996961e-39
0.0441183383419 -0.0555037159785 0.769 8.02419514043e-39
0.0455415105465 -0.0555037159785 0.769 7.41881038177e-40
0.046964682751 -0.0555037159785 0.769 2.22238299365e-38
-0.0867450293536 -0.05886269849 0.837 2.34169739218e-38
-0.084788861577 -0.0585813952714 0.833 2.34180473164e-38
-0.0832472459119 -0.0585813952714 0.833 2.34180445138e-38
-0.0817056302469 -0.0585813952714 0.833 1.57629892239e-38
-0.0799715439586 -0.0584407436621 0.831 1.40122966057e-38
-0.0782448603866 -0.0583000920528 0.829 1.27208193033e-38
-0.0765255795309 -0.0581594404435 0.827 1.30874354154e-38
-0.0748137013915 -0.0580187888342 0.825 1.6773824279e-38
-0.0731092259683 -0.0578781372249 0.823 1.4652605926e-38
-0.0714121532614 -0.0577374856156 0.821 5.33940817627e-39
-0.0695522207964 -0.057456182397 0.817 7.4581125998e-39
-0.0680402159965 -0.057456182397 0.817 9.4871367242e-39
-0.0665282111965 -0.057456182397 0.817 9.67332304726e-39
-0.0648570479966 -0.0573155307877 0.815 1.2161517646e-38
-0.063193287513 -0.0571748791784 0.813 1.19724446481e-38
-0.0615369297456 -0.0570342275691 0.811 1.10465268787e-38
-0.0598879746946 -0.0568935759598 0.809 1.26152931212e-38
-0.0581020693923 -0.0566122727412 0.805 1.31684626965e-38
-0.0566122727412 -0.0566122727412 0.805 1.29829812265e-38
-0.054985525839 -0.0564716211319 0.803 1.23372516838e-38
-0.0534994305461 -0.0564716211319 0.803 1.25216513513e-38
-0.0518190139508 -0.056260643718 0.8 1.16951332872e-38
-0.0502126245183 -0.0561199921087 0.798 1.15146894852e-38
-0.0486136378021 -0.0559793404994 0.796 1.00427879991e-38
-0.0471404972627 -0.0559793404994 0.796 8.66560027612e-39
-0.0455526146209 -0.0558386888901 0.794 7.74759704045e-39
-0.0439721346954 -0.0556980372808 0.792 7.19766026072e-39
-0.0423990574862 -0.0555573856715 0.79 7.19909519035e-39
-0.0409370210211 -0.0555573856715 0.79 7.65863280485e-39
-0.0394250162212 -0.0554870598669 0.789 7.56499664016e-39
-0.037772359812 -0.0552057566483 0.785 8.0270467828e-39
-0.0362270427888 -0.055065105039 0.783 7.29127680723e-39
-0.0347779610773 -0.055065105039 0.783 8.20999610641e-39
-0.0332437481285 -0.0549244534297 0.781 7.93304207662e-39
-0.0317576528356 -0.054854127625 0.78 9.0397427622e-39
-0.0303141231612 -0.054854127625 0.78 8.57913035178e-39
-0.0287965663241 -0.0547134760158 0.778 8.48622706619e-39
-0.0272864122032 -0.0545728244065 0.776 7.93270436369e-39
-0.0257836607987 -0.0544321727972 0.774 7.37952778192e-39
-0.0243197736545 -0.0543618469925 0.773 7.37988231043e-39
-0.0227707552732 -0.0540805437739 0.769 6.54905665483e-39
-0.0212920626966 -0.0539398921646 0.767 1.10662543585e-38
-0.0198466823432 -0.05386956636 0.766 1.17108852832e-38
-0.01838094452 -0.0537289147507 0.764 1.09744104545e-38
-0.0169226094131 -0.0535882631414 0.762 6.73416117547e-39
-0.015512391962 -0.0535882631414 0.762 6.64054743156e-39
-0.0141021745109 -0.0535882631414 0.762 7.37557471895e-39
-0.0126753009482 -0.0535179373367 0.761 1.07849703164e-38
-0.0112669341762 -0.0535179373367 0.761 1.07838941192e-38
-0.00983265789716 -0.0533772857275 0.759 7.00427126356e-39
-0.00838357618561 -0.0530959825089 0.755 1.06020616305e-38
-0.00698631348801 -0.0530959825089 0.755 6.54620220985e-39
-0.00558164807413 -0.0530256567042 0.754 5.99447176809e-39
-0.00417513198118 -0.0528850050949 0.752 4.98209108085e-39
-0.00277601860451 -0.0527443534856 0.75 5.34981001477e-39
-0.00138615862318 -0.052674027681 0.749 5.25617104749e-39
0.0 -0.0525333760717 0.747 5.16506843043e-39
0.00138245726504 -0.0525333760717 0.747 4.79593138247e-39
0.00276121317195 -0.052463050267 0.746 4.42750339152e-39
0.00411961160909 -0.0521817470484 0.742 4.24201911899e-39
0.00549281547878 -0.0521817470484 0.742 6.63909148246e-39
0.00685676595313 -0.0521114212438 0.741 6.54616997999e-39
0.00822811914376 -0.0521114212438 0.741 7.92803523721e-39
0.00957356282741 -0.0519707696345 0.739 3.68597548056e-39
0.0109264092273 -0.0519004438299 0.738 4.14839976989e-39
0.0122922103808 -0.0519004438299 0.738 3.96367500113e-39
0.0136580115342 -0.0519004438299 0.738 3.68852724506e-39
0.0150238126876 -0.0519004438299 0.738 2.95382786152e-39
0.016389613841 -0.0519004438299 0.738 2.30919553547e-39
0.0177554149944 -0.0519004438299 0.738 2.03331069641e-39
0.0191212161478 -0.0519004438299 0.738 5.2619149699e-39
0.0204870173013 -0.0519004438299 0.738 6.46045955942e-39
0.0218824293198 -0.0519707696345 0.739 6.36611573901e-39
0.0233444657848 -0.0521817470484 0.742 6.73489825846e-39
0.0248509185475 -0.052463050267 0.746 6.36647166882e-39
0.0262666880358 -0.0525333760717 0.747 7.01183827527e-39
0.0277601860451 -0.0527443534856 0.75 6.919645448e-39
0.0291481953473 -0.0527443534856 0.75 7.28807203764e-39
0.0307397793472 -0.0530959825089 0.755 7.28807624154e-39
0.0323073045192 -0.0533772857275 0.759 7.65650563378e-39
0.0338008025285 -0.0535179373367 0.761 7.28735597413e-39
0.0352554362772 -0.0535882631414 0.762 8.57845072202e-39
0.0367618890399 -0.0537289147507 0.764 8.02563707655e-39
0.0382757445189 -0.05386956636 0.766 7.38099494141e-39
0.0397451837003 -0.0539398921646 0.767 6.8271191117e-39
0.0412719939327 -0.0540805437739 0.769 7.37921389106e-39
0.0426951661373 -0.0540805437739 0.769 8.5777458689e-39
0.0441183383419 -0.0540805437739 0.769 8.39333358969e-39
0.0455415105465 -0.0540805437739 0.769 4.15347527293e-39
-0.0867450293536 -0.0573136801086 0.837 2.33247796932e-38
-0.0849924362746 -0.0571767298575 0.835 2.350988001e-38
-0.0834471192515 -0.0571767298575 0.835 2.350988001e-38
-0.0817056302469 -0.0570397796063 0.833 1.5486039398e-38
-0.0801640145819 -0.0570397796063 0.833 1.29059490473e-38
-0.0784336296517 -0.0569028293552 0.831 1.51175399409e-38
-0.0767106474379 -0.056765879104 0.829 1.04133978117e-38
-0.0749950679403 -0.0566289288529 0.827 1.57589506818e-38
-0.073286891159 -0.0564919786017 0.825 1.56699920513e-38
-0.0715861170939 -0.0563550283506 0.823 1.668306498e-38
-0.0697224832708 -0.0560811278482 0.819 8.19963070167e-39
-0.0680402159965 -0.0559441775971 0.817 1.00435432989e-38
-0.0665282111965 -0.0559441775971 0.817 1.06889099054e-38
-0.0650162063966 -0.0559441775971 0.817 1.11491607808e-38
-0.063193287513 -0.0556702770948 0.813 1.16972912868e-38
-0.0615369297456 -0.0555333268436 0.811 1.21532247616e-38
-0.0598879746946 -0.0553963765925 0.809 1.11398071135e-38
-0.0582464223598 -0.0552594263413 0.807 1.18766490824e-38
-0.0566122727412 -0.0551224760902 0.805 1.19681146358e-38
-0.0551224760902 -0.0551224760902 0.805 1.22432623919e-38
-0.0534994305461 -0.054985525839 0.803 1.25194961543e-38
-0.0519485614857 -0.0549170507134 0.802 1.12309181384e-38
-0.0503384706951 -0.0547801004623 0.8 1.13263451625e-38
-0.0487357826207 -0.0546431502111 0.798 1.25266750063e-38
-0.0471404972627 -0.05450619996 0.796 9.4006359713e-39
-0.0455526146209 -0.0543692497088 0.794 8.20676891605e-39
-0.0440831754396 -0.0543692497088 0.794 7.65684054411e-39
-0.0425063968722 -0.0542322994576 0.792 7.47461148791e-39
-0.0409370210211 -0.0540953492065 0.79 7.84267514126e-39
-0.0394250162212 -0.0540268740809 0.789 7.38025365452e-39
-0.0378685951236 -0.0538899238298 0.787 7.93557702555e-39
-0.0363195767423 -0.0537529735786 0.785 7.38491157062e-39
-0.0347779610773 -0.0536160233274 0.783 7.56714763331e-39
-0.0332437481285 -0.0534790730763 0.781 7.10472614657e-39
-0.0317983677751 -0.0534790730763 0.781 7.75044588023e-39
-0.0303141231612 -0.0534105979507 0.78 7.93376094274e-39
-0.0287965663241 -0.0532736476996 0.778 8.94756114532e-39
-0.0272864122032 -0.0531366974484 0.776 9.49966573377e-39
-0.0258502852452 -0.0531366974484 0.776 8.67025819221e-39
-0.0243512351987 -0.0529997471972 0.774 8.11671727283e-39
-0.0228299770035 -0.0527943218205 0.771 7.74544744861e-39
-0.0213475830687 -0.0526573715693 0.769 6.91708107181e-39
-0.0199244108641 -0.0526573715693 0.769 7.19617208176e-39
-0.0184290621758 -0.0524519461926 0.766 7.01253051671e-39
-0.0170114420084 -0.0524519461926 0.766 6.73704644901e-39
-0.0155531069015 -0.0523149959415 0.764 6.64307677529e-39
-0.0141021745109 -0.0521780456903 0.762 6.82349395257e-39
-0.0126919570598 -0.0521780456903 0.762 1.02328545176e-38
-0.0112669341762 -0.0521095705647 0.761 1.09682825763e-38
-0.00985856740414 -0.0521095705647 0.761 6.08087302881e-39
-0.00845020063212 -0.0521095705647 0.761 1.06928027125e-38
-0.0070048202787 -0.0518356700624 0.757 7.00573001526e-39
-0.00558905079041 -0.0516987198113 0.755 5.9004726671e-39
-0.0041862360556 -0.0516302446857 0.754 6.17918112257e-39
-0.00278342132079 -0.0514932944345 0.752 5.90189078115e-39
-0.00138800930225 -0.0513563441834 0.75 4.88738852804e-39
0.0 -0.0513563441834 0.75 4.7977222419e-39
0.00138615862318 -0.0512878690578 0.749 5.07467627169e-39
0.00277231724637 -0.0512878690578 0.749 4.33639236667e-39
0.00414181975792 -0.0510824436811 0.746 4.33674409259e-39
0.00550762091134 -0.0509454934299 0.744 4.88954933027e-39
0.00686601934848 -0.0508085431787 0.742 3.69064040315e-39
0.00823922321818 -0.0508085431787 0.742 4.88847593565e-39
0.00959947233438 -0.0507400680532 0.741 3.96581478389e-39
0.010970825525 -0.0507400680532 0.741 3.50447089567e-39
0.0123088664924 -0.050603117802 0.739 4.05694822951e-39
0.0136580115342 -0.0505346426764 0.738 3.32045938783e-39
0.0150238126876 -0.0505346426764 0.738 3.5066373031e-39
0.016389613841 -0.0505346426764 0.738 2.49321965499e-39
0.0177794738223 -0.050603117802 0.739 2.49392170553e-39
0.0191471256548 -0.050603117802 0.739 5.5388549867e-39
0.0205147774873 -0.050603117802 0.739 6.64520534766e-39
0.02194165105 -0.0507400680532 0.741 6.6427026286e-39
0.0234073888732 -0.0509454934299 0.744 7.19587921038e-39
0.0248509185475 -0.0510824436811 0.746 6.82709388833e-39
0.0263370138405 -0.0512878690578 0.749 7.38062079472e-39
0.0277601860451 -0.0513563441834 0.75 7.01183827527e-39
0.0292259238682 -0.0514932944345 0.752 7.56501485704e-39
0.0308212092263 -0.0518356700624 0.757 7.56465892723e-39
0.0323924357565 -0.0521095705647 0.761 8.21003113887e-39
0.0338008025285 -0.0521095705647 0.761 8.30257429076e-39
0.0353479702307 -0.0523149959415 0.764 8.21146046331e-39
0.0367618890399 -0.0523149959415 0.764 6.92001679209e-39
0.0383257128538 -0.0525204213182 0.767 7.93274360005e-39
0.0398488217282 -0.0526573715693 0.769 8.11642720405e-39
0.0413793333188 -0.0527943218205 0.771 8.66923664563e-39
0.0428062068815 -0.0527943218205 0.771 9.31423190799e-39
0.0443478225465 -0.0529312720717 0.773 7.65576855079e-39
0.0457783974674 -0.0529312720717 0.773 8.94656622341e-39
-0.0887160025628 -0.0560311595134 0.841 2.35098856151e-38
-0.0867450293536 -0.0557646617273 0.837 2.27716143218e-38
-0.0851960109723 -0.0557646617273 0.837 2.34180431125e-38
-0.0834471192515 -0.0556314128343 0.835 2.35098786087e-38
-0.0819018022283 -0.0556314128343 0.835 1.56697075878e-38
-0.0801640145819 -0.0554981639413 0.833 1.09691191515e-38
-0.0786223989168 -0.0554981639413 0.833 1.2626457266e-38
-0.0768957153448 -0.0553649150483 0.831 1.42841723299e-38
-0.0749950679403 -0.0550984172622 0.827 1.21622365121e-38
-0.073286891159 -0.0549651683692 0.825 1.4288130998e-38
-0.0715861170939 -0.0548319194762 0.823 1.44721677292e-38
-0.0698927457452 -0.0546986705832 0.821 1.58533071138e-38
-0.0682067771127 -0.0545654216902 0.819 1.09669415337e-38
-0.0666910709547 -0.0545654216902 0.819 5.52739376656e-39
-0.0650162063966 -0.0544321727972 0.817 1.1150236978e-38
-0.0633487445548 -0.0542989239041 0.815 1.39117786643e-38
-0.0616886854293 -0.0541656750111 0.813 1.27081922029e-38
-0.0600360290201 -0.0540324261181 0.811 1.10479674135e-38
-0.0583907753272 -0.0538991772251 0.809 1.28907996096e-38
-0.0567529243505 -0.0537659283321 0.807 1.15993321164e-38
-0.0551224760902 -0.0536326794391 0.805 1.25198492815e-38
-0.0536326794391 -0.0536326794391 0.805 1.27028084142e-38
-0.0519485614857 -0.0534328060995 0.802 1.21510779724e-38
-0.0504643168718 -0.0534328060995 0.802 1.12309125332e-38
-0.0487357826207 -0.0531663083135 0.798 1.13252577549e-38
-0.0471404972627 -0.0530330594205 0.796 1.04108320342e-38
-0.0456673567232 -0.0530330594205 0.796 7.92802402682e-39
-0.0440831754396 -0.0528998105275 0.794 7.28590282762e-39
-0.0425063968722 -0.0527665616345 0.792 9.1308986286e-39
-0.0409370210211 -0.0526333127414 0.79 7.65541262098e-39
-0.0394749845561 -0.0526333127414 0.79 7.84015700792e-39
-0.0379648304352 -0.0525666882949 0.789 8.11853475694e-39
-0.0363195767423 -0.0523001905089 0.785 7.3838353734e-39
-0.0347779610773 -0.0521669416159 0.783 8.02813419041e-39
-0.0332437481285 -0.0520336927229 0.781 7.93449522313e-39
-0.0317983677751 -0.0520336927229 0.781 8.11887527247e-39
-0.0303529874217 -0.0520336927229 0.781 8.20999190252e-39
-0.0288705934869 -0.0519670682764 0.78 7.1951253118e-39
-0.0273567380079 -0.0518338193833 0.778 8.30075960924e-39
-0.0258502852452 -0.0517005704903 0.776 8.39294963391e-39
-0.0243512351987 -0.0515673215973 0.774 9.49892584818e-39
-0.0228891987337 -0.0515006971508 0.773 8.11493762379e-39
-0.0214586238128 -0.0515006971508 0.773 8.11634592874e-39
-0.019976229878 -0.0513674482578 0.771 7.74828788059e-39
-0.0185012386595 -0.0512341993648 0.769 6.64377882582e-39
-0.0170336501573 -0.0511009504718 0.767 6.18531460595e-39
-0.0156141793108 -0.0511009504718 0.767 6.36827654124e-39
-0.0141762016737 -0.0510343260252 0.766 6.64018169266e-39
-0.0127252692831 -0.0509010771322 0.764 8.94248984618e-39
-0.0112817396087 -0.0507678282392 0.762 1.04158388736e-38
-0.00987152215763 -0.0507678282392 0.762 6.17414345459e-39
-0.00845020063212 -0.0507012037927 0.761 1.10619313527e-38
-0.0070233270694 -0.0505679548997 0.759 7.74185031545e-39
-0.00560385622296 -0.0504347060067 0.757 4.97563249623e-39
-0.0041917880928 -0.0503014571137 0.755 7.92908621106e-39
-0.00279082403706 -0.0502348326672 0.754 8.94325495514e-39
-0.00139171066039 -0.0501015837741 0.752 5.07106372425e-39
0.0 -0.0499683348811 0.75 5.34980861347e-39
0.00138615862318 -0.0499017104346 0.749 4.42929565226e-39
0.00277231724637 -0.0499017104346 0.749 4.33674829648e-39
0.00414181975792 -0.0497018370951 0.746 4.33674829648e-39
0.0055224263439 -0.0497018370951 0.746 3.96868043925e-39
0.00688452613918 -0.0495685882021 0.744 4.52185421843e-39
0.00823922321818 -0.0494353393091 0.742 3.87541701995e-39
0.00961242708787 -0.0494353393091 0.742 3.32225725376e-39
0.010970825525 -0.0493687148625 0.741 3.78249832008e-39
0.0123421787156 -0.0493687148625 0.741 3.8736359696e-39
0.0136765183249 -0.0492354659695 0.739 3.59740220723e-39
0.0150441701574 -0.0492354659695 0.739 3.32224043818e-39
0.0164118219898 -0.0492354659695 0.739 2.67688504212e-39
0.0177794738223 -0.0492354659695 0.739 4.24599180014e-39
0.0191471256548 -0.0492354659695 0.739 5.90763470356e-39
0.0205702978594 -0.0493687148625 0.741 6.92178943465e-39
0.0220304836454 -0.0495685882021 0.744 6.6427054312e-39
0.0234703119616 -0.0497018370951 0.746 7.3802718714e-39
0.0248842307708 -0.0497684615416 0.747 6.73489825846e-39
0.0263370138405 -0.0499017104346 0.749 7.01184107786e-39
0.0278342132079 -0.0501015837741 0.752 7.28842516486e-39
0.0293425166496 -0.0503014571137 0.755 7.10403670773e-39
0.0309026391054 -0.0505679548997 0.759 8.11783270641e-39
0.0323924357565 -0.0507012037927 0.761 7.74905298956e-39
0.0338452188261 -0.0507678282392 0.762 7.013269001e-39
0.0353479702307 -0.0509010771322 0.764 7.19622953499e-39
0.0368581243516 -0.0510343260252 0.766 7.93309532597e-39
0.0384256495236 -0.0512341993648 0.769 7.7472817483e-39
0.0399524597561 -0.0513674482578 0.771 9.2220586989e-39
0.0414866727048 -0.0515006971508 0.773 9.31460605468e-39
0.0429172476257 -0.0515006971508 0.773 9.40750653767e-39
0.0443478225465 -0.0515006971508 0.773 6.27320404563e-39
0.0457783974674 -0.0515006971508 0.773 1.43850279842e-38
-0.0904871024325 -0.0546042859506 0.843 2.35098856151e-38
-0.0887160025628 -0.0544747384158 0.841 2.35098856151e-38
-0.0869523054094 -0.0543451908809 0.839 2.35095268827e-38
-0.0851960109723 -0.054215643346 0.837 2.27726737035e-38
-0.0834471192515 -0.0540860958111 0.835 2.35098786087e-38
-0.0819018022283 -0.0540860958111 0.835 1.45633572268e-38
-0.0803564852051 -0.0540860958111 0.835 8.10961268962e-39
-0.0786223989168 -0.0539565482763 0.833 1.35480520297e-38
-0.0770807832518 -0.0539565482763 0.833 1.20711114742e-38
-0.0753578010379 -0.0538270007414 0.831 1.41890956303e-38
-0.0734645563497 -0.0535679056716 0.827 1.27190074244e-38
-0.0717600809265 -0.0534383581368 0.825 1.41026663437e-38
-0.0700630082196 -0.0533088106019 0.823 1.52079377048e-38
-0.068373338229 -0.053179263067 0.821 1.56685627269e-38
-0.0666910709547 -0.0530497155321 0.819 1.06914308413e-38
-0.0651753647966 -0.0530497155321 0.819 9.39996194673e-39
-0.0635042015967 -0.0529201679972 0.817 1.23473298223e-38
-0.0618404411131 -0.0527906204624 0.815 1.31720444153e-38
-0.0601840833457 -0.0526610729275 0.813 1.19717173742e-38
-0.0585351282946 -0.0525315253926 0.811 1.00345273446e-38
-0.0567529243505 -0.0522724303229 0.807 1.17851569044e-38
-0.0552594263413 -0.0522724303229 0.807 1.22447001241e-38
-0.0537659283321 -0.0522724303229 0.807 1.13216718321e-38
-0.0520133352531 -0.0520133352531 0.803 1.18744910828e-38
-0.0505272399602 -0.0520133352531 0.803 1.15075022254e-38
-0.0488579274393 -0.0518190139508 0.8 1.19695509667e-38
-0.0472589407231 -0.0516894664159 0.798 1.18827335204e-38
-0.0457820988255 -0.0516894664159 0.798 1.05973897014e-38
-0.0441942161837 -0.051559918881 0.796 9.40316671632e-39
-0.0426137362582 -0.0514303713462 0.794 8.66668768373e-39
-0.0411442970769 -0.0514303713462 0.794 8.39010079414e-39
-0.0395749212258 -0.0513008238113 0.792 8.20606546422e-39
-0.038012948091 -0.0511712762764 0.79 8.20785912625e-39
-0.0365046446493 -0.051106502509 0.789 7.4731653479e-39
-0.0348667936726 -0.0508474074392 0.785 7.38097252063e-39
-0.0334140106029 -0.0508474074392 0.785 7.28912861668e-39
-0.0318797976542 -0.0507178599043 0.783 8.11852074396e-39
-0.0303529874217 -0.0505883123695 0.781 9.31634226347e-39
-0.0288705934869 -0.050523538602 0.78 8.94648915199e-39
-0.0273567380079 -0.0503939910671 0.778 7.84014439623e-39
-0.0259169096917 -0.0503939910671 0.778 8.11636554692e-39
-0.0244141582871 -0.0502644435323 0.776 7.56354069106e-39
-0.0229188095988 -0.0501348959974 0.774 8.20855837419e-39
-0.0214863839989 -0.0501348959974 0.774 8.3922279652e-39
-0.020028048892 -0.0500701222299 0.773 8.02346506393e-39
-0.0185493563153 -0.0499405746951 0.771 7.37955580789e-39
-0.0170780664549 -0.0498110271602 0.769 6.64556968526e-39
-0.0156548942503 -0.0498110271602 0.769 6.55372578131e-39
-0.0141762016737 -0.0496167058579 0.766 6.82599386903e-39
-0.0127252692831 -0.049487158323 0.764 8.11311173189e-39
-0.0112817396087 -0.0493576107881 0.762 1.05098519876e-38
-0.00987152215763 -0.0493576107881 0.762 6.91422242294e-39
-0.00845020063212 -0.0492928370207 0.761 1.17083699525e-38
-0.0070418338601 -0.0492928370207 0.761 6.26635590004e-39
-0.00561866165552 -0.0491632894858 0.759 6.81774582627e-39
-0.00420289216722 -0.0490337419509 0.757 1.24452217305e-38
-0.0027945253952 -0.0489041944161 0.755 7.74470055653e-39
-0.00139541201853 -0.0488394206486 0.754 4.42461671669e-39
0.0 -0.0487098731137 0.752 7.00823833951e-39
0.00138800930225 -0.0485803255789 0.75 5.44091263183e-39
0.00277231724637 -0.0485155518114 0.749 3.87360514104e-39
0.00415847586955 -0.0485155518114 0.749 4.61189465125e-39
0.0055224263439 -0.0483212305091 0.746 5.53421108359e-39
0.00688452613918 -0.0481916829742 0.744 4.70553081593e-39
0.00826143136701 -0.0481916829742 0.744 4.06017401858e-39
0.00961242708787 -0.0480621354394 0.742 4.05982509526e-39
0.0109856309576 -0.0480621354394 0.742 4.06017121598e-39
0.0123421787156 -0.0479973616719 0.741 4.1509445279e-39
0.0137135319063 -0.0479973616719 0.741 3.87398909682e-39
0.0150848850969 -0.0479973616719 0.741 3.59810425776e-39
0.0164562382875 -0.0479973616719 0.741 3.22969588499e-39
0.0178275914781 -0.0479973616719 0.741 3.87648761198e-39
0.0192248541757 -0.0480621354394 0.742 6.46044694773e-39
0.0205980580454 -0.0480621354394 0.742 7.47496321383e-39
0.0220897053756 -0.0483212305091 0.746 6.73490246236e-39
0.0235017735058 -0.0483860042765 0.747 6.91893779227e-39
0.0249508552173 -0.0485155518114 0.749 6.82709809222e-39
0.0263721767428 -0.0485803255789 0.75 7.38026766751e-39
0.0279082403706 -0.0488394206486 0.754 7.84124581682e-39
0.0294202451706 -0.0490337419509 0.757 8.21002833628e-39
0.0309840689844 -0.0492928370207 0.761 8.21003113887e-39
0.0323924357565 -0.0492928370207 0.761 7.56466313113e-39
0.0338452188261 -0.0493576107881 0.762 6.91999717391e-39
0.0353479702307 -0.049487158323 0.764 7.3799047312e-39
0.0369062420074 -0.0496814796253 0.767 8.39300008066e-39
0.0385255861933 -0.0499405746951 0.771 9.49791971588e-39
0.040056097784 -0.0500701222299 0.773 9.13021619625e-39
0.0414866727048 -0.0500701222299 0.773 9.40787367786e-39
0.0429172476257 -0.0500701222299 0.773 9.13128118308e-39
0.0443478225465 -0.0500701222299 0.773 4.79916557932e-39
0.0457783974674 -0.0500701222299 0.773 1.73345692737e-38
-0.0904871024325 -0.0530441634949 0.843 2.35098856151e-38
-0.0887160025628 -0.0529183173182 0.841 2.35098856151e-38
-0.0869523054094 -0.0527924711414 0.839 2.3232944197e-38
-0.08539958567 -0.0527924711414 0.839 2.35095198762e-38
-0.083646992591 -0.0526666249647 0.837 2.32329315854e-38
-0.0820979742097 -0.0526666249647 0.837 1.77894854059e-38
-0.0803564852051 -0.052540778788 0.835 1.05988932946e-38
-0.0788111681819 -0.052540778788 0.835 1.18878076221e-38
-0.0770807832518 -0.0524149326112 0.833 1.26228447186e-38
-0.0753578010379 -0.0522890864345 0.831 1.30820264033e-38
-0.0736422215403 -0.0521632402577 0.829 1.25324609676e-38
-0.071934044759 -0.052037394081 0.827 1.36384539975e-38
-0.070233270694 -0.0519115479043 0.825 1.51132309481e-38
-0.0685398993453 -0.0517857017275 0.823 1.41927151843e-38
-0.0668539307128 -0.0516598555508 0.821 1.52093796409e-38
-0.0653345231966 -0.0516598555508 0.821 1.27208052903e-38
-0.0635042015967 -0.0514081631973 0.817 9.39922766634e-39
-0.0619921967968 -0.0514081631973 0.817 1.20689338564e-38
-0.0601840833457 -0.0511564708438 0.813 1.36326694374e-38
-0.0586794812621 -0.0511564708438 0.813 1.38159788947e-38
-0.0568935759598 -0.0509047784904 0.809 1.18795007248e-38
-0.0553963765925 -0.0509047784904 0.809 1.33524798095e-38
-0.0537659283321 -0.0507789323136 0.807 1.10468772033e-38
-0.052142882788 -0.0506530861369 0.805 1.28904394759e-38
-0.0505272399602 -0.0505272399602 0.803 1.12316342019e-38
-0.0489800722579 -0.0504643168718 0.802 1.12327075965e-38
-0.0473773841836 -0.0503384706951 0.8 1.25252428793e-38
-0.0457820988255 -0.0502126245183 0.798 1.24366443826e-38
-0.0443052569279 -0.0502126245183 0.798 1.0136425565e-38
-0.0427210756443 -0.0500867783416 0.796 1.00467438646e-38
-0.0411442970769 -0.0499609321648 0.794 1.15211522737e-38
-0.0396748578956 -0.0499609321648 0.794 1.04148047154e-38
-0.038012948091 -0.0497092398114 0.79 9.58684191253e-39
-0.036550911626 -0.0497092398114 0.79 8.66740654984e-39
-0.0350444588633 -0.049646316723 0.789 8.11674389751e-39
-0.0334140106029 -0.0493946243695 0.785 7.65719367132e-39
-0.0318797976542 -0.0492687781928 0.783 7.65646639742e-39
-0.0303529874217 -0.049142932016 0.781 8.30183580646e-39
-0.0289076070683 -0.049142932016 0.781 8.85465785973e-39
-0.0274270638125 -0.0490800089277 0.78 9.03833305594e-39
-0.0259169096917 -0.0489541627509 0.778 8.20892691568e-39
-0.0244141582871 -0.0488283165742 0.776 8.11708020914e-39
-0.0229188095988 -0.0487024703975 0.774 7.93376094274e-39
-0.0214863839989 -0.0487024703975 0.774 8.76138182875e-39
-0.020053958399 -0.0487024703975 0.774 9.31240881868e-39
-0.0185974739711 -0.0486395473091 0.773 8.2989757563e-39
-0.0171224827526 -0.0485137011324 0.771 7.19514212738e-39
-0.0156548942503 -0.0483878549556 0.769 6.92069922444e-39
-0.0141947084644 -0.0482620087789 0.767 7.10400027397e-39
-0.0127585815063 -0.0481990856905 0.766 6.27208160556e-39
-0.0113113504738 -0.0480732395138 0.764 7.10186469511e-39
-0.0098974316646 -0.0480732395138 0.764 6.91709928869e-39
-0.00846130470654 -0.047947393337 0.762 9.95844664709e-39
-0.00705108725545 -0.047947393337 0.762 9.58539577252e-39
-0.00563346708808 -0.0478844702487 0.761 1.01364283676e-38
-0.00421399624164 -0.0477586240719 0.759 1.14303425281e-38
-0.0027945253952 -0.0475069317185 0.755 8.57301648658e-39
-0.00139541201853 -0.0474440086301 0.754 6.0830688635e-39
0.0 -0.0473181624533 0.752 1.20757483709e-38
0.00138800930225 -0.0471923162766 0.75 1.05087757904e-38
0.00277231724637 -0.0471293931882 0.749 1.01407317552e-38
0.00415847586955 -0.0471293931882 0.749 5.25437738546e-39
0.00552982906018 -0.0470035470115 0.747 5.53169014765e-39
0.00690303292987 -0.0469406239231 0.746 4.97995830459e-39
0.00826143136701 -0.0468147777464 0.744 4.79629712136e-39
0.00963833659485 -0.0468147777464 0.744 4.61119820591e-39
0.0109856309576 -0.0466889315697 0.742 3.87578275885e-39
0.0123588348273 -0.0466889315697 0.742 3.96727773948e-39
0.0137135319063 -0.0466260084813 0.741 3.96582879687e-39
0.0150848850969 -0.0466260084813 0.741 3.87469114735e-39
0.0164562382875 -0.0466260084813 0.741 3.78178926306e-39
0.017851650306 -0.0466889315697 0.742 3.96796437573e-39
0.0192766731897 -0.0468147777464 0.744 6.27605568801e-39
0.0206535784175 -0.0468147777464 0.744 7.01398506451e-39
0.0220897053756 -0.0469406239231 0.746 6.36576401309e-39
0.0235017735058 -0.0470035470115 0.747 7.47211437405e-39
0.0249508552173 -0.0471293931882 0.749 6.82709809222e-39
0.0264425025475 -0.0473181624533 0.752 7.65685876099e-39
0.027945253952 -0.0475069317185 0.755 7.84125002072e-39
0.0294979736915 -0.0477586240719 0.759 7.84125002072e-39
0.0309840689844 -0.0478844702487 0.761 7.01113622473e-39
0.0324350013751 -0.047947393337 0.762 7.1033346572e-39
0.0339340514215 -0.0480732395138 0.764 7.56429599093e-39
0.0354867711609 -0.0482620087789 0.767 8.30078763521e-39
0.037002477319 -0.0483878549556 0.769 9.31316131596e-39
0.0385255861933 -0.0485137011324 0.771 1.02351232198e-38
0.040056097784 -0.0486395473091 0.773 9.03729329248e-39
0.0415403423978 -0.0487024703975 0.774 9.13163851419e-39
0.0429727679978 -0.0487024703975 0.774 8.39587694641e-39
0.0444051935977 -0.0487024703975 0.774 2.95670612856e-39
0.0458376191976 -0.0487024703975 0.774 2.07450873113e-38
-0.0904871024325 -0.0514840410392 0.843 2.35098856151e-38
-0.0889269799768 -0.0514840410392 0.843 2.35098856151e-38
-0.0871595814652 -0.0513618962206 0.841 2.35095268827e-38
-0.0856031603676 -0.0513618962206 0.841 2.33251272152e-38
-0.0838468659305 -0.051239751402 0.839 2.35087954049e-38
-0.0822941461911 -0.051239751402 0.839 1.52080077697e-38
-0.0805489558284 -0.0511176065834 0.837 7.6482730053e-39
-0.078999937447 -0.0511176065834 0.837 1.52983270609e-38
-0.0772658511588 -0.0509954617648 0.835 1.20700268692e-38
-0.0755391675868 -0.0508733169462 0.833 9.02505715429e-39
-0.073819886731 -0.0507511721276 0.831 1.20696849524e-38
-0.071934044759 -0.0505068824904 0.827 1.68635059794e-38
-0.070233270694 -0.0503847376718 0.825 1.35437486421e-38
-0.0687064604615 -0.0503847376718 0.825 1.48370111987e-38
-0.0670167904709 -0.0502625928532 0.823 1.33658313813e-38
-0.0654936815966 -0.0502625928532 0.823 1.38285919822e-38
-0.0636596586385 -0.050018303216 0.819 1.40104510956e-38
-0.0621439524805 -0.050018303216 0.819 9.76620110947e-39
-0.0604801919968 -0.0498961583974 0.817 1.25277540061e-38
-0.0586794812621 -0.0496518687602 0.813 1.26185048973e-38
-0.0570342275691 -0.0495297239416 0.811 1.19727711506e-38
-0.0555333268436 -0.0495297239416 0.811 1.05887619067e-38
-0.0538991772251 -0.049407579123 0.809 1.17858813757e-38
-0.052142882788 -0.0491632894858 0.805 1.16933354212e-38
-0.0506530861369 -0.0491632894858 0.805 1.13252717679e-38
-0.0490411446672 -0.0490411446672 0.803 1.28929478002e-38
-0.047495827644 -0.0489800722579 0.802 1.30766314042e-38
-0.0460115830302 -0.0489800722579 0.802 1.1696212287e-38
-0.0444162976721 -0.0488579274393 0.8 1.12402605953e-38
-0.0428284150303 -0.0487357826207 0.798 1.00438641963e-38
-0.0412479351048 -0.0486136378021 0.796 1.24409477701e-38
-0.0397747945654 -0.0486136378021 0.796 1.09650974249e-38
-0.0382054187143 -0.0484914929835 0.794 9.67544461313e-39
-0.0366434455795 -0.0483693481649 0.792 9.03224021022e-39
-0.035088875161 -0.0482472033463 0.79 7.93091770815e-39
-0.0334991418401 -0.0480639861184 0.787 8.11709562342e-39
-0.0319612275332 -0.0479418412998 0.785 7.84086045974e-39
-0.0304307159426 -0.0478196964812 0.783 7.74866482988e-39
-0.0289076070683 -0.0476975516626 0.781 7.93270436369e-39
-0.0274270638125 -0.0476364792533 0.78 8.30113375593e-39
-0.0259835341382 -0.0476364792533 0.78 8.76246503246e-39
-0.0244770813755 -0.0475143344347 0.778 9.31599053756e-39
-0.022978031329 -0.0473921896161 0.776 8.02739850872e-39
-0.021541904371 -0.0473921896161 0.776 7.65539860799e-39
-0.020053958399 -0.0472700447975 0.774 8.02164898112e-39
-0.018621532799 -0.0472700447975 0.774 9.1283398576e-39
-0.0171668990503 -0.0472089723882 0.773 8.02309652243e-39
-0.0156956091899 -0.0470868275696 0.771 7.10329542084e-39
-0.0142317220458 -0.046964682751 0.769 7.47456384377e-39
-0.0127752376179 -0.0468425379324 0.767 7.28802579479e-39
-0.0113409613389 -0.0467814655231 0.766 6.73488704807e-39
-0.0098974316646 -0.0466593207045 0.764 6.82670572865e-39
-0.00846130470654 -0.0465371758859 0.762 7.74754659371e-39
-0.00705108725545 -0.0465371758859 0.762 1.04151564413e-38
-0.00563346708808 -0.0464761034766 0.761 7.83153762106e-39
-0.00421399624164 -0.0463539586581 0.759 8.94069478284e-39
-0.00280192811148 -0.0462318138395 0.757 8.57265355028e-39
-0.0013972626976 -0.0461096690209 0.755 5.43698198964e-39
0.0 -0.0460485966116 0.754 9.95343980768e-39
0.00139171066039 -0.045926451793 0.752 6.9109798183e-39
0.00277601860451 -0.0458043069744 0.75 8.01734699483e-39
0.00415847586955 -0.0457432345651 0.749 7.8336928181e-39
0.00554463449273 -0.0457432345651 0.749 3.8707240714e-39
0.00690303292987 -0.0455600173372 0.746 3.87216881011e-39
0.00828363951585 -0.0455600173372 0.746 3.68886495799e-39
0.00963833659485 -0.0454378725186 0.744 4.33352951391e-39
0.0109856309576 -0.0453157277 0.742 4.33676090817e-39
0.0123588348273 -0.0453157277 0.742 4.33570432913e-39
0.013732038697 -0.0453157277 0.742 4.05802722933e-39
0.0151052425667 -0.0453157277 0.742 3.87397508383e-39
0.0164784464364 -0.0453157277 0.742 3.78107179824e-39
0.017851650306 -0.0453157277 0.742 5.44309445354e-39
0.0192766731897 -0.0454378725186 0.744 6.7359548375e-39
0.0207090987896 -0.0455600173372 0.746 7.01398786711e-39
0.0221193162407 -0.0456210897465 0.747 6.73454653255e-39
0.0235646965941 -0.0457432345651 0.749 7.28772311432e-39
0.0249841674406 -0.0458043069744 0.75 7.74869846104e-39
0.0265128283521 -0.0460485966116 0.754 8.1174809805e-39
0.0280192811148 -0.0462318138395 0.757 7.56430720132e-39
0.0294979736915 -0.0463539586581 0.759 7.65650563378e-39
0.0309840689844 -0.0464761034766 0.761 7.65615110527e-39
0.0324350013751 -0.0465371758859 0.762 8.02493642732e-39
0.0340228840168 -0.0467814655231 0.766 9.3142206976e-39
0.0355793051144 -0.046964682751 0.769 9.68192982243e-39
0.0370987126306 -0.0470868275696 0.771 9.86561903162e-39
0.0386255228631 -0.0472089723882 0.773 8.85146710313e-39
0.0401079167979 -0.0472700447975 0.774 8.85325375867e-39
0.0415403423978 -0.0472700447975 0.774 8.11855998032e-39
0.0429727679978 -0.0472700447975 0.774 7.9356218671e-39
0.0444051935977 -0.0472700447975 0.774 1.48266626095e-39
0.0458376191976 -0.0472700447975 0.774 2.34180445138e-38
-0.0920472248882 -0.0499239185834 0.843 2.35098856151e-38
-0.0904871024325 -0.0499239185834 0.843 2.35098856151e-38
-0.0889269799768 -0.0499239185834 0.843 2.35098856151e-38
-0.087366857521 -0.0499239185834 0.843 2.34166151894e-38
-0.0858067350653 -0.0499239185834 0.843 2.33261922021e-38
-0.08404673927 -0.049805475123 0.841 2.350988001e-38
-0.0822941461911 -0.0496870316625 0.839 1.70526392331e-38
-0.0807414264516 -0.0496870316625 0.839 6.63234142775e-39
-0.078999937447 -0.0495685882021 0.837 1.78776579079e-38
-0.0774509190657 -0.0495685882021 0.837 1.66791063119e-38
-0.0757205341356 -0.0494501447416 0.835 1.13321059005e-38
-0.0739975519217 -0.0493317012812 0.833 9.8580688355e-39
-0.0722819724241 -0.0492132578207 0.831 1.58504330507e-38
-0.0704035331684 -0.0489763708998 0.827 1.40054414536e-38
-0.0688730215778 -0.0489763708998 0.827 9.3045433304e-39
-0.0671796502291 -0.0488579274393 0.825 6.17024504226e-39
-0.0656528399966 -0.0488579274393 0.825 1.00424600952e-38
-0.0638151156804 -0.0486210405184 0.821 1.49281026054e-38
-0.0621439524805 -0.0485025970579 0.819 1.38210361809e-38
-0.0606282463224 -0.0485025970579 0.819 1.0777526619e-38
-0.0588238342295 -0.048265710137 0.815 1.10547987435e-38
-0.0571748791784 -0.0481472666766 0.813 1.16061466308e-38
-0.0556702770948 -0.0481472666766 0.813 1.12327075965e-38
-0.0540324261181 -0.0480288232161 0.811 1.0769235136e-38
-0.0522724303229 -0.0477919362952 0.807 1.13231137683e-38
-0.0506530861369 -0.0476734928347 0.805 1.25230750705e-38
-0.0490411446672 -0.0475550493743 0.803 1.20635360547e-38
-0.0475550493743 -0.0475550493743 0.803 1.26171007962e-38
-0.0460115830302 -0.047495827644 0.802 1.37255895386e-38
-0.0444162976721 -0.0473773841836 0.8 1.12388060475e-38
-0.0428284150303 -0.0472589407231 0.798 1.20696499199e-38
-0.0413515731327 -0.0472589407231 0.798 1.12406123212e-38
-0.0397747945654 -0.0471404972627 0.796 9.85909878987e-39
-0.0382054187143 -0.0470220538022 0.794 1.06903041974e-38
-0.0366434455795 -0.0469036103417 0.792 8.93897538963e-39
-0.035088875161 -0.0467851668813 0.79 8.66489962688e-39
-0.0334991418401 -0.0466075016906 0.787 9.95599017089e-39
-0.0320426574123 -0.0466075016906 0.787 9.77231217208e-39
-0.0304307159426 -0.0463706147697 0.783 7.56248691461e-39
-0.028981634231 -0.0463706147697 0.783 7.93414349722e-39
-0.0274622267148 -0.0462521713092 0.781 7.5675133722e-39
-0.0259835341382 -0.046192949579 0.78 7.8437317203e-39
-0.0244770813755 -0.0460745061185 0.778 8.57985342179e-39
-0.022978031329 -0.0459560626581 0.776 1.00528255e-38
-0.021541904371 -0.0459560626581 0.776 9.12979440541e-39
-0.0201057774129 -0.0459560626581 0.776 7.6546629263e-39
-0.018621532799 -0.0458376191976 0.774 7.93232601311e-39
-0.0171891071991 -0.0458376191976 0.774 7.93305328701e-39
-0.0157363241294 -0.0457783974674 0.773 7.47315413751e-39
-0.0142317220458 -0.0455415105465 0.769 7.84156251028e-39
-0.0127752376179 -0.045423067086 0.767 8.02523770649e-39
-0.0113557667715 -0.045423067086 0.767 7.01112221175e-39
-0.00992334117158 -0.0453638453558 0.766 6.64340467913e-39
-0.00848351285537 -0.0452454018953 0.764 6.7348660286e-39
-0.00706959404614 -0.0452454018953 0.764 6.36359480307e-39
-0.00564086980436 -0.0451269584349 0.762 6.26960130728e-39
-0.00422510031606 -0.0450677367046 0.761 9.22125155098e-39
-0.00280933082776 -0.0449492932442 0.759 8.57588214194e-39
-0.0013972626976 -0.0447124063233 0.755 1.04180361096e-38
0.0 -0.0447124063233 0.755 6.45037581567e-39
0.00139541201853 -0.044653184593 0.754 1.07828487505e-38
0.00278342132079 -0.0445347411326 0.752 7.37125871968e-39
0.00416402790676 -0.0444162976721 0.75 5.80465187811e-39
0.00554463449273 -0.0443570759419 0.749 1.11530732061e-38
0.00693079311592 -0.0443570759419 0.749 1.27207548436e-38
0.00828363951585 -0.0441794107512 0.746 8.57196271013e-39
0.00963833659485 -0.0440609672907 0.744 5.71426952846e-39
0.0110152418227 -0.0440609672907 0.744 4.88777108252e-39
0.0123921470505 -0.0440609672907 0.744 4.427885946e-39
0.013732038697 -0.0439425238303 0.742 3.87506529404e-39
0.0151052425667 -0.0439425238303 0.742 4.5207836264e-39
0.0164784464364 -0.0439425238303 0.742 3.50698622641e-39
0.0178997679619 -0.0440609672907 0.744 3.78463810284e-39
0.0193544017106 -0.0442386324814 0.747 7.75082843471e-39
0.0207368589757 -0.0442386324814 0.747 7.29020481391e-39
0.0221785379709 -0.0443570759419 0.749 7.01112501435e-39
0.0235961581383 -0.0444162976721 0.75 8.11604464957e-39
0.0251174163336 -0.044653184593 0.754 8.02384901971e-39
0.0265479912544 -0.0447124063233 0.755 7.0093411614e-39
0.0280933082776 -0.0449492932442 0.759 7.19481142095e-39
0.0295757022124 -0.0450677367046 0.761 7.93237365726e-39
0.031024783924 -0.0451269584349 0.762 7.93272958707e-39
0.0325201326123 -0.0452454018953 0.764 8.57845912981e-39
0.0341561329098 -0.0455415105465 0.769 8.20896054685e-39
