# .PCD v0.7 - Point Cloud Data file format
VERSION 0.7
FIELDS x y z rgb
SIZE 4 4 4 4
TYPE F F F F
COUNT 1 1 1 1
WIDTH 832
HEIGHT 1
VIEWPOINT 0 0 0 1 0 0 0
POINTS 832
DATA ascii
-0.00654215051129 -0.086356386749 0.707 6.17677229051e-39
-0.00523372040903 -0.086356386749 0.707 1.14379683943e-38
-0.00392529030677 -0.086356386749 0.707 1.63296603099e-38
-0.00261686020451 -0.086356386749 0.707 1.43038381525e-38
-0.00131028078133 -0.0864785315676 0.708 1.04294945272e-38
0.0 -0.0868449660234 0.711 9.32704257855e-42
0.00131953417668 -0.0870892556606 0.713 8.40173717658e-40
0.00263906835335 -0.0870892556606 0.713 3.14186389855e-39
0.00397525864165 -0.0874556901164 0.716 2.95674816752e-39
-0.0507400680532 -0.0845667800886 0.703 2.01036527483e-38
-0.0494390406672 -0.0845667800886 0.703 1.26382814225e-38
-0.0480010630301 -0.0843261918096 0.701 1.27329769688e-38
-0.0467037370022 -0.0843261918096 0.701 1.36570646424e-38
-0.0454064109744 -0.0843261918096 0.701 1.33797714984e-38
-0.0441090849465 -0.0843261918096 0.701 1.37464268468e-38
-0.0428117589187 -0.0843261918096 0.701 1.38386042598e-38
-0.0415144328909 -0.0843261918096 0.701 1.43003026765e-38
-0.040217106863 -0.0843261918096 0.701 1.40244416595e-38
-0.0389197808352 -0.0843261918096 0.701 1.383969447e-38
-0.0376224548073 -0.0843261918096 0.701 1.383969447e-38
-0.0363251287795 -0.0843261918096 0.701 1.38400475972e-38
-0.0350278027517 -0.0843261918096 0.701 1.33794239764e-38
-0.0337304767238 -0.0843261918096 0.701 1.38407524503e-38
-0.032433150696 -0.0843261918096 0.701 1.42098866957e-38
-0.0311358246681 -0.0843261918096 0.701 1.29227239913e-38
-0.0298384986403 -0.0843261918096 0.701 1.48575163991e-38
-0.0285411726125 -0.0843261918096 0.701 1.55036929561e-38
-0.0272438465846 -0.0843261918096 0.701 1.47715004955e-38
-0.0259465205568 -0.0843261918096 0.701 1.45885511719e-38
-0.0246491945289 -0.0843261918096 0.701 1.47700879866e-38
-0.0234184929476 -0.0845667800886 0.703 1.43980628625e-38
-0.0221174655616 -0.0845667800886 0.703 1.80836992289e-38
-0.0207572164454 -0.0843261918096 0.701 2.12082570914e-38
-0.0194598904176 -0.0843261918096 0.701 1.90888169862e-38
-0.0182143834037 -0.0845667800886 0.703 2.18568466843e-38
-0.0169133560177 -0.0845667800886 0.703 1.30111375166e-38
-0.0156123286317 -0.0845667800886 0.703 1.32877482282e-38
-0.0143316587155 -0.0846870742281 0.704 1.46710358034e-38
-0.0130287806505 -0.0846870742281 0.704 1.67004214628e-38
-0.0117259025854 -0.0846870742281 0.704 2.1353294285e-39
-0.0104230245204 -0.0846870742281 0.704 5.99926280754e-39
-0.00912014645534 -0.0846870742281 0.704 7.19310183682e-39
-0.00781726839029 -0.0846870742281 0.704 7.37568402023e-39
-0.00651439032524 -0.0846870742281 0.704 6.36223554356e-39
-0.00522631769275 -0.0849276625072 0.706 1.3469472817e-38
-0.00391973826956 -0.0849276625072 0.706 1.4673020042e-38
-0.00261686020451 -0.0850479566467 0.707 1.40312029246e-38
-0.00130843010226 -0.0850479566467 0.707 6.83640831922e-39
0.0 -0.0854088390653 0.71 1.00445073923e-41
0.00131953417668 -0.0857697214839 0.713 5.65028764188e-40
0.00264276971149 -0.0858900156234 0.714 3.97270636973e-39
-0.0518930411136 -0.0830288657817 0.701 1.44797557604e-38
-0.0505957150857 -0.0830288657817 0.701 7.47643878111e-39
-0.0492983890579 -0.0830288657817 0.701 1.34709133518e-38
-0.0480010630301 -0.0830288657817 0.701 1.45765364389e-38
-0.0467037370022 -0.0830288657817 0.701 1.45768895661e-38
-0.0453416372069 -0.0829104223213 0.7 1.49453021427e-38
-0.0440461618582 -0.0829104223213 0.7 1.42995824091e-38
-0.0427506865094 -0.0829104223213 0.7 1.45750973053e-38
-0.0414552111606 -0.0829104223213 0.7 1.44811122173e-38
-0.0401597358119 -0.0829104223213 0.7 1.4390703243e-38
-0.0388642604631 -0.0829104223213 0.7 1.39336669463e-38
-0.0375687851143 -0.0829104223213 0.7 1.32886576709e-38
-0.0362733097656 -0.0829104223213 0.7 1.38407622594e-38
-0.0349778344168 -0.0829104223213 0.7 1.4392496905e-38
-0.033682359068 -0.0829104223213 0.7 1.42102398229e-38
-0.0323868837192 -0.0829104223213 0.7 1.31982192693e-38
-0.0310914083705 -0.0829104223213 0.7 1.4027650633e-38
-0.0297959330217 -0.0829104223213 0.7 1.50404334929e-38
-0.0285004576729 -0.0829104223213 0.7 1.60553547342e-38
-0.0272049823242 -0.0829104223213 0.7 1.42139714807e-38
-0.0259095069754 -0.0829104223213 0.7 1.47685899986e-38
-0.0246140316266 -0.0829104223213 0.7 1.47686040116e-38
-0.0233185562779 -0.0829104223213 0.7 1.43987537027e-38
-0.0220230809291 -0.0829104223213 0.7 1.44895214094e-38
-0.0207572164454 -0.0830288657817 0.701 1.58681510685e-38
-0.0194598904176 -0.0830288657817 0.701 1.66975488009e-38
-0.0182143834037 -0.0832657527026 0.703 1.87269064344e-38
-0.0169133560177 -0.0832657527026 0.703 2.09384917227e-38
-0.0156123286317 -0.0832657527026 0.703 1.9191811022e-38
-0.0143113012458 -0.0832657527026 0.703 1.51323656786e-38
-0.0130102738598 -0.0832657527026 0.703 1.29150280601e-38
-0.0117092464738 -0.0832657527026 0.703 5.35103474963e-39
-0.0104082190878 -0.0832657527026 0.703 6.82076982836e-39
-0.00910719170185 -0.0832657527026 0.703 7.65333029146e-39
-0.00780616431587 -0.0832657527026 0.703 5.90127000593e-39
-0.00650513692989 -0.0832657527026 0.703 8.7639798361e-39
-0.00521151226019 -0.0833841961631 0.704 1.46712277813e-38
-0.00390863419515 -0.0833841961631 0.704 1.4948533537e-38
-0.00261315884638 -0.083621083084 0.706 1.26446853565e-38
-0.00130843010226 -0.0837395265445 0.707 3.05281278244e-39
0.0 -0.0840948569259 0.71 4.69940854294e-40
-0.0518190139508 -0.0816149469725 0.7 1.36521390783e-38
-0.050523538602 -0.0816149469725 0.7 9.41433646638e-39
-0.0492280632532 -0.0816149469725 0.7 1.61456572099e-38
-0.0479325879045 -0.0816149469725 0.7 1.60520196439e-38
-0.0466371125557 -0.0816149469725 0.7 1.56825210609e-38
-0.0452120896721 -0.0813817614097 0.698 1.58665353714e-38
-0.0439203156814 -0.0813817614097 0.698 1.51286087974e-38
-0.0427506865094 -0.0816149469725 0.7 1.42055959198e-38
-0.0414552111606 -0.0816149469725 0.7 1.44825205223e-38
-0.0401597358119 -0.0816149469725 0.7 1.41166092634e-38
-0.0388642604631 -0.0816149469725 0.7 1.37507120175e-38
-0.0374614457283 -0.0813817614097 0.698 1.38429132525e-38
-0.0361696717377 -0.0813817614097 0.698 1.37482064958e-38
-0.034877897747 -0.0813817614097 0.698 1.41144680793e-38
-0.0335861237564 -0.0813817614097 0.698 1.45757965533e-38
-0.0322943497658 -0.0813817614097 0.698 1.42088048932e-38
-0.0310025757751 -0.0813817614097 0.698 1.41183959189e-38
-0.0297108017845 -0.0813817614097 0.698 1.51329247967e-38
-0.0284190277939 -0.0813817614097 0.698 1.48574477355e-38
-0.0271272538032 -0.0813817614097 0.698 1.32915807795e-38
-0.0258354798126 -0.0813817614097 0.698 1.44915631013e-38
-0.024543705822 -0.0813817614097 0.698 1.4124218314e-38
-0.0233185562779 -0.0816149469725 0.7 1.44926519102e-38
-0.0220230809291 -0.0816149469725 0.7 1.44915897259e-38
-0.0206683838501 -0.0813817614097 0.698 1.44022821722e-38
-0.0193766098595 -0.0813817614097 0.698 1.43090313646e-38
-0.0181366548828 -0.0816149469725 0.7 1.32934571182e-38
-0.016841179534 -0.0816149469725 0.7 1.3846281974e-38
-0.0155679123341 -0.0817315397539 0.701 1.43072853467e-38
-0.0142705863062 -0.0817315397539 0.701 1.62412495872e-38
-0.0129732602784 -0.0817315397539 0.701 7.01703989517e-39
-0.0116759342506 -0.0817315397539 0.701 4.80072522451e-39
-0.0103786082227 -0.0817315397539 0.701 7.28209690099e-39
-0.00908128219488 -0.0817315397539 0.701 7.83631184493e-39
-0.00778395616704 -0.0817315397539 0.701 5.62542300193e-39
-0.0064866301392 -0.0817315397539 0.701 1.03355374651e-38
-0.00518930411136 -0.0817315397539 0.701 1.51339645602e-38
-0.00390308215794 -0.0819647253167 0.703 1.5041420007e-38
-0.00261315884638 -0.0823145036608 0.706 1.07082254034e-38
-0.00130657942319 -0.0823145036608 0.706 1.11601651776e-39
0.0 -0.0825476892236 0.708 1.02061191442e-39
-0.0529627336158 -0.0800899874191 0.698 2.33244069478e-38
-0.0516709596252 -0.0800899874191 0.698 1.95505308172e-38
-0.0503791856346 -0.0800899874191 0.698 8.67609179772e-39
-0.049087411644 -0.0800899874191 0.698 1.07965520482e-38
-0.0477956376533 -0.0800899874191 0.698 1.02426594029e-38
-0.0465038636627 -0.0800899874191 0.698 8.85828862405e-39
-0.0452120896721 -0.0800899874191 0.698 1.02408489253e-38
-0.0439203156814 -0.0800899874191 0.698 1.19911281605e-38
-0.0426285416908 -0.0800899874191 0.698 1.15290934321e-38
-0.0413367677002 -0.0800899874191 0.698 1.01475939138e-38
-0.0400449937095 -0.0800899874191 0.698 1.0795851399e-38
-0.0387532197189 -0.0800899874191 0.698 1.35628091038e-38
-0.0374614457283 -0.0800899874191 0.698 1.35638642815e-38
-0.0361696717377 -0.0800899874191 0.698 1.60513035804e-38
-0.034877897747 -0.0800899874191 0.698 1.82625203272e-38
-0.0335380061006 -0.0799752453168 0.697 1.36516444199e-38
-0.032248082789 -0.0799752453168 0.697 1.11638029485e-38
-0.0310025757751 -0.0800899874191 0.698 1.31017090415e-38
-0.0296682361659 -0.0799752453168 0.697 1.66062331865e-38
-0.0283783128543 -0.0799752453168 0.697 1.6054518159e-38
-0.0271272538032 -0.0800899874191 0.698 1.55031464497e-38
-0.0257984662312 -0.0799752453168 0.697 1.59659168597e-38
-0.0245085429197 -0.0799752453168 0.697 1.46762486337e-38
-0.0232519318313 -0.0800899874191 0.698 1.40308792246e-38
-0.0219601578407 -0.0800899874191 0.698 1.42149187584e-38
-0.0206683838501 -0.0800899874191 0.698 1.32933169883e-38
-0.0193766098595 -0.0800899874191 0.698 1.36610177054e-38
-0.0180848358688 -0.0800899874191 0.698 1.48588560405e-38
-0.016841179534 -0.0803194716237 0.7 1.55957316405e-38
-0.0155457041852 -0.0803194716237 0.7 1.51358549118e-38
-0.0142502288365 -0.0803194716237 0.7 1.43982926755e-38
-0.0129547534877 -0.0803194716237 0.7 8.86330387125e-39
-0.0116592781389 -0.0803194716237 0.7 4.34246979811e-39
-0.0103638027902 -0.0803194716237 0.7 3.32511730392e-39
-0.00906832744139 -0.0803194716237 0.7 1.0166994891e-39
-0.00777285209262 -0.0803194716237 0.7 1.66349121609e-39
-0.00647737674385 -0.0803194716237 0.7 1.33769030404e-38
-0.00518930411136 -0.080434213726 0.701 1.44892579653e-38
-0.00389197808352 -0.080434213726 0.701 1.54123100793e-38
-0.0026057561301 -0.080778440033 0.704 8.77247730999e-39
-0.00130287806505 -0.080778440033 0.704 6.09845091674e-42
0.0 -0.0812374084423 0.708 2.12770356226e-39
-0.0542545076065 -0.0787982134285 0.698 2.35084408764e-38
-0.0529627336158 -0.0787982134285 0.698 2.35091653477e-38
-0.0516709596252 -0.0787982134285 0.698 9.68632569571e-39
-0.0503791856346 -0.0787982134285 0.698 3.2285916618e-42
-0.049087411644 -0.0787982134285 0.698 1.54063447518e-38
-0.0477956376533 -0.0787982134285 0.698 1.32847662651e-38
-0.0465038636627 -0.0787982134285 0.698 3.23365034926e-39
-0.0452120896721 -0.0787982134285 0.698 5.58905089899e-40
-0.0439203156814 -0.0787982134285 0.698 2.86985925494e-42
-0.0426285416908 -0.0787982134285 0.698 1.79366203434e-42
-0.0413367677002 -0.0787982134285 0.698 2.51112684807e-42
-0.0400449937095 -0.0787982134285 0.698 1.79366203434e-42
-0.0386976993468 -0.0786853220052 0.697 2.88667483651e-42
-0.0374077760353 -0.0786853220052 0.697 2.15940093352e-42
-0.0361178527237 -0.0786853220052 0.697 3.94605647554e-42
-0.0348279294121 -0.0786853220052 0.697 2.51112684807e-42
-0.0335380061006 -0.0786853220052 0.697 1.4783362487e-39
-0.032248082789 -0.0786853220052 0.697 3.69211597043e-39
-0.0309581594775 -0.0786853220052 0.697 6.55016087802e-39
-0.0296682361659 -0.0786853220052 0.697 7.56503307392e-39
-0.0283783128543 -0.0786853220052 0.697 7.6583147101e-39
-0.0270883895428 -0.0786853220052 0.697 7.84414790594e-39
-0.0257984662312 -0.0786853220052 0.697 7.75374173422e-39
-0.0245085429197 -0.0786853220052 0.697 1.13497230248e-38
-0.0232186196081 -0.0786853220052 0.697 1.48535114881e-38
-0.0219286962965 -0.0786853220052 0.697 1.64208371958e-38
-0.020638772985 -0.0786853220052 0.697 1.84462291546e-38
-0.0193488496734 -0.0786853220052 0.697 1.79848432274e-38
-0.0180848358688 -0.0787982134285 0.698 1.75249188545e-38
-0.0167930618782 -0.0787982134285 0.698 1.60516048595e-38
-0.0155012878876 -0.0787982134285 0.698 1.43942555346e-38
-0.0142095138969 -0.0787982134285 0.698 1.5133249898e-38
-0.0129177399063 -0.0787982134285 0.698 1.62363604569e-38
-0.0116259659157 -0.0787982134285 0.698 1.78908707511e-38
-0.010334191925 -0.0787982134285 0.698 1.7065451305e-38
-0.00906832744139 -0.079023996275 0.7 1.54988444634e-38
-0.00777285209262 -0.079023996275 0.7 1.41162463271e-38
-0.00647737674385 -0.079023996275 0.7 1.55902861947e-38
-0.00518190139508 -0.079023996275 0.7 1.46715332643e-38
-0.00388642604631 -0.079023996275 0.7 1.33825825031e-38
-0.0026057561301 -0.079475561968 0.704 3.51594612879e-39
-0.00130287806505 -0.079475561968 0.704 5.74392240527e-42
0.0 -0.0798142362377 0.707 4.15636755296e-39
-0.0542545076065 -0.0775064394378 0.698 2.35098856151e-38
-0.0529627336158 -0.0775064394378 0.698 2.25875775906e-38
-0.0516709596252 -0.0775064394378 0.698 8.21084529328e-39
-0.0503791856346 -0.0775064394378 0.698 1.85255580619e-39
-0.049087411644 -0.0775064394378 0.698 5.63325626035e-39
-0.0477956376533 -0.0775064394378 0.698 8.02926643957e-39
-0.0464372392162 -0.0773953986936 0.697 1.24525056799e-38
-0.0451473159046 -0.0773953986936 0.697 1.44800752565e-38
-0.0438573925931 -0.0773953986936 0.697 1.63232689876e-38
-0.0426285416908 -0.0775064394378 0.698 1.97334535161e-38
-0.0413367677002 -0.0775064394378 0.698 2.22180537843e-38
-0.0400449937095 -0.0775064394378 0.698 1.96387229373e-38
-0.0386976993468 -0.0773953986936 0.697 1.7707285238e-38
-0.0374077760353 -0.0773953986936 0.697 1.89998191194e-38
-0.0361178527237 -0.0773953986936 0.697 1.75228939783e-38
-0.0348279294121 -0.0773953986936 0.697 1.34655673982e-38
-0.0335380061006 -0.0773953986936 0.697 6.18425802691e-39
-0.032248082789 -0.0773953986936 0.697 1.94432964522e-40
-0.0309581594775 -0.0773953986936 0.697 2.1523944412e-42
-0.0296682361659 -0.0773953986936 0.697 1.43492962747e-42
-0.0283783128543 -0.0773953986936 0.697 1.79366203434e-42
-0.0270883895428 -0.0773953986936 0.697 2.86985925494e-42
-0.0257984662312 -0.0773953986936 0.697 3.58732406867e-42
-0.0245085429197 -0.0773953986936 0.697 2.1523944412e-42
-0.0232186196081 -0.0773953986936 0.697 3.58732406867e-42
-0.0219286962965 -0.0773953986936 0.697 1.79366203434e-42
-0.020638772985 -0.0773953986936 0.697 1.43492962747e-42
-0.0193488496734 -0.0773953986936 0.697 1.57124794208e-39
-0.0180589263618 -0.0773953986936 0.697 8.21146046331e-39
-0.0167690030503 -0.0773953986936 0.697 1.42056295509e-38
-0.0154790797387 -0.0773953986936 0.697 1.58691025501e-38
-0.0142095138969 -0.0775064394378 0.698 1.67027686377e-38
-0.0129177399063 -0.0775064394378 0.698 1.64254222444e-38
-0.0116259659157 -0.0775064394378 0.698 1.65136620087e-38
-0.010334191925 -0.0775064394378 0.698 1.4395684859e-38
-0.00904241793441 -0.0775064394378 0.698 1.44882322148e-38
-0.00775064394378 -0.0775064394378 0.698 1.587007365e-38
-0.00645886995315 -0.0775064394378 0.698 1.50381802049e-38
-0.00516709596252 -0.0775064394378 0.698 1.54083962527e-38
-0.00387532197189 -0.0775064394378 0.698 1.16312186629e-38
-0.00261686020451 -0.0785058061354 0.707 1.00445073923e-41
-0.00130843010226 -0.0785058061354 0.707 1.30117709035e-39
0.0 -0.0785058061354 0.707 8.76615184872e-39
-0.0555462815971 -0.0762146654472 0.698 2.3418050119e-38
-0.0542545076065 -0.0762146654472 0.698 2.3050349402e-38
-0.0529627336158 -0.0762146654472 0.698 2.32343791267e-38
-0.0516709596252 -0.0762146654472 0.698 5.90381616524e-39
-0.0503070091509 -0.0761054753821 0.697 1.10842708528e-42
-0.0490170858393 -0.0761054753821 0.697 3.94885907247e-42
-0.0477271625277 -0.0761054753821 0.697 5.39079519226e-42
-0.0464372392162 -0.0761054753821 0.697 1.79646463126e-42
-0.0451473159046 -0.0761054753821 0.697 2.1523944412e-42
-0.0438573925931 -0.0761054753821 0.697 2.1523944412e-42
-0.0425674692815 -0.0761054753821 0.697 1.44754131365e-42
-0.0412775459699 -0.0761054753821 0.697 2.75513494966e-40
-0.0399876226584 -0.0761054753821 0.697 1.19852917524e-39
-0.0386976993468 -0.0761054753821 0.697 2.95490546004e-39
-0.0374077760353 -0.0761054753821 0.697 6.92112101528e-39
-0.0361178527237 -0.0761054753821 0.697 1.16224072982e-38
-0.0347779610773 -0.075996285317 0.696 1.46637980968e-38
-0.0334898884448 -0.075996285317 0.696 1.68790001365e-38
-0.0322018158123 -0.075996285317 0.696 1.61450056061e-38
-0.0309137431798 -0.075996285317 0.696 1.92738780666e-38
-0.0296256705473 -0.075996285317 0.696 1.91805922265e-38
-0.0283375979148 -0.075996285317 0.696 2.03798542808e-38
-0.0270883895428 -0.0761054753821 0.697 1.92749500599e-38
-0.0257984662312 -0.0761054753821 0.697 1.72459441524e-38
-0.0245085429197 -0.0761054753821 0.697 1.43871719709e-38
-0.0232186196081 -0.0761054753821 0.697 1.00536172336e-38
-0.0219286962965 -0.0761054753821 0.697 3.41480460953e-39
-0.020638772985 -0.0761054753821 0.697 1.43492962747e-42
-0.0193488496734 -0.0761054753821 0.697 1.43492962747e-42
-0.0180589263618 -0.0761054753821 0.697 9.32704257855e-41
-0.0167690030503 -0.0761054753821 0.697 3.78350585368e-43
-0.0154790797387 -0.0761054753821 0.697 1.10842708528e-42
-0.0141891564272 -0.0761054753821 0.697 6.83833650591e-42
-0.0128992331156 -0.0761054753821 0.697 7.17464813734e-42
-0.011609309804 -0.0761054753821 0.697 9.96282710609e-39
-0.0103193864925 -0.0761054753821 0.697 1.63264625468e-38
-0.00902946318092 -0.0761054753821 0.697 1.72487929921e-38
-0.00773953986936 -0.0761054753821 0.697 1.72533710342e-38
-0.00645886995315 -0.0762146654472 0.698 1.65165080459e-38
-0.00516709596252 -0.0762146654472 0.698 1.38432117291e-38
-0.00387532197189 -0.0762146654472 0.698 7.75690866875e-39
-0.0555462815971 -0.0749228914566 0.698 2.35095268827e-38
-0.0542545076065 -0.0749228914566 0.698 2.33262132215e-38
-0.0529627336158 -0.0749228914566 0.698 2.32343791267e-38
-0.0516709596252 -0.0749228914566 0.698 1.11593103856e-38
-0.0503070091509 -0.0748155520705 0.697 2.52794242964e-42
-0.0490170858393 -0.0748155520705 0.697 2.12731119869e-39
-0.0477271625277 -0.0748155520705 0.697 1.02131957014e-39
-0.0464372392162 -0.0748155520705 0.697 1.75852867924e-39
-0.0451473159046 -0.0748155520705 0.697 1.48264664278e-39
-0.0438573925931 -0.0748155520705 0.697 1.57519820245e-39
-0.0425674692815 -0.0748155520705 0.697 1.2968358677e-39
-0.0412775459699 -0.0748155520705 0.697 1.75457982017e-39
-0.0399876226584 -0.0748155520705 0.697 5.57111427865e-40
-0.0386976993468 -0.0748155520705 0.697 5.38098610301e-42
-0.0374077760353 -0.0748155520705 0.697 3.2285916618e-42
-0.0361178527237 -0.0748155520705 0.697 2.15519703813e-42
-0.0347779610773 -0.0747082126845 0.696 7.32879096842e-43
-0.0334898884448 -0.0747082126845 0.696 1.09301280217e-42
-0.0322018158123 -0.0747082126845 0.696 1.80627372051e-42
-0.0309137431798 -0.0747082126845 0.696 1.43492962747e-42
-0.0296256705473 -0.0747082126845 0.696 2.86985925494e-42
-0.0283375979148 -0.0747082126845 0.696 3.13929671976e-39
-0.0270883895428 -0.0748155520705 0.697 6.64273906236e-39
-0.0257984662312 -0.0748155520705 0.697 9.77669263108e-39
-0.0245085429197 -0.0748155520705 0.697 1.44772460349e-38
-0.0232186196081 -0.0748155520705 0.697 2.17596217943e-38
-0.0218972347523 -0.0747082126845 0.696 2.28659581422e-38
-0.0206091621199 -0.0747082126845 0.696 2.35098533853e-38
-0.0193210894874 -0.0747082126845 0.696 2.35098463788e-38
-0.0180330168549 -0.0747082126845 0.696 2.3509128914e-38
-0.0167449442224 -0.0747082126845 0.696 2.34176535515e-38
-0.0154568715899 -0.0747082126845 0.696 1.89958674577e-38
-0.0141687989574 -0.0747082126845 0.696 1.64147597644e-38
-0.0128807263249 -0.0747082126845 0.696 7.74584121348e-39
-0.0115926536924 -0.0747082126845 0.696 1.28928427028e-39
-0.0103045810599 -0.0747082126845 0.696 3.70929308701e-40
-0.00901650842744 -0.0747082126845 0.696 8.3334659154e-40
-0.00772843579495 -0.0747082126845 0.696 1.4837172348e-39
-0.0064496165578 -0.0748155520705 0.697 1.24606584343e-38
-0.00515969324624 -0.0748155520705 0.697 1.46733717679e-38
-0.00386976993468 -0.0748155520705 0.697 4.53043156633e-39
-0.0555462815971 -0.0736311174659 0.698 2.35088094179e-38
-0.0542545076065 -0.0736311174659 0.698 2.35098786087e-38
-0.0529627336158 -0.0736311174659 0.698 2.3418036106e-38
-0.0516709596252 -0.0736311174659 0.698 1.47531434856e-38
-0.0503070091509 -0.073525628759 0.697 7.41286887628e-43
-0.0490170858393 -0.073525628759 0.697 2.12659653647e-39
-0.0477271625277 -0.073525628759 0.697 1.57414022211e-39
-0.0464372392162 -0.073525628759 0.697 1.75853148184e-39
-0.0451473159046 -0.073525628759 0.697 1.39153281533e-39
-0.0438573925931 -0.073525628759 0.697 1.39153001273e-39
-0.0425674692815 -0.073525628759 0.697 1.66705752068e-39
-0.0412775459699 -0.073525628759 0.697 1.48409138149e-39
-0.0399876226584 -0.073525628759 0.697 7.47969680004e-40
-0.0386976993468 -0.073525628759 0.697 3.80640307058e-40
-0.0374077760353 -0.073525628759 0.697 1.11389214929e-41
-0.0360660337097 -0.073420140052 0.696 1.11459419982e-39
-0.0347779610773 -0.073420140052 0.696 1.38757694976e-39
-0.0334898884448 -0.073420140052 0.696 9.2517087731e-40
-0.0322018158123 -0.073420140052 0.696 2.79098016438e-40
-0.0309137431798 -0.073420140052 0.696 9.25190495489e-40
-0.0296256705473 -0.073420140052 0.696 7.41867025192e-40
-0.0283375979148 -0.073420140052 0.696 4.66352128927e-42
-0.0270495252823 -0.073420140052 0.696 2.86985925494e-42
-0.0257614526498 -0.073420140052 0.696 1.43492962747e-42
-0.0244733800173 -0.073420140052 0.696 7.32879096842e-43
-0.0232186196081 -0.073525628759 0.697 2.78395965907e-40
-0.0218972347523 -0.073420140052 0.696 3.58732406867e-43
-0.0206091621199 -0.073420140052 0.696 1.0761972206e-42
-0.0193210894874 -0.073420140052 0.696 1.56804177119e-39
-0.0179811978409 -0.073209162638 0.694 4.05804684751e-39
-0.0166968265666 -0.073209162638 0.694 8.67104572195e-39
-0.0154124552922 -0.073209162638 0.694 1.4021274725e-38
-0.0141280840179 -0.073209162638 0.694 1.93679332195e-38
-0.0128437127435 -0.073209162638 0.694 2.26833661497e-38
-0.0115593414692 -0.073209162638 0.694 2.2957782428e-38
-0.0102749701948 -0.073209162638 0.694 2.34180206917e-38
-0.00899059892046 -0.073209162638 0.694 2.34180178891e-38
-0.00772843579495 -0.073420140052 0.696 2.15809408258e-38
-0.00644036316246 -0.073420140052 0.696 9.50691745332e-39
-0.00515969324624 -0.073525628759 0.697 1.07997862451e-38
-0.00386976993468 -0.073525628759 0.697 1.02447991857e-38
-0.0583796712528 -0.072650257559 0.701 2.35095268827e-38
-0.0570823452249 -0.072650257559 0.701 2.35095268827e-38
-0.0555462815971 -0.0723393434753 0.698 2.35095268827e-38
-0.0542545076065 -0.0723393434753 0.698 2.35098828126e-38
-0.0529627336158 -0.0723393434753 0.698 2.350988001e-38
-0.0516709596252 -0.0723393434753 0.698 1.67810437686e-38
-0.0503791856346 -0.0723393434753 0.698 3.78350585368e-44
-0.049087411644 -0.0723393434753 0.698 2.03405198329e-39
-0.0477271625277 -0.0722357054474 0.697 2.40389808828e-39
-0.0464372392162 -0.0722357054474 0.697 1.84963690149e-39
-0.0451473159046 -0.0722357054474 0.697 2.4935755848e-39
-0.0438573925931 -0.0722357054474 0.697 1.57161648357e-39
-0.0425674692815 -0.0722357054474 0.697 1.48085578334e-39
-0.0412775459699 -0.0722357054474 0.697 1.20534649227e-39
-0.0399876226584 -0.0722357054474 0.697 1.85108023891e-39
-0.0386976993468 -0.0722357054474 0.697 9.30214150483e-40
-0.0374077760353 -0.0722357054474 0.697 7.46177419268e-40
-0.0360660337097 -0.0721320674195 0.696 4.69580720589e-40
-0.0347779610773 -0.0721320674195 0.696 9.298343986e-40
-0.0334898884448 -0.0721320674195 0.696 1.29646312231e-39
-0.0322018158123 -0.0721320674195 0.696 5.58191828981e-40
-0.0309137431798 -0.0721320674195 0.696 5.59985491015e-40
-0.0296256705473 -0.0721320674195 0.696 3.77027759617e-40
-0.0283375979148 -0.0721320674195 0.696 1.93356767301e-40
-0.0270495252823 -0.0721320674195 0.696 8.96831017168e-42
-0.0257614526498 -0.0721320674195 0.696 1.00089144113e-40
-0.0244733800173 -0.0721320674195 0.696 9.86584183808e-41
-0.0231853073848 -0.0721320674195 0.696 4.66772518467e-42
-0.0218972347523 -0.0721320674195 0.696 2.86985925494e-42
-0.0205499403896 -0.0719247913637 0.694 1.43492962747e-42
-0.0192655691153 -0.0719247913637 0.694 1.0761972206e-42
-0.0179811978409 -0.0719247913637 0.694 1.0761972206e-42
-0.0166968265666 -0.0719247913637 0.694 1.43492962747e-42
-0.0154124552922 -0.0719247913637 0.694 2.15519703813e-42
-0.0141280840179 -0.0719247913637 0.694 1.44333741825e-42
-0.0128437127435 -0.0719247913637 0.694 7.28675201449e-43
-0.0115593414692 -0.0719247913637 0.694 3.61535003796e-43
-0.0102749701948 -0.0719247913637 0.694 7.17464813734e-43
-0.00899059892046 -0.0719247913637 0.694 2.30918432508e-39
-0.00772843579495 -0.0721320674195 0.696 9.13167214535e-39
-0.00644036316246 -0.0721320674195 0.696 1.32797734387e-38
-0.00515969324624 -0.0722357054474 0.697 1.16216548009e-38
-0.00386976993468 -0.0722357054474 0.697 1.2727639423e-38
-0.0583796712528 -0.0713529315312 0.701 2.35098856151e-38
-0.0570823452249 -0.0713529315312 0.701 2.35098856151e-38
-0.0557054399971 -0.0712511441823 0.7 2.35098856151e-38
-0.0544099646483 -0.0712511441823 0.7 2.35098856151e-38
-0.0531144892996 -0.0712511441823 0.7 2.35098856151e-38
-0.0516709596252 -0.0710475694847 0.698 1.99153210373e-38
-0.0503791856346 -0.0710475694847 0.698 4.62428493227e-44
-0.049087411644 -0.0710475694847 0.698 1.29684707809e-39
-0.0477956376533 -0.0710475694847 0.698 2.1276671285e-39
-0.0465038636627 -0.0710475694847 0.698 1.94218565857e-39
-0.0452120896721 -0.0710475694847 0.698 1.84712437335e-39
-0.0439203156814 -0.0710475694847 0.698 2.40065268104e-39
-0.0426285416908 -0.0710475694847 0.698 1.66559596638e-39
-0.0412775459699 -0.0709457821358 0.697 1.48120750925e-39
-0.0399876226584 -0.0709457821358 0.697 1.20426749245e-39
-0.0386976993468 -0.0709457821358 0.697 1.20535490006e-39
-0.0374077760353 -0.0709457821358 0.697 7.45811680369e-40
-0.0361178527237 -0.0709457821358 0.697 6.54330712723e-40
-0.0347779610773 -0.070843994787 0.696 2.85550995866e-40
-0.0334898884448 -0.070843994787 0.696 3.77029160916e-40
-0.0322018158123 -0.070843994787 0.696 6.51829394964e-40
-0.0309137431798 -0.070843994787 0.696 2.8448040384e-40
-0.0296256705473 -0.070843994787 0.696 2.84477601243e-40
-0.0283375979148 -0.070843994787 0.696 9.32844387701e-42
-0.0270883895428 -0.0709457821358 0.697 8.96831017168e-42
-0.0257984662312 -0.0709457821358 0.697 8.96831017168e-42
-0.0245085429197 -0.0709457821358 0.697 8.60957776481e-42
-0.0231853073848 -0.070843994787 0.696 2.83401404022e-40
-0.0218972347523 -0.070843994787 0.696 2.8268253791e-40
-0.0205499403896 -0.0706404200893 0.694 7.41869827789e-40
-0.0192655691153 -0.0706404200893 0.694 5.57481370659e-40
-0.0179811978409 -0.0706404200893 0.694 3.73090110933e-40
-0.0166968265666 -0.0706404200893 0.694 9.65032213427e-41
-0.0154124552922 -0.0706404200893 0.694 4.30759147933e-42
-0.0141280840179 -0.0706404200893 0.694 9.57843552305e-41
-0.0128437127435 -0.0706404200893 0.694 1.86900985276e-40
-0.0115593414692 -0.0706404200893 0.694 1.86900985276e-40
-0.0102749701948 -0.0706404200893 0.694 1.43492962747e-42
-0.00899059892046 -0.0706404200893 0.694 1.79366203434e-42
-0.00770622764611 -0.0706404200893 0.694 2.51112684807e-42
-0.00644036316246 -0.070843994787 0.696 3.64337600724e-43
-0.00515229052996 -0.070843994787 0.696 5.62570606422e-39
-0.00386421789747 -0.070843994787 0.696 1.22648704142e-38
-0.058546232369 -0.0702554788429 0.703 2.35098856151e-38
-0.0572452049831 -0.0702554788429 0.703 2.35098856151e-38
-0.0557850191971 -0.0700556055033 0.701 2.35098856151e-38
-0.0544876931693 -0.0700556055033 0.701 2.35098856151e-38
-0.0531903671414 -0.0700556055033 0.701 2.35098856151e-38
-0.0518190139508 -0.0699556688336 0.7 2.32336504515e-38
-0.050523538602 -0.0699556688336 0.7 7.73516752307e-43
-0.0492280632532 -0.0699556688336 0.7 8.35871731373e-40
-0.0477956376533 -0.069755795494 0.698 2.03654769586e-39
-0.0465038636627 -0.069755795494 0.698 2.1265713131e-39
-0.0452120896721 -0.069755795494 0.698 2.58504113817e-39
-0.0439203156814 -0.069755795494 0.698 1.66451836786e-39
-0.0426285416908 -0.069755795494 0.698 1.48156484036e-39
-0.0413367677002 -0.069755795494 0.698 7.4544594147e-40
-0.0400449937095 -0.069755795494 0.698 1.91563105267e-40
-0.0387532197189 -0.069755795494 0.698 5.61416216747e-40
-0.0374077760353 -0.0696558588243 0.697 6.54332114021e-40
-0.0361178527237 -0.0696558588243 0.697 9.30917602313e-40
-0.0348279294121 -0.0696558588243 0.697 8.38003106337e-40
-0.0334898884448 -0.0695559221545 0.696 1.02131957014e-39
-0.0322018158123 -0.0695559221545 0.696 6.51469261258e-40
-0.0309137431798 -0.0695559221545 0.696 5.58197434175e-40
-0.0296682361659 -0.0696558588243 0.697 4.66722071722e-40
-0.0283783128543 -0.0696558588243 0.697 1.91930245465e-40
-0.0270883895428 -0.0696558588243 0.697 8.25504925334e-42
-0.0257984662312 -0.0696558588243 0.697 8.97251406707e-42
-0.0245085429197 -0.0696558588243 0.697 9.32844387701e-42
-0.0231853073848 -0.0695559221545 0.696 8.60957776481e-42
-0.0218972347523 -0.0695559221545 0.696 7.89211295108e-42
-0.0205499403896 -0.069356048815 0.694 9.82926794816e-41
-0.0192655691153 -0.069356048815 0.694 2.81607741988e-40
-0.0179811978409 -0.069356048815 0.694 2.81604939391e-40
-0.0166968265666 -0.069356048815 0.694 3.73800569254e-40
-0.0154124552922 -0.069356048815 0.694 2.81963671798e-40
-0.0141280840179 -0.069356048815 0.694 1.89769443233e-40
-0.0128437127435 -0.069356048815 0.694 6.09845091674e-42
-0.0115593414692 -0.069356048815 0.694 5.73971850987e-42
-0.0102749701948 -0.069356048815 0.694 2.1523944412e-42
-0.00899059892046 -0.069356048815 0.694 5.57828892678e-40
-0.00770622764611 -0.069356048815 0.694 3.7237124482e-40
-0.00644036316246 -0.0695559221545 0.696 3.61535003796e-43
-0.00515229052996 -0.0695559221545 0.696 4.88922002513e-39
-0.00386421789747 -0.0695559221545 0.696 1.42931742712e-38
-0.058546232369 -0.0689544514569 0.703 2.35098856151e-38
-0.0572452049831 -0.0689544514569 0.703 2.35098856151e-38
-0.0559441775971 -0.0689544514569 0.703 2.35098856151e-38
-0.0546431502111 -0.0689544514569 0.703 2.35098856151e-38
-0.0531903671414 -0.0687582794755 0.701 2.35098856151e-38
-0.0518930411136 -0.0687582794755 0.701 2.30489046632e-38
-0.0505957150857 -0.0687582794755 0.701 1.85168980374e-40
-0.0492280632532 -0.0686601934848 0.7 3.75616652064e-40
-0.0479325879045 -0.0686601934848 0.7 1.94507093211e-39
-0.0465038636627 -0.0684640215034 0.698 1.75922512457e-39
-0.0452120896721 -0.0684640215034 0.698 2.40207920287e-39
-0.0439203156814 -0.0684640215034 0.698 5.53600334432e-39
-0.0426285416908 -0.0684640215034 0.698 6.46010362961e-39
-0.0413367677002 -0.0684640215034 0.698 6.09239590608e-39
-0.0400449937095 -0.0684640215034 0.698 5.44739924243e-39
-0.0387532197189 -0.0684640215034 0.698 2.49715450108e-39
-0.0374077760353 -0.0683659355127 0.697 7.44728476656e-40
-0.0361178527237 -0.0683659355127 0.697 8.3692410652e-40
-0.0348279294121 -0.0683659355127 0.697 1.02095523254e-39
-0.0335380061006 -0.0683659355127 0.697 1.57233534969e-39
-0.032248082789 -0.0683659355127 0.697 1.29467786807e-39
-0.0309581594775 -0.0683659355127 0.697 1.19996270357e-39
-0.0296682361659 -0.0683659355127 0.697 1.10884607352e-39
-0.0283783128543 -0.0683659355127 0.697 8.34418584865e-40
-0.0270883895428 -0.0683659355127 0.697 4.67075198935e-40
-0.0257984662312 -0.0683659355127 0.697 1.91927442868e-40
-0.0245085429197 -0.0683659355127 0.697 1.00808010225e-40
-0.0232186196081 -0.0683659355127 0.697 8.60957776481e-42
-0.0218972347523 -0.068267849522 0.696 7.53338054421e-42
-0.0205499403896 -0.0680716775406 0.694 9.90115455938e-41
-0.0192655691153 -0.0680716775406 0.694 1.90488309345e-40
-0.0179811978409 -0.0680716775406 0.694 1.89769443233e-40
-0.0166968265666 -0.0680716775406 0.694 9.75752146679e-41
-0.0154124552922 -0.0680716775406 0.694 9.86514118885e-41
-0.0141280840179 -0.0680716775406 0.694 6.81591573048e-42
-0.0128437127435 -0.0680716775406 0.694 6.81591573048e-42
-0.0115593414692 -0.0680716775406 0.694 6.81591573048e-42
-0.0102749701948 -0.0680716775406 0.694 3.58732406867e-42
-0.00899059892046 -0.0680716775406 0.694 2.82322404204e-40
-0.00770622764611 -0.0680716775406 0.694 2.51112684807e-42
-0.00644036316246 -0.068267849522 0.696 1.07759851907e-42
-0.00515229052996 -0.068267849522 0.696 4.88922002513e-39
-0.00388642604631 -0.0686601934848 0.7 1.51232978763e-38
-0.058546232369 -0.0676534240709 0.703 2.35098856151e-38
-0.0572452049831 -0.0676534240709 0.703 2.35098856151e-38
-0.0559441775971 -0.0676534240709 0.703 2.35098856151e-38
-0.0546431502111 -0.0676534240709 0.703 2.35098856151e-38
-0.0533421228251 -0.0676534240709 0.703 2.35098856151e-38
-0.0520410954391 -0.0676534240709 0.703 2.34176899853e-38
-0.0505957150857 -0.0674609534476 0.701 1.84815853161e-40
-0.0492983890579 -0.0674609534476 0.701 6.52206344251e-40
-0.0479325879045 -0.067364718136 0.7 2.86667130093e-39
-0.0465038636627 -0.0671722475128 0.698 3.23327339997e-39
-0.0452120896721 -0.0671722475128 0.698 3.41479059655e-39
-0.0439203156814 -0.0671722475128 0.698 6.17956647965e-39
-0.0426285416908 -0.0671722475128 0.698 5.44306923017e-39
-0.0413367677002 -0.0671722475128 0.698 5.35302179085e-39
-0.0400449937095 -0.0671722475128 0.698 4.79914315855e-39
-0.0387532197189 -0.0671722475128 0.698 6.45868551556e-39
-0.0374614457283 -0.0671722475128 0.698 2.81246206984e-40
-0.0361696717377 -0.0671722475128 0.698 7.41141152588e-40
-0.034877897747 -0.0671722475128 0.698 1.01628890865e-39
-0.0335380061006 -0.0670760122012 0.697 8.30465521897e-40
-0.032248082789 -0.0670760122012 0.697 9.20866088428e-40
-0.0309581594775 -0.0670760122012 0.697 8.27954395049e-40
-0.0296682361659 -0.0670760122012 0.697 9.20148623614e-40
-0.0283783128543 -0.0670760122012 0.697 4.60971142824e-40
-0.0270883895428 -0.0670760122012 0.697 7.39347490553e-40
-0.0257984662312 -0.0670760122012 0.697 7.41502687591e-40
-0.0245085429197 -0.0670760122012 0.697 2.81246206984e-40
-0.0232186196081 -0.0670760122012 0.697 6.50387458844e-40
-0.0218972347523 -0.0669797768895 0.696 4.65996199117e-40
-0.0206091621199 -0.0669797768895 0.696 3.2285916618e-42
-0.0193210894874 -0.0669797768895 0.696 3.73440435549e-40
-0.0180589263618 -0.0670760122012 0.697 3.94605647554e-42
-0.0167449442224 -0.0669797768895 0.696 4.65275931707e-40
-0.0154568715899 -0.0669797768895 0.696 6.49307057728e-40
-0.0141687989574 -0.0669797768895 0.696 5.38098610301e-42
-0.0128437127435 -0.0667873062663 0.694 3.58732406867e-42
-0.0115593414692 -0.0667873062663 0.694 7.54038703653e-42
-0.0102749701948 -0.0667873062663 0.694 9.86584183808e-41
-0.00901650842744 -0.0669797768895 0.696 2.82322404204e-40
-0.00772843579495 -0.0669797768895 0.696 1.88693246012e-40
-0.0064496165578 -0.0670760122012 0.697 1.4377322244e-42
-0.00516709596252 -0.0671722475128 0.698 5.07397141856e-39
-0.00388642604631 -0.067364718136 0.7 1.42013443802e-38
-0.058546232369 -0.0663523966849 0.703 2.35098856151e-38
-0.0572452049831 -0.0663523966849 0.703 2.35098856151e-38
-0.0559441775971 -0.0663523966849 0.703 2.35098856151e-38
-0.054720878732 -0.0664467813175 0.704 2.35098856151e-38
-0.0533421228251 -0.0663523966849 0.703 2.35098856151e-38
-0.0520410954391 -0.0663523966849 0.703 2.35095268827e-38
-0.0507400680532 -0.0663523966849 0.703 3.68852584377e-40
-0.0494390406672 -0.0663523966849 0.703 5.40200557997e-42
-0.0480010630301 -0.0661636274198 0.701 2.4049770881e-39
-0.0467037370022 -0.0661636274198 0.701 1.66523583268e-39
-0.0454064109744 -0.0661636274198 0.701 5.44093645391e-39
-0.0441090849465 -0.0661636274198 0.701 7.9280464476e-39
-0.0428117589187 -0.0661636274198 0.701 6.82168487625e-39
-0.0415144328909 -0.0661636274198 0.701 4.61007016065e-39
-0.040217106863 -0.0661636274198 0.701 5.07141404887e-39
-0.0389197808352 -0.0661636274198 0.701 6.54548754764e-39
-0.0375687851143 -0.0660692427873 0.7 9.31100892152e-39
-0.0362733097656 -0.0660692427873 0.7 7.74188534791e-39
-0.0349778344168 -0.0660692427873 0.7 2.11687993292e-39
-0.0335861237564 -0.0658804735221 0.698 4.41959166039e-39
-0.0322943497658 -0.0658804735221 0.698 7.92230813039e-39
-0.0310025757751 -0.0658804735221 0.698 7.09108870992e-39
-0.0297108017845 -0.0658804735221 0.698 6.81522208774e-39
-0.0284190277939 -0.0658804735221 0.698 6.72447259789e-39
-0.0271272538032 -0.0658804735221 0.698 3.2232106757e-39
-0.0257984662312 -0.0657860888896 0.697 5.51371709355e-40
-0.0245085429197 -0.0657860888896 0.697 4.60253678011e-40
-0.0232186196081 -0.0657860888896 0.697 2.75865220881e-40
-0.0218972347523 -0.065691704257 0.696 1.01377778181e-39
-0.0206091621199 -0.065691704257 0.696 6.46077064768e-40
-0.0193210894874 -0.065691704257 0.696 6.46435797175e-40
-0.0180589263618 -0.0657860888896 0.697 1.10704820759e-39
-0.0167690030503 -0.0657860888896 0.697 7.37195096112e-40
-0.0154790797387 -0.0657860888896 0.697 1.10668947519e-39
-0.0141891564272 -0.0657860888896 0.697 8.32259183932e-40
-0.0128992331156 -0.0657860888896 0.697 3.73087308336e-40
-0.011609309804 -0.0657860888896 0.697 2.82695149596e-40
-0.0103193864925 -0.0657860888896 0.697 5.7425211068e-42
-0.00902946318092 -0.0657860888896 0.697 6.09845091674e-42
-0.00773953986936 -0.0657860888896 0.697 9.64990174473e-41
-0.00645886995315 -0.0658804735221 0.698 1.79646463126e-42
-0.00518190139508 -0.0660692427873 0.7 5.35055830815e-39
-0.00388642604631 -0.0660692427873 0.7 1.42942602775e-38
-0.0573266348621 -0.0651439032524 0.704 2.35098856151e-38
-0.0560237567971 -0.0651439032524 0.704 2.35098856151e-38
-0.054720878732 -0.0651439032524 0.704 2.35098856151e-38
-0.0535697563507 -0.0653289711594 0.706 2.35098856151e-38
-0.0522631769275 -0.0653289711594 0.706 2.33251384256e-38
-0.0508122445369 -0.0651439032524 0.704 2.7665975711e-40
-0.0495093664718 -0.0651439032524 0.704 1.80347112359e-42
-0.0482064884068 -0.0651439032524 0.704 1.94400174138e-39
-0.0469036103417 -0.0651439032524 0.704 3.0463696121e-39
-0.0456007322767 -0.0651439032524 0.704 3.59343232868e-39
-0.0442349311233 -0.0650513692989 0.703 6.26385458228e-39
-0.0429339037373 -0.0650513692989 0.703 7.46238375752e-39
-0.0416328763513 -0.0650513692989 0.703 7.00175733411e-39
-0.0403318489653 -0.0650513692989 0.703 6.07981785106e-39
-0.0390308215794 -0.0650513692989 0.703 4.8802180838e-39
-0.0376224548073 -0.064866301392 0.701 3.68096303595e-39
-0.0363251287795 -0.064866301392 0.701 3.21854715441e-39
-0.0349778344168 -0.0647737674385 0.7 5.06064226757e-39
-0.033682359068 -0.0647737674385 0.7 7.08713564695e-39
-0.0323868837192 -0.0647737674385 0.7 6.90166258481e-39
-0.0310914083705 -0.0647737674385 0.7 7.17752360179e-39
-0.0297108017845 -0.0645886995315 0.698 7.36191486152e-39
-0.0284190277939 -0.0645886995315 0.698 6.07262778864e-39
-0.0271272538032 -0.0645886995315 0.698 7.45772864402e-39
-0.0258354798126 -0.0645886995315 0.698 7.45989084755e-39
-0.0245085429197 -0.064496165578 0.697 4.41887419558e-39
-0.0232186196081 -0.064496165578 0.697 6.81631510054e-39
-0.0219286962965 -0.064496165578 0.697 8.10740704584e-39
-0.020638772985 -0.064496165578 0.697 3.77638165228e-39
-0.0193488496734 -0.064496165578 0.697 3.77638165228e-39
-0.0180848358688 -0.0645886995315 0.698 6.54188901318e-39
-0.0167930618782 -0.0645886995315 0.698 4.51358515619e-39
-0.0155012878876 -0.0645886995315 0.698 1.01054919014e-39
-0.0142095138969 -0.0645886995315 0.698 1.56550822357e-39
-0.0129177399063 -0.0645886995315 0.698 7.38988758146e-40
-0.0116259659157 -0.0645886995315 0.698 5.56762504547e-40
-0.010334191925 -0.0645886995315 0.698 5.02645759153e-42
-0.00904241793441 -0.0645886995315 0.698 5.73971850987e-42
-0.00775064394378 -0.0645886995315 0.698 9.65004187457e-41
-0.00647737674385 -0.0647737674385 0.7 1.43633092593e-42
-0.00518190139508 -0.0647737674385 0.7 5.62822419756e-39
-0.00388642604631 -0.0647737674385 0.7 1.40180293177e-38
-0.0574894946203 -0.0640223917362 0.706 2.35098856151e-38
-0.0561829151971 -0.0640223917362 0.706 2.35098856151e-38
-0.0548763357739 -0.0640223917362 0.706 2.35098856151e-38
-0.0536456341926 -0.0641130750106 0.707 2.35098856151e-38
-0.0523372040903 -0.0641130750106 0.707 2.3418050119e-38
-0.0509565975043 -0.0640223917362 0.706 3.87229212438e-39
-0.0496500180811 -0.0640223917362 0.706 3.24680854184e-42
-0.0483434386579 -0.0640223917362 0.706 3.23366296095e-39
-0.0470368592348 -0.0640223917362 0.706 3.32152017076e-39
-0.0457302798116 -0.0640223917362 0.706 5.61994112234e-39
-0.0444237003884 -0.0640223917362 0.706 7.3680469436e-39
-0.0429949761466 -0.0638410251874 0.704 7.36623506468e-39
-0.0416920980815 -0.0638410251874 0.704 8.56513278142e-39
-0.0403892200165 -0.0638410251874 0.704 7.64247162966e-39
-0.0390308215794 -0.063750341913 0.703 8.1949475622e-39
-0.0377297941934 -0.063750341913 0.703 5.88862608989e-39
-0.0364287668074 -0.063750341913 0.703 5.24216927324e-39
-0.0350278027517 -0.0635689753641 0.701 7.54560126812e-39
-0.0337304767238 -0.0635689753641 0.701 7.26720249961e-39
-0.032433150696 -0.0635689753641 0.701 7.45051335822e-39
-0.0311358246681 -0.0635689753641 0.701 7.26504870387e-39
-0.0298384986403 -0.0635689753641 0.701 8.00298088298e-39
-0.0285411726125 -0.0635689753641 0.701 6.89807385944e-39
-0.0272049823242 -0.0634782920897 0.7 6.16231089036e-39
-0.0259095069754 -0.0634782920897 0.7 8.65410682611e-39
-0.024543705822 -0.0632969255409 0.698 7.18040747403e-39
-0.0232186196081 -0.0632062422665 0.697 6.16661007405e-39
-0.0219286962965 -0.0632062422665 0.697 6.44355149215e-39
-0.020638772985 -0.0632062422665 0.697 7.46094742659e-39
-0.0193766098595 -0.0632969255409 0.698 5.15641961631e-39
-0.0180848358688 -0.0632969255409 0.698 8.10631683563e-39
-0.0167930618782 -0.0632969255409 0.698 8.84388187454e-39
-0.0155012878876 -0.0632969255409 0.698 5.34045774882e-39
-0.0142095138969 -0.0632969255409 0.698 7.74079373641e-39
-0.0129177399063 -0.0632969255409 0.698 4.70087009724e-39
-0.0116259659157 -0.0632969255409 0.698 4.62406072452e-40
-0.010334191925 -0.0632969255409 0.698 2.81254614775e-40
-0.00906832744139 -0.0634782920897 0.7 6.45718332361e-42
-0.00777285209262 -0.0634782920897 0.7 9.6863355048e-41
-0.00647737674385 -0.0634782920897 0.7 1.79646463126e-42
-0.00518190139508 -0.0634782920897 0.7 5.35163730797e-39
-0.00388642604631 -0.0634782920897 0.7 1.41102249476e-38
-0.0563420735971 -0.0628934775037 0.708 2.35098856151e-38
-0.0550317928157 -0.0628934775037 0.708 2.35098856151e-38
-0.0537215120344 -0.0628934775037 0.708 2.35098856151e-38
-0.0523372040903 -0.0628046449084 0.707 2.30507025292e-38
-0.051028773988 -0.0628046449084 0.707 6.17789893447e-39
-0.0497203438858 -0.0628046449084 0.707 1.44193611979e-42
-0.0484119137835 -0.0628046449084 0.707 2.49430285871e-39
-0.0471034836813 -0.0628046449084 0.707 3.3233138328e-39
-0.045795053579 -0.0628046449084 0.707 3.22644347126e-39
-0.0444237003884 -0.062715812313 0.706 5.2511445899e-39
-0.0431171209652 -0.062715812313 0.706 4.87983693061e-39
-0.041810541542 -0.062715812313 0.706 5.60914271637e-39
-0.0405039621188 -0.062715812313 0.706 6.25344153339e-39
-0.0390863419515 -0.0625381471223 0.704 6.07048940718e-39
-0.0377834638864 -0.0625381471223 0.704 6.62509811599e-39
-0.0364287668074 -0.062449314527 0.703 7.1789795509e-39
-0.0351277394214 -0.062449314527 0.703 7.27044510426e-39
-0.0338267120354 -0.062449314527 0.703 6.62220023077e-39
-0.0325256846495 -0.062449314527 0.703 6.89734798683e-39
-0.0312246572635 -0.062449314527 0.703 7.54163699476e-39
-0.0298384986403 -0.0622716493363 0.701 7.54128106495e-39
-0.0285411726125 -0.0622716493363 0.701 7.54163419217e-39
-0.0272438465846 -0.0622716493363 0.701 8.003328405e-39
-0.0259465205568 -0.0622716493363 0.701 9.5724505773e-39
-0.0246140316266 -0.0621828167409 0.7 8.46826241988e-39
-0.0232519318313 -0.0620051515503 0.698 8.47114348952e-39
-0.0219601578407 -0.0620051515503 0.698 8.65769555148e-39
-0.0206683838501 -0.0620051515503 0.698 6.72228937488e-39
-0.0193766098595 -0.0620051515503 0.698 5.43371976682e-39
-0.0181366548828 -0.0621828167409 0.7 7.92587723758e-39
-0.016841179534 -0.0621828167409 0.7 5.62135363119e-39
-0.0155457041852 -0.0621828167409 0.7 6.63371049635e-39
-0.0142502288365 -0.0621828167409 0.7 7.00177695229e-39
-0.0129547534877 -0.0621828167409 0.7 6.72590612622e-39
-0.0116592781389 -0.0621828167409 0.7 4.42281184427e-39
-0.0103638027902 -0.0621828167409 0.7 6.48946924023e-40
-0.00906832744139 -0.0621828167409 0.7 3.73800569254e-40
-0.00777285209262 -0.0621828167409 0.7 5.57841504365e-40
-0.00647737674385 -0.0621828167409 0.7 1.79366203434e-42
-0.00518190139508 -0.0621828167409 0.7 5.44420007803e-39
-0.00387532197189 -0.0620051515503 0.698 1.39261980255e-38
-0.00258354798126 -0.0620051515503 0.698 1.27273129204e-38
-0.0565012319971 -0.0617571605549 0.71 2.35098856151e-38
-0.0551872498576 -0.0617571605549 0.71 2.35098856151e-38
-0.0537215120344 -0.0615831967224 0.708 2.35098856151e-38
-0.0524112312531 -0.0615831967224 0.708 2.31425380253e-38
-0.0511009504718 -0.0615831967224 0.708 8.11400435901e-39
-0.0497906696904 -0.0615831967224 0.708 2.88667483651e-42
-0.0484803889091 -0.0615831967224 0.708 3.87724010925e-39
-0.0471701081278 -0.0615831967224 0.708 3.78501224953e-39
-0.0458598273464 -0.0615831967224 0.708 2.76834218769e-39
-0.0445495465651 -0.0615831967224 0.708 3.50230448824e-39
-0.0431781933745 -0.0614962148061 0.707 4.60684857548e-39
-0.0418697632722 -0.0614962148061 0.707 5.05956747165e-39
-0.04056133317 -0.0614962148061 0.707 3.8603194303e-39
-0.0391973826956 -0.0614092328898 0.706 2.9408882715e-39
-0.0377834638864 -0.0612352690573 0.704 5.70852560606e-39
-0.0364805858214 -0.0612352690573 0.704 6.63083363061e-39
-0.0351777077563 -0.0612352690573 0.704 8.93463556828e-39
-0.0338748296913 -0.0612352690573 0.704 8.56440971141e-39
-0.0325256846495 -0.061148287141 0.703 8.28565921699e-39
-0.0312246572635 -0.061148287141 0.703 6.71618952267e-39
-0.0299236298775 -0.061148287141 0.703 6.16230528516e-39
-0.0286226024915 -0.061148287141 0.703 7.08317137359e-39
-0.0273215751056 -0.061148287141 0.703 6.99097714503e-39
-0.0260205477196 -0.061148287141 0.703 6.99169460984e-39
-0.0246491945289 -0.0609743233085 0.701 7.91724523904e-39
-0.0233185562779 -0.0608873413922 0.7 6.90597858408e-39
-0.0220230809291 -0.0608873413922 0.7 3.95861210978e-39
-0.0207276055803 -0.0608873413922 0.7 5.15534902428e-39
-0.0194321302315 -0.0608873413922 0.7 3.86605914881e-39
-0.0181366548828 -0.0608873413922 0.7 2.30126839005e-39
-0.016841179534 -0.0608873413922 0.7 4.79125945339e-39
-0.0155679123341 -0.0609743233085 0.701 2.48458064996e-39
-0.0142705863062 -0.0609743233085 0.701 2.85192263459e-39
-0.0129547534877 -0.0608873413922 0.7 4.97313257977e-39
-0.0116592781389 -0.0608873413922 0.7 8.01845962581e-39
-0.0103638027902 -0.0608873413922 0.7 7.41141152588e-40
-0.00906832744139 -0.0608873413922 0.7 4.65280135602e-40
-0.00777285209262 -0.0608873413922 0.7 7.41872630386e-40
-0.00647737674385 -0.0608873413922 0.7 1.79366203434e-42
-0.00518190139508 -0.0608873413922 0.7 4.79847473918e-39
-0.00387532197189 -0.0607133775596 0.698 1.34648639463e-38
-0.00258354798126 -0.0607133775596 0.698 1.27269471815e-38
-0.00134174232551 -0.063061889299 0.725 1.56768612164e-38
-0.0565012319971 -0.0604431784155 0.71 2.35098856151e-38
-0.0551872498576 -0.0604431784155 0.71 2.35098856151e-38
-0.0538732677181 -0.0604431784155 0.71 2.35098856151e-38
-0.0525592855787 -0.0604431784155 0.71 2.32343735215e-38
-0.0512453034392 -0.0604431784155 0.71 1.03263351381e-38
-0.0497906696904 -0.060272915941 0.708 7.32879096842e-43
-0.0484803889091 -0.060272915941 0.708 3.14075126757e-39
-0.0471701081278 -0.060272915941 0.708 3.04853041433e-39
-0.0458598273464 -0.060272915941 0.708 3.59954619388e-39
-0.0445495465651 -0.060272915941 0.708 3.68993555002e-39
-0.0432392657838 -0.060272915941 0.708 3.87216600751e-39
-0.0419289850025 -0.060272915941 0.708 4.14659770007e-39
-0.04056133317 -0.0601877847038 0.707 4.60757584938e-39
-0.0391973826956 -0.0601026534666 0.706 3.77889137783e-39
-0.0378908032724 -0.0601026534666 0.706 3.31970969315e-39
-0.0365842238493 -0.0601026534666 0.706 3.50373941787e-39
-0.0351777077563 -0.0599323909922 0.704 4.70083366348e-39
-0.0338748296913 -0.0599323909922 0.704 6.08196604161e-39
-0.0325719516262 -0.0599323909922 0.704 6.44894929383e-39
-0.0312690735612 -0.0599323909922 0.704 6.1702086085e-39
-0.0299661954961 -0.0599323909922 0.704 7.09036704121e-39
