# .PCD v0.7 - Point Cloud Data file format
VERSION 0.7
FIELDS x y z rgb
SIZE 4 4 4 4
TYPE F F F F
COUNT 1 1 1 1
WIDTH 842
HEIGHT 1
VIEWPOINT 0 0 0 1 0 0 0
POINTS 842
DATA ascii
0.073286891159 -0.0931354241812 0.825 1.15964580532e-38
0.0748137013915 -0.0931354241812 0.825 1.73154723783e-38
0.0765255795309 -0.0933612070277 0.827 1.6764833548e-38
0.0782448603866 -0.0935869898742 0.829 9.57495750026e-39
0.0797790733354 -0.0935869898742 0.829 1.13241647421e-38
0.0815094582655 -0.0938127727207 0.831 1.70392288068e-38
0.0830473725724 -0.0938127727207 0.831 1.05866333344e-38
0.084788861577 -0.0940385555672 0.833 1.22522293008e-38
0.0865377532978 -0.0942643384137 0.835 1.04054202196e-38
0.088083070321 -0.0942643384137 0.835 1.04969137989e-38
0.0898430661163 -0.0944901212602 0.837 1.61237493097e-38
0.0913920844976 -0.0944901212602 0.837 1.56660165676e-38
0.0933852658556 -0.0949416869532 0.841 1.48398446242e-38
0.0949416869532 -0.0949416869532 0.841 1.48409166175e-38
0.0967275922554 -0.0951674697997 0.843 1.4655098836e-38
0.0982877147112 -0.0951674697997 0.843 1.53908856271e-38
0.0998478371669 -0.0951674697997 0.843 1.29073349315e-38
0.101407959623 -0.0951674697997 0.843 8.94754713233e-39
0.102968082078 -0.0951674697997 0.843 7.56675526974e-39
0.104528204534 -0.0951674697997 0.843 6.64588918131e-39
0.10608832699 -0.0951674697997 0.843 8.21393655769e-39
0.107648449446 -0.0951674697997 0.843 7.4738926218e-39
0.109208571901 -0.0951674697997 0.843 4.8877892994e-39
-0.0347761103982 -0.0907202879953 0.817 1.84425311279e-39
-0.0332641055983 -0.0907202879953 0.817 2.76515002979e-39
-0.0317521007983 -0.0907202879953 0.817 3.22542612857e-39
-0.0302400959984 -0.0907202879953 0.817 3.31834062455e-39
-0.0287280911985 -0.0907202879953 0.817 4.14951940736e-39
-0.0271494619521 -0.0904982065069 0.815 1.03294768493e-38
-0.0255153123336 -0.0900540435302 0.811 9.41001346062e-39
-0.0239551898778 -0.0898319620418 0.809 1.06085580501e-38
-0.0223469497663 -0.0893877990651 0.805 8.94939124111e-39
-0.0208053341012 -0.0891657175768 0.803 1.0239039849e-38
-0.0192951799804 -0.0890546768326 0.802 8.48660121288e-39
-0.0177665190688 -0.0888325953442 0.8 9.31601015574e-39
-0.0162452608736 -0.0886105138558 0.798 5.6285507001e-39
-0.0147314053946 -0.0883884323675 0.796 9.22525646199e-39
-0.0131916404086 -0.0879442693908 0.792 9.13413282545e-39
-0.0116814862878 -0.0876111471582 0.789 1.01461225504e-38
-0.0102213005018 -0.0876111471582 0.789 1.00528507233e-38
-0.00871669841815 -0.0871669841815 0.785 7.84015560662e-39
-0.00724540855776 -0.0869449026931 0.783 9.86846086491e-39
-0.00578152141365 -0.0867228212048 0.781 7.93270436369e-39
-0.00433614106024 -0.0867228212048 0.781 5.16826619353e-39
-0.00289076070683 -0.0867228212048 0.781 7.47422472954e-39
-0.00144538035341 -0.0867228212048 0.781 8.1199444632e-39
0.0 -0.0867228212048 0.781 6.73844914877e-39
0.00144538035341 -0.0867228212048 0.781 6.83101612273e-39
0.00289076070683 -0.0867228212048 0.781 9.50433766285e-39
0.00434724513466 -0.0869449026931 0.783 8.1214032149e-39
0.00579632684621 -0.0869449026931 0.783 9.78127347576e-39
0.00726391534846 -0.0871669841815 0.785 7.9377140057e-39
0.00871669841815 -0.0871669841815 0.785 6.83136644734e-39
0.0101953909948 -0.0873890656699 0.787 6.6466220604e-39
0.0116518754226 -0.0873890656699 0.787 7.66005792539e-39
0.0131416720737 -0.0876111471582 0.789 5.53955983983e-39
0.0146018578597 -0.0876111471582 0.789 7.29127680723e-39
0.0160620436457 -0.0876111471582 0.789 9.68836318368e-39
0.0175444375805 -0.0877221879024 0.79 8.48981999545e-39
0.0190064740455 -0.0877221879024 0.79 9.59616755381e-39
0.0205203295245 -0.0879442693908 0.792 8.30542873573e-39
0.0220415877198 -0.0881663508791 0.794 7.93664621627e-39
0.0235110269011 -0.0881663508791 0.794 8.48765779192e-39
0.0250433891708 -0.0883884323675 0.796 5.72178889602e-39
0.0265165297102 -0.0883884323675 0.796 7.843730319e-39
0.0279896702497 -0.0883884323675 0.796 7.29163694094e-39
0.0295368379519 -0.0886105138558 0.798 9.78200074966e-39
0.0310136798495 -0.0886105138558 0.798 9.41321542761e-39
0.0324905217471 -0.0886105138558 0.798 8.30614620054e-39
0.0340524948819 -0.0888325953442 0.8 8.21394776808e-39
0.035621870733 -0.0890546768326 0.802 6.830308467e-39
0.0371061153469 -0.0890546768326 0.802 9.04300498502e-39
0.0386384776166 -0.0891657175768 0.803 8.67530146539e-39
0.0401245729095 -0.0891657175768 0.803 9.22919270938e-39
0.0417143062304 -0.0893877990651 0.805 9.59725636272e-39
0.0432041028815 -0.0893877990651 0.805 1.00575086394e-38
0.0448049402767 -0.0896098805535 0.807 7.93664201238e-39
0.0464131803883 -0.0898319620418 0.809 5.35372244009e-39
0.0479103797556 -0.0898319620418 0.809 2.40637698526e-39
0.0495297239416 -0.0900540435302 0.811 9.96783114291e-39
0.0510306246671 -0.0900540435302 0.811 9.69050296643e-39
0.0525315253926 -0.0900540435302 0.811 1.01482329059e-38
0.0540324261181 -0.0900540435302 0.811 9.77442533016e-39
0.0556702770948 -0.0902761250186 0.813 9.95272514546e-39
0.0571748791784 -0.0902761250186 0.813 1.30819955747e-38
0.0588238342295 -0.0904982065069 0.815 6.1640989472e-39
0.0604801919968 -0.0907202879953 0.817 9.29661338239e-39
0.0619921967968 -0.0907202879953 0.817 9.0067113548e-39
0.0636596586385 -0.0909423694836 0.819 1.09496719314e-38
0.0653345231966 -0.091164450972 0.821 1.90733396446e-38
0.0668539307128 -0.091164450972 0.821 5.41829567462e-39
0.068373338229 -0.091164450972 0.821 1.29815673164e-38
0.0700630082196 -0.0913865324604 0.823 1.65919511526e-38
0.0717600809265 -0.0916086139487 0.825 1.26185189102e-38
0.073286891159 -0.0916086139487 0.825 1.10479632096e-38
0.0749950679403 -0.0918306954371 0.827 1.41847796311e-38
0.0765255795309 -0.0918306954371 0.827 1.64911207216e-38
0.0782448603866 -0.0920527769254 0.829 1.07752985544e-38
0.0797790733354 -0.0920527769254 0.829 1.13227200034e-38
0.0815094582655 -0.0922748584138 0.831 1.50080256633e-38
0.0832472459119 -0.0924969399022 0.833 8.27920203367e-39
0.0849924362746 -0.0927190213905 0.835 1.49223054336e-38
0.0865377532978 -0.0927190213905 0.835 1.64910702748e-38
0.0882940477349 -0.0929411028789 0.837 1.38188389449e-38
0.0900577448883 -0.0931631843672 0.839 1.24387841653e-38
0.0916104646278 -0.0931631843672 0.839 1.61291387036e-38
0.0933852658556 -0.0933852658556 0.841 1.52089970864e-38
0.0951674697997 -0.093607347344 0.843 1.48405859111e-38
0.0967275922554 -0.093607347344 0.843 1.49317025411e-38
0.0985209002739 -0.0938294288323 0.845 1.63142712502e-38
0.100084724088 -0.0938294288323 0.845 1.18017062393e-38
0.101648547902 -0.0938294288323 0.845 7.93375814014e-39
0.103212371716 -0.0938294288323 0.845 7.84370649693e-39
0.104528204534 -0.093607347344 0.843 7.75260668246e-39
0.10608832699 -0.093607347344 0.843 8.21359604217e-39
0.107648449446 -0.093607347344 0.843 6.18209862597e-39
0.109208571901 -0.093607347344 0.843 5.25659003573e-39
-0.0348612416354 -0.0894266633256 0.819 2.3048767336e-39
-0.0333455354773 -0.0894266633256 0.819 2.58076157266e-39
-0.0318298293193 -0.0894266633256 0.819 2.85699953893e-39
-0.0302400959984 -0.0892082831954 0.817 2.02795213108e-39
-0.0287280911985 -0.0892082831954 0.817 4.24206956574e-39
-0.0271494619521 -0.0889899030651 0.815 9.86849589737e-39
-0.0255782354219 -0.0887715229349 0.813 7.65829789451e-39
-0.0240144116081 -0.0885531428047 0.811 9.04194980728e-39
-0.0224024701384 -0.0881163825442 0.807 1.03330417526e-38
-0.0208571531152 -0.087898002414 0.805 9.59439070736e-39
-0.0192951799804 -0.0875704322187 0.802 1.0239039849e-38
-0.0177665190688 -0.0873520520885 0.8 8.48625509216e-39
-0.0162452608736 -0.0871336719583 0.798 8.21003254017e-39
-0.0147314053946 -0.086915291828 0.796 5.99841502197e-39
-0.0131916404086 -0.0864785315676 0.792 7.93523370742e-39
-0.0116962917203 -0.0862601514374 0.79 9.59331310884e-39
-0.0102213005018 -0.0861509613723 0.789 1.06067517764e-38
-0.00873890656699 -0.085932581242 0.787 8.94685629219e-39
-0.00724540855776 -0.0854958209816 0.783 9.31528988833e-39
-0.00579632684621 -0.0854958209816 0.783 8.11744734933e-39
-0.00433614106024 -0.0852774408514 0.781 5.44449715331e-39
-0.00289076070683 -0.0852774408514 0.781 5.814703392e-39
-0.00144538035341 -0.0852774408514 0.781 7.84408344621e-39
0.0 -0.0854958209816 0.783 7.10651840731e-39
0.00144908171155 -0.0854958209816 0.783 7.19908117737e-39
0.0028981634231 -0.0854958209816 0.783 9.22739484345e-39
0.00434724513466 -0.0854958209816 0.783 4.71088517737e-39
0.00581113227877 -0.0857142011118 0.785 7.01612764986e-39
0.00726391534846 -0.0857142011118 0.785 7.66112711611e-39
0.00873890656699 -0.085932581242 0.787 7.75260668246e-39
0.0101953909948 -0.085932581242 0.787 8.02812298002e-39
0.0116518754226 -0.085932581242 0.787 1.01489741928e-38
0.0131416720737 -0.0861509613723 0.789 7.84408344621e-39
0.0146018578597 -0.0861509613723 0.789 7.75188781635e-39
0.0160824011154 -0.0862601514374 0.79 7.01432277744e-39
0.0175444375805 -0.0862601514374 0.79 7.3831052969e-39
0.0190545917013 -0.0864785315676 0.792 7.19871123457e-39
0.0205721485385 -0.0866969116978 0.794 7.19906716438e-39
0.0220415877198 -0.0866969116978 0.794 9.87273902912e-39
0.0235702486313 -0.086915291828 0.796 9.40961409056e-39
0.0250433891708 -0.086915291828 0.796 9.77839941261e-39
0.0265831541568 -0.0871336719583 0.798 8.30470986961e-39
0.0280599960544 -0.0871336719583 0.798 8.21359604217e-39
0.0295368379519 -0.0871336719583 0.798 7.93700915258e-39
0.0310136798495 -0.0871336719583 0.798 6.73846316176e-39
0.0325719516262 -0.0873520520885 0.8 7.3834710358e-39
0.0341376261192 -0.0875704322187 0.802 9.22738083046e-39
0.035621870733 -0.0875704322187 0.802 9.31959187461e-39
0.0371523823236 -0.0876796222838 0.803 9.96568435366e-39
0.0386384776166 -0.0876796222838 0.803 7.20053152128e-39
0.0401245729095 -0.0876796222838 0.803 6.55551944334e-39
0.0417143062304 -0.087898002414 0.805 3.42051349948e-39
0.0433114422675 -0.0881163825442 0.807 5.72431123326e-39
0.0449159810209 -0.0883347626745 0.809 6.64518853207e-39
0.0464131803883 -0.0883347626745 0.809 9.22558576713e-39
0.0480288232161 -0.0885531428047 0.811 9.50471180954e-39
0.0495297239416 -0.0885531428047 0.811 9.32138553665e-39
0.0511564708438 -0.0887715229349 0.813 9.96636678601e-39
0.0526610729275 -0.0887715229349 0.813 1.0608134858e-38
0.0541656750111 -0.0887715229349 0.813 1.14325201459e-38
0.0556702770948 -0.0887715229349 0.813 9.76618989909e-39
0.0573155307877 -0.0889899030651 0.815 1.56602446192e-38
0.0589681871969 -0.0892082831954 0.817 8.2809942944e-39
0.0604801919968 -0.0892082831954 0.817 1.08596202882e-38
0.0621439524805 -0.0894266633256 0.819 1.20477280068e-38
0.0638151156804 -0.0896450434558 0.821 9.10432020063e-39
0.0653345231966 -0.0896450434558 0.821 1.77800868971e-38
0.0668539307128 -0.0896450434558 0.821 5.0513110211e-39
0.0685398993453 -0.089863423586 0.823 1.67644565987e-38
0.0700630082196 -0.089863423586 0.823 1.65915742033e-38
0.0717600809265 -0.0900818037162 0.825 8.01231493205e-39
0.0734645563497 -0.0903001838465 0.827 1.13303010281e-38
0.0749950679403 -0.0903001838465 0.827 1.33589678214e-38
0.0765255795309 -0.0903001838465 0.827 1.11444790426e-38
0.0782448603866 -0.0905185639767 0.829 1.28954294998e-38
0.0797790733354 -0.0905185639767 0.829 1.47353862315e-38
0.0815094582655 -0.0907369441069 0.831 1.71317383275e-38
0.0832472459119 -0.0909553242371 0.833 6.5296472698e-39
0.0849924362746 -0.0911737043673 0.835 1.69488142273e-38
0.0867450293536 -0.0913920844976 0.837 1.79676619069e-38
0.0885050251489 -0.0916104646278 0.839 1.69570973025e-38
0.0902724236604 -0.091828844758 0.841 1.48391047386e-38
0.091828844758 -0.091828844758 0.841 1.53940903967e-38
0.093607347344 -0.0920472248882 0.843 1.53941226266e-38
0.0951674697997 -0.0920472248882 0.843 1.52090307176e-38
0.0969570764601 -0.0922656050184 0.845 1.50249911838e-38
0.0985209002739 -0.0922656050184 0.845 1.65004575732e-38
0.100084724088 -0.0922656050184 0.845 1.11574158301e-38
0.101648547902 -0.0922656050184 0.845 8.48693191932e-39
0.103212371716 -0.0922656050184 0.845 8.12065071762e-39
0.104776195529 -0.0922656050184 0.845 8.21323170457e-39
0.10608832699 -0.0920472248882 0.843 7.84339260607e-39
0.107648449446 -0.0920472248882 0.843 5.35163730797e-39
-0.0333455354773 -0.0879109571675 0.819 2.58076157266e-39
-0.0318298293193 -0.0879109571675 0.819 3.13393815443e-39
-0.0303141231612 -0.0879109571675 0.819 3.68782519453e-39
-0.0287280911985 -0.0876962783954 0.817 4.15022426049e-39
-0.0271494619521 -0.0874815996233 0.815 1.10670390856e-38
-0.0256411585103 -0.0874815996233 0.815 7.93453165689e-39
-0.0240144116081 -0.0870522420792 0.811 8.67424348504e-39
-0.0224579905105 -0.0868375633071 0.809 8.95118350185e-39
-0.0208571531152 -0.0864082057629 0.805 1.01482833527e-38
-0.0193192388083 -0.0861935269909 0.803 1.06074650373e-38
-0.0177665190688 -0.0858715088327 0.8 1.07915101763e-38
-0.0162452608736 -0.0856568300607 0.798 8.20968221555e-39
-0.0147314053946 -0.0854421512886 0.796 7.74978026346e-39
-0.0131916404086 -0.0850127937444 0.792 6.45975330499e-39
-0.0116962917203 -0.0847981149723 0.79 8.02671327377e-39
-0.0102213005018 -0.0846907755863 0.789 9.22418446867e-39
-0.00873890656699 -0.0844760968142 0.787 9.9620872205e-39
-0.00726391534846 -0.0842614180421 0.785 1.02368902571e-38
-0.00579632684621 -0.08404673927 0.783 8.57877862586e-39
-0.00434724513466 -0.08404673927 0.783 5.4444985546e-39
-0.0028981634231 -0.08404673927 0.783 6.92212995018e-39
-0.00144908171155 -0.08404673927 0.783 8.39762296429e-39
0.0 -0.08404673927 0.783 7.29091246963e-39
0.00144908171155 -0.08404673927 0.783 7.75153889303e-39
0.0028981634231 -0.08404673927 0.783 9.31959047331e-39
0.00435834920908 -0.0842614180421 0.785 8.58310443422e-39
0.00581113227877 -0.0842614180421 0.785 8.30686786925e-39
0.00728242213916 -0.0844760968142 0.787 8.85931717712e-39
0.00873890656699 -0.0844760968142 0.787 7.19908117737e-39
0.0102213005018 -0.0846907755863 0.789 6.82815046737e-39
0.0116814862878 -0.0846907755863 0.789 7.38202909968e-39
0.0131583281854 -0.0847981149723 0.79 7.10543940749e-39
0.0146203646504 -0.0847981149723 0.79 8.76496074503e-39
0.016123116055 -0.0850127937444 0.792 8.94935480735e-39
0.0175888538782 -0.0850127937444 0.792 9.50252858653e-39
0.0191027093571 -0.0852274725165 0.794 9.13409919429e-39
0.0205721485385 -0.0852274725165 0.794 7.47457365286e-39
0.0220971080919 -0.0854421512886 0.796 7.56712521253e-39
0.0235702486313 -0.0854421512886 0.796 8.21143523993e-39
0.0250433891708 -0.0854421512886 0.796 6.27605568801e-39
0.0265831541568 -0.0856568300607 0.798 9.04264345002e-39
0.0280599960544 -0.0856568300607 0.798 8.48982980454e-39
0.0295368379519 -0.0856568300607 0.798 1.04262939615e-38
0.0310914083705 -0.0858715088327 0.8 1.06103194823e-38
0.0325719516262 -0.0858715088327 0.8 8.58165128772e-39
0.0341376261192 -0.0860861876048 0.802 6.92104814776e-39
0.0356662870307 -0.0861935269909 0.803 4.24883223213e-39
0.0371523823236 -0.0861935269909 0.803 6.92394743428e-39
0.0387347129282 -0.0864082057629 0.805 4.15807573579e-39
0.0402245095793 -0.0864082057629 0.805 9.22918990678e-39
0.0417143062304 -0.0864082057629 0.805 9.41321542761e-39
0.0433114422675 -0.086622884535 0.807 1.00571457031e-38
0.0449159810209 -0.0868375633071 0.809 9.68764712016e-39
0.0464131803883 -0.0868375633071 0.809 1.03312214659e-38
0.0480288232161 -0.0870522420792 0.811 9.96461236034e-39
0.0495297239416 -0.0870522420792 0.811 9.32066667053e-39
0.0511564708438 -0.0872669208513 0.813 9.04369442387e-39
0.0526610729275 -0.0872669208513 0.813 1.0699978762e-38
0.0541656750111 -0.0872669208513 0.813 1.06024133564e-38
0.0558072273459 -0.0874815996233 0.815 6.26097211134e-39
0.0573155307877 -0.0874815996233 0.815 1.00359608729e-38
0.0589681871969 -0.0876962783954 0.817 8.74089204261e-39
0.0606282463224 -0.0879109571675 0.819 9.38554678943e-39
0.0621439524805 -0.0879109571675 0.819 1.27924578847e-38
0.0638151156804 -0.0881256359396 0.821 9.19937447936e-39
0.0653345231966 -0.0881256359396 0.821 1.75013251923e-38
0.0670167904709 -0.0883403147117 0.823 5.33004610123e-39
0.0685398993453 -0.0883403147117 0.823 1.83306977014e-38
0.070233270694 -0.0885549934838 0.825 1.59372084581e-38
0.071934044759 -0.0887696722558 0.827 8.6515620681e-39
0.0734645563497 -0.0887696722558 0.827 1.11459055645e-38
0.0749950679403 -0.0887696722558 0.827 1.62155792006e-38
0.0767106474379 -0.0889843510279 0.829 6.71368119841e-39
0.0782448603866 -0.0889843510279 0.829 1.20620674939e-38
0.0799715439586 -0.0891990298 0.831 1.40932454141e-38
0.0817056302469 -0.0894137085721 0.833 1.59428907234e-38
0.0834471192515 -0.0896283873442 0.835 7.92082135272e-39
0.0851960109723 -0.0898430661163 0.837 1.70446139968e-38
0.0867450293536 -0.0898430661163 0.837 1.6588328796e-38
0.0885050251489 -0.0900577448883 0.839 1.55770551346e-38
0.0902724236604 -0.0902724236604 0.841 1.54866573707e-38
0.091828844758 -0.0902724236604 0.841 1.5210797755e-38
0.093607347344 -0.0904871024325 0.843 1.50267834445e-38
0.0953932526462 -0.0907017812046 0.845 1.49342388914e-38
0.0969570764601 -0.0907017812046 0.845 1.46576477979e-38
0.0987540858367 -0.0909164599767 0.847 1.5672150051e-38
0.100321611009 -0.0909164599767 0.847 1.00514228002e-38
0.101889136181 -0.0909164599767 0.847 8.94861492176e-39
0.103456661353 -0.0909164599767 0.847 8.12099823964e-39
0.105024186525 -0.0909164599767 0.847 8.02919357205e-39
0.106340019343 -0.0907017812046 0.845 9.22560958921e-39
0.107903843157 -0.0907017812046 0.845 5.07362249525e-39
-0.035116635347 -0.0870281832513 0.825 2.67295720252e-39
-0.0334269653564 -0.0866062284234 0.821 2.67295720252e-39
-0.0318298293193 -0.0863952510095 0.819 3.41087536864e-39
-0.0303141231612 -0.0863952510095 0.819 2.48963373222e-39
-0.0287984170032 -0.0863952510095 0.819 5.07217635523e-39
-0.0272160863986 -0.0861842735955 0.817 1.08830037557e-38
-0.0256411585103 -0.0859732961816 0.815 7.93453445949e-39
-0.0240736333383 -0.0857623187676 0.813 8.30546096559e-39
-0.0224579905105 -0.0853403639397 0.809 8.39800692007e-39
-0.0208571531152 -0.0849184091119 0.805 9.59510957347e-39
-0.0193192388083 -0.0847074316979 0.803 1.06074678399e-38
-0.0178109353665 -0.0846019429909 0.802 9.40821979858e-39
-0.0162452608736 -0.0841799881631 0.798 1.0237631544e-38
-0.014768418976 -0.0841799881631 0.798 8.57918920631e-39
-0.0132249526319 -0.0837580333352 0.794 9.13271471141e-39
-0.0116962917203 -0.0833360785073 0.79 6.92073145431e-39
-0.0102213005018 -0.0832305898003 0.789 8.76393219196e-39
-0.00873890656699 -0.0830196123864 0.787 9.77769315818e-39
-0.00726391534846 -0.0828086349724 0.785 1.02368930597e-38
-0.00581113227877 -0.0828086349724 0.785 8.94863874384e-39
-0.00434724513466 -0.0825976575585 0.783 4.79949208186e-39
-0.0028981634231 -0.0825976575585 0.783 7.10688134361e-39
-0.00144908171155 -0.0825976575585 0.783 7.56822383053e-39
0.0 -0.0825976575585 0.783 7.01397105153e-39
0.00145278306969 -0.0828086349724 0.785 7.19836511385e-39
0.00290556613938 -0.0828086349724 0.785 7.47496041123e-39
0.00436945328349 -0.0830196123864 0.787 5.81723553832e-39
0.00582593771132 -0.0830196123864 0.787 6.73954496417e-39
0.00730092892985 -0.0832305898003 0.789 8.12139760971e-39
0.00876111471582 -0.0832305898003 0.789 8.48874800213e-39
0.0102213005018 -0.0832305898003 0.789 9.2248851179e-39
0.0116962917203 -0.0833360785073 0.79 8.39582649966e-39
0.0131916404086 -0.0835470559212 0.792 8.67241198795e-39
0.0146573782318 -0.0835470559212 0.792 8.3036308698e-39
0.0161638309945 -0.0837580333352 0.794 6.73630796472e-39
0.0176332701758 -0.0837580333352 0.794 7.10509048417e-39
0.019150827013 -0.0839690107491 0.796 7.75045568932e-39
0.0206239675524 -0.0839690107491 0.796 7.10543940749e-39
0.0220971080919 -0.0839690107491 0.796 1.00560526903e-38
0.0236294703616 -0.0841799881631 0.798 9.50290273322e-39
0.0251063122592 -0.0841799881631 0.798 9.50326707082e-39
0.0265831541568 -0.0841799881631 0.798 9.59546550328e-39
0.028130321859 -0.084390965577 0.8 5.53957385281e-39
0.0296108651147 -0.084390965577 0.8 4.0640794374e-39
0.0311691368914 -0.0846019429909 0.802 4.89347436727e-39
0.0326533815053 -0.0846019429909 0.802 5.99837578561e-39
0.0341801917378 -0.0847074316979 0.803 8.67132317905e-39
0.0356662870307 -0.0847074316979 0.803 1.0425939433e-38
0.0372449162771 -0.0849184091119 0.805 8.76786003155e-39
0.0387347129282 -0.0849184091119 0.805 7.9391741587e-39
0.0402245095793 -0.0849184091119 0.805 9.22918710419e-39
0.0418179442583 -0.0851293865258 0.807 9.13662853802e-39
0.0434187816536 -0.0853403639397 0.809 1.01489854032e-38
0.0449159810209 -0.0853403639397 0.809 9.87060345026e-39
0.0465279224906 -0.0855513413537 0.811 9.96208441791e-39
0.0480288232161 -0.0855513413537 0.811 1.02397615177e-38
0.0496518687602 -0.0857623187676 0.813 9.68801005646e-39
0.0511564708438 -0.0857623187676 0.813 8.95078273049e-39
0.0526610729275 -0.0857623187676 0.813 1.0699627036e-38
0.0541656750111 -0.0857623187676 0.813 1.10626866526e-38
0.0558072273459 -0.0859732961816 0.815 5.15535462948e-39
0.057456182397 -0.0861842735955 0.817 1.09579185729e-38
0.0591125401644 -0.0863952510095 0.819 9.5717289086e-39
0.0606282463224 -0.0863952510095 0.819 1.04947445889e-38
0.0621439524805 -0.0863952510095 0.819 1.58438749739e-38
0.0638151156804 -0.0866062284234 0.821 1.6211251991e-38
0.0654936815966 -0.0868172058373 0.823 8.64908877631e-39
0.0670167904709 -0.0868172058373 0.823 7.91115379461e-39
0.0687064604615 -0.0870281832513 0.825 1.01213279754e-38
0.0704035331684 -0.0872391606652 0.827 1.08560217537e-38
0.071934044759 -0.0872391606652 0.827 1.46356516159e-38
0.0736422215403 -0.0874501380792 0.829 1.52003482723e-38
0.0751764344891 -0.0874501380792 0.829 1.82406348478e-38
0.0767106474379 -0.0874501380792 0.829 1.00273162627e-38
0.0784336296517 -0.0876611154931 0.831 1.58388415098e-38
0.0801640145819 -0.0878720929071 0.833 1.62180524924e-38
0.0817056302469 -0.0878720929071 0.833 1.49377183154e-38
0.0834471192515 -0.088083070321 0.835 1.39225210183e-38
0.0851960109723 -0.0882940477349 0.837 1.58521916803e-38
0.0867450293536 -0.0882940477349 0.837 1.54852140332e-38
0.0887160025628 -0.0887160025628 0.841 1.4841299172e-38
0.0904871024325 -0.0889269799768 0.843 1.51179056798e-38
0.0920472248882 -0.0889269799768 0.843 1.5672164064e-38
0.093607347344 -0.0889269799768 0.843 1.51204182079e-38
0.0953932526462 -0.0891379573907 0.845 1.54895552559e-38
0.0971865606647 -0.0893489348046 0.847 1.53048094676e-38
0.0987540858367 -0.0893489348046 0.847 1.57650855664e-38
0.100321611009 -0.0893489348046 0.847 8.66848554965e-39
0.101889136181 -0.0893489348046 0.847 8.21175333469e-39
0.10370095099 -0.0895599122186 0.849 7.01537094869e-39
0.10527217752 -0.0895599122186 0.849 8.48980177857e-39
0.10684340405 -0.0895599122186 0.849 8.11853755954e-39
-0.0367322781748 -0.0857086490746 0.827 3.13465141535e-39
-0.035116635347 -0.0855013730188 0.825 2.7658660933e-39
-0.0335083952355 -0.085294096963 0.823 3.59526382577e-39
-0.0319075578402 -0.0850868209072 0.821 2.85769878686e-39
-0.0303141231612 -0.0848795448514 0.819 3.87184931406e-39
-0.0287984170032 -0.0848795448514 0.819 4.79487480342e-39
-0.0272160863986 -0.0846722687956 0.817 1.01447198507e-38
-0.0257040815987 -0.0846722687956 0.817 8.57881365833e-39
-0.0240736333383 -0.084257716684 0.813 7.66009435915e-39
-0.0225135108825 -0.0840504406282 0.811 8.12143404347e-39
-0.0209089721291 -0.0836358885166 0.807 8.95047864872e-39
-0.0193192388083 -0.083221336405 0.803 9.9635515774e-39
-0.0178109353665 -0.0831176983771 0.802 1.03309019698e-38
-0.0162452608736 -0.0827031462655 0.798 9.31602697132e-39
-0.014768418976 -0.0827031462655 0.798 9.96067751425e-39
-0.0132249526319 -0.0822885941539 0.794 9.13126997269e-39
-0.0117259025854 -0.082081318098 0.792 8.21219053981e-39
-0.0102342552553 -0.0818740420422 0.79 5.35377568943e-39
-0.00876111471582 -0.0817704040143 0.789 7.47355631017e-39
-0.00726391534846 -0.0813558519027 0.785 1.10677411361e-38
-0.00581113227877 -0.0813558519027 0.785 8.57986883607e-39
-0.00435834920908 -0.0813558519027 0.785 4.43249761925e-39
-0.00290556613938 -0.0813558519027 0.785 6.18564671368e-39
-0.00145278306969 -0.0813558519027 0.785 7.01577872655e-39
0.0 -0.0813558519027 0.785 6.37003797341e-39
0.00145648442783 -0.0815631279585 0.787 7.56930283034e-39
0.00291296885566 -0.0815631279585 0.787 8.21468344977e-39
0.00436945328349 -0.0815631279585 0.787 7.75514723658e-39
0.00584074314388 -0.0817704040143 0.789 7.29452081318e-39
0.00730092892985 -0.0817704040143 0.789 7.478546334e-39
0.00877221879024 -0.0818740420422 0.79 4.89562956431e-39
0.0102342552553 -0.0818740420422 0.79 7.66042506558e-39
0.0116962917203 -0.0818740420422 0.79 5.81688100981e-39
0.0132249526319 -0.0822885941539 0.794 6.46154836833e-39
0.0146943918132 -0.0822885941539 0.794 8.39799010449e-39
0.016204545934 -0.0824958702097 0.796 8.48911233973e-39
0.0176776864735 -0.0824958702097 0.796 9.40999944763e-39
0.019150827013 -0.0824958702097 0.796 9.50361599414e-39
0.0206239675524 -0.0824958702097 0.796 4.43252424392e-39
0.022152628464 -0.0827031462655 0.798 5.17116267745e-39
0.0236294703616 -0.0827031462655 0.798 2.86698939568e-39
0.0251063122592 -0.0827031462655 0.798 7.20090566797e-39
0.0266497786033 -0.0829104223213 0.8 8.03066913933e-39
0.0282006476636 -0.0831176983771 0.802 7.56969099002e-39
0.0296848922775 -0.0831176983771 0.802 1.03348368159e-38
0.0312080011519 -0.083221336405 0.803 8.21217512552e-39
0.0326940964448 -0.083221336405 0.803 7.84158493105e-39
0.0341801917378 -0.083221336405 0.803 7.28696781445e-39
0.035755119626 -0.0834286124608 0.805 9.59688501863e-39
0.0372449162771 -0.0834286124608 0.805 9.32101839645e-39
0.0388309482398 -0.0836358885166 0.807 9.50541105747e-39
0.0403244462491 -0.0836358885166 0.807 9.41321823021e-39
0.0419215822862 -0.0838431645724 0.809 9.50433766285e-39
0.0434187816536 -0.0838431645724 0.809 9.96531581217e-39
0.0450270217651 -0.0840504406282 0.811 7.8440974592e-39
0.0465279224906 -0.0840504406282 0.811 7.93593015276e-39
0.0480288232161 -0.0840504406282 0.811 8.48983400844e-39
0.0496518687602 -0.084257716684 0.813 6.83245665755e-39
0.0511564708438 -0.084257716684 0.813 9.50683057282e-39
0.0527906204624 -0.0844649927398 0.815 8.95043100457e-39
0.0542989239041 -0.0844649927398 0.815 1.13385560773e-38
0.0559441775971 -0.0846722687956 0.817 7.08930205437e-39
0.0575968340063 -0.0848795448514 0.819 1.12323362524e-38
0.0591125401644 -0.0848795448514 0.819 8.37245564387e-39
0.060776300648 -0.0850868209072 0.821 1.1410210073e-38
0.0622957081642 -0.0850868209072 0.821 1.46402983216e-38
0.0639705727222 -0.085294096963 0.823 1.51031177771e-38
0.0656528399966 -0.0855013730188 0.825 1.33499756891e-38
0.0671796502291 -0.0855013730188 0.825 9.19826745357e-39
0.0688730215778 -0.0857086490746 0.827 8.73406912038e-39
0.0704035331684 -0.0857086490746 0.827 1.04858113112e-38
0.0721080085916 -0.0859159251304 0.829 1.49176335045e-38
0.0736422215403 -0.0859159251304 0.829 1.51106819862e-38
0.0751764344891 -0.0859159251304 0.829 1.2067866067e-38
0.0768957153448 -0.0861232011862 0.831 1.55648119899e-38
0.0786223989168 -0.086330477242 0.833 1.14138282256e-38
0.0803564852051 -0.0865377532978 0.835 1.91618498595e-38
0.0820979742097 -0.0867450293536 0.837 1.55716124914e-38
0.0838468659305 -0.0869523054094 0.839 1.67752129657e-38
0.0856031603676 -0.0871595814652 0.841 1.59469110487e-38
0.0871595814652 -0.0871595814652 0.841 1.64082759564e-38
0.0889269799768 -0.087366857521 0.843 1.60405640289e-38
0.0904871024325 -0.087366857521 0.843 1.57650533366e-38
0.0922656050184 -0.0875741335768 0.845 1.49360325534e-38
0.0938294288323 -0.0875741335768 0.845 1.53044633469e-38
0.0958448183392 -0.0879886856884 0.849 1.54895566572e-38
0.0974160448693 -0.0879886856884 0.849 1.52115376406e-38
0.0992204569623 -0.0881959617442 0.851 1.63157608304e-38
0.100795384851 -0.0881959617442 0.851 8.20822066126e-39
0.102370312739 -0.0881959617442 0.851 7.84441135005e-39
0.103945240627 -0.0881959617442 0.851 7.93733285252e-39
0.105520168515 -0.0881959617442 0.851 8.94970373067e-39
0.107095096404 -0.0881959617442 0.851 9.59325145171e-39
-0.0367322781748 -0.084178137484 0.827 2.39636751033e-39
-0.035116635347 -0.0839745627863 0.825 4.14844040755e-39
-0.0335898251145 -0.0839745627863 0.825 3.2254023065e-39
-0.0319852863611 -0.0837709880887 0.823 2.76442415718e-39
-0.030388150324 -0.083567413391 0.821 2.11905755074e-39
-0.0287984170032 -0.0833638386933 0.819 4.61048634629e-39
-0.0272827108451 -0.0833638386933 0.819 1.01436408508e-38
-0.0257040815987 -0.0831602639957 0.817 8.394419596e-39
-0.0241328550685 -0.082956689298 0.815 9.31853669687e-39
-0.0225135108825 -0.0825495399027 0.811 8.4895004994e-39
-0.0209089721291 -0.0821423905073 0.807 8.67281556191e-39
-0.0193192388083 -0.081735241112 0.803 8.57990106593e-39
-0.0178109353665 -0.0816334537632 0.802 9.59369286073e-39
-0.0162452608736 -0.0812263043679 0.798 9.77700231804e-39
-0.014768418976 -0.0812263043679 0.798 1.02376175311e-38
-0.0132249526319 -0.0808191549725 0.794 1.11595724284e-38
-0.0117259025854 -0.0806155802749 0.792 8.11999490994e-39
-0.0102342552553 -0.0804120055772 0.79 7.38207954642e-39
-0.00876111471582 -0.0803102182284 0.789 7.28881332453e-39
-0.00728242213916 -0.0801066435307 0.787 1.03301788998e-38
-0.00582593771132 -0.0801066435307 0.787 8.21073038681e-39
-0.00435834920908 -0.079903068833 0.785 4.98602172305e-39
-0.00290556613938 -0.079903068833 0.785 6.83101332013e-39
-0.00145648442783 -0.0801066435307 0.787 7.20016718368e-39
0.0 -0.0801066435307 0.787 6.37003797341e-39
0.00145648442783 -0.0801066435307 0.787 7.84553659272e-39
0.00292037157194 -0.0803102182284 0.789 7.10906176402e-39
0.00438055735791 -0.0803102182284 0.789 5.1736752056e-39
0.00584074314388 -0.0803102182284 0.789 6.92538656781e-39
0.0073101823252 -0.0804120055772 0.79 7.66258726911e-39
0.00877221879024 -0.0804120055772 0.79 7.6618670017e-39
0.0102601647623 -0.0806155802749 0.792 9.31959467721e-39
0.0117259025854 -0.0806155802749 0.792 9.41252458747e-39
0.0132249526319 -0.0808191549725 0.794 7.84377936445e-39
0.0147314053946 -0.0810227296702 0.796 6.8303098683e-39
0.016204545934 -0.0810227296702 0.796 5.07715797127e-39
0.0176776864735 -0.0810227296702 0.796 4.89276951414e-39
0.019150827013 -0.0810227296702 0.796 6.73809882416e-39
0.0206757865664 -0.0812263043679 0.798 6.64629275526e-39
0.022152628464 -0.0812263043679 0.798 8.21468905497e-39
0.0236294703616 -0.0812263043679 0.798 1.00585988496e-38
0.0251692353475 -0.0814298790655 0.8 8.21541212498e-39
0.0267164030498 -0.0816334537632 0.802 6.27930389785e-39
0.0282006476636 -0.0816334537632 0.802 2.68367713577e-39
0.0297219058589 -0.081735241112 0.803 4.43431230076e-39
0.0312080011519 -0.081735241112 0.803 8.02813699301e-39
0.0326940964448 -0.081735241112 0.803 5.62888841303e-39
0.034265322975 -0.0819388158097 0.805 7.93305328701e-39
0.035755119626 -0.0819388158097 0.805 9.96494867197e-39
0.0373374502306 -0.0821423905073 0.807 9.41213923039e-39
0.0389271835515 -0.082345965205 0.809 8.67422106427e-39
0.0404243829188 -0.082345965205 0.809 6.73811423844e-39
0.0419215822862 -0.082345965205 0.809 8.21324711885e-39
0.0435261210396 -0.0825495399027 0.811 7.19909519035e-39
0.0450270217651 -0.0825495399027 0.811 7.3845626473e-39
0.0465279224906 -0.0825495399027 0.811 8.76749569395e-39
0.0481472666766 -0.0827531146003 0.813 9.04480144965e-39
0.0496518687602 -0.0827531146003 0.813 9.59904582086e-39
0.0512823170206 -0.082956689298 0.815 9.13842220005e-39
0.0530497155321 -0.0833638386933 0.819 1.05170518591e-38
0.0545654216902 -0.0833638386933 0.819 1.24438246359e-38
0.0562180780994 -0.083567413391 0.821 7.82434475604e-39
0.0577374856156 -0.083567413391 0.821 1.10465072605e-38
0.0592568931318 -0.083567413391 0.821 9.75395516219e-39
0.0609243549736 -0.0837709880887 0.823 1.25180037714e-38
0.0625992195316 -0.0839745627863 0.825 1.40842729e-38
0.0641260297641 -0.0839745627863 0.825 1.20552782029e-38
0.0658119983966 -0.084178137484 0.827 1.05805026536e-38
0.0673425099872 -0.084178137484 0.827 1.21481758833e-38
0.0690395826941 -0.0843817121817 0.829 1.43608738026e-38
0.0705737956428 -0.0843817121817 0.829 1.33474449441e-38
0.0722819724241 -0.0845852868793 0.831 1.69444954254e-38
0.073819886731 -0.0845852868793 0.831 1.46461067037e-38
0.0753578010379 -0.0845852868793 0.831 1.02199976042e-38
0.0770807832518 -0.084788861577 0.833 7.63562068147e-39
0.0788111681819 -0.0849924362746 0.835 1.0307117731e-38
0.0805489558284 -0.0851960109723 0.837 9.66210004786e-39
0.0822941461911 -0.08539958567 0.839 1.26156056107e-38
0.08404673927 -0.0856031603676 0.841 1.47415141097e-38
0.0856031603676 -0.0856031603676 0.841 1.55752488609e-38
0.0871595814652 -0.0856031603676 0.841 1.6037695571e-38
0.0889269799768 -0.0858067350653 0.843 1.64082759564e-38
0.0904871024325 -0.0858067350653 0.843 1.54877615938e-38
0.0922656050184 -0.086010309763 0.845 1.613279329e-38
0.0940515103207 -0.0862138844606 0.847 1.45661934549e-38
0.0958448183392 -0.0864174591583 0.849 1.63178880015e-38
0.097645529074 -0.086621033856 0.851 1.59494445963e-38
0.0992204569623 -0.086621033856 0.851 1.70554390274e-38
0.100795384851 -0.086621033856 0.851 8.85428231174e-39
0.102370312739 -0.086621033856 0.851 7.38307166573e-39
0.103945240627 -0.086621033856 0.851 8.39760614871e-39
0.105520168515 -0.086621033856 0.851 7.75079480355e-39
0.107095096404 -0.086621033856 0.851 1.02368257974e-38
-0.0367322781748 -0.0826476258934 0.827 2.85627226503e-39
-0.0352017665842 -0.0826476258934 0.827 3.6734338593e-40
-0.0335898251145 -0.0824477525538 0.825 8.27599866538e-40
-0.0319852863611 -0.0822478792143 0.823 3.67341984632e-40
-0.030388150324 -0.0820480058748 0.821 3.67341984632e-40
-0.0287984170032 -0.0818481325353 0.819 3.50341992182e-39
-0.0272827108451 -0.0818481325353 0.819 9.86633509514e-39
-0.0257040815987 -0.0816482591957 0.817 1.14354334454e-38
-0.0241328550685 -0.0814483858562 0.815 8.30330296596e-39
-0.0225690312546 -0.0812485125167 0.813 8.48805716199e-39
-0.0209607911431 -0.0808487658376 0.809 9.04123234246e-39
-0.0193673564641 -0.0804490191586 0.805 9.50149442827e-39
-0.0178109353665 -0.0801492091493 0.802 8.85612501922e-39
-0.0162859758131 -0.0799493358098 0.8 9.4092959958e-39
-0.014768418976 -0.0797494624703 0.798 9.59404178404e-39
-0.0132249526319 -0.0793497157912 0.794 1.03308837529e-38
-0.0117259025854 -0.0791498424517 0.792 1.07929493099e-38
-0.0102342552553 -0.0789499691122 0.79 7.38136068031e-39
-0.00877221879024 -0.0789499691122 0.79 7.65723010508e-39
-0.00730092892985 -0.0788500324424 0.789 1.09751811687e-38
-0.00584074314388 -0.0788500324424 0.789 8.30256308037e-39
-0.00436945328349 -0.0786501591029 0.787 6.55226562831e-39
-0.00291296885566 -0.0786501591029 0.787 7.19871123457e-39
-0.00145648442783 -0.0786501591029 0.787 7.01468571374e-39
0.0 -0.0788500324424 0.789 6.00053798914e-39
0.00146018578597 -0.0788500324424 0.789 8.21324431625e-39
0.00292037157194 -0.0788500324424 0.789 9.41216165116e-39
0.00438055735791 -0.0788500324424 0.789 7.38422073047e-39
0.00584814586016 -0.0789499691122 0.79 7.8455548096e-39
0.0073101823252 -0.0789499691122 0.79 7.56896371611e-39
0.00879442693908 -0.0791498424517 0.792 4.89457298526e-39
0.0102601647623 -0.0791498424517 0.792 6.64450049453e-39
0.0117555134506 -0.0793497157912 0.794 2.40494205564e-39
0.0132582648551 -0.0795495891307 0.796 5.8161607424e-39
0.0147314053946 -0.0795495891307 0.796 8.21358483178e-39
0.016204545934 -0.0795495891307 0.796 1.04241303567e-38
0.0177221027712 -0.0797494624703 0.798 8.48767320621e-39
0.0191989446688 -0.0797494624703 0.798 8.5812995618e-39
0.0206757865664 -0.0797494624703 0.798 7.65865242303e-39
0.022152628464 -0.0797494624703 0.798 3.51056794529e-39
0.0236886920918 -0.0799493358098 0.8 5.17078853076e-39
0.0251692353475 -0.0799493358098 0.8 6.37040651491e-39
0.0267164030498 -0.0801492091493 0.802 8.12212628491e-39
0.028235810566 -0.0802491458191 0.803 9.50506073286e-39
0.0297959330217 -0.0804490191586 0.805 9.59725356012e-39
0.0312857296728 -0.0804490191586 0.805 8.76676982135e-39
0.0327755263239 -0.0804490191586 0.805 7.93592594886e-39
0.0343504542122 -0.0806488924981 0.807 8.30398259571e-39
0.0358439522214 -0.0806488924981 0.807 7.47495200344e-39
0.0374299841841 -0.0808487658376 0.809 7.65863280485e-39
0.0390234188631 -0.0810486391772 0.811 8.76570203192e-39
0.0405243195886 -0.0810486391772 0.811 8.48947807863e-39
0.0420252203141 -0.0810486391772 0.811 9.96461095904e-39
0.0436334604256 -0.0812485125167 0.813 1.05185064069e-38
0.0451380625093 -0.0812485125167 0.813 7.19982106296e-39
0.0466426645929 -0.0812485125167 0.813 6.92395023688e-39
0.0481472666766 -0.0812485125167 0.813 7.56930283034e-39
0.0498961583974 -0.0816482591957 0.817 8.95367921441e-39
0.0514081631973 -0.0816482591957 0.817 9.50542507046e-39
0.0530497155321 -0.0818481325353 0.819 9.96173409329e-39
0.0545654216902 -0.0818481325353 0.819 9.67651660646e-39
0.0562180780994 -0.0820480058748 0.821 8.28459142756e-39
0.0577374856156 -0.0820480058748 0.821 1.09517934973e-38
0.0594012460992 -0.0822478792143 0.823 1.07659701105e-38
0.0610724092991 -0.0824477525538 0.825 1.30755187732e-38
0.0625992195316 -0.0824477525538 0.825 1.37165974064e-38
0.064281486806 -0.0826476258934 0.827 1.19591295101e-38
0.0658119983966 -0.0826476258934 0.827 9.65566948921e-39
0.0673425099872 -0.0826476258934 0.827 1.05830333986e-38
0.0690395826941 -0.0828474992329 0.829 1.46442948248e-38
0.0707440581172 -0.0830473725724 0.831 1.73164925236e-38
0.0722819724241 -0.0830473725724 0.831 1.22389211692e-38
0.073819886731 -0.0830473725724 0.831 9.29083723012e-39
0.0755391675868 -0.0832472459119 0.833 1.11351015533e-38
0.0772658511588 -0.0834471192515 0.835 1.16882571156e-38
0.078999937447 -0.083646992591 0.837 1.28885813542e-38
0.0805489558284 -0.083646992591 0.837 1.41800376371e-38
0.0824903181724 -0.08404673927 0.841 1.02181520941e-38
0.0842466126096 -0.0842466126096 0.843 1.16043403571e-38
0.0858067350653 -0.0842466126096 0.843 1.09611415593e-38
0.087366857521 -0.0842466126096 0.843 1.57614155658e-38
0.0891379573907 -0.0844464859491 0.845 1.55784816564e-38
0.0907017812046 -0.0844464859491 0.845 1.53015752708e-38
0.0924839851487 -0.0846463592886 0.847 1.61317240992e-38
0.094273591809 -0.0848462326281 0.849 1.61320912394e-38
0.0960706011857 -0.0850461059677 0.851 1.53959569263e-38
0.097645529074 -0.0850461059677 0.851 1.558032016e-38
0.0992204569623 -0.0850461059677 0.851 1.50285518832e-38
0.100795384851 -0.0850461059677 0.851 8.30215950641e-39
0.102370312739 -0.0850461059677 0.851 8.4894136189e-39
0.103945240627 -0.0850461059677 0.851 8.76639287206e-39
0.105520168515 -0.0850461059677 0.851 8.58091000083e-39
0.107095096404 -0.0850461059677 0.851 9.58862436418e-39
0.108670024292 -0.0850461059677 0.851 5.06534782781e-39
-0.0352868978214 -0.0813132862841 0.829 2.75512093668e-40
-0.0336712549936 -0.0811171143028 0.827 4.88421038312e-39
-0.0320630148821 -0.0809209423214 0.825 1.93578452718e-38
-0.0304621774868 -0.08072477034 0.823 2.24013800572e-38
-0.0288687428078 -0.0805285983586 0.821 2.14804887454e-38
-0.0272827108451 -0.0803324263772 0.819 7.65363997842e-39
-0.0257040815987 -0.0801362543958 0.817 1.08822596662e-38
-0.0241328550685 -0.0799400824144 0.815 1.0883338666e-38
-0.0225690312546 -0.0797439104331 0.813 8.30186383243e-39
-0.0209607911431 -0.0793515664703 0.809 8.57881365833e-39
-0.0194154741199 -0.0791553944889 0.807 9.31638009853e-39
-0.0178331435154 -0.0787630505261 0.803 9.4092959958e-39
-0.0162859758131 -0.0784687925541 0.8 8.39586153212e-39
-0.014768418976 -0.0782726205727 0.798 1.02401272566e-38
-0.0132582648551 -0.0780764485913 0.796 1.06089069735e-38
-0.0117555134506 -0.0778802766099 0.794 9.50221329438e-39
-0.0102860742692 -0.0778802766099 0.794 9.77700512063e-39
-0.00879442693908 -0.0776841046285 0.792 7.8405339572e-39
-0.0073101823252 -0.0774879326471 0.79 1.02368902571e-38
-0.00584814586016 -0.0774879326471 0.79 7.84086326234e-39
-0.00438055735791 -0.0773898466564 0.789 4.89203383245e-39
-0.00292037157194 -0.0773898466564 0.789 7.19798816456e-39
-0.00146018578597 -0.0773898466564 0.789 7.47565265267e-39
0.0 -0.0773898466564 0.789 7.29055653982e-39
0.00146018578597 -0.0773898466564 0.789 9.04264345002e-39
0.00292407293008 -0.0774879326471 0.79 6.27606829969e-39
0.00438610939512 -0.0774879326471 0.79 2.40350712601e-39
0.00586295129272 -0.0776841046285 0.792 5.63069889065e-39
0.00734719590659 -0.0778802766099 0.794 6.55265378798e-39
0.00881663508791 -0.0778802766099 0.794 6.92108458152e-39
0.0102860742692 -0.0778802766099 0.794 8.21075561018e-39
0.0117851243157 -0.0780764485913 0.796 1.07011026033e-38
0.0132582648551 -0.0780764485913 0.796 5.722178457e-39
0.014768418976 -0.0782726205727 0.798 6.55156077518e-39
0.0162452608736 -0.0782726205727 0.798 5.9980240597e-39
0.0177221027712 -0.0782726205727 0.798 4.06228577536e-39
0.0191989446688 -0.0782726205727 0.798 5.44627540106e-39
0.0207276055803 -0.0784687925541 0.8 6.73738276064e-39
0.0222636692081 -0.0786649645354 0.802 9.78055460964e-39
0.023747913822 -0.0786649645354 0.802 8.8582465851e-39
0.0252636199801 -0.0787630505261 0.803 8.95044501756e-39
0.026749715273 -0.0787630505261 0.803 7.01433679043e-39
0.0283061363706 -0.0789592225075 0.805 6.92285722408e-39
0.0297959330217 -0.0789592225075 0.805 6.18529218517e-39
0.0312857296728 -0.0789592225075 0.805 7.10724568121e-39
0.0328569562029 -0.0791553944889 0.807 8.49053746027e-39
0.0343504542122 -0.0791553944889 0.807 8.85859831101e-39
0.0359327848167 -0.0793515664703 0.809 1.01471903399e-38
0.0374299841841 -0.0793515664703 0.809 9.68621639443e-39
0.0390234188631 -0.0795477384517 0.811 9.13376568526e-39
0.0405243195886 -0.0795477384517 0.811 8.76570203192e-39
0.042128858342 -0.0797439104331 0.813 6.00019607232e-39
0.0436334604256 -0.0797439104331 0.813 7.19981826036e-39
0.0451380625093 -0.0797439104331 0.813 8.95225409387e-39
0.0467574066952 -0.0799400824144 0.815 9.59869970014e-39
0.048265710137 -0.0799400824144 0.815 9.5061159106e-39
0.0498961583974 -0.0801362543958 0.817 9.04515037297e-39
0.0515340093741 -0.0803324263772 0.819 9.50435447843e-39
0.0530497155321 -0.0803324263772 0.819 1.07897011e-38
0.0546986705832 -0.0805285983586 0.821 7.46309141324e-39
0.0563550283506 -0.08072477034 0.823 8.00726885628e-39
0.0578781372249 -0.08072477034 0.823 1.13202116791e-38
0.0594012460992 -0.08072477034 0.823 1.15935839901e-38
0.0610724092991 -0.0809209423214 0.825 1.00320050074e-38
0.0627509752153 -0.0811171143028 0.827 1.19652405727e-38
0.064281486806 -0.0811171143028 0.827 2.06283871752e-38
0.0658119983966 -0.0811171143028 0.827 1.14091927303e-38
0.0675053697453 -0.0813132862841 0.829 1.25195129698e-38
0.0692061438103 -0.0815094582655 0.831 1.39078031805e-38
0.0707440581172 -0.0815094582655 0.831 1.12333746146e-38
0.0724559362567 -0.0817056302469 0.833 1.08574370652e-38
0.0739975519217 -0.0817056302469 0.833 1.62008305343e-38
0.0755391675868 -0.0817056302469 0.833 1.18694197837e-38
0.0772658511588 -0.0819018022283 0.835 1.37169155011e-38
0.078999937447 -0.0820979742097 0.837 1.47346505498e-38
0.0807414264516 -0.0822941461911 0.839 1.49211998091e-38
0.0824903181724 -0.0824903181724 0.841 1.43698351063e-38
0.0842466126096 -0.0826864901538 0.843 1.50162975281e-38
0.086010309763 -0.0828826621352 0.845 1.37255713217e-38
0.0875741335768 -0.0828826621352 0.845 1.02292896143e-38
0.0891379573907 -0.0828826621352 0.845 1.42866470229e-38
0.0909164599767 -0.0830788341166 0.847 1.68685352396e-38
0.0927023652789 -0.083275006098 0.849 1.55785293006e-38
0.094273591809 -0.083275006098 0.849 1.5671812338e-38
0.0960706011857 -0.0834711780794 0.851 1.5580348186e-38
0.0979897553809 -0.0837654360515 0.854 1.70565320402e-38
0.0995702353064 -0.0837654360515 0.854 1.43849663271e-38
0.101150715232 -0.0837654360515 0.854 7.4756246267e-39
0.102370312739 -0.0834711780794 0.851 7.75436250944e-39
0.103945240627 -0.0834711780794 0.851 8.2150239653e-39
0.105892155008 -0.0837654360515 0.854 7.20013495381e-39
0.107095096404 -0.0834711780794 0.851 7.00755450586e-39
0.108670024292 -0.0834711780794 0.851 7.34683969264e-40
-0.0352868978214 -0.0797790733354 0.829 2.35091681503e-38
-0.0336712549936 -0.0795866027121 0.827 2.35091681503e-38
-0.032140743403 -0.0795866027121 0.827 2.35091681503e-38
-0.0304621774868 -0.0792016614656 0.823 2.35091681503e-38
-0.0288687428078 -0.0790091908424 0.821 1.84380385651e-38
-0.0272827108451 -0.0788167202191 0.819 8.29901219006e-39
-0.025767004687 -0.0788167202191 0.819 1.18964171999e-38
-0.0241328550685 -0.0784317789727 0.815 9.5915236507e-39
-0.0225690312546 -0.0782393083494 0.813 1.07900668389e-38
-0.021012610157 -0.0780468377262 0.811 8.67029042208e-39
-0.0194635917757 -0.0778543671029 0.809 9.1319888388e-39
-0.017877559813 -0.0774694258564 0.805 9.22490473608e-39
-0.0163266907526 -0.0771807199216 0.802 8.9490353113e-39
-0.014768418976 -0.0767957786751 0.798 8.21182339961e-39
-0.0132582648551 -0.0766033080518 0.796 1.04255905097e-38
-0.0117851243157 -0.0766033080518 0.796 9.77808412045e-39
-0.0102860742692 -0.0764108374286 0.794 9.96139357776e-39
-0.00881663508791 -0.0764108374286 0.794 1.08833414686e-38
-0.0073286891159 -0.0762183668053 0.792 1.07904157622e-38
-0.00584814586016 -0.0760258961821 0.79 8.30184141166e-39
-0.00438610939512 -0.0760258961821 0.79 5.99837858821e-39
-0.00292407293008 -0.0760258961821 0.79 7.01359690484e-39
-0.00146203646504 -0.0760258961821 0.79 7.38381015002e-39
0.0 -0.0760258961821 0.79 5.26332187355e-39
0.00146203646504 -0.0760258961821 0.79 9.41105742797e-39
0.00292407293008 -0.0760258961821 0.79 9.0415672528e-39
0.00438610939512 -0.0760258961821 0.79 8.21180938662e-39
0.00586295129272 -0.0762183668053 0.792 8.39619784375e-39
0.00734719590659 -0.0764108374286 0.794 5.07715516867e-39
0.00881663508791 -0.0764108374286 0.794 7.10510870105e-39
0.0103119837762 -0.0766033080518 0.796 3.14106655972e-39
0.0117851243157 -0.0766033080518 0.796 4.89383450097e-39
0.0132915770784 -0.0767957786751 0.798 7.10651560471e-39
0.014768418976 -0.0767957786751 0.798 7.65861318667e-39
0.0162452608736 -0.0767957786751 0.798 9.96278506714e-39
0.0177221027712 -0.0767957786751 0.798 1.02393747593e-38
0.0192470623246 -0.0769882492983 0.8 9.40962530094e-39
0.0207794245943 -0.0771807199216 0.802 8.11996828527e-39
0.0222636692081 -0.0771807199216 0.802 8.02813979561e-39
0.0237775246871 -0.0772769552332 0.803 8.0274181269e-39
0.0252636199801 -0.0772769552332 0.803 7.93521969444e-39
0.0268163397195 -0.0774694258564 0.805 8.76498036321e-39
0.0283061363706 -0.0774694258564 0.805 9.41070710336e-39
0.0297959330217 -0.0774694258564 0.805 1.05177735278e-38
0.0313634581937 -0.0776618964797 0.807 7.75226476564e-39
0.0328569562029 -0.0776618964797 0.807 7.38348224618e-39
0.0344355854494 -0.0778543671029 0.809 6.09382242791e-39
0.0359327848167 -0.0778543671029 0.809 6.7359548375e-39
0.0375225181376 -0.0780468377262 0.811 8.30256167907e-39
0.0390234188631 -0.0780468377262 0.811 9.22523404122e-39
0.0406242562583 -0.0782393083494 0.813 9.96387807994e-39
0.042128858342 -0.0782393083494 0.813 8.67457699408e-39
0.0436334604256 -0.0782393083494 0.813 7.93773222258e-39
0.0452491032535 -0.0784317789727 0.815 9.13699427692e-39
0.0467574066952 -0.0784317789727 0.815 9.13699427692e-39
0.0483841535975 -0.0786242495959 0.817 9.04440768478e-39
0.050018303216 -0.0788167202191 0.819 9.59723254065e-39
0.0515340093741 -0.0788167202191 0.819 9.96424522014e-39
0.053179263067 -0.0790091908424 0.821 1.11573962119e-38
0.0546986705832 -0.0790091908424 0.821 1.02275141691e-38
0.0564919786017 -0.0793941320889 0.825 1.08656823054e-38
0.0580187888342 -0.0793941320889 0.825 1.51013044969e-38
0.0595455990667 -0.0793941320889 0.825 1.25169822248e-38
0.0612204636247 -0.0795866027121 0.827 8.18378762123e-39
0.0627509752153 -0.0795866027121 0.827 1.46399704177e-38
0.064281486806 -0.0795866027121 0.827 2.10961868454e-38
0.0659711567966 -0.0797790733354 0.829 8.00336624006e-39
0.0676682295035 -0.0799715439586 0.831 1.64842753786e-38
0.0693727049266 -0.0801640145819 0.833 1.09532214204e-38
0.0709143205917 -0.0801640145819 0.833 7.54378378401e-39
0.0724559362567 -0.0801640145819 0.833 1.83317696947e-38
0.0739975519217 -0.0801640145819 0.833 1.187122886e-38
0.0757205341356 -0.0803564852051 0.835 9.93546955617e-39
0.0772658511588 -0.0803564852051 0.835 1.47339456967e-38
0.078999937447 -0.0805489558284 0.837 1.6029709571e-38
