# .PCD v0.7 - Point Cloud Data file format
VERSION 0.7
FIELDS x y z rgb
SIZE 4 4 4 4
TYPE F F F F
COUNT 1 1 1 1
WIDTH 831
HEIGHT 1
VIEWPOINT 0 0 0 1 0 0 0
POINTS 831
DATA ascii
-0.0129547534877 -0.079023996275 0.7 1.79859544571e-38
-0.0116592781389 -0.079023996275 0.7 1.86330937061e-38
-0.0104082190878 -0.0793626705447 0.703 1.75288565032e-38
-0.00912014645534 -0.079475561968 0.704 1.31035055061e-38
-0.00783947653913 -0.0797013448145 0.706 1.85285988796e-39
-0.00655140390664 -0.079927127661 0.708 1.11458999593e-39
-0.00525592855787 -0.0801529105075 0.71 3.51095330237e-39
-0.00394749845561 -0.0802658019307 0.711 9.31572849475e-39
-0.00263906835335 -0.0804915847772 0.713 9.50048829597e-39
-0.0621828167409 -0.0777285209262 0.7 2.35095268827e-38
-0.0608873413922 -0.0777285209262 0.7 2.35091681503e-38
-0.0595918660434 -0.0777285209262 0.7 2.35091681503e-38
-0.0582963906946 -0.0777285209262 0.7 2.34180431125e-38
-0.0570009153459 -0.0777285209262 0.7 9.95718127458e-39
-0.0557054399971 -0.0777285209262 0.7 3.36311631438e-44
-0.0542545076065 -0.0775064394378 0.698 3.50775273667e-39
-0.0529627336158 -0.0775064394378 0.698 2.58649848857e-39
-0.0516709596252 -0.0775064394378 0.698 2.67796404193e-39
-0.0503791856346 -0.0775064394378 0.698 2.40137995494e-39
-0.049087411644 -0.0775064394378 0.698 1.38723643424e-39
-0.0477956376533 -0.0775064394378 0.698 4.67192908006e-42
-0.0465038636627 -0.0775064394378 0.698 1.07899981753e-42
-0.0452120896721 -0.0775064394378 0.698 1.07899981753e-42
-0.0439203156814 -0.0775064394378 0.698 3.58732406867e-43
-0.0426285416908 -0.0775064394378 0.698 7.17464813734e-43
-0.0412775459699 -0.0773953986936 0.697 1.43492962747e-42
-0.0399876226584 -0.0773953986936 0.697 6.54910429897e-39
-0.0386976993468 -0.0773953986936 0.697 1.25432775905e-38
-0.0374077760353 -0.0773953986936 0.697 1.73370804006e-38
-0.0361178527237 -0.0773953986936 0.697 2.16695253095e-38
-0.0348279294121 -0.0773953986936 0.697 2.10234160149e-38
-0.0335380061006 -0.0773953986936 0.697 2.13932915471e-38
-0.032248082789 -0.0773953986936 0.697 1.93657359835e-38
-0.0309581594775 -0.0773953986936 0.697 1.48488437629e-38
-0.0296682361659 -0.0773953986936 0.697 5.0739349848e-39
-0.0283783128543 -0.0773953986936 0.697 7.38271293333e-40
-0.0270883895428 -0.0773953986936 0.697 9.25529609717e-41
-0.0257614526498 -0.0772843579495 0.696 1.08180241446e-42
-0.0244733800173 -0.0772843579495 0.696 1.08320371292e-42
-0.0231853073848 -0.0772843579495 0.696 2.1523944412e-42
-0.0218972347523 -0.0772843579495 0.696 3.04492066949e-39
-0.0206091621199 -0.0772843579495 0.696 1.41094626412e-38
-0.0193210894874 -0.0772843579495 0.696 1.89022481086e-38
-0.0180589263618 -0.0773953986936 0.697 1.97355246352e-38
-0.0167930618782 -0.0775064394378 0.698 2.00159945229e-38
-0.0155012878876 -0.0775064394378 0.698 1.84483114841e-38
-0.0142095138969 -0.0775064394378 0.698 1.78955174568e-38
-0.0129177399063 -0.0775064394378 0.698 1.72512018242e-38
-0.0116592781389 -0.0777285209262 0.7 1.72504941685e-38
-0.0103786082227 -0.0778395616704 0.701 1.53183193861e-38
-0.00910719170185 -0.0780616431587 0.703 6.74096167692e-39
-0.00783947653913 -0.0783947653913 0.706 2.83398601425e-40
-0.00655140390664 -0.0786168468796 0.708 5.81407140639e-39
-0.00525592855787 -0.078838928368 0.71 9.68556479064e-39
-0.00394749845561 -0.0789499691122 0.711 1.2728038793e-38
-0.00263906835335 -0.0791720506005 0.713 1.17114051649e-38
-0.0622716493363 -0.0765422356425 0.701 2.35098856151e-38
-0.0608873413922 -0.0764330455774 0.7 2.35091681503e-38
-0.0595918660434 -0.0764330455774 0.7 2.35091681503e-38
-0.0582963906946 -0.0764330455774 0.7 2.35098758061e-38
-0.0570009153459 -0.0764330455774 0.7 1.28138010616e-38
-0.0557054399971 -0.0764330455774 0.7 2.80259692865e-44
-0.0542545076065 -0.0762146654472 0.698 3.13860447832e-39
-0.0529627336158 -0.0762146654472 0.698 2.67976891436e-39
-0.0516709596252 -0.0762146654472 0.698 2.86343990667e-39
-0.0503791856346 -0.0762146654472 0.698 2.67904304175e-39
-0.049087411644 -0.0762146654472 0.698 2.21984874538e-39
-0.0477956376533 -0.0762146654472 0.698 2.22091373221e-39
-0.0465038636627 -0.0762146654472 0.698 1.94468837763e-39
-0.0452120896721 -0.0762146654472 0.698 1.57483526615e-39
-0.0439203156814 -0.0762146654472 0.698 1.02023496513e-39
-0.0426285416908 -0.0762146654472 0.698 6.5038185365e-40
-0.0412775459699 -0.0761054753821 0.697 1.19998792694e-39
-0.0399876226584 -0.0761054753821 0.697 1.09161150371e-42
-0.0386976993468 -0.0761054753821 0.697 1.80206982512e-42
-0.0374077760353 -0.0761054753821 0.697 1.44053482133e-42
-0.0361178527237 -0.0761054753821 0.697 7.20267410663e-43
-0.0347779610773 -0.075996285317 0.696 3.70221652976e-40
-0.0334898884448 -0.075996285317 0.696 5.44169735897e-39
-0.0322018158123 -0.075996285317 0.696 1.13454546697e-38
-0.0309137431798 -0.075996285317 0.696 1.66896062413e-38
-0.0296256705473 -0.075996285317 0.696 2.32336616619e-38
-0.0283375979148 -0.075996285317 0.696 2.35098505827e-38
-0.0270495252823 -0.075996285317 0.696 2.35098533853e-38
-0.0257614526498 -0.075996285317 0.696 2.26819158058e-38
-0.0244733800173 -0.075996285317 0.696 2.11160334356e-38
-0.0231853073848 -0.075996285317 0.696 6.82498773673e-39
-0.021834311664 -0.0757779051868 0.694 9.1835496158e-41
-0.0205499403896 -0.0757779051868 0.694 1.43492962747e-42
-0.0193210894874 -0.075996285317 0.696 4.48415508584e-44
-0.0180330168549 -0.075996285317 0.696 7.24471306056e-43
-0.0167449442224 -0.075996285317 0.696 6.18243213501e-39
-0.0154790797387 -0.0761054753821 0.697 1.78891639696e-38
-0.0141891564272 -0.0761054753821 0.697 2.03809052547e-38
-0.0129177399063 -0.0762146654472 0.698 2.03822757246e-38
-0.0116259659157 -0.0762146654472 0.698 1.99223401413e-38
-0.0103638027902 -0.0764330455774 0.7 1.20914919591e-38
-0.00908128219488 -0.0765422356425 0.701 2.3141827567e-39
-0.00781726839029 -0.0768698058379 0.704 6.55125108822e-39
-0.00655140390664 -0.0773065660983 0.708 1.06057372363e-38
-0.00525592855787 -0.0775249462285 0.71 1.25418566738e-38
-0.00394749845561 -0.0776341362936 0.711 1.30968213125e-38
-0.00263906835335 -0.0778525164239 0.713 1.16192109364e-38
-0.0622716493363 -0.0752449096147 0.701 2.35098856151e-38
-0.0609743233085 -0.0752449096147 0.701 2.35095268827e-38
-0.0596769972806 -0.0752449096147 0.701 2.35091681503e-38
-0.0583796712528 -0.0752449096147 0.701 2.35098730035e-38
-0.0570823452249 -0.0752449096147 0.701 1.64087089576e-38
-0.0557054399971 -0.0751375702286 0.7 3.85357077689e-43
-0.0544099646483 -0.0751375702286 0.7 2.77017648738e-39
-0.0531144892996 -0.0751375702286 0.7 2.40353234938e-39
-0.0516709596252 -0.0749228914566 0.698 2.21842082224e-39
-0.0503791856346 -0.0749228914566 0.698 2.3102633249e-39
-0.049087411644 -0.0749228914566 0.698 2.12659513518e-39
-0.0477956376533 -0.0749228914566 0.698 1.850728513e-39
-0.0465038636627 -0.0749228914566 0.698 2.21951103245e-39
-0.0452120896721 -0.0749228914566 0.698 1.94327586877e-39
-0.0439203156814 -0.0749228914566 0.698 2.03510716104e-39
-0.0426285416908 -0.0749228914566 0.698 1.94218565857e-39
-0.0412775459699 -0.0748155520705 0.697 2.49322105629e-39
-0.0399876226584 -0.0748155520705 0.697 1.66453938734e-39
-0.0386976993468 -0.0748155520705 0.697 1.39118108941e-39
-0.0374077760353 -0.0748155520705 0.697 1.20678982969e-39
-0.0361178527237 -0.0748155520705 0.697 1.11064954465e-39
-0.0347779610773 -0.0747082126845 0.696 3.58872536714e-42
-0.0334898884448 -0.0747082126845 0.696 1.79366203434e-42
-0.0322018158123 -0.0747082126845 0.696 3.2285916618e-42
-0.0309137431798 -0.0747082126845 0.696 1.88707258997e-40
-0.0296256705473 -0.0747082126845 0.696 1.26116861789e-44
-0.0283375979148 -0.0747082126845 0.696 9.1835496158e-41
-0.0270495252823 -0.0747082126845 0.696 2.49033858535e-39
-0.0257614526498 -0.0747082126845 0.696 1.41077362415e-38
-0.0244733800173 -0.0747082126845 0.696 2.28656022124e-38
-0.0231186829383 -0.0744935339124 0.694 2.21266134543e-38
-0.021834311664 -0.0744935339124 0.694 2.35098856151e-38
-0.0205499403896 -0.0744935339124 0.694 2.27751441926e-38
-0.0192655691153 -0.0744935339124 0.694 2.26815668825e-38
-0.0179811978409 -0.0744935339124 0.694 2.23142080823e-38
-0.0167449442224 -0.0747082126845 0.696 7.74835234032e-39
-0.0154568715899 -0.0747082126845 0.696 1.79366203434e-42
-0.0141687989574 -0.0747082126845 0.696 3.04492066949e-39
-0.0128807263249 -0.0747082126845 0.696 1.10669522051e-38
-0.0116259659157 -0.0749228914566 0.698 1.79822928642e-38
-0.010334191925 -0.0749228914566 0.698 8.86110663526e-39
-0.00908128219488 -0.0752449096147 0.701 6.83105255649e-39
-0.00781726839029 -0.0755669277728 0.704 1.20808280778e-38
-0.00657916409268 -0.0763183034751 0.711 1.10638413225e-38
-0.00526333127414 -0.0763183034751 0.711 1.33709124895e-38
-0.0622716493363 -0.0739475835868 0.701 2.35098828126e-38
-0.0609743233085 -0.0739475835868 0.701 2.35095268827e-38
-0.0596769972806 -0.0739475835868 0.701 2.35091681503e-38
-0.058546232369 -0.0741585610008 0.703 2.35098687996e-38
-0.0570823452249 -0.0739475835868 0.701 1.89905411223e-38
-0.0557850191971 -0.0739475835868 0.701 1.96181785005e-44
-0.0544876931693 -0.0739475835868 0.701 2.86165044853e-39
-0.0531144892996 -0.0738420948799 0.7 3.69354949876e-39
-0.0518190139508 -0.0738420948799 0.7 3.50807923922e-39
-0.050523538602 -0.0738420948799 0.7 3.32260617707e-39
-0.0492280632532 -0.0738420948799 0.7 2.5868333989e-39
-0.0477956376533 -0.0736311174659 0.698 2.21876694297e-39
-0.0465038636627 -0.0736311174659 0.698 2.31131990394e-39
-0.0452120896721 -0.0736311174659 0.698 1.94218285597e-39
-0.0439203156814 -0.0736311174659 0.698 2.49464337423e-39
-0.0426285416908 -0.0736311174659 0.698 2.30917871988e-39
-0.0412775459699 -0.073525628759 0.697 2.12656570791e-39
-0.0399876226584 -0.073525628759 0.697 1.29897004527e-39
-0.0386976993468 -0.073525628759 0.697 2.8591253087e-40
-0.0374077760353 -0.073525628759 0.697 1.11495713612e-39
-0.0361178527237 -0.073525628759 0.697 1.48192777666e-39
-0.0347779610773 -0.073420140052 0.696 1.11207046129e-39
-0.0334898884448 -0.073420140052 0.696 6.52175515684e-40
-0.0322018158123 -0.073420140052 0.696 1.00100354501e-40
-0.0309137431798 -0.073420140052 0.696 9.28064558639e-40
-0.0296256705473 -0.073420140052 0.696 3.71666391693e-40
-0.0283375979148 -0.073420140052 0.696 3.58732406867e-43
-0.0269717967614 -0.073209162638 0.694 1.0761972206e-42
-0.025687425487 -0.073209162638 0.694 1.44333741825e-42
-0.0244733800173 -0.073420140052 0.696 4.90454462514e-44
-0.0231186829383 -0.073209162638 0.694 3.50324616081e-44
-0.021834311664 -0.073209162638 0.694 1.79366203434e-42
-0.0205499403896 -0.073209162638 0.694 3.71293646301e-40
-0.0192655691153 -0.073209162638 0.694 1.05135416065e-38
-0.0179811978409 -0.073209162638 0.694 1.99157316178e-38
-0.0166968265666 -0.073209162638 0.694 2.31425436305e-38
-0.0154568715899 -0.073420140052 0.696 2.28666573902e-38
-0.0141687989574 -0.073420140052 0.696 2.35098702009e-38
-0.0128807263249 -0.073420140052 0.696 2.03744466701e-38
-0.011609309804 -0.073525628759 0.697 1.43831026001e-38
-0.010334191925 -0.0736311174659 0.698 8.95048145132e-39
-0.00910719170185 -0.0741585610008 0.703 1.16245078446e-38
-0.00783947653913 -0.0744750271217 0.706 1.29087908806e-38
-0.00657916409268 -0.0750024706566 0.711 1.39208240458e-38
-0.00526333127414 -0.0750024706566 0.711 1.30014153078e-38
-0.062449314527 -0.0728575336148 0.703 2.35095268827e-38
-0.061148287141 -0.0728575336148 0.703 2.35091681503e-38
-0.059847259755 -0.0728575336148 0.703 2.35095268827e-38
-0.058546232369 -0.0728575336148 0.703 2.350988001e-38
-0.0572452049831 -0.0728575336148 0.703 2.17581686477e-38
-0.0559441775971 -0.0728575336148 0.703 3.78350585368e-44
-0.0546431502111 -0.0728575336148 0.703 2.86093018112e-39
-0.0531903671414 -0.072650257559 0.701 3.78536537674e-39
-0.0518930411136 -0.072650257559 0.701 3.41371580063e-39
-0.0505957150857 -0.072650257559 0.701 3.9661707137e-39
-0.0492280632532 -0.0725466195311 0.7 2.76942258881e-39
-0.0479325879045 -0.0725466195311 0.7 2.49355316403e-39
-0.0466371125557 -0.0725466195311 0.7 1.75671259643e-39
-0.0452120896721 -0.0723393434753 0.698 2.67866889506e-39
-0.0439203156814 -0.0723393434753 0.698 2.58612294058e-39
-0.0426285416908 -0.0723393434753 0.698 2.21698589262e-39
-0.0413367677002 -0.0723393434753 0.698 1.572684273e-39
-0.0399876226584 -0.0722357054474 0.697 2.31204437524e-39
-0.0386976993468 -0.0722357054474 0.697 1.11458999593e-39
-0.0374077760353 -0.0722357054474 0.697 1.11423827001e-39
-0.0361178527237 -0.0722357054474 0.697 1.3908279622e-39
-0.0347779610773 -0.0721320674195 0.696 9.28770813065e-40
-0.0334898884448 -0.0721320674195 0.696 9.29849812883e-40
-0.0322018158123 -0.0721320674195 0.696 1.11423827001e-39
-0.0309137431798 -0.0721320674195 0.696 7.46171814074e-40
-0.0296256705473 -0.0721320674195 0.696 3.77392097218e-40
-0.0283375979148 -0.0721320674195 0.696 8.36572380605e-40
-0.0269717967614 -0.0719247913637 0.694 8.362122469e-40
-0.025687425487 -0.0719247913637 0.694 3.74882371668e-40
-0.0244733800173 -0.0721320674195 0.696 2.81981888678e-40
-0.0231186829383 -0.0719247913637 0.694 3.9516616694e-42
-0.0218028501198 -0.0718211533358 0.693 2.1523944412e-42
-0.0205203295245 -0.0718211533358 0.693 9.29144959755e-41
-0.0192378089292 -0.0718211533358 0.693 5.6051938573e-45
-0.0179811978409 -0.0719247913637 0.694 3.83955779225e-43
-0.0166968265666 -0.0719247913637 0.694 7.42688186092e-43
-0.0154124552922 -0.0719247913637 0.694 3.68541496117e-43
-0.0141280840179 -0.0719247913637 0.694 9.22672362148e-40
-0.0128807263249 -0.0721320674195 0.696 1.33676166355e-38
-0.0115926536924 -0.0721320674195 0.696 1.41047879095e-38
-0.0103193864925 -0.0722357054474 0.697 1.34630366531e-38
-0.0612352690573 -0.0716582935777 0.704 2.35095268827e-38
-0.0599323909922 -0.0716582935777 0.704 2.35095268827e-38
-0.0586295129272 -0.0716582935777 0.704 2.35098856151e-38
-0.0572452049831 -0.0715565062288 0.703 2.34180431125e-38
-0.0559441775971 -0.0715565062288 0.703 2.75921272819e-40
-0.0546431502111 -0.0715565062288 0.703 2.39924157348e-39
-0.0533421228251 -0.0715565062288 0.703 4.24526452624e-39
-0.0518930411136 -0.0713529315312 0.701 4.24382819531e-39
-0.0505957150857 -0.0713529315312 0.701 3.22932033701e-39
-0.0492983890579 -0.0713529315312 0.701 5.71967854054e-39
-0.0479325879045 -0.0712511441823 0.7 5.62820177679e-39
-0.0466371125557 -0.0712511441823 0.7 5.26049825715e-39
-0.0453416372069 -0.0712511441823 0.7 1.94181991967e-39
-0.0440461618582 -0.0712511441823 0.7 1.75707553273e-39
-0.0427506865094 -0.0712511441823 0.7 2.12550492497e-39
-0.0413367677002 -0.0710475694847 0.698 2.31061645211e-39
-0.0400449937095 -0.0710475694847 0.698 1.8496340989e-39
-0.0386976993468 -0.0709457821358 0.697 1.75851466625e-39
-0.0374077760353 -0.0709457821358 0.697 1.66668477529e-39
-0.0361178527237 -0.0709457821358 0.697 8.37296851911e-40
-0.0347779610773 -0.070843994787 0.696 1.20680384267e-39
-0.0334898884448 -0.070843994787 0.696 8.38015718023e-40
-0.0322018158123 -0.070843994787 0.696 9.30919003611e-40
-0.0309137431798 -0.070843994787 0.696 2.85909728273e-40
-0.0296256705473 -0.070843994787 0.696 9.32704257855e-42
-0.0283375979148 -0.070843994787 0.696 1.92998034895e-40
-0.0270495252823 -0.070843994787 0.696 1.00805207628e-40
-0.0257614526498 -0.070843994787 0.696 1.00089144113e-40
-0.0244733800173 -0.070843994787 0.696 3.76321505191e-40
-0.0231186829383 -0.0706404200893 0.694 4.67438135237e-40
-0.0218028501198 -0.0705386327405 0.693 5.58917701585e-40
-0.0205203295245 -0.0705386327405 0.693 1.10920760853e-39
-0.0192378089292 -0.0705386327405 0.693 8.3190465542e-40
-0.0179811978409 -0.0706404200893 0.694 3.70937716491e-40
-0.0166968265666 -0.0706404200893 0.694 2.16360482892e-42
-0.0154124552922 -0.0706404200893 0.694 3.64337600724e-43
-0.0141280840179 -0.0706404200893 0.694 7.17464813734e-43
-0.0128807263249 -0.070843994787 0.696 9.25529609717e-41
-0.0115926536924 -0.070843994787 0.696 5.25476134124e-39
-0.0103193864925 -0.0709457821358 0.697 1.18027992521e-38
-0.0612352690573 -0.0703554155126 0.704 2.35095268827e-38
-0.0599323909922 -0.0703554155126 0.704 2.35098856151e-38
-0.0586295129272 -0.0703554155126 0.704 2.35098856151e-38
-0.0573266348621 -0.0703554155126 0.704 2.34180445138e-38
-0.0560237567971 -0.0703554155126 0.704 2.75566744308e-40
-0.0546431502111 -0.0702554788429 0.703 2.39889124887e-39
-0.0533421228251 -0.0702554788429 0.703 4.33711123278e-39
-0.0520410954391 -0.0702554788429 0.703 3.59845598367e-39
-0.0507400680532 -0.0702554788429 0.703 7.19408554834e-39
-0.0494390406672 -0.0702554788429 0.703 7.28627837561e-39
-0.0480010630301 -0.0700556055033 0.701 6.82637922611e-39
-0.0467037370022 -0.0700556055033 0.701 7.3802718714e-39
-0.0454064109744 -0.0700556055033 0.701 8.30331417634e-39
-0.0441090849465 -0.0700556055033 0.701 3.23291887146e-39
-0.0427506865094 -0.0699556688336 0.7 1.11350539092e-39
-0.0414552111606 -0.0699556688336 0.7 2.95455373412e-39
-0.0401597358119 -0.0699556688336 0.7 2.12479026275e-39
-0.0387532197189 -0.069755795494 0.698 2.03329948602e-39
-0.0374077760353 -0.0696558588243 0.697 1.75743006124e-39
-0.0361178527237 -0.0696558588243 0.697 2.21841661835e-39
-0.0348279294121 -0.0696558588243 0.697 1.57377728581e-39
-0.0334898884448 -0.0695559221545 0.696 1.29755333252e-39
-0.0322018158123 -0.0695559221545 0.696 6.53616050506e-40
-0.0309137431798 -0.0695559221545 0.696 7.45811680369e-40
-0.0296682361659 -0.0696558588243 0.697 7.45811680369e-40
-0.0283783128543 -0.0696558588243 0.697 4.68868860969e-40
-0.0270495252823 -0.0695559221545 0.696 3.76676033703e-40
-0.0257614526498 -0.0695559221545 0.696 8.25224665641e-42
-0.0244733800173 -0.0695559221545 0.696 1.9264630898e-40
-0.0231186829383 -0.069356048815 0.694 1.9264630898e-40
-0.021834311664 -0.069356048815 0.694 1.91927442868e-40
-0.0205203295245 -0.0692561121452 0.693 1.00445073923e-40
-0.0192378089292 -0.0692561121452 0.693 4.67787058555e-40
-0.0179811978409 -0.069356048815 0.694 5.58546357492e-40
-0.0166968265666 -0.069356048815 0.694 7.41506891487e-40
-0.0154124552922 -0.069356048815 0.694 1.47763980336e-39
-0.0141280840179 -0.069356048815 0.694 2.78377749027e-40
-0.0128807263249 -0.0695559221545 0.696 1.43492962747e-42
-0.0115926536924 -0.0695559221545 0.696 6.17925118749e-39
-0.0103193864925 -0.0696558588243 0.697 1.27247667611e-38
-0.0614092328898 -0.069248709429 0.706 2.35098828126e-38
-0.0599323909922 -0.0690525374476 0.704 2.35098856151e-38
-0.0586295129272 -0.0690525374476 0.704 2.3418050119e-38
-0.0573266348621 -0.0690525374476 0.704 2.27737597098e-38
-0.0560237567971 -0.0690525374476 0.704 6.16571324303e-44
-0.054720878732 -0.0690525374476 0.704 2.30634389309e-39
-0.0533421228251 -0.0689544514569 0.703 4.15344864826e-39
-0.0520410954391 -0.0689544514569 0.703 3.87360794363e-39
-0.0507400680532 -0.0689544514569 0.703 7.00682022546e-39
-0.0494390406672 -0.0689544514569 0.703 7.55999120205e-39
-0.0481380132812 -0.0689544514569 0.703 6.82242896574e-39
-0.0467037370022 -0.0687582794755 0.701 7.00718316177e-39
-0.0454064109744 -0.0687582794755 0.701 5.90155727212e-39
-0.0441090849465 -0.0687582794755 0.701 7.47032351461e-39
-0.0428117589187 -0.0687582794755 0.701 4.05980827968e-39
-0.0414552111606 -0.0686601934848 0.7 2.76513181291e-39
-0.0401597358119 -0.0686601934848 0.7 1.74953794829e-39
-0.0387532197189 -0.0684640215034 0.698 2.85694488829e-39
-0.0374614457283 -0.0684640215034 0.698 2.39704994269e-39
-0.0361696717377 -0.0684640215034 0.698 1.93643753227e-39
-0.0348279294121 -0.0683659355127 0.697 1.29215412954e-39
-0.0335380061006 -0.0683659355127 0.697 1.20031863338e-39
-0.032248082789 -0.0683659355127 0.697 1.01772383828e-39
-0.0309581594775 -0.0683659355127 0.697 1.29502679139e-39
-0.0296682361659 -0.0683659355127 0.697 1.38794128736e-39
-0.0283783128543 -0.0683659355127 0.697 8.35130444485e-40
-0.0270883895428 -0.0683659355127 0.697 4.67428326148e-40
-0.0257984662312 -0.0683659355127 0.697 6.52181120878e-40
-0.0244733800173 -0.068267849522 0.696 5.61064490833e-40
-0.0231186829383 -0.0680716775406 0.694 1.93003640088e-40
-0.021834311664 -0.0680716775406 0.694 8.25224665641e-42
-0.0205499403896 -0.0680716775406 0.694 9.68577498541e-42
-0.0192655691153 -0.0680716775406 0.694 1.93716901007e-40
-0.0179811978409 -0.0680716775406 0.694 1.9120437286e-40
-0.0166968265666 -0.0680716775406 0.694 5.57828892678e-40
-0.0154124552922 -0.0680716775406 0.694 9.24816348799e-40
-0.0141280840179 -0.0680716775406 0.694 9.24821953993e-40
-0.0128807263249 -0.068267849522 0.696 2.51112684807e-42
-0.0115926536924 -0.068267849522 0.696 6.45836601951e-39
-0.0630711426944 -0.0683270712523 0.71 2.35098828126e-38
-0.0614962148061 -0.0680383653174 0.707 2.35098828126e-38
-0.0601026534666 -0.0679421300058 0.706 2.35098856151e-38
-0.0587960740434 -0.0679421300058 0.706 2.3418050119e-38
-0.0574894946203 -0.0679421300058 0.706 2.32343791267e-38
-0.0561829151971 -0.0679421300058 0.706 4.59972017019e-40
-0.054720878732 -0.0677496593825 0.704 1.56950332549e-39
-0.053418000667 -0.0677496593825 0.704 4.42967820674e-39
-0.0521151226019 -0.0677496593825 0.704 5.52954055581e-39
-0.0508122445369 -0.0677496593825 0.704 5.7117738159e-39
-0.0494390406672 -0.0676534240709 0.703 9.85878209642e-39
-0.0481380132812 -0.0676534240709 0.703 8.29074032522e-39
-0.0468369858952 -0.0676534240709 0.703 6.90780867987e-39
-0.0454064109744 -0.0674609534476 0.701 5.52523576692e-39
-0.0441090849465 -0.0674609534476 0.701 7.37094623012e-39
-0.0428117589187 -0.0674609534476 0.701 8.66204518191e-39
-0.0415144328909 -0.0674609534476 0.701 5.61672093847e-39
-0.040217106863 -0.0674609534476 0.701 5.15465257894e-39
-0.0388642604631 -0.067364718136 0.7 8.47367143195e-39
-0.0375687851143 -0.067364718136 0.7 8.56549711902e-39
-0.0361696717377 -0.0671722475128 0.698 8.28963189814e-39
-0.034877897747 -0.0671722475128 0.698 9.02757108374e-39
-0.0335861237564 -0.0671722475128 0.698 5.43302892667e-39
-0.032248082789 -0.0670760122012 0.697 1.46972667093e-39
-0.0309581594775 -0.0670760122012 0.697 7.36836363705e-40
-0.0296682361659 -0.0670760122012 0.697 9.23018482869e-40
-0.0283783128543 -0.0670760122012 0.697 6.46794529581e-40
-0.0270883895428 -0.0670760122012 0.697 1.86540851571e-40
-0.0257984662312 -0.0670760122012 0.697 1.38650075254e-39
-0.0244733800173 -0.0669797768895 0.696 1.57197101209e-39
-0.0231853073848 -0.0669797768895 0.696 1.89410710826e-40
-0.0218972347523 -0.0669797768895 0.696 2.82322404204e-40
-0.0206091621199 -0.0669797768895 0.696 2.84847544037e-40
-0.0193210894874 -0.0669797768895 0.696 6.82432352126e-42
-0.0180330168549 -0.0669797768895 0.696 6.46278851747e-42
-0.0167449442224 -0.0669797768895 0.696 4.65280135602e-40
-0.0154568715899 -0.0669797768895 0.696 5.5711563176e-40
-0.0141687989574 -0.0669797768895 0.696 3.72724372033e-40
-0.0128992331156 -0.0670760122012 0.697 2.1523944412e-42
-0.0116259659157 -0.0671722475128 0.698 4.89211510776e-39
-0.0630711426944 -0.0670130891128 0.71 2.35098856151e-38
-0.0615831967224 -0.0668243198477 0.708 2.35098828126e-38
-0.0601877847038 -0.0667299352151 0.707 2.3418050119e-38
-0.0588793546016 -0.0667299352151 0.707 2.32343791267e-38
-0.0574894946203 -0.0666355505826 0.706 2.31425436305e-38
-0.0561829151971 -0.0666355505826 0.706 2.21204491423e-39
-0.0548763357739 -0.0666355505826 0.706 9.24491247555e-40
-0.053418000667 -0.0664467813175 0.704 4.52259270272e-39
-0.0521151226019 -0.0664467813175 0.704 6.7262886807e-39
-0.0508122445369 -0.0664467813175 0.704 6.72269435014e-39
-0.0495093664718 -0.0664467813175 0.704 8.4722589231e-39
-0.0482064884068 -0.0664467813175 0.704 8.28571246633e-39
-0.0468369858952 -0.0663523966849 0.703 9.20587370163e-39
-0.0455359585093 -0.0663523966849 0.703 9.11475707159e-39
-0.0442349311233 -0.0663523966849 0.703 8.46975059885e-39
-0.0429339037373 -0.0663523966849 0.703 4.59861314441e-39
-0.0416328763513 -0.0663523966849 0.703 6.99461071195e-39
-0.0403318489653 -0.0663523966849 0.703 8.74523466655e-39
-0.0390308215794 -0.0663523966849 0.703 9.20547433157e-39
-0.0376224548073 -0.0661636274198 0.701 9.01963693183e-39
-0.0363251287795 -0.0661636274198 0.701 8.37355005797e-39
-0.0349778344168 -0.0660692427873 0.7 8.37319973336e-39
-0.033682359068 -0.0660692427873 0.7 8.92853431477e-39
-0.0322943497658 -0.0658804735221 0.698 9.39058866131e-39
-0.0310025757751 -0.0658804735221 0.698 5.06494985905e-39
-0.0297108017845 -0.0658804735221 0.698 6.5422393378e-39
-0.0284190277939 -0.0658804735221 0.698 7.74150139213e-39
-0.0270883895428 -0.0657860888896 0.697 4.79196430651e-39
-0.0257984662312 -0.0657860888896 0.697 2.02647936639e-39
-0.0245085429197 -0.0657860888896 0.697 7.651835106e-39
-0.0231853073848 -0.065691704257 0.696 3.22680780886e-39
-0.0218972347523 -0.065691704257 0.696 2.58144120241e-39
-0.0206091621199 -0.065691704257 0.696 1.10921041112e-39
-0.0193210894874 -0.065691704257 0.696 1.11029781873e-39
-0.0180589263618 -0.0657860888896 0.697 4.64928409688e-40
-0.0167690030503 -0.0657860888896 0.697 4.64928409688e-40
-0.0154790797387 -0.0657860888896 0.697 9.26263890113e-40
-0.0141891564272 -0.0657860888896 0.697 4.65999001714e-40
-0.0129177399063 -0.0658804735221 0.698 2.86985925494e-42
-0.0116759342506 -0.0661636274198 0.701 5.35272191298e-39
-0.0104082190878 -0.0663523966849 0.703 1.27247695637e-38
-0.0620181063037 -0.0659767088338 0.713 2.34180473164e-38
-0.0605283096527 -0.0657916409268 0.711 2.3418050119e-38
-0.0592124768341 -0.0657916409268 0.711 2.32343791267e-38
-0.0578152141365 -0.0656991069733 0.71 2.24056960564e-38
-0.0565012319971 -0.0656991069733 0.71 5.43996675537e-39
-0.0551872498576 -0.0656991069733 0.71 2.8908787319e-42
-0.0537215120344 -0.0655140390664 0.708 4.43075160136e-39
-0.0524112312531 -0.0655140390664 0.708 5.52954055581e-39
-0.051028773988 -0.0654215051129 0.707 6.6319350512e-39
-0.0497203438858 -0.0654215051129 0.707 9.21018129311e-39
-0.0483434386579 -0.0653289711594 0.706 7.17792577445e-39
-0.0470368592348 -0.0653289711594 0.706 9.01932444227e-39
-0.0456007322767 -0.0651439032524 0.704 8.55834629296e-39
-0.0442978542116 -0.0651439032524 0.704 9.11152007214e-39
-0.0429949761466 -0.0651439032524 0.704 6.71550989291e-39
-0.0416328763513 -0.0650513692989 0.703 8.28425651723e-39
-0.0403318489653 -0.0650513692989 0.703 7.63815142649e-39
-0.0390308215794 -0.0650513692989 0.703 8.09660163338e-39
-0.0377297941934 -0.0650513692989 0.703 9.2004282558e-39
-0.0363251287795 -0.064866301392 0.701 8.27703842884e-39
-0.0350278027517 -0.064866301392 0.701 8.3692340587e-39
-0.0337304767238 -0.064866301392 0.701 7.63310815332e-39
-0.0323868837192 -0.0647737674385 0.7 9.75574882423e-39
-0.0310914083705 -0.0647737674385 0.7 9.67039012957e-39
-0.0297108017845 -0.0645886995315 0.698 7.64424847611e-39
-0.0284190277939 -0.0645886995315 0.698 5.70779132566e-39
-0.0271272538032 -0.0645886995315 0.698 7.92084377349e-39
-0.0258354798126 -0.0645886995315 0.698 7.55278992924e-39
-0.0245085429197 -0.064496165578 0.697 7.27656737725e-39
-0.0232186196081 -0.064496165578 0.697 8.38291773821e-39
-0.0219286962965 -0.064496165578 0.697 3.12850532029e-39
-0.0206091621199 -0.0644036316246 0.696 3.68418602242e-39
-0.0193210894874 -0.0644036316246 0.696 2.39633387917e-39
-0.0180848358688 -0.0645886995315 0.698 1.47654679056e-39
-0.0167930618782 -0.0645886995315 0.698 2.81607741988e-40
-0.0155012878876 -0.0645886995315 0.698 3.75248110568e-40
-0.0142502288365 -0.0647737674385 0.7 2.82330811995e-40
-0.0129732602784 -0.064866301392 0.701 2.86985925494e-42
-0.0116759342506 -0.064866301392 0.701 5.62678226144e-39
-0.0104082190878 -0.0650513692989 0.703 1.26322067936e-38
-0.00919787497627 -0.0656991069733 0.71 1.15251557834e-38
-0.0620181063037 -0.0646571746571 0.713 2.3418050119e-38
-0.0606985721271 -0.0646571746571 0.713 2.32343791267e-38
-0.0592124768341 -0.0644758081083 0.711 2.32343791267e-38
-0.0578966440156 -0.0644758081083 0.711 2.30507039305e-38
-0.0565808111971 -0.0644758081083 0.711 9.58876729662e-39
-0.0551872498576 -0.0643851248339 0.71 2.8019102924e-40
-0.0538732677181 -0.0643851248339 0.71 5.07611540521e-39
-0.0524112312531 -0.064203758285 0.708 5.62424591122e-39
-0.0511009504718 -0.064203758285 0.708 4.60649965216e-39
-0.0497906696904 -0.064203758285 0.708 5.98512370604e-39
-0.0484119137835 -0.0641130750106 0.707 5.8889778158e-39
-0.0471034836813 -0.0641130750106 0.707 5.42476827223e-39
-0.0457302798116 -0.0640223917362 0.706 5.51552476857e-39
-0.0444237003884 -0.0640223917362 0.706 6.34528403604e-39
-0.0429949761466 -0.0638410251874 0.704 8.37430395655e-39
-0.0416920980815 -0.0638410251874 0.704 8.28532290536e-39
-0.0403892200165 -0.0638410251874 0.704 8.1923957977e-39
-0.0390863419515 -0.0638410251874 0.704 8.09731769689e-39
-0.0377297941934 -0.063750341913 0.703 8.55505884676e-39
-0.0364287668074 -0.063750341913 0.703 9.38230698738e-39
-0.0351277394214 -0.063750341913 0.703 8.45998915375e-39
-0.0337304767238 -0.0635689753641 0.701 9.29189380917e-39
-0.032433150696 -0.0635689753641 0.701 9.569904418e-39
-0.0311358246681 -0.0635689753641 0.701 9.2990726612e-39
-0.0297959330217 -0.0634782920897 0.7 1.01302780687e-38
-0.0285004576729 -0.0634782920897 0.7 9.39235850127e-39
-0.0272049823242 -0.0634782920897 0.7 7.82468106768e-39
-0.0258354798126 -0.0632969255409 0.698 6.44211656252e-39
-0.024543705822 -0.0632969255409 0.698 1.02217814571e-38
-0.0232186196081 -0.0632062422665 0.697 7.91654038591e-39
-0.0219286962965 -0.0632062422665 0.697 8.19420767661e-39
-0.020638772985 -0.0632062422665 0.697 1.06870643953e-38
-0.0193488496734 -0.0632062422665 0.697 7.83260260789e-39
-0.0180848358688 -0.0632969255409 0.698 1.01449524662e-39
-0.0167930618782 -0.0632969255409 0.698 8.35130444485e-40
-0.0155457041852 -0.0634782920897 0.7 7.17885203274e-42
-0.0142705863062 -0.0635689753641 0.701 2.83046875511e-40
-0.0130102738598 -0.063750341913 0.703 9.54228202267e-41
-0.0117092464738 -0.063750341913 0.703 5.62534172662e-39
-0.0104526353855 -0.0640223917362 0.706 1.38303814404e-38
-0.00919787497627 -0.0643851248339 0.71 1.22630725483e-38
-0.06210508822 -0.0634264730758 0.714 2.3418050119e-38
-0.0606985721271 -0.0633376404804 0.713 2.3418050119e-38
-0.0593790379504 -0.0633376404804 0.713 2.35098856151e-38
-0.0580595037737 -0.0633376404804 0.713 2.35098786087e-38
-0.0565808111971 -0.0631599752897 0.711 1.20751780424e-38
-0.0552649783785 -0.0631599752897 0.711 1.86196132149e-40
-0.0538732677181 -0.0630711426944 0.71 5.90445795994e-39
-0.0525592855787 -0.0630711426944 0.71 5.62675984067e-39
-0.0512453034392 -0.0630711426944 0.71 5.81006789668e-39
-0.0497906696904 -0.0628934775037 0.708 6.17598055688e-39
-0.0484803889091 -0.0628934775037 0.708 6.26566365859e-39
-0.0471701081278 -0.0628934775037 0.708 5.34191229663e-39
-0.045795053579 -0.0628046449084 0.707 4.51106982544e-39
-0.0444237003884 -0.062715812313 0.706 4.602540984e-39
-0.0431171209652 -0.062715812313 0.706 6.53864080334e-39
-0.041810541542 -0.062715812313 0.706 8.75168204078e-39
-0.0405039621188 -0.062715812313 0.706 1.08710955213e-38
-0.0390863419515 -0.0625381471223 0.704 1.04997962698e-38
-0.0377834638864 -0.0625381471223 0.704 9.11398075224e-39
-0.0364805858214 -0.0625381471223 0.704 7.8203664697e-39
-0.0351277394214 -0.062449314527 0.703 8.46321494281e-39
-0.0338267120354 -0.062449314527 0.703 8.92346862082e-39
-0.0325256846495 -0.062449314527 0.703 9.56811215726e-39
-0.0311358246681 -0.0622716493363 0.701 9.11361641464e-39
-0.0298384986403 -0.0622716493363 0.701 8.65480747534e-39
-0.0285411726125 -0.0622716493363 0.701 7.73394418951e-39
-0.0272049823242 -0.0621828167409 0.7 7.18257948665e-39
-0.0259095069754 -0.0621828167409 0.7 7.45989365014e-39
-0.024543705822 -0.0620051515503 0.698 6.72232861124e-39
-0.0232519318313 -0.0620051515503 0.698 5.89112460505e-39
-0.0219601578407 -0.0620051515503 0.698 4.41563719613e-39
-0.0206683838501 -0.0620051515503 0.698 6.53433321186e-39
-0.0193766098595 -0.0620051515503 0.698 8.93572437719e-39
-0.0181366548828 -0.0621828167409 0.7 6.63624404398e-39
-0.016841179534 -0.0621828167409 0.7 1.29359886825e-39
-0.0155457041852 -0.0621828167409 0.7 3.75597033885e-40
-0.0142705863062 -0.0622716493363 0.701 9.82926794816e-41
-0.0130287806505 -0.0625381471223 0.704 1.79366203434e-42
-0.0117259025854 -0.0625381471223 0.704 5.9948290992e-39
-0.0105266625483 -0.0631599752897 0.711 1.41991667624e-38
-0.00921082972975 -0.0631599752897 0.711 1.24467505471e-38
-0.0622790520526 -0.0622790520526 0.716 2.3418050119e-38
-0.0607837033643 -0.06210508822 0.714 2.35095268827e-38
-0.0594623185085 -0.06210508822 0.714 2.35095268827e-38
-0.0580595037737 -0.0620181063037 0.713 2.35098730035e-38
-0.056739969597 -0.0620181063037 0.713 1.40112764604e-38
-0.0554204354204 -0.0620181063037 0.713 1.85835998443e-40
-0.0541009012437 -0.0620181063037 0.713 4.89030743274e-39
-0.0526333127414 -0.0618441424712 0.711 4.79807817171e-39
-0.0513174799229 -0.0618441424712 0.711 5.0739377874e-39
-0.0499313212997 -0.0617571605549 0.71 4.88847593565e-39
-0.0486173391603 -0.0617571605549 0.71 4.51790255676e-39
-0.0473033570208 -0.0617571605549 0.71 5.07036027242e-39
-0.0458598273464 -0.0615831967224 0.708 5.80648197391e-39
-0.0445495465651 -0.0615831967224 0.708 6.08198005459e-39
-0.0431781933745 -0.0614962148061 0.707 5.99013615064e-39
-0.0418697632722 -0.0614962148061 0.707 4.79194749093e-39
-0.04056133317 -0.0614962148061 0.707 5.52879086113e-39
-0.0391973826956 -0.0614092328898 0.706 6.17271833405e-39
-0.0378908032724 -0.0614092328898 0.706 7.4612991525e-39
-0.0364805858214 -0.0612352690573 0.704 8.56440690881e-39
-0.0351777077563 -0.0612352690573 0.704 9.11541988576e-39
-0.0338748296913 -0.0612352690573 0.704 9.85118425614e-39
-0.0325256846495 -0.061148287141 0.703 9.02034178496e-39
-0.0312246572635 -0.061148287141 0.703 8.56153004307e-39
-0.0299236298775 -0.061148287141 0.703 7.82577127788e-39
-0.0286226024915 -0.061148287141 0.703 1.92854541932e-39
-0.0272438465846 -0.0609743233085 0.701 6.90743593448e-39
-0.0259465205568 -0.0609743233085 0.701 4.14229291118e-39
-0.0246140316266 -0.0608873413922 0.7 2.20512810501e-39
-0.0233185562779 -0.0608873413922 0.7 9.76333545412e-39
-0.0220230809291 -0.0608873413922 0.7 7.36516167006e-39
-0.0206683838501 -0.0607133775596 0.698 4.04506661983e-39
-0.0193766098595 -0.0607133775596 0.698 3.86534168399e-39
-0.0181366548828 -0.0608873413922 0.7 6.91283093357e-39
-0.016841179534 -0.0608873413922 0.7 2.12335953702e-39
-0.0155679123341 -0.0609743233085 0.701 6.52537050688e-40
-0.0143113012458 -0.061148287141 0.703 2.83398601425e-40
-0.0130287806505 -0.0612352690573 0.704 1.79366203434e-42
-0.0117592148087 -0.0614092328898 0.706 5.90299360304e-39
-0.0105266625483 -0.0618441424712 0.711 1.31850176365e-38
-0.00921082972975 -0.0618441424712 0.711 1.24463960186e-38
-0.0622790520526 -0.0609539658387 0.716 2.3418050119e-38
-0.0607837033643 -0.0607837033643 0.714 2.35095268827e-38
-0.0594623185085 -0.0607837033643 0.714 2.35095268827e-38
-0.0581409336528 -0.0607837033643 0.714 2.35098730035e-38
-0.056819548797 -0.0607837033643 0.714 1.65931002173e-38
-0.0554204354204 -0.0606985721271 0.713 3.64337600724e-43
-0.0541009012437 -0.0606985721271 0.713 4.24528694701e-39
-0.0526333127414 -0.0605283096527 0.711 5.0746650613e-39
-0.0513174799229 -0.0605283096527 0.711 4.98246662884e-39
-0.0500016471044 -0.0605283096527 0.711 4.24454846272e-39
-0.0486858142858 -0.0605283096527 0.711 3.2293217383e-39
-0.0473033570208 -0.0604431784155 0.71 2.85982315534e-39
-0.0459893748813 -0.0604431784155 0.71 3.41263259691e-39
-0.0446753927419 -0.0604431784155 0.71 3.22823573199e-39
-0.0432392657838 -0.060272915941 0.708 4.14946755932e-39
-0.0419289850025 -0.060272915941 0.708 3.87503166287e-39
-0.0406187042211 -0.060272915941 0.708 4.05870405649e-39
-0.0392529030677 -0.0601877847038 0.707 4.33420914366e-39
-0.0379444729655 -0.0601877847038 0.707 4.05618732445e-39
-0.0365842238493 -0.0601026534666 0.706 5.34584293882e-39
-0.0352776444261 -0.0601026534666 0.706 4.69903579755e-39
-0.0338748296913 -0.0599323909922 0.704 5.61919002636e-39
-0.0325719516262 -0.0599323909922 0.704 5.71066679011e-39
-0.0312690735612 -0.0599323909922 0.704 8.38145758521e-39
-0.0299661954961 -0.0599323909922 0.704 1.21614826135e-38
-0.0286226024915 -0.059847259755 0.703 6.6308364332e-39
-0.0273215751056 -0.059847259755 0.703 6.35533695122e-39
-0.0260205477196 -0.059847259755 0.703 4.78837417985e-39
-0.0246491945289 -0.0596769972806 0.701 3.86534168399e-39
-0.0233518685011 -0.0596769972806 0.701 1.03172196916e-38
-0.0220230809291 -0.0595918660434 0.7 1.03157721503e-38
-0.0207276055803 -0.0595918660434 0.7 7.09003213087e-39
-0.0194321302315 -0.0595918660434 0.7 2.85443376144e-39
-0.0181625643898 -0.0596769972806 0.701 7.37912560926e-40
-0.0168652383619 -0.0596769972806 0.701 1.11064113685e-39
-0.0156123286317 -0.059847259755 0.703 4.68145790962e-40
-0.0143316587155 -0.0599323909922 0.704 5.59985491015e-40
-0.0130657942319 -0.0601026534666 0.706 3.2285916618e-42
-0.0117758709203 -0.0601877847038 0.707 6.08882820019e-39
-0.0104674408181 -0.0601877847038 0.707 1.32782950688e-38
-0.0607837033643 -0.0594623185085 0.714 2.35098856151e-38
-0.0594623185085 -0.0594623185085 0.714 2.35095268827e-38
-0.0581409336528 -0.0594623185085 0.714 2.34176759723e-38
-0.056819548797 -0.0594623185085 0.714 1.90834416053e-38
-0.0554981639413 -0.0594623185085 0.714 1.26116861789e-44
-0.0541009012437 -0.0593790379504 0.713 3.13964704438e-39
-0.052781367067 -0.0593790379504 0.713 4.6144029755e-39
-0.0514618328903 -0.0593790379504 0.713 4.61404704569e-39
-0.0500016471044 -0.0592124768341 0.711 4.42966139116e-39
-0.0486858142858 -0.0592124768341 0.711 3.96832871333e-39
-0.0473033570208 -0.059129196276 0.71 4.24491560292e-39
-0.0459893748813 -0.059129196276 0.71 4.33710843019e-39
-0.0446753927419 -0.059129196276 0.71 3.23111540034e-39
-0.0433614106024 -0.059129196276 0.71 3.50805541714e-39
-0.0419289850025 -0.0589626351597 0.708 3.32366415741e-39
-0.0406187042211 -0.0589626351597 0.708 2.03293654972e-39
-0.0393084234398 -0.0589626351597 0.708 2.21732500685e-39
-0.0379444729655 -0.0588793546016 0.707 2.49319022773e-39
-0.0366360428632 -0.0588793546016 0.707 3.0452794019e-39
-0.035327612761 -0.0588793546016 0.707 3.04492066949e-39
-0.0339710650029 -0.0587960740434 0.706 3.7824843071e-39
-0.0326644855797 -0.0587960740434 0.706 3.13711489805e-39
-0.0312690735612 -0.0586295129272 0.704 3.50051082621e-39
-0.0299661954961 -0.0586295129272 0.704 3.40795786524e-39
-0.0286633174311 -0.0586295129272 0.704 4.7908853067e-39
-0.027360439366 -0.0586295129272 0.704 4.14624317156e-39
-0.0260205477196 -0.058546232369 0.703 3.50087376251e-39
-0.0247195203336 -0.058546232369 0.703 3.40724040042e-39
-0.0233518685011 -0.0583796712528 0.701 8.75277505358e-39
-0.0220545424733 -0.0583796712528 0.701 6.72374252139e-39
-0.0207276055803 -0.0582963906946 0.7 5.80396944576e-39
-0.0194321302315 -0.0582963906946 0.7 5.34657161402e-39
-0.0181625643898 -0.0583796712528 0.701 1.84675443055e-39
-0.0168652383619 -0.0583796712528 0.701 1.2961085938e-39
-0.0156123286317 -0.058546232369 0.703 1.11386692592e-39
-0.0143723736551 -0.0587960740434 0.706 1.20571082987e-39
-0.0130657942319 -0.0587960740434 0.706 2.86985925494e-42
-0.0117592148087 -0.0587960740434 0.706 5.62857312088e-39
-0.0105562734134 -0.0593790379504 0.713 1.35559609582e-38
-0.00923673923673 -0.0593790379504 0.713 1.25407524507e-38
-0.0596288796248 -0.0583037934109 0.716 2.35095268827e-38
-0.0583037934109 -0.0583037934109 0.716 2.35098758061e-38
-0.056819548797 -0.0581409336528 0.714 2.20344038114e-38
-0.0554981639413 -0.0581409336528 0.714 2.24207754292e-44
-0.0541009012437 -0.0580595037737 0.713 4.61477431959e-39
-0.052781367067 -0.0580595037737 0.713 4.43001031448e-39
-0.0514618328903 -0.0580595037737 0.713 4.89063673788e-39
-0.0501422987137 -0.0580595037737 0.713 4.89135980789e-39
-0.048822764537 -0.0580595037737 0.713 4.43038165857e-39
-0.0473699814673 -0.0578966440156 0.711 3.04816747803e-39
-0.0460541486488 -0.0578966440156 0.711 3.32475296632e-39
-0.0447383158302 -0.0578966440156 0.711 3.50914142345e-39
-0.0434224830117 -0.0578966440156 0.711 3.04851920394e-39
-0.0420474284629 -0.0578152141365 0.71 3.50769948733e-39
-0.0407334463235 -0.0578152141365 0.71 3.23039653423e-39
-0.0393084234398 -0.0576523543784 0.708 3.23111540034e-39
-0.0379981426585 -0.0576523543784 0.708 2.40135473157e-39
-0.0366360428632 -0.0575709244993 0.707 2.21696627444e-39
-0.035327612761 -0.0575709244993 0.707 1.94038358874e-39
-0.0340191826587 -0.0575709244993 0.707 1.75563639921e-39
-0.0327107525564 -0.0575709244993 0.707 1.84783062777e-39
-0.0313579061565 -0.0574894946203 0.706 2.03078415527e-39
-0.0300513267333 -0.0574894946203 0.706 2.21445514759e-39
-0.0287447473101 -0.0574894946203 0.706 2.49140357218e-39
-0.027360439366 -0.0573266348621 0.704 2.76763733456e-39
-0.026057561301 -0.0573266348621 0.704 3.22825254758e-39
-0.0247195203336 -0.0572452049831 0.703 3.13569398141e-39
-0.0234184929476 -0.0572452049831 0.703 3.68742162058e-39
-0.0221174655616 -0.0572452049831 0.703 3.50230448824e-39
-0.0207572164454 -0.0570823452249 0.701 3.68743563356e-39
-0.0194598904176 -0.0570823452249 0.701 2.30736684097e-39
-0.0182143834037 -0.0572452049831 0.703 2.12477204587e-39
-0.0169133560177 -0.0572452049831 0.703 1.66524564177e-39
-0.0156345367806 -0.0573266348621 0.704 8.37640170035e-40
-0.0143723736551 -0.0574894946203 0.706 1.02095523254e-39
-0.0130843010226 -0.0575709244993 0.707 3.2285916618e-42
-0.0118424953668 -0.0578966440156 0.711 5.44490352986e-39
-0.0105562734134 -0.0580595037737 0.713 1.30953429426e-38
-0.00923673923673 -0.0580595037737 0.713 1.28180554038e-38
-0.0583037934109 -0.056978707197 0.716 2.350988001e-38
-0.056978707197 -0.056978707197 0.716 2.35098828126e-38
-0.0554981639413 -0.056819548797 0.714 3.78350585368e-44
-0.0541767790855 -0.056819548797 0.714 4.24599039884e-39
-0.0528553942298 -0.056819548797 0.714 4.79879003133e-39
-0.0515340093741 -0.056819548797 0.714 4.89098986509e-39
-0.0501422987137 -0.056739969597 0.713 4.70624267555e-39
-0.048822764537 -0.056739969597 0.713 4.15307169897e-39
-0.0475032303603 -0.056739969597 0.713 3.8775638092e-39
-0.0461836961836 -0.056739969597 0.713 3.78536817934e-39
-0.044864162007 -0.056739969597 0.713 3.60097411701e-39
-0.0435446278303 -0.056739969597 0.713 3.50877568455e-39
-0.0421066501932 -0.0565808111971 0.711 4.05943133039e-39
-0.0407908173746 -0.0565808111971 0.711 3.59773711756e-39
-0.039419464184 -0.0565012319971 0.71 3.59845878627e-39
-0.0381054820445 -0.0565012319971 0.71 3.13712470714e-39
-0.0366878618772 -0.0563420735971 0.708 2.67722695894e-39
-0.0353775810958 -0.0563420735971 0.708 2.769066659e-39
-0.0340673003145 -0.0563420735971 0.708 2.7697883277e-39
-0.0327107525564 -0.0562624943971 0.707 2.76943239789e-39
-0.0314023224542 -0.0562624943971 0.707 2.03366242232e-39
-0.0300938923519 -0.0562624943971 0.707 1.29610018601e-39
-0.0287447473101 -0.0561829151971 0.706 7.42576082215e-40
-0.0274381678869 -0.0561829151971 0.706 8.3477031078e-40
-0.0261315884638 -0.0561829151971 0.706 5.58187625085e-40
-0.0247546832359 -0.0560237567971 0.704 6.49664388836e-40
-0.0234518051709 -0.0560237567971 0.704 1.20318849263e-39
-0.0221174655616 -0.0559441775971 0.703 1.38685948495e-39
-0.0208164381757 -0.0559441775971 0.703 2.30810532526e-39
-0.0195154107897 -0.0559441775971 0.703 2.309160503e-39
-0.0182143834037 -0.0559441775971 0.703 2.21804247166e-39
-0.0169374148456 -0.0560237567971 0.704 2.21805368205e-39
-0.0156789530783 -0.0561829151971 0.706 2.58790399093e-39
-0.0144130885946 -0.0563420735971 0.708 2.31061224821e-39
-0.0131028078133 -0.0563420735971 0.708 4.30478888241e-42
-0.0118424953668 -0.0565808111971 0.711 5.62857592347e-39
-0.0106006897111 -0.056978707197 0.716 1.32800901321e-38
-0.00927560349719 -0.056978707197 0.716 1.30939206246e-38
-0.0599620018573 -0.0559645350669 0.72 2.35095268827e-38
-0.05838522329 -0.0557313495041 0.717 2.34169711192e-38
-0.056978707197 -0.0556536209831 0.716 2.31414548216e-38
-0.0556536209831 -0.0556536209831 0.716 5.32493416443e-44
-0.0543285347693 -0.0556536209831 0.716 3.96940771315e-39
-0.0528553942298 -0.0554981639413 0.714 4.79914596114e-39
-0.0515340093741 -0.0554981639413 0.714 4.79807396782e-39
-0.0502126245183 -0.0554981639413 0.714 4.61368270809e-39
-0.0488912396626 -0.0554981639413 0.714 4.42929284966e-39
-0.0475698548068 -0.0554981639413 0.714 4.89027099898e-39
-0.0462484699511 -0.0554981639413 0.714 4.24490158994e-39
-0.0449270850953 -0.0554981639413 0.714 3.59953077959e-39
-0.0435446278303 -0.0554204354204 0.713 3.59953077959e-39
-0.0422250936536 -0.0554204354204 0.713 3.59809164607e-39
-0.0409055594769 -0.0554204354204 0.713 3.04492066949e-39
-0.0394749845561 -0.0552649783785 0.711 3.32186629149e-39
-0.0381054820445 -0.0551872498576 0.71 3.04528500709e-39
-0.0367914999051 -0.0551872498576 0.71 2.95381384853e-39
-0.0354775177656 -0.0551872498576 0.71 2.95345791872e-39
-0.0340673003145 -0.0550317928157 0.708 2.7697883277e-39
-0.0327570195332 -0.0550317928157 0.708 2.40064987844e-39
-0.0314467387519 -0.0550317928157 0.708 2.12549511588e-39
-0.0301364579705 -0.0550317928157 0.708 2.12549511588e-39
-0.0288261771892 -0.0550317928157 0.708 1.94075072894e-39
-0.0274770321474 -0.0549540642948 0.707 1.66416664195e-39
-0.0261686020451 -0.0549540642948 0.707 2.03331069641e-39
-0.0248601719429 -0.0549540642948 0.707 1.38794128736e-39
-0.0235184296174 -0.0548763357739 0.706 9.27682004158e-40
-0.0222118501942 -0.0548763357739 0.706 3.74516632769e-40
-0.0208164381757 -0.0546431502111 0.703 8.34065457652e-40
-0.0195154107897 -0.0546431502111 0.703 1.57268287171e-39
-0.0182402929107 -0.054720878732 0.704 1.66487710027e-39
-0.0169374148456 -0.054720878732 0.704 1.84890822629e-39
-0.0157011612271 -0.0549540642948 0.707 2.12584824309e-39
-0.0144130885946 -0.0550317928157 0.708 2.49319583292e-39
-0.0131398213947 -0.0551872498576 0.71 1.87617048792e-40
-0.0118924637017 -0.0554981639413 0.714 6.08882820019e-39
-0.0106154951436 -0.0557313495041 0.717 1.41084060622e-38
-0.00928855825068 -0.0557313495041 0.717 1.27244136339e-38
-0.0599620018573 -0.0546320461367 0.72 2.35091681503e-38
-0.0585480830481 -0.0545561682948 0.719 2.35091681503e-38
-0.057217444797 -0.0545561682948 0.719 2.32336476489e-38
-0.0557313495041 -0.0544044126111 0.717 4.59609080717e-40
-0.0543285347693 -0.0543285347693 0.716 3.60027486908e-39
-0.0530034485554 -0.0543285347693 0.716 5.6281877638e-39
-0.0516783623415 -0.0543285347693 0.716 5.35052467699e-39
-0.0503532761276 -0.0543285347693 0.716 4.70515526795e-39
-0.0490281899137 -0.0543285347693 0.716 4.42856837836e-39
-0.0477031036998 -0.0543285347693 0.716 4.70443640183e-39
-0.0462484699511 -0.0541767790855 0.714 4.24345825252e-39
-0.0449270850953 -0.0541767790855 0.714 4.05870685909e-39
-0.0436057002396 -0.0541767790855 0.714 4.42748937854e-39
-0.0422250936536 -0.0541009012437 0.713 4.61224077197e-39
-0.0409055594769 -0.0541009012437 0.713 4.05978305631e-39
-0.0395860253003 -0.0541009012437 0.713 3.78392203932e-39
-0.0381591517375 -0.05394914556 0.711 2.95416557445e-39
-0.036843318919 -0.05394914556 0.711 2.86161681737e-39
-0.0354775177656 -0.0538732677181 0.71 2.67758989524e-39
-0.0341635356261 -0.0538732677181 0.71 2.58539706798e-39
-0.0328495534867 -0.0538732677181 0.71 2.40172887826e-39
-0.0315355713472 -0.0538732677181 0.71 3.0460052745e-39
-0.0302215892077 -0.0538732677181 0.71 3.13748063695e-39
-0.0288261771892 -0.0537215120344 0.708 2.58502992778e-39
-0.0275158964079 -0.0537215120344 0.708 2.21589287982e-39
-0.0262056156265 -0.0537215120344 0.708 2.12370005255e-39
-0.0248953348452 -0.0537215120344 0.708 1.57088920967e-39
-0.0235517418406 -0.0536456341926 0.707 1.57196820949e-39
-0.0222433117384 -0.0536456341926 0.707 1.5726870756e-39
-0.020905270771 -0.0535697563507 0.706 1.57199343286e-39
-0.0195431709757 -0.053418000667 0.704 1.57340313912e-39
-0.0182402929107 -0.053418000667 0.704 1.5723241393e-39
-0.0169855325014 -0.0535697563507 0.706 1.94002485634e-39
-0.0157011612271 -0.0536456341926 0.707 2.12441331347e-39
-0.0144130885946 -0.0537215120344 0.708 2.86161401477e-39
-0.0131398213947 -0.0538732677181 0.71 3.71646773514e-40
-0.011925775925 -0.0543285347693 0.716 5.72040020925e-39
