# .PCD v0.7 - Point Cloud Data file format
VERSION 0.7
FIELDS x y z rgb
SIZE 4 4 4 4
TYPE F F F F
COUNT 1 1 1 1
WIDTH 843
HEIGHT 1
VIEWPOINT 0 0 0 1 0 0 0
POINTS 843
DATA ascii
-0.0360771377842 0.0213790446128 0.722 7.00607893858e-39
-0.0347409474959 0.0213790446128 0.722 6.91352037241e-39
-0.0334047572076 0.0213790446128 0.722 7.09755570233e-39
-0.0321129832169 0.021408655478 0.723 7.37486285933e-39
-0.0307749422496 0.021408655478 0.723 6.9135287802e-39
-0.0295183311613 0.0214678772082 0.725 7.46670255938e-39
-0.0282543173567 0.0215270989384 0.727 7.83620674754e-39
-0.026908873673 0.0215270989384 0.727 7.28267703855e-39
-0.0255634299894 0.0215270989384 0.727 7.83585362033e-39
-0.024251298529 0.0215567098035 0.728 8.29683317095e-39
-0.0229040041662 0.0215567098035 0.728 8.20392147757e-39
-0.0216159315338 0.0216159315338 0.73 8.20428441387e-39
-0.0202926959989 0.0216455423989 0.731 8.48087130346e-39
-0.018991668613 0.0217047641291 0.733 8.01989315414e-39
-0.0176591796828 0.0217343749942 0.734 8.48086850086e-39
-0.0163007812457 0.0217343749942 0.734 8.94184665018e-39
-0.0149423828085 0.0217343749942 0.734 9.03404228004e-39
-0.0136209979528 0.0217935967244 0.736 9.1262407125e-39
-0.0122922103808 0.0218528184547 0.738 9.40282760209e-39
-0.0109264092273 0.0218528184547 0.738 9.40210873598e-39
-0.00956060807392 0.0218528184547 0.738 9.03403387225e-39
-0.00820591099492 0.0218824293198 0.739 8.66489682429e-39
-0.00685676595313 0.02194165105 0.741 9.03474993577e-39
-0.0054854127625 0.02194165105 0.741 8.38975467341e-39
-0.00411405957188 0.02194165105 0.741 9.21987967979e-39
-0.00274270638125 0.02194165105 0.741 9.2202272018e-39
-0.0454304698023 0.0227152349011 0.722 1.61302457294e-38
-0.044094279514 0.0227152349011 0.722 1.21672615684e-38
-0.0427580892257 0.0227152349011 0.722 4.97743736865e-39
-0.0414792699885 0.0227466964453 0.723 7.65218683191e-39
-0.0401412290212 0.0227466964453 0.723 7.37487547102e-39
-0.0387495183608 0.0227152349011 0.722 7.1908373385e-39
-0.0374133280725 0.0227152349011 0.722 7.09863610344e-39
-0.036127106119 0.0227466964453 0.723 7.00607893858e-39
-0.0347890651517 0.0227466964453 0.723 7.18975133219e-39
-0.0335435581378 0.0228096195337 0.725 7.55853385164e-39
-0.0322018158123 0.0228096195337 0.725 7.55890099184e-39
-0.0309877703426 0.0229040041662 0.728 7.65109662171e-39
-0.0296404759799 0.0229040041662 0.728 7.55889818925e-39
-0.0283709101381 0.0229669272546 0.73 7.83548507884e-39
-0.0270199144172 0.0229669272546 0.73 7.74401111768e-39
-0.0256689186963 0.0229669272546 0.73 7.9280464476e-39
-0.0243179229755 0.0229669272546 0.73 8.01989035155e-39
-0.0229669272546 0.0229669272546 0.73 8.1120915866e-39
-0.0216159315338 0.0229669272546 0.73 8.66525976059e-39
-0.020348216371 0.0230613118872 0.733 8.57306413073e-39
-0.0190175781199 0.0230927734314 0.734 9.12623790991e-39
-0.0176591796828 0.0230927734314 0.734 9.21843353977e-39
-0.0163007812457 0.0230927734314 0.734 9.12659383972e-39
-0.0149830977481 0.0231556965197 0.736 8.84965102032e-39
-0.0136209979528 0.0231556965197 0.736 8.48086850086e-39
-0.0122922103808 0.0232186196081 0.738 8.29647724114e-39
-0.010970825525 0.0233130042406 0.741 8.75674353083e-39
-0.00959947233438 0.0233130042406 0.741 9.12587357231e-39
-0.00822811914376 0.0233130042406 0.741 9.12659383972e-39
-0.00686601934848 0.0233444657848 0.742 9.03474713317e-39
-0.00549281547878 0.0233444657848 0.742 9.03512408246e-39
-0.00411961160909 0.0233444657848 0.742 9.21916361627e-39
-0.00274640773939 0.0233444657848 0.742 9.31277595888e-39
-0.0471553026952 0.024251298529 0.728 1.66823489165e-38
-0.0456192390674 0.0241513618592 0.725 1.57614632099e-38
-0.0442774967419 0.0241513618592 0.725 1.22594571982e-38
-0.0429357544164 0.0241513618592 0.725 4.70120360628e-39
-0.0415940120909 0.0241513618592 0.725 7.37595447083e-39
-0.0402522697653 0.0241513618592 0.725 7.00644607877e-39
-0.0389105274398 0.0241513618592 0.725 7.00572441007e-39
-0.0375687851143 0.0241513618592 0.725 7.46705708789e-39
-0.0362270427888 0.0241513618592 0.725 7.1904701983e-39
-0.0349815357749 0.0242179863057 0.727 7.09827596974e-39
-0.033682359068 0.024251298529 0.728 7.28266722947e-39
-0.0324238973006 0.0243179229755 0.73 7.28160084133e-39
-0.0310729015798 0.0243179229755 0.73 7.83441728941e-39
-0.0297626207984 0.0243512351987 0.731 7.55854786463e-39
-0.0284097743985 0.0243512351987 0.731 7.55890379444e-39
-0.0270569279986 0.0243512351987 0.731 7.83585081773e-39
-0.0257744074033 0.0244178596452 0.733 8.48122302937e-39
-0.0244178596452 0.0244178596452 0.733 8.75853158767e-39
-0.0230927734314 0.0244511718685 0.734 8.57414313054e-39
-0.0217343749942 0.0244511718685 0.734 8.38902739951e-39
-0.0204314969292 0.024517796315 0.736 9.31098089555e-39
-0.0190693971339 0.024517796315 0.736 8.85000274623e-39
-0.0177554149944 0.0245844207615 0.738 8.6656142891e-39
-0.016389613841 0.0245844207615 0.738 8.6656142891e-39
-0.0150238126876 0.0245844207615 0.738 8.6656156904e-39
-0.0136765183249 0.0246177329848 0.739 8.75745539045e-39
-0.0123088664924 0.0246177329848 0.739 8.84965102032e-39
-0.010970825525 0.0246843574313 0.741 9.21736575034e-39
-0.00961242708787 0.0247176696545 0.742 9.03404228004e-39
-0.00826143136701 0.024784294101 0.744 8.75745539045e-39
-0.00688452613918 0.024784294101 0.744 9.03474993577e-39
-0.00550762091134 0.024784294101 0.744 9.49610223177e-39
-0.00414181975792 0.0248509185475 0.746 9.21916081367e-39
-0.00276121317195 0.0248509185475 0.746 9.12801896025e-39
-0.0484359726114 0.0255634299894 0.727 1.54830854609e-38
-0.0470905289278 0.0255634299894 0.727 1.7051131436e-38
-0.0457450852441 0.0255634299894 0.727 1.46551156515e-38
-0.0443996415605 0.0255634299894 0.727 1.3089217867e-38
-0.0430541978768 0.0255634299894 0.727 4.79447683466e-39
-0.0417087541932 0.0255634299894 0.727 7.56034012537e-39
-0.0403633105095 0.0255634299894 0.727 7.28303016577e-39
-0.0390178668259 0.0255634299894 0.727 7.1904715996e-39
-0.0376724231422 0.0255634299894 0.727 7.83512074123e-39
-0.0363269794586 0.0255634299894 0.727 7.65073088281e-39
-0.0350296534307 0.0255985928917 0.728 7.46670255938e-39
-0.0337748930215 0.0256689186963 0.73 7.65181548782e-39
-0.0324238973006 0.0256689186963 0.73 7.46563757255e-39
-0.0311154671984 0.0257040815987 0.731 8.01881415433e-39
-0.0298440506775 0.0257744074033 0.733 8.8485748231e-39
-0.0284875029194 0.0257744074033 0.733 8.75709525675e-39
-0.0271309551614 0.0257744074033 0.733 8.38902880081e-39
-0.0258095703056 0.0258095703056 0.734 8.11316217863e-39
-0.0244511718685 0.0258095703056 0.734 8.11351950974e-39
-0.0231556965197 0.0258798961103 0.736 7.92948838372e-39
-0.0217935967244 0.0258798961103 0.736 7.65181548782e-39
-0.0205147774873 0.0259853848173 0.739 8.66596461372e-39
-0.0191471256548 0.0259853848173 0.739 8.2049864644e-39
-0.0178275914781 0.0260557106219 0.741 8.29718489686e-39
-0.0164562382875 0.0260557106219 0.741 8.75780991896e-39
-0.0150848850969 0.0260557106219 0.741 8.6656156904e-39
-0.0137135319063 0.0260557106219 0.741 8.66525976059e-39
-0.0123588348273 0.0260908735242 0.742 8.75745819305e-39
-0.0110152418227 0.0261611993289 0.744 9.21808741905e-39
-0.00966424610182 0.0262315251335 0.746 9.1262407125e-39
-0.00829474359027 0.0262666880358 0.747 9.1262407125e-39
-0.00691228632522 0.0262666880358 0.747 1.00489018643e-38
-0.00552982906018 0.0262666880358 0.747 1.02333113409e-38
-0.00414737179513 0.0262666880358 0.747 9.86453022272e-39
-0.00276491453009 0.0262666880358 0.747 8.39045252005e-39
-0.0484359726114 0.026908873673 0.727 1.4745520422e-38
-0.0470905289278 0.026908873673 0.727 1.64979576568e-38
-0.0458080083325 0.0269458872544 0.728 1.57614632099e-38
-0.0444607139698 0.0269458872544 0.728 1.25360440878e-38
-0.0431134196071 0.0269458872544 0.728 5.90154045653e-39
-0.0417661252443 0.0269458872544 0.728 7.83764307847e-39
-0.0404188308816 0.0269458872544 0.728 7.4674186229e-39
-0.0390715365189 0.0269458872544 0.728 7.55853525294e-39
-0.0378278801841 0.0270199144172 0.73 8.20282566217e-39
-0.0364768844632 0.0270199144172 0.73 8.01951620486e-39
-0.0351740063982 0.0270569279986 0.731 7.74329505417e-39
-0.0339136939517 0.0271309551614 0.733 8.02024488006e-39
-0.0326015624913 0.0271679687428 0.734 8.01845822452e-39
-0.0312431640542 0.0271679687428 0.734 8.66275003504e-39
-0.029884765617 0.0271679687428 0.734 9.21700281404e-39
-0.0285263671799 0.0271679687428 0.734 8.57235086981e-39
-0.0271679687428 0.0271679687428 0.734 8.66526256319e-39
-0.0258798961103 0.0272419959056 0.736 7.9287737215e-39
-0.0245844207615 0.0273160230683 0.738 7.83729415515e-39
-0.0232186196081 0.0273160230683 0.738 8.02168401358e-39
-0.0218528184547 0.0273160230683 0.738 8.29718209426e-39
-0.0205702978594 0.0274270638125 0.741 8.48157055139e-39
-0.0192248541757 0.0274640773939 0.742 8.66596461372e-39
-0.017851650306 0.0274640773939 0.742 8.29718489686e-39
-0.0164784464364 0.0274640773939 0.742 8.48122302937e-39
-0.0151459575062 0.0275381045567 0.744 8.38902880081e-39
-0.0137690522784 0.0275381045567 0.744 8.66525976059e-39
-0.0123921470505 0.0275381045567 0.744 8.66526256319e-39
-0.0110448526878 0.0276121317195 0.746 8.75783233974e-39
-0.00967720085531 0.0276491453009 0.747 8.38975467341e-39
-0.00829474359027 0.0276491453009 0.747 8.75853719287e-39
-0.00691228632522 0.0276491453009 0.747 8.94327457332e-39
-0.00552982906018 0.0276491453009 0.747 9.67941729428e-39
-0.00415847586955 0.0277231724637 0.749 1.03244293722e-38
-0.00277231724637 0.0277231724637 0.749 8.57412351237e-39
-0.049302090416 0.0279822675334 0.72 1.49288256754e-38
-0.0479696014859 0.0279822675334 0.72 1.51143001388e-38
-0.0470905289278 0.0282543173567 0.727 1.54838057283e-38
-0.0459338545092 0.0283709101381 0.73 1.51160938009e-38
-0.0445828587884 0.0283709101381 0.73 1.2628241119e-38
-0.0432318630675 0.0283709101381 0.73 6.08557718775e-39
-0.0418808673467 0.0283709101381 0.73 8.02203994339e-39
-0.0405298716258 0.0283709101381 0.73 8.11243770732e-39
-0.0391788759049 0.0283709101381 0.73 7.74257338546e-39
-0.0378278801841 0.0283709101381 0.73 8.29430803111e-39
-0.0366267894679 0.0284875029194 0.733 8.20355153477e-39
-0.0352702417098 0.0284875029194 0.733 8.29611290354e-39
-0.0339599609285 0.0285263671799 0.734 8.94184665018e-39
-0.0326015624913 0.0285263671799 0.734 1.0783606853e-38
-0.0313282952914 0.0286040957008 0.736 1.19817955127e-38
-0.0299661954961 0.0286040957008 0.736 1.21672657723e-38
-0.0286818242218 0.0286818242218 0.738 9.77053952952e-39
-0.0273160230683 0.0286818242218 0.738 8.75710366454e-39
-0.0259502219149 0.0286818242218 0.738 8.02061622415e-39
-0.0246177329848 0.0287206884822 0.739 7.83729695775e-39
-0.0232500811523 0.0287206884822 0.739 7.74617752511e-39
-0.02194165105 0.0287984170032 0.741 8.29790516427e-39
-0.0205980580454 0.0288372812636 0.742 8.204989267e-39
-0.0192766731897 0.0289150097845 0.744 8.204989267e-39
-0.0178997679619 0.0289150097845 0.744 8.38902459691e-39
-0.016522862734 0.0289150097845 0.744 9.03439680855e-39
-0.0151866724457 0.0289927383055 0.746 8.85000695013e-39
-0.0138060658597 0.0289927383055 0.746 9.12623790991e-39
-0.0124421153854 0.0290316025659 0.747 9.12623790991e-39
-0.0110892689855 0.0291093310869 0.749 8.66563390728e-39
-0.00970311036229 0.0291093310869 0.749 8.38975187082e-39
-0.0083169517391 0.0291093310869 0.749 8.75853719287e-39
-0.00693079311592 0.0291093310869 0.749 9.03547020318e-39
-0.00554463449273 0.0291093310869 0.749 1.02325910735e-38
-0.00416402790676 0.0291481953473 0.75 1.01400381125e-38
-0.00277601860451 0.0291481953473 0.75 8.38937492153e-39
-0.049302090416 0.0293147564636 0.72 1.52057628896e-38
-0.0479696014859 0.0293147564636 0.72 1.47458721479e-38
-0.0471553026952 0.0296404759799 0.728 1.49309878789e-38
-0.0459967775976 0.0297626207984 0.731 1.53926806904e-38
-0.0446439311977 0.0297626207984 0.731 1.31814148982e-38
-0.0432910847977 0.0297626207984 0.731 5.07107213204e-39
-0.0419382383978 0.0297626207984 0.731 7.19192754871e-39
-0.0405853919979 0.0297626207984 0.731 9.31098509944e-39
-0.039232545598 0.0297626207984 0.731 1.10605426659e-38
-0.0379833372259 0.0298440506775 0.733 1.14286063193e-38
-0.0366267894679 0.0298440506775 0.733 1.11527382958e-38
-0.0353183593656 0.029884765617 0.734 9.95563564237e-39
-0.0339599609285 0.029884765617 0.734 9.03512408246e-39
-0.0326015624913 0.029884765617 0.734 9.86165055437e-39
-0.0314134265286 0.0300476253752 0.738 1.16122913246e-38
-0.0300476253752 0.0300476253752 0.738 1.09676435842e-38
-0.0287206884822 0.0300883403147 0.739 9.95493359184e-39
-0.0273530366497 0.0300883403147 0.739 8.57271801001e-39
-0.0260557106219 0.0301697701938 0.741 8.02062042805e-39
-0.0246843574313 0.0301697701938 0.741 7.74582720049e-39
-0.0233130042406 0.0301697701938 0.741 7.65434763414e-39
-0.0219712619151 0.0302104851333 0.742 7.9287709189e-39
-0.0206535784175 0.0302919150124 0.744 8.38902739951e-39
-0.0193284922036 0.0303733448914 0.746 8.85000554883e-39
-0.0179719444456 0.030414059831 0.747 8.75781132026e-39
-0.0165894871805 0.030414059831 0.747 9.03439820985e-39
-0.015247744855 0.03049548971 0.749 9.03404228004e-39
-0.0138615862318 0.03049548971 0.749 9.31062916963e-39
-0.0124920837203 0.0305362046496 0.75 9.12623790991e-39
-0.011104074418 0.0305362046496 0.75 8.75818266436e-39
-0.00971606511577 0.0305362046496 0.75 9.49681549269e-39
-0.00835026396236 0.0306176345286 0.752 9.86487914603e-39
-0.00694004651127 0.0305362046496 0.75 9.03582613299e-39
-0.00555203720901 0.0305362046496 0.75 9.95600138127e-39
-0.00416402790676 0.0305362046496 0.75 1.06010190644e-38
-0.00277601860451 0.0305362046496 0.75 8.01987633856e-39
-0.0564086980436 0.0324350013751 0.762 1.43756546988e-38
-0.0549263041088 0.0323924357565 0.761 1.44667587172e-38
-0.0535179373367 0.0323924357565 0.761 1.48366118286e-38
-0.0494390406672 0.030732376631 0.722 1.54827071103e-38
-0.0481028503789 0.030732376631 0.722 1.51146518647e-38
-0.0474791715324 0.0312005984356 0.733 1.51153791386e-38
-0.0461855468627 0.0312431640542 0.734 1.50239009736e-38
-0.0447660760163 0.0312005984356 0.733 1.31814177008e-38
-0.0434095282582 0.0312005984356 0.733 4.14984030471e-39
-0.0420529805001 0.0312005984356 0.733 6.4547310513e-39
-0.0406964327421 0.0312005984356 0.733 9.67941449168e-39
-0.039339884984 0.0312005984356 0.733 1.11523837673e-38
-0.0380351562399 0.0312431640542 0.734 1.05988470518e-38
-0.0366767578027 0.0312431640542 0.734 7.5567542026e-39
-0.0355589476447 0.0314559921472 0.739 4.97707443235e-39
-0.0341912958122 0.0314559921472 0.739 6.36145081642e-39
-0.0328236439797 0.0314559921472 0.739 8.93969425574e-39
-0.0315411233844 0.0315411233844 0.741 1.07825306558e-38
-0.0301697701938 0.0315411233844 0.741 1.16126570635e-38
-0.0287984170032 0.0315411233844 0.741 9.67763063874e-39
-0.0274270638125 0.0315411233844 0.741 8.29577519061e-39
-0.0260557106219 0.0315411233844 0.741 7.92806886837e-39
-0.0247176696545 0.031583689003 0.742 7.83766830184e-39
-0.0233444657848 0.031583689003 0.742 7.83874169647e-39
-0.0220304836454 0.0316688202402 0.744 8.57414593314e-39
-0.0207090987896 0.0317539514774 0.746 8.75745819305e-39
-0.0193544017106 0.031796517096 0.747 8.94184945278e-39
-0.0180200621014 0.0318816483332 0.749 8.75745819305e-39
-0.016656111627 0.0319242139518 0.75 8.29647724114e-39
-0.0152681023248 0.0319242139518 0.75 8.66525976059e-39
-0.0138800930225 0.0319242139518 0.75 8.85000695013e-39
-0.0125253959435 0.032009345189 0.752 8.02024628136e-39
-0.0111632961483 0.0320944764262 0.754 8.02061622415e-39
-0.00976788412972 0.0320944764262 0.754 9.12838750175e-39
-0.00837247211119 0.0320944764262 0.754 9.58900972126e-39
-0.00697706009266 0.0320944764262 0.754 9.22021739272e-39
-0.00558164807413 0.0320944764262 0.754 9.1262435151e-39
-0.0041862360556 0.0320944764262 0.754 9.49395544253e-39
-0.00279082403706 0.0320944764262 0.754 7.74329505417e-39
-0.0564086980436 0.0338452188261 0.762 1.41926927635e-38
-0.0549263041088 0.0338008025285 0.761 1.46525891104e-38
-0.0535179373367 0.0338008025285 0.761 1.35458912274e-38
-0.0521095705647 0.0338008025285 0.761 1.53898080286e-38
-0.048902343737 0.0326015624913 0.734 1.44674986027e-38
-0.0475439452998 0.0326015624913 0.734 1.4929190013e-38
-0.0463113930394 0.0326903950867 0.736 1.46547527152e-38
-0.0448271484256 0.0326015624913 0.734 1.56699724332e-38
-0.0434687499884 0.0326015624913 0.734 5.4402105813e-39
-0.0421103515513 0.0326015624913 0.734 8.11353072013e-39
-0.0407519531142 0.0326015624913 0.734 1.01400381125e-38
-0.0395008940631 0.0326903950867 0.736 1.0323353175e-38
-0.0381387942678 0.0326903950867 0.736 1.03215553091e-38
-0.0369265994771 0.0328236439797 0.739 9.67546283001e-39
-0.0355589476447 0.0328236439797 0.739 1.0321183965e-38
-0.0341912958122 0.0328236439797 0.739 1.05977666507e-38
-0.0328236439797 0.0328236439797 0.739 1.17981301256e-38
-0.031583689003 0.0329568928727 0.742 1.16137416685e-38
-0.0301697701938 0.032912476575 0.741 1.22591054723e-38
-0.0287984170032 0.032912476575 0.741 1.0415544601e-38
-0.0274640773939 0.0329568928727 0.742 8.38759667378e-39
-0.0261611993289 0.033045725468 0.744 7.65039176858e-39
-0.024784294101 0.033045725468 0.744 7.9287765241e-39
-0.0234073888732 0.033045725468 0.744 7.83802283035e-39
-0.0220897053756 0.0331345580634 0.746 8.38760508157e-39
-0.0207923793478 0.0332678069564 0.749 8.66382903486e-39
-0.0194321302315 0.0333122232541 0.75 8.29539824132e-39
-0.0180922385851 0.0334010558494 0.752 8.20355153477e-39
-0.0167005279247 0.0334010558494 0.752 8.57340604755e-39
-0.0153088172643 0.0334010558494 0.752 8.57412351237e-39
-0.0139171066039 0.0334010558494 0.752 9.31240881868e-39
-0.0125587081668 0.0334898884448 0.754 8.57556404719e-39
-0.0111632961483 0.0334898884448 0.754 8.57630393278e-39
-0.00976788412972 0.0334898884448 0.754 8.48303490829e-39
-0.00838357618561 0.0335343047424 0.755 8.48159857736e-39
-0.00698631348801 0.0335343047424 0.755 9.3091984439e-39
-0.00560385622296 0.0336231373378 0.757 9.86057715975e-39
-0.00420289216722 0.0336231373378 0.757 1.02293708896e-38
-0.00280192811148 0.0336231373378 0.757 6.81922279485e-39
-0.0575912819691 0.035116635347 0.759 1.2441717083e-38
-0.0561866165552 0.035116635347 0.759 1.36405979841e-38
-0.0547819511413 0.035116635347 0.759 1.41001369999e-38
-0.0533772857275 0.035116635347 0.759 1.52054167689e-38
-0.0518356700624 0.0350241013935 0.757 1.5389457704e-38
-0.0495685882021 0.0344226306959 0.744 1.48362839248e-38
-0.047867814137 0.0341912958122 0.739 1.4929190013e-38
-0.0465001623046 0.0341912958122 0.739 1.46536709128e-38
-0.0450714380628 0.0341450288354 0.738 1.46558177021e-38
-0.0437056369094 0.0341450288354 0.738 5.53096427505e-39
-0.0423398357559 0.0341450288354 0.738 6.63803770601e-39
-0.0409740346025 0.0341450288354 0.738 1.02322337424e-38
-0.0396082334491 0.0341450288354 0.738 1.00464103556e-38
-0.0382424322957 0.0341450288354 0.738 1.16126570635e-38
-0.0369265994771 0.0341912958122 0.739 1.25335273558e-38
-0.0355589476447 0.0341912958122 0.739 1.26253558454e-38
-0.0343300967424 0.0343300967424 0.742 1.22569250519e-38
-0.0329568928727 0.0343300967424 0.742 1.21672615684e-38
-0.0316688202402 0.0344226306959 0.744 9.77089405803e-39
-0.0302919150124 0.0344226306959 0.744 7.0968550531e-39
-0.0289150097845 0.0344226306959 0.744 8.29502689723e-39
-0.0275381045567 0.0344226306959 0.744 8.38829872431e-39
-0.0262315251335 0.0345151646494 0.746 7.74329225157e-39
-0.0248509185475 0.0345151646494 0.746 7.74365799047e-39
-0.0234703119616 0.0345151646494 0.746 7.4685116357e-39
-0.0221193162407 0.0345614316261 0.747 8.02024628136e-39
-0.0208201395338 0.0347002325563 0.75 8.48014122696e-39
-0.0195357682594 0.0348853004633 0.754 8.57233405423e-39
-0.0181403562409 0.0348853004633 0.754 8.94218856701e-39
-0.0167671523712 0.03493156744 0.755 8.66560027612e-39
-0.0153698896736 0.03493156744 0.755 7.83728014217e-39
-0.013972626976 0.03493156744 0.755 8.11386703176e-39
-0.0125753642784 0.03493156744 0.755 8.11422996806e-39
-0.0112077124459 0.0350241013935 0.757 8.39119660953e-39
-0.00983265789716 0.035116635347 0.759 8.66563670988e-39
-0.00842799248328 0.035116635347 0.759 9.30885092188e-39
-0.0070418338601 0.0352091693005 0.761 9.12193872622e-39
-0.00564086980436 0.0352554362772 0.762 8.84463016792e-39
-0.00423065235327 0.0352554362772 0.762 7.83192437944e-39
-0.00283524033474 0.0354405041842 0.766 5.25082929775e-39
-0.0547819511413 0.0365213007609 0.759 1.37310013533e-38
-0.0533772857275 0.0365213007609 0.759 1.37302866911e-38
-0.0513563441834 0.0360882418586 0.75 1.48362839248e-38
-0.0495685882021 0.0357995359237 0.744 1.45596942326e-38
-0.0480621354394 0.0357033006121 0.742 1.45607648246e-38
-0.0466889315697 0.0357033006121 0.742 1.45618312128e-38
-0.0452546552907 0.0356551829563 0.741 1.43795867423e-38
-0.0437648586396 0.0355589476447 0.739 6.636591566e-39
-0.0423972068071 0.0355589476447 0.739 7.55891220223e-39
-0.0410295549746 0.0355589476447 0.739 1.09694372463e-38
-0.0397692425282 0.0356551829563 0.741 1.23523730955e-38
-0.0383978893375 0.0356551829563 0.741 1.1245306671e-38
-0.0372763778213 0.0358957712353 0.746 9.3084739726e-39
-0.0359438888912 0.0359438888912 0.747 6.63443496766e-39
-0.0345614316261 0.0359438888912 0.747 7.5567457948e-39
-0.0331789743611 0.0359438888912 0.747 6.45255063089e-39
-0.031796517096 0.0359438888912 0.747 7.00608033988e-39
-0.030414059831 0.0359438888912 0.747 7.55924991516e-39
-0.0290316025659 0.0359438888912 0.747 8.75742736448e-39
-0.0276491453009 0.0359438888912 0.747 8.84998032546e-39
-0.0263370138405 0.0360401242028 0.749 8.29717088388e-39
-0.0249841674406 0.0360882418586 0.75 7.74508451231e-39
-0.0235961581383 0.0360882418586 0.75 7.46886336161e-39
-0.0222673705663 0.0361844771702 0.752 7.46885215123e-39
-0.020958940464 0.0363288301376 0.755 7.56104778109e-39
-0.0195616777664 0.0363288301376 0.755 7.7450873149e-39
-0.0181644150688 0.0363288301376 0.755 7.83693262015e-39
-0.0167671523712 0.0363288301376 0.755 8.20536061109e-39
-0.0153698896736 0.0363288301376 0.755 8.20536061109e-39
-0.0140096405574 0.0364250654493 0.757 8.6656156904e-39
-0.0126086765017 0.0364250654493 0.757 8.75780991896e-39
-0.0112669341762 0.0366175360725 0.761 9.3092012465e-39
-0.00985856740414 0.0366175360725 0.761 8.9382719378e-39
-0.00846130470654 0.0366656537283 0.762 9.48965065364e-39
-0.00706959404614 0.0367618890399 0.764 9.48820731623e-39
-0.00567048066947 0.0368581243516 0.766 9.02758229412e-39
-0.0042528605021 0.0368581243516 0.766 7.73864834846e-39
-0.00283524033474 0.0368581243516 0.766 4.51253978753e-39
-0.00141762016737 0.0368581243516 0.766 1.32725847775e-38
-0.055224263439 0.0372763778213 0.746 1.29937992507e-38
-0.0541323627879 0.0374762511608 0.75 1.39153954156e-38
-0.0513563441834 0.0374762511608 0.75 1.52050636417e-38
-0.0497684615416 0.0373263461562 0.747 1.47440854923e-38
-0.0483212305091 0.0372763778213 0.746 1.46529576519e-38
-0.0469406239231 0.0372763778213 0.746 1.42852429219e-38
-0.0454378725186 0.0371764411516 0.744 1.4563978002e-38
-0.0440609672907 0.0371764411516 0.744 5.80683089723e-39
-0.0426840620629 0.0371764411516 0.744 7.74294052565e-39
-0.0413071568351 0.0371764411516 0.744 8.01953021784e-39
-0.0400375909933 0.0372763778213 0.746 6.63623984008e-39
-0.0387088034212 0.0373263461562 0.747 6.0830660609e-39
-0.037426282826 0.037426282826 0.749 7.09757391921e-39
-0.0360401242028 0.037426282826 0.749 8.20391727367e-39
-0.0347002325563 0.0374762511608 0.75 7.55890099184e-39
-0.0332678069564 0.037426282826 0.749 7.46705708789e-39
-0.0318816483332 0.037426282826 0.749 8.48155934101e-39
-0.03049548971 0.037426282826 0.749 8.48155793971e-39
-0.0291093310869 0.037426282826 0.749 7.28337068129e-39
-0.0277601860451 0.0374762511608 0.75 6.63836140596e-39
-0.0264425025475 0.0375761878306 0.752 6.82240093977e-39
-0.0250507918871 0.0375761878306 0.752 7.007522276e-39
-0.0236590812267 0.0375761878306 0.752 7.46886616421e-39
-0.0223265922965 0.0376761245004 0.754 7.10151296919e-39
-0.0210144608361 0.037826029505 0.757 7.28555110171e-39
-0.0196134967804 0.037826029505 0.757 7.65363157063e-39
-0.0182606503804 0.0379259661748 0.759 7.00755730846e-39
-0.0168115686689 0.037826029505 0.757 5.71574369445e-39
-0.0154106046132 0.037826029505 0.757 6.82172691521e-39
-0.0140466541388 0.0379259661748 0.759 8.38796101138e-39
-0.0126753009482 0.0380259028445 0.761 9.58613705941e-39
-0.0112817396087 0.0380758711794 0.762 9.5807588759e-39
-0.00987152215763 0.0380758711794 0.762 1.07771524723e-38
-0.00846130470654 0.0380758711794 0.762 1.13296101879e-38
-0.00706959404614 0.0381758078492 0.764 1.05002012451e-38
-0.00567048066947 0.0382757445189 0.766 9.76442846692e-39
-0.0042528605021 0.0382757445189 0.766 9.30489225372e-39
-0.00283524033474 0.0382757445189 0.766 4.51217685123e-39
-0.00141762016737 0.0382757445189 0.766 1.48395461476e-38
-0.055224263439 0.0386569844073 0.746 1.25328211014e-38
-0.053843656853 0.0386569844073 0.746 1.2993439117e-38
-0.0514932944345 0.038967898491 0.752 1.40987132807e-38
-0.0497684615416 0.0387088034212 0.747 1.42831045404e-38
-0.0483860042765 0.0387088034212 0.747 1.3915392613e-38
-0.0470035470115 0.0387088034212 0.747 1.40086574336e-38
-0.0455600173372 0.0386569844073 0.746 1.50246002215e-38
-0.0441794107512 0.0386569844073 0.746 6.91246099077e-39
-0.0427988041652 0.0386569844073 0.746 7.3741580062e-39
-0.0416402790676 0.0388642604631 0.75 8.38831273729e-39
-0.0402522697653 0.0388642604631 0.75 7.55891220223e-39
-0.0388642604631 0.0388642604631 0.75 7.74330346196e-39
-0.0374762511608 0.0388642604631 0.75 7.83585502163e-39
-0.0361844771702 0.038967898491 0.752 8.39010639933e-39
-0.0347927665098 0.038967898491 0.752 6.82277508646e-39
-0.0334010558494 0.038967898491 0.752 6.4532666944e-39
-0.0319242139518 0.0388642604631 0.75 6.63801248264e-39
-0.0305362046496 0.0388642604631 0.75 6.82240093977e-39
-0.0292259238682 0.038967898491 0.752 6.91459656963e-39
-0.0278342132079 0.038967898491 0.752 7.10006963177e-39
-0.0265128283521 0.0390715365189 0.754 6.36179693714e-39
-0.0251174163336 0.0390715365189 0.754 6.91534065912e-39
-0.023722004315 0.0390715365189 0.754 6.82279330334e-39
-0.0223562031616 0.0391233555328 0.755 6.73132354608e-39
-0.0210144608361 0.0392269935607 0.757 5.07145048263e-39
-0.0196653157943 0.0393306315886 0.759 4.79452167621e-39
-0.0182606503804 0.0393306315886 0.759 5.62393342166e-39
-0.0169004012642 0.0394342696166 0.761 5.99127680759e-39
-0.0154920344922 0.0394342696166 0.761 7.00433572329e-39
-0.0141021745109 0.0394860886305 0.762 8.66347871024e-39
-0.0127252692831 0.0395897266584 0.764 8.47799163512e-39
-0.0113113504738 0.0395897266584 0.764 1.08689837645e-38
-0.0098974316646 0.0395897266584 0.764 1.18809889038e-38
-0.00850572100421 0.0396933646863 0.766 1.26189098725e-38
-0.00711586102289 0.0398488217282 0.769 1.13299633152e-38
-0.00569268881831 0.0398488217282 0.769 1.0409797876e-38
-0.00426951661373 0.0398488217282 0.769 9.02902423024e-39
-0.00284634440915 0.0398488217282 0.769 3.40654395509e-39
-0.00142317220458 0.0398488217282 0.769 1.6222477793e-38
-0.055224263439 0.0400375909933 0.746 1.32707420701e-38
-0.053843656853 0.0400375909933 0.746 1.28090450546e-38
-0.052463050267 0.0400375909933 0.746 1.33615027703e-38
-0.0512878690578 0.0401986000723 0.749 1.37302866911e-38
-0.0497684615416 0.0400912606863 0.747 1.47444386196e-38
-0.0483860042765 0.0400912606863 0.747 1.40997838727e-38
-0.0470035470115 0.0400912606863 0.747 1.41004971336e-38
-0.0456210897465 0.0400912606863 0.747 1.46554659762e-38
-0.0442386324814 0.0400912606863 0.747 6.54404421022e-39
-0.0428561752164 0.0400912606863 0.747 7.28232811524e-39
-0.0417513198118 0.0403596091514 0.752 8.01989315414e-39
-0.0403596091514 0.0403596091514 0.752 7.55999120205e-39
-0.038967898491 0.0403596091514 0.752 7.19120868259e-39
-0.0375761878306 0.0403596091514 0.752 6.1770539515e-39
-0.0361844771702 0.0403596091514 0.752 6.36216407734e-39
-0.0348853004633 0.0404669485374 0.754 6.26996704618e-39
-0.0334898884448 0.0404669485374 0.754 6.82170169184e-39
-0.0320944764262 0.0404669485374 0.754 6.82170169184e-39
-0.0306990644077 0.0404669485374 0.754 6.73058225919e-39
-0.0293036523892 0.0404669485374 0.754 6.54619099947e-39
-0.027945253952 0.0405206182304 0.755 7.09972771495e-39
-0.0265479912544 0.0405206182304 0.755 6.63840064231e-39
-0.0252839774498 0.0407352970025 0.759 8.02098616695e-39
-0.0237534658592 0.0405206182304 0.755 7.09795927629e-39
-0.0223562031616 0.0405206182304 0.755 4.60797241685e-39
-0.0210699812082 0.0407352970025 0.759 7.00470986998e-39
-0.0197171348083 0.0408426363886 0.761 7.74336511909e-39
-0.0183087680363 0.0408426363886 0.761 8.57277266065e-39
-0.0169226094131 0.0408963060816 0.762 7.926677379e-39
-0.015512391962 0.0408963060816 0.762 9.30851881415e-39
-0.0141021745109 0.0408963060816 0.762 8.20106983519e-39
-0.0127585815063 0.0411109848537 0.766 8.93718172759e-39
-0.0113557667715 0.0411646545467 0.767 1.04994837803e-38
-0.00993629592506 0.0411646545467 0.767 1.02218234961e-38
-0.00853903322746 0.0412719939327 0.769 9.85376124402e-39
-0.00711586102289 0.0412719939327 0.769 1.06860330396e-38
-0.00569268881831 0.0412719939327 0.769 1.01350088523e-38
-0.00426951661373 0.0412719939327 0.769 8.75387647418e-39
-0.00285374712543 0.0413793333188 0.771 3.59201561593e-39
-0.055224263439 0.0414181975792 0.746 1.20721960792e-38
-0.053843656853 0.0414181975792 0.746 1.21640287728e-38
-0.052463050267 0.0414181975792 0.746 1.32693043378e-38
-0.0512878690578 0.0415847586955 0.749 1.2900524621e-38
-0.0499017104346 0.0415847586955 0.749 1.40990678092e-38
-0.0485155518114 0.0415847586955 0.749 1.39153954156e-38
-0.0471293931882 0.0415847586955 0.749 1.39161114791e-38
-0.0457432345651 0.0415847586955 0.749 1.44707215892e-38
-0.0444162976721 0.0416402790676 0.75 6.0834303985e-39
-0.0431430304722 0.0417513198118 0.752 6.26889925675e-39
-0.0417513198118 0.0417513198118 0.752 6.177422493e-39
-0.0404669485374 0.041862360556 0.754 6.54620220985e-39
-0.0390715365189 0.041862360556 0.754 6.08522406054e-39
-0.0376761245004 0.041862360556 0.754 6.36144801382e-39
-0.0362807124818 0.041862360556 0.754 6.82242616314e-39
-0.0348853004633 0.041862360556 0.754 6.08486112423e-39
-0.0335343047424 0.041917880928 0.755 5.80648197391e-39
-0.032222173282 0.0420289216722 0.757 5.89939646988e-39
-0.0308212092263 0.0420289216722 0.757 5.90046986451e-39
-0.0294202451706 0.0420289216722 0.757 5.80899310076e-39
-0.0280933082776 0.0421399624164 0.759 5.7175205409e-39
-0.0266886428637 0.0421399624164 0.759 5.90156287731e-39
-0.0253506018964 0.0422510031606 0.761 8.02063444103e-39
-0.0239422351243 0.0422510031606 0.761 7.65078132955e-39
-0.0224746466221 0.0421399624164 0.759 1.00450020506e-38
-0.0210699812082 0.0421399624164 0.759 1.0598181435e-38
-0.0197430443153 0.0423065235327 0.762 1.00457335284e-38
-0.01838094452 0.0424175642769 0.764 9.12522056722e-39
-0.0169670257107 0.0424175642769 0.764 8.38729259201e-39
-0.0155531069015 0.0424175642769 0.764 8.47804208186e-39
-0.0141391880923 0.0424175642769 0.764 8.47658893535e-39
-0.0127752376179 0.0425841253931 0.767 6.99965258382e-39
-0.0113557667715 0.0425841253931 0.767 8.47154285958e-39
-0.00996220543204 0.0426951661373 0.769 9.9466729374e-39
-0.00853903322746 0.0426951661373 0.769 1.02250576929e-38
-0.00713436781358 0.0428062068815 0.771 1.07800251341e-38
-0.00570749425087 0.0428062068815 0.771 8.20105862481e-39
-0.00428062068815 0.0428062068815 0.771 8.66347871024e-39
-0.00285374712543 0.0428062068815 0.771 2.57894548985e-39
-0.055224263439 0.0427988041652 0.746 1.32707364649e-38
-0.053843656853 0.0427988041652 0.746 1.23484172299e-38
-0.052463050267 0.0427988041652 0.746 1.30852662053e-38
-0.0512878690578 0.0429709173187 0.749 1.28083261885e-38
-0.0499017104346 0.0429709173187 0.749 1.354589403e-38
-0.0485803255789 0.0430282883699 0.75 1.44682118637e-38
-0.0473181624533 0.0431430304722 0.752 1.37313656909e-38
-0.045926451793 0.0431430304722 0.752 1.45625654932e-38
-0.044653184593 0.0432577725745 0.754 5.80828824763e-39
-0.0432577725745 0.0432577725745 0.754 6.4547310513e-39
-0.041862360556 0.0432577725745 0.754 6.36253542143e-39
-0.0405206182304 0.0433151436257 0.755 5.53205308395e-39
-0.0391233555328 0.0433151436257 0.755 5.80863717095e-39
-0.0377260928352 0.0433151436257 0.755 5.1629076282e-39
-0.0363288301376 0.0433151436257 0.755 4.88632073861e-39
-0.03493156744 0.0433151436257 0.755 4.88632073861e-39
-0.0336231373378 0.043429885728 0.757 5.99087463493e-39
-0.0323073045192 0.0435446278303 0.759 6.17526449336e-39
-0.0309026391054 0.0435446278303 0.759 6.08486392683e-39
-0.0294979736915 0.0435446278303 0.759 5.80971336817e-39
-0.0281673354404 0.0436593699326 0.761 5.53385094988e-39
-0.0267589686684 0.0436593699326 0.761 6.08595133444e-39
-0.0253506018964 0.0436593699326 0.761 7.00647970994e-39
-0.0240366197569 0.0438314830861 0.764 8.66493325805e-39
-0.0226227009477 0.0438314830861 0.764 8.93792161318e-39
-0.0212643025105 0.0439462251884 0.766 9.02975991194e-39
-0.0198725918501 0.0440035962396 0.767 8.84753225704e-39
-0.0184531210037 0.0440035962396 0.767 8.29580041398e-39
-0.0170336501573 0.0440035962396 0.767 9.21632318428e-39
-0.0156141793108 0.0440035962396 0.767 9.21596305058e-39
-0.0141947084644 0.0440035962396 0.767 7.82978880058e-39
-0.0128418620644 0.0442330804442 0.771 8.10529669035e-39
-0.0114149885017 0.0442330804442 0.771 9.02615857488e-39
-0.0100528887065 0.0445199357 0.776 9.85699123698e-39
-0.00861676174839 0.0445199357 0.776 9.21306096146e-39
-0.00716212799963 0.0444051935977 0.774 8.29290112746e-39
-0.00572229968342 0.0443478225465 0.773 7.74151960901e-39
-0.00429172476257 0.0443478225465 0.773 8.48016925293e-39
-0.00286114984171 0.0443478225465 0.773 2.48747292999e-39
-0.053843656853 0.0441794107512 0.746 1.23484340455e-38
-0.052463050267 0.0441794107512 0.746 1.23491346948e-38
-0.0510824436811 0.0441794107512 0.746 1.26250041195e-38
-0.0499683348811 0.0444162976721 0.75 1.24399108093e-38
-0.0485803255789 0.0444162976721 0.75 1.51135952857e-38
-0.0474440086301 0.044653184593 0.754 1.35469772337e-38
-0.0460485966116 0.044653184593 0.754 1.41008516622e-38
-0.044653184593 0.044653184593 0.754 5.89904474397e-39
-0.0433151436257 0.0447124063233 0.755 6.26890346064e-39
-0.041917880928 0.0447124063233 0.755 4.61117298254e-39
-0.0405206182304 0.0447124063233 0.755 5.25654239158e-39
-0.0392269935607 0.0448308497837 0.757 5.34838349294e-39
-0.037826029505 0.0448308497837 0.757 4.79520971376e-39
-0.0364250654493 0.0448308497837 0.757 5.53133421784e-39
-0.035116635347 0.0449492932442 0.759 5.53096427505e-39
-0.0338008025285 0.0450677367046 0.761 5.07035746982e-39
-0.0323924357565 0.0450677367046 0.761 5.62389418531e-39
-0.031024783924 0.0451269584349 0.762 5.53277475266e-39
-0.0296922949938 0.0452454018953 0.764 5.25654519418e-39
-0.0282783761846 0.0452454018953 0.764 4.61009678532e-39
-0.0268644573753 0.0452454018953 0.764 5.07107633594e-39
-0.0255171630126 0.0453638453558 0.766 5.99231376846e-39
-0.0240995428453 0.0453638453558 0.766 9.403554876e-39
-0.0226819226779 0.0453638453558 0.766 9.39636481358e-39
-0.0212920626966 0.045423067086 0.767 9.67115944243e-39
-0.0199244108641 0.0455415105465 0.769 9.21270082775e-39
-0.0185012386595 0.0455415105465 0.769 1.05963611483e-38
-0.0170780664549 0.0455415105465 0.769 1.03212161948e-38
-0.0157363241294 0.0457783974674 0.773 5.98946212608e-39
-0.0143242559993 0.0458376191976 0.774 6.81994446356e-39
-0.0128918303993 0.0458376191976 0.774 7.92629202192e-39
-0.0114890156645 0.0459560626581 0.776 7.83479704129e-39
-0.0100528887065 0.0459560626581 0.776 8.2025271856e-39
-0.00863896989722 0.0460745061185 0.778 7.65077992825e-39
-0.00718063479032 0.0459560626581 0.776 8.02027010343e-39
-0.00574450783226 0.0459560626581 0.776 8.38869529178e-39
-0.00433058902303 0.046192949579 0.78 8.02028131382e-39
-0.00288705934869 0.046192949579 0.78 2.39529411571e-39
-0.053843656853 0.0455600173372 0.746 1.24402737456e-38
-0.052463050267 0.0455600173372 0.746 1.26257215843e-38
-0.0510824436811 0.0455600173372 0.746 1.25335259545e-38
-0.0501015837741 0.045926451793 0.752 1.20714912261e-38
-0.0487098731137 0.045926451793 0.752 1.40994461598e-38
-0.0475069317185 0.0461096690209 0.755 1.3362585974e-38
-0.0461096690209 0.0461096690209 0.755 1.41012047894e-38
-0.0447124063233 0.0461096690209 0.755 7.00467623881e-39
-0.043429885728 0.0462318138395 0.757 5.07000714521e-39
-0.0420289216722 0.0462318138395 0.757 5.43985745409e-39
-0.0406279576165 0.0462318138395 0.757 4.88847873824e-39
-0.0393306315886 0.0463539586581 0.759 5.25690672919e-39
-0.0379259661748 0.0463539586581 0.759 4.88740814622e-39
-0.0365213007609 0.0463539586581 0.759 5.6235298477e-39
-0.0352091693005 0.0464761034766 0.761 5.62315850361e-39
-0.0338452188261 0.0465371758859 0.762 5.53205448525e-39
-0.0324350013751 0.0465371758859 0.762 5.07180220854e-39
-0.031106213803 0.0466593207045 0.764 4.51862562676e-39
-0.0296922949938 0.0466593207045 0.764 4.88668507621e-39
-0.0283524033474 0.0467814655231 0.766 5.07107493464e-39
-0.02693478318 0.0467814655231 0.766 5.25510325806e-39
-0.0255171630126 0.0467814655231 0.766 5.99266829697e-39
-0.0240995428453 0.0467814655231 0.766 6.54583927355e-39
-0.0226819226779 0.0467814655231 0.766 8.38400374452e-39
-0.0212920626966 0.0468425379324 0.767 8.93538386166e-39
-0.0199244108641 0.046964682751 0.769 8.10706512901e-39
-0.0185493563153 0.0470868275696 0.771 7.46313765609e-39
-0.0171224827526 0.0470868275696 0.771 7.0039601753e-39
-0.0157566815992 0.0472700447975 0.774 7.18943183614e-39
-0.0143612695806 0.0473921896161 0.776 7.55965348912e-39
-0.0129251426226 0.0473921896161 0.776 7.00720277995e-39
-0.0115186265296 0.0475143344347 0.778 7.10010046034e-39
-0.0100787982134 0.0475143344347 0.778 7.55967871249e-39
-0.00866117804606 0.0476364792533 0.78 7.28379527473e-39
-0.00721764837172 0.0476364792533 0.78 7.92879053708e-39
-0.00577411869737 0.0476364792533 0.78 7.55965348912e-39
-0.00433058902303 0.0476364792533 0.78 7.46710753464e-39
-0.0532366341182 0.0476327778952 0.757 1.21647448363e-38
-0.0490337419509 0.0476327778952 0.757 1.28087045391e-38
-0.0476327778952 0.0476327778952 0.757 1.30859990844e-38
-0.0463539586581 0.0477586240719 0.759 1.41008488596e-38
-0.0449492932442 0.0477586240719 0.759 7.46529985962e-39
-0.0435446278303 0.0477586240719 0.759 4.42428320765e-39
-0.0421399624164 0.0477586240719 0.759 5.80936444485e-39
-0.0408426363886 0.0478844702487 0.761 4.70373295001e-39
-0.0394342696166 0.0478844702487 0.761 4.61154012274e-39
-0.0380259028445 0.0478844702487 0.761 4.51862562676e-39
-0.0366656537283 0.047947393337 0.762 4.61009678532e-39
-0.0352554362772 0.047947393337 0.762 4.14910462302e-39
-0.0339340514215 0.0480732395138 0.764 4.33423436704e-39
-0.0325201326123 0.0480732395138 0.764 4.51827249955e-39
-0.031106213803 0.0480732395138 0.764 4.4264327995e-39
-0.0297700235147 0.0481990856905 0.766 4.61082125663e-39
-0.0283524033474 0.0481990856905 0.766 5.62425011512e-39
-0.02693478318 0.0481990856905 0.766 5.1632705645e-39
-0.0255504752359 0.0482620087789 0.767 5.43949451779e-39
-0.0241310043894 0.0482620087789 0.767 6.82242616314e-39
-0.022711533543 0.0482620087789 0.767 5.52953214802e-39
-0.0213475830687 0.0483878549556 0.769 6.17382255724e-39
-0.019976229878 0.0485137011324 0.771 6.45113251684e-39
-0.018621532799 0.0487024703975 0.774 6.63660417768e-39
-0.0171891071991 0.0487024703975 0.774 6.72988160996e-39
-0.0157973965387 0.0488283165742 0.776 6.26926639695e-39
-0.014398283162 0.0489541627509 0.778 6.1781497669e-39
-0.0129917670691 0.0490800089277 0.78 6.73168648238e-39
-0.0115482373947 0.0490800089277 0.78 6.91570920061e-39
-0.0101176624739 0.049142932016 0.781 7.46675861132e-39
-0.00867228212048 0.049142932016 0.781 7.19051784245e-39
-0.00722690176707 0.049142932016 0.781 7.65184771768e-39
-0.00578152141365 0.049142932016 0.781 7.65184771768e-39
-0.00433614106024 0.049142932016 0.781 7.19051784245e-39
-0.0493576107881 0.0493576107881 0.762 1.21636896586e-38
-0.0478844702487 0.0492928370207 0.761 1.29016050221e-38
-0.0464761034766 0.0492928370207 0.761 1.4193047292e-38
-0.0450677367046 0.0492928370207 0.761 6.35859917405e-39
-0.0436593699326 0.0492928370207 0.761 4.79343146601e-39
-0.0423065235327 0.0493576107881 0.762 4.97925064887e-39
-0.0408963060816 0.0493576107881 0.762 4.05836634356e-39
-0.0395897266584 0.049487158323 0.764 3.96653365e-39
-0.0382757445189 0.0496167058579 0.766 4.4267929332e-39
-0.0368581243516 0.0496167058579 0.766 4.97887930477e-39
-0.0354405041842 0.0496167058579 0.766 4.79447683466e-39
-0.0340228840168 0.0496167058579 0.766 4.14984310731e-39
-0.0326052638495 0.0496167058579 0.766 4.51899416826e-39
-0.0311876436821 0.0496167058579 0.766 4.70338262539e-39
-0.0298088877752 0.0496814796253 0.767 4.88741094881e-39
-0.0283894169288 0.0496814796253 0.767 4.70301688649e-39
-0.0269699460823 0.0496814796253 0.767 5.1632719658e-39
-0.0255504752359 0.0496814796253 0.767 4.97887930477e-39
-0.0241310043894 0.0496814796253 0.767 5.07107213204e-39
-0.0227707552732 0.0498110271602 0.769 5.71644574498e-39
-0.0214586238128 0.0500701222299 0.773 5.16399223321e-39
-0.0201057774129 0.0502644435323 0.776 5.07179660335e-39
-0.0186696504548 0.0502644435323 0.776 5.16399223321e-39
-0.0172335234968 0.0502644435323 0.776 5.4405819254e-39
-0.0158381114782 0.0503939910671 0.778 6.08631427074e-39
-0.0144352967434 0.050523538602 0.78 6.45509959279e-39
-0.0130084231807 0.0505883123695 0.781 6.82388491484e-39
-0.0115630428273 0.0505883123695 0.781 7.09902986831e-39
-0.0101435719809 0.0507178599043 0.783 7.46603974521e-39
-0.00869449026931 0.0507178599043 0.783 7.00541192051e-39
-0.00724540855776 0.0507178599043 0.783 7.2819988101e-39
-0.00579632684621 0.0507178599043 0.783 7.46746066185e-39
-0.00434724513466 0.0507178599043 0.783 7.19052204635e-39
-0.0496167058579 0.0510343260252 0.766 1.29016078247e-38
-0.0481990856905 0.0510343260252 0.766 1.28094079909e-38
-0.0466593207045 0.0509010771322 0.764 1.40086574336e-38
-0.0452454018953 0.0509010771322 0.764 6.54371210248e-39
-0.0439462251884 0.0510343260252 0.766 4.24025768683e-39
-0.042528605021 0.0510343260252 0.766 4.51899416826e-39
-0.0411646545467 0.0511009504718 0.767 4.24312053959e-39
-0.0397451837003 0.0511009504718 0.767 4.24312334218e-39
-0.0383257128538 0.0511009504718 0.767 4.05801601894e-39
-0.0369062420074 0.0511009504718 0.767 4.14984310731e-39
-0.0354867711609 0.0511009504718 0.767 4.33386302294e-39
-0.0340673003145 0.0511009504718 0.767 3.96581478389e-39
-0.0326478294681 0.0511009504718 0.767 4.51899416826e-39
-0.0312283586216 0.0511009504718 0.767 4.88777388512e-39
-0.0298088877752 0.0511009504718 0.767 4.4267957358e-39
-0.0283894169288 0.0511009504718 0.767 4.79521531895e-39
-0.0269699460823 0.0511009504718 0.767 4.33423436704e-39
-0.0255504752359 0.0511009504718 0.767 4.33315536722e-39
-0.0241939274778 0.0512341993648 0.769 4.42570692689e-39
-0.0228299770035 0.0513674482578 0.771 4.98033385258e-39
-0.0214863839989 0.0515673215973 0.774 4.42824187581e-39
-0.0201057774129 0.0517005704903 0.776 4.88921722253e-39
-0.0187177681107 0.0518338193833 0.778 5.07252808114e-39
-0.0173223560921 0.0519670682764 0.78 5.4413120019e-39
-0.0158991838875 0.0520336927229 0.781 4.79522652934e-39
-0.0144538035341 0.0520336927229 0.781 5.90157689029e-39
-0.0130084231807 0.0520336927229 0.781 5.90050349567e-39
-0.0115926536924 0.0521669416159 0.783 7.83517258928e-39
-0.0101435719809 0.0521669416159 0.783 9.40071724661e-39
-0.00871669841815 0.0523001905089 0.785 9.03193192456e-39
-0.00726391534846 0.0523001905089 0.785 8.57168245044e-39
-0.00581113227877 0.0523001905089 0.785 1.17073890435e-38
-0.00436945328349 0.0524334394019 0.787 1.01400745462e-38
-0.00291296885566 0.0524334394019 0.787 2.75554132622e-40
-0.0496814796253 0.0525204213182 0.767 1.33625817701e-38
-0.0482620087789 0.0525204213182 0.767 1.27175682909e-38
-0.046964682751 0.0526573715693 0.769 1.38239130467e-38
-0.0455415105465 0.0526573715693 0.769 8.29542906989e-39
-0.0441183383419 0.0526573715693 0.769 3.87255416719e-39
-0.0426951661373 0.0526573715693 0.769 4.61118979812e-39
-0.0412719939327 0.0526573715693 0.769 4.33531897205e-39
-0.0398488217282 0.0526573715693 0.769 4.88813822272e-39
-0.0384256495236 0.0526573715693 0.769 4.51863963975e-39
-0.037002477319 0.0526573715693 0.769 4.42607967228e-39
-0.0355793051144 0.0526573715693 0.769 4.33351129703e-39
-0.0341561329098 0.0526573715693 0.769 4.05801041375e-39
-0.0327329607053 0.0526573715693 0.769 4.15092771232e-39
-0.0313097885007 0.0526573715693 0.769 4.24312334218e-39
-0.0298866162961 0.0526573715693 0.769 4.24240447607e-39
-0.0284634440915 0.0526573715693 0.769 4.4267957358e-39
-0.0271105976916 0.0527943218205 0.771 4.42607686969e-39
-0.0256837241289 0.0527943218205 0.771 4.61046812941e-39
-0.0243512351987 0.0529997471972 0.774 4.51827530215e-39
-0.0229188095988 0.0529997471972 0.774 4.42645802287e-39
-0.021541904371 0.0531366974484 0.776 3.96620294356e-39
-0.0202094154408 0.0534105979507 0.78 4.70304210986e-39
-0.0187658857665 0.0534105979507 0.78 4.79487340212e-39
-0.017344564241 0.0534790730763 0.781 4.42609088267e-39
-0.0158991838875 0.0534790730763 0.781 4.24098215813e-39
-0.0144908171155 0.0536160233274 0.783 5.71611784114e-39
-0.013041735404 0.0536160233274 0.783 7.37420565035e-39
-0.0116222645575 0.0537529735786 0.785 1.17052450569e-38
-0.0101694814878 0.0537529735786 0.785 1.05063459389e-38
-0.00873890656699 0.0538899238298 0.787 1.05985443713e-38
-0.00728242213916 0.0538899238298 0.787 1.26268636426e-38
-0.00582593771132 0.0538899238298 0.787 1.25367965851e-38
-0.00436945328349 0.0538899238298 0.787 8.01922473478e-39
-0.0496814796253 0.0539398921646 0.767 1.35473261571e-38
-0.0482620087789 0.0539398921646 0.767 1.33629348973e-38
-0.046964682751 0.0540805437739 0.769 1.35473289597e-38
-0.0455415105465 0.0540805437739 0.769 7.18980177894e-39
-0.0441183383419 0.0540805437739 0.769 3.96474699446e-39
-0.0428062068815 0.0542211953832 0.771 4.70338262539e-39
-0.0413793333188 0.0542211953832 0.771 4.42751460191e-39
-0.0399524597561 0.0542211953832 0.771 3.96690779669e-39
-0.0385255861933 0.0542211953832 0.771 3.8736359696e-39
-0.0370987126306 0.0542211953832 0.771 4.05694542692e-39
-0.0356718390679 0.0542211953832 0.771 4.05729435023e-39
-0.0341561329098 0.0540805437739 0.769 4.05836634356e-39
-0.0327329607053 0.0540805437739 0.769 3.96688957981e-39
-0.0313912183798 0.0542211953832 0.771 3.87433802013e-39
-0.029964344817 0.0542211953832 0.771 3.96581758648e-39
-0.0285374712543 0.0542211953832 0.771 3.96582038908e-39
-0.0272160863986 0.0544321727972 0.774 4.14949418399e-39
-0.0258502852452 0.0545728244065 0.776 4.33353231651e-39
-0.0244141582871 0.0545728244065 0.776 3.96474979705e-39
-0.0230372530593 0.0547134760158 0.778 4.14915647106e-39
-0.0215974247431 0.0547134760158 0.778 4.05660491139e-39
-0.0202353249478 0.0549244534297 0.781 4.79452167621e-39
-0.0188380622502 0.055065105039 0.783 5.16293845676e-39
-0.0173889805386 0.055065105039 0.783 5.53099930751e-39
-0.0159398988271 0.055065105039 0.783 6.17601418804e-39
-0.0145278306969 0.0552057566483 0.785 1.19836256085e-38
-0.0131083598505 0.0553464082576 0.787 8.29544868806e-39
-0.0116814862878 0.0554870598669 0.789 9.03085292474e-39
-0.0102213005018 0.0554870598669 0.789 1.25346385855e-38
-0.00876111471582 0.0554870598669 0.789 1.34569620243e-38
-0.00730092892985 0.0554870598669 0.789 1.19814942335e-38
-0.00584074314388 0.0554870598669 0.789 1.17073890435e-38
-0.00438055735791 0.0554870598669 0.789 5.80687994267e-39
-0.0499405746951 0.0556480689459 0.771 1.2533171426e-38
-0.0485137011324 0.0556480689459 0.771 1.2901956748e-38
-0.0470868275696 0.0556480689459 0.771 1.37313642896e-38
-0.0457783974674 0.0557924219134 0.773 7.83552711779e-39
-0.0443478225465 0.0557924219134 0.773 3.68887616838e-39
-0.0429172476257 0.0557924219134 0.773 4.33531897205e-39
-0.0414866727048 0.0557924219134 0.773 3.9672595226e-39
-0.040056097784 0.0557924219134 0.773 3.69032370969e-39
-0.0386255228631 0.0557924219134 0.773 3.68889018137e-39
-0.0371949479422 0.0557924219134 0.773 3.96511413465e-39
-0.0357643730214 0.0557924219134 0.773 4.24133388405e-39
-0.0343337981005 0.0557924219134 0.773 3.69029988762e-39
-0.0329032231797 0.0557924219134 0.773 3.87468974605e-39
-0.0315133631984 0.0558645983971 0.774 3.96688957981e-39
