# .PCD v0.7 - Point Cloud Data file format
VERSION 0.7
FIELDS x y z rgb
SIZE 4 4 4 4
TYPE F F F F
COUNT 1 1 1 1
WIDTH 848
HEIGHT 1
VIEWPOINT 0 0 0 1 0 0 0
POINTS 848
DATA ascii
-0.0635079029548 -0.129777019082 0.746 4.34255948121e-39
-0.0621272963689 -0.129777019082 0.746 3.51422673558e-39
-0.0605838300248 -0.129429091417 0.744 3.79222753532e-39
-0.0592069247969 -0.129429091417 0.744 1.39475860439e-39
-0.0576745625272 -0.129081163751 0.742 6.55404107346e-40
-0.0563013586575 -0.129081163751 0.742 5.26265345419e-39
-0.0549281547878 -0.129081163751 0.742 9.69055761707e-39
-0.0534827744344 -0.128907199919 0.741 1.71576987829e-38
-0.0521114212438 -0.128907199919 0.741 2.24996797431e-38
-0.0507400680532 -0.128907199919 0.741 2.16702806094e-38
-0.0493687148625 -0.128907199919 0.741 2.27751792251e-38
-0.047867814137 -0.128559272254 0.739 2.27751666134e-38
-0.0465001623046 -0.128559272254 0.739 2.22223445602e-38
-0.0451325104721 -0.128559272254 0.739 2.18535648433e-38
-0.0438833021 -0.128907199919 0.741 1.82611442521e-38
-0.0425119489094 -0.128907199919 0.741 1.60505959246e-38
-0.0411405957188 -0.128907199919 0.741 1.365565914e-38
-0.0397692425282 -0.128907199919 0.741 1.41184239449e-38
-0.0383978893375 -0.128907199919 0.741 1.26447189876e-38
-0.0370265361469 -0.128907199919 0.741 1.23691998875e-38
-0.0356551829563 -0.128907199919 0.741 1.29230785198e-38
-0.0342838297657 -0.128907199919 0.741 1.34758865601e-38
-0.032912476575 -0.128907199919 0.741 1.43985575209e-38
-0.0315411233844 -0.128907199919 0.741 1.36613484118e-38
-0.0301697701938 -0.128907199919 0.741 1.32010933325e-38
-0.0288372812636 -0.129081163751 0.742 9.60546376783e-39
-0.0274640773939 -0.129081163751 0.742 1.11727866729e-38
-0.0260908735242 -0.129081163751 0.742 1.17263149806e-38
-0.0247176696545 -0.129081163751 0.742 1.21876462571e-38
-0.0234073888732 -0.129429091417 0.744 1.32939938155e-38
-0.0219712619151 -0.129081163751 0.742 1.32929344338e-38
-0.0205980580454 -0.129081163751 0.742 1.27383313302e-38
-0.0192248541757 -0.129081163751 0.742 1.30149182198e-38
-0.017851650306 -0.129081163751 0.742 1.29223596537e-38
-0.0164784464364 -0.129081163751 0.742 1.35677290627e-38
-0.0151052425667 -0.129081163751 0.742 1.31978675434e-38
-0.013732038697 -0.129081163751 0.742 1.32900631733e-38
-0.0123588348273 -0.129081163751 0.742 1.36592016226e-38
-0.0109856309576 -0.129081163751 0.742 1.40276324161e-38
-0.00961242708787 -0.129081163751 0.742 1.36599022718e-38
-0.00823922321818 -0.129081163751 0.742 1.39350556331e-38
-0.00686601934848 -0.129081163751 0.742 1.310455648e-38
-0.00549281547878 -0.129081163751 0.742 1.34726131268e-38
-0.00411961160909 -0.129081163751 0.742 1.45782586347e-38
-0.00275381045567 -0.129429091417 0.744 1.62388365512e-38
-0.00137690522784 -0.129429091417 0.744 1.45796865578e-38
0.0 -0.129429091417 0.744 1.16297907398e-38
0.00137690522784 -0.129429091417 0.744 1.08889985105e-38
0.00275381045567 -0.129429091417 0.744 1.20839081318e-38
0.00413071568351 -0.129429091417 0.744 1.20785467639e-38
0.00550762091134 -0.129429091417 0.744 1.81638114621e-38
0.00688452613918 -0.129429091417 0.744 1.76152913951e-38
0.00826143136701 -0.129429091417 0.744 9.04441328998e-39
-0.0795384850563 -0.129773317723 0.754 1.84391259727e-40
-0.0781430730378 -0.129773317723 0.754 2.76589692187e-40
-0.0767476610193 -0.129773317723 0.754 8.29394929871e-40
-0.0753522490007 -0.129773317723 0.754 1.01343306238e-39
-0.0737606650008 -0.129429091417 0.752 1.19960116856e-39
-0.0721764837172 -0.12908486511 0.75 4.6133127653e-40
-0.0706940897824 -0.128912751956 0.749 5.44307063147e-39
-0.0691228632522 -0.128568525649 0.747 6.36682059214e-39
-0.0677404059872 -0.128568525649 0.747 5.99772558313e-39
-0.0662691161268 -0.128396412496 0.746 5.90808452036e-39
-0.0648885095408 -0.128396412496 0.746 4.61844151768e-39
-0.0635079029548 -0.128396412496 0.746 4.80355724871e-39
-0.0621272963689 -0.128396412496 0.746 4.71207628106e-39
-0.0605838300248 -0.128052186189 0.744 3.79082203296e-39
-0.0590477663969 -0.127707959882 0.742 3.51385258889e-39
-0.0576745625272 -0.127707959882 0.742 3.51275677349e-39
-0.0563013586575 -0.127707959882 0.742 1.85250535945e-39
-0.054854127625 -0.127535846728 0.741 3.69960731202e-39
-0.0534827744344 -0.127535846728 0.741 1.54087816098e-38
-0.0519707696345 -0.127191620421 0.739 1.19943189171e-38
-0.050603117802 -0.127191620421 0.739 2.13021609041e-38
-0.0492354659695 -0.127191620421 0.739 2.34180178891e-38
-0.047867814137 -0.127191620421 0.739 2.31425085981e-38
-0.0465001623046 -0.127191620421 0.739 2.3141438006e-38
-0.0451325104721 -0.127191620421 0.739 2.35098786087e-38
-0.0437648586396 -0.127191620421 0.739 2.31425057955e-38
-0.0423972068071 -0.127191620421 0.739 2.30506604902e-38
-0.0410295549746 -0.127191620421 0.739 1.9735561069e-38
-0.0396619031421 -0.127191620421 0.739 1.8262570774e-38
-0.0382942513096 -0.127191620421 0.739 1.44846897323e-38
-0.0369265994771 -0.127191620421 0.739 1.36577779033e-38
-0.0355589476447 -0.127191620421 0.739 1.43049199549e-38
-0.0341912958122 -0.127191620421 0.739 1.31081606196e-38
-0.032912476575 -0.127535846728 0.741 1.28308800873e-38
-0.0314559921472 -0.127191620421 0.739 1.36606435587e-38
-0.0300883403147 -0.127191620421 0.739 1.38450292132e-38
-0.0287984170032 -0.127535846728 0.741 1.39375821742e-38
-0.0273530366497 -0.127191620421 0.739 1.26468433561e-38
-0.0259853848173 -0.127191620421 0.739 1.26468433561e-38
-0.0246843574313 -0.127535846728 0.741 1.29234274431e-38
-0.0233130042406 -0.127535846728 0.741 1.20940199015e-38
-0.02194165105 -0.127535846728 0.741 1.26461216874e-38
-0.0205702978594 -0.127535846728 0.741 1.28305157497e-38
-0.0191989446688 -0.127535846728 0.741 1.37524734496e-38
-0.017851650306 -0.127707959882 0.742 1.35670059927e-38
-0.0164784464364 -0.127707959882 0.742 1.40276282122e-38
-0.0150848850969 -0.127535846728 0.741 1.34737383695e-38
-0.0137135319063 -0.127535846728 0.741 1.38425222903e-38
-0.0123421787156 -0.127535846728 0.741 1.41191091798e-38
-0.010970825525 -0.127535846728 0.741 1.3842520889e-38
-0.00959947233438 -0.127535846728 0.741 1.3289686224e-38
-0.00822811914376 -0.127535846728 0.741 1.51325198215e-38
-0.00685676595313 -0.127535846728 0.741 1.48569783005e-38
-0.0054854127625 -0.127535846728 0.741 1.69760456603e-38
-0.00411405957188 -0.127535846728 0.741 1.88178493034e-38
-0.00274640773939 -0.127707959882 0.742 1.41169287594e-38
-0.0013732038697 -0.127707959882 0.742 1.29194379464e-38
0.0 -0.127707959882 0.742 1.50367088416e-38
0.0013732038697 -0.127707959882 0.742 1.55888078248e-38
0.00274640773939 -0.127707959882 0.742 1.15346874156e-38
0.00411961160909 -0.127707959882 0.742 9.69008117559e-39
0.00549281547878 -0.127707959882 0.742 9.13727313531e-39
0.00686601934848 -0.127707959882 0.742 8.86140791443e-39
0.00823922321818 -0.127707959882 0.742 1.35598215355e-38
0.00961242708787 -0.127707959882 0.742 1.20853949095e-38
-0.0782467110657 -0.128548168179 0.755 1.84039533812e-40
-0.0768494483681 -0.128548168179 0.755 6.44650542931e-40
-0.0754521856705 -0.128548168179 0.755 1.0137847883e-39
-0.0739568369822 -0.128377905705 0.754 1.47618385426e-39
-0.0723689543404 -0.128037380756 0.752 3.58732406867e-43
-0.0706940897824 -0.127526593333 0.749 3.78320177191e-39
-0.0693079311592 -0.127526593333 0.749 5.99803807268e-39
-0.0677404059872 -0.127186068384 0.747 5.8133301195e-39
-0.0662691161268 -0.12701580591 0.746 5.2620018504e-39
-0.0648885095408 -0.12701580591 0.746 5.35565202807e-39
-0.0635079029548 -0.12701580591 0.746 4.61881286177e-39
-0.0621272963689 -0.12701580591 0.746 4.43442440464e-39
-0.0604209702666 -0.126334756012 0.742 4.34258190199e-39
-0.0590477663969 -0.126334756012 0.742 4.71098747216e-39
-0.0575968340063 -0.126164493538 0.741 3.97376014618e-39
-0.0562254808157 -0.126164493538 0.741 3.42056674882e-39
-0.054854127625 -0.126164493538 0.741 5.81685858904e-39
-0.0534827744344 -0.126164493538 0.741 3.78677928689e-39
-0.0519707696345 -0.125823968589 0.739 7.93519166847e-39
-0.050603117802 -0.125823968589 0.739 1.4756572463e-38
-0.0492354659695 -0.125823968589 0.739 1.36491683256e-38
-0.0478030403696 -0.125653706114 0.738 2.35098533853e-38
-0.0464372392162 -0.125653706114 0.738 2.2773765315e-38
-0.0450714380628 -0.125653706114 0.738 2.31425380253e-38
-0.0437056369094 -0.125653706114 0.738 2.27723065633e-38
-0.0423972068071 -0.125823968589 0.739 2.35098730035e-38
-0.0410295549746 -0.125823968589 0.739 2.2957768415e-38
-0.0396619031421 -0.125823968589 0.739 2.32343468968e-38
-0.0382942513096 -0.125823968589 0.739 2.19486093129e-38
-0.0369265994771 -0.125823968589 0.739 2.01071812179e-38
-0.0355589476447 -0.125823968589 0.739 1.54084074631e-38
-0.0341450288354 -0.125653706114 0.738 1.38432145317e-38
-0.032779227682 -0.125653706114 0.738 1.50417801407e-38
-0.0314134265286 -0.125653706114 0.738 1.22762671746e-38
-0.0300476253752 -0.125653706114 0.738 1.32907652238e-38
-0.0286818242218 -0.125653706114 0.738 1.38442963341e-38
-0.0273160230683 -0.125653706114 0.738 1.23688145304e-38
-0.0259502219149 -0.125653706114 0.738 1.2276264372e-38
-0.0246177329848 -0.125823968589 0.739 1.20929521121e-38
-0.0232500811523 -0.125823968589 0.739 1.31996513964e-38
-0.0218824293198 -0.125823968589 0.739 1.21847693914e-38
-0.0205147774873 -0.125823968589 0.739 1.29223344303e-38
-0.0191471256548 -0.125823968589 0.739 1.45818585704e-38
-0.0178275914781 -0.126164493538 0.741 1.39357730979e-38
-0.0164562382875 -0.126164493538 0.741 1.36588344824e-38
-0.0150848850969 -0.126164493538 0.741 1.41190979695e-38
-0.0137135319063 -0.126164493538 0.741 1.37499595202e-38
-0.0123088664924 -0.125823968589 0.739 1.36577666929e-38
-0.0109412146599 -0.125823968589 0.739 1.43942569359e-38
-0.00957356282741 -0.125823968589 0.739 1.36580819851e-38
-0.00822811914376 -0.126164493538 0.741 1.40272176318e-38
-0.00685676595313 -0.126164493538 0.741 1.46722353149e-38
-0.0054854127625 -0.126164493538 0.741 1.6330702876e-38
-0.00411405957188 -0.126164493538 0.741 1.4207714683e-38
-0.00274270638125 -0.126164493538 0.741 1.46701011373e-38
-0.00137135319063 -0.126164493538 0.741 1.51303618218e-38
0.0 -0.126164493538 0.741 1.47583282899e-38
0.00137135319063 -0.126164493538 0.741 2.00134932051e-38
0.00274270638125 -0.126164493538 0.741 1.49473788671e-38
0.00411405957188 -0.126164493538 0.741 1.39346660721e-38
0.0054854127625 -0.126164493538 0.741 1.05230788438e-38
0.00685676595313 -0.126164493538 0.741 9.04687256878e-39
0.00822811914376 -0.126164493538 0.741 9.50318299291e-39
0.00959947233438 -0.126164493538 0.741 1.48480183981e-38
-0.0784539871215 -0.127487729072 0.757 7.37213312992e-40
-0.0770530230658 -0.127487729072 0.757 1.01343866758e-39
-0.07565205901 -0.127487729072 0.757 1.01414071811e-39
-0.0740549229729 -0.127150905482 0.755 1.38327216088e-39
-0.0725614249637 -0.126982493686 0.754 3.68782519453e-40
-0.07097724368 -0.126645670096 0.752 3.41371580063e-39
-0.0694004651127 -0.126308846505 0.75 5.62925555323e-39
-0.067921772536 -0.12614043471 0.749 6.18246296357e-39
-0.0662691161268 -0.125635199324 0.746 5.44567424402e-39
-0.0648885095408 -0.125635199324 0.746 5.35349122584e-39
-0.0635079029548 -0.125635199324 0.746 5.7229926114e-39
-0.0621272963689 -0.125635199324 0.746 4.61737372825e-39
-0.0604209702666 -0.124961552142 0.742 4.70993369571e-39
-0.0590477663969 -0.124961552142 0.742 4.61881286177e-39
-0.0575968340063 -0.124793140347 0.741 4.34328395252e-39
-0.0562254808157 -0.124793140347 0.741 4.25070997207e-39
-0.054854127625 -0.124793140347 0.741 7.84019204038e-39
-0.053338421467 -0.124456316756 0.739 7.65503567169e-39
-0.0519707696345 -0.124456316756 0.739 4.79804594185e-39
-0.050603117802 -0.124456316756 0.739 5.62707653412e-39
-0.0492354659695 -0.124456316756 0.739 1.14371766607e-38
-0.0478030403696 -0.124287904961 0.738 1.35594501914e-38
-0.0464372392162 -0.124287904961 0.738 1.7340585048e-38
-0.0450714380628 -0.124287904961 0.738 2.27751722186e-38
-0.0437056369094 -0.124287904961 0.738 2.249752875e-38
-0.0423398357559 -0.124287904961 0.738 2.35095268827e-38
-0.0409740346025 -0.124287904961 0.738 2.31407499685e-38
-0.0396082334491 -0.124287904961 0.738 2.35095268827e-38
-0.0382424322957 -0.124287904961 0.738 2.34180431125e-38
-0.0368766311423 -0.124287904961 0.738 2.32343468968e-38
-0.0355108299888 -0.124287904961 0.738 2.20404420065e-38
-0.0341450288354 -0.124287904961 0.738 1.89086408322e-38
-0.032779227682 -0.124287904961 0.738 1.59601575231e-38
-0.0313282952914 -0.12395108137 0.736 1.39332661749e-38
-0.0299661954961 -0.12395108137 0.736 1.3842840385e-38
-0.0286818242218 -0.124287904961 0.738 1.41204992679e-38
-0.0272419959056 -0.12395108137 0.736 1.47655211549e-38
-0.0258798961103 -0.12395108137 0.736 1.17230779811e-38
-0.0245844207615 -0.124287904961 0.738 1.30145328627e-38
-0.0232186196081 -0.124287904961 0.738 1.31074333457e-38
-0.0218528184547 -0.124287904961 0.738 1.35680457562e-38
-0.0204870173013 -0.124287904961 0.738 1.22773069381e-38
-0.0191212161478 -0.124287904961 0.738 1.36598882588e-38
-0.0177794738223 -0.124456316756 0.739 1.41201517459e-38
-0.0164118219898 -0.124456316756 0.739 1.38432117291e-38
-0.0150441701574 -0.124456316756 0.739 1.45793460423e-38
-0.0136580115342 -0.124287904961 0.738 1.47637429072e-38
-0.0122922103808 -0.124287904961 0.738 1.47633883787e-38
-0.0109264092273 -0.124287904961 0.738 1.549986601e-38
-0.00956060807392 -0.124287904961 0.738 1.44874713098e-38
-0.00820591099492 -0.124456316756 0.739 1.48566223707e-38
-0.00682900576709 -0.124287904961 0.738 1.43960113616e-38
-0.00546320461367 -0.124287904961 0.738 1.45797033734e-38
-0.00410295549746 -0.124456316756 0.739 1.42087908803e-38
-0.00273530366497 -0.124456316756 0.739 1.53154719477e-38
-0.00136765183249 -0.124456316756 0.739 1.6144164827e-38
0.0 -0.124793140347 0.741 1.85437441134e-38
0.00136765183249 -0.124456316756 0.739 1.54995128828e-38
0.00273530366497 -0.124456316756 0.739 1.37459742274e-38
0.00410295549746 -0.124456316756 0.739 1.6141606056e-38
0.00547060732995 -0.124456316756 0.739 1.64153413032e-38
0.00683825916243 -0.124456316756 0.739 1.43891842355e-38
0.00820591099492 -0.124456316756 0.739 1.03347219094e-38
0.00957356282741 -0.124456316756 0.739 7.93874816397e-39
-0.0770530230658 -0.126086765017 0.757 7.3649444688e-40
-0.07565205901 -0.126086765017 0.757 8.29748057084e-40
-0.0742510949543 -0.126086765017 0.757 1.29037307919e-39
-0.0726576602753 -0.125753642784 0.755 2.75882036462e-40
-0.0711660129451 -0.125587081668 0.754 3.04387249824e-39
-0.0695855330196 -0.125253959435 0.752 6.09023650514e-39
-0.0680124558104 -0.124920837203 0.75 5.90658372971e-39
-0.0663579487221 -0.124421153854 0.747 6.9186365131e-39
-0.0649754914571 -0.124421153854 0.747 7.56473599865e-39
-0.0635079029548 -0.124254592738 0.746 4.79958176497e-39
-0.0621272963689 -0.124254592738 0.746 5.63006970764e-39
-0.0604209702666 -0.123588348273 0.742 5.63044945952e-39
-0.0590477663969 -0.123588348273 0.742 4.89396902563e-39
-0.0575968340063 -0.123421787156 0.741 4.52733609802e-39
-0.0562254808157 -0.123421787156 0.741 4.43584251868e-39
-0.054854127625 -0.123421787156 0.741 3.59993575485e-42
-0.053338421467 -0.123088664924 0.739 2.21304404004e-39
-0.0519707696345 -0.123088664924 0.739 8.76104411582e-39
-0.050603117802 -0.123088664924 0.739 7.28801038051e-39
-0.049168841523 -0.122922103808 0.738 4.8005570687e-39
-0.0476734928347 -0.122588981575 0.736 5.72214062194e-39
-0.0463113930394 -0.122588981575 0.736 1.30063002343e-38
-0.0449492932442 -0.122588981575 0.736 9.78194750032e-39
-0.0435871934489 -0.122588981575 0.736 2.10266488104e-38
-0.0422250936536 -0.122588981575 0.736 2.31425170058e-38
-0.0408629938583 -0.122588981575 0.736 2.26811955384e-38
-0.0395008940631 -0.122588981575 0.736 2.35095268827e-38
-0.0381387942678 -0.122588981575 0.736 2.35088094179e-38
-0.0367766944725 -0.122588981575 0.736 2.35091681503e-38
-0.0354145946772 -0.122588981575 0.736 2.35098702009e-38
-0.0340524948819 -0.122588981575 0.736 2.31425099994e-38
-0.0326903950867 -0.122588981575 0.736 2.26833002887e-38
-0.0313282952914 -0.122588981575 0.736 1.99202690222e-38
-0.0299661954961 -0.122588981575 0.736 1.64200314492e-38
-0.0286040957008 -0.122588981575 0.736 1.4854482588e-38
-0.0272419959056 -0.122588981575 0.736 1.51321554839e-38
-0.0258798961103 -0.122588981575 0.736 1.18145561462e-38
-0.024517796315 -0.122588981575 0.736 9.97171133836e-39
-0.0231556965197 -0.122588981575 0.736 1.37531516781e-38
-0.0217935967244 -0.122588981575 0.736 1.33840090249e-38
-0.0204314969292 -0.122588981575 0.736 1.37517181498e-38
-0.0190693971339 -0.122588981575 0.736 1.38439165822e-38
-0.0177072973386 -0.122588981575 0.736 1.37513678252e-38
-0.0163451975433 -0.122588981575 0.736 1.42109152487e-38
-0.0149830977481 -0.122588981575 0.736 1.45797033734e-38
-0.0136209979528 -0.122588981575 0.736 1.54083934501e-38
-0.0122588981575 -0.122588981575 0.736 1.55927875125e-38
-0.0108967983622 -0.122588981575 0.736 1.5408008093e-38
-0.00953469856695 -0.122588981575 0.736 1.48548315113e-38
-0.00817259877167 -0.122588981575 0.736 1.55924301813e-38
-0.00682900576709 -0.122922103808 0.738 1.47644407538e-38
-0.00546320461367 -0.122922103808 0.738 1.46729499771e-38
-0.00409740346025 -0.122922103808 0.738 1.55002345515e-38
-0.00273530366497 -0.123088664924 0.739 1.50388878607e-38
-0.00136765183249 -0.123088664924 0.739 1.62367079789e-38
0.0 -0.123088664924 0.739 1.47640750149e-38
0.00136580115342 -0.122922103808 0.738 1.49466782178e-38
0.00273160230683 -0.122922103808 0.738 1.44813910757e-38
0.00409740346025 -0.122922103808 0.738 2.03786645784e-38
0.00546320461367 -0.122922103808 0.738 1.75195308619e-38
0.00682900576709 -0.122922103808 0.738 1.83510725811e-38
0.0081948069205 -0.122922103808 0.738 1.6328130092e-38
0.00956060807392 -0.122922103808 0.738 1.43034163617e-38
0.0109264092273 -0.122922103808 0.738 9.51001432293e-39
0.0122922103808 -0.122922103808 0.738 7.57068871452e-39
0.0136580115342 -0.122922103808 0.738 1.20835704189e-38
0.0150238126876 -0.122922103808 0.738 1.71493036038e-38
0.016389613841 -0.122922103808 0.738 1.69645255857e-38
0.0177072973386 -0.122588981575 0.736 1.65046376466e-38
0.0190693971339 -0.122588981575 0.736 1.21761037617e-38
0.0204314969292 -0.122588981575 0.736 1.12573900677e-38
0.0217935967244 -0.122588981575 0.736 1.1071632542e-38
0.0231556965197 -0.122588981575 0.736 1.07925597489e-38
0.024517796315 -0.122588981575 0.736 1.04216332428e-38
-0.0770530230658 -0.124685800961 0.757 7.3649444688e-40
-0.07565205901 -0.124685800961 0.757 8.29749458382e-40
-0.0742510949543 -0.124685800961 0.757 1.1978299273e-39
-0.0728501308985 -0.124685800961 0.757 7.36511262461e-40
-0.0712603975777 -0.124356380087 0.755 2.76693948793e-39
-0.0697706009266 -0.124191669649 0.754 6.4590190246e-39
-0.0681938223592 -0.123862248775 0.752 5.44595730631e-39
-0.0665356139128 -0.123368117463 0.749 6.27254263276e-39
-0.0649754914571 -0.123038696589 0.747 8.02354914184e-39
-0.063593034192 -0.123038696589 0.747 8.48595381299e-39
-0.0621272963689 -0.122873986152 0.746 6.09067371026e-39
-0.0605838300248 -0.122544565277 0.744 5.53788528816e-39
-0.0590477663969 -0.122215144403 0.742 4.43299367891e-39
-0.0575968340063 -0.122050433966 0.741 4.34259591497e-39
-0.0562254808157 -0.122050433966 0.741 4.43693553149e-39
-0.054854127625 -0.122050433966 0.741 7.49694678414e-43
-0.053338421467 -0.121721013091 0.739 2.18322300742e-42
-0.0519707696345 -0.121721013091 0.739 7.17464813734e-43
-0.0505346426764 -0.121556302654 0.738 4.98033245128e-39
-0.049168841523 -0.121556302654 0.738 8.20822346385e-39
-0.0476734928347 -0.12122688178 0.736 7.65538459501e-39
-0.0463113930394 -0.12122688178 0.736 2.95416137055e-39
-0.0449492932442 -0.12122688178 0.736 7.47205271692e-39
-0.0434687499884 -0.120897460905 0.734 1.28244201014e-38
-0.0421103515513 -0.120897460905 0.734 1.17177306262e-38
-0.0407519531142 -0.120897460905 0.734 2.31424833747e-38
-0.0395008940631 -0.12122688178 0.736 2.25889802904e-38
-0.0381387942678 -0.12122688178 0.736 2.3509166749e-38
-0.0367766944725 -0.12122688178 0.736 2.35088094179e-38
-0.0354145946772 -0.12122688178 0.736 2.35091681503e-38
-0.0339599609285 -0.120897460905 0.734 2.35087982075e-38
-0.0326015624913 -0.120897460905 0.734 2.31396639622e-38
-0.0312431640542 -0.120897460905 0.734 2.31417925345e-38
-0.029884765617 -0.120897460905 0.734 2.21304642224e-38
-0.0286040957008 -0.12122688178 0.736 1.89071820805e-38
-0.0271679687428 -0.120897460905 0.734 1.77104353569e-38
-0.0258095703056 -0.120897460905 0.734 1.58690366891e-38
-0.024517796315 -0.12122688178 0.736 1.4304206694e-38
-0.0231556965197 -0.12122688178 0.736 8.86643437202e-39
-0.0217935967244 -0.12122688178 0.736 1.23695025679e-38
-0.0204314969292 -0.12122688178 0.736 1.33829384329e-38
-0.0190693971339 -0.12122688178 0.736 1.34747809356e-38
-0.0177072973386 -0.12122688178 0.736 1.38424886591e-38
-0.0163451975433 -0.12122688178 0.736 1.42109180513e-38
-0.0149830977481 -0.12122688178 0.736 1.42098474593e-38
-0.0136209979528 -0.12122688178 0.736 1.50396109307e-38
-0.0122588981575 -0.12122688178 0.736 1.56846258112e-38
-0.0108967983622 -0.12122688178 0.736 1.53143915465e-38
-0.00953469856695 -0.12122688178 0.736 1.51307051399e-38
-0.00817259877167 -0.12122688178 0.736 1.54066095972e-38
-0.00681049897639 -0.12122688178 0.736 1.47633869774e-38
-0.00544839918111 -0.12122688178 0.736 1.52257720304e-38
-0.00408629938583 -0.12122688178 0.736 1.51332134642e-38
-0.00273160230683 -0.121556302654 0.738 1.51328407188e-38
-0.00136580115342 -0.121556302654 0.738 1.61441494127e-38
0.0 -0.12122688178 0.736 1.71539741316e-38
0.00136209979528 -0.12122688178 0.736 1.80769870092e-38
0.00272419959056 -0.12122688178 0.736 1.62334611703e-38
0.00408629938583 -0.12122688178 0.736 1.87234802596e-38
0.00544839918111 -0.12122688178 0.736 1.47608408181e-38
0.00681049897639 -0.12122688178 0.736 1.46679081052e-38
0.00817259877167 -0.12122688178 0.736 1.51274261015e-38
0.00953469856695 -0.12122688178 0.736 1.60493459664e-38
0.0108967983622 -0.12122688178 0.736 1.56838144594e-38
0.0122588981575 -0.12122688178 0.736 1.37480985958e-38
0.0136209979528 -0.12122688178 0.736 9.22946736388e-39
0.0149830977481 -0.12122688178 0.736 8.30465521897e-39
0.0163451975433 -0.12122688178 0.736 1.20839389604e-38
0.0177072973386 -0.12122688178 0.736 1.50309761295e-38
0.0190693971339 -0.12122688178 0.736 1.67815888738e-38
0.0204314969292 -0.12122688178 0.736 1.55819582779e-38
0.0217935967244 -0.12122688178 0.736 1.08893488351e-38
0.0230927734314 -0.120897460905 0.734 1.0798611957e-38
0.0244511718685 -0.120897460905 0.734 1.01500307718e-38
0.0258095703056 -0.120897460905 0.734 1.02382999634e-38
0.0271679687428 -0.120897460905 0.734 9.95742650181e-39
-0.0758519323495 -0.123610556421 0.759 7.37553828519e-40
-0.0744472669357 -0.123610556421 0.759 1.29001995197e-39
-0.0730426015218 -0.123610556421 0.759 8.28339752127e-40
-0.0714491668428 -0.123284836905 0.757 1.3818834741e-39
-0.0697706009266 -0.122796257631 0.754 6.8252918185e-39
-0.0681938223592 -0.122470538115 0.752 6.08807290031e-39
-0.0665356139128 -0.12198195884 0.749 6.36582006503e-39
-0.0651494552896 -0.12198195884 0.749 1.06057596571e-38
-0.063593034192 -0.121656239324 0.747 9.22209233006e-39
-0.0621272963689 -0.121493379566 0.746 3.22865331894e-39
-0.0605838300248 -0.12116766005 0.744 8.02355474703e-39
-0.0590477663969 -0.120841940533 0.742 6.55167428036e-39
-0.0575968340063 -0.120679080775 0.741 4.89576408896e-39
-0.0562254808157 -0.120679080775 0.741 5.54402017284e-39
-0.054854127625 -0.120679080775 0.741 7.41568548619e-40
-0.053338421467 -0.120353361259 0.739 7.60905066128e-43
-0.0519707696345 -0.120353361259 0.739 4.63513098239e-40
-0.0505346426764 -0.120190501501 0.738 3.64337600724e-43
-0.04903559263 -0.119864781984 0.736 5.53887040098e-40
-0.0476734928347 -0.119864781984 0.736 7.19370859905e-39
-0.0461855468627 -0.119539062468 0.734 6.91671953681e-39
-0.0448271484256 -0.119539062468 0.734 6.63906065389e-39
-0.0434687499884 -0.119539062468 0.734 4.24775042971e-39
-0.0421103515513 -0.119539062468 0.734 7.93949365475e-39
-0.0407519531142 -0.119539062468 0.734 1.0981943835e-38
-0.039393554677 -0.119539062468 0.734 1.57743425441e-38
-0.0380351562399 -0.119539062468 0.734 2.29588235928e-38
-0.0366767578027 -0.119539062468 0.734 2.31425170058e-38
-0.0353183593656 -0.119539062468 0.734 2.35098786087e-38
-0.0339136939517 -0.11937620271 0.733 2.34158977245e-38
-0.0325571461937 -0.11937620271 0.733 2.35084506855e-38
-0.0312005984356 -0.11937620271 0.733 2.34176759723e-38
-0.0298440506775 -0.11937620271 0.733 2.35098561879e-38
-0.0285263671799 -0.119539062468 0.734 2.29581313513e-38
-0.0271679687428 -0.119539062468 0.734 2.16687994369e-38
-0.0258095703056 -0.119539062468 0.734 1.98277230677e-38
-0.0244511718685 -0.119539062468 0.734 1.73409339714e-38
-0.0230927734314 -0.119539062468 0.734 1.61441522153e-38
-0.0217343749942 -0.119539062468 0.734 1.34736907254e-38
-0.0203759765571 -0.119539062468 0.734 1.16315507706e-38
-0.0190175781199 -0.119539062468 0.734 1.36587980486e-38
-0.0176591796828 -0.119539062468 0.734 1.37488861256e-38
-0.0163451975433 -0.119864781984 0.736 1.44861022412e-38
-0.0149830977481 -0.119864781984 0.736 1.5224366528e-38
-0.0136209979528 -0.119864781984 0.736 1.45793488449e-38
-0.0122588981575 -0.119864781984 0.736 1.55009534176e-38
-0.0108967983622 -0.119864781984 0.736 1.59611930826e-38
-0.00953469856695 -0.119864781984 0.736 1.59611958852e-38
-0.00817259877167 -0.119864781984 0.736 1.56835524166e-38
-0.00681049897639 -0.119864781984 0.736 1.52225714647e-38
-0.00544839918111 -0.119864781984 0.736 1.55924077606e-38
-0.00408629938583 -0.119864781984 0.736 1.57771367332e-38
-0.00272419959056 -0.119864781984 0.736 1.58693211527e-38
-0.00136209979528 -0.119864781984 0.736 1.59597357322e-38
0.0 -0.119864781984 0.736 1.64199739959e-38
0.00136209979528 -0.119864781984 0.736 1.52224901894e-38
0.00271679687428 -0.119539062468 0.734 1.76178151336e-38
0.00407519531142 -0.119539062468 0.734 1.7340171665e-38
0.00544839918111 -0.119864781984 0.736 1.53136152272e-38
0.00681049897639 -0.119864781984 0.736 1.54961974106e-38
0.00817259877167 -0.119864781984 0.736 1.90871830722e-38
0.00953469856695 -0.119864781984 0.736 1.92701323958e-38
0.0108967983622 -0.119864781984 0.736 1.95506247042e-38
0.0122588981575 -0.119864781984 0.736 1.76145641212e-38
0.0136209979528 -0.119864781984 0.736 1.67855335289e-38
0.0149830977481 -0.119864781984 0.736 1.1994576756e-38
0.0163451975433 -0.119864781984 0.736 7.93803069916e-39
0.0177072973386 -0.119864781984 0.736 9.13368581124e-39
0.0190693971339 -0.119864781984 0.736 1.45710741774e-38
0.0204314969292 -0.119864781984 0.736 1.60447637204e-38
0.0217343749942 -0.119539062468 0.734 1.79826459914e-38
0.0230927734314 -0.119539062468 0.734 1.46650298382e-38
0.0244511718685 -0.119539062468 0.734 1.06080760035e-38
0.0258095703056 -0.119539062468 0.734 1.23583958763e-38
0.0271309551614 -0.11937620271 0.733 1.24488356792e-38
0.0284097743985 -0.119050483194 0.731 1.01450211298e-38
-0.073235072145 -0.122527909166 0.761 8.28695681937e-40
-0.0716379361079 -0.122205891008 0.759 7.35087543222e-40
-0.070048202787 -0.121883872849 0.757 6.17920634594e-39
-0.0684658721825 -0.121561854691 0.755 6.3642954523e-39
-0.0668021116988 -0.121078827454 0.752 4.89285078945e-39
-0.0652364372059 -0.120756809296 0.75 8.02752182298e-39
-0.0637632966664 -0.120595800217 0.749 5.53643074036e-39
-0.0623771380433 -0.120595800217 0.749 7.00975314315e-39
-0.0605838300248 -0.119790754822 0.744 1.02355197873e-38
-0.0590477663969 -0.119468736664 0.742 6.73353479506e-39
-0.0576745625272 -0.119468736664 0.742 5.25985646245e-39
-0.0562254808157 -0.119307727584 0.741 6.36801449843e-39
-0.054854127625 -0.119307727584 0.741 6.47566645035e-40
-0.0534827744344 -0.119307727584 0.741 1.56772507774e-39
-0.0519707696345 -0.118985709426 0.739 5.5535419959e-40
-0.0505346426764 -0.118824700347 0.738 3.70235665961e-40
-0.04903559263 -0.118502682189 0.736 1.40129846432e-44
-0.0475439452998 -0.118180664031 0.734 5.44093084871e-39
-0.0461855468627 -0.118180664031 0.734 7.56207913676e-39
-0.0448271484256 -0.118180664031 0.734 8.02054475793e-39
-0.0434687499884 -0.118180664031 0.734 6.45969445046e-39
-0.0421103515513 -0.118180664031 0.734 4.24882662693e-39
-0.0406964327421 -0.118019654952 0.733 4.80199199832e-39
-0.039339884984 -0.118019654952 0.733 1.05195433678e-38
-0.0379833372259 -0.118019654952 0.733 9.5053886367e-39
-0.0366267894679 -0.118019654952 0.733 1.91830893404e-38
-0.0352702417098 -0.118019654952 0.733 2.32343468968e-38
-0.0339136939517 -0.118019654952 0.733 2.24053078967e-38
-0.0325571461937 -0.118019654952 0.733 2.33262104189e-38
-0.0312005984356 -0.118019654952 0.733 2.3418050119e-38
-0.0298440506775 -0.118019654952 0.733 2.34176913866e-38
-0.0284875029194 -0.118019654952 0.733 2.35098702009e-38
-0.0271309551614 -0.118019654952 0.733 2.34180136852e-38
-0.0257744074033 -0.118019654952 0.733 2.35098407736e-38
-0.0244178596452 -0.118019654952 0.733 2.2222310929e-38
-0.0230613118872 -0.118019654952 0.733 2.04719966614e-38
-0.0217047641291 -0.118019654952 0.733 1.94617977958e-38
-0.020348216371 -0.118019654952 0.733 1.53151188204e-38
-0.018991668613 -0.118019654952 0.733 1.28282974942e-38
-0.0176591796828 -0.118180664031 0.734 1.31048871864e-38
-0.0163007812457 -0.118180664031 0.734 1.58686457268e-38
-0.0149423828085 -0.118180664031 0.734 1.54998632074e-38
-0.0135839843714 -0.118180664031 0.734 1.45786103606e-38
-0.0122255859342 -0.118180664031 0.734 1.5683549614e-38
-0.0108671874971 -0.118180664031 0.734 1.47637260916e-38
-0.00953469856695 -0.118502682189 0.736 1.5593489563e-38
-0.00817259877167 -0.118502682189 0.736 1.62370779217e-38
-0.00679199218569 -0.118180664031 0.734 1.57753809062e-38
-0.00543359374855 -0.118180664031 0.734 1.61445025399e-38
-0.00407519531142 -0.118180664031 0.734 1.63288713789e-38
-0.00271679687428 -0.118180664031 0.734 1.62370302775e-38
-0.00135839843714 -0.118180664031 0.734 1.62359540803e-38
0.0 -0.118180664031 0.734 1.56827803011e-38
0.00135839843714 -0.118180664031 0.734 1.66983405346e-38
0.00271679687428 -0.118180664031 0.734 1.56827606829e-38
0.00407519531142 -0.118180664031 0.734 1.67869726625e-38
0.00543359374855 -0.118180664031 0.734 1.59568266366e-38
0.00679199218569 -0.118180664031 0.734 1.97350552003e-38
0.00815039062283 -0.118180664031 0.734 1.78879364321e-38
0.00950878905997 -0.118180664031 0.734 1.62287584127e-38
0.0108671874971 -0.118180664031 0.734 1.9179364689e-38
0.0122089298226 -0.118019654952 0.733 1.89964195693e-38
0.0135654775807 -0.118019654952 0.733 1.55862490538e-38
0.0149423828085 -0.118180664031 0.734 1.77085408014e-38
0.0163007812457 -0.118180664031 0.734 1.70624861574e-38
0.0176351208549 -0.118019654952 0.733 1.07009876968e-38
0.018991668613 -0.118019654952 0.733 1.06087934683e-38
0.020348216371 -0.118019654952 0.733 1.29111814958e-38
0.0217047641291 -0.118019654952 0.733 1.25416660973e-38
0.0230613118872 -0.118019654952 0.733 1.62284375153e-38
0.0244178596452 -0.118019654952 0.733 1.64139133801e-38
0.0257744074033 -0.118019654952 0.733 1.43874017838e-38
0.0271309551614 -0.118019654952 0.733 1.25449367279e-38
0.0297626207984 -0.117697636794 0.731 1.13481633796e-38
-0.073235072145 -0.121119542394 0.761 8.2869287934e-40
-0.071826705373 -0.121119542394 0.761 6.42891913358e-40
-0.070233270694 -0.120801225594 0.759 6.73237732253e-39
-0.0686472387313 -0.120482908794 0.757 6.73307797176e-39
-0.0670686094849 -0.120164591994 0.755 6.18359241014e-39
-0.065584364871 -0.120005433594 0.754 4.15674590355e-39
-0.0638484279037 -0.119368799994 0.75 5.63078577115e-39
-0.0623771380433 -0.119209641594 0.749 7.56508772456e-39
-0.0607466897829 -0.118732166394 0.746 7.19414300158e-39
-0.0592069247969 -0.118413849594 0.744 7.5611290564e-39
-0.0576745625272 -0.118095532794 0.742 8.57420759027e-39
-0.0563013586575 -0.118095532794 0.742 8.11179591263e-39
-0.054854127625 -0.117936374394 0.741 4.51904321371e-39
-0.0534827744344 -0.117936374394 0.741 7.46892081485e-43
-0.0519707696345 -0.117618057594 0.739 1.10780490876e-39
-0.0505346426764 -0.117458899194 0.738 5.53915066068e-40
-0.04903559263 -0.117140582394 0.736 4.60287309174e-40
-0.0475439452998 -0.116822265594 0.734 4.70301968909e-39
-0.0461855468627 -0.116822265594 0.734 7.83831430044e-39
-0.0448271484256 -0.116822265594 0.734 8.1134662604e-39
-0.0434095282582 -0.116663107194 0.733 6.18024190551e-39
-0.0420529805001 -0.116663107194 0.733 7.01215076482e-39
-0.0406964327421 -0.116663107194 0.733 5.90653328296e-39
-0.039339884984 -0.116663107194 0.733 3.7871380193e-39
-0.0379833372259 -0.116663107194 0.733 6.36966662932e-39
-0.0365268527981 -0.116344790394 0.731 1.16258769132e-38
-0.0351740063982 -0.116344790394 0.731 1.16244531939e-38
-0.0338211599982 -0.116344790394 0.731 2.09344531805e-38
-0.0324683135983 -0.116344790394 0.731 2.32343314825e-38
-0.0311154671984 -0.116344790394 0.731 2.27737597098e-38
-0.0297626207984 -0.116344790394 0.731 2.3418050119e-38
-0.0284097743985 -0.116344790394 0.731 2.34180276982e-38
-0.0270569279986 -0.116344790394 0.731 2.35098758061e-38
-0.0257040815987 -0.116344790394 0.731 2.32329357893e-38
-0.0243512351987 -0.116344790394 0.731 2.35098505827e-38
-0.0229983887988 -0.116344790394 0.731 2.33261557683e-38
-0.0216455423989 -0.116344790394 0.731 2.18549843586e-38
-0.0202926959989 -0.116344790394 0.731 1.84469298038e-38
-0.018939849599 -0.116344790394 0.731 1.7895161527e-38
-0.0176351208549 -0.116663107194 0.733 1.68817172542e-38
-0.0162785730968 -0.116663107194 0.733 1.31030991296e-38
-0.0149220253388 -0.116663107194 0.733 1.29197658502e-38
-0.0135654775807 -0.116663107194 0.733 1.57767737969e-38
-0.0122255859342 -0.116822265594 0.734 1.623634224e-38
-0.0108523820646 -0.116663107194 0.733 1.48555503774e-38
-0.00949583430648 -0.116663107194 0.733 1.47640806201e-38
-0.00813928654841 -0.116663107194 0.733 1.51310792866e-38
-0.00678273879034 -0.116663107194 0.733 1.54069473101e-38
-0.00541138559972 -0.116344790394 0.731 1.62370526983e-38
-0.00405853919979 -0.116344790394 0.731 1.66969350322e-38
-0.00270569279986 -0.116344790394 0.731 1.69735191192e-38
-0.00135284639993 -0.116344790394 0.731 1.72490298116e-38
0.0 -0.116344790394 0.731 1.69720939987e-38
0.00135284639993 -0.116344790394 0.731 1.6880589209e-38
0.00270199144172 -0.116185631994 0.73 1.67876733117e-38
0.00405298716258 -0.116185631994 0.73 1.72472235379e-38
0.00541138559972 -0.116344790394 0.731 1.71550180989e-38
0.00676423199965 -0.116344790394 0.731 1.87209172848e-38
0.00811707839958 -0.116344790394 0.731 1.77975386682e-38
0.00946992479951 -0.116344790394 0.731 1.97336286784e-38
0.0108227711994 -0.116344790394 0.731 1.86258784203e-38
0.0121756175994 -0.116344790394 0.731 1.6874866306e-38
0.0135284639993 -0.116344790394 0.731 1.77067513433e-38
0.0149220253388 -0.116663107194 0.733 1.83507096448e-38
0.0162785730968 -0.116663107194 0.733 1.70589338658e-38
0.0176351208549 -0.116663107194 0.733 1.84432541979e-38
0.018991668613 -0.116663107194 0.733 1.69705777937e-38
0.0202926959989 -0.116344790394 0.731 1.27271083308e-38
0.0216455423989 -0.116344790394 0.731 1.44773889673e-38
0.0229983887988 -0.116344790394 0.731 1.82556875959e-38
0.0243512351987 -0.116344790394 0.731 1.30952560621e-38
0.0257040815987 -0.116344790394 0.731 1.16258264664e-38
0.0270569279986 -0.116344790394 0.731 1.13513947739e-38
0.0284097743985 -0.116344790394 0.731 1.1904920279e-38
0.0297626207984 -0.116344790394 0.731 1.25499295543e-38
-0.0733313074566 -0.119868483343 0.762 9.21243037715e-40
-0.071826705373 -0.119711175622 0.761 1.83704623479e-40
-0.070233270694 -0.11939656018 0.759 6.17920354335e-39
-0.0688286052801 -0.11939656018 0.759 5.71892604326e-39
-0.0672462746756 -0.119081944738 0.757 2.80556768139e-40
-0.0656713467873 -0.118767329296 0.755 5.44389739756e-39
-0.0640186903781 -0.118295406133 0.752 5.99742150136e-39
-0.0626269797177 -0.118295406133 0.752 7.28851204536e-39
-0.0609909794201 -0.117823482971 0.749 7.93207518068e-39
-0.0593660831969 -0.117351559808 0.746 7.19234933954e-39
-0.0578300195691 -0.117036944366 0.744 8.11142456853e-39
-0.0564531143412 -0.117036944366 0.744 8.29330189882e-39
-0.0549281547878 -0.116722328924 0.742 8.02245893163e-39
-0.0534827744344 -0.116565021203 0.741 7.24471306056e-43
-0.0519707696345 -0.116250405761 0.739 6.47175682764e-40
-0.050603117802 -0.116250405761 0.739 1.19928447511e-39
-0.04903559263 -0.115778482599 0.736 9.20550796274e-40
-0.0476734928347 -0.115778482599 0.736 5.80793512042e-39
-0.0461855468627 -0.115463867157 0.734 7.46953178098e-39
-0.0447660760163 -0.115306559436 0.733 7.6532041746e-39
-0.0434095282582 -0.115306559436 0.733 7.00748303964e-39
-0.0420529805001 -0.115306559436 0.733 7.193670764e-39
-0.0405853919979 -0.114991943994 0.731 6.4568245912e-39
-0.039232545598 -0.114991943994 0.731 7.47313171674e-39
-0.037879699198 -0.114991943994 0.731 6.18383623607e-39
-0.0364768844632 -0.114834636273 0.73 2.22091233091e-39
-0.0351258887424 -0.114834636273 0.73 9.96636678601e-39
-0.0337748930215 -0.114834636273 0.73 1.01521831663e-38
-0.0324238973006 -0.114834636273 0.73 1.70639995598e-38
-0.0310729015798 -0.114834636273 0.73 2.1763141856e-38
-0.0297219058589 -0.114834636273 0.73 2.28669979057e-38
-0.0283709101381 -0.114834636273 0.73 2.29588558226e-38
-0.0270199144172 -0.114834636273 0.73 2.33251384256e-38
-0.0256689186963 -0.114834636273 0.73 2.35095268827e-38
-0.0243179229755 -0.114834636273 0.73 2.34176507489e-38
-0.0229669272546 -0.114834636273 0.73 2.29548845428e-38
-0.0216159315338 -0.114834636273 0.73 2.32343609098e-38
-0.0202649358129 -0.114834636273 0.73 2.32343370877e-38
-0.018913940092 -0.114834636273 0.73 1.9643331808e-38
-0.0175870031991 -0.114991943994 0.731 1.86305867831e-38
-0.0162341567992 -0.114991943994 0.731 1.90922627791e-38
-0.0148813103992 -0.114991943994 0.731 1.65121920466e-38
-0.0135284639993 -0.114991943994 0.731 1.14428463142e-38
-0.0121756175994 -0.114991943994 0.731 1.36555330232e-38
-0.0108227711994 -0.114991943994 0.731 1.53165145137e-38
-0.00946992479951 -0.114991943994 0.731 1.62384848253e-38
-0.00811707839958 -0.114991943994 0.731 1.66983909813e-38
-0.00676423199965 -0.114991943994 0.731 1.61448570684e-38
-0.00540398288344 -0.114834636273 0.73 1.6328519653e-38
-0.00405298716258 -0.114834636273 0.73 1.67880544649e-38
-0.00270199144172 -0.114834636273 0.73 1.68802472921e-38
-0.00135099572086 -0.114834636273 0.73 1.69717268585e-38
0.0 -0.114834636273 0.73 1.74323420715e-38
0.00135099572086 -0.114834636273 0.73 1.75245377014e-38
0.00270199144172 -0.114834636273 0.73 1.71543300614e-38
0.00405298716258 -0.114834636273 0.73 1.74301952822e-38
0.00540398288344 -0.114834636273 0.73 1.70617420679e-38
0.00676423199965 -0.114991943994 0.731 1.76163451715e-38
0.00810597432516 -0.114834636273 0.73 1.80762681431e-38
0.00945697004602 -0.114834636273 0.73 1.71536083927e-38
0.0108079657669 -0.114834636273 0.73 1.77049871085e-38
0.0121756175994 -0.114991943994 0.731 1.85340317138e-38
0.0135284639993 -0.114991943994 0.731 2.08399804407e-38
0.0148813103992 -0.114991943994 0.731 2.01020650772e-38
0.0162341567992 -0.114991943994 0.731 2.07445982581e-38
0.0175870031991 -0.114991943994 0.731 2.03761562542e-38
0.018939849599 -0.114991943994 0.731 1.83495801982e-38
0.0202926959989 -0.114991943994 0.731 1.98261241862e-38
0.0216455423989 -0.114991943994 0.731 1.42929752868e-38
0.0229983887988 -0.114991943994 0.731 1.03289821909e-38
0.0243512351987 -0.114991943994 0.731 1.162332655e-38
0.0256689186963 -0.114834636273 0.73 1.09840710061e-38
0.0270199144172 -0.114834636273 0.73 1.07114371795e-38
0.0283709101381 -0.114834636273 0.73 7.48357279159e-39
0.0297626207984 -0.114991943994 0.731 9.41685459972e-39
0.0310729015798 -0.114834636273 0.73 8.40303337766e-39
0.0324238973006 -0.114834636273 0.73 1.2274832245e-38
-0.0751338688705 -0.119080094059 0.766 1.2907276077e-39
-0.0733313074566 -0.118458265892 0.762 1.01343586498e-39
-0.071826705373 -0.11830280885 0.761 1.19641881975e-39
-0.070418338601 -0.11830280885 0.761 6.91676858225e-39
-0.0688286052801 -0.117991894766 0.759 6.45649108217e-39
-0.0674239398663 -0.117991894766 0.759 1.47442522469e-39
-0.0658453106198 -0.117680980682 0.757 1.38189748709e-39
-0.0641889528525 -0.117214609557 0.754 1.75319533728e-39
-0.0626269797177 -0.116903695473 0.752 5.90271194205e-39
-0.0610724092991 -0.116592781389 0.75 6.27221052502e-39
-0.0594456623969 -0.116126410264 0.747 1.16188297832e-38
-0.0579854766109 -0.115970953222 0.746 6.7302977956e-39
-0.056604870025 -0.115970953222 0.746 8.02031494498e-39
-0.0550762091134 -0.115660039138 0.744 7.56290450156e-39
-0.0535549509181 -0.115349125054 0.742 3.04604591216e-39
-0.0521114212438 -0.115193668013 0.741 2.15519703813e-42
-0.050603117802 -0.114882753929 0.739 8.29771879158e-40
-0.049168841523 -0.114727296887 0.738 1.8369481439e-40
-0.0476734928347 -0.114416382803 0.736 5.80792531133e-39
-0.0461855468627 -0.11410546872 0.734 7.10110799394e-39
-0.0447660760163 -0.113950011678 0.733 7.74647039649e-39
-0.0434095282582 -0.113950011678 0.733 8.02126782794e-39
-0.0420529805001 -0.113950011678 0.733 7.65248811108e-39
-0.0405853919979 -0.113639097594 0.731 7.19294349009e-39
-0.039232545598 -0.113639097594 0.731 7.10254292356e-39
-0.0378278801841 -0.113483640552 0.73 6.82741058178e-39
-0.0364768844632 -0.113483640552 0.73 6.09166442828e-39
-0.0351258887424 -0.113483640552 0.73 3.41979603466e-39
-0.033682359068 -0.113172726469 0.728 3.60741308346e-39
-0.0323350647053 -0.113172726469 0.728 1.11638309744e-38
-0.0309877703426 -0.113172726469 0.728 1.02418718732e-38
-0.0297219058589 -0.113483640552 0.73 1.77086641157e-38
-0.0283709101381 -0.113483640552 0.73 2.11177920651e-38
-0.0269458872544 -0.113172726469 0.728 2.31425114007e-38
-0.0255985928917 -0.113172726469 0.728 2.05624518785e-38
-0.024251298529 -0.113172726469 0.728 2.35098533853e-38
-0.0229040041662 -0.113172726469 0.728 2.35095170737e-38
-0.0215567098035 -0.113172726469 0.728 2.35088094179e-38
-0.0202094154408 -0.113172726469 0.728 2.3232944197e-38
-0.0188621210781 -0.113172726469 0.728 2.35098463788e-38
-0.0175629443712 -0.113483640552 0.73 2.17623893587e-38
-0.0162119486503 -0.113483640552 0.73 1.87202796939e-38
-0.0148609529295 -0.113483640552 0.73 2.03808576105e-38
-0.0135099572086 -0.113483640552 0.73 1.87234480298e-38
-0.0121589614877 -0.113483640552 0.73 1.614302417e-38
-0.0108079657669 -0.113483640552 0.73 1.40239834349e-38
-0.00945697004602 -0.113483640552 0.73 1.66058296126e-38
-0.00810597432516 -0.113483640552 0.73 1.56842278424e-38
-0.0067364718136 -0.113172726469 0.728 1.59597357322e-38
-0.00538917745088 -0.113172726469 0.728 1.62356037557e-38
-0.00404188308816 -0.113172726469 0.728 1.62348834883e-38
-0.00269458872544 -0.113172726469 0.728 1.67880572675e-38
-0.00134729436272 -0.113172726469 0.728 1.65114675753e-38
0.0 -0.113172726469 0.728 1.69717184507e-38
0.00135099572086 -0.113483640552 0.73 1.86294573366e-38
0.00269458872544 -0.113172726469 0.728 1.75216888616e-38
0.00404188308816 -0.113172726469 0.728 1.82581608877e-38
0.00540398288344 -0.113483640552 0.73 1.7153220233e-38
0.0067549786043 -0.113483640552 0.73 1.72475612508e-38
0.00810597432516 -0.113483640552 0.73 1.81695329637e-38
0.00945697004602 -0.113483640552 0.73 1.7616032682e-38
0.0108079657669 -0.113483640552 0.73 1.71553446015e-38
0.0121589614877 -0.113483640552 0.73 1.88127303601e-38
0.0135099572086 -0.113483640552 0.73 2.0009492498e-38
0.0148609529295 -0.113483640552 0.73 1.65982429827e-38
0.0162119486503 -0.113483640552 0.73 2.09282510335e-38
0.0175870031991 -0.113639097594 0.731 2.11108836637e-38
0.018939849599 -0.113639097594 0.731 2.04665512155e-38
0.0202649358129 -0.113483640552 0.73 1.83485152114e-38
0.0216159315338 -0.113483640552 0.73 1.89044859823e-38
0.0229669272546 -0.113483640552 0.73 2.01013350007e-38
0.0243179229755 -0.113483640552 0.73 1.45736007186e-38
0.0256689186963 -0.113483640552 0.73 7.48244054244e-39
0.0270199144172 -0.113483640552 0.73 8.8672807563e-39
0.0283709101381 -0.113483640552 0.73 1.20938657587e-38
0.0297219058589 -0.113483640552 0.73 1.18201361167e-38
0.0310729015798 -0.113483640552 0.73 9.79325177503e-39
0.0324238973006 -0.113483640552 0.73 5.82737253141e-39
0.0338211599982 -0.113639097594 0.731 1.0068295835e-38
-0.0787834079959 -0.118891324794 0.774 6.45006472741e-40
-0.0770511723867 -0.118430505705 0.771 1.10668947519e-39
-0.0751338688705 -0.117662473892 0.766 1.2907248051e-39
-0.0735237780799 -0.117355261166 0.764 1.19782432211e-39
-0.0719210900056 -0.11704804844 0.762 3.67372813198e-40
-0.0705108725545 -0.11704804844 0.762 5.99480948102e-39
-0.069009971829 -0.116894442078 0.761 6.3642968536e-39
-0.0674239398663 -0.116587229352 0.759 2.6715152664e-39
-0.0658453106198 -0.116280016627 0.757 2.67010556015e-39
-0.0642740840897 -0.115972803901 0.755 1.10422318989e-39
-0.0627935408339 -0.115819197538 0.754 2.21165535326e-39
-0.0612352690573 -0.115511984813 0.752 4.79565112277e-39
-0.0596048207969 -0.115051165724 0.749 5.16514970574e-39
-0.0580632051319 -0.114743952999 0.747 5.81158970681e-39
-0.056604870025 -0.114590346636 0.746 7.56365980143e-39
-0.055224263439 -0.114590346636 0.746 7.47251374411e-39
-0.053843656853 -0.114590346636 0.746 7.4717962793e-39
-0.0523223986577 -0.11428313391 0.744 1.0051834782e-38
-0.0507400680532 -0.113822314822 0.741 2.67403620234e-39
-0.0493687148625 -0.113822314822 0.741 2.75521902757e-40
-0.0476734928347 -0.113054283008 0.736 5.53169014765e-39
-0.0461855468627 -0.112747070282 0.734 7.65463209773e-39
-0.0447660760163 -0.11259346392 0.733 7.74646759389e-39
-0.0434095282582 -0.11259346392 0.733 7.46916744338e-39
-0.0420529805001 -0.11259346392 0.733 7.19294349009e-39
-0.0405853919979 -0.112286251194 0.731 7.10039052912e-39
-0.039232545598 -0.112286251194 0.731 7.19188831235e-39
-0.0378278801841 -0.112132644831 0.73 7.01001798856e-39
-0.0364768844632 -0.112132644831 0.73 5.81361738569e-39
-0.0350296534307 -0.111825432106 0.728 6.46149792158e-39
-0.033682359068 -0.111825432106 0.728 4.70944604384e-39
-0.0323350647053 -0.111825432106 0.728 2.21983613369e-39
-0.0309877703426 -0.111825432106 0.728 5.72429301638e-39
-0.0296404759799 -0.111825432106 0.728 1.16248175315e-38
-0.0282931816171 -0.111825432106 0.728 1.27322384845e-38
-0.0269458872544 -0.111825432106 0.728 1.99241814475e-38
-0.0255985928917 -0.111825432106 0.728 2.26832652562e-38
-0.024251298529 -0.111825432106 0.728 2.32343567059e-38
-0.0229040041662 -0.111825432106 0.728 2.35098828126e-38
-0.0215567098035 -0.111825432106 0.728 2.35098856151e-38
-0.0202094154408 -0.111825432106 0.728 2.35098856151e-38
-0.0188621210781 -0.111825432106 0.728 2.33247796932e-38
-0.0175148267154 -0.111825432106 0.728 2.35098828126e-38
-0.0161675323526 -0.111825432106 0.728 2.31424805721e-38
-0.0148202379899 -0.111825432106 0.728 1.93653001797e-38
-0.0134729436272 -0.111825432106 0.728 1.87206328212e-38
-0.0121256492645 -0.111825432106 0.728 1.83543151857e-38
-0.0107783549018 -0.111825432106 0.728 1.77093073117e-38
-0.00943106053904 -0.111825432106 0.728 1.38374453859e-38
-0.00808376617632 -0.111825432106 0.728 1.36534030495e-38
-0.0067364718136 -0.111825432106 0.728 1.68806032219e-38
-0.00538917745088 -0.111825432106 0.728 1.60515684258e-38
-0.00404188308816 -0.111825432106 0.728 1.69731701959e-38
-0.00269458872544 -0.111825432106 0.728 1.76185396049e-38
-0.00134729436272 -0.111825432106 0.728 1.7250111614e-38
0.0 -0.111825432106 0.728 1.76174606051e-38
0.00134729436272 -0.111825432106 0.728 1.76156767522e-38
0.00269458872544 -0.111825432106 0.728 1.79837207873e-38
0.00404188308816 -0.111825432106 0.728 1.81673749641e-38
0.00538917745088 -0.111825432106 0.728 1.95492402213e-38
0.0067364718136 -0.111825432106 0.728 1.86283643238e-38
0.00808376617632 -0.111825432106 0.728 1.88145492455e-38
0.00943106053904 -0.111825432106 0.728 1.81695553845e-38
0.0107783549018 -0.111825432106 0.728 1.74319342936e-38
0.0121256492645 -0.111825432106 0.728 1.88127331627e-38
0.0135099572086 -0.112132644831 0.73 1.86265580501e-38
0.0148609529295 -0.112132644831 0.73 1.81652141618e-38
0.0162119486503 -0.112132644831 0.73 2.2219338775e-38
0.0175629443712 -0.112132644831 0.73 1.84389718298e-38
0.018913940092 -0.112132644831 0.73 1.87166068907e-38
0.0202649358129 -0.112132644831 0.73 1.89949748306e-38
