# .PCD v0.7 - Point Cloud Data file format
VERSION 0.7
FIELDS x y z rgb
SIZE 4 4 4 4
TYPE F F F F
COUNT 1 1 1 1
WIDTH 838
HEIGHT 1
VIEWPOINT 0 0 0 1 0 0 0
POINTS 838
DATA ascii
0.027865674752 -0.0889047718279 0.717 2.24919599899e-38
0.029192611645 -0.0889047718279 0.717 2.3139508418e-38
0.0305195485379 -0.0889047718279 0.717 1.8901376501e-38
0.0318464854309 -0.0889047718279 0.717 1.03293871662e-38
0.0331734223239 -0.0889047718279 0.717 1.13446321075e-38
0.0345003592168 -0.0889047718279 0.717 1.20821971464e-38
0.0358272961098 -0.0889047718279 0.717 1.15297394307e-38
0.0372578710306 -0.0891527628233 0.719 1.15311715578e-38
0.0385885092817 -0.0891527628233 0.719 1.22687323928e-38
0.0399746679049 -0.0892767583209 0.72 1.12556524576e-38
0.0413071568351 -0.0892767583209 0.72 1.17166278043e-38
0.0426396457652 -0.0892767583209 0.72 1.1901756147e-38
0.0439721346954 -0.0892767583209 0.72 8.86037375617e-39
0.0454304698023 -0.0895247493163 0.722 7.29306766667e-39
0.0467666600906 -0.0895247493163 0.722 2.31382402429e-39
0.0481028503789 -0.0895247493163 0.722 1.02274609198e-39
0.0494390406672 -0.0895247493163 0.722 2.49428744442e-39
0.0507752309555 -0.0895247493163 0.722 1.56948090471e-39
0.0521835977275 -0.0896487448139 0.723 6.45718332361e-40
-0.0381054820445 -0.0867228212048 0.71 2.32343763241e-38
-0.0367914999051 -0.0867228212048 0.71 2.24985965394e-38
-0.0353775810958 -0.0864785315676 0.708 1.5770098011e-38
-0.0340673003145 -0.0864785315676 0.708 6.45940157908e-39
-0.0327570195332 -0.0864785315676 0.708 1.03323228865e-38
-0.0315355713472 -0.0867228212048 0.71 1.71540834328e-38
-0.0302215892077 -0.0867228212048 0.71 1.60462715176e-38
-0.0289076070683 -0.0867228212048 0.71 2.00999659321e-38
-0.0275936249288 -0.0867228212048 0.71 2.02807544534e-38
-0.0262796427893 -0.0867228212048 0.71 1.96325249942e-38
-0.0250008235522 -0.0868449660234 0.711 2.04623024786e-38
-0.0236849907336 -0.0868449660234 0.711 1.53940539629e-38
-0.0223691579151 -0.0868449660234 0.711 1.3922144069e-38
-0.0210533250966 -0.0868449660234 0.711 1.09737056014e-38
-0.019737492278 -0.0868449660234 0.711 1.7889428815e-38
-0.0184734784735 -0.0870892556606 0.713 1.87195271967e-38
-0.0171539442968 -0.0870892556606 0.713 2.11141360774e-38
-0.0158344101201 -0.0870892556606 0.713 2.25899640019e-38
-0.0145148759434 -0.0870892556606 0.713 2.32342347929e-38
-0.0131953417668 -0.0870892556606 0.713 1.94546147399e-38
-0.0118758075901 -0.0870892556606 0.713 1.85351401408e-38
-0.0105562734134 -0.0870892556606 0.713 1.97308344893e-38
-0.00923673923673 -0.0870892556606 0.713 1.90847490167e-38
-0.00791720506005 -0.0870892556606 0.713 2.24052098059e-38
-0.00659767088338 -0.0870892556606 0.713 2.16676475695e-38
-0.0052781367067 -0.0870892556606 0.713 1.9270926932e-38
-0.00395860253003 -0.0870892556606 0.713 2.01014120721e-38
-0.00263906835335 -0.0870892556606 0.713 2.01946614784e-38
-0.00131953417668 -0.0870892556606 0.713 1.92741134847e-38
0.0 -0.0870892556606 0.713 1.98251544876e-38
0.00132138485575 -0.0872114004792 0.714 2.0193218141e-38
0.00264276971149 -0.0872114004792 0.714 2.03783142538e-38
0.00396415456724 -0.0872114004792 0.714 2.0469788215e-38
0.00528553942298 -0.0872114004792 0.714 2.10218900008e-38
0.00660692427873 -0.0872114004792 0.714 2.07445842451e-38
0.00792830913447 -0.0872114004792 0.714 2.06520144686e-38
0.00924969399022 -0.0872114004792 0.714 2.28654130371e-38
0.010571078846 -0.0872114004792 0.714 2.00998818542e-38
0.0118924637017 -0.0872114004792 0.714 1.37376645275e-38
0.0132138485575 -0.0872114004792 0.714 1.62258745405e-38
0.0145352334132 -0.0872114004792 0.714 2.20327727e-38
0.0158566182689 -0.0872114004792 0.714 2.16629181872e-38
0.0172261207805 -0.0874556901164 0.716 2.28614599742e-38
0.0185512069944 -0.0874556901164 0.716 2.22160765521e-38
0.0198762932083 -0.0874556901164 0.716 2.24933654922e-38
0.0212013794222 -0.0874556901164 0.716 2.31387320987e-38
0.022526465636 -0.0874556901164 0.716 2.28610802223e-38
0.0238515518499 -0.0874556901164 0.716 2.30458260105e-38
0.0251766380638 -0.0874556901164 0.716 2.24926284093e-38
0.0265017242777 -0.0874556901164 0.716 2.28610606041e-38
0.0278268104916 -0.0874556901164 0.716 2.29514990057e-38
0.0291518967055 -0.0874556901164 0.716 2.2674930333e-38
0.0304769829193 -0.0874556901164 0.716 2.32295236275e-38
0.0318020691332 -0.0874556901164 0.716 1.79794300114e-38
0.0331734223239 -0.087577834935 0.717 1.04208485157e-38
0.0345003592168 -0.087577834935 0.717 1.12513434648e-38
0.0358272961098 -0.087577834935 0.717 1.2543176697e-38
0.0371542330027 -0.087577834935 0.717 1.15301135774e-38
0.0385885092817 -0.0878221245722 0.719 1.11638449874e-38
0.0399191475328 -0.0878221245722 0.719 1.06124592651e-38
0.0412497857839 -0.0878221245722 0.719 1.00603560779e-38
0.0426396457652 -0.0879442693908 0.72 7.94239013868e-39
0.0439721346954 -0.0879442693908 0.72 3.33155486907e-39
0.0454304698023 -0.088188559028 0.722 4.71015650217e-40
0.0467666600906 -0.088188559028 0.722 2.03616514138e-39
0.0481028503789 -0.088188559028 0.722 2.77157918714e-39
0.0494390406672 -0.088188559028 0.722 2.30845424858e-39
0.0507752309555 -0.088188559028 0.722 1.66166812679e-39
0.0521835977275 -0.0883107038466 0.723 3.78350585368e-43
-0.0393084234398 -0.0851682507863 0.708 2.32343721202e-38
-0.0379981426585 -0.0851682507863 0.708 1.81653991332e-38
-0.0366878618772 -0.0851682507863 0.708 7.65759864658e-39
-0.0353775810958 -0.0851682507863 0.708 9.68731921632e-39
-0.0340673003145 -0.0851682507863 0.708 1.23631266599e-38
-0.0328495534867 -0.0854088390653 0.71 1.10727353639e-38
-0.0315355713472 -0.0854088390653 0.71 1.97293925532e-38
-0.0302215892077 -0.0854088390653 0.71 1.98187085147e-38
-0.0289076070683 -0.0854088390653 0.71 1.99119887496e-38
-0.0275936249288 -0.0854088390653 0.71 1.81624381896e-38
-0.0262796427893 -0.0854088390653 0.71 1.30016409169e-38
-0.0249656606499 -0.0854088390653 0.71 1.32800228698e-38
-0.0236516785104 -0.0854088390653 0.71 1.32814563981e-38
-0.0223376963709 -0.0854088390653 0.71 1.59565603899e-38
-0.0210533250966 -0.0855291332048 0.711 1.86327531906e-38
-0.019737492278 -0.0855291332048 0.711 1.85394953765e-38
-0.0184216594595 -0.0855291332048 0.711 1.88142521703e-38
-0.017105826641 -0.0855291332048 0.711 1.96407800435e-38
-0.0157899938224 -0.0855291332048 0.711 2.01003078489e-38
-0.0144741610039 -0.0855291332048 0.711 2.04680085659e-38
-0.0131583281854 -0.0855291332048 0.711 2.33257620034e-38
-0.0118424953668 -0.0855291332048 0.711 1.99173501175e-38
-0.0105266625483 -0.0855291332048 0.711 2.01006876008e-38
-0.00921082972975 -0.0855291332048 0.711 2.06528048009e-38
-0.00789499691122 -0.0855291332048 0.711 2.1300301381e-38
-0.00657916409268 -0.0855291332048 0.711 1.81656527683e-38
-0.00526333127414 -0.0855291332048 0.711 1.99198472314e-38
-0.00394749845561 -0.0855291332048 0.711 2.09329411795e-38
-0.00263166563707 -0.0855291332048 0.711 1.96414834953e-38
-0.00131953417668 -0.0857697214839 0.713 1.95485900188e-38
0.0 -0.0857697214839 0.713 2.01013840461e-38
0.00131953417668 -0.0857697214839 0.713 2.01939229941e-38
0.00263906835335 -0.0857697214839 0.713 2.04708602083e-38
0.00395860253003 -0.0857697214839 0.713 2.01935572552e-38
0.0052781367067 -0.0857697214839 0.713 2.07449471814e-38
0.00659767088338 -0.0857697214839 0.713 2.02836060958e-38
0.00791720506005 -0.0857697214839 0.713 2.01913908478e-38
0.00923673923673 -0.0857697214839 0.713 1.6135831305e-38
0.0105562734134 -0.0857697214839 0.713 1.18926967525e-38
0.0118758075901 -0.0857697214839 0.713 2.35089747711e-38
0.0131953417668 -0.0857697214839 0.713 2.2678493835e-38
0.0145352334132 -0.0858900156234 0.714 2.3047279157e-38
0.0158566182689 -0.0858900156234 0.714 2.35086188413e-38
0.0171780031247 -0.0858900156234 0.714 2.15710700794e-38
0.0185512069944 -0.0861306039025 0.716 2.25855751351e-38
0.0198762932083 -0.0861306039025 0.716 2.22171457429e-38
0.0212013794222 -0.0861306039025 0.716 2.22153352652e-38
0.022526465636 -0.0861306039025 0.716 2.23071819718e-38
0.0238515518499 -0.0861306039025 0.716 2.11097177834e-38
0.0251766380638 -0.0861306039025 0.716 2.14802701428e-38
0.0265017242777 -0.0861306039025 0.716 2.15724657727e-38
0.0278268104916 -0.0861306039025 0.716 2.10160886252e-38
0.0291518967055 -0.0861306039025 0.716 2.20284510955e-38
0.0304769829193 -0.0861306039025 0.716 2.26741456058e-38
0.0318020691332 -0.0861306039025 0.716 2.20341992218e-38
0.0331271553471 -0.0861306039025 0.716 1.90864852255e-38
0.034452241561 -0.0861306039025 0.716 1.02364544533e-38
0.0358272961098 -0.086250898042 0.717 1.06985452336e-38
0.0371542330027 -0.086250898042 0.717 1.16223204177e-38
0.0385885092817 -0.0864914863211 0.719 1.05192126614e-38
0.0399191475328 -0.0864914863211 0.719 8.40122149875e-39
0.0412497857839 -0.0864914863211 0.719 6.00628471415e-39
0.0426396457652 -0.0866117804606 0.72 5.69308329698e-40
0.0439721346954 -0.0866117804606 0.72 1.14808383182e-41
0.0454304698023 -0.0868523687397 0.722 2.12982512814e-39
0.0467666600906 -0.0868523687397 0.722 2.58825571684e-39
0.0481028503789 -0.0868523687397 0.722 3.41514372376e-39
0.0494390406672 -0.0868523687397 0.722 1.56981301245e-39
0.0507752309555 -0.0868523687397 0.722 4.63123537265e-40
0.0521835977275 -0.0869726628792 0.723 5.88545355016e-44
-0.0406187042211 -0.0838579700049 0.708 2.33262006098e-38
-0.0393084234398 -0.0838579700049 0.708 9.22671661499e-39
-0.0379981426585 -0.0838579700049 0.708 6.64918783789e-39
-0.0366878618772 -0.0838579700049 0.708 1.07990491621e-38
-0.0353775810958 -0.0838579700049 0.708 1.20865173496e-38
-0.0340673003145 -0.0838579700049 0.708 1.88113851136e-38
-0.0327570195332 -0.0838579700049 0.708 1.52100116265e-38
-0.0314467387519 -0.0838579700049 0.708 1.79755315991e-38
-0.0302215892077 -0.0840948569259 0.71 1.94528238805e-38
-0.0289076070683 -0.0840948569259 0.71 1.73334103999e-38
-0.0275936249288 -0.0840948569259 0.71 1.56764099983e-38
-0.0262796427893 -0.0840948569259 0.71 1.39257720307e-38
-0.0249656606499 -0.0840948569259 0.71 1.2358446323e-38
-0.0236516785104 -0.0840948569259 0.71 2.04712988147e-38
-0.0223376963709 -0.0840948569259 0.71 2.07471640356e-38
-0.0210533250966 -0.0842133003863 0.711 1.62324073939e-38
-0.019737492278 -0.0842133003863 0.711 2.17637808481e-38
-0.0184216594595 -0.0842133003863 0.711 1.83514607407e-38
-0.017105826641 -0.0842133003863 0.711 2.01943055486e-38
-0.0157899938224 -0.0842133003863 0.711 2.16683636331e-38
-0.0144741610039 -0.0842133003863 0.711 2.00081346398e-38
-0.0131583281854 -0.0842133003863 0.711 2.14829185969e-38
-0.0118424953668 -0.0842133003863 0.711 2.24059468888e-38
-0.0105118571157 -0.0840948569259 0.71 1.8810673254e-38
-0.00919787497627 -0.0840948569259 0.71 2.01939706382e-38
-0.0078838928368 -0.0840948569259 0.71 2.08400449004e-38
-0.00656991069733 -0.0840948569259 0.71 1.94571048473e-38
-0.00525592855787 -0.0840948569259 0.71 1.98265908185e-38
-0.00394749845561 -0.0842133003863 0.711 1.92734170394e-38
-0.00263166563707 -0.0842133003863 0.711 2.03797645977e-38
-0.00131583281854 -0.0842133003863 0.711 1.90886740537e-38
0.0 -0.0842133003863 0.711 2.01010379254e-38
0.00131583281854 -0.0842133003863 0.711 2.07463891175e-38
0.00263906835335 -0.0844501873072 0.713 2.00095317344e-38
0.00395860253003 -0.0844501873072 0.713 2.03768905346e-38
0.0052781367067 -0.0844501873072 0.713 2.02836229114e-38
0.00657916409268 -0.0842133003863 0.711 2.0468351884e-38
0.00789499691122 -0.0842133003863 0.711 2.07449107477e-38
0.00921082972975 -0.0842133003863 0.711 1.54901115714e-38
0.0105562734134 -0.0844501873072 0.713 2.2679953988e-38
0.0118424953668 -0.0842133003863 0.711 2.20338657128e-38
0.0131583281854 -0.0842133003863 0.711 2.14810450608e-38
0.0145148759434 -0.0844501873072 0.713 2.22175310999e-38
0.0158344101201 -0.0844501873072 0.713 2.09267922818e-38
0.0171539442968 -0.0844501873072 0.713 2.27703405415e-38
0.0184993879804 -0.0845686307677 0.714 2.16643419065e-38
0.0198207728362 -0.0845686307677 0.714 2.15728511297e-38
0.0211421576919 -0.0845686307677 0.714 2.23078700093e-38
0.022526465636 -0.0848055176886 0.716 2.25841037717e-38
0.0238515518499 -0.0848055176886 0.716 2.13866535963e-38
0.0251766380638 -0.0848055176886 0.716 2.19412623051e-38
0.0265017242777 -0.0848055176886 0.716 2.14802813532e-38
0.0277490819706 -0.0845686307677 0.714 2.17565165169e-38
0.0290704668264 -0.0845686307677 0.714 2.08331252886e-38
0.0304769829193 -0.0848055176886 0.716 2.22153366665e-38
0.0318020691332 -0.0848055176886 0.716 2.18443947461e-38
0.0331271553471 -0.0848055176886 0.716 2.34139008742e-38
0.034452241561 -0.0848055176886 0.716 1.93619987205e-38
0.0357773277749 -0.0848055176886 0.716 9.59432204374e-39
0.0371542330027 -0.0849239611491 0.717 7.01753455352e-39
0.0384811698957 -0.0849239611491 0.717 9.1402088556e-39
0.0399191475328 -0.08516084807 0.719 2.13302289123e-39
0.0412497857839 -0.08516084807 0.719 1.03673665585e-40
0.0426396457652 -0.0852792915304 0.72 2.12801605182e-39
0.0439721346954 -0.0852792915304 0.72 2.49535943775e-39
0.0454304698023 -0.0855161784514 0.722 2.86519573365e-39
0.0467666600906 -0.0855161784514 0.722 2.77336023749e-39
0.0481028503789 -0.0855161784514 0.722 3.32369918988e-39
0.0495075157928 -0.0856346219118 0.723 5.56039434539e-40
0.0508455567601 -0.0856346219118 0.723 3.58732406867e-43
-0.0419289850025 -0.0825476892236 0.708 1.30942779558e-38
-0.0406187042211 -0.0825476892236 0.708 6.18137555596e-39
-0.0393084234398 -0.0825476892236 0.708 1.17141699268e-38
-0.0379981426585 -0.0825476892236 0.708 1.09762503594e-38
-0.0366878618772 -0.0825476892236 0.708 1.49388561698e-38
-0.0353775810958 -0.0825476892236 0.708 1.08796994939e-38
-0.0340673003145 -0.0825476892236 0.708 1.67769715953e-38
-0.0327570195332 -0.0825476892236 0.708 1.74191250244e-38
-0.0314467387519 -0.0825476892236 0.708 1.64089429744e-38
-0.0301364579705 -0.0825476892236 0.708 1.41069318962e-38
-0.0288261771892 -0.0825476892236 0.708 1.53983895804e-38
-0.0275158964079 -0.0825476892236 0.708 1.6413983445e-38
-0.0262056156265 -0.0825476892236 0.708 1.81664192785e-38
-0.0248953348452 -0.0825476892236 0.708 2.03783955291e-38
-0.0235850540639 -0.0825476892236 0.708 2.11156004343e-38
-0.0222747732826 -0.0825476892236 0.708 2.30506296616e-38
-0.0210237142315 -0.0827808747864 0.71 2.30505876227e-38
-0.019709732092 -0.0827808747864 0.71 2.08403938237e-38
-0.0183957499525 -0.0827808747864 0.71 2.34179296073e-38
-0.0170817678131 -0.0827808747864 0.71 2.02865151914e-38
-0.0157677856736 -0.0827808747864 0.71 1.9180171837e-38
-0.0144538035341 -0.0827808747864 0.71 1.97329896863e-38
-0.0131398213947 -0.0827808747864 0.71 1.93642099695e-38
-0.0118258392552 -0.0827808747864 0.71 1.88110361903e-38
-0.0105118571157 -0.0827808747864 0.71 2.01943237655e-38
-0.00919787497627 -0.0827808747864 0.71 1.93645616954e-38
-0.0078838928368 -0.0827808747864 0.71 2.09318846005e-38
-0.00656991069733 -0.0827808747864 0.71 2.04712567758e-38
-0.00525592855787 -0.0827808747864 0.71 1.89964812265e-38
-0.0039419464184 -0.0827808747864 0.71 2.05641600614e-38
-0.00262796427893 -0.0827808747864 0.71 1.95500067316e-38
-0.00131583281854 -0.0828974675678 0.711 2.05641558575e-38
0.0 -0.0828974675678 0.711 2.05620132721e-38
0.00131583281854 -0.0828974675678 0.711 2.02864829616e-38
0.00263166563707 -0.0828974675678 0.711 2.01942733187e-38
0.00394749845561 -0.0828974675678 0.711 2.07463919201e-38
0.00526333127414 -0.0828974675678 0.711 2.09297125878e-38
0.00657916409268 -0.0828974675678 0.711 2.08378476644e-38
0.00789499691122 -0.0828974675678 0.711 1.69659661205e-38
0.00921082972975 -0.0828974675678 0.711 2.21289241954e-38
0.0105266625483 -0.0828974675678 0.711 2.15732519011e-38
0.0118424953668 -0.0828974675678 0.711 2.17576431608e-38
0.0131583281854 -0.0828974675678 0.711 2.20338629102e-38
0.0144741610039 -0.0828974675678 0.711 2.19416672803e-38
0.0157899938224 -0.0828974675678 0.711 2.20331426428e-38
0.0171539442968 -0.0831306531306 0.713 2.17569074791e-38
0.0184734784735 -0.0831306531306 0.713 2.16654167024e-38
0.0198207728362 -0.0832472459119 0.714 2.14810086271e-38
0.0211421576919 -0.0832472459119 0.714 2.13870151313e-38
0.0224635425477 -0.0832472459119 0.714 2.14795624871e-38
0.0237849274034 -0.0832472459119 0.714 2.12958816857e-38
0.0251063122592 -0.0832472459119 0.714 2.14795624871e-38
0.0264276971149 -0.0832472459119 0.714 2.13866648067e-38
0.0277490819706 -0.0832472459119 0.714 2.08327763653e-38
0.0290704668264 -0.0832472459119 0.714 2.18465527458e-38
0.0303918516821 -0.0832472459119 0.714 2.19398021521e-38
0.0317132365379 -0.0832472459119 0.714 2.17546934276e-38
0.0331271553471 -0.0834804314747 0.716 2.24944388869e-38
0.034452241561 -0.0834804314747 0.716 2.30505385772e-38
0.0357773277749 -0.0834804314747 0.716 1.0701410889e-38
0.0371542330027 -0.0835970242561 0.717 4.98821055125e-39
0.0384811698957 -0.0835970242561 0.717 9.31986793041e-40
0.0399191475328 -0.0838302098189 0.719 3.78462689245e-40
0.0412497857839 -0.0838302098189 0.719 1.85357595148e-39
0.0426396457652 -0.0839468026003 0.72 2.95489985484e-39
0.044094279514 -0.0841799881631 0.722 2.86233568348e-39
0.0454933928907 -0.0842965809444 0.723 2.86447826883e-39
0.046831433858 -0.0842965809444 0.723 2.86555446605e-39
0.0481694748254 -0.0842965809444 0.723 1.38865875218e-39
0.0496444660439 -0.0845297665072 0.725 1.38687349793e-39
0.0511268599787 -0.08476295207 0.727 7.17464813734e-43
0.0527610095973 -0.0852293231956 0.731 8.570990209e-39
-0.0445495465651 -0.0812374084423 0.708 1.87193029889e-38
-0.0432392657838 -0.0812374084423 0.708 6.73384868591e-39
-0.0419289850025 -0.0812374084423 0.708 1.05185120121e-38
-0.0406187042211 -0.0812374084423 0.708 9.96422980586e-39
-0.0393084234398 -0.0812374084423 0.708 1.21700879874e-38
-0.0379981426585 -0.0812374084423 0.708 2.0645274223e-38
-0.0366878618772 -0.0812374084423 0.708 1.92580349861e-38
-0.035327612761 -0.08112266634 0.707 2.35026156787e-38
-0.0340191826587 -0.08112266634 0.707 2.28575923904e-38
-0.0327107525564 -0.08112266634 0.707 2.35055009523e-38
-0.0314467387519 -0.0812374084423 0.708 2.07432291895e-38
-0.0301364579705 -0.0812374084423 0.708 1.79787994271e-38
-0.0288261771892 -0.0812374084423 0.708 1.95479215994e-38
-0.0274770321474 -0.08112266634 0.707 2.12081618031e-38
-0.0261686020451 -0.08112266634 0.707 2.2407065125e-38
-0.0248601719429 -0.08112266634 0.707 2.26832904796e-38
-0.0235850540639 -0.0812374084423 0.708 2.24988978186e-38
-0.0222747732826 -0.0812374084423 0.708 2.30506352668e-38
-0.0210237142315 -0.0814668926469 0.71 2.10241082563e-38
-0.0196542117199 -0.0812374084423 0.708 2.13006895407e-38
-0.0183439309386 -0.0812374084423 0.708 2.15772764303e-38
-0.0170817678131 -0.0814668926469 0.71 2.33261235384e-38
-0.0157677856736 -0.0814668926469 0.71 2.21308061393e-38
-0.0144538035341 -0.0814668926469 0.71 1.92730933394e-38
-0.0131398213947 -0.0814668926469 0.71 2.06563795133e-38
-0.0118258392552 -0.0814668926469 0.71 1.94578307199e-38
-0.0104822462506 -0.0812374084423 0.708 1.96415017122e-38
-0.00917196546929 -0.0812374084423 0.708 1.93645588928e-38
-0.00786168468796 -0.0812374084423 0.708 1.98258929719e-38
-0.00655140390664 -0.0812374084423 0.708 1.91805207603e-38
-0.00524112312531 -0.0812374084423 0.708 2.00102786264e-38
-0.00393084234398 -0.0812374084423 0.708 2.05638097367e-38
-0.00262796427893 -0.0814668926469 0.71 2.0010633155e-38
-0.00131398213947 -0.0814668926469 0.71 2.01950216121e-38
0.0 -0.0814668926469 0.71 2.01028259822e-38
0.00131398213947 -0.0814668926469 0.71 2.01031636952e-38
0.00263166563707 -0.0815816347492 0.711 2.0011675721e-38
0.00394749845561 -0.0815816347492 0.711 2.01939314019e-38
0.00526333127414 -0.0815816347492 0.711 2.05616461319e-38
0.00657916409268 -0.0815816347492 0.711 1.95478319163e-38
0.00789499691122 -0.0815816347492 0.711 1.60443755608e-38
0.00921082972975 -0.0815816347492 0.711 2.14839219266e-38
0.0105266625483 -0.0815816347492 0.711 2.16661663971e-38
0.0118424953668 -0.0815816347492 0.711 2.14814107997e-38
0.0131583281854 -0.0815816347492 0.711 2.11126170699e-38
0.0144741610039 -0.0815816347492 0.711 2.07438317479e-38
0.0157899938224 -0.0815816347492 0.711 2.10193396376e-38
0.017105826641 -0.0815816347492 0.711 2.09274985363e-38
0.0184734784735 -0.0818111189539 0.713 2.07434547986e-38
0.0197930126501 -0.0818111189539 0.713 2.10200290765e-38
0.0211125468268 -0.0818111189539 0.713 2.07445478114e-38
0.0224320810035 -0.0818111189539 0.713 2.08367322308e-38
0.0237849274034 -0.0819258610562 0.714 2.11118547635e-38
0.0251063122592 -0.0819258610562 0.714 2.10171424016e-38
0.0264276971149 -0.0819258610562 0.714 2.12001155473e-38
0.0277490819706 -0.0819258610562 0.714 2.15685491434e-38
0.0290704668264 -0.0819258610562 0.714 2.14774100926e-38
0.0303918516821 -0.0819258610562 0.714 2.16635655871e-38
0.0317132365379 -0.0819258610562 0.714 2.22210721812e-38
0.0331271553471 -0.0821553452608 0.716 1.67830195995e-38
0.034452241561 -0.0821553452608 0.716 7.19546302473e-39
0.0357773277749 -0.0821553452608 0.716 2.31095416504e-39
0.0371542330027 -0.0822700873632 0.717 9.97318130045e-41
0.0385885092817 -0.0824995715678 0.719 1.57521922193e-39
0.0399191475328 -0.0824995715678 0.719 2.9581326504e-39
0.0413071568351 -0.0826143136701 0.72 2.58825571684e-39
0.0427580892257 -0.0828437978748 0.722 3.78393465101e-39
0.0441553519233 -0.0829585399771 0.723 3.23111259774e-39
0.0454933928907 -0.0829585399771 0.723 3.14070222212e-39
0.0469609813929 -0.0831880241817 0.725 3.32652560888e-39
0.0484359726114 -0.0834175083864 0.727 2.86447826883e-39
0.0501922670485 -0.0841059610003 0.733 1.87975781198e-40
0.0514081631973 -0.0838764767956 0.731 1.84747189537e-40
0.0527610095973 -0.0838764767956 0.731 1.55799740393e-38
-0.0469036103417 -0.079475561968 0.704 2.1853967016e-38
-0.045795053579 -0.0798142362377 0.707 8.57886270377e-39
-0.0445495465651 -0.079927127661 0.708 6.55125108822e-39
-0.0432392657838 -0.079927127661 0.708 1.09776950981e-38
-0.0419289850025 -0.079927127661 0.708 1.04244848852e-38
-0.0406187042211 -0.079927127661 0.708 1.67830854605e-38
-0.0392529030677 -0.0798142362377 0.707 1.93573800408e-38
-0.0379444729655 -0.0798142362377 0.707 2.35022681567e-38
-0.0366360428632 -0.0798142362377 0.707 2.18366469669e-38
-0.035327612761 -0.0798142362377 0.707 2.34990283546e-38
-0.0340191826587 -0.0798142362377 0.707 2.03701264669e-38
-0.0327107525564 -0.0798142362377 0.707 1.75149584251e-38
-0.0314023224542 -0.0798142362377 0.707 1.84390755259e-38
-0.0300938923519 -0.0798142362377 0.707 1.96383347777e-38
-0.0287854622497 -0.0798142362377 0.707 2.13911293436e-38
-0.0274381678869 -0.0797013448145 0.706 2.19450191863e-38
-0.0261315884638 -0.0797013448145 0.706 2.23141576355e-38
-0.0248250090406 -0.0797013448145 0.706 2.32343188708e-38
-0.0235517418406 -0.0798142362377 0.707 2.30506422733e-38
-0.0222433117384 -0.0798142362377 0.707 2.24992607549e-38
-0.0209348816361 -0.0798142362377 0.707 2.13932663237e-38
-0.0196264515339 -0.0798142362377 0.707 2.08400925446e-38
-0.0183180214316 -0.0798142362377 0.707 2.0563505655e-38
-0.0170336501573 -0.079927127661 0.708 1.99181334433e-38
-0.0157233693759 -0.079927127661 0.708 2.09326370977e-38
-0.0144130885946 -0.079927127661 0.708 1.98269971951e-38
-0.0131028078133 -0.079927127661 0.708 2.08414952443e-38
-0.0117925270319 -0.079927127661 0.708 2.05656188131e-38
-0.0104822462506 -0.079927127661 0.708 1.99188088692e-38
-0.00917196546929 -0.079927127661 0.708 2.03797870185e-38
-0.00786168468796 -0.079927127661 0.708 2.03797870185e-38
-0.00655140390664 -0.079927127661 0.708 1.94578307199e-38
-0.00524112312531 -0.079927127661 0.708 2.01032001289e-38
-0.00393084234398 -0.079927127661 0.708 1.97344176095e-38
-0.00262056156265 -0.079927127661 0.708 2.03801429483e-38
-0.00131028078133 -0.079927127661 0.708 1.96425751068e-38
0.0 -0.079927127661 0.708 1.98266132393e-38
0.00131398213947 -0.0801529105075 0.71 2.01957292678e-38
0.00262796427893 -0.0801529105075 0.71 1.96432603418e-38
0.0039419464184 -0.0801529105075 0.71 2.03790485342e-38
0.00525592855787 -0.0801529105075 0.71 2.0285780911e-38
0.00656991069733 -0.0801529105075 0.71 1.76124425553e-38
0.00789499691122 -0.0802658019307 0.711 1.97332797551e-38
0.00921082972975 -0.0802658019307 0.711 2.06552388563e-38
0.0105266625483 -0.0802658019307 0.711 2.11133471464e-38
0.0118424953668 -0.0802658019307 0.711 2.11129772036e-38
0.0131583281854 -0.0802658019307 0.711 2.10207675608e-38
0.0144741610039 -0.0802658019307 0.711 2.10211234906e-38
0.0157899938224 -0.0802658019307 0.711 2.0835653231e-38
0.017105826641 -0.0802658019307 0.711 2.09278488609e-38
0.0184216594595 -0.0802658019307 0.711 2.03750268076e-38
0.019737492278 -0.0802658019307 0.711 2.04672084245e-38
0.0210533250966 -0.0802658019307 0.711 1.9914422805e-38
0.0223691579151 -0.0802658019307 0.711 2.06509088441e-38
0.0237516151802 -0.0804915847772 0.713 2.08331280912e-38
0.0250711493568 -0.0804915847772 0.713 2.10164263381e-38
0.0263906835335 -0.0804915847772 0.713 2.13852088576e-38
0.0277102177102 -0.0804915847772 0.713 2.18472772171e-38
0.0290297518869 -0.0804915847772 0.713 2.20334887635e-38
0.0303918516821 -0.0806044762005 0.714 1.87162579674e-38
0.0317132365379 -0.0806044762005 0.714 9.68544568027e-39
0.0331271553471 -0.080830259047 0.716 1.20462342226e-39
0.034452241561 -0.080830259047 0.716 3.2285916618e-42
0.0358272961098 -0.0809431504702 0.717 1.20499196376e-39
0.0371542330027 -0.0809431504702 0.717 2.58934592705e-39
0.0385885092817 -0.0811689333167 0.719 2.86555446605e-39
0.0399746679049 -0.08128182474 0.72 3.78606742727e-39
0.0413071568351 -0.08128182474 0.72 4.15270596007e-39
0.0427580892257 -0.0815076075865 0.722 3.78357031341e-39
0.0441553519233 -0.0816204990097 0.723 3.23146432366e-39
0.0458080083325 -0.082184956126 0.728 3.04779753524e-39
0.0471553026952 -0.082184956126 0.728 3.04958699337e-39
0.048635845951 -0.0824107389725 0.73 1.39008807661e-39
0.0501922670485 -0.0827494132422 0.733 1.38650075254e-39
0.0515488148066 -0.0827494132422 0.733 9.18453052472e-41
0.0529053625647 -0.0827494132422 0.733 1.88057252691e-38
-0.0482064884068 -0.0781726839029 0.704 1.30035256633e-38
-0.0469036103417 -0.0781726839029 0.704 7.10372001427e-39
-0.045795053579 -0.0785058061354 0.707 1.14376166684e-38
-0.0444866234768 -0.0785058061354 0.707 1.25446522643e-38
-0.0431781933745 -0.0785058061354 0.707 1.43899759691e-38
-0.0418697632722 -0.0785058061354 0.707 1.82528415587e-38
-0.04056133317 -0.0785058061354 0.707 2.00938674811e-38
-0.0392529030677 -0.0785058061354 0.707 2.28586671863e-38
-0.0379444729655 -0.0785058061354 0.707 2.01843100866e-38
-0.0366360428632 -0.0785058061354 0.707 1.88021113204e-38
-0.0352776444261 -0.0783947653913 0.706 1.84372692522e-38
-0.0339710650029 -0.0783947653913 0.706 2.06524712919e-38
-0.0326644855797 -0.0783947653913 0.706 2.14833263747e-38
-0.0313579061565 -0.0783947653913 0.706 2.35098505827e-38
-0.0300513267333 -0.0783947653913 0.706 2.35098533853e-38
-0.0287447473101 -0.0783947653913 0.706 2.33261725839e-38
-0.027360439366 -0.0781726839029 0.704 2.29588221915e-38
-0.026057561301 -0.0781726839029 0.704 2.30506534837e-38
-0.0247546832359 -0.0781726839029 0.704 2.30506506811e-38
-0.0235184296174 -0.0783947653913 0.706 2.22223221394e-38
-0.0222118501942 -0.0783947653913 0.706 2.03794857393e-38
-0.0209348816361 -0.0785058061354 0.707 2.06567774821e-38
-0.0196264515339 -0.0785058061354 0.707 2.02887138287e-38
-0.0183180214316 -0.0785058061354 0.707 1.96429912925e-38
-0.0170095913293 -0.0785058061354 0.707 2.04727519612e-38
-0.0157011612271 -0.0785058061354 0.707 2.16712923469e-38
-0.0143927311248 -0.0785058061354 0.707 2.0196513995e-38
-0.0130843010226 -0.0785058061354 0.707 1.94596566118e-38
-0.0117758709203 -0.0785058061354 0.707 1.99209850857e-38
-0.0104674408181 -0.0785058061354 0.707 2.04727043171e-38
-0.0091590107158 -0.0785058061354 0.707 2.00110044991e-38
-0.00785058061354 -0.0785058061354 0.707 2.01953985614e-38
-0.00654215051129 -0.0785058061354 0.707 1.89968581757e-38
-0.00523372040903 -0.0785058061354 0.707 2.0102848403e-38
-0.00392529030677 -0.0785058061354 0.707 1.96422275848e-38
-0.00261686020451 -0.0785058061354 0.707 2.0748569538e-38
-0.00130843010226 -0.0785058061354 0.707 2.00113604289e-38
0.0 -0.0786168468796 0.708 1.93649344408e-38
0.00131028078133 -0.0786168468796 0.708 2.01946726888e-38
0.00262796427893 -0.078838928368 0.71 1.92734170394e-38
0.0039419464184 -0.078838928368 0.71 2.04708924382e-38
0.00525592855787 -0.078838928368 0.71 2.12073812798e-38
0.00656991069733 -0.078838928368 0.71 1.2449487283e-38
0.0078838928368 -0.078838928368 0.71 2.03786463616e-38
0.00921082972975 -0.0789499691122 0.711 2.09318229433e-38
0.0105266625483 -0.0789499691122 0.711 2.01917397711e-38
0.0118424953668 -0.0789499691122 0.711 2.00995329308e-38
0.0131583281854 -0.0789499691122 0.711 1.98229292257e-38
0.0144741610039 -0.0789499691122 0.711 2.02842619035e-38
0.0157899938224 -0.0789499691122 0.711 2.05597711946e-38
0.017105826641 -0.0789499691122 0.711 2.00062414856e-38
0.0184216594595 -0.0789499691122 0.711 1.98222061557e-38
0.019737492278 -0.0789499691122 0.711 2.03750155972e-38
0.0210533250966 -0.0789499691122 0.711 2.07412996015e-38
0.0223691579151 -0.0789499691122 0.711 2.13859501445e-38
0.0236849907336 -0.0789499691122 0.711 2.04636182978e-38
0.0250008235522 -0.0789499691122 0.711 2.110969256e-38
0.0263906835335 -0.0791720506005 0.713 2.19416154323e-38
0.0277102177102 -0.0791720506005 0.713 2.09303810072e-38
0.0290297518869 -0.0791720506005 0.713 1.47551333294e-38
0.0303918516821 -0.0792830913447 0.714 4.79949768706e-39
0.0317132365379 -0.0792830913447 0.714 2.86985925494e-42
0.0331271553471 -0.0795051728331 0.716 1.11351239741e-39
0.034452241561 -0.0795051728331 0.716 2.03652807768e-39
0.0358272961098 -0.0796162135772 0.717 2.86627193087e-39
0.0371542330027 -0.0796162135772 0.717 3.69566125555e-39
0.0385885092817 -0.0798382950656 0.719 3.60203209735e-39
0.0399746679049 -0.0799493358098 0.72 4.42999630149e-39
0.0414218989374 -0.0801714172981 0.722 4.15161574987e-39
0.0428173109559 -0.0802824580423 0.723 3.23110278865e-39
0.0442774967419 -0.0805045395307 0.725 2.95559630018e-39
0.0459338545092 -0.0810597432516 0.73 2.95632077148e-39
0.0473496239975 -0.0811707839958 0.731 3.23362652719e-39
0.0488357192905 -0.0813928654841 0.733 9.28758201379e-40
0.0502607421741 -0.0815039062283 0.734 4.63123537265e-40
0.0515488148066 -0.0813928654841 0.733 2.75538718339e-40
0.0529053625647 -0.0813928654841 0.733 1.98188122108e-38
-0.0507400680532 -0.0767606157727 0.703 1.75193108581e-38
-0.0494390406672 -0.0767606157727 0.703 5.99628364701e-39
-0.0482064884068 -0.0768698058379 0.704 1.14368978023e-38
-0.0469036103417 -0.0768698058379 0.704 1.30045766372e-38
-0.0456007322767 -0.0768698058379 0.704 1.38339645605e-38
-0.0442978542116 -0.0768698058379 0.704 1.42952790215e-38
-0.0431171209652 -0.0770881859681 0.706 2.00113884548e-38
-0.041810541542 -0.0770881859681 0.706 2.35040660226e-38
-0.0405039621188 -0.0770881859681 0.706 2.34093452529e-38
-0.0391973826956 -0.0770881859681 0.706 1.86198472317e-38
-0.0379444729655 -0.0771973760332 0.707 1.79784645168e-38
-0.0365842238493 -0.0770881859681 0.706 1.81661053877e-38
-0.0352776444261 -0.0770881859681 0.706 1.67849463849e-38
-0.0339710650029 -0.0770881859681 0.706 1.94575322433e-38
-0.0326644855797 -0.0770881859681 0.706 2.05620987513e-38
-0.0313579061565 -0.0770881859681 0.706 2.18521369202e-38
-0.0300513267333 -0.0770881859681 0.706 2.30499640449e-38
-0.0286633174311 -0.0768698058379 0.704 2.3418022093e-38
-0.027360439366 -0.0768698058379 0.704 2.34180178891e-38
-0.026057561301 -0.0768698058379 0.704 2.35098477801e-38
-0.0247546832359 -0.0768698058379 0.704 2.32343314825e-38
-0.0234518051709 -0.0768698058379 0.704 2.15780345328e-38
-0.0221489271058 -0.0768698058379 0.704 2.06560754315e-38
-0.020905270771 -0.0770881859681 0.706 1.98280874053e-38
-0.0195986913478 -0.0770881859681 0.706 2.14876059403e-38
-0.0182921119246 -0.0770881859681 0.706 2.05653007183e-38
-0.0169855325014 -0.0770881859681 0.706 2.05649475911e-38
-0.0156789530783 -0.0770881859681 0.706 2.04727547638e-38
-0.0143723736551 -0.0770881859681 0.706 2.04727491586e-38
-0.0130657942319 -0.0770881859681 0.706 2.00121227352e-38
-0.0117592148087 -0.0770881859681 0.706 1.98280832014e-38
-0.0104526353855 -0.0770881859681 0.706 2.10262410326e-38
-0.00914605596231 -0.0770881859681 0.706 2.04727043171e-38
-0.00785058061354 -0.0771973760332 0.707 2.00113716392e-38
-0.00654215051129 -0.0771973760332 0.707 1.94582006627e-38
-0.00522631769275 -0.0770881859681 0.706 1.95500403627e-38
-0.00391973826956 -0.0770881859681 0.706 1.97347847497e-38
-0.00261315884638 -0.0770881859681 0.706 1.93663567587e-38
-0.00130657942319 -0.0770881859681 0.706 1.9735133673e-38
0.0 -0.0771973760332 0.707 2.10244585809e-38
0.00130843010226 -0.0771973760332 0.707 2.09315188616e-38
0.00261686020451 -0.0771973760332 0.707 1.95496409927e-38
0.00393084234398 -0.0773065660983 0.708 1.75199092125e-38
0.00525592855787 -0.0775249462285 0.71 1.06967165391e-38
0.00656991069733 -0.0775249462285 0.71 1.8995014067e-38
0.0078838928368 -0.0775249462285 0.71 2.09310998733e-38
0.00919787497627 -0.0775249462285 0.71 2.17605046123e-38
0.0105118571157 -0.0775249462285 0.71 1.95470752152e-38
0.0118258392552 -0.0775249462285 0.71 1.96392540295e-38
0.0131398213947 -0.0775249462285 0.71 2.01924123943e-38
0.0144538035341 -0.0775249462285 0.71 1.90864207658e-38
0.0157677856736 -0.0775249462285 0.71 1.92693784972e-38
0.0170817678131 -0.0775249462285 0.71 1.98222047544e-38
0.0183957499525 -0.0775249462285 0.71 2.04675755647e-38
0.019709732092 -0.0775249462285 0.71 1.95448989987e-38
0.0210237142315 -0.0775249462285 0.71 2.0278174663e-38
0.0223691579151 -0.0776341362936 0.711 1.95413144772e-38
0.0236849907336 -0.0776341362936 0.711 2.04664811506e-38
0.0250008235522 -0.0776341362936 0.711 2.17601024396e-38
0.0263166563707 -0.0776341362936 0.711 1.7981925724e-38
0.0277102177102 -0.0778525164239 0.713 8.39508521277e-39
0.0290297518869 -0.0778525164239 0.713 7.4544594147e-40
0.0303918516821 -0.077961706489 0.714 6.81591573048e-42
0.0317132365379 -0.077961706489 0.714 1.85322422556e-39
0.0331271553471 -0.0781800866192 0.716 2.4975034244e-39
0.034452241561 -0.0781800866192 0.716 3.32725288278e-39
0.0358272961098 -0.0782892766843 0.717 4.34067473478e-39
0.0372578710306 -0.0785076568145 0.719 4.2473973025e-39
0.0386421789747 -0.0786168468796 0.72 3.96973701829e-39
0.0400857086491 -0.0788352270098 0.722 4.15305768599e-39
0.0414792699885 -0.078944417075 0.723 3.69172781076e-39
0.0429357544164 -0.0791627972052 0.725 3.69243266388e-39
0.0443996415605 -0.0793811773354 0.727 3.32544941166e-39
0.0459967775976 -0.0798179375958 0.731 3.23326218959e-39
0.0474791715324 -0.0800363177261 0.733 2.67938075468e-39
0.048902343737 -0.0801455077912 0.734 1.5723241393e-39
0.0502607421741 -0.0801455077912 0.734 3.58732406867e-43
0.0515488148066 -0.0800363177261 0.733 4.42182392885e-39
0.0529053625647 -0.0800363177261 0.733 2.06471491603e-38
-0.0520410954391 -0.0754595883868 0.703 9.86779244554e-39
-0.0507400680532 -0.0754595883868 0.703 7.38029289088e-39
-0.0494390406672 -0.0754595883868 0.703 1.26361458436e-38
-0.0481380132812 -0.0754595883868 0.703 1.23599106799e-38
-0.0468369858952 -0.0754595883868 0.703 1.4387139741e-38
-0.0455359585093 -0.0754595883868 0.703 1.63207340387e-38
-0.0442349311233 -0.0754595883868 0.703 1.71490555739e-38
-0.0429949761466 -0.0755669277728 0.704 1.88082125739e-38
-0.0416920980815 -0.0755669277728 0.704 2.1567992828e-38
-0.0403892200165 -0.0755669277728 0.704 2.00024509732e-38
-0.0390863419515 -0.0755669277728 0.704 1.87156624155e-38
-0.0377834638864 -0.0755669277728 0.704 1.90862638204e-38
-0.0364805858214 -0.0755669277728 0.704 2.22234403756e-38
-0.0351777077563 -0.0755669277728 0.704 2.23159765209e-38
-0.0338748296913 -0.0755669277728 0.704 2.34180108826e-38
-0.0325719516262 -0.0755669277728 0.704 2.33261922021e-38
-0.0312690735612 -0.0755669277728 0.704 2.34180431125e-38
-0.0299661954961 -0.0755669277728 0.704 2.33262034124e-38
-0.0286633174311 -0.0755669277728 0.704 2.35098702009e-38
-0.027360439366 -0.0755669277728 0.704 2.26804598567e-38
-0.026057561301 -0.0755669277728 0.704 2.13904286943e-38
-0.0247546832359 -0.0755669277728 0.704 2.17606419395e-38
-0.0234518051709 -0.0755669277728 0.704 2.16698756341e-38
-0.0221489271058 -0.0755669277728 0.704 2.08408296276e-38
-0.020905270771 -0.0757816065449 0.706 2.01968671222e-38
-0.0195986913478 -0.0757816065449 0.706 1.95511361781e-38
-0.0182921119246 -0.0757816065449 0.706 2.02883494911e-38
-0.0169855325014 -0.0757816065449 0.706 2.01954462055e-38
-0.0156789530783 -0.0757816065449 0.706 2.06564243548e-38
-0.0143723736551 -0.0757816065449 0.706 2.01036023016e-38
-0.0130657942319 -0.0757816065449 0.706 2.15794400351e-38
-0.0117592148087 -0.0757816065449 0.706 2.04734428014e-38
-0.0104526353855 -0.0757816065449 0.706 2.03808730248e-38
-0.00914605596231 -0.0757816065449 0.706 2.04723483873e-38
-0.00783947653913 -0.0757816065449 0.706 2.04719966614e-38
-0.00653289711594 -0.0757816065449 0.706 2.15783470223e-38
-0.00522631769275 -0.0757816065449 0.706 2.03798052354e-38
-0.00391973826956 -0.0757816065449 0.706 2.0564548221e-38
-0.00261315884638 -0.0757816065449 0.706 1.9827334908e-38
-0.00130657942319 -0.0757816065449 0.706 2.0380503082e-38
0.0 -0.0757816065449 0.706 2.09315188616e-38
0.00130657942319 -0.0757816065449 0.706 1.84425661604e-38
0.00261686020451 -0.0758889459309 0.707 1.29118863489e-38
0.00393084234398 -0.075996285317 0.708 1.65982934294e-38
0.00525592855787 -0.0762109640891 0.71 2.14835940227e-38
0.00656991069733 -0.0762109640891 0.71 2.10225934527e-38
0.0078838928368 -0.0762109640891 0.71 1.99162290787e-38
0.00919787497627 -0.0762109640891 0.71 1.93627063762e-38
0.0105118571157 -0.0762109640891 0.71 2.028499198e-38
0.0118258392552 -0.0762109640891 0.71 1.96399588826e-38
0.0131028078133 -0.075996285317 0.708 1.99165303579e-38
0.0144130885946 -0.075996285317 0.708 1.92715140761e-38
0.0157677856736 -0.0762109640891 0.71 2.01920424516e-38
0.0170817678131 -0.0762109640891 0.71 1.93615797323e-38
0.0183957499525 -0.0762109640891 0.71 2.0283184305e-38
0.019709732092 -0.0762109640891 0.71 2.00058813519e-38
0.0210237142315 -0.0762109640891 0.71 2.04654497949e-38
0.0223376963709 -0.0762109640891 0.71 2.17586997399e-38
0.0236516785104 -0.0762109640891 0.71 1.90889781355e-38
0.0250008235522 -0.0763183034751 0.711 1.11630644642e-38
0.0263166563707 -0.0763183034751 0.711 4.15699113078e-39
0.0276324891893 -0.0763183034751 0.711 5.73971850987e-42
0.0290297518869 -0.0765329822472 0.713 1.57663733597e-39
0.0303918516821 -0.0766403216332 0.714 2.03796440861e-39
0.0318020691332 -0.0768550004053 0.716 3.23684250716e-39
0.0331271553471 -0.0768550004053 0.716 3.7875009556e-39
0.0345003592168 -0.0769623397913 0.717 5.26014232734e-39
0.0359272327795 -0.0771770185634 0.719 5.99662976773e-39
0.0373096900446 -0.0772843579495 0.72 5.62854089101e-39
0.0387495183608 -0.0774990367215 0.722 4.89204224024e-39
0.0401412290212 -0.0776063761076 0.723 4.24704557659e-39
0.0415940120909 -0.0778210548797 0.725 3.96977064945e-39
0.0430541978768 -0.0780357336517 0.727 4.06122779502e-39
0.0445828587884 -0.0783577518099 0.73 3.60167616754e-39
0.0461226237743 -0.078679769968 0.733 3.41764784412e-39
0.0474791715324 -0.078679769968 0.733 2.77157918714e-39
0.048902343737 -0.078787109354 0.734 2.30775359935e-39
0.0502607421741 -0.078787109354 0.734 0.0
0.0516191406113 -0.078787109354 0.734 1.01386340114e-38
-0.0520410954391 -0.0741585610008 0.703 1.18975242257e-38
-0.0507400680532 -0.0741585610008 0.703 1.47573641966e-38
-0.0494390406672 -0.0741585610008 0.703 1.58636949394e-38
-0.0481380132812 -0.0741585610008 0.703 1.55863863811e-38
-0.0468369858952 -0.0741585610008 0.703 1.82586373292e-38
-0.0455359585093 -0.0741585610008 0.703 1.88075189311e-38
-0.0442349311233 -0.0741585610008 0.703 1.88968503069e-38
-0.0429339037373 -0.0741585610008 0.703 1.99092127773e-38
-0.0416328763513 -0.0741585610008 0.703 1.79788610843e-38
-0.0403318489653 -0.0741585610008 0.703 1.93646485759e-38
-0.0390308215794 -0.0741585610008 0.703 2.28669894979e-38
-0.0377297941934 -0.0741585610008 0.703 2.25882642268e-38
-0.0364805858214 -0.0742640497078 0.704 2.35087897997e-38
-0.0351777077563 -0.0742640497078 0.704 2.35098589905e-38
-0.0338267120354 -0.0741585610008 0.703 2.35098631944e-38
-0.0325256846495 -0.0741585610008 0.703 2.35088094179e-38
-0.0312246572635 -0.0741585610008 0.703 2.31414674333e-38
-0.0299661954961 -0.0742640497078 0.704 2.33262104189e-38
-0.0286633174311 -0.0742640497078 0.704 2.33258432787e-38
-0.027360439366 -0.0742640497078 0.704 2.35098687996e-38
-0.026057561301 -0.0742640497078 0.704 2.35098589905e-38
-0.0247546832359 -0.0742640497078 0.704 2.25896851435e-38
-0.0234518051709 -0.0742640497078 0.704 2.2130856586e-38
-0.0221489271058 -0.0742640497078 0.704 2.1487280839e-38
-0.020905270771 -0.0744750271217 0.706 2.06578480741e-38
-0.0195986913478 -0.0744750271217 0.706 2.01039526262e-38
-0.0182402929107 -0.0742640497078 0.704 2.0472384821e-38
-0.0169374148456 -0.0742640497078 0.704 2.01958021353e-38
-0.0156345367806 -0.0742640497078 0.704 2.03801905925e-38
-0.0143316587155 -0.0742640497078 0.704 1.91819963276e-38
-0.0130287806505 -0.0742640497078 0.704 2.11191667389e-38
-0.0117259025854 -0.0742640497078 0.704 2.01975593636e-38
-0.0104230245204 -0.0742640497078 0.704 2.01957614977e-38
-0.00914605596231 -0.0744750271217 0.706 2.01035700717e-38
-0.00783947653913 -0.0744750271217 0.706 2.01954125744e-38
-0.00653289711594 -0.0744750271217 0.706 2.13936012341e-38
-0.00522631769275 -0.0744750271217 0.706 1.97344358263e-38
-0.00391973826956 -0.0744750271217 0.706 1.91812578433e-38
-0.00261315884638 -0.0744750271217 0.706 2.04727043171e-38
-0.00130657942319 -0.0744750271217 0.706 1.90901201937e-38
0.0 -0.0744750271217 0.706 1.36494696047e-38
0.00130657942319 -0.0744750271217 0.706 1.33732050138e-38
0.00261315884638 -0.0744750271217 0.706 2.0472614634e-38
0.00392529030677 -0.0745805158287 0.707 2.08396273135e-38
0.00524112312531 -0.0746860045356 0.708 1.97315001061e-38
0.00655140390664 -0.0746860045356 0.708 2.00077198555e-38
0.00786168468796 -0.0746860045356 0.708 2.01917425737e-38
0.00917196546929 -0.0746860045356 0.708 1.93612784531e-38
0.0104822462506 -0.0746860045356 0.708 1.8348518014e-38
0.0117925270319 -0.0746860045356 0.708 1.88105471371e-38
0.0131028078133 -0.0746860045356 0.708 1.85339448333e-38
0.0144130885946 -0.0746860045356 0.708 1.83499095033e-38
0.0157233693759 -0.0746860045356 0.708 1.80715387608e-38
0.0170336501573 -0.0746860045356 0.708 1.94537725595e-38
0.0183439309386 -0.0746860045356 0.708 1.91764808168e-38
0.0196542117199 -0.0746860045356 0.708 2.03743107441e-38
0.0210237142315 -0.0748969819496 0.71 1.94559557825e-38
0.0223376963709 -0.0748969819496 0.71 1.50334746447e-38
0.0236516785104 -0.0748969819496 0.71 7.38308567872e-39
0.0250008235522 -0.0750024706566 0.711 1.76173485012e-39
0.0263166563707 -0.0750024706566 0.711 1.02956200771e-40
0.0276324891893 -0.0750024706566 0.711 1.76174465921e-39
0.0290297518869 -0.0752134480705 0.713 2.86699079698e-39
0.0303918516821 -0.0753189367775 0.714 3.60310829457e-39
0.0318020691332 -0.0755299141914 0.716 4.79986903115e-39
0.0331271553471 -0.0755299141914 0.716 5.25941925733e-39
0.0345003592168 -0.0756354028984 0.717 5.90334953285e-39
0.0359772011144 -0.0759518690193 0.72 5.71930999904e-39
0.0374651470864 -0.0762683351402 0.723 5.71965752106e-39
0.0389105274398 -0.0764793125542 0.725 4.89169051432e-39
0.0402522697653 -0.0764793125542 0.725 3.7875037582e-39
0.0417087541932 -0.0766902899681 0.727 3.97333555274e-39
0.0432318630675 -0.077006756089 0.73 4.33889088183e-39
0.0447660760163 -0.0773232222099 0.733 3.23218879496e-39
0.0461226237743 -0.0773232222099 0.733 2.49606008698e-39
0.0475439452998 -0.0774287109169 0.734 2.03437147934e-39
0.048902343737 -0.0774287109169 0.734 2.30704874622e-39
0.0502607421741 -0.0774287109169 0.734 1.85105921943e-40
0.0516191406113 -0.0774287109169 0.734 1.61327428432e-38
-0.0568380555877 -0.0723393434753 0.698 1.74263907569e-38
-0.0557054399971 -0.0725466195311 0.7 7.93059260691e-39
-0.0546431502111 -0.0728575336148 0.703 1.20808308804e-38
-0.0533421228251 -0.0728575336148 0.703 1.60452401619e-38
-0.0518930411136 -0.072650257559 0.701 1.69661062503e-38
-0.0505957150857 -0.072650257559 0.701 1.62285384088e-38
-0.0492983890579 -0.072650257559 0.701 1.84412335256e-38
-0.0480010630301 -0.072650257559 0.701 2.02844328619e-38
-0.0467037370022 -0.072650257559 0.701 2.00071383166e-38
-0.0454064109744 -0.072650257559 0.701 2.05588869752e-38
-0.0440461618582 -0.0725466195311 0.7 2.22173405233e-38
-0.0427506865094 -0.0725466195311 0.7 2.12950296962e-38
-0.0415144328909 -0.072650257559 0.701 2.18507174048e-38
-0.040217106863 -0.072650257559 0.701 2.29577768228e-38
-0.0389197808352 -0.072650257559 0.701 2.3418036106e-38
-0.0376224548073 -0.072650257559 0.701 2.350988001e-38
-0.0364287668074 -0.0728575336148 0.703 2.35098828126e-38
-0.0351277394214 -0.0728575336148 0.703 2.350988001e-38
-0.0338267120354 -0.0728575336148 0.703 2.350988001e-38
-0.0325256846495 -0.0728575336148 0.703 2.35095268827e-38
-0.0312246572635 -0.0728575336148 0.703 2.35091597425e-38
-0.0299236298775 -0.0728575336148 0.703 2.35098730035e-38
-0.0286226024915 -0.0728575336148 0.703 2.31410862801e-38
-0.0273215751056 -0.0728575336148 0.703 2.30506773058e-38
-0.0260205477196 -0.0728575336148 0.703 2.30506674967e-38
-0.0247195203336 -0.0728575336148 0.703 2.09323133978e-38
-0.0234184929476 -0.0728575336148 0.703 2.05638938146e-38
-0.0221489271058 -0.0729611716427 0.704 2.15776912146e-38
-0.0208460490408 -0.0729611716427 0.704 2.11159773836e-38
-0.0195431709757 -0.0729611716427 0.704 2.03783983317e-38
-0.0182402929107 -0.0729611716427 0.704 2.19467946314e-38
-0.0169374148456 -0.0729611716427 0.704 2.19467890262e-38
-0.0156345367806 -0.0729611716427 0.704 2.06567760808e-38
-0.0143316587155 -0.0729611716427 0.704 2.01965167975e-38
-0.0130287806505 -0.0729611716427 0.704 2.03812583819e-38
-0.0117259025854 -0.0729611716427 0.704 2.08429441869e-38
-0.0104230245204 -0.0729611716427 0.704 2.11184730962e-38
-0.00912014645534 -0.0729611716427 0.704 2.0565299317e-38
-0.00781726839029 -0.0729611716427 0.704 1.97351729093e-38
-0.00651439032524 -0.0729611716427 0.704 1.81678500043e-38
-0.00521151226019 -0.0729611716427 0.704 1.99184907744e-38
-0.00390863419515 -0.0729611716427 0.704 1.96418842667e-38
-0.00261315884638 -0.0731684476985 0.706 1.68781257263e-38
-0.00130657942319 -0.0731684476985 0.706 1.24541297848e-38
0.0 -0.0731684476985 0.706 1.91815409056e-38
0.00130657942319 -0.0731684476985 0.706 2.15768658498e-38
0.00261315884638 -0.0731684476985 0.706 2.07474793278e-38
0.00392529030677 -0.0732720857264 0.707 1.98269327354e-38
0.00523372040903 -0.0732720857264 0.707 1.91829716313e-38
0.00654215051129 -0.0732720857264 0.707 1.89971384354e-38
0.00785058061354 -0.0732720857264 0.707 1.92715757332e-38
0.0091590107158 -0.0732720857264 0.707 1.84410961983e-38
0.0104822462506 -0.0733757237543 0.708 1.8625102101e-38
0.0117758709203 -0.0732720857264 0.707 1.87169305906e-38
0.0130843010226 -0.0732720857264 0.707 1.79789942076e-38
0.0143927311248 -0.0732720857264 0.707 1.8532868636e-38
0.0157011612271 -0.0732720857264 0.707 1.96392021814e-38
0.0170336501573 -0.0733757237543 0.708 1.90860424152e-38
0.0183439309386 -0.0733757237543 0.708 1.98229264231e-38
0.0196542117199 -0.0733757237543 0.708 1.8623346274e-38
0.0209644925012 -0.0733757237543 0.708 1.00571274862e-38
0.0223376963709 -0.0735829998101 0.71 2.77551263193e-39
0.0236516785104 -0.0735829998101 0.71 6.54327910126e-40
0.0250008235522 -0.073686637838 0.711 1.75994118809e-39
0.0263166563707 -0.073686637838 0.711 2.68153174782e-39
0.0276324891893 -0.073686637838 0.711 3.23290625978e-39
0.0290297518869 -0.0738939138938 0.713 4.70658459238e-39
0.0303918516821 -0.0739975519217 0.714 5.71929318346e-39
0.0318020691332 -0.0742048279775 0.716 6.08630306035e-39
0.0331734223239 -0.0743084660054 0.717 5.90191460322e-39
0.0346447121842 -0.0746193800891 0.72 6.91677979264e-39
0.036127106119 -0.0749302941728 0.723 6.18028534576e-39
0.0375687851143 -0.0751375702286 0.725 5.72038059107e-39
0.0390178668259 -0.0753448462844 0.727 5.35087360031e-39
