# .PCD v0.7 - Point Cloud Data file format
VERSION 0.7
FIELDS x y z rgb
SIZE 4 4 4 4
TYPE F F F F
COUNT 1 1 1 1
WIDTH 830
HEIGHT 1
VIEWPOINT 0 0 0 1 0 0 0
POINTS 830
DATA ascii
-0.0800992408144 -0.027971163459 0.687 6.53615630116e-39
-0.0787130821912 -0.0279304485195 0.686 6.35141331552e-39
-0.0774435163495 -0.0279304485195 0.686 6.99569952085e-39
-0.0759518690193 -0.0278490186404 0.684 8.28606419225e-39
-0.0745768144705 -0.0278083037009 0.683 7.54848514036e-39
-0.0733128006659 -0.0278083037009 0.683 8.00873741707e-39
-0.0719432981544 -0.0277675887613 0.682 8.56119513273e-39
-0.0706811350289 -0.0277675887613 0.682 8.09912957581e-39
-0.0694189719034 -0.0277675887613 0.682 7.54667886664e-39
-0.0679569354383 -0.0276861588823 0.68 8.37824300653e-39
-0.0666984736709 -0.0276861588823 0.68 6.26062599061e-39
-0.0653437765919 -0.0276454439427 0.679 4.97276964347e-39
-0.0640871655036 -0.0276454439427 0.679 4.32920230425e-39
-0.0627380204618 -0.0276047290032 0.678 3.31612937557e-39
-0.0614832600526 -0.0276047290032 0.678 3.40904106895e-39
-0.0602284996434 -0.0276047290032 0.678 3.50341711922e-39
-0.0589737392341 -0.0276047290032 0.678 2.95061188154e-39
-0.0575487163505 -0.0275232991241 0.676 2.85841765298e-39
-0.0562976572994 -0.0275232991241 0.676 3.0428089127e-39
-0.0550465982483 -0.0275232991241 0.676 2.21376290615e-39
-0.0537955391972 -0.0275232991241 0.676 2.3992275605e-39
-0.0525444801461 -0.0275232991241 0.676 2.21626282261e-39
-0.051293421095 -0.0275232991241 0.676 2.03186735899e-39
-0.0500423620439 -0.0275232991241 0.676 1.93826342417e-39
-0.0487913029928 -0.0275232991241 0.676 9.43466230061e-41
-0.047680895551 -0.0276047290032 0.678 5.62391660608e-39
-0.0464261351418 -0.0276047290032 0.678 9.58721605922e-39
-0.0453046236255 -0.0276861588823 0.68 1.04155586139e-38
-0.044175709393 -0.0277675887613 0.682 1.03240832515e-38
-0.0430393924443 -0.0278490186404 0.684 1.00471768659e-38
-0.0419567451885 -0.027971163459 0.687 1.014011098e-38
-0.0409222155886 -0.0281340232171 0.691 1.07854719813e-38
-0.0399876226584 -0.0283783128543 0.697 1.078474751e-38
-0.0387532197189 -0.0284190277939 0.698 1.19832878956e-38
-0.0379444729655 -0.0287854622497 0.707 1.17066982034e-38
-0.0366360428632 -0.0287854622497 0.707 1.32743798409e-38
-0.0355274861005 -0.0289483220078 0.711 1.35506108007e-38
-0.0343078885936 -0.0290297518869 0.713 1.09691359671e-38
-0.0330346213936 -0.0290704668264 0.714 1.0323766558e-38
-0.0322018158123 -0.0295183311613 0.725 9.67697763365e-39
-0.030945204724 -0.0295997610403 0.727 1.02305031387e-38
-0.0296404759799 -0.0296404759799 0.728 1.22598579696e-38
-0.0282931816171 -0.0296404759799 0.728 1.17995832721e-38
-0.0273530366497 -0.0300883403147 0.739 1.23520311787e-38
-0.0259853848173 -0.0300883403147 0.739 1.25360623047e-38
-0.0250507918871 -0.0306176345286 0.752 1.28108485258e-38
-0.0236590812267 -0.0306176345286 0.752 1.36402448569e-38
-0.0223265922965 -0.0306990644077 0.754 1.43778098958e-38
-0.0981748232879 -0.0271272538032 0.698 2.35098856151e-38
-0.0968830492973 -0.0271272538032 0.698 2.35098856151e-38
-0.0955912753066 -0.0271272538032 0.698 2.35098856151e-38
-0.0941644017439 -0.0270883895428 0.697 2.35098856151e-38
-0.0928744784324 -0.0270883895428 0.697 2.35098828126e-38
-0.091190360479 -0.0269717967614 0.694 2.35098786087e-38
-0.0899059892046 -0.0269717967614 0.694 1.8623534048e-38
-0.0884939210745 -0.0269329325009 0.693 1.38156397805e-39
-0.0869597081257 -0.02685520398 0.691 5.25624391501e-39
-0.0855568933909 -0.0268163397195 0.69 5.99376971756e-39
-0.0842799248328 -0.0268163397195 0.69 6.26926359435e-39
-0.0830029562747 -0.0268163397195 0.69 5.53061395043e-39
-0.0817259877167 -0.0268163397195 0.69 6.17419670393e-39
-0.0804490191586 -0.0268163397195 0.69 6.44863680427e-39
-0.0789425663959 -0.0267386111986 0.688 6.53975763822e-39
-0.077669299196 -0.0267386111986 0.688 6.62979386715e-39
-0.0761739505077 -0.0266608826777 0.686 7.73504561011e-39
-0.0746860045356 -0.0265831541568 0.684 9.39419280096e-39
-0.073420140052 -0.0265831541568 0.684 8.10201064545e-39
-0.0720487868614 -0.0265442898963 0.683 7.91654178721e-39
-0.0707847730568 -0.0265442898963 0.683 8.5579413177e-39
-0.0694189719034 -0.0265054256358 0.682 8.65013694756e-39
-0.0681568087778 -0.0265054256358 0.682 7.91401664737e-39
-0.0666984736709 -0.0264276971149 0.68 8.83813374824e-39
-0.0654400119036 -0.0264276971149 0.68 8.2878410387e-39
-0.0640871655036 -0.0263888328544 0.679 7.36732387359e-39
-0.0628305544153 -0.0263888328544 0.679 7.921935385e-39
-0.0614832600526 -0.026349968594 0.678 5.71031926809e-39
-0.0602284996434 -0.026349968594 0.678 3.96186592481e-39
-0.0589737392341 -0.026349968594 0.678 4.23954162331e-39
-0.0575487163505 -0.0262722400731 0.676 2.7644129468e-39
-0.0562976572994 -0.0262722400731 0.676 2.58074055318e-39
-0.0550465982483 -0.0262722400731 0.676 2.76620941143e-39
-0.0537955391972 -0.0262722400731 0.676 1.93860393969e-39
-0.0525444801461 -0.0262722400731 0.676 1.84748030316e-39
-0.051293421095 -0.0262722400731 0.676 1.75672240552e-39
-0.0500423620439 -0.0262722400731 0.676 8.33360604525e-40
-0.0487913029928 -0.0262722400731 0.676 5.55328976218e-40
-0.047680895551 -0.026349968594 0.678 1.29144367121e-39
-0.0464261351418 -0.026349968594 0.678 9.49611624476e-39
-0.0453046236255 -0.0264276971149 0.68 1.03248063215e-38
-0.044175709393 -0.0265054256358 0.682 1.03244531943e-38
-0.0430393924443 -0.0265831541568 0.684 1.00489719292e-38
-0.0420178175978 -0.0267386111986 0.688 1.00497090122e-38
-0.041040659049 -0.0269329325009 0.693 1.04170411877e-38
-0.0400449937095 -0.0271272538032 0.698 1.07850978346e-38
-0.0389197808352 -0.0272438465846 0.701 1.21680322825e-38
-0.0379444729655 -0.0274770321474 0.707 1.07850964333e-38
-0.0366360428632 -0.0274770321474 0.707 1.15226628735e-38
-0.0356274227702 -0.0277102177102 0.713 1.16148585033e-38
-0.0343078885936 -0.0277102177102 0.713 9.95498123599e-39
-0.0330346213936 -0.0277490819706 0.714 9.6783943464e-39
-0.0322018158123 -0.0281765888357 0.725 9.67732375437e-39
-0.030945204724 -0.0282543173567 0.727 1.06918274088e-38
-0.0296404759799 -0.0282931816171 0.728 1.21680140656e-38
-0.0282931816171 -0.0282931816171 0.728 1.22598355488e-38
-0.0273530366497 -0.0287206884822 0.739 1.21672769826e-38
-0.0259853848173 -0.0287206884822 0.739 1.28119303282e-38
-0.0250507918871 -0.0292259238682 0.752 1.29952397855e-38
-0.023722004315 -0.0293036523892 0.754 1.37324404868e-38
-0.0223265922965 -0.0293036523892 0.754 1.37331593529e-38
-0.0968830492973 -0.0258354798126 0.698 2.35098856151e-38
-0.0955912753066 -0.0258354798126 0.698 2.35098856151e-38
-0.094299501316 -0.0258354798126 0.698 2.35098856151e-38
-0.0928744784324 -0.0257984662312 0.697 2.35084506855e-38
-0.0915845551208 -0.0257984662312 0.697 2.35098758061e-38
-0.0901650842744 -0.0257614526498 0.696 2.22191495997e-38
-0.0886216179303 -0.025687425487 0.694 1.28794182635e-39
-0.0872114004792 -0.0256504119056 0.693 5.16261755942e-39
-0.0856808888886 -0.0255763847429 0.691 6.54730643304e-39
-0.0844020696514 -0.0255763847429 0.691 6.17921475373e-39
-0.0831232504143 -0.0255763847429 0.691 5.44058472799e-39
-0.0818444311771 -0.0255763847429 0.691 4.33460010594e-39
-0.08056561194 -0.0255763847429 0.691 4.70231203336e-39
-0.0792867927028 -0.0255763847429 0.691 4.97782692963e-39
-0.0778950820425 -0.0255393711615 0.69 5.52884130787e-39
-0.0766181134844 -0.0255393711615 0.69 6.08055913795e-39
-0.0751227647961 -0.0254653439987 0.688 7.27801211597e-39
-0.0737421582101 -0.0254283304173 0.687 8.10633084862e-39
-0.0721542755683 -0.0253172896731 0.684 8.565511132e-39
-0.0707847730568 -0.0252802760917 0.683 9.02108026925e-39
-0.0695207592522 -0.0252802760917 0.683 8.28207329422e-39
-0.0681568087778 -0.0252432625103 0.682 8.00620947464e-39
-0.0668946456523 -0.0252432625103 0.682 8.10020577303e-39
-0.0654400119036 -0.0251692353475 0.68 8.37787166244e-39
-0.0641815501362 -0.0251692353475 0.68 8.65589768555e-39
-0.0628305544153 -0.0251322217661 0.679 7.45843069455e-39
-0.061573943327 -0.0251322217661 0.679 8.19671459957e-39
-0.0602284996434 -0.0250952081847 0.678 6.63300564323e-39
-0.0589737392341 -0.0250952081847 0.678 7.55604934947e-39
-0.0577189788249 -0.0250952081847 0.678 4.6979848237e-39
-0.0562976572994 -0.025021181022 0.676 2.486374312e-39
-0.0550465982483 -0.025021181022 0.676 3.31721398058e-39
-0.0537955391972 -0.025021181022 0.676 2.76692267234e-39
-0.0525444801461 -0.025021181022 0.676 1.2017605695e-39
-0.051293421095 -0.025021181022 0.676 1.84857051336e-39
-0.0500423620439 -0.025021181022 0.676 6.49322472011e-40
-0.0489356559602 -0.0250952081847 0.678 9.24467425481e-40
-0.047680895551 -0.0250952081847 0.678 1.84532931001e-39
-0.0464946102673 -0.0251322217661 0.679 9.49576031495e-39
-0.0454378725186 -0.0252432625103 0.682 1.02329624176e-38
-0.0442404831605 -0.0252802760917 0.683 9.86419110849e-39
-0.0432281617094 -0.0254283304173 0.687 1.0234068042e-38
-0.0420178175978 -0.0254653439987 0.688 9.86602260558e-39
-0.0418697632722 -0.0261686020451 0.707 1.19847186213e-38
-0.04056133317 -0.0261686020451 0.707 1.29052329838e-38
-0.0393084234398 -0.0262056156265 0.708 1.36424420929e-38
-0.0379981426585 -0.0262056156265 0.708 1.49331823123e-38
-0.0367914999051 -0.0262796427893 0.71 1.25360959359e-38
-0.0356773911051 -0.0264276971149 0.714 1.06921833386e-38
-0.0343560062494 -0.0264276971149 0.714 9.40144452051e-39
-0.0330346213936 -0.0264276971149 0.714 9.30924889065e-39
-0.032779227682 -0.0273160230683 0.738 9.49364015037e-39
-0.0314134265286 -0.0273160230683 0.738 1.14304532306e-38
-0.0300883403147 -0.0273530366497 0.739 1.15222733125e-38
-0.0287984170032 -0.0274270638125 0.741 1.23520227709e-38
-0.0274640773939 -0.0274640773939 0.742 1.24435023372e-38
-0.0262315251335 -0.0276121317195 0.746 1.29952397855e-38
-0.0250507918871 -0.0278342132079 0.752 1.4101944675e-38
-0.023722004315 -0.0279082403706 0.754 1.41941346996e-38
-0.0223265922965 -0.0279082403706 0.754 1.41941375022e-38
-0.0975770539484 -0.0247195203336 0.703 2.35098856151e-38
-0.0962760265624 -0.0247195203336 0.703 2.35098856151e-38
-0.0945697004602 -0.0246140316266 0.7 2.35098856151e-38
-0.0930077273254 -0.024543705822 0.698 2.35091681503e-38
-0.0917159533348 -0.024543705822 0.698 2.33251286165e-38
-0.0902946318092 -0.0245085429197 0.697 2.350988001e-38
-0.0890047084977 -0.0245085429197 0.697 2.76235163675e-39
-0.0873372466559 -0.0244030542127 0.694 4.79382382958e-39
-0.0860528753816 -0.0244030542127 0.694 6.45475066947e-39
-0.0846463592886 -0.0243678913104 0.693 5.62604377715e-39
-0.0833638386933 -0.0243678913104 0.693 6.08631987594e-39
-0.082081318098 -0.0243678913104 0.693 5.35091003407e-39
-0.0807987975028 -0.0243678913104 0.693 5.2587186081e-39
-0.0795162769075 -0.0243678913104 0.693 4.70447563819e-39
-0.0780079734657 -0.0242975655057 0.691 4.6104821424e-39
-0.0767291542286 -0.0242975655057 0.691 4.51683616862e-39
-0.0753411449263 -0.0242624026034 0.69 4.70049595055e-39
-0.0738494975962 -0.0241920767987 0.688 5.068916935e-39
-0.0723652529823 -0.0241217509941 0.686 5.80468831187e-39
-0.0708884110847 -0.0240514251894 0.684 6.99854135414e-39
-0.0695207592522 -0.0240162622871 0.683 8.47151203102e-39
-0.0682567454476 -0.0240162622871 0.683 8.28676344018e-39
-0.066992731643 -0.0240162622871 0.683 8.1938517468e-39
-0.0656324825268 -0.0239810993848 0.682 8.00946048708e-39
-0.0643703194013 -0.0239810993848 0.682 8.83993721936e-39
-0.0631081562758 -0.0239810993848 0.682 7.45843629974e-39
-0.0616646266014 -0.0239107735801 0.68 7.73573925285e-39
-0.0604061648341 -0.0239107735801 0.68 6.07910318884e-39
-0.0591477030667 -0.0239107735801 0.68 8.66094656392e-39
-0.0578892412993 -0.0239107735801 0.68 7.36948887972e-39
-0.0564642184157 -0.0238404477755 0.678 6.07911299793e-39
-0.0552094580064 -0.0238404477755 0.678 6.63373011453e-39
-0.0539546975972 -0.0238404477755 0.678 3.40941101175e-39
-0.052699937188 -0.0238404477755 0.678 2.30559139582e-39
-0.0514451767787 -0.0238404477755 0.678 1.6623869929e-39
-0.0501904163695 -0.0238404477755 0.678 7.41867025192e-40
-0.049007832444 -0.0238756106778 0.679 9.24819151396e-40
-0.0478215471603 -0.0239107735801 0.68 1.84603696574e-39
-0.0467000356441 -0.0239810993848 0.682 9.31172498503e-39
-0.0455711214116 -0.0240514251894 0.684 9.95672445128e-39
-0.0444348044628 -0.0241217509941 0.686 1.04173648877e-38
-0.0432281617094 -0.0241569138964 0.687 9.49685192645e-39
-0.0422010348257 -0.0242975655057 0.691 9.40539337958e-39
-0.0412775459699 -0.0245085429197 0.697 1.13382702125e-38
-0.0405039621188 -0.0248250090406 0.706 1.28126814242e-38
-0.0393084234398 -0.0248953348452 0.708 1.07843789685e-38
-0.0379981426585 -0.0248953348452 0.708 1.21669574866e-38
-0.0367914999051 -0.0249656606499 0.71 1.14293924477e-38
-0.0357773277749 -0.0251766380638 0.716 9.30924889065e-39
-0.034452241561 -0.0251766380638 0.716 9.49363874907e-39
-0.0338211599982 -0.0257040815987 0.731 9.86242126853e-39
-0.0324683135983 -0.0257040815987 0.731 1.10620308449e-38
-0.0312005984356 -0.0257744074033 0.733 1.1891778902e-38
-0.029884765617 -0.0258095703056 0.734 1.19836003851e-38
-0.0288372812636 -0.0260908735242 0.742 1.27204395514e-38
-0.0276491453009 -0.0262666880358 0.747 1.31799855737e-38
-0.0264425025475 -0.0264425025475 0.752 1.31792709115e-38
-0.0251174163336 -0.0265128283521 0.754 1.33643796361e-38
-0.0237534658592 -0.0265479912544 0.755 1.3272178401e-38
-0.0224154248919 -0.0266183170591 0.757 1.27200864242e-38
-0.0975770539484 -0.0234184929476 0.703 2.35098856151e-38
-0.0962760265624 -0.0234184929476 0.703 2.35098856151e-38
-0.0945697004602 -0.0233185562779 0.7 2.35098856151e-38
-0.0932742251114 -0.0233185562779 0.7 2.35095268827e-38
-0.0919787497627 -0.0233185562779 0.7 2.33247782919e-38
-0.0906832744139 -0.0233185562779 0.7 2.35095198762e-38
-0.0893877990651 -0.0233185562779 0.7 6.35796999104e-39
-0.0878406313629 -0.0232519318313 0.698 4.5164928505e-39
-0.0864248618746 -0.0232186196081 0.697 7.09832221259e-39
-0.085134938563 -0.0232186196081 0.697 5.99375570458e-39
-0.0837247211119 -0.0231853073848 0.696 6.08560241112e-39
-0.0824366484794 -0.0231853073848 0.696 5.53385935767e-39
-0.0809153902842 -0.0231186829383 0.694 5.53350623046e-39
-0.0796310190098 -0.0231186829383 0.694 5.25585155144e-39
-0.0782337563122 -0.0230853707151 0.693 5.16293845676e-39
-0.0769512357169 -0.0230853707151 0.693 4.6101164035e-39
-0.0754503349914 -0.0230187462686 0.691 4.33388123982e-39
-0.0741715157543 -0.0230187462686 0.691 4.42535660228e-39
-0.0727872078102 -0.0229854340453 0.69 3.96402392445e-39
-0.0713029631963 -0.0229188095988 0.688 3.59343513127e-39
-0.0698261212987 -0.0228521851523 0.686 4.88237608343e-39
-0.0685565554569 -0.0228521851523 0.686 5.43411072909e-39
-0.0672869896151 -0.0228521851523 0.686 7.55317528632e-39
-0.0660174237733 -0.0228521851523 0.686 7.55173615279e-39
-0.0645590886664 -0.0227855607058 0.684 8.10526305919e-39
-0.0632932241827 -0.0227855607058 0.684 4.6025437866e-39
-0.0619366764247 -0.0227522484825 0.683 5.70888854236e-39
-0.0605838300248 -0.0227189362593 0.682 5.89292807617e-39
-0.0591477030667 -0.0226523118128 0.68 5.15500290356e-39
-0.0578892412993 -0.0226523118128 0.68 6.16843036075e-39
-0.0566307795319 -0.0226523118128 0.68 5.89183786597e-39
-0.0553723177646 -0.0226523118128 0.68 8.47511336807e-39
-0.0540342767972 -0.0226189995895 0.679 5.80396664317e-39
-0.0527776657089 -0.0226189995895 0.679 2.39525628065e-39
-0.0515210546206 -0.0226189995895 0.679 1.56801935042e-39
-0.0503384706951 -0.0226523118128 0.68 1.47834185389e-39
-0.0492243618951 -0.0227189362593 0.682 1.01736930977e-39
-0.0479621987696 -0.0227189362593 0.682 2.21481388e-39
-0.0467685107697 -0.0227522484825 0.683 9.40284722027e-39
-0.0455711214116 -0.0227855607058 0.684 1.05091751605e-38
-0.0444348044628 -0.0228521851523 0.686 1.04166488242e-38
-0.0432281617094 -0.0228854973756 0.687 1.00493068395e-38
-0.0425674692815 -0.0232186196081 0.697 1.00511187184e-38
-0.0412775459699 -0.0232186196081 0.697 1.17070541332e-38
-0.0405039621188 -0.0235184296174 0.706 1.30881935178e-38
-0.0393084234398 -0.0235850540639 0.708 1.12439249907e-38
-0.0379981426585 -0.0235850540639 0.708 1.15205146829e-38
-0.0367914999051 -0.0236516785104 0.71 1.03219714947e-38
-0.0354775177656 -0.0236516785104 0.71 9.76915084274e-39
-0.0351740063982 -0.0243512351987 0.731 9.76914663885e-39
-0.0338211599982 -0.0243512351987 0.731 1.06914588673e-38
-0.0324683135983 -0.0243512351987 0.731 1.13393253902e-38
-0.0312005984356 -0.0244178596452 0.733 1.14315056058e-38
-0.029884765617 -0.0244511718685 0.734 1.1983590576e-38
-0.0291481953473 -0.0249841674406 0.75 1.29041063399e-38
-0.0277601860451 -0.0249841674406 0.75 1.28097611182e-38
-0.0265128283521 -0.0251174163336 0.754 1.33636621712e-38
-0.0251507285568 -0.0251507285568 0.755 1.38246389193e-38
-0.0238163889476 -0.0252173530033 0.757 1.31799827711e-38
-0.0224154248919 -0.0252173530033 0.757 1.32732602034e-38
-0.0977158548786 -0.0221489271058 0.704 2.35098856151e-38
-0.0964129768136 -0.0221489271058 0.704 2.35098856151e-38
-0.0951100987485 -0.0221489271058 0.704 2.35098856151e-38
-0.0938072206835 -0.0221489271058 0.704 2.32329357893e-38
-0.0925043426184 -0.0221489271058 0.704 2.32322267322e-38
-0.0912014645534 -0.0221489271058 0.704 2.35088010101e-38
-0.0898985864883 -0.0221489271058 0.704 1.04134860935e-38
-0.0885957084233 -0.0221489271058 0.704 4.70122182316e-39
-0.0871688348606 -0.0221174655616 0.703 7.19015770875e-39
-0.0856235178374 -0.0220545424733 0.701 6.54513722302e-39
-0.08420589767 -0.0220230809291 0.7 6.17672184376e-39
-0.0826735354003 -0.0219601578407 0.698 6.26854753083e-39
-0.0811485758469 -0.0218972347523 0.696 6.45186259334e-39
-0.0798605032144 -0.0218972347523 0.696 5.71467170112e-39
-0.0783466477355 -0.021834311664 0.694 5.53028184269e-39
-0.0770622764611 -0.021834311664 0.694 5.8072232608e-39
-0.0756687151216 -0.0218028501198 0.693 4.97817585294e-39
-0.0743861945264 -0.0218028501198 0.693 4.79450766323e-39
-0.0728926965171 -0.0217399270314 0.691 4.42537341786e-39
-0.0715102392521 -0.0217084654872 0.69 4.1502200566e-39
-0.070233270694 -0.0217084654872 0.69 4.05802722933e-39
-0.0687564287964 -0.0216455423989 0.688 4.05515036358e-39
-0.0673850756058 -0.0216140808547 0.687 3.77640547436e-39
-0.0660174237733 -0.0215826193105 0.686 4.05155042783e-39
-0.0647478579315 -0.0215826193105 0.686 6.17060797857e-39
-0.0634782920897 -0.0215826193105 0.686 6.07876687721e-39
-0.0620273596991 -0.0215196962221 0.684 6.17095690188e-39
-0.0607614952154 -0.0215196962221 0.684 5.24613775049e-39
-0.0594956307318 -0.0215196962221 0.684 4.69152483778e-39
-0.0582297662481 -0.0215196962221 0.684 8.56372727906e-39
-0.0569639017645 -0.0215196962221 0.684 6.35065801565e-39
-0.0556166074018 -0.021488234678 0.683 4.69329607904e-39
-0.0542730143972 -0.0214567731338 0.682 6.35568587454e-39
-0.0530108512717 -0.0214567731338 0.682 5.71319753514e-39
-0.0517486881461 -0.0214567731338 0.682 2.39704994269e-39
-0.0504865250206 -0.0214567731338 0.682 1.66272470583e-39
-0.0492243618951 -0.0214567731338 0.682 9.24454813795e-40
-0.0479621987696 -0.0214567731338 0.682 2.21409641518e-39
-0.0467685107697 -0.021488234678 0.683 8.94187467615e-39
-0.0455711214116 -0.0215196962221 0.684 1.05084590969e-38
-0.0443052569279 -0.0215196962221 0.684 1.09694708774e-38
-0.0439203156814 -0.0219601578407 0.698 1.04180921616e-38
-0.0426285416908 -0.0219601578407 0.698 1.03266294108e-38
-0.0413367677002 -0.0219601578407 0.698 1.15215908802e-38
-0.0403892200165 -0.0221489271058 0.704 1.20736884621e-38
-0.0392529030677 -0.0222433117384 0.707 1.13361248245e-38
-0.0379981426585 -0.0222747732826 0.708 1.09669863752e-38
-0.0367914999051 -0.0223376963709 0.71 9.40001519608e-39
-0.0354775177656 -0.0223376963709 0.71 9.40001239348e-39
-0.0353183593656 -0.0230927734314 0.734 1.01379291583e-38
-0.0339136939517 -0.0230613118872 0.733 1.17056079932e-38
-0.0325571461937 -0.0230613118872 0.733 1.14311538799e-38
-0.0312005984356 -0.0230613118872 0.733 1.18928368823e-38
-0.029884765617 -0.0230927734314 0.734 1.21683335617e-38
-0.0292259238682 -0.0236590812267 0.752 1.31799715607e-38
-0.0278342132079 -0.0236590812267 0.752 1.34551277246e-38
-0.0264425025475 -0.0236590812267 0.752 1.38235599194e-38
-0.0251174163336 -0.023722004315 0.754 1.35480520297e-38
-0.023722004315 -0.023722004315 0.754 1.29955915114e-38
-0.0224154248919 -0.0238163889476 0.757 1.3273263006e-38
-0.0977158548786 -0.0208460490408 0.704 2.35098856151e-38
-0.0964129768136 -0.0208460490408 0.704 2.35098856151e-38
-0.0951100987485 -0.0208460490408 0.704 2.35098856151e-38
-0.0940737184695 -0.020905270771 0.706 2.34176913866e-38
-0.0927671390463 -0.020905270771 0.706 2.35098856151e-38
-0.0914605596231 -0.020905270771 0.706 2.350988001e-38
-0.0901539802 -0.020905270771 0.706 1.28137730357e-38
-0.0888474007768 -0.020905270771 0.706 3.77787683775e-39
-0.0872928303582 -0.0208460490408 0.704 7.92879053708e-39
-0.0858678074746 -0.0208164381757 0.703 6.72989141905e-39
-0.0843261918096 -0.0207572164454 0.701 6.36146482941e-39
-0.0829104223213 -0.0207276055803 0.7 6.0841618763e-39
-0.0813817614097 -0.0206683838501 0.698 6.08380454519e-39
-0.0800899874191 -0.0206683838501 0.698 5.71502482834e-39
-0.0786853220052 -0.020638772985 0.697 5.43915400226e-39
-0.0772843579495 -0.0206091621199 0.696 5.07037008151e-39
-0.075996285317 -0.0206091621199 0.696 4.97853038146e-39
-0.0744935339124 -0.0205499403896 0.694 4.79413912173e-39
-0.0731036739311 -0.0205203295245 0.693 4.88633475159e-39
-0.07161387728 -0.0204611077943 0.691 4.33530776166e-39
-0.0703350580428 -0.0204611077943 0.691 4.15091650193e-39
-0.0690562388057 -0.0204611077943 0.691 3.96509872037e-39
-0.0674831615965 -0.0203722751989 0.688 3.77963266472e-39
-0.0662098943966 -0.0203722751989 0.688 3.87111223107e-39
-0.0648422425641 -0.0203426643338 0.687 3.22609735054e-39
-0.0635708260432 -0.0203426643338 0.687 3.87146115439e-39
-0.0622087262479 -0.0203130534687 0.686 4.24059539976e-39
-0.0609391604061 -0.0203130534687 0.686 5.34300250683e-39
-0.0596695945643 -0.0203130534687 0.686 4.60327946829e-39
-0.0582297662481 -0.0202538317385 0.684 8.47620357828e-39
-0.0569639017645 -0.0202538317385 0.684 9.02972908337e-39
-0.0556980372808 -0.0202538317385 0.684 4.60505491345e-39
-0.0543525935972 -0.0202242208734 0.683 3.68454335353e-39
-0.0530885797926 -0.0202242208734 0.683 3.13317584807e-39
-0.051824565988 -0.0202242208734 0.683 2.30450258691e-39
-0.0505605521834 -0.0202242208734 0.683 2.12335112923e-39
-0.0492965383788 -0.0202242208734 0.683 1.47762579038e-39
-0.0481028503789 -0.0202538317385 0.684 1.47654258667e-39
-0.0469739361464 -0.0203130534687 0.686 8.29829332395e-39
-0.0458376191976 -0.0203722751989 0.688 1.06942894902e-38
-0.0445643519977 -0.0203722751989 0.688 1.00489340941e-38
-0.0439203156814 -0.0206683838501 0.698 1.03258965317e-38
-0.0426285416908 -0.0206683838501 0.698 9.86494360576e-39
-0.0413367677002 -0.0206683838501 0.698 1.26286573046e-38
-0.0403892200165 -0.0208460490408 0.704 1.23513515489e-38
-0.0392529030677 -0.0209348816361 0.707 1.19825718321e-38
-0.0379981426585 -0.0209644925012 0.708 9.03230887384e-39
-0.0367914999051 -0.0210237142315 0.71 9.03266059976e-39
-0.0366767578027 -0.0217343749942 0.734 9.58546163355e-39
-0.0353183593656 -0.0217343749942 0.734 1.14297231541e-38
-0.0339599609285 -0.0217343749942 0.734 1.13378792502e-38
-0.0326015624913 -0.0217343749942 0.734 1.17988433865e-38
-0.0312431640542 -0.0217343749942 0.734 1.1706283419e-38
-0.0299661954961 -0.0217935967244 0.736 1.18899516088e-38
-0.0292259238682 -0.0222673705663 0.752 1.32721699932e-38
-0.0278342132079 -0.0222673705663 0.752 1.41008530635e-38
-0.0264425025475 -0.0222673705663 0.752 1.34562067244e-38
-0.0251174163336 -0.0223265922965 0.754 1.28115561815e-38
-0.023722004315 -0.0223265922965 0.754 1.2997026441e-38
-0.0993000361623 -0.0195986913478 0.706 2.35098856151e-38
-0.0981322576693 -0.0196264515339 0.707 2.35098856151e-38
-0.096823827567 -0.0196264515339 0.707 2.35098856151e-38
-0.0955153974648 -0.0196264515339 0.707 2.35098856151e-38
-0.0942069673625 -0.0196264515339 0.707 2.35095268827e-38
-0.0928985372603 -0.0196264515339 0.707 2.34176899853e-38
-0.091590107158 -0.0196264515339 0.707 2.34180431125e-38
-0.0902816770558 -0.0196264515339 0.707 1.54881525561e-38
-0.0889732469535 -0.0196264515339 0.707 4.23887460524e-39
-0.0875408213536 -0.0195986913478 0.706 7.19121989298e-39
-0.0859899522932 -0.0195431709757 0.704 6.82244297872e-39
-0.0845667800886 -0.0195154107897 0.703 7.19121989298e-39
-0.0830288657817 -0.0194598904176 0.701 6.45330452946e-39
-0.0817315397539 -0.0194598904176 0.701 6.0845234113e-39
-0.0803194716237 -0.0194321302315 0.7 5.71574089185e-39
-0.0787982134285 -0.0193766098595 0.698 5.62354386069e-39
-0.0775064394378 -0.0193766098595 0.698 5.90048668009e-39
-0.0761054753821 -0.0193488496734 0.697 5.34731009831e-39
-0.0747082126845 -0.0193210894874 0.696 4.70194068927e-39
-0.073209162638 -0.0192655691153 0.694 4.51754662695e-39
-0.0718211533358 -0.0192378089292 0.693 4.24239326568e-39
-0.0705386327405 -0.0192378089292 0.693 4.42678452541e-39
-0.0692561121452 -0.0192378089292 0.693 4.33423436704e-39
-0.0677774195686 -0.0191822885571 0.691 3.96509872037e-39
-0.0664023650198 -0.0191545283711 0.69 3.22753648406e-39
-0.0649366271966 -0.019099007999 0.688 2.85875116201e-39
-0.0636633599967 -0.019099007999 0.688 3.22788680868e-39
-0.0622994095223 -0.019071247813 0.687 3.22788400608e-39
-0.0610279930015 -0.019071247813 0.687 3.96222045332e-39
-0.0597565764806 -0.019071247813 0.687 3.68491469762e-39
-0.0584000287225 -0.0190434876269 0.686 4.79053638338e-39
-0.0571304628807 -0.0190434876269 0.686 4.69833795092e-39
-0.055860897039 -0.0190434876269 0.686 5.43590298982e-39
-0.0545913311972 -0.0190434876269 0.686 3.96221765073e-39
-0.0531663083135 -0.0189879672548 0.684 2.5810894765e-39
-0.0519004438299 -0.0189879672548 0.684 2.02863876733e-39
-0.0506345793462 -0.0189879672548 0.684 1.93860393969e-39
-0.04951306783 -0.0190434876269 0.686 1.47762579038e-39
-0.0483138277928 -0.019071247813 0.687 1.47618385426e-39
-0.047042411272 -0.019071247813 0.687 8.75962740307e-39
-0.0458376191976 -0.019099007999 0.688 1.06028141277e-38
-0.0445643519977 -0.019099007999 0.688 1.00503662212e-38
-0.0439203156814 -0.0193766098595 0.698 1.04188110277e-38
-0.0426285416908 -0.0193766098595 0.698 1.0234082055e-38
-0.0413367677002 -0.0193766098595 0.698 1.08776634072e-38
-0.04056133317 -0.0196264515339 0.707 1.11535300294e-38
-0.0393084234398 -0.0196542117199 0.708 9.58548265302e-39
-0.0379981426585 -0.0196542117199 0.708 9.03266200106e-39
-0.0367914999051 -0.019709732092 0.71 9.40071444401e-39
-0.0366767578027 -0.0203759765571 0.734 1.04155740282e-38
-0.0353183593656 -0.0203759765571 0.734 1.11538439203e-38
-0.0340524948819 -0.0204314969292 0.736 1.1891041819e-38
-0.0326903950867 -0.0204314969292 0.736 1.17984790489e-38
-0.0313282952914 -0.0204314969292 0.736 1.26275194503e-38
-0.0299661954961 -0.0204314969292 0.736 1.29955831036e-38
-0.0294979736915 -0.0210699812082 0.759 1.40086574336e-38
-0.027945253952 -0.020958940464 0.755 1.36398749141e-38
-0.0265479912544 -0.020958940464 0.755 1.34562067244e-38
-0.0252173530033 -0.0210144608361 0.757 1.2997026441e-38
-0.0993000361623 -0.0182921119246 0.706 2.35098856151e-38
-0.0979934567391 -0.0182921119246 0.706 2.35098856151e-38
-0.0966868773159 -0.0182921119246 0.706 2.35098856151e-38
-0.0955153974648 -0.0183180214316 0.707 2.35098856151e-38
-0.0943402162556 -0.0183439309386 0.708 2.35095268827e-38
-0.0930299354742 -0.0183439309386 0.708 2.35098856151e-38
-0.0917196546929 -0.0183439309386 0.708 2.350988001e-38
-0.0904093739116 -0.0183439309386 0.708 1.87149996013e-38
-0.0889732469535 -0.0183180214316 0.707 4.14703490519e-39
-0.0876648168512 -0.0183180214316 0.707 6.82279330334e-39
-0.0862342419304 -0.0182921119246 0.706 7.28341832544e-39
-0.0846870742281 -0.0182402929107 0.704 7.00718456307e-39
-0.0832657527026 -0.0182143834037 0.703 6.91463580599e-39
-0.0819647253167 -0.0182143834037 0.703 6.3611088996e-39
-0.080434213726 -0.0181625643898 0.701 6.08487793982e-39
-0.0791368876982 -0.0181625643898 0.701 5.90048668009e-39
-0.0778395616704 -0.0181625643898 0.701 5.99267950736e-39
-0.0762146654472 -0.0180848358688 0.698 5.53170135804e-39
-0.0749228914566 -0.0180848358688 0.698 5.07072320872e-39
-0.073525628759 -0.0180589263618 0.697 4.886331949e-39
-0.0719247913637 -0.0179811978409 0.694 4.42607686969e-39
-0.0706404200893 -0.0179811978409 0.694 4.42607686969e-39
-0.0692561121452 -0.0179552883339 0.693 4.14984590991e-39
-0.0677774195686 -0.01790346932 0.691 3.59667213073e-39
-0.0664986003314 -0.01790346932 0.691 3.78106058786e-39
-0.0651253964617 -0.017877559813 0.69 3.59666932813e-39
-0.0638484279037 -0.017877559813 0.69 3.59667213073e-39
-0.0625714593456 -0.017877559813 0.69 3.31972931133e-39
-0.0611168255968 -0.0178257407991 0.688 3.41083893488e-39
-0.0598435583969 -0.0178257407991 0.688 3.13317304547e-39
-0.0584851599597 -0.0177998312921 0.687 3.40904387155e-39
-0.0572137434389 -0.0177998312921 0.687 3.22465541442e-39
-0.055942326918 -0.0177998312921 0.687 3.96186452351e-39
-0.0545913311972 -0.0177739217851 0.686 3.59487986999e-39
-0.0533217653554 -0.0177739217851 0.686 2.85875396461e-39
-0.0520521995136 -0.0177739217851 0.686 2.49068750867e-39
-0.0507826336718 -0.0177739217851 0.686 1.93895706691e-39
-0.0495852443137 -0.0177998312921 0.687 1.66237297991e-39
-0.0483138277928 -0.0177998312921 0.687 1.10740694e-39
-0.0471108863975 -0.0178257407991 0.688 8.11425799403e-39
-0.0459708680906 -0.017877559813 0.69 1.04184214667e-38
-0.0446938995326 -0.017877559813 0.69 1.01414800486e-38
-0.0442349311233 -0.0182143834037 0.703 1.03258937291e-38
-0.0429339037373 -0.0182143834037 0.703 1.04177530473e-38
-0.0416920980815 -0.0182402929107 0.704 1.1246447328e-38
-0.04056133317 -0.0183180214316 0.707 1.07840286438e-38
-0.0393084234398 -0.0183439309386 0.708 9.67767828289e-39
-0.0379981426585 -0.0183439309386 0.708 9.21740778929e-39
-0.0379833372259 -0.018991668613 0.733 9.76985149197e-39
-0.0366267894679 -0.018991668613 0.733 1.12456864229e-38
-0.0353183593656 -0.0190175781199 0.734 1.08768926931e-38
-0.0340524948819 -0.0190693971339 0.736 1.18913949462e-38
-0.0326903950867 -0.0190693971339 0.736 1.20750659385e-38
-0.0314134265286 -0.0191212161478 0.738 1.27197150801e-38
-0.0300883403147 -0.0191471256548 0.739 1.26264432531e-38
-0.0294979736915 -0.0196653157943 0.759 1.4377439953e-38
-0.027945253952 -0.0195616777664 0.755 1.27186416855e-38
-0.0265479912544 -0.0195616777664 0.755 1.29037518114e-38
-0.0252173530033 -0.0196134967804 0.757 1.28122792515e-38
-0.0990187329437 -0.0169374148456 0.704 2.35098856151e-38
-0.0977158548786 -0.0169374148456 0.704 2.35098856151e-38
-0.0964129768136 -0.0169374148456 0.704 2.35098856151e-38
-0.0953802978927 -0.0169855325014 0.706 2.35098856151e-38
-0.0943402162556 -0.0170336501573 0.708 2.35095268827e-38
-0.0930299354742 -0.0170336501573 0.708 2.35098856151e-38
-0.0917196546929 -0.0170336501573 0.708 2.350988001e-38
-0.0904093739116 -0.0170336501573 0.708 2.19418466466e-38
-0.0890990931302 -0.0170336501573 0.708 3.77825238573e-39
-0.0877888123489 -0.0170336501573 0.708 6.82279330334e-39
-0.086356386749 -0.0170095913293 0.707 7.46780958517e-39
-0.0849276625072 -0.0169855325014 0.706 7.28377005136e-39
-0.0833841961631 -0.0169374148456 0.704 7.00718456307e-39
-0.082081318098 -0.0169374148456 0.704 6.45365765667e-39
-0.0806636979307 -0.0169133560177 0.703 6.54585328654e-39
-0.0793626705447 -0.0169133560177 0.703 5.9004810749e-39
-0.0780616431587 -0.0169133560177 0.703 5.90048387749e-39
-0.0765422356425 -0.0168652383619 0.701 5.80828824763e-39
-0.0752449096147 -0.0168652383619 0.701 5.53170135804e-39
-0.0738420948799 -0.016841179534 0.7 5.07072320872e-39
-0.0723393434753 -0.0167930618782 0.698 4.97782272573e-39
-0.0709457821358 -0.0167690030503 0.697 4.79378739582e-39
-0.0695559221545 -0.0167449442224 0.696 4.609747862e-39
-0.0679735915499 -0.0166727677387 0.693 4.61009818662e-39
-0.0666910709547 -0.0166727677387 0.693 4.24131426587e-39
-0.0652197810943 -0.0166246500829 0.691 4.05692440744e-39
-0.0639409618571 -0.0166246500829 0.691 3.68779156337e-39
-0.06266214262 -0.0166246500829 0.691 3.59524140499e-39
-0.0612944907875 -0.0166005912549 0.69 3.59594625812e-39
-0.0598435583969 -0.0165524735991 0.688 3.87253314771e-39
-0.0585702911969 -0.0165524735991 0.688 3.31900904392e-39
-0.0572137434389 -0.0165284147712 0.687 3.31793845189e-39
-0.055942326918 -0.0165284147712 0.687 3.0413543649e-39
-0.0546709103972 -0.0165284147712 0.687 3.04314662563e-39
-0.0533994938763 -0.0165284147712 0.687 2.58288033594e-39
-0.0520521995136 -0.0165043559433 0.686 2.58503132908e-39
-0.0507826336718 -0.0165043559433 0.686 2.4924853746e-39
-0.0495852443137 -0.0165284147712 0.687 2.85983436572e-39
-0.0483841535975 -0.0165524735991 0.688 1.84532090222e-39
-0.0472478366487 -0.0166005912549 0.69 8.48195871107e-39
-0.0461707414302 -0.0166727677387 0.693 1.07872039862e-38
-0.0452120896721 -0.0167930618782 0.698 1.06028141277e-38
-0.0442349311233 -0.0169133560177 0.703 1.04184438875e-38
-0.0429339037373 -0.0169133560177 0.703 1.06946902615e-38
-0.0416328763513 -0.0169133560177 0.703 1.08765858087e-38
-0.0405039621188 -0.0169855325014 0.706 8.93975871547e-39
-0.0393084234398 -0.0170336501573 0.708 9.03266200106e-39
-0.0379981426585 -0.0170336501573 0.708 9.49291007387e-39
-0.037879699198 -0.0175870031991 0.731 1.08769067061e-38
-0.0365268527981 -0.0175870031991 0.731 1.18906886918e-38
-0.0352702417098 -0.0176351208549 0.733 1.1338221167e-38
-0.0340524948819 -0.0177072973386 0.736 1.17069994826e-38
-0.0326903950867 -0.0177072973386 0.736 1.26275194503e-38
-0.0314134265286 -0.0177554149944 0.738 1.29959446386e-38
-0.0300883403147 -0.0177794738223 0.739 1.23498591661e-38
-0.0295757022124 -0.0183087680363 0.761 1.41937717633e-38
-0.0280192811148 -0.0182125327246 0.757 1.29952313777e-38
-0.0266183170591 -0.0182125327246 0.757 1.29955915114e-38
-0.0252173530033 -0.0182125327246 0.757 1.26286068579e-38
-0.0975770539484 -0.0156123286317 0.703 2.35098856151e-38
-0.0962760265624 -0.0156123286317 0.703 2.35098856151e-38
-0.0951100987485 -0.0156345367806 0.704 2.35098856151e-38
-0.0943402162556 -0.0157233693759 0.708 2.35095268827e-38
-0.0930299354742 -0.0157233693759 0.708 2.35098828126e-38
-0.0919787497627 -0.0157677856736 0.71 2.35098786087e-38
-0.0906647676232 -0.0157677856736 0.71 2.33247796932e-38
-0.0893507854837 -0.0157677856736 0.71 5.16118683368e-39
-0.0877888123489 -0.0157233693759 0.708 6.54585048394e-39
-0.0864785315676 -0.0157233693759 0.708 7.92843460727e-39
-0.0850479566467 -0.0157011612271 0.707 7.09902426312e-39
-0.083621083084 -0.0156789530783 0.706 7.74439367216e-39
-0.082081318098 -0.0156345367806 0.704 7.56000241244e-39
-0.080778440033 -0.0156345367806 0.704 6.82243737353e-39
-0.079475561968 -0.0156345367806 0.704 6.45365485408e-39
-0.0780616431587 -0.0156123286317 0.703 6.08487233462e-39
-0.0767606157727 -0.0156123286317 0.703 5.43950292558e-39
-0.0754595883868 -0.0156123286317 0.703 5.53169855544e-39
-0.0739475835868 -0.0155679123341 0.701 5.34730729572e-39
-0.072650257559 -0.0155679123341 0.701 4.79378739582e-39
-0.0710475694847 -0.0155012878876 0.698 4.70159176595e-39
-0.069755795494 -0.0155012878876 0.698 4.05657128023e-39
-0.0683659355127 -0.0154790797387 0.697 4.05692300614e-39
-0.0667873062663 -0.0154124552922 0.694 4.24131146327e-39
-0.0655029349919 -0.0154124552922 0.694 4.05692440744e-39
-0.0641260297641 -0.0153902471434 0.693 3.68779156337e-39
-0.0628435091688 -0.0153902471434 0.693 3.87183109718e-39
-0.0613833233828 -0.0153458308457 0.691 3.50518976178e-39
-0.0601045041457 -0.0153458308457 0.691 3.50518976178e-39
-0.0587405536714 -0.0153236226969 0.69 2.95094959447e-39
-0.057297023997 -0.0152792063992 0.688 3.04279349842e-39
-0.0560237567971 -0.0152792063992 0.688 3.22718475815e-39
-0.0547504895971 -0.0152792063992 0.688 3.1357023892e-39
-0.0533994938763 -0.0152569982504 0.687 2.67615076172e-39
-0.0521280773554 -0.0152569982504 0.687 2.67794442376e-39
-0.0508566608346 -0.0152569982504 0.687 3.32224324077e-39
-0.0496574207974 -0.0152792063992 0.688 3.04422422415e-39
-0.0483841535975 -0.0152792063992 0.688 1.75240780755e-39
-0.0473163117743 -0.0153458308457 0.691 8.38976308121e-39
-0.0462373658767 -0.0154124552922 0.694 1.08790366797e-38
-0.0452120896721 -0.0155012878876 0.698 1.10637908758e-38
-0.0442349311233 -0.0156123286317 0.703 1.05109926446e-38
-0.0429339037373 -0.0156123286317 0.703 1.02337037044e-38
-0.0416328763513 -0.0156123286317 0.703 9.12522617242e-39
-0.0405039621188 -0.0156789530783 0.706 9.30781956621e-39
-0.0391973826956 -0.0156789530783 0.706 9.12413315961e-39
-0.039339884984 -0.0162785730968 0.733 1.04155740282e-38
-0.037879699198 -0.0162341567992 0.731 1.11531250542e-38
-0.0365268527981 -0.0162341567992 0.731 1.18910390164e-38
-0.0352702417098 -0.0162785730968 0.733 1.20750659385e-38
-0.0340524948819 -0.0163451975433 0.736 1.1891027806e-38
-0.0326903950867 -0.0163451975433 0.736 1.23505752296e-38
-0.0314559921472 -0.0164118219898 0.739 1.33640110946e-38
-0.0303733448914 -0.0165672790317 0.746 1.31796226374e-38
-0.0296145664729 -0.0169226094131 0.762 1.25342532284e-38
-0.027945253952 -0.0167671523712 0.755 1.28112030543e-38
-0.0265479912544 -0.0167671523712 0.755 1.27200864242e-38
-0.0252839774498 -0.0168559849666 0.759 1.26289697942e-38
-0.0975770539484 -0.0143113012458 0.703 2.35098856151e-38
-0.0962760265624 -0.0143113012458 0.703 2.35098856151e-38
-0.0951100987485 -0.0143316587155 0.704 2.35098856151e-38
-0.0943402162556 -0.0144130885946 0.708 2.34173326542e-38
-0.0932927319021 -0.0144538035341 0.71 2.35098828126e-38
-0.0921082972975 -0.0144741610039 0.711 2.35098786087e-38
-0.090792464479 -0.0144741610039 0.711 2.35091681503e-38
-0.0894766316605 -0.0144741610039 0.711 5.99059437524e-39
-0.0880368033443 -0.0144538035341 0.71 6.26891326973e-39
-0.0867228212048 -0.0144538035341 0.71 8.5734522904e-39
-0.0851682507863 -0.0144130885946 0.708 7.28306659953e-39
-0.0837395265445 -0.0143927311248 0.707 7.46780958517e-39
-0.0823145036608 -0.0143723736551 0.706 7.46780958517e-39
-0.0810079242376 -0.0143723736551 0.706 7.19121989298e-39
-0.079475561968 -0.0143316587155 0.704 7.19157582279e-39
-0.0781726839029 -0.0143316587155 0.704 6.9149889332e-39
-0.0767606157727 -0.0143113012458 0.703 6.36181375272e-39
-0.0754595883868 -0.0143113012458 0.703 5.99302843067e-39
-0.0741585610008 -0.0143113012458 0.703 5.1632677619e-39
-0.072650257559 -0.0142705863062 0.701 5.25511446845e-39
-0.0713529315312 -0.0142705863062 0.701 5.25511446845e-39
-0.0699556688336 -0.0142502288365 0.7 4.88668507621e-39
-0.0684640215034 -0.0142095138969 0.698 4.97887930477e-39
-0.0670760122012 -0.0141891564272 0.697 4.05692300614e-39
-0.0657860888896 -0.0141891564272 0.697 4.42570692689e-39
-0.0644036316246 -0.0141687989574 0.696 4.24096534255e-39
-0.0629341924432 -0.0141280840179 0.694 3.77963126342e-39
-0.0616498211689 -0.0141280840179 0.694 3.32116424095e-39
-0.0602784679783 -0.0141077265481 0.693 3.50555550068e-39
-0.0588256849086 -0.0140670116086 0.691 3.32045098004e-39
-0.0575468656714 -0.0140670116086 0.691 3.31973351522e-39
-0.0561866165552 -0.0140466541388 0.69 3.22753788536e-39
-0.0549096479971 -0.0140466541388 0.69 3.13605972031e-39
-0.0536326794391 -0.0140466541388 0.69 2.58395513186e-39
-0.052355710881 -0.0140466541388 0.69 2.21624880963e-39
-0.0510787423229 -0.0140466541388 0.69 2.86054202145e-39
-0.0498017737648 -0.0140466541388 0.69 3.32044817744e-39
-0.0485248052068 -0.0140466541388 0.69 1.10704820759e-39
-0.0474532620254 -0.0141077265481 0.693 8.11281605791e-39
-0.0462373658767 -0.0141280840179 0.694 1.05102513577e-38
-0.0453416372069 -0.0142502288365 0.7 1.04180585304e-38
-0.0442978542116 -0.0143316587155 0.704 1.07868550628e-38
-0.0429339037373 -0.0143113012458 0.703 8.75892535254e-39
-0.0416328763513 -0.0143113012458 0.703 8.94011044138e-39
-0.0405039621188 -0.0143723736551 0.706 9.03122987403e-39
-0.0391973826956 -0.0143723736551 0.706 9.58546163355e-39
-0.039339884984 -0.0149220253388 0.733 1.07839894075e-38
-0.0379833372259 -0.0149220253388 0.733 1.09690855203e-38
-0.0366267894679 -0.0149220253388 0.733 1.16140877892e-38
-0.0353183593656 -0.0149423828085 0.734 1.15222480891e-38
-0.0341912958122 -0.0150441701574 0.739 1.1614443719e-38
-0.0328236439797 -0.0150441701574 0.739 1.27193605516e-38
-0.0316688202402 -0.0151459575062 0.744 1.29952313777e-38
-0.0303733448914 -0.0151866724457 0.746 1.25338972986e-38
-0.0293036523892 -0.0153495322039 0.754 1.2257310409e-38
-0.0279082403706 -0.0153495322039 0.754 1.27190074244e-38
-0.0265479912544 -0.0153698896736 0.755 1.25360581008e-38
-0.0253506018964 -0.0154920344922 0.761 1.2353464707e-38
-0.0973716285717 -0.0131583281854 0.711 2.35098856151e-38
-0.0960557957531 -0.0131583281854 0.711 2.35098856151e-38
-0.0947399629346 -0.0131583281854 0.711 2.35098856151e-38
-0.0934241301161 -0.0131583281854 0.711 2.350988001e-38
-0.0924969399022 -0.0132138485575 0.714 2.34180431125e-38
-0.0911755550464 -0.0132138485575 0.714 2.35091681503e-38
-0.0897283240139 -0.0131953417668 0.713 1.0046848962e-38
-0.0884087898373 -0.0131953417668 0.713 5.99197465423e-39
-0.0868449660234 -0.0131583281854 0.711 8.20432084763e-39
-0.0855291332048 -0.0131583281854 0.711 7.37455737626e-39
-0.0840948569259 -0.0131398213947 0.71 7.65184911898e-39
-0.0827808747864 -0.0131398213947 0.71 7.56000801763e-39
-0.0812374084423 -0.0131028078133 0.708 7.09902706572e-39
-0.0797013448145 -0.0130657942319 0.706 6.9149889332e-39
-0.0781726839029 -0.0130287806505 0.704 6.73059627218e-39
-0.0768698058379 -0.0130287806505 0.704 6.73094939939e-39
-0.0754595883868 -0.0130102738598 0.703 6.73094659679e-39
-0.0741585610008 -0.0130102738598 0.703 6.26996704618e-39
-0.0728575336148 -0.0130102738598 0.703 6.08485832164e-39
-0.0713529315312 -0.0129732602784 0.701 5.80827143205e-39
-0.0700556055033 -0.0129732602784 0.701 4.88632073861e-39
-0.0686601934848 -0.0129547534877 0.7 4.60937791921e-39
-0.067364718136 -0.0129547534877 0.7 4.97816464256e-39
-0.0658804735221 -0.0129177399063 0.698 4.97780871275e-39
-0.0645886995315 -0.0129177399063 0.698 4.70122182316e-39
-0.0632062422665 -0.0128992331156 0.697 4.79341745302e-39
-0.0618274863596 -0.0128807263249 0.696 3.68959363319e-39
-0.0603654498945 -0.0128437127435 0.694 3.59739940463e-39
-0.058995947383 -0.0128252059528 0.693 3.50484223976e-39
-0.0577134267877 -0.0128252059528 0.693 3.41120187118e-39
-0.0564309061924 -0.0128252059528 0.693 3.50339469845e-39
-0.0549892271971 -0.0127881923714 0.691 3.22788680868e-39
-0.05371040796 -0.0127881923714 0.691 3.22824974498e-39
-0.0524315887229 -0.0127881923714 0.691 2.9523817215e-39
-0.0511527694857 -0.0127881923714 0.691 3.2293245409e-39
-0.0498739502486 -0.0127881923714 0.691 3.13605411512e-39
-0.0485951310114 -0.0127881923714 0.691 1.8438845713e-39
-0.0474532620254 -0.0128252059528 0.693 7.92842199559e-39
-0.0463706147697 -0.0128807263249 0.696 1.12467373968e-38
-0.0454064109744 -0.0129732602784 0.701 1.1247813594e-38
-0.0442978542116 -0.0130287806505 0.704 1.05102625681e-38
-0.0429339037373 -0.0130102738598 0.703 7.65257218899e-39
-0.0416328763513 -0.0130102738598 0.703 8.47948682058e-39
-0.04056133317 -0.0130843010226 0.707 9.40036411939e-39
-0.0404188308816 -0.0134729436272 0.728 1.06914448543e-38
-0.0390715365189 -0.0134729436272 0.728 1.16141018022e-38
-0.037879699198 -0.0135284639993 0.731 1.16140877892e-38
-0.0366767578027 -0.0135839843714 0.734 1.17988321761e-38
-0.0355108299888 -0.0136580115342 0.738 1.1614443719e-38
-0.0342838297657 -0.0137135319063 0.741 1.2166541301e-38
-0.032912476575 -0.0137135319063 0.741 1.29952313777e-38
-0.0316688202402 -0.0137690522784 0.744 1.25338972986e-38
-0.030414059831 -0.0138245726504 0.747 1.23495060388e-38
-0.0292259238682 -0.0139171066039 0.752 1.28104869908e-38
-0.0278342132079 -0.0139171066039 0.752 1.28112058569e-38
-0.0265479912544 -0.013972626976 0.755 1.24445827384e-38
-0.0975418910461 -0.0120257125947 0.722 2.35098856151e-38
-0.0962057007578 -0.0120257125947 0.722 2.35098856151e-38
-0.0944753158276 -0.0119757442598 0.719 2.350988001e-38
-0.0928855825068 -0.0119424320366 0.717 2.34180431125e-38
-0.0915586456138 -0.0119424320366 0.717 2.35088094179e-38
-0.0901058625441 -0.011925775925 0.716 1.3734319628e-38
-0.0887807763303 -0.011925775925 0.716 6.08417448799e-39
-0.0872114004792 -0.0118924637017 0.714 8.66495007363e-39
-0.0857697214839 -0.0118758075901 0.713 8.94153135803e-39
-0.0844501873072 -0.0118758075901 0.713 7.92843881117e-39
-0.0828974675678 -0.0118424953668 0.711 7.74404334755e-39
-0.0814668926469 -0.0118258392552 0.71 7.19122269558e-39
-0.079927127661 -0.0117925270319 0.708 7.00682863326e-39
-0.0785058061354 -0.0117758709203 0.707 6.82278909944e-39
-0.0770881859681 -0.0117592148087 0.706 6.82314222666e-39
-0.0755669277728 -0.0117259025854 0.704 6.45471423571e-39
-0.0742640497078 -0.0117259025854 0.704 6.27032017339e-39
-0.0728575336148 -0.0117092464738 0.703 6.45434429292e-39
-0.0715565062288 -0.0117092464738 0.703 6.45434849682e-39
-0.0700556055033 -0.0116759342506 0.701 5.99266269177e-39
-0.0687582794755 -0.0116759342506 0.701 6.17670502818e-39
-0.067364718136 -0.0116592781389 0.7 5.43878966466e-39
-0.0660692427873 -0.0116592781389 0.7 5.07000714521e-39
-0.0645886995315 -0.0116259659157 0.698 4.3324393037e-39
-0.0632969255409 -0.0116259659157 0.698 4.33279243092e-39
-0.0619163189549 -0.011609309804 0.697 4.33424838002e-39
-0.0605394137271 -0.0115926536924 0.696 3.8732702307e-39
-0.0590810786202 -0.0115593414692 0.694 4.1494899801e-39
-0.0577967073458 -0.0115593414692 0.694 4.24131566717e-39
-0.0565123360715 -0.0115593414692 0.694 4.05620414003e-39
-0.0551483855971 -0.0115426853575 0.693 3.4115549984e-39
-0.0538658650018 -0.0115426853575 0.693 3.32008524114e-39
-0.0524315887229 -0.0115093731343 0.691 3.22789801906e-39
-0.0511527694857 -0.0115093731343 0.691 3.2293245409e-39
-0.0498739502486 -0.0115093731343 0.691 3.59738819424e-39
-0.0487357826207 -0.0115426853575 0.693 2.12046725699e-39
-0.0474532620254 -0.0115426853575 0.693 7.55963947613e-39
-0.0467037370022 -0.0116759342506 0.701 1.07857592474e-38
-0.0456007322767 -0.0117259025854 0.704 1.07868354447e-38
-0.0442978542116 -0.0117259025854 0.704 1.08794010173e-38
-0.0429949761466 -0.0117259025854 0.704 8.1128272683e-39
-0.0426396457652 -0.0119924003715 0.72 8.29545149066e-39
-0.0413071568351 -0.0119924003715 0.72 1.04141531116e-38
-0.0400857086491 -0.0120257125947 0.722 1.08761878399e-38
-0.0390178668259 -0.0121089931529 0.727 1.12456724099e-38
-0.037879699198 -0.0121756175994 0.731 1.10612671372e-38
-0.0366767578027 -0.0122255859342 0.734 1.15222452865e-38
-0.0355589476447 -0.0123088664924 0.739 1.17977587815e-38
-0.0343300967424 -0.0123588348273 0.742 1.20739911426e-38
-0.0329568928727 -0.0123588348273 0.742 1.31792667076e-38
-0.0317539514774 -0.0124254592738 0.746 1.23495060388e-38
-0.030414059831 -0.0124421153854 0.747 1.21651175817e-38
-0.0292259238682 -0.0125253959435 0.752 1.24424233374e-38
-0.0278342132079 -0.0125253959435 0.752 1.22587537464e-38
-0.0999736833436 -0.0108079657669 0.73 2.35098856151e-38
-0.0979471897623 -0.0107339386041 0.725 2.35098856151e-38
-0.0966054474368 -0.0107339386041 0.725 2.35095268827e-38
-0.0948695104695 -0.0106895223064 0.722 2.350988001e-38
-0.0932742251114 -0.0106599114413 0.72 2.350988001e-38
-0.0918140393254 -0.0106451060087 0.719 2.35091681503e-38
-0.0904834010744 -0.0106451060087 0.719 1.6225717595e-38
-0.0889047718279 -0.0106154951436 0.717 5.80655484143e-39
-0.0874556901164 -0.0106006897111 0.716 8.29689342678e-39
-0.0858900156234 -0.010571078846 0.714 8.57312578786e-39
-0.0845686307677 -0.010571078846 0.714 7.92882136565e-39
-0.0831306531306 -0.0105562734134 0.713 9.03552345252e-39
-0.0815816347492 -0.0105266625483 0.711 8.5741795643e-39
-0.0801529105075 -0.0105118571157 0.71 5.90085522159e-39
-0.0786168468796 -0.0104822462506 0.708 7.28341552285e-39
-0.0771973760332 -0.0104674408181 0.707 6.91498472931e-39
-0.0758889459309 -0.0104674408181 0.707 7.28305118524e-39
-0.0744750271217 -0.0104526353855 0.706 6.72988160996e-39
-0.0729611716427 -0.0104230245204 0.704 6.91534065912e-39
