# .PCD v0.7 - Point Cloud Data file format
VERSION 0.7
FIELDS x y z rgb
SIZE 4 4 4 4
TYPE F F F F
COUNT 1 1 1 1
WIDTH 834
HEIGHT 1
VIEWPOINT 0 0 0 1 0 0 0
POINTS 834
DATA ascii
-0.0117758709203 -0.086356386749 0.707 1.67884426245e-38
-0.0104822462506 -0.0864785315676 0.708 7.6654277011e-39
-0.00919787497627 -0.0867228212048 0.71 4.69939452996e-40
-0.00789499691122 -0.0868449660234 0.711 2.21879076504e-39
-0.00660692427873 -0.0872114004792 0.714 1.85144878041e-39
-0.00532255300437 -0.0878221245722 0.719 3.9751992797e-39
-0.00401412290212 -0.0883107038466 0.723 4.25217012507e-39
-0.0026908873673 -0.088799283121 0.727 1.90940928749e-40
-0.00135654775807 -0.0895321520325 0.733 9.54774708668e-41
0.0 -0.0896542968511 0.734 6.47566645035e-40
0.00136765183249 -0.0902650209441 0.739 3.71679003379e-40
0.00273530366497 -0.0902650209441 0.739 4.62456519196e-40
0.00413071568351 -0.0908757450371 0.744 6.27392291174e-39
0.00554463449273 -0.0914864691301 0.749 6.45900220902e-39
0.00693079311592 -0.0914864691301 0.749 6.91890696371e-39
0.0083169517391 -0.0914864691301 0.749 6.45792881439e-39
-0.0651439032524 -0.0846870742281 0.704 2.35098856151e-38
-0.0638410251874 -0.0846870742281 0.704 2.34176899853e-38
-0.062449314527 -0.0845667800886 0.703 1.09734631767e-38
-0.061148287141 -0.0845667800886 0.703 1.46155429829e-42
-0.059847259755 -0.0845667800886 0.703 1.64176226171e-38
-0.058546232369 -0.0845667800886 0.703 1.32850941689e-38
-0.0572452049831 -0.0845667800886 0.703 9.82954820785e-41
-0.0559441775971 -0.0845667800886 0.703 1.44333741825e-42
-0.0544876931693 -0.0843261918096 0.701 9.64990174473e-41
-0.0531903671414 -0.0843261918096 0.701 2.1523944412e-42
-0.0520410954391 -0.0845667800886 0.703 8.32976648746e-40
-0.0505957150857 -0.0843261918096 0.701 5.53563900672e-39
-0.0492983890579 -0.0843261918096 0.701 1.24506811893e-38
-0.0480010630301 -0.0843261918096 0.701 1.65094272847e-38
-0.0467037370022 -0.0843261918096 0.701 1.78026421972e-38
-0.0454064109744 -0.0843261918096 0.701 1.67898943697e-38
-0.0440461618582 -0.08420589767 0.7 1.51300114972e-38
-0.0427506865094 -0.08420589767 0.7 1.66966337531e-38
-0.0414552111606 -0.08420589767 0.7 1.70646749856e-38
-0.0401597358119 -0.08420589767 0.7 1.70639981585e-38
-0.0388642604631 -0.08420589767 0.7 1.62353389103e-38
-0.0375687851143 -0.08420589767 0.7 1.60531084528e-38
-0.0362733097656 -0.08420589767 0.7 1.54999711074e-38
-0.0349778344168 -0.08420589767 0.7 1.60542350968e-38
-0.0337304767238 -0.0843261918096 0.701 1.69768990511e-38
-0.032433150696 -0.0843261918096 0.701 1.64230288266e-38
-0.0311358246681 -0.0843261918096 0.701 1.68808134167e-38
-0.0298384986403 -0.0843261918096 0.701 1.63254928483e-38
-0.0285411726125 -0.0843261918096 0.701 1.72460114147e-38
-0.0272438465846 -0.0843261918096 0.701 2.17635762585e-38
-0.0259465205568 -0.0843261918096 0.701 2.14869935728e-38
-0.0246491945289 -0.0843261918096 0.701 1.93679612455e-38
-0.0233518685011 -0.0843261918096 0.701 1.41146250248e-38
-0.0220545424733 -0.0843261918096 0.701 6.64822514585e-39
-0.0207572164454 -0.0843261918096 0.701 8.94197276704e-39
-0.0195431709757 -0.0846870742281 0.704 9.77026347372e-39
-0.0182402929107 -0.0846870742281 0.704 9.67984048642e-39
-0.0169374148456 -0.0846870742281 0.704 9.49651701612e-39
-0.0156789530783 -0.0849276625072 0.706 1.70601109565e-38
-0.0143723736551 -0.0849276625072 0.706 1.85398414972e-38
-0.0130657942319 -0.0849276625072 0.706 1.80809877163e-38
-0.0117758709203 -0.0850479566467 0.707 1.18117045038e-38
-0.0104822462506 -0.0851682507863 0.708 4.76755368726e-40
-0.00919787497627 -0.0854088390653 0.71 1.11604454373e-39
-0.00791720506005 -0.0857697214839 0.713 2.49392731072e-39
-0.00662543106942 -0.0861306039025 0.716 3.23186789761e-39
-0.00532255300437 -0.0864914863211 0.719 3.9766580314e-39
-0.00400857086491 -0.0868523687397 0.722 3.8887826047e-39
-0.00268348465102 -0.0872132511582 0.725 1.20868158261e-39
-0.00135654775807 -0.0881756042745 0.733 1.01599743857e-39
0.0 -0.088295898414 0.734 1.01492544525e-39
0.00136765183249 -0.0888973691116 0.739 1.29328637869e-39
0.00273530366497 -0.0888973691116 0.739 7.38339956957e-40
0.00413071568351 -0.0894988398093 0.744 6.36541228718e-39
0.00554463449273 -0.0901003105069 0.749 6.08987076624e-39
0.00691228632522 -0.0898597222279 0.747 7.19478759887e-39
0.00829474359027 -0.0898597222279 0.747 6.91855523779e-39
0.00967720085531 -0.0898597222279 0.747 4.6129484277e-39
-0.0651439032524 -0.0833841961631 0.704 2.35098856151e-38
-0.063750341913 -0.0832657527026 0.703 2.35098856151e-38
-0.062449314527 -0.0832657527026 0.703 1.00490195733e-38
-0.061148287141 -0.0832657527026 0.703 3.72749595406e-40
-0.059847259755 -0.0832657527026 0.703 4.43433892543e-39
-0.058546232369 -0.0832657527026 0.703 9.50581323013e-39
-0.0570823452249 -0.0830288657817 0.701 1.61399567277e-38
-0.0557850191971 -0.0830288657817 0.701 1.89962191836e-38
-0.0544876931693 -0.0830288657817 0.701 2.06564383678e-38
-0.0531903671414 -0.0830288657817 0.701 1.54934872994e-38
-0.0518930411136 -0.0830288657817 0.701 6.73239413811e-39
-0.0505957150857 -0.0830288657817 0.701 9.36291581923e-41
-0.0492983890579 -0.0830288657817 0.701 3.70570576294e-40
-0.0479325879045 -0.0829104223213 0.7 9.39878905992e-41
-0.0466371125557 -0.0829104223213 0.7 1.79366203434e-42
-0.0453416372069 -0.0829104223213 0.7 5.62962969992e-39
-0.0440461618582 -0.0829104223213 0.7 1.17148943981e-38
-0.0427506865094 -0.0829104223213 0.7 1.41109410111e-38
-0.0414552111606 -0.0829104223213 0.7 1.33758184354e-38
-0.0401597358119 -0.0829104223213 0.7 1.24542138627e-38
-0.0388642604631 -0.0829104223213 0.7 1.95543479542e-38
-0.0375687851143 -0.0829104223213 0.7 1.734342548e-38
-0.0362733097656 -0.0829104223213 0.7 1.78037001775e-38
-0.0349778344168 -0.0829104223213 0.7 1.75264294543e-38
-0.033682359068 -0.0829104223213 0.7 1.63286051322e-38
-0.0323868837192 -0.0829104223213 0.7 1.61452690502e-38
-0.0310914083705 -0.0829104223213 0.7 1.81707492908e-38
-0.0297959330217 -0.0829104223213 0.7 1.78941960324e-38
-0.0285004576729 -0.0829104223213 0.7 1.72513531644e-38
-0.0272049823242 -0.0829104223213 0.7 1.74357920683e-38
-0.0259095069754 -0.0829104223213 0.7 1.82634241647e-38
-0.0246140316266 -0.0829104223213 0.7 1.77091615766e-38
-0.0233185562779 -0.0829104223213 0.7 8.11722174028e-39
-0.0220230809291 -0.0829104223213 0.7 8.94302654349e-39
-0.0207276055803 -0.0829104223213 0.7 1.03245526865e-38
-0.0195154107897 -0.0832657527026 0.703 1.05103354356e-38
-0.0182143834037 -0.0832657527026 0.703 8.57419637989e-39
-0.0169374148456 -0.0833841961631 0.704 1.30009753001e-38
-0.0156345367806 -0.0833841961631 0.704 1.87202796939e-38
-0.0143723736551 -0.083621083084 0.706 1.92784519048e-38
-0.0130657942319 -0.083621083084 0.706 1.47648191044e-38
-0.0117758709203 -0.0837395265445 0.707 3.60850749756e-39
-0.0104822462506 -0.0838579700049 0.708 1.04032397991e-41
-0.00919787497627 -0.0840948569259 0.71 2.40568194123e-39
-0.00791720506005 -0.0844501873072 0.713 1.57557234914e-39
-0.00662543106942 -0.0848055176886 0.716 5.54000685404e-39
-0.00532255300437 -0.08516084807 0.719 5.63473743282e-39
-0.00400857086491 -0.0855161784514 0.722 5.26596892635e-39
-0.00268348465102 -0.0858715088327 0.725 3.41812708819e-39
-0.00135099572086 -0.086463726135 0.73 2.22526196135e-42
0.0 -0.0871743868978 0.736 2.39676968299e-39
0.00136765183249 -0.0875297172792 0.739 2.11979883762e-39
0.00273530366497 -0.0875297172792 0.739 1.01205558599e-39
0.00414181975792 -0.0883588215024 0.746 7.74831310397e-39
0.00552982906018 -0.0884772649628 0.747 7.0121731856e-39
0.00690303292987 -0.0883588215024 0.746 7.01147393766e-39
0.00828363951585 -0.0883588215024 0.746 5.72004568073e-39
0.00966424610182 -0.0883588215024 0.746 3.8768337327e-39
-0.0666355505826 -0.0823145036608 0.706 2.35098856151e-38
-0.0651439032524 -0.082081318098 0.704 2.35098856151e-38
-0.063750341913 -0.0819647253167 0.703 2.35098856151e-38
-0.062449314527 -0.0819647253167 0.703 1.10617561904e-38
-0.061148287141 -0.0819647253167 0.703 2.94272677508e-44
-0.059847259755 -0.0819647253167 0.703 7.45101222048e-40
-0.058546232369 -0.0819647253167 0.703 4.30478888241e-42
-0.0570823452249 -0.0817315397539 0.701 2.81610544585e-40
-0.0557850191971 -0.0817315397539 0.701 3.2285916618e-42
-0.0544876931693 -0.0817315397539 0.701 1.29466525638e-39
-0.0531903671414 -0.0817315397539 0.701 1.05153086438e-38
-0.0518930411136 -0.0817315397539 0.701 1.63189922247e-38
-0.050523538602 -0.0816149469725 0.7 2.10216573853e-38
-0.0492280632532 -0.0816149469725 0.7 2.332616838e-38
-0.0479325879045 -0.0816149469725 0.7 2.24053064954e-38
-0.0466371125557 -0.0816149469725 0.7 1.5030034457e-38
-0.0452120896721 -0.0813817614097 0.698 2.12371686813e-39
-0.0439203156814 -0.0813817614097 0.698 1.79366203434e-42
-0.0426285416908 -0.0813817614097 0.698 1.80347112359e-42
-0.0413367677002 -0.0813817614097 0.698 1.79366203434e-42
-0.0400449937095 -0.0813817614097 0.698 1.79366203434e-42
-0.0387532197189 -0.0813817614097 0.698 2.30988637561e-39
-0.0374614457283 -0.0813817614097 0.698 6.64413055173e-39
-0.0361696717377 -0.0813817614097 0.698 1.18999891097e-38
-0.034877897747 -0.0813817614097 0.698 1.79849006806e-38
-0.0335861237564 -0.0813817614097 0.698 1.91844976453e-38
-0.0322943497658 -0.0813817614097 0.698 1.90022167411e-38
-0.0310025757751 -0.0813817614097 0.698 1.74349036451e-38
-0.0297108017845 -0.0813817614097 0.698 1.7988127871e-38
-0.0284190277939 -0.0813817614097 0.698 1.6517640295e-38
-0.0271272538032 -0.0813817614097 0.698 1.71637608e-38
-0.0258354798126 -0.0813817614097 0.698 1.76233362496e-38
-0.024543705822 -0.0813817614097 0.698 1.43939486503e-38
-0.0232519318313 -0.0813817614097 0.698 5.81544187629e-39
-0.0219601578407 -0.0813817614097 0.698 6.17780785007e-39
-0.0207276055803 -0.0816149469725 0.7 6.91470587091e-39
-0.0194598904176 -0.0817315397539 0.701 6.17820021364e-39
-0.0181625643898 -0.0817315397539 0.701 9.9585335276e-39
-0.0169374148456 -0.082081318098 0.704 1.88110614137e-38
-0.0156345367806 -0.082081318098 0.704 1.88142479664e-38
-0.0143723736551 -0.0823145036608 0.706 1.71590174047e-38
-0.0130657942319 -0.0823145036608 0.706 9.50932628538e-39
-0.0117758709203 -0.0824310964422 0.707 1.21969018335e-41
-0.0104822462506 -0.0825476892236 0.708 3.14287003085e-39
-0.00919787497627 -0.0827808747864 0.71 2.86593702054e-39
-0.00792830913447 -0.0832472459119 0.714 4.06486556584e-39
-0.00662543106942 -0.0834804314747 0.716 5.72584565508e-39
-0.00532255300437 -0.0838302098189 0.719 6.27831317983e-39
-0.00400857086491 -0.0841799881631 0.722 6.55347635018e-39
-0.00268348465102 -0.0845297665072 0.725 4.24644441955e-39
-0.00134174232551 -0.0845297665072 0.725 2.2159965759e-39
0.0 -0.0858122871025 0.736 2.3960354026e-39
0.00137135319063 -0.0863952510095 0.741 1.74992470667e-39
0.00274640773939 -0.0865118437908 0.742 1.93292727962e-39
0.00414737179513 -0.0870948076978 0.747 6.73379403527e-39
0.00552982906018 -0.0870948076978 0.747 8.11744454674e-39
0.00690303292987 -0.0869782149164 0.746 7.74940051158e-39
0.00828363951585 -0.0869782149164 0.746 4.98320931703e-39
0.0100269791995 -0.0902428127953 0.774 4.33853635332e-39
0.0114594047994 -0.0902428127953 0.774 3.97047269998e-39
0.0129251426226 -0.0904759983581 0.776 4.06231940653e-39
-0.0666355505826 -0.0810079242376 0.706 2.35098856151e-38
-0.0651439032524 -0.080778440033 0.704 2.35098856151e-38
-0.063750341913 -0.0806636979307 0.703 2.35098856151e-38
-0.062449314527 -0.0806636979307 0.703 1.5577897315e-38
-0.061148287141 -0.0806636979307 0.703 5.32493416443e-44
-0.059847259755 -0.0806636979307 0.703 1.38832944704e-39
-0.058546232369 -0.0806636979307 0.703 2.31100180919e-39
-0.0570823452249 -0.080434213726 0.701 3.23081131857e-39
-0.0557850191971 -0.080434213726 0.701 2.58363563581e-39
-0.0544876931693 -0.080434213726 0.701 1.38652317332e-39
-0.0531903671414 -0.080434213726 0.701 4.67192908006e-42
-0.0518930411136 -0.080434213726 0.701 3.23419685566e-42
-0.050523538602 -0.0803194716237 0.7 2.1523944412e-42
-0.0492280632532 -0.0803194716237 0.7 5.57111427865e-40
-0.0479325879045 -0.0803194716237 0.7 7.65510013142e-39
-0.0465038636627 -0.0800899874191 0.698 1.70587264736e-38
-0.0452120896721 -0.0800899874191 0.698 2.0378118072e-38
-0.0439203156814 -0.0800899874191 0.698 1.90891532978e-38
-0.0426285416908 -0.0800899874191 0.698 2.07490263613e-38
-0.0413367677002 -0.0800899874191 0.698 1.45708471671e-38
-0.0400449937095 -0.0800899874191 0.698 8.48556565332e-39
-0.0387532197189 -0.0800899874191 0.698 2.1523944412e-42
-0.0374614457283 -0.0800899874191 0.698 2.51112684807e-42
-0.0361696717377 -0.0800899874191 0.698 7.17464813734e-43
-0.034877897747 -0.0800899874191 0.698 7.38988758146e-40
-0.0335380061006 -0.0799752453168 0.697 2.1523944412e-42
-0.032248082789 -0.0799752453168 0.697 7.74689498992e-39
-0.0309581594775 -0.0799752453168 0.697 1.78898660201e-38
-0.0296682361659 -0.0799752453168 0.697 2.08426246909e-38
-0.0283783128543 -0.0799752453168 0.697 1.93713748085e-38
-0.0270883895428 -0.0799752453168 0.697 1.77139862472e-38
-0.0257984662312 -0.0799752453168 0.697 1.6882115223e-38
-0.0245085429197 -0.0799752453168 0.697 1.82653817787e-38
-0.0232519318313 -0.0800899874191 0.698 2.06596277231e-38
-0.0219601578407 -0.0800899874191 0.698 1.8352255277e-38
-0.0206683838501 -0.0800899874191 0.698 1.56764071957e-38
-0.0193766098595 -0.0800899874191 0.698 8.30005195352e-39
-0.0180848358688 -0.0800899874191 0.698 1.69689158538e-38
-0.0169133560177 -0.0806636979307 0.703 1.74323925182e-38
-0.0156345367806 -0.080778440033 0.704 1.73419891491e-38
-0.0143316587155 -0.080778440033 0.704 1.30109553478e-38
-0.0130657942319 -0.0810079242376 0.706 3.23721244996e-39
-0.0117592148087 -0.0810079242376 0.706 1.48480744501e-39
-0.0105118571157 -0.0814668926469 0.71 3.78752617897e-39
-0.00923673923673 -0.0818111189539 0.713 2.95706065707e-39
-0.00792830913447 -0.0819258610562 0.714 7.93601423067e-39
-0.00663468446477 -0.0822700873632 0.717 7.56725693459e-39
-0.00532255300437 -0.0824995715678 0.719 7.75129927099e-39
-0.00400857086491 -0.0828437978748 0.722 8.02681416726e-39
-0.00267608193474 -0.0829585399771 0.723 5.90415948336e-39
-0.00134174232551 -0.0831880241817 0.725 2.12198906712e-39
0.0 -0.0850238978188 0.741 8.11142456853e-39
0.00137135319063 -0.0850238978188 0.741 7.83409919465e-39
0.00276121317195 -0.0855976083304 0.746 2.76195506929e-39
0.00414737179513 -0.0857123504327 0.747 7.93019323685e-39
0.00552982906018 -0.0857123504327 0.747 8.3929636469e-39
0.00690303292987 -0.0855976083304 0.746 7.37955160399e-39
0.00828363951585 -0.0855976083304 0.746 4.98213031721e-39
0.0100269791995 -0.0888103871954 0.774 5.44488671428e-39
0.0114594047994 -0.0888103871954 0.774 4.1548751701e-39
0.0129251426226 -0.0890398714 0.776 4.70769862466e-39
-0.0653289711594 -0.0797013448145 0.706 2.35098856151e-38
-0.063750341913 -0.0793626705447 0.703 2.35098856151e-38
-0.062449314527 -0.0793626705447 0.703 1.81604147146e-38
-0.061148287141 -0.0793626705447 0.703 3.92363570011e-44
-0.059847259755 -0.0793626705447 0.703 2.40210442625e-39
-0.0583796712528 -0.0791368876982 0.701 1.94327166488e-39
-0.0570823452249 -0.0791368876982 0.701 2.67834099122e-39
-0.0557850191971 -0.0791368876982 0.701 3.41445568622e-39
-0.0544876931693 -0.0791368876982 0.701 2.4935755848e-39
-0.0531903671414 -0.0791368876982 0.701 2.21879496893e-39
-0.0518930411136 -0.0791368876982 0.701 2.21879496893e-39
-0.050523538602 -0.079023996275 0.7 1.94112627693e-39
-0.0492280632532 -0.079023996275 0.7 7.42585891304e-40
-0.0479325879045 -0.079023996275 0.7 1.43492962747e-42
-0.0465038636627 -0.0787982134285 0.698 2.1523944412e-42
-0.0452120896721 -0.0787982134285 0.698 3.2285916618e-42
-0.0439203156814 -0.0787982134285 0.698 2.1523944412e-42
-0.0426285416908 -0.0787982134285 0.698 7.37960345203e-39
-0.0412775459699 -0.0786853220052 0.697 1.549104904e-38
-0.0399876226584 -0.0786853220052 0.697 2.01022360356e-38
-0.0386976993468 -0.0786853220052 0.697 2.09326791367e-38
-0.0374077760353 -0.0786853220052 0.697 1.95486712941e-38
-0.0361178527237 -0.0786853220052 0.697 1.63196774597e-38
-0.0348279294121 -0.0786853220052 0.697 5.34838909813e-39
-0.0335380061006 -0.0786853220052 0.697 1.84747189537e-40
-0.032248082789 -0.0786853220052 0.697 7.35066523745e-40
-0.0309581594775 -0.0786853220052 0.697 3.92363570011e-44
-0.0296682361659 -0.0786853220052 0.697 7.17464813734e-43
-0.0283783128543 -0.0786853220052 0.697 7.56321699111e-39
-0.0270883895428 -0.0786853220052 0.697 1.79795393127e-38
-0.0257984662312 -0.0786853220052 0.697 1.94592544391e-38
-0.0245085429197 -0.0786853220052 0.697 1.94620766542e-38
-0.0232186196081 -0.0786853220052 0.697 1.8725275323e-38
-0.0219286962965 -0.0786853220052 0.697 1.79887948891e-38
-0.020638772985 -0.0786853220052 0.697 1.93659643951e-38
-0.0193766098595 -0.0787982134285 0.698 2.08393260343e-38
-0.0180848358688 -0.0787982134285 0.698 1.85383659299e-38
-0.0168652383619 -0.0791368876982 0.701 1.73430429256e-38
-0.0156123286317 -0.0793626705447 0.703 1.52243539163e-38
-0.0143113012458 -0.0793626705447 0.703 6.18922002477e-39
-0.0130657942319 -0.0797013448145 0.706 6.54327910126e-40
-0.0117592148087 -0.0797013448145 0.706 2.68262055673e-39
-0.010571078846 -0.0806044762005 0.714 5.07646993372e-39
-0.00924969399022 -0.0806044762005 0.714 7.93419674656e-39
-0.00795051728331 -0.080830259047 0.716 9.77814577758e-39
-0.00663468446477 -0.0809431504702 0.717 8.94877046589e-39
-0.00532255300437 -0.0811689333167 0.719 8.57999215033e-39
-0.00400857086491 -0.0815076075865 0.722 8.48635318305e-39
-0.00267608193474 -0.0816204990097 0.723 6.91686387055e-39
-0.00134174232551 -0.0818462818562 0.725 3.87296895153e-39
0.0 -0.0837654360515 0.742 1.22591334983e-38
0.0013732038697 -0.0837654360515 0.742 1.16141060061e-38
0.00276121317195 -0.0842170017445 0.746 2.30059997069e-39
0.00414737179513 -0.0843298931677 0.747 9.31242283167e-39
0.00552982906018 -0.0843298931677 0.747 9.68264028075e-39
0.00690303292987 -0.0842170017445 0.746 7.19373242113e-39
0.00828363951585 -0.0842170017445 0.746 6.64128871845e-39
0.0100269791995 -0.0873779615954 0.774 6.55015807542e-39
0.0114594047994 -0.0873779615954 0.774 4.80097605694e-39
0.0129251426226 -0.0876037444419 0.776 4.79954533121e-39
0.0144908171155 -0.0883939844047 0.783 4.43004394564e-39
0.0159398988271 -0.0883939844047 0.783 4.61298486146e-39
0.0173889805386 -0.0883939844047 0.783 3.68993274742e-39
-0.0667299352151 -0.0785058061354 0.707 2.35098856151e-38
-0.0653289711594 -0.0783947653913 0.706 2.35098856151e-38
-0.0638410251874 -0.0781726839029 0.704 2.35098856151e-38
-0.062449314527 -0.0780616431587 0.703 2.21255120337e-38
-0.061148287141 -0.0780616431587 0.703 1.83704623479e-40
-0.059847259755 -0.0780616431587 0.703 1.66489111326e-39
-0.0583796712528 -0.0778395616704 0.701 2.58898018815e-39
-0.0570823452249 -0.0778395616704 0.701 3.50844357682e-39
-0.0557850191971 -0.0778395616704 0.701 3.13856804456e-39
-0.0544876931693 -0.0778395616704 0.701 3.04709548471e-39
-0.0531144892996 -0.0777285209262 0.7 2.40388968049e-39
-0.0518190139508 -0.0777285209262 0.7 1.94255700266e-39
-0.050523538602 -0.0777285209262 0.7 1.66526525995e-39
-0.0492280632532 -0.0777285209262 0.7 1.75711196649e-39
-0.0477956376533 -0.0775064394378 0.698 2.03332751199e-39
-0.0465038636627 -0.0775064394378 0.698 1.48085157944e-39
-0.0452120896721 -0.0775064394378 0.698 1.1124291937e-39
-0.0439203156814 -0.0775064394378 0.698 3.73440435549e-40
-0.0426285416908 -0.0775064394378 0.698 1.43913352286e-42
-0.0412775459699 -0.0773953986936 0.697 9.57983682151e-41
-0.0399876226584 -0.0773953986936 0.697 1.79366203434e-42
-0.0386976993468 -0.0773953986936 0.697 2.80175614957e-40
-0.0374077760353 -0.0773953986936 0.697 7.46823137601e-39
-0.0361178527237 -0.0773953986936 0.697 1.86231823221e-38
-0.0348279294121 -0.0773953986936 0.697 2.3509865997e-38
-0.0335380061006 -0.0773953986936 0.697 2.35098323658e-38
-0.032248082789 -0.0773953986936 0.697 2.35098435762e-38
-0.0309581594775 -0.0773953986936 0.697 2.08380032085e-38
-0.0296682361659 -0.0773953986936 0.697 2.76977291342e-39
-0.0283783128543 -0.0773953986936 0.697 6.45718332361e-40
-0.0270883895428 -0.0773953986936 0.697 5.51035397723e-40
-0.0257984662312 -0.0773953986936 0.697 1.19495446286e-39
-0.0245085429197 -0.0773953986936 0.697 8.20750740034e-39
-0.0232186196081 -0.0773953986936 0.697 1.91813307108e-38
-0.0219286962965 -0.0773953986936 0.697 1.9095173276e-38
-0.020638772985 -0.0773953986936 0.697 1.94606431259e-38
-0.0193766098595 -0.0775064394378 0.698 1.88145492455e-38
-0.0180848358688 -0.0775064394378 0.698 1.77107338335e-38
-0.016841179534 -0.0777285209262 0.7 1.72526227408e-38
-0.0155679123341 -0.0778395616704 0.701 1.01539586114e-38
-0.0143113012458 -0.0780616431587 0.703 9.31269328227e-40
-0.0130287806505 -0.0781726839029 0.704 2.67978152604e-39
-0.0117592148087 -0.0783947653913 0.706 6.2746950272e-39
-0.010571078846 -0.0792830913447 0.714 5.62858993646e-39
-0.00924969399022 -0.0792830913447 0.714 1.07908389544e-38
-0.00795051728331 -0.0795051728331 0.716 9.77708079075e-39
-0.00663468446477 -0.0796162135772 0.717 9.22464549586e-39
-0.00532995572065 -0.0799493358098 0.72 9.22464549586e-39
-0.00400857086491 -0.0801714172981 0.722 8.76257433374e-39
-0.00267608193474 -0.0802824580423 0.723 1.23563948221e-38
-0.00133804096737 -0.0802824580423 0.723 1.05110388874e-38
0.0 -0.0802824580423 0.723 9.21775391001e-39
0.00138245726504 -0.0829474359027 0.747 1.20758002189e-38
0.00276491453009 -0.0829474359027 0.747 5.15901341977e-39
0.00414737179513 -0.0829474359027 0.747 1.06946538278e-38
0.00554463449273 -0.083169517391 0.749 8.85216915366e-39
0.00693079311592 -0.083169517391 0.749 7.65363997842e-39
0.0083169517391 -0.083169517391 0.749 7.37812788475e-39
0.010014024446 -0.0858344952513 0.773 6.64056284584e-39
0.0114890156645 -0.0861676174839 0.776 5.35271630779e-39
0.0129584548458 -0.0863896989722 0.778 5.5367558416e-39
0.0144908171155 -0.0869449026931 0.783 4.7051945043e-39
0.0159398988271 -0.0869449026931 0.783 7.46925152129e-39
0.0173889805386 -0.0869449026931 0.783 8.2060794772e-39
0.0189342975618 -0.0873890656699 0.787 6.63838382673e-39
-0.0667299352151 -0.0771973760332 0.707 2.35098856151e-38
-0.0653289711594 -0.0770881859681 0.706 2.35098856151e-38
-0.0638410251874 -0.0768698058379 0.704 2.35098856151e-38
-0.0625381471223 -0.0768698058379 0.704 2.35095212775e-38
-0.061148287141 -0.0767606157727 0.703 9.19506828918e-40
-0.059847259755 -0.0767606157727 0.703 1.9404242264e-39
-0.058546232369 -0.0767606157727 0.703 3.32619630374e-39
-0.0570823452249 -0.0765422356425 0.701 2.86236931465e-39
-0.0557850191971 -0.0765422356425 0.701 3.69138869653e-39
-0.0544876931693 -0.0765422356425 0.701 3.2300588213e-39
-0.0531144892996 -0.0764330455774 0.7 2.86343710408e-39
-0.0518190139508 -0.0764330455774 0.7 2.21877254816e-39
-0.050523538602 -0.0764330455774 0.7 2.40281208197e-39
-0.0492280632532 -0.0764330455774 0.7 2.67869131584e-39
-0.0477956376533 -0.0762146654472 0.698 2.31026612749e-39
-0.0465038636627 -0.0762146654472 0.698 2.12552314185e-39
-0.0452120896721 -0.0762146654472 0.698 2.12481828872e-39
-0.0439203156814 -0.0762146654472 0.698 1.84858032245e-39
-0.0426285416908 -0.0762146654472 0.698 1.48120610795e-39
-0.0412775459699 -0.0761054753821 0.697 1.29575686789e-39
-0.0399876226584 -0.0761054753821 0.697 1.89414914721e-40
-0.0386976993468 -0.0761054753821 0.697 2.1523944412e-42
-0.0374077760353 -0.0761054753821 0.697 2.52794242964e-42
-0.0361178527237 -0.0761054753821 0.697 1.08880890678e-42
-0.0347779610773 -0.075996285317 0.696 7.17464813734e-43
-0.0334898884448 -0.075996285317 0.696 1.0761972206e-42
-0.0322018158123 -0.075996285317 0.696 1.26304635783e-38
-0.0309137431798 -0.075996285317 0.696 2.22202426125e-38
-0.0296256705473 -0.075996285317 0.696 2.32340203943e-38
-0.0283375979148 -0.075996285317 0.696 2.31417939358e-38
-0.0270883895428 -0.0761054753821 0.697 2.35091653477e-38
-0.0257614526498 -0.075996285317 0.696 2.16648659921e-38
-0.0244733800173 -0.075996285317 0.696 3.72005505921e-40
-0.0232186196081 -0.0761054753821 0.697 8.35129043187e-40
-0.0219286962965 -0.0761054753821 0.697 1.85071590131e-39
-0.020638772985 -0.0761054753821 0.697 1.38350015214e-38
-0.0193766098595 -0.0762146654472 0.698 2.07514127725e-38
-0.0180848358688 -0.0762146654472 0.698 1.89085875829e-38
-0.016841179534 -0.0764330455774 0.7 1.60523041075e-38
-0.0155679123341 -0.0765422356425 0.701 3.60490195661e-39
-0.0143113012458 -0.0767606157727 0.703 2.77159320013e-39
-0.0130287806505 -0.0768698058379 0.704 6.92004762066e-39
-0.0117592148087 -0.0770881859681 0.706 9.040192579e-39
-0.010571078846 -0.077961706489 0.714 1.05149709309e-38
-0.00927560349719 -0.0781800866192 0.716 1.10674426596e-38
-0.00796162135772 -0.0782892766843 0.717 9.31611104923e-39
-0.00665319125547 -0.0785076568145 0.719 9.40939688929e-39
-0.00532995572065 -0.0786168468796 0.72 9.04060596205e-39
-0.00400857086491 -0.0788352270098 0.722 1.04224473972e-38
-0.00267608193474 -0.078944417075 0.723 1.21723524857e-38
-0.00133804096737 -0.078944417075 0.723 1.17092107315e-38
0.0 -0.0815649786376 0.747 8.38908345145e-39
0.00138245726504 -0.0815649786376 0.747 1.30910423576e-38
0.00277231724637 -0.0817833587678 0.749 6.54409886086e-39
0.00415847586955 -0.0817833587678 0.749 9.95781886538e-39
0.00554463449273 -0.0817833587678 0.749 9.86632668735e-39
0.00693079311592 -0.0817833587678 0.749 9.03585836285e-39
0.0083169517391 -0.0817833587678 0.749 9.12840431733e-39
0.00998811493901 -0.0841855402003 0.771 8.667078646e-39
0.0115630428273 -0.0852774408514 0.781 7.47213679483e-39
0.0130084231807 -0.0852774408514 0.781 6.27324047939e-39
0.0144908171155 -0.0854958209816 0.783 5.80974419673e-39
0.0159398988271 -0.0854958209816 0.783 8.75855120585e-39
0.0173889805386 -0.0854958209816 0.783 9.03512127986e-39
0.0189342975618 -0.085932581242 0.787 7.65253855783e-39
-0.0667299352151 -0.0758889459309 0.707 2.35098856151e-38
-0.0653289711594 -0.0757816065449 0.706 2.35098856151e-38
-0.0640223917362 -0.0757816065449 0.706 2.35098856151e-38
-0.0625381471223 -0.0755669277728 0.704 2.35098786087e-38
-0.0612352690573 -0.0755669277728 0.704 8.68805047881e-44
-0.0599323909922 -0.0755669277728 0.704 1.75605538745e-39
-0.058546232369 -0.0754595883868 0.703 3.78682132584e-39
-0.0572452049831 -0.0754595883868 0.703 3.96764628098e-39
-0.0559441775971 -0.0754595883868 0.703 3.689949563e-39
-0.0544876931693 -0.0752449096147 0.701 3.22861968777e-39
-0.0531903671414 -0.0752449096147 0.701 2.58576560947e-39
-0.0518930411136 -0.0752449096147 0.701 2.86235530166e-39
-0.050523538602 -0.0751375702286 0.7 2.40102402513e-39
-0.0492280632532 -0.0751375702286 0.7 2.3095332484e-39
-0.0479325879045 -0.0751375702286 0.7 2.21840120407e-39
-0.0465038636627 -0.0749228914566 0.698 2.21840260536e-39
-0.0452120896721 -0.0749228914566 0.698 2.2173642432e-39
-0.0439203156814 -0.0749228914566 0.698 1.941150099e-39
-0.0426285416908 -0.0749228914566 0.698 1.66596731048e-39
-0.0412775459699 -0.0748155520705 0.697 1.02060350663e-39
-0.0399876226584 -0.0748155520705 0.697 1.66562959755e-39
-0.0386976993468 -0.0748155520705 0.697 1.84931039895e-39
-0.0374077760353 -0.0748155520705 0.697 3.74530645754e-40
-0.0361178527237 -0.0748155520705 0.697 7.43662088525e-40
-0.0347779610773 -0.0747082126845 0.696 3.58732406867e-42
-0.0334898884448 -0.0747082126845 0.696 1.80907631744e-42
-0.0322018158123 -0.0747082126845 0.696 3.88159674618e-43
-0.0309137431798 -0.0747082126845 0.696 3.78350585368e-43
-0.0296256705473 -0.0747082126845 0.696 4.00771360797e-43
-0.0283375979148 -0.0747082126845 0.696 1.26116861789e-44
-0.0270495252823 -0.0747082126845 0.696 1.03252197045e-38
-0.0257614526498 -0.0747082126845 0.696 2.27694619274e-38
-0.0244733800173 -0.0747082126845 0.696 2.29574377086e-38
-0.0231853073848 -0.0747082126845 0.696 2.29588572239e-38
-0.0219286962965 -0.0748155520705 0.697 2.27751946394e-38
-0.020638772985 -0.0748155520705 0.697 9.77989039417e-39
-0.0193488496734 -0.0748155520705 0.697 8.85966750174e-39
-0.0180848358688 -0.0749228914566 0.698 1.62345653935e-38
-0.016841179534 -0.0751375702286 0.7 8.95039737341e-39
-0.0155679123341 -0.0752449096147 0.701 4.89132337413e-39
-0.0143113012458 -0.0754595883868 0.703 8.85364331964e-39
-0.0130657942319 -0.0757816065449 0.706 9.31571167916e-39
-0.0117758709203 -0.0758889459309 0.707 9.31608022066e-39
-0.010571078846 -0.0766403216332 0.714 1.15291438789e-38
-0.00927560349719 -0.0768550004053 0.716 1.0054027814e-38
-0.00796162135772 -0.0769623397913 0.717 9.59413987494e-39
-0.00666244465082 -0.0772843579495 0.72 1.00558368904e-38
-0.00534476115321 -0.0774990367215 0.722 9.87143161765e-39
-0.00401412290212 -0.0776063761076 0.723 1.26365634306e-38
-0.00267608193474 -0.0776063761076 0.723 1.21737790075e-38
-0.00133804096737 -0.0776063761076 0.723 1.19868710158e-38
0.0 -0.0801825213726 0.747 9.22030006932e-39
0.00138245726504 -0.0801825213726 0.747 1.24478491651e-38
0.00277231724637 -0.0803972001446 0.749 8.2979738279e-39
0.00415847586955 -0.0803972001446 0.749 1.05117227211e-38
0.00555203720901 -0.0805045395307 0.75 1.06968062222e-38
0.00697706009266 -0.0809338970749 0.754 1.03269531107e-38
0.00853903322746 -0.0825439878655 0.769 1.03262230342e-38
0.00998811493901 -0.0827586666375 0.771 9.86419110849e-39
0.0115630428273 -0.083832060498 0.781 9.40680588843e-39
0.0130084231807 -0.083832060498 0.781 9.03694156657e-39
0.0144908171155 -0.08404673927 0.783 8.75819947994e-39
0.0158991838875 -0.083832060498 0.781 8.5723620802e-39
0.017344564241 -0.083832060498 0.781 1.0047478145e-38
-0.0668243198477 -0.0746860045356 0.708 2.35098856151e-38
-0.0653289711594 -0.0744750271217 0.706 2.35098856151e-38
-0.0640223917362 -0.0744750271217 0.706 2.35098856151e-38
-0.062715812313 -0.0744750271217 0.706 2.33261936034e-38
-0.0612352690573 -0.0742640497078 0.704 9.19265805582e-41
-0.0599323909922 -0.0742640497078 0.704 1.6642114835e-39
-0.0586295129272 -0.0742640497078 0.704 4.24850432829e-39
-0.0572452049831 -0.0741585610008 0.703 3.59884694594e-39
-0.0559441775971 -0.0741585610008 0.703 4.88883046416e-39
-0.0546431502111 -0.0741585610008 0.703 5.9948290992e-39
-0.0533421228251 -0.0741585610008 0.703 5.81223010021e-39
-0.0520410954391 -0.0741585610008 0.703 3.60023843532e-39
-0.0505957150857 -0.0739475835868 0.701 3.13677578382e-39
-0.0492983890579 -0.0739475835868 0.701 2.76801568515e-39
-0.0480010630301 -0.0739475835868 0.701 2.95382365762e-39
-0.0466371125557 -0.0738420948799 0.7 2.1262069755e-39
-0.0453416372069 -0.0738420948799 0.7 2.12587206517e-39
-0.0439203156814 -0.0736311174659 0.698 1.94185635343e-39
-0.0426285416908 -0.0736311174659 0.698 1.66597291567e-39
-0.0412775459699 -0.073525628759 0.697 1.20713454911e-39
-0.0399876226584 -0.073525628759 0.697 1.39117828682e-39
-0.0386976993468 -0.073525628759 0.697 1.48232014023e-39
-0.0374077760353 -0.073525628759 0.697 6.53262923293e-40
-0.0361178527237 -0.073525628759 0.697 1.92998034895e-40
-0.0347779610773 -0.073420140052 0.696 8.38367443938e-40
-0.0334898884448 -0.073420140052 0.696 6.53274133681e-40
-0.0322018158123 -0.073420140052 0.696 7.89491554801e-42
-0.0309137431798 -0.073420140052 0.696 4.30478888241e-42
-0.0296256705473 -0.073420140052 0.696 2.16220353045e-42
-0.0282561680357 -0.073209162638 0.694 1.79366203434e-42
-0.0269717967614 -0.073209162638 0.694 1.10001929449e-42
-0.025687425487 -0.073209162638 0.694 4.90454462514e-44
-0.0244733800173 -0.073420140052 0.696 3.68541496117e-43
-0.0231853073848 -0.073420140052 0.696 2.86166446152e-39
-0.0218972347523 -0.073420140052 0.696 1.40169895543e-38
-0.0206091621199 -0.073420140052 0.696 2.13958755415e-38
-0.0193488496734 -0.073525628759 0.697 1.94615203387e-38
-0.0180589263618 -0.073525628759 0.697 1.52204344845e-38
-0.016841179534 -0.0738420948799 0.7 6.55010762867e-39
-0.0155679123341 -0.0739475835868 0.701 1.09723197172e-38
-0.0143113012458 -0.0741585610008 0.703 1.05113555809e-38
-0.0130657942319 -0.0744750271217 0.706 8.94621309619e-39
-0.0117758709203 -0.0745805158287 0.707 1.03313083464e-38
-0.010571078846 -0.0753189367775 0.714 9.86998968153e-39
-0.00927560349719 -0.0755299141914 0.716 9.96255945809e-39
-0.00796162135772 -0.0756354028984 0.717 1.01480325202e-38
-0.00666244465082 -0.0759518690193 0.72 9.22714961622e-39
-0.00534476115321 -0.0761628464332 0.722 9.13493436818e-39
-0.00401412290212 -0.0762683351402 0.723 1.20837385747e-38
-0.00268348465102 -0.0764793125542 0.725 1.23581646621e-38
-0.00134174232551 -0.0764793125542 0.725 1.2356009465e-38
0.0 -0.0788000641075 0.747 8.66858083795e-39
0.00138245726504 -0.0788000641075 0.747 9.22281680137e-39
0.00277231724637 -0.0790110415215 0.749 9.95965736897e-39
0.00415847586955 -0.0790110415215 0.749 9.77560242087e-39
0.00567048066947 -0.08080434954 0.766 1.11585004351e-38
0.00708810083684 -0.08080434954 0.766 1.11567137795e-38
0.00851682507863 -0.0809098382469 0.767 1.12485324601e-38
0.0115926536924 -0.0825976575585 0.783 1.06035484081e-38
0.013041735404 -0.0825976575585 0.783 9.9585363302e-39
0.0144908171155 -0.0825976575585 0.783 9.58723848e-39
0.0158991838875 -0.0823866801445 0.781 9.67834950485e-39
0.017344564241 -0.0823866801445 0.781 1.05084590969e-38
-0.0668243198477 -0.0733757237543 0.708 2.35098856151e-38
-0.0655140390664 -0.0733757237543 0.708 2.35098856151e-38
-0.0641130750106 -0.0732720857264 0.707 2.35098856151e-38
-0.0628046449084 -0.0732720857264 0.707 2.25886481826e-38
-0.0614092328898 -0.0731684476985 0.706 1.10501352222e-39
-0.0601026534666 -0.0731684476985 0.706 6.50415484813e-40
-0.0586295129272 -0.0729611716427 0.704 4.52295844162e-39
-0.0573266348621 -0.0729611716427 0.704 4.88956614585e-39
-0.0560237567971 -0.0729611716427 0.704 6.91676577965e-39
-0.0546431502111 -0.0728575336148 0.703 7.74726213012e-39
-0.0533421228251 -0.0728575336148 0.703 6.36719754142e-39
-0.0520410954391 -0.0728575336148 0.703 7.38205152045e-39
-0.0507400680532 -0.0728575336148 0.703 7.10405492461e-39
-0.0494390406672 -0.0728575336148 0.703 2.03260864588e-39
-0.0480010630301 -0.072650257559 0.701 3.69249291972e-39
-0.0467037370022 -0.072650257559 0.701 1.94183393266e-39
-0.0453416372069 -0.0725466195311 0.7 2.67939757026e-39
-0.0440461618582 -0.0725466195311 0.7 2.95456214191e-39
-0.0426285416908 -0.0723393434753 0.698 1.93934522658e-39
-0.0413367677002 -0.0723393434753 0.698 1.48159006373e-39
-0.0400449937095 -0.0723393434753 0.698 1.66706312587e-39
-0.0386976993468 -0.0722357054474 0.697 1.75817975592e-39
-0.0374077760353 -0.0722357054474 0.697 1.38938602608e-39
-0.0361178527237 -0.0722357054474 0.697 1.38865875218e-39
-0.0347779610773 -0.0721320674195 0.696 1.02131536625e-39
-0.0334898884448 -0.0721320674195 0.696 1.29970152306e-39
-0.0322018158123 -0.0721320674195 0.696 4.70658319108e-40
-0.0309137431798 -0.0721320674195 0.696 1.04074436945e-41
-0.0295405393101 -0.0719247913637 0.694 3.78834033338e-40
-0.0282561680357 -0.0719247913637 0.694 5.61416216747e-40
-0.0269717967614 -0.0719247913637 0.694 8.35130444485e-40
-0.025687425487 -0.0719247913637 0.694 5.57111427865e-40
-0.0244030542127 -0.0719247913637 0.694 2.86985925494e-42
-0.0231853073848 -0.0721320674195 0.696 1.79366203434e-42
-0.0218972347523 -0.0721320674195 0.696 1.43492962747e-42
-0.0206091621199 -0.0721320674195 0.696 1.08320371292e-42
-0.0193488496734 -0.0722357054474 0.697 9.40755698441e-39
-0.0180589263618 -0.0722357054474 0.697 9.77734423486e-39
-0.016841179534 -0.0725466195311 0.7 1.00517969469e-38
-0.0155679123341 -0.072650257559 0.701 1.01436436534e-38
-0.0143113012458 -0.0728575336148 0.703 8.94691514673e-39
-0.0130657942319 -0.0731684476985 0.706 1.00547326672e-38
-0.0118424953668 -0.073686637838 0.711 1.03331230279e-38
-0.0106006897111 -0.0742048279775 0.716 9.13423371894e-39
-0.00927560349719 -0.0742048279775 0.716 1.01469535204e-38
-0.00798382950656 -0.0745157420612 0.719 1.00540320179e-38
-0.00668095144151 -0.0748266561449 0.722 1.07901509168e-38
-0.00535216386949 -0.0749302941728 0.723 1.08816164702e-38
-0.00401412290212 -0.0749302941728 0.723 1.38307892182e-38
-0.00268348465102 -0.0751375702286 0.725 1.38297102184e-38
-0.00134174232551 -0.0751375702286 0.725 1.18014063614e-38
0.0 -0.0777285209262 0.75 8.38911287872e-39
0.00138800930225 -0.0777285209262 0.75 9.31142370586e-39
0.00277601860451 -0.0777285209262 0.75 1.23538626758e-38
0.00416402790676 -0.0777285209262 0.75 1.1709193916e-38
0.00564086980436 -0.078972177261 0.762 1.1710250495e-38
0.00706959404614 -0.0791794533168 0.764 1.24470966678e-38
0.00850572100421 -0.0793867293726 0.766 1.19864744483e-38
-0.0670130891128 -0.0722690176707 0.71 2.35098856151e-38
-0.0655140390664 -0.072065442973 0.708 2.35098856151e-38
-0.0641130750106 -0.0719636556242 0.707 2.35098856151e-38
-0.0628046449084 -0.0719636556242 0.707 2.32343791267e-38
-0.0614962148061 -0.0719636556242 0.707 3.13331457662e-39
-0.0601877847038 -0.0719636556242 0.707 2.80551162946e-40
-0.0587960740434 -0.0718618682753 0.706 4.89031023534e-39
-0.0574894946203 -0.0718618682753 0.706 4.24203593458e-39
-0.0560237567971 -0.0716582935777 0.704 8.204989267e-39
-0.054720878732 -0.0716582935777 0.704 8.02061762545e-39
-0.053418000667 -0.0716582935777 0.704 6.73202559661e-39
-0.0521151226019 -0.0716582935777 0.704 6.73309058344e-39
-0.0507400680532 -0.0715565062288 0.703 7.56215200428e-39
-0.0494390406672 -0.0715565062288 0.703 4.51900537865e-39
-0.0481380132812 -0.0715565062288 0.703 1.56946969433e-39
-0.0468369858952 -0.0715565062288 0.703 2.6754417047e-39
-0.0454064109744 -0.0713529315312 0.701 1.84567823333e-39
-0.0441090849465 -0.0713529315312 0.701 2.5810880752e-39
-0.0427506865094 -0.0712511441823 0.7 2.39528150402e-39
-0.0413367677002 -0.0710475694847 0.698 2.21556077208e-39
-0.0400449937095 -0.0710475694847 0.698 2.49393992241e-39
-0.0387532197189 -0.0710475694847 0.698 1.57197941988e-39
-0.0374077760353 -0.0709457821358 0.697 1.2957484601e-39
-0.0361178527237 -0.0709457821358 0.697 1.57269548339e-39
-0.0347779610773 -0.070843994787 0.696 1.8503641754e-39
-0.0334898884448 -0.070843994787 0.696 8.37654183019e-40
-0.0322018158123 -0.070843994787 0.696 9.30930213999e-40
-0.0309137431798 -0.070843994787 0.696 4.71748529313e-40
-0.0295405393101 -0.0706404200893 0.694 2.86991530688e-40
-0.0282561680357 -0.0706404200893 0.694 3.77027759617e-40
-0.0269717967614 -0.0706404200893 0.694 1.20426749245e-39
-0.025687425487 -0.0706404200893 0.694 1.48049144574e-39
-0.0244030542127 -0.0706404200893 0.694 1.38722242125e-39
-0.0231853073848 -0.070843994787 0.696 1.20319970302e-39
-0.0218972347523 -0.070843994787 0.696 6.50390261441e-40
-0.0206091621199 -0.070843994787 0.696 1.11065234724e-39
-0.0193488496734 -0.0709457821358 0.697 3.64337600724e-43
-0.0180848358688 -0.0710475694847 0.698 4.15270455877e-39
-0.0168652383619 -0.0713529315312 0.701 9.59046987426e-39
-0.0156123286317 -0.0715565062288 0.703 9.68374450394e-39
-0.0143316587155 -0.0716582935777 0.704 8.67069399603e-39
-0.0130657942319 -0.0718618682753 0.706 9.59412586195e-39
-0.0118424953668 -0.0723708050195 0.711 9.0431142863e-39
-0.0106006897111 -0.0728797417636 0.716 9.9636384579e-39
-0.00928855825068 -0.0729815291125 0.717 9.77816819836e-39
-0.00801714172981 -0.0734904658566 0.722 1.06990370894e-38
-0.00669020483686 -0.0735922532055 0.723 1.14344385235e-38
-0.00536696930205 -0.0737958279031 0.725 1.18017777055e-38
-0.00402522697653 -0.0737958279031 0.725 1.25396986742e-38
-0.00268348465102 -0.0737958279031 0.725 1.41059453821e-38
-0.00135839843714 -0.0747119140426 0.734 1.05113948172e-38
0.0 -0.0772565977634 0.759 9.31106917735e-39
0.00140096405574 -0.0770530230658 0.757 1.21691323018e-38
0.00280192811148 -0.0770530230658 0.757 1.27226451952e-38
0.00422510031606 -0.0774601724611 0.761 1.16169982861e-38
0.00563346708808 -0.0774601724611 0.761 1.17098987691e-38
0.00705108725545 -0.0775619598099 0.762 1.25392951003e-38
0.00850572100421 -0.0779691092052 0.766 1.26314907301e-38
-0.0655140390664 -0.0707551621917 0.708 2.35098856151e-38
-0.0641130750106 -0.0706552255219 0.707 2.35098856151e-38
-0.0628046449084 -0.0706552255219 0.707 2.258936845e-38
-0.0614962148061 -0.0706552255219 0.707 5.99208395551e-39
-0.0601877847038 -0.0706552255219 0.707 1.44754131365e-42
-0.0587960740434 -0.0705552888521 0.706 5.34984504723e-39
-0.0574894946203 -0.0705552888521 0.706 5.89903913878e-39
-0.0561829151971 -0.0705552888521 0.706 6.26420911079e-39
-0.0548763357739 -0.0705552888521 0.706 1.03193973094e-38
-0.053418000667 -0.0703554155126 0.704 7.83154602885e-39
-0.0521151226019 -0.0703554155126 0.704 7.83225368458e-39
-0.0508122445369 -0.0703554155126 0.704 8.10813572104e-39
-0.0495093664718 -0.0703554155126 0.704 9.21450570017e-39
-0.0481380132812 -0.0702554788429 0.703 1.10584182974e-38
-0.0468369858952 -0.0702554788429 0.703 5.43518412371e-39
-0.0454064109744 -0.0700556055033 0.701 6.07982065366e-39
-0.0441090849465 -0.0700556055033 0.701 8.01377928894e-39
-0.0428117589187 -0.0700556055033 0.701 7.64285558544e-39
-0.0414552111606 -0.0699556688336 0.7 4.143371911e-39
-0.0401597358119 -0.0699556688336 0.7 1.01162538737e-39
-0.0387532197189 -0.069755795494 0.698 1.8438845713e-39
-0.0374614457283 -0.069755795494 0.698 1.93931159542e-39
-0.0361178527237 -0.0696558588243 0.697 2.03402956252e-39
-0.0347779610773 -0.0695559221545 0.696 1.573421356e-39
-0.0334898884448 -0.0695559221545 0.696 1.29648274049e-39
-0.0322018158123 -0.0695559221545 0.696 1.38832664444e-39
-0.0309137431798 -0.0695559221545 0.696 1.66489391585e-39
-0.0296256705473 -0.0695559221545 0.696 1.38866015348e-39
-0.0282561680357 -0.069356048815 0.694 1.57269548339e-39
-0.0269717967614 -0.069356048815 0.694 1.20499476635e-39
-0.025687425487 -0.069356048815 0.694 1.02060350663e-39
-0.0244030542127 -0.069356048815 0.694 7.44016617036e-40
-0.0231853073848 -0.0695559221545 0.696 1.02060350663e-39
-0.0218972347523 -0.0695559221545 0.696 1.2961085938e-39
-0.0206091621199 -0.0695559221545 0.696 1.47978659261e-39
-0.0193488496734 -0.0696558588243 0.697 5.56763905846e-40
-0.0180848358688 -0.069755795494 0.698 6.27355437025e-39
-0.0168652383619 -0.0700556055033 0.701 9.86705396125e-39
-0.0156123286317 -0.0702554788429 0.703 9.7759401338e-39
-0.0143316587155 -0.0703554155126 0.704 7.74838316889e-39
-0.0130843010226 -0.0706552255219 0.707 1.0147303845e-38
-0.0118424953668 -0.0710549722009 0.711 8.95056833182e-39
-0.0106006897111 -0.0715546555498 0.716 9.04203808908e-39
-0.00928855825068 -0.0716545922195 0.717 9.77852132557e-39
-0.00802824580423 -0.0722542122381 0.723 1.06990342868e-38
-0.00670871162756 -0.0724540855776 0.725 1.35556540738e-38
-0.0053817747346 -0.0726539589171 0.727 1.40151916883e-38
-0.00404188308816 -0.0727538955869 0.728 1.3554213539e-38
-0.00269458872544 -0.0727538955869 0.728 1.37386062e-38
-0.00135839843714 -0.0733535156055 0.734 7.93028151865e-39
0.0 -0.0758519323495 0.759 1.00511551522e-38
0.00140466541388 -0.0758519323495 0.759 1.27241039469e-38
0.00280933082776 -0.0758519323495 0.759 1.31857841468e-38
0.00422510031606 -0.0760518056891 0.761 1.15262445924e-38
0.00563346708808 -0.0760518056891 0.761 1.21712398547e-38
0.00705108725545 -0.0761517423588 0.762 1.26318522651e-38
0.00851682507863 -0.0766514257076 0.767 1.2908079021e-38
-0.0656991069733 -0.0696410533917 0.71 2.35098856151e-38
-0.064203758285 -0.0694448814103 0.708 2.35098856151e-38
-0.0628934775037 -0.0694448814103 0.708 2.32343763241e-38
-0.0614962148061 -0.0693467954196 0.707 9.86535979141e-39
-0.0601877847038 -0.0693467954196 0.707 7.30076499913e-43
-0.0588793546016 -0.0693467954196 0.707 5.71790169408e-39
-0.0575709244993 -0.0693467954196 0.707 5.9890795716e-39
-0.0561829151971 -0.069248709429 0.706 7.92049765277e-39
-0.0548763357739 -0.069248709429 0.706 9.02362642856e-39
-0.0535697563507 -0.069248709429 0.706 9.30056644536e-39
-0.0522631769275 -0.069248709429 0.706 8.74739126488e-39
-0.0508122445369 -0.0690525374476 0.704 8.47153445179e-39
-0.0495093664718 -0.0690525374476 0.704 6.90350108839e-39
-0.0482064884068 -0.0690525374476 0.704 5.05886261852e-39
-0.0468369858952 -0.0689544514569 0.703 5.98115943268e-39
-0.0454064109744 -0.0687582794755 0.701 8.00837027687e-39
-0.0441090849465 -0.0687582794755 0.701 9.29767276403e-39
-0.0428117589187 -0.0687582794755 0.701 9.01893908519e-39
-0.0414552111606 -0.0686601934848 0.7 8.83561981879e-39
-0.0401597358119 -0.0686601934848 0.7 1.04976550858e-38
-0.0388642604631 -0.0686601934848 0.7 5.61668450471e-39
-0.0374614457283 -0.0684640215034 0.698 1.19709004172e-39
-0.0361178527237 -0.0683659355127 0.697 1.01628890865e-39
-0.0348279294121 -0.0683659355127 0.697 1.47726005148e-39
-0.0335380061006 -0.0683659355127 0.697 1.93715920098e-39
-0.032248082789 -0.0683659355127 0.697 1.10668947519e-39
-0.0309581594775 -0.0683659355127 0.697 2.67292076876e-39
-0.0296256705473 -0.068267849522 0.696 1.75240780755e-39
-0.0282561680357 -0.0680716775406 0.694 1.75456860978e-39
-0.0269717967614 -0.0680716775406 0.694 1.11136560816e-39
-0.025687425487 -0.0680716775406 0.694 1.20500317414e-39
-0.0244030542127 -0.0680716775406 0.694 8.37654183019e-40
-0.0231853073848 -0.068267849522 0.696 1.1127935313e-39
-0.0218972347523 -0.068267849522 0.696 9.27682004158e-40
-0.0206091621199 -0.068267849522 0.696 1.38865875218e-39
-0.0193488496734 -0.0683659355127 0.697 3.2285916618e-42
-0.0181366548828 -0.0686601934848 0.7 5.62853948971e-39
-0.0169133560177 -0.0689544514569 0.703 1.07893633871e-38
-0.0156345367806 -0.0690525374476 0.704 9.13057072476e-39
-0.0143723736551 -0.069248709429 0.706 7.84058160135e-39
-0.0130843010226 -0.0693467954196 0.707 9.86964075822e-39
-0.0118424953668 -0.0697391393824 0.711 9.04133043336e-39
-0.0106006897111 -0.0702295693359 0.716 9.41009893982e-39
-0.00931446775765 -0.070523827308 0.719 1.15302340891e-38
-0.00802824580423 -0.0709161712707 0.723 1.08834227439e-38
-0.00672721841825 -0.0713085152335 0.727 1.1435154587e-38
-0.00538917745088 -0.0714066012242 0.728 1.28173701688e-38
-0.00404188308816 -0.0714066012242 0.728 1.34627423805e-38
-0.00270199144172 -0.0716027732056 0.73 1.15266369559e-38
-0.00137690522784 -0.0729759770753 0.744 8.02356735872e-39
0.0 -0.0729759770753 0.744 1.13429757727e-38
0.00140096405574 -0.0742510949543 0.757 1.21730853648e-38
0.00280933082776 -0.0744472669357 0.759 1.37407529893e-38
0.00422510031606 -0.074643438917 0.761 1.18035503481e-38
0.00564086980436 -0.0747415249077 0.762 1.26332970038e-38
0.00709735423219 -0.0752319548612 0.767 1.29084391547e-38
0.00853903322746 -0.0754281268426 0.769 1.31843099808e-38
-0.0656991069733 -0.0683270712523 0.71 2.35098856151e-38
-0.0643851248339 -0.0683270712523 0.71 2.35098856151e-38
-0.0630711426944 -0.0683270712523 0.71 2.34180473164e-38
-0.0615831967224 -0.068134600629 0.708 1.28163219976e-38
-0.060272915941 -0.068134600629 0.708 3.75547988439e-43
-0.0589626351597 -0.068134600629 0.708 4.98033245128e-39
-0.0575709244993 -0.0680383653174 0.707 5.7121395548e-39
-0.0562624943971 -0.0680383653174 0.707 7.45844751013e-39
-0.0549540642948 -0.0680383653174 0.707 9.85302416103e-39
-0.0535697563507 -0.0679421300058 0.706 7.64032904431e-39
-0.0522631769275 -0.0679421300058 0.706 1.00356259626e-38
-0.0509565975043 -0.0679421300058 0.706 8.19100290703e-39
-0.0495093664718 -0.0677496593825 0.704 1.01271111342e-38
-0.0482064884068 -0.0677496593825 0.704 6.07049501238e-39
-0.0468369858952 -0.0676534240709 0.703 8.65087683315e-39
-0.0455359585093 -0.0676534240709 0.703 9.57174292158e-39
-0.0442349311233 -0.0676534240709 0.703 9.84652774135e-39
-0.0428117589187 -0.0674609534476 0.701 9.29120296902e-39
-0.0415144328909 -0.0674609534476 0.701 1.0210278198e-38
-0.040217106863 -0.0674609534476 0.701 9.01425034053e-39
-0.0389197808352 -0.0674609534476 0.701 9.48133955245e-39
-0.0375687851143 -0.067364718136 0.7 8.93463556828e-39
-0.0361696717377 -0.0671722475128 0.698 6.44895069513e-39
-0.034877897747 -0.0671722475128 0.698 7.55674018961e-39
-0.0335380061006 -0.0670760122012 0.697 6.81809895348e-39
-0.032248082789 -0.0670760122012 0.697 3.95861210978e-39
-0.0309581594775 -0.0670760122012 0.697 8.47727136771e-39
-0.0296256705473 -0.0669797768895 0.696 3.59199039256e-39
-0.0282561680357 -0.0667873062663 0.694 2.85731483108e-39
-0.0269717967614 -0.0667873062663 0.694 2.95275867079e-39
