# .PCD v0.7 - Point Cloud Data file format
VERSION 0.7
FIELDS x y z rgb
SIZE 4 4 4 4
TYPE F F F F
COUNT 1 1 1 1
WIDTH 846
HEIGHT 1
VIEWPOINT 0 0 0 1 0 0 0
POINTS 846
DATA ascii
0.00429727679978 -0.163296518391 0.774 8.39614459441e-39
0.0057297023997 -0.163296518391 0.774 8.76422226074e-39
-0.0444051935977 -0.161864092792 0.774 5.44093365131e-39
-0.0429727679978 -0.161864092792 0.774 5.62569205124e-39
-0.0415403423978 -0.161864092792 0.774 5.99343480723e-39
-0.0401079167979 -0.161864092792 0.774 4.7977264458e-39
-0.0386255228631 -0.161654966057 0.773 6.91929372208e-39
-0.0371949479422 -0.161654966057 0.773 1.49466782178e-38
-0.0356718390679 -0.161236712587 0.771 1.56842390528e-38
-0.0342449655052 -0.161236712587 0.771 1.43953093111e-38
-0.0327329607053 -0.160818459117 0.769 6.54379758169e-40
-0.0313097885007 -0.160818459117 0.769 5.45245232469e-42
-0.0298866162961 -0.160818459117 0.769 8.34893625045e-42
-0.0284634440915 -0.160818459117 0.769 1.17008421771e-42
-0.027040271887 -0.160818459117 0.769 5.45077216783e-39
-0.0256170996824 -0.160818459117 0.769 1.52260368758e-38
-0.0241939274778 -0.160818459117 0.769 1.51417347602e-38
-0.0227707552732 -0.160818459117 0.769 1.94644462499e-38
-0.0213475830687 -0.160818459117 0.769 1.97331158032e-38
-0.019976229878 -0.161236712587 0.771 2.17585540048e-38
-0.0185012386595 -0.160818459117 0.769 1.991861549e-38
-0.0170780664549 -0.160818459117 0.769 1.061697565e-38
-0.0156548942503 -0.160818459117 0.769 9.05686662943e-39
-0.0142687356272 -0.161236712587 0.771 8.5951710153e-39
-0.0128418620644 -0.161236712587 0.771 1.00652606225e-38
-0.0114149885017 -0.161236712587 0.771 6.46781637636e-39
-0.010014024446 -0.161654966057 0.773 1.52238018047e-38
-0.00859455359955 -0.161864092792 0.774 1.92756044663e-38
-0.00716212799963 -0.161864092792 0.774 1.60439902037e-38
-0.0057297023997 -0.161864092792 0.774 1.7055967317e-38
-0.00429727679978 -0.161864092792 0.774 1.70563372598e-38
-0.00286485119985 -0.161864092792 0.774 1.7518390205e-38
-0.00143242559993 -0.161864092792 0.774 1.74272511542e-38
0.0 -0.161864092792 0.774 1.78896950617e-38
0.00143242559993 -0.161864092792 0.774 1.75198811866e-38
0.00286114984171 -0.161654966057 0.773 1.61390570941e-38
0.00429172476257 -0.161654966057 0.773 1.53117753223e-38
0.00570749425087 -0.161236712587 0.771 1.46656982575e-38
0.00713436781358 -0.161236712587 0.771 1.38366676653e-38
-0.0428062068815 -0.159809839024 0.771 5.62424591122e-39
-0.0413793333188 -0.159809839024 0.771 4.97856121002e-39
-0.040056097784 -0.160224391136 0.773 5.07291764212e-39
-0.0385255861933 -0.159809839024 0.771 6.18423840873e-39
-0.0370987126306 -0.159809839024 0.771 1.24563536455e-38
-0.0355793051144 -0.159395286913 0.769 1.54065871764e-38
-0.0341561329098 -0.159395286913 0.769 1.5041377968e-38
-0.0327329607053 -0.159395286913 0.769 6.83535174018e-39
-0.0313097885007 -0.159395286913 0.769 1.22750144138e-38
-0.0298088877752 -0.158980734801 0.767 1.28296707667e-38
-0.0283894169288 -0.158980734801 0.767 1.43065748884e-38
-0.0269699460823 -0.158980734801 0.767 1.44891682822e-38
-0.0255504752359 -0.158980734801 0.767 2.9931735198e-42
-0.0241310043894 -0.158980734801 0.767 9.96589454843e-39
-0.022711533543 -0.158980734801 0.767 1.99161043632e-38
-0.0212920626966 -0.158980734801 0.767 1.98213709818e-38
-0.0198725918501 -0.158980734801 0.767 2.33244209608e-38
-0.0184531210037 -0.158980734801 0.767 9.23096955583e-40
-0.0170780664549 -0.159395286913 0.769 8.96831017168e-44
-0.0156548942503 -0.159395286913 0.769 2.98756832594e-42
-0.0142317220458 -0.159395286913 0.769 4.7840329572e-42
-0.0128085498412 -0.159395286913 0.769 3.68961885657e-42
-0.0113853776366 -0.159395286913 0.769 2.22386066288e-42
-0.00998811493901 -0.159809839024 0.771 1.18976167114e-38
-0.00858344952513 -0.160224391136 0.773 2.22240345261e-38
-0.00715287460428 -0.160224391136 0.773 2.09324717445e-38
-0.00572229968342 -0.160224391136 0.773 2.35096417892e-38
-0.00429172476257 -0.160224391136 0.773 2.34174489619e-38
-0.00286114984171 -0.160224391136 0.773 2.26802552671e-38
-0.00143057492086 -0.160224391136 0.773 2.35096824269e-38
0.0 -0.160224391136 0.773 2.31419887163e-38
0.00143057492086 -0.160224391136 0.773 2.19437776358e-38
0.00286114984171 -0.160224391136 0.773 2.30504460915e-38
0.00428062068815 -0.159809839024 0.771 2.27749410044e-38
0.00570749425087 -0.159809839024 0.771 2.27749606225e-38
0.00713436781358 -0.159809839024 0.771 2.25912854263e-38
-0.0425841253931 -0.157561263955 0.767 5.62388017232e-39
-0.0411646545467 -0.157561263955 0.767 5.90015317105e-39
-0.0398488217282 -0.157972114708 0.769 5.3498786784e-39
-0.0384256495236 -0.157972114708 0.769 6.18496568263e-39
-0.037002477319 -0.157972114708 0.769 1.00589365626e-38
-0.0354867711609 -0.157561263955 0.767 1.54055277948e-38
-0.0340673003145 -0.157561263955 0.767 1.22776614666e-38
-0.0326478294681 -0.157561263955 0.767 8.49879250952e-39
-0.0312283586216 -0.157561263955 0.767 1.6241929217e-38
-0.0298088877752 -0.157561263955 0.767 1.35694078183e-38
-0.0283894169288 -0.157561263955 0.767 1.27424973906e-38
-0.02693478318 -0.157355838578 0.766 1.66118201635e-38
-0.0255171630126 -0.157355838578 0.766 8.73429332814e-42
-0.0240995428453 -0.157355838578 0.766 6.92381571223e-42
-0.0226819226779 -0.157355838578 0.766 1.16191927195e-38
-0.0212643025105 -0.157355838578 0.766 1.19868738184e-38
-0.0198466823432 -0.157355838578 0.766 2.29585139058e-38
-0.0184531210037 -0.157561263955 0.767 1.18017959224e-38
-0.0170336501573 -0.157561263955 0.767 1.47520294533e-39
-0.0156141793108 -0.157561263955 0.767 4.4240561973e-39
-0.0141947084644 -0.157561263955 0.767 4.14783084272e-39
-0.0127752376179 -0.157561263955 0.767 3.22658219981e-39
-0.0113853776366 -0.157972114708 0.769 8.15555706237e-43
-0.00998811493901 -0.158382965462 0.771 1.47416318187e-39
-0.0085612413763 -0.158382965462 0.771 2.12084742927e-38
-0.00713436781358 -0.158382965462 0.771 2.02871247563e-38
-0.00572229968342 -0.158793816215 0.773 2.24036683775e-38
-0.00428062068815 -0.158382965462 0.771 2.15742384152e-38
-0.00285374712543 -0.158382965462 0.771 2.12983773982e-38
-0.00142687356272 -0.158382965462 0.771 2.18519337319e-38
0.0 -0.158382965462 0.771 2.09296285099e-38
0.00143057492086 -0.158793816215 0.773 2.17590178346e-38
0.00285374712543 -0.158382965462 0.771 2.15753286254e-38
0.00428062068815 -0.158382965462 0.771 2.08377593826e-38
0.00570749425087 -0.158382965462 0.771 2.05618969643e-38
0.00713436781358 -0.158382965462 0.771 2.10246897952e-38
0.00858344952513 -0.158793816215 0.773 2.07481477471e-38
-0.0424175642769 -0.155531069015 0.764 6.17597775428e-39
-0.0410036454676 -0.155531069015 0.764 4.88635436977e-39
-0.0396933646863 -0.15593821841 0.766 4.98109335635e-39
-0.0382757445189 -0.15593821841 0.766 6.46156658521e-39
-0.0368581243516 -0.15593821841 0.766 7.84590653551e-39
-0.0354405041842 -0.15593821841 0.766 1.61438285154e-38
-0.0340228840168 -0.15593821841 0.766 1.45836424234e-38
-0.0326052638495 -0.15593821841 0.766 5.82726042754e-39
-0.0311876436821 -0.15593821841 0.766 1.42178937151e-38
-0.0296922949938 -0.155531069015 0.764 1.44034340396e-38
-0.0282783761846 -0.155531069015 0.764 1.35744048486e-38
-0.0268644573753 -0.155531069015 0.764 1.41218585274e-38
-0.0254505385661 -0.155531069015 0.764 9.30022172594e-40
-0.0240366197569 -0.155531069015 0.764 2.2939255861e-42
-0.0226227009477 -0.155531069015 0.764 6.91440459174e-39
-0.0212643025105 -0.15593821841 0.766 2.11984788307e-39
-0.0198466823432 -0.15593821841 0.766 8.29096453298e-40
-0.0184290621758 -0.15593821841 0.766 4.20389539297e-44
-0.0170114420084 -0.15593821841 0.766 4.20389539297e-44
-0.015593821841 -0.15593821841 0.766 2.75544323533e-40
-0.0141762016737 -0.15593821841 0.766 4.59201302864e-40
-0.0127752376179 -0.156141793108 0.767 5.5101998344e-40
-0.0113557667715 -0.156141793108 0.767 1.68155815719e-44
-0.00996220543204 -0.156548942503 0.769 2.66246708222e-44
-0.00853903322746 -0.156548942503 0.769 1.91794333527e-38
-0.00713436781358 -0.156956091899 0.771 2.12083523797e-38
-0.00570749425087 -0.156956091899 0.771 2.21270969022e-38
-0.00428062068815 -0.156956091899 0.771 2.17593527449e-38
-0.00285374712543 -0.156956091899 0.771 2.2128499602e-38
-0.00142687356272 -0.156956091899 0.771 2.07470098928e-38
0.0 -0.156956091899 0.771 2.13913059072e-38
0.00142687356272 -0.156956091899 0.771 2.09306794838e-38
0.00285374712543 -0.156956091899 0.771 2.12076209019e-38
0.00428062068815 -0.156956091899 0.771 2.11150735461e-38
0.00570749425087 -0.156956091899 0.771 2.08388495928e-38
0.00713436781358 -0.156956091899 0.771 2.04722180665e-38
0.0085612413763 -0.156956091899 0.771 2.09339332988e-38
-0.0423065235327 -0.153713702169 0.762 5.62245785438e-39
-0.0408963060816 -0.153713702169 0.762 5.25513688922e-39
-0.0395897266584 -0.154117150206 0.764 4.42791957717e-39
-0.0381758078492 -0.154117150206 0.764 5.72329389057e-39
-0.0368581243516 -0.154520598243 0.766 4.98821335384e-39
-0.0353479702307 -0.154117150206 0.764 1.56835706335e-38
-0.0339340514215 -0.154117150206 0.764 1.35666542668e-38
-0.0325201326123 -0.154117150206 0.764 1.02498018212e-38
-0.031024783924 -0.153713702169 0.762 1.29264164127e-38
-0.0296145664729 -0.153713702169 0.762 1.30204547501e-38
-0.0282043490218 -0.153713702169 0.762 1.25598283267e-38
-0.0267941315707 -0.153713702169 0.762 1.40299319469e-38
-0.0253839141196 -0.153713702169 0.762 9.23035298451e-39
-0.0239736966685 -0.153713702169 0.762 1.2269498903e-38
-0.0225634792174 -0.153713702169 0.762 1.33729331619e-38
-0.0212087821384 -0.154117150206 0.764 1.62309892798e-38
-0.0197948633292 -0.154117150206 0.764 1.67830812566e-38
-0.01838094452 -0.154117150206 0.764 1.80731040112e-38
-0.0169670257107 -0.154117150206 0.764 1.79798335854e-38
-0.0155531069015 -0.154117150206 0.764 1.98233832464e-38
-0.0141391880923 -0.154117150206 0.764 2.00074101685e-38
-0.0127585815063 -0.154520598243 0.766 2.00988771232e-38
-0.0113409613389 -0.154520598243 0.766 1.97340462654e-38
-0.00993629592506 -0.154722322262 0.767 2.06552879018e-38
-0.00851682507863 -0.154722322262 0.767 2.10254240756e-38
-0.00709735423219 -0.154722322262 0.767 1.98271723574e-38
-0.00569268881831 -0.155125770299 0.769 2.06530388177e-38
-0.00426951661373 -0.155125770299 0.769 2.14834847215e-38
-0.00284634440915 -0.155125770299 0.769 2.21288737487e-38
-0.00142317220458 -0.155125770299 0.769 2.04707873408e-38
0.0 -0.155125770299 0.769 2.1484923855e-38
0.00142317220458 -0.155125770299 0.769 2.0379634277e-38
0.00284634440915 -0.155125770299 0.769 2.08402621017e-38
0.00426951661373 -0.155125770299 0.769 2.1207283189e-38
0.00569268881831 -0.155125770299 0.769 2.14838812889e-38
0.00711586102289 -0.155125770299 0.769 2.03807370989e-38
0.00853903322746 -0.155125770299 0.769 2.01974192338e-38
0.00996220543204 -0.155125770299 0.769 1.95513659911e-38
-0.0435446278303 -0.151703864699 0.759 2.11729892116e-39
-0.0421399624164 -0.151703864699 0.759 3.40870896121e-39
-0.0408426363886 -0.152103611378 0.761 6.63771961126e-39
-0.0394342696166 -0.152103611378 0.761 4.24353112004e-39
-0.0380259028445 -0.152103611378 0.761 5.3541610465e-39
-0.0366175360725 -0.152103611378 0.761 4.15737648785e-39
-0.0352554362772 -0.152303484718 0.762 1.34712090258e-38
-0.0338008025285 -0.152103611378 0.761 1.43942569359e-38
-0.0323924357565 -0.152103611378 0.761 1.45797482149e-38
-0.0309840689844 -0.152103611378 0.761 1.23688873979e-38
-0.0295757022124 -0.152103611378 0.761 1.14476793927e-38
-0.0281673354404 -0.152103611378 0.761 1.20930389926e-38
-0.0267941315707 -0.152303484718 0.762 1.22734743868e-38
-0.0253506018964 -0.152103611378 0.761 1.42985104157e-38
-0.0239422351243 -0.152103611378 0.761 2.13971170919e-38
-0.0225634792174 -0.152303484718 0.762 2.20374334187e-38
-0.0211532617663 -0.152303484718 0.762 2.17594144021e-38
-0.0197430443153 -0.152303484718 0.762 2.18516142358e-38
-0.0183328268642 -0.152303484718 0.762 2.06545129837e-38
-0.0169226094131 -0.152303484718 0.762 2.2038519425e-38
-0.0154920344922 -0.152103611378 0.761 1.99194436574e-38
-0.0140836677202 -0.152103611378 0.761 2.05662339831e-38
-0.0126919570598 -0.152303484718 0.762 1.99219365674e-38
-0.0112817396087 -0.152303484718 0.762 2.02889422404e-38
-0.00992334117158 -0.153102978076 0.766 2.00112847587e-38
-0.00850572100421 -0.153102978076 0.766 2.010344956e-38
-0.00709735423219 -0.153302851415 0.767 1.96435069703e-38
-0.00567788338575 -0.153302851415 0.767 1.91793436696e-38
-0.00426951661373 -0.153702598094 0.769 2.14852741796e-38
-0.00284634440915 -0.153702598094 0.769 2.13016045886e-38
-0.00141947084644 -0.153302851415 0.767 2.01959576795e-38
0.0 -0.153302851415 0.767 2.09338576287e-38
0.00142317220458 -0.153702598094 0.769 2.11171979146e-38
0.00283894169288 -0.153302851415 0.767 2.10239597187e-38
0.00425841253931 -0.153302851415 0.767 2.03785917109e-38
0.00567788338575 -0.153302851415 0.767 1.98264969316e-38
0.00709735423219 -0.153302851415 0.767 2.01952906614e-38
0.00851682507863 -0.153302851415 0.767 2.07491875106e-38
0.00993629592506 -0.153302851415 0.767 2.04733082767e-38
-0.043429885728 -0.149903153964 0.757 1.7488877458e-39
-0.0420289216722 -0.149903153964 0.757 2.30273554954e-39
-0.0407352970025 -0.150299199285 0.759 4.9778479491e-39
-0.0393306315886 -0.150299199285 0.759 4.42757065385e-39
-0.0379259661748 -0.150299199285 0.759 5.62932561815e-39
-0.0365213007609 -0.150299199285 0.759 4.15666182564e-39
-0.0352091693005 -0.150695244606 0.761 1.16269166766e-38
-0.0337119699331 -0.150299199285 0.759 1.59611958852e-38
-0.0323073045192 -0.150299199285 0.759 1.40261638553e-38
-0.0309026391054 -0.150299199285 0.759 1.37492210359e-38
-0.0295757022124 -0.150695244606 0.761 1.32875198166e-38
-0.0281673354404 -0.150695244606 0.761 1.38406795828e-38
-0.0267589686684 -0.150695244606 0.761 1.49438111612e-38
-0.0252839774498 -0.150299199285 0.759 1.21765031317e-38
-0.023879312036 -0.150299199285 0.759 1.98293892116e-38
-0.0225338683523 -0.150695244606 0.761 2.0653391945e-38
-0.0211255015803 -0.150695244606 0.761 2.13881053415e-38
-0.0197171348083 -0.150695244606 0.761 2.10200655102e-38
-0.0183087680363 -0.150695244606 0.761 2.26803169243e-38
-0.0169004012642 -0.150695244606 0.761 2.06552360537e-38
-0.0154920344922 -0.150695244606 0.761 1.83535570832e-38
-0.0140836677202 -0.150695244606 0.761 1.88173896775e-38
-0.0126753009482 -0.150695244606 0.761 1.90028459241e-38
-0.0112669341762 -0.150695244606 0.761 1.94595332975e-38
-0.0098974316646 -0.151289312587 0.764 1.94584655081e-38
-0.00848351285537 -0.151289312587 0.764 1.97350495951e-38
-0.00708810083684 -0.151685357908 0.766 1.96431944807e-38
-0.00567788338575 -0.151883380569 0.767 1.99176457915e-38
-0.00425841253931 -0.151883380569 0.767 1.96428231366e-38
-0.00283894169288 -0.151883380569 0.767 1.99197463379e-38
-0.00141947084644 -0.151883380569 0.767 1.97353298548e-38
0.0 -0.151883380569 0.767 1.98278631976e-38
0.00141947084644 -0.151883380569 0.767 2.03799944107e-38
0.00283894169288 -0.151883380569 0.767 2.03796707107e-38
0.00425841253931 -0.151883380569 0.767 2.00116028535e-38
0.00567788338575 -0.151883380569 0.767 1.96438993339e-38
0.00709735423219 -0.151883380569 0.767 1.94584514951e-38
0.00851682507863 -0.151883380569 0.767 1.98258060914e-38
0.00993629592506 -0.151883380569 0.767 2.03796805198e-38
0.0113557667715 -0.151883380569 0.767 1.383781673e-38
-0.043429885728 -0.148502189909 0.757 1.29004937924e-39
-0.0420289216722 -0.148502189909 0.757 2.76515002979e-39
-0.0407352970025 -0.148894533871 0.759 2.58112450896e-39
-0.0393306315886 -0.148894533871 0.759 3.87404795135e-39
-0.0379259661748 -0.148894533871 0.759 5.72082340138e-39
-0.0365213007609 -0.148894533871 0.759 4.3385531689e-39
-0.035116635347 -0.148894533871 0.759 1.41147553455e-38
-0.0337119699331 -0.148894533871 0.759 1.39343199514e-38
-0.0323073045192 -0.148894533871 0.759 1.40250820529e-38
-0.0309026391054 -0.148894533871 0.759 1.54037145146e-38
-0.0294979736915 -0.148894533871 0.759 1.95496409927e-38
-0.0280933082776 -0.148894533871 0.759 1.98258425252e-38
-0.0266886428637 -0.148894533871 0.759 1.74287645565e-38
-0.0252839774498 -0.148894533871 0.759 1.29140513551e-38
-0.023879312036 -0.148894533871 0.759 1.82656438215e-38
-0.0224746466221 -0.148894533871 0.759 1.91818421847e-38
-0.0210699812082 -0.148894533871 0.759 2.2589879924e-38
-0.0196653157943 -0.148894533871 0.759 2.20360279163e-38
-0.0182606503804 -0.148894533871 0.759 1.97308008581e-38
-0.0168559849666 -0.148894533871 0.759 1.89028282462e-38
-0.0154513195527 -0.148894533871 0.759 1.86287216549e-38
-0.0140466541388 -0.148894533871 0.759 1.90918269753e-38
-0.0126419887249 -0.148894533871 0.759 1.90010508608e-38
-0.011237323311 -0.148894533871 0.759 1.92761930116e-38
-0.00987152215763 -0.149483049815 0.762 1.89070587663e-38
-0.00846130470654 -0.149483049815 0.762 1.89074329129e-38
-0.00706959404614 -0.149875393778 0.764 1.85379525469e-38
-0.00567048066947 -0.150267737741 0.766 1.87212648068e-38
-0.0042528605021 -0.150267737741 0.766 1.96428567678e-38
-0.00283524033474 -0.150267737741 0.766 2.0656617734e-38
-0.00141762016737 -0.150267737741 0.766 2.01952570302e-38
0.0 -0.150267737741 0.766 2.01948870874e-38
0.00141762016737 -0.150267737741 0.766 2.01952542276e-38
0.00283524033474 -0.150267737741 0.766 1.92743909418e-38
0.0042528605021 -0.150267737741 0.766 1.89985271222e-38
0.00567048066947 -0.150267737741 0.766 1.90914388156e-38
0.00708810083684 -0.150267737741 0.766 1.93673096417e-38
0.00851682507863 -0.150463909722 0.767 1.95502729783e-38
0.00993629592506 -0.150463909722 0.767 1.99179849057e-38
0.0113557667715 -0.150463909722 0.767 1.65118066895e-38
-0.0447124063233 -0.146712583248 0.755 1.79366203434e-42
-0.0433151436257 -0.146712583248 0.755 9.40047061808e-41
-0.041917880928 -0.146712583248 0.755 1.47547900113e-39
-0.0406279576165 -0.147101225853 0.757 1.56769144658e-39
-0.0392269935607 -0.147101225853 0.757 4.51798943726e-39
-0.0379259661748 -0.147489868457 0.759 6.36405583027e-39
-0.0365213007609 -0.147489868457 0.759 4.06054536267e-39
-0.035116635347 -0.147489868457 0.759 1.34675922744e-38
-0.0336231373378 -0.147101225853 0.757 1.44878790876e-38
-0.032222173282 -0.147101225853 0.757 1.31035167165e-38
-0.0308212092263 -0.147101225853 0.757 1.63246058264e-38
-0.0294202451706 -0.147101225853 0.757 1.89013863101e-38
-0.0280192811148 -0.147101225853 0.757 1.6503897761e-38
-0.0266183170591 -0.147101225853 0.757 1.51238513892e-38
-0.0252173530033 -0.147101225853 0.757 1.49430768808e-38
-0.0238163889476 -0.147101225853 0.757 1.55945153135e-38
-0.0224746466221 -0.147489868457 0.759 1.89102985683e-38
-0.0210144608361 -0.147101225853 0.757 1.8999648161e-38
-0.0196134967804 -0.147101225853 0.757 2.07485387094e-38
-0.0182125327246 -0.147101225853 0.757 2.24981200979e-38
-0.0168115686689 -0.147101225853 0.757 2.35097398801e-38
-0.0154106046132 -0.147101225853 0.757 1.85357931459e-38
-0.0140096405574 -0.147101225853 0.757 1.86290173289e-38
-0.0126086765017 -0.147101225853 0.757 1.89070139247e-38
-0.0112077124459 -0.147101225853 0.757 1.84481909724e-38
-0.00985856740414 -0.147878511062 0.761 1.81719810321e-38
-0.00846130470654 -0.148072832364 0.762 1.87258918943e-38
-0.00705108725545 -0.148072832364 0.762 1.881597857e-38
-0.00565567523691 -0.148461474969 0.764 1.83560541971e-38
-0.00424175642769 -0.148461474969 0.764 1.77996602341e-38
-0.00282783761846 -0.148461474969 0.764 1.89063286898e-38
-0.00141762016737 -0.148850117574 0.766 2.01034131263e-38
0.0 -0.148850117574 0.766 1.95502393471e-38
0.00141762016737 -0.148850117574 0.766 2.01027278913e-38
0.00282783761846 -0.148461474969 0.764 1.95499212524e-38
0.00424175642769 -0.148461474969 0.764 1.90921394648e-38
0.00565567523691 -0.148461474969 0.764 1.82641514386e-38
0.00706959404614 -0.148461474969 0.764 1.88152008493e-38
0.00850572100421 -0.148850117574 0.766 1.90892948289e-38
0.00992334117158 -0.148850117574 0.766 1.96424545951e-38
-0.0447124063233 -0.145315320551 0.755 1.54142831076e-44
-0.0433151436257 -0.145315320551 0.755 9.36375659831e-41
-0.041917880928 -0.145315320551 0.755 1.84039533812e-40
-0.0406279576165 -0.145700261797 0.757 2.21306225692e-39
-0.0392269935607 -0.145700261797 0.757 4.33502610067e-39
-0.037826029505 -0.145700261797 0.757 5.99707117674e-39
-0.0364250654493 -0.145700261797 0.757 3.87937008292e-39
-0.035116635347 -0.146085203044 0.759 1.09787376642e-38
-0.0335343047424 -0.145315320551 0.755 1.46679767688e-38
-0.0321370420448 -0.145315320551 0.755 1.28305269601e-38
-0.0308212092263 -0.145700261797 0.757 1.26457755667e-38
-0.0294202451706 -0.145700261797 0.757 1.74301728615e-38
-0.0280192811148 -0.145700261797 0.757 1.94509237197e-38
-0.0266183170591 -0.145700261797 0.757 1.59536232683e-38
-0.0252173530033 -0.145700261797 0.757 1.12581565779e-38
-0.0238163889476 -0.145700261797 0.757 1.46733241238e-38
-0.0224154248919 -0.145700261797 0.757 1.81713238231e-38
-0.0210144608361 -0.145700261797 0.757 1.75230761471e-38
-0.0195616777664 -0.145315320551 0.755 1.8074812194e-38
-0.0181644150688 -0.145315320551 0.755 1.75198587658e-38
-0.0167671523712 -0.145315320551 0.755 1.78886272723e-38
-0.0153698896736 -0.145315320551 0.755 1.79833017991e-38
-0.013972626976 -0.145315320551 0.755 1.78914929276e-38
-0.0126086765017 -0.145700261797 0.757 1.90006851219e-38
-0.0112077124459 -0.145700261797 0.757 1.86336724424e-38
-0.00983265789716 -0.146085203044 0.759 1.77124237995e-38
-0.00845020063212 -0.14647014429 0.761 1.86329731944e-38
-0.0070418338601 -0.14647014429 0.761 1.82620803195e-38
-0.00563346708808 -0.14647014429 0.761 1.87234101947e-38
-0.00423065235327 -0.146662614913 0.762 1.79858465571e-38
-0.00282043490218 -0.146662614913 0.762 1.84468106934e-38
-0.00141021745109 -0.146662614913 0.762 1.90006627011e-38
0.0 -0.14704755616 0.764 1.89084558608e-38
0.00141391880923 -0.14704755616 0.764 1.88145016014e-38
0.00282043490218 -0.146662614913 0.762 1.87244289387e-38
0.00423065235327 -0.146662614913 0.762 1.8723373761e-38
0.00564086980436 -0.146662614913 0.762 1.87251548113e-38
0.00705108725545 -0.146662614913 0.762 1.86315312583e-38
0.00848351285537 -0.14704755616 0.764 1.87223073728e-38
0.0098974316646 -0.14704755616 0.764 1.87219402326e-38
0.0113113504738 -0.14704755616 0.764 1.90910997014e-38
-0.043429885728 -0.144299297741 0.757 2.77305755702e-40
-0.0420289216722 -0.144299297741 0.757 9.18453052472e-41
-0.0406279576165 -0.144299297741 0.757 4.60989359704e-40
-0.0393306315886 -0.14468053763 0.759 4.33573796029e-39
-0.037826029505 -0.144299297741 0.757 5.53716922465e-39
-0.0364250654493 -0.144299297741 0.757 4.89531707475e-39
-0.03493156744 -0.143918057853 0.755 9.04265185781e-39
-0.0335343047424 -0.143918057853 0.755 1.5312257369e-38
-0.0321370420448 -0.143918057853 0.755 1.31989437407e-38
-0.0307397793472 -0.143918057853 0.755 1.21865924807e-38
-0.0293425166496 -0.143918057853 0.755 1.82613754664e-38
-0.027945253952 -0.143918057853 0.755 1.84367745938e-38
-0.0265479912544 -0.143918057853 0.755 1.48469225827e-38
-0.0251507285568 -0.143918057853 0.755 1.19968062219e-38
-0.0237534658592 -0.143918057853 0.755 1.1630533428e-38
-0.0223562031616 -0.143918057853 0.755 1.81706399895e-38
-0.020958940464 -0.143918057853 0.755 1.90893452757e-38
-0.0195616777664 -0.143918057853 0.755 2.09321746692e-38
-0.0181644150688 -0.143918057853 0.755 2.12066147696e-38
-0.0167671523712 -0.143918057853 0.755 1.97318406216e-38
-0.0153495322039 -0.143727437909 0.754 2.038077073e-38
-0.0139541201853 -0.143727437909 0.754 1.89056925003e-38
-0.0125753642784 -0.143918057853 0.755 1.72490186012e-38
-0.0112077124459 -0.144299297741 0.757 1.72507632178e-38
-0.00980674839019 -0.144299297741 0.757 1.74351292541e-38
-0.00840578433445 -0.144299297741 0.757 1.75262711076e-38
-0.0070048202787 -0.144299297741 0.757 1.78932949974e-38
-0.00561866165552 -0.14468053763 0.759 1.75248670065e-38
-0.00421399624164 -0.14468053763 0.759 1.84468233051e-38
-0.00281673354404 -0.145061777518 0.761 1.73404729442e-38
-0.00140466541388 -0.14468053763 0.759 1.74347803308e-38
0.0 -0.14468053763 0.759 1.83560233685e-38
0.00140836677202 -0.145061777518 0.761 1.92762154324e-38
0.00281673354404 -0.145061777518 0.761 1.74344131906e-38
0.00422510031606 -0.145061777518 0.761 1.85386531961e-38
0.00563346708808 -0.145061777518 0.761 1.82624180324e-38
0.0070418338601 -0.145061777518 0.761 1.76173975467e-38
0.00846130470654 -0.145252397462 0.762 1.77081666547e-38
0.00987152215763 -0.145252397462 0.762 1.81687944794e-38
0.0113113504738 -0.145633637351 0.764 1.88148631364e-38
-0.0435446278303 -0.143275872216 0.759 9.29144959755e-41
-0.0421399624164 -0.143275872216 0.759 2.7551910016e-40
-0.0407352970025 -0.143275872216 0.759 7.30076499913e-43
-0.0391233555328 -0.142520795155 0.755 5.35204088193e-39
-0.0377260928352 -0.142520795155 0.755 5.07762600496e-39
-0.0363288301376 -0.142520795155 0.755 6.0020415824e-39
-0.0348853004633 -0.14233202589 0.754 6.92467330689e-39
-0.0334898884448 -0.14233202589 0.754 1.36530737444e-38
-0.0320944764262 -0.14233202589 0.754 1.33815315293e-38
-0.0306990644077 -0.14233202589 0.754 1.18149330955e-38
-0.0293036523892 -0.14233202589 0.754 1.65093291938e-38
-0.0279082403706 -0.14233202589 0.754 1.84385696572e-38
-0.0265128283521 -0.14233202589 0.754 1.89031673604e-38
-0.0251174163336 -0.14233202589 0.754 1.19950055533e-38
-0.023722004315 -0.14233202589 0.754 1.10759485412e-38
-0.0223265922965 -0.14233202589 0.754 1.74341651608e-38
-0.020931180278 -0.14233202589 0.754 1.91844107648e-38
-0.0195357682594 -0.14233202589 0.754 1.90904242755e-38
-0.0181403562409 -0.14233202589 0.754 1.89038820226e-38
-0.0167449442224 -0.14233202589 0.754 1.91804703135e-38
-0.0153495322039 -0.14233202589 0.754 1.87226955325e-38
-0.0139541201853 -0.14233202589 0.754 1.83539634598e-38
-0.0125587081668 -0.14233202589 0.754 1.5867528892e-38
-0.0111632961483 -0.14233202589 0.754 1.74348195672e-38
-0.00976788412972 -0.14233202589 0.754 1.67897836672e-38
-0.00837247211119 -0.14233202589 0.754 1.69738260036e-38
-0.00697706009266 -0.14233202589 0.754 1.73415547466e-38
-0.00558905079041 -0.142520795155 0.755 1.71575138115e-38
-0.0041917880928 -0.142520795155 0.755 1.78028832205e-38
-0.0027945253952 -0.142520795155 0.755 1.74337475739e-38
-0.0013972626976 -0.142520795155 0.755 1.72511177463e-38
0.0 -0.142520795155 0.755 1.66965328596e-38
0.0013972626976 -0.142520795155 0.755 1.74337503765e-38
0.0027945253952 -0.142520795155 0.755 1.75269787633e-38
0.0041917880928 -0.142520795155 0.755 1.8723411596e-38
0.00558905079041 -0.142520795155 0.755 1.79851262897e-38
0.00698631348801 -0.142520795155 0.755 1.78017902077e-38
0.00840578433445 -0.142898333686 0.757 1.78017930103e-38
0.00980674839019 -0.142898333686 0.757 1.78929348637e-38
0.0112077124459 -0.142898333686 0.757 1.80801497399e-38
-0.0421399624164 -0.141871206802 0.759 2.75516297563e-40
-0.0407352970025 -0.141871206802 0.759 2.77677099795e-40
-0.0391233555328 -0.141123532458 0.755 4.61482756894e-39
-0.0376761245004 -0.140936613872 0.754 3.41917946334e-39
-0.0362807124818 -0.140936613872 0.754 5.35669459413e-39
-0.0347927665098 -0.1405627767 0.752 5.45026209519e-39
-0.0333122232541 -0.140188939528 0.75 1.42069509754e-38
-0.0319242139518 -0.140188939528 0.75 1.53154747503e-38
-0.0305362046496 -0.140188939528 0.75 1.35648479931e-38
-0.0291481953473 -0.140188939528 0.75 1.88135319029e-38
-0.0277601860451 -0.140188939528 0.75 1.98243879774e-38
-0.0263721767428 -0.140188939528 0.75 1.92708708801e-38
-0.0249841674406 -0.140188939528 0.75 1.36527206172e-38
-0.0235961581383 -0.140188939528 0.75 1.04298798843e-38
-0.0222673705663 -0.1405627767 0.752 1.72515689644e-38
-0.0208756599059 -0.1405627767 0.752 1.77117918138e-38
-0.0194839492455 -0.1405627767 0.752 1.7618150044e-38
-0.0180441209293 -0.140188939528 0.75 1.73387157159e-38
-0.016656111627 -0.140188939528 0.75 1.72472123275e-38
-0.0152681023248 -0.140188939528 0.75 1.61423039026e-38
-0.0138800930225 -0.140188939528 0.75 1.66043862751e-38
-0.0124920837203 -0.140188939528 0.75 1.6606883389e-38
-0.0111336852831 -0.1405627767 0.752 1.70664196022e-38
-0.00974197462275 -0.1405627767 0.752 1.71589473398e-38
-0.00835026396236 -0.1405627767 0.752 1.70667489073e-38
-0.00697706009266 -0.140936613872 0.754 1.74351853061e-38
-0.00558164807413 -0.140936613872 0.754 1.6513931058e-38
-0.0041862360556 -0.140936613872 0.754 1.66979691905e-38
-0.00279082403706 -0.140936613872 0.754 1.66972643374e-38
-0.00139541201853 -0.140936613872 0.754 1.66064784138e-38
0.0 -0.140936613872 0.754 1.70674789838e-38
0.00139541201853 -0.140936613872 0.754 1.60525969788e-38
0.00279082403706 -0.140936613872 0.754 1.75287696227e-38
0.0041862360556 -0.140936613872 0.754 1.78032321438e-38
0.00558164807413 -0.140936613872 0.754 1.81709384661e-38
0.00697706009266 -0.140936613872 0.754 1.76191701892e-38
0.00837247211119 -0.140936613872 0.754 1.73425832997e-38
0.00978083888321 -0.141123532458 0.755 1.71567893402e-38
0.0112077124459 -0.14149736963 0.757 1.6791557711e-38
-0.0421399624164 -0.140466541388 0.759 9.18411013518e-41
-0.0407352970025 -0.140466541388 0.759 9.80908925027e-45
-0.0390715365189 -0.139541201853 0.754 6.18250219993e-39
-0.0376761245004 -0.139541201853 0.754 3.32626076347e-39
-0.0361844771702 -0.139171066039 0.752 3.60284485046e-39
-0.0347002325563 -0.138800930225 0.75 5.44954463037e-39
-0.0333122232541 -0.138800930225 0.75 1.19946173937e-38
-0.0318816483332 -0.138615862318 0.749 1.44842791519e-38
-0.03049548971 -0.138615862318 0.749 1.26410938285e-38
-0.0291093310869 -0.138615862318 0.749 1.33754442887e-38
-0.0277231724637 -0.138615862318 0.749 1.7613863472e-38
-0.0263370138405 -0.138615862318 0.749 1.89942867931e-38
-0.0249508552173 -0.138615862318 0.749 1.33743288551e-38
-0.0235646965941 -0.138615862318 0.749 1.27336972362e-38
-0.0221785379709 -0.138615862318 0.749 1.35641403373e-38
-0.0207923793478 -0.138615862318 0.749 1.53175640863e-38
-0.0194062207246 -0.138615862318 0.749 1.88156800934e-38
-0.0180200621014 -0.138615862318 0.749 1.51288708403e-38
-0.0166339034782 -0.138615862318 0.749 1.872132226e-38
-0.015247744855 -0.138615862318 0.749 2.07538734526e-38
-0.0138615862318 -0.138615862318 0.749 1.8171022544e-38
-0.0124754276087 -0.138615862318 0.749 1.58693351657e-38
-0.011104074418 -0.138800930225 0.75 1.62377547488e-38
-0.00971606511577 -0.138800930225 0.75 1.64224753137e-38
-0.00832805581352 -0.138800930225 0.75 1.66994125279e-38
-0.00695855330196 -0.139171066039 0.752 1.67912550306e-38
-0.00556684264157 -0.139171066039 0.752 1.6884152711e-38
-0.00417513198118 -0.139171066039 0.752 1.6238431576e-38
-0.00278342132079 -0.139171066039 0.752 1.65143192176e-38
-0.00139171066039 -0.139171066039 0.752 1.58696490565e-38
0.0 -0.139171066039 0.752 1.61469758317e-38
0.00139171066039 -0.139171066039 0.752 1.62398623017e-38
0.00278342132079 -0.139171066039 0.752 1.72521995487e-38
0.0041862360556 -0.139541201853 0.754 1.76195457372e-38
0.00556684264157 -0.139171066039 0.752 1.761846954e-38
0.00695855330196 -0.139171066039 0.752 1.76195261191e-38
0.00835026396236 -0.139171066039 0.752 1.75284066864e-38
0.00976788412972 -0.139541201853 0.754 1.6881631775e-38
-0.0408426363886 -0.13942831043 0.761 9.2206840251e-41
-0.0390715365189 -0.138145789835 0.754 6.18177492603e-39
-0.0375761878306 -0.137779355379 0.752 4.43224258293e-39
-0.0361844771702 -0.137779355379 0.752 1.20362569775e-39
-0.0347002325563 -0.137412920923 0.75 5.07788804777e-39
-0.0332678069564 -0.137229703695 0.749 1.08897313896e-38
-0.0318816483332 -0.137229703695 0.749 1.4022946474e-38
-0.030414059831 -0.136863269239 0.747 1.41162267089e-38
-0.0290316025659 -0.136863269239 0.747 1.27333146817e-38
-0.0276491453009 -0.136863269239 0.747 1.78940713168e-38
-0.0262666880358 -0.136863269239 0.747 2.04694196735e-38
-0.0248842307708 -0.136863269239 0.747 1.54923060048e-38
-0.0235017735058 -0.136863269239 0.747 1.19046442232e-38
-0.0221193162407 -0.136863269239 0.747 1.22751965826e-38
-0.0207368589757 -0.136863269239 0.747 1.56877899431e-38
-0.0193544017106 -0.136863269239 0.747 2.0107858045e-38
-0.0179719444456 -0.136863269239 0.747 1.98308591737e-38
-0.0165894871805 -0.136863269239 0.747 2.06595702699e-38
-0.0152070299155 -0.136863269239 0.747 1.54990938945e-38
-0.0138245726504 -0.136863269239 0.747 1.84493932865e-38
-0.0124421153854 -0.136863269239 0.747 1.48558993007e-38
-0.0110892689855 -0.137229703695 0.749 1.6330313315e-38
-0.00970311036229 -0.137229703695 0.749 1.66083071082e-38
-0.0083169517391 -0.137229703695 0.749 1.57788981654e-38
-0.00693079311592 -0.137229703695 0.749 1.63317202187e-38
-0.00555203720901 -0.137412920923 0.75 1.60558367809e-38
-0.00416402790676 -0.137412920923 0.75 1.55941509759e-38
-0.00277601860451 -0.137412920923 0.75 1.56852928293e-38
-0.00138800930225 -0.137412920923 0.75 1.57785464395e-38
0.0 -0.137412920923 0.75 1.63321083783e-38
0.00138800930225 -0.137412920923 0.75 1.59633034381e-38
0.00277601860451 -0.137412920923 0.75 1.64217690593e-38
0.00417513198118 -0.137779355379 0.752 1.73433273891e-38
0.00556684264157 -0.137779355379 0.752 1.76181164128e-38
0.00695855330196 -0.137779355379 0.752 1.69738274049e-38
0.00835026396236 -0.137779355379 0.752 1.66046889556e-38
0.00976788412972 -0.138145789835 0.754 1.63281188816e-38
-0.0390715365189 -0.136750377816 0.754 5.53567964438e-39
-0.0374762511608 -0.136024911621 0.75 5.25984104817e-39
-0.0360882418586 -0.136024911621 0.75 2.78090482842e-40
-0.0346539655796 -0.135843545072 0.749 5.26012130786e-39
-0.0331789743611 -0.135480811974 0.747 7.75618980263e-39
-0.031796517096 -0.135480811974 0.747 1.45768489284e-38
-0.030414059831 -0.135480811974 0.747 1.33793861413e-38
-0.0290316025659 -0.135480811974 0.747 1.20918941318e-38
-0.0276491453009 -0.135480811974 0.747 1.56832006907e-38
-0.0262666880358 -0.135480811974 0.747 1.86251525477e-38
-0.0248509185475 -0.135299445426 0.746 1.82563700282e-38
-0.0234703119616 -0.135299445426 0.746 1.18124233699e-38
-0.0220897053756 -0.135299445426 0.746 1.08007699566e-38
-0.0207368589757 -0.135480811974 0.747 1.67015887444e-38
-0.0193284922036 -0.135299445426 0.746 1.56842404541e-38
-0.0179478856177 -0.135299445426 0.746 1.51292575986e-38
-0.0165672790317 -0.135299445426 0.746 1.42994745091e-38
-0.0151866724457 -0.135299445426 0.746 1.55909391998e-38
-0.0138060658597 -0.135299445426 0.746 1.54079898762e-38
-0.0124254592738 -0.135299445426 0.746 1.64239270589e-38
-0.0110596581204 -0.135480811974 0.747 1.66079707966e-38
-0.00967720085531 -0.135480811974 0.747 1.58714567316e-38
-0.00829474359027 -0.135480811974 0.747 1.56870654718e-38
-0.00691228632522 -0.135480811974 0.747 1.51331868395e-38
-0.00552982906018 -0.135480811974 0.747 1.60558507939e-38
-0.00415847586955 -0.135843545072 0.749 1.6147338768e-38
-0.00277231724637 -0.135843545072 0.749 1.57775024721e-38
-0.00138615862318 -0.135843545072 0.749 1.59629489096e-38
0.0 -0.135843545072 0.749 1.53193955834e-38
0.00138615862318 -0.135843545072 0.749 1.53186683095e-38
0.00277231724637 -0.135843545072 0.749 1.58686317139e-38
0.00416402790676 -0.136024911621 0.75 1.6698671241e-38
0.00555203720901 -0.136024911621 0.75 1.66053924074e-38
0.00694004651127 -0.136024911621 0.75 1.7341551944e-38
0.00832805581352 -0.136024911621 0.75 1.71571746972e-38
0.00971606511577 -0.136024911621 0.75 1.6145169558e-38
0.011104074418 -0.136024911621 0.75 1.67001103745e-38
-0.038967898491 -0.134995934058 0.752 7.01008525089e-39
-0.0374762511608 -0.134636902319 0.75 4.79742376533e-39
-0.0360401242028 -0.134457386449 0.749 1.01315140139e-39
-0.0346539655796 -0.134457386449 0.749 5.90333271727e-39
-0.0331789743611 -0.134098354709 0.747 4.9899859964e-39
-0.031796517096 -0.134098354709 0.747 1.39329256594e-38
-0.030414059831 -0.134098354709 0.747 1.25510674087e-38
-0.0290316025659 -0.134098354709 0.747 1.20947597871e-38
-0.0276121317195 -0.13391883884 0.746 1.11677938465e-38
-0.0262315251335 -0.13391883884 0.746 1.18033990078e-38
-0.0248509185475 -0.13391883884 0.746 1.40150081182e-38
-0.0234703119616 -0.13391883884 0.746 1.19056755788e-38
-0.0220897053756 -0.13391883884 0.746 9.87811020613e-39
-0.0207090987896 -0.13391883884 0.746 1.50403101786e-38
-0.0193284922036 -0.13391883884 0.746 1.78036847632e-38
-0.0179478856177 -0.13391883884 0.746 2.05670439336e-38
-0.0165672790317 -0.13391883884 0.746 1.98301473141e-38
-0.0151866724457 -0.13391883884 0.746 1.89082246466e-38
-0.0138060658597 -0.13391883884 0.746 1.82642719503e-38
-0.0124254592738 -0.13391883884 0.746 1.55001981177e-38
-0.0110448526878 -0.13391883884 0.746 1.55945405368e-38
-0.00966424610182 -0.13391883884 0.746 1.50431281898e-38
-0.00829474359027 -0.134098354709 0.747 1.52271635197e-38
-0.00691228632522 -0.134098354709 0.747 1.52261069407e-38
-0.00552982906018 -0.134098354709 0.747 1.4304502368e-38
-0.00414737179513 -0.134098354709 0.747 1.56870906952e-38
-0.00276491453009 -0.134098354709 0.747 1.55016428564e-38
-0.00138615862318 -0.134457386449 0.749 1.55026994355e-38
0.0 -0.134457386449 0.749 1.42151864065e-38
0.00138615862318 -0.134457386449 0.749 1.43062974313e-38
0.00277231724637 -0.134457386449 0.749 1.53161768008e-38
0.00415847586955 -0.134457386449 0.749 1.67933513731e-38
0.00554463449273 -0.134457386449 0.749 1.72525218474e-38
0.00693079311592 -0.134457386449 0.749 1.72504241036e-38
0.00832805581352 -0.134636902319 0.75 1.63284860218e-38
0.00971606511577 -0.134636902319 0.75 1.55015727915e-38
0.011104074418 -0.134636902319 0.75 1.55948221978e-38
-0.0388642604631 -0.133248893016 0.75 6.9171819653e-39
-0.037426282826 -0.133071227826 0.749 3.78362076015e-39
-0.0360401242028 -0.133071227826 0.749 8.31955102165e-40
-0.0345614316261 -0.132715897444 0.747 5.07717478685e-39
-0.0331789743611 -0.132715897444 0.747 4.80200881391e-39
-0.0317539514774 -0.132538232254 0.746 1.40258121294e-38
-0.0303733448914 -0.132538232254 0.746 1.3106711677e-38
-0.0289927383055 -0.132538232254 0.746 1.19071315279e-38
-0.0275381045567 -0.132182901872 0.744 1.52211547519e-38
-0.0261611993289 -0.132182901872 0.744 1.76110398556e-38
-0.024784294101 -0.132182901872 0.744 1.99162262761e-38
-0.0234073888732 -0.132182901872 0.744 1.35558320387e-38
-0.0220304836454 -0.132182901872 0.744 1.13503409974e-38
-0.0206535784175 -0.132182901872 0.744 1.48559329319e-38
-0.0192766731897 -0.132182901872 0.744 1.68842283811e-38
-0.0178997679619 -0.132182901872 0.744 1.90025810787e-38
-0.016522862734 -0.132182901872 0.744 1.43938379477e-38
-0.0151459575062 -0.132182901872 0.744 1.59604602035e-38
-0.0137690522784 -0.132182901872 0.744 1.46711451047e-38
-0.0123921470505 -0.132182901872 0.744 1.5408359819e-38
-0.0110448526878 -0.132538232254 0.746 1.45800172642e-38
-0.00966424610182 -0.132538232254 0.746 1.53190074237e-38
-0.00828363951585 -0.132538232254 0.746 1.53193731626e-38
-0.00690303292987 -0.132538232254 0.746 1.47658476575e-38
-0.0055224263439 -0.132538232254 0.746 1.47658476575e-38
-0.00414181975792 -0.132538232254 0.746 1.55956111289e-38
-0.00276491453009 -0.132715897444 0.747 1.60555172848e-38
-0.00138245726504 -0.132715897444 0.747 1.55938132629e-38
0.0 -0.132715897444 0.747 1.51367657558e-38
0.00138245726504 -0.132715897444 0.747 1.4489632112e-38
0.00276491453009 -0.132715897444 0.747 1.47637036708e-38
0.00415847586955 -0.133071227826 0.749 1.64238794148e-38
0.00554463449273 -0.133071227826 0.749 1.71614080199e-38
0.00693079311592 -0.133071227826 0.749 1.68820115269e-38
0.0083169517391 -0.133071227826 0.749 1.5960077649e-38
0.00970311036229 -0.133071227826 0.749 1.55008665371e-38
0.0110892689855 -0.133071227826 0.749 1.55029796952e-38
-0.0388124414491 -0.131685069202 0.749 6.91682743679e-39
-0.0373263461562 -0.131333440179 0.747 4.4286244303e-39
-0.0359438888912 -0.131333440179 0.747 1.8656887754e-40
-0.0345614316261 -0.131333440179 0.747 5.07717478685e-39
-0.0331345580634 -0.131157625668 0.746 3.23397264791e-39
-0.0317539514774 -0.131157625668 0.746 1.22741049711e-38
-0.0303733448914 -0.131157625668 0.746 1.37520950991e-38
-0.0289150097845 -0.130805996644 0.744 1.23659740984e-38
-0.0274640773939 -0.130454367621 0.742 1.28222705095e-38
-0.0260908735242 -0.130454367621 0.742 1.94556685163e-38
-0.0247176696545 -0.130454367621 0.742 1.89946217034e-38
-0.0233444657848 -0.130454367621 0.742 1.85308129312e-38
-0.0219712619151 -0.130454367621 0.742 1.54048271455e-38
-0.0205980580454 -0.130454367621 0.742 1.20879564831e-38
-0.0192248541757 -0.130454367621 0.742 1.62370947373e-38
-0.017851650306 -0.130454367621 0.742 1.47619646594e-38
-0.0164784464364 -0.130454367621 0.742 1.55927594865e-38
-0.0151052425667 -0.130454367621 0.742 1.62384848253e-38
-0.013732038697 -0.130454367621 0.742 1.60547942148e-38
-0.0123588348273 -0.130454367621 0.742 1.55938188681e-38
-0.0110152418227 -0.130805996644 0.744 1.4764408524e-38
-0.00963833659485 -0.130805996644 0.744 1.49495200511e-38
-0.00826143136701 -0.130805996644 0.744 1.47658504601e-38
-0.00688452613918 -0.130805996644 0.744 1.46743807028e-38
-0.00550762091134 -0.130805996644 0.744 1.4582546608e-38
-0.00414181975792 -0.131157625668 0.746 1.53197501119e-38
-0.00276121317195 -0.131157625668 0.746 1.55952580016e-38
-0.00138060658597 -0.131157625668 0.746 1.5133916916e-38
0.0 -0.131157625668 0.746 1.39392875544e-38
0.00138245726504 -0.131333440179 0.747 1.52272111639e-38
0.00276491453009 -0.131333440179 0.747 1.3841769793e-38
0.00414737179513 -0.131333440179 0.747 1.55938048551e-38
0.00552982906018 -0.131333440179 0.747 1.67937143094e-38
0.00691228632522 -0.131333440179 0.747 1.67912438202e-38
0.00829474359027 -0.131333440179 0.747 1.61451849723e-38
0.00967720085531 -0.131333440179 0.747 1.58693183501e-38
0.0110596581204 -0.131333440179 0.747 1.57781540759e-38
-0.0388124414491 -0.130298910579 0.749 7.19197239026e-39
-0.0373263461562 -0.129950982914 0.747 5.44133442267e-39
-0.0358957712353 -0.129777019082 0.746 5.53912263471e-40
-0.0345151646494 -0.129777019082 0.746 4.98281835476e-39
-0.0331345580634 -0.129777019082 0.746 3.69566125555e-39
-0.0316688202402 -0.129429091417 0.744 8.77141512576e-39
-0.0302104851333 -0.129081163751 0.742 1.33826329498e-38
-0.0288372812636 -0.129081163751 0.742 1.3195043927e-38
-0.0274640773939 -0.129081163751 0.742 1.36520311783e-38
-0.0260908735242 -0.129081163751 0.742 1.85340583384e-38
-0.0247176696545 -0.129081163751 0.742 1.60432881531e-38
-0.0233444657848 -0.129081163751 0.742 1.68698678744e-38
-0.0219712619151 -0.129081163751 0.742 9.04260701626e-39
-0.0205980580454 -0.129081163751 0.742 1.04284239351e-38
-0.0192248541757 -0.129081163751 0.742 1.59612155034e-38
-0.017851650306 -0.129081163751 0.742 1.58693870137e-38
-0.0164784464364 -0.129081163751 0.742 1.67923928849e-38
-0.0151052425667 -0.129081163751 0.742 1.60537600566e-38
-0.0137135319063 -0.128907199919 0.741 1.64232502318e-38
-0.0123421787156 -0.128907199919 0.741 1.58697233254e-38
-0.0109856309576 -0.129081163751 0.742 1.52254048902e-38
-0.00961242708787 -0.129081163751 0.742 1.49498885926e-38
-0.00823922321818 -0.129081163751 0.742 1.42130452224e-38
-0.00686601934848 -0.129081163751 0.742 1.43981609534e-38
-0.00550762091134 -0.129429091417 0.744 1.47673036066e-38
-0.00413071568351 -0.129429091417 0.744 1.50435303625e-38
-0.00275381045567 -0.129429091417 0.744 1.49506130639e-38
-0.00138060658597 -0.129777019082 0.746 1.48573384342e-38
0.0 -0.129777019082 0.746 1.35708707739e-38
0.00138060658597 -0.129777019082 0.746 1.4306699604e-38
0.00276121317195 -0.129777019082 0.746 1.36588316798e-38
0.00414181975792 -0.129777019082 0.746 1.51339253238e-38
0.0055224263439 -0.129777019082 0.746 1.52281990793e-38
0.00690303292987 -0.129777019082 0.746 1.55026630017e-38
0.00828363951585 -0.129777019082 0.746 1.5593447524e-38
0.00966424610182 -0.129777019082 0.746 1.5869684089e-38
0.0110448526878 -0.129777019082 0.746 1.49480655033e-38
-0.0373263461562 -0.128568525649 0.747 4.79452588011e-39
-0.0357995359237 -0.128052186189 0.744 1.29003676756e-39
-0.0344226306959 -0.128052186189 0.744 6.27139917321e-39
-0.0331345580634 -0.128396412496 0.746 4.70981318404e-39
-0.0316688202402 -0.128052186189 0.744 5.45275500516e-39
-0.0301697701938 -0.127535846728 0.741 1.27387096808e-38
-0.0287984170032 -0.127535846728 0.741 1.27355063125e-38
-0.0273530366497 -0.127191620421 0.739 1.1071632542e-38
-0.0259853848173 -0.127191620421 0.739 1.79808845592e-38
-0.0246843574313 -0.127535846728 0.741 2.1575397289e-38
-0.0233130042406 -0.127535846728 0.741 2.29551311713e-38
-0.02194165105 -0.127535846728 0.741 1.80774102014e-38
-0.0205702978594 -0.127535846728 0.741 1.614417884e-38
-0.0191989446688 -0.127535846728 0.741 1.69764240109e-38
-0.0178275914781 -0.127535846728 0.741 1.513287435e-38
-0.0164562382875 -0.127535846728 0.741 1.63335447093e-38
-0.0150848850969 -0.127535846728 0.741 1.48580657081e-38
-0.0137135319063 -0.127535846728 0.741 1.41212041211e-38
-0.0123421787156 -0.127535846728 0.741 1.485804609e-38
-0.010970825525 -0.127535846728 0.741 1.41212069236e-38
-0.00959947233438 -0.127535846728 0.741 1.43974364821e-38
-0.00822811914376 -0.127535846728 0.741 1.38449843717e-38
-0.00685676595313 -0.127535846728 0.741 1.39375429378e-38
-0.00549281547878 -0.127707959882 0.742 1.41230131974e-38
-0.00411961160909 -0.127707959882 0.742 1.43063254573e-38
-0.00274640773939 -0.127707959882 0.742 1.40293756314e-38
-0.00137690522784 -0.128052186189 0.744 1.43052408523e-38
0.0 -0.128052186189 0.744 1.40322342803e-38
0.00137690522784 -0.128052186189 0.744 1.36631252583e-38
0.00275381045567 -0.128052186189 0.744 1.36620350481e-38
0.00413071568351 -0.128052186189 0.744 1.43070275078e-38
0.00550762091134 -0.128052186189 0.744 1.64282052231e-38
0.00688452613918 -0.128052186189 0.744 1.61487821054e-38
0.00826143136701 -0.128052186189 0.744 1.50417184836e-38
0.00963833659485 -0.128052186189 0.744 1.43052100237e-38
0.0110152418227 -0.128052186189 0.744 1.43949043358e-38
-0.0357995359237 -0.126675280961 0.744 3.6771753262e-40
-0.0344226306959 -0.126675280961 0.744 5.90261385116e-39
-0.033045725468 -0.126675280961 0.744 5.5392221269e-39
-0.0315411233844 -0.126164493538 0.741 2.31777008077e-39
-0.0300883403147 -0.125823968589 0.739 1.22784321807e-38
-0.0287206884822 -0.125823968589 0.739 1.41194945369e-38
-0.0273160230683 -0.125653706114 0.738 1.26396757144e-38
-0.0259502219149 -0.125653706114 0.738 1.50309985503e-38
-0.0246177329848 -0.125823968589 0.739 1.78868714453e-38
-0.0232500811523 -0.125823968589 0.739 1.79790642725e-38
-0.0218824293198 -0.125823968589 0.739 1.22683582461e-38
-0.0205147774873 -0.125823968589 0.739 1.0151458695e-38
-0.0191471256548 -0.125823968589 0.739 1.50410178343e-38
-0.0178275914781 -0.126164493538 0.741 1.51353714638e-38
-0.0164118219898 -0.125823968589 0.739 1.52293397363e-38
-0.0150441701574 -0.125823968589 0.739 1.43988728131e-38
-0.0136765183249 -0.125823968589 0.739 1.39389526441e-38
-0.0123088664924 -0.125823968589 0.739 1.39385855039e-38
-0.010970825525 -0.126164493538 0.741 1.45832542637e-38
-0.00959947233438 -0.126164493538 0.741 1.40297273573e-38
-0.00822811914376 -0.126164493538 0.741 1.35701925454e-38
-0.00685676595313 -0.126164493538 0.741 1.39393380012e-38
-0.0054854127625 -0.126164493538 0.741 1.37549467414e-38
-0.00411405957188 -0.126164493538 0.741 1.30173788999e-38
-0.00274640773939 -0.126334756012 0.742 1.43066771832e-38
-0.0013732038697 -0.126334756012 0.742 1.39375317274e-38
0.0 -0.126334756012 0.742 1.33875921451e-38
0.0013732038697 -0.126334756012 0.742 1.43092079282e-38
0.00274640773939 -0.126334756012 0.742 1.30191627529e-38
0.00411961160909 -0.126334756012 0.742 1.32024736115e-38
0.00549281547878 -0.126334756012 0.742 1.46779428035e-38
0.00686601934848 -0.126334756012 0.742 1.51360777183e-38
0.00823922321818 -0.126334756012 0.742 1.43063002339e-38
0.00961242708787 -0.126334756012 0.742 1.48598019169e-38
0.0109856309576 -0.126334756012 0.742 1.44878174305e-38
0.0123588348273 -0.126334756012 0.742 1.43977335574e-38
-0.0357033006121 -0.124961552142 0.742 2.76598099978e-40
-0.0343300967424 -0.124961552142 0.742 6.54869932372e-39
-0.0329568928727 -0.124961552142 0.742 5.17043960744e-39
-0.0314559921472 -0.124456316756 0.739 2.22414092258e-39
-0.0300476253752 -0.124287904961 0.738 1.05274200665e-38
-0.0286818242218 -0.124287904961 0.738 1.32911533835e-38
-0.0272419959056 -0.12395108137 0.736 1.52218722167e-38
-0.0258798961103 -0.12395108137 0.736 1.80745473486e-38
