# .PCD v0.7 - Point Cloud Data file format
VERSION 0.7
FIELDS x y z rgb
SIZE 4 4 4 4
TYPE F F F F
COUNT 1 1 1 1
WIDTH 858
HEIGHT 1
VIEWPOINT 0 0 0 1 0 0 0
POINTS 858
DATA ascii
0.0114149885017 -0.148394850523 0.771 7.75589132606e-39
0.0128418620644 -0.148394850523 0.771 6.83464968965e-39
0.0143057492086 -0.148779791769 0.773 9.14096695807e-39
0.0157363241294 -0.148779791769 0.773 1.0249824242e-38
0.0171668990503 -0.148779791769 0.773 1.00679455104e-38
0.0185974739711 -0.148779791769 0.773 9.79315648673e-39
0.020053958399 -0.148972262392 0.774 9.42473410099e-39
0.0214863839989 -0.148972262392 0.774 9.97790788017e-39
0.022978031329 -0.149357203639 0.776 1.01601537519e-38
0.0244141582871 -0.149357203639 0.776 1.03445338013e-38
0.0258502852452 -0.149357203639 0.776 9.88497236471e-39
0.0272864122032 -0.149357203639 0.776 9.70165730221e-39
0.0287965663241 -0.149742144885 0.778 9.70095525168e-39
0.0302363946403 -0.149742144885 0.778 9.79244883101e-39
0.0316762229565 -0.149742144885 0.778 1.0161947414e-38
0.0331160512727 -0.149742144885 0.778 9.24069877107e-39
0.0345558795889 -0.149742144885 0.778 9.60733169868e-39
0.0359031739516 -0.149357203639 0.776 1.00686643765e-38
0.0373393009097 -0.149357203639 0.776 9.33144826092e-39
0.038675491198 -0.148972262392 0.774 8.50132745844e-39
0.0401079167979 -0.148972262392 0.774 1.20029677312e-38
0.0416476817839 -0.149357203639 0.776 1.20011698653e-38
0.0429727679978 -0.148972262392 0.774 1.18164016563e-38
0.0444051935977 -0.148972262392 0.774 1.23695530147e-38
0.0459560626581 -0.149357203639 0.776 1.2092998355e-38
0.0473921896161 -0.149357203639 0.776 1.16320244095e-38
0.0488283165742 -0.149357203639 0.776 1.16334467275e-38
0.0503939910671 -0.149742144885 0.778 1.10809749988e-38
0.0517005704903 -0.149357203639 0.776 1.08047370325e-38
0.0531366974484 -0.149357203639 0.776 1.05281473404e-38
0.0547134760158 -0.149742144885 0.778 1.06196297093e-38
0.056153304332 -0.149742144885 0.778 1.11728048898e-38
0.0577411869737 -0.150127086132 0.78 1.05238341437e-38
0.0591847166481 -0.150127086132 0.78 1.17223605163e-38
0.0607059748433 -0.150319556755 0.781 1.38432117291e-38
0.0621513551968 -0.150319556755 0.781 1.68849626615e-38
0.0637595953083 -0.150704498001 0.783 9.13948018039e-39
0.0653752381361 -0.151089439248 0.785 8.21646309882e-39
0.0671685461546 -0.151859321741 0.789 9.23132268304e-39
0.0686287319406 -0.151859321741 0.789 9.04690900254e-39
0.0701777503219 -0.152051792364 0.79 9.13803404038e-39
0.0718211533358 -0.152436733611 0.792 8.86074229766e-39
0.0736570269729 -0.153206616104 0.796 7.93880001201e-39
0.0755077060426 -0.153976498597 0.8 7.94025455982e-39
0.0772769552332 -0.154553910466 0.803 7.11157849606e-39
0.0789592225075 -0.154938851713 0.805 6.55804878707e-39
0.0806488924981 -0.155323792959 0.807 9.87709146215e-39
0.0821423905073 -0.155323792959 0.807 7.38780945584e-39
0.0840504406282 -0.156093675452 0.811 8.95299117687e-39
0.0859732961816 -0.156863557945 0.815 6.83248888741e-39
0.0879109571675 -0.157633440438 0.819 7.9399084391e-39
0.0905185639767 -0.159558146671 0.829 7.29491037415e-39
0.0922748584138 -0.159943087917 0.831 5.63468978867e-39
0.0940385555672 -0.160328029164 0.833 5.81837619527e-39
0.00428062068815 -0.14696797696 0.771 7.93955811448e-39
0.00570749425087 -0.14696797696 0.771 6.74173939757e-39
0.00715287460428 -0.147349216848 0.773 7.75553819885e-39
0.0085612413763 -0.14696797696 0.771 7.75625706496e-39
0.00998811493901 -0.14696797696 0.771 8.12503397922e-39
0.0114149885017 -0.14696797696 0.771 7.11158690385e-39
0.0128085498412 -0.146586737071 0.769 9.60229963589e-39
0.0142317220458 -0.146586737071 0.769 1.05267670614e-38
0.0156548942503 -0.146586737071 0.769 1.03448883298e-38
0.0170780664549 -0.146586737071 0.769 1.03463246607e-38
0.0185012386595 -0.146586737071 0.769 9.70167411779e-39
0.0199244108641 -0.146586737071 0.769 9.60948129052e-39
0.0213475830687 -0.146586737071 0.769 9.8857122503e-39
0.0228299770035 -0.14696797696 0.771 9.51622908162e-39
0.0242568505662 -0.14696797696 0.771 9.88500039068e-39
0.0256837241289 -0.14696797696 0.771 9.70130978019e-39
0.0271105976916 -0.14696797696 0.771 9.7016629074e-39
0.0286114984171 -0.147349216848 0.773 9.23997990496e-39
0.030042073338 -0.147349216848 0.773 9.51586194142e-39
0.0314726482588 -0.147349216848 0.773 9.60805757128e-39
0.0329457887983 -0.147539836792 0.774 9.51621226604e-39
0.0343782143982 -0.147539836792 0.774 9.79172295841e-39
0.0357643730214 -0.147349216848 0.773 9.51548779473e-39
0.0371949479422 -0.147349216848 0.773 8.68571311298e-39
0.0386255228631 -0.147349216848 0.773 9.88389616749e-39
0.040056097784 -0.147349216848 0.773 1.05278376534e-38
0.0415403423978 -0.147539836792 0.774 1.10802925665e-38
0.0429172476257 -0.147349216848 0.773 1.14486981366e-38
0.0443478225465 -0.147349216848 0.773 1.13568402197e-38
0.0457783974674 -0.147349216848 0.773 1.15412510976e-38
0.0472700447975 -0.147539836792 0.774 1.06200164677e-38
0.0487024703975 -0.147539836792 0.774 1.03444973675e-38
0.0501348959974 -0.147539836792 0.774 1.03448462908e-38
0.0515673215973 -0.147539836792 0.774 1.13593527478e-38
0.0529997471972 -0.147539836792 0.774 1.01600906935e-38
0.0545728244065 -0.147921076681 0.776 1.08965809365e-38
0.0560089513645 -0.147921076681 0.776 1.09880633054e-38
0.0575931326482 -0.148302316569 0.778 1.17216584658e-38
0.0591847166481 -0.148683556457 0.78 1.66062135683e-38
0.0607059748433 -0.148874176402 0.781 1.50399626566e-38
0.0621513551968 -0.148874176402 0.781 9.04689779216e-39
0.0637595953083 -0.14925541629 0.783 8.95328965344e-39
0.0653752381361 -0.149636656178 0.785 9.32208758718e-39
0.0669982836802 -0.150017896067 0.787 8.86146396637e-39
0.0686287319406 -0.150399135955 0.789 8.67777755977e-39
0.0701777503219 -0.150589755899 0.79 9.32207637679e-39
0.0718211533358 -0.150970995787 0.792 9.13697746134e-39
0.0738420948799 -0.152114715453 0.798 7.84733165605e-39
0.0756964753077 -0.152877195229 0.802 7.84806453515e-39
0.0774694258564 -0.153449055062 0.805 7.01939127399e-39
0.0793515664703 -0.154211534838 0.809 7.57256785577e-39
0.0808487658376 -0.154211534838 0.809 9.2313675246e-39
0.082345965205 -0.154211534838 0.809 6.92683270782e-39
0.084257716684 -0.154974014615 0.813 9.32177509762e-39
0.0863952510095 -0.15611773428 0.819 8.12251164198e-39
0.0881256359396 -0.156498974169 0.821 7.20162453408e-39
0.0905185639767 -0.158023933722 0.829 6.09636578463e-39
0.0927190213905 -0.159167653387 0.835 5.8190782458e-39
0.0942643384137 -0.159167653387 0.835 6.37047097464e-39
0.00141391880923 -0.144219718541 0.764 7.66191184325e-39
0.00282783761846 -0.144219718541 0.764 7.38602700419e-39
0.0042528605021 -0.144597257072 0.766 7.75624305198e-39
0.00567048066947 -0.144597257072 0.766 7.57329512967e-39
0.00708810083684 -0.144597257072 0.766 6.83609582966e-39
0.00851682507863 -0.144786026337 0.767 6.46767344391e-39
0.00993629592506 -0.144786026337 0.767 7.02120035031e-39
0.0113557667715 -0.144786026337 0.767 1.03420198718e-38
0.0127752376179 -0.144786026337 0.767 1.13572423924e-38
0.0141947084644 -0.144786026337 0.767 9.60731768569e-39
0.0156141793108 -0.144786026337 0.767 1.02544835594e-38
0.0170336501573 -0.144786026337 0.767 9.97861553589e-39
0.0184531210037 -0.144786026337 0.767 9.24177076439e-39
0.0198725918501 -0.144786026337 0.767 9.61055468515e-39
0.0212920626966 -0.144786026337 0.767 9.97825820478e-39
0.0227707552732 -0.145163564867 0.769 9.70169653856e-39
0.0241939274778 -0.145163564867 0.769 9.79424669694e-39
0.0256170996824 -0.145163564867 0.769 9.61055748774e-39
0.027040271887 -0.145163564867 0.769 1.02548450944e-38
0.0284634440915 -0.145163564867 0.769 9.97790928146e-39
0.0298866162961 -0.145163564867 0.769 9.33147068169e-39
0.0313912183798 -0.145541103397 0.771 1.05289362714e-38
0.0328180919425 -0.145541103397 0.771 9.42294324155e-39
0.0342449655052 -0.145541103397 0.771 8.13255614938e-39
0.0356718390679 -0.145541103397 0.771 9.8846234414e-39
0.0370987126306 -0.145541103397 0.771 1.071401697e-38
0.0385255861933 -0.145541103397 0.771 1.20962353544e-38
0.040056097784 -0.145918641927 0.773 1.11732042598e-38
0.0414866727048 -0.145918641927 0.773 1.08959013067e-38
0.0428062068815 -0.145541103397 0.771 1.09884458599e-38
0.0442330804442 -0.145541103397 0.771 1.0988427643e-38
0.0456599540069 -0.145541103397 0.771 1.16348746506e-38
0.0472089723882 -0.145918641927 0.773 1.03455721634e-38
0.0486395473091 -0.145918641927 0.773 9.33285796717e-39
0.0500701222299 -0.145918641927 0.773 9.0573472748e-39
0.0515006971508 -0.145918641927 0.773 9.79383331389e-39
0.0529312720717 -0.145918641927 0.773 1.08980228726e-38
0.0544321727972 -0.146107411192 0.774 1.06185619199e-38
0.0560089513645 -0.146484949723 0.776 1.23670418878e-38
0.0575931326482 -0.146862488253 0.778 1.72508725191e-38
0.0590329609644 -0.146862488253 0.778 1.53140342154e-38
0.0607059748433 -0.147428796048 0.781 9.1376458807e-39
0.0621513551968 -0.147428796048 0.781 9.59791917689e-39
0.0637595953083 -0.147806334578 0.783 9.68941555882e-39
0.0653752381361 -0.148183873109 0.785 9.50503691078e-39
0.0669982836802 -0.148561411639 0.787 9.04405876147e-39
0.0686287319406 -0.148938950169 0.789 8.76782359779e-39
0.0701777503219 -0.149127719434 0.79 8.03098443149e-39
0.0720025198846 -0.149882796495 0.794 8.39941522503e-39
0.0738420948799 -0.150637873555 0.798 7.84733445865e-39
0.0756964753077 -0.151392950615 0.802 8.86186053384e-39
0.0778543671029 -0.152714335471 0.809 9.96965703481e-39
0.0795477384517 -0.153091874001 0.811 7.6636928936e-39
0.0810486391772 -0.153091874001 0.811 9.32321423114e-39
0.0827531146003 -0.153469412532 0.813 6.92504885488e-39
0.0844649927398 -0.153846951062 0.815 9.04483508082e-39
0.0866062284234 -0.154979566652 0.821 7.66225376008e-39
0.0883403147117 -0.155357105183 0.823 5.81905582503e-39
0.0907369441069 -0.156867259303 0.831 6.74065759515e-39
0.0927190213905 -0.157622336364 0.835 6.37117302517e-39
-0.00141021745109 -0.14243196256 0.762 4.98896444982e-39
0.0 -0.14243196256 0.762 7.7537557472e-39
0.00141021745109 -0.14243196256 0.762 7.75518367034e-39
0.00282043490218 -0.14243196256 0.762 7.6636956962e-39
0.00424175642769 -0.142805799732 0.764 6.65025842992e-39
0.00565567523691 -0.142805799732 0.764 7.57365806597e-39
0.00706959404614 -0.142805799732 0.764 7.11304705685e-39
0.00850572100421 -0.143179636904 0.766 9.04987555139e-39
0.00992334117158 -0.143179636904 0.766 1.12636440627e-38
0.0113409613389 -0.143179636904 0.766 1.03445324e-38
0.0127585815063 -0.143179636904 0.766 9.69987064667e-39
0.0141762016737 -0.143179636904 0.766 9.97717359977e-39
0.0156141793108 -0.14336655549 0.767 9.60982741124e-39
0.0170336501573 -0.14336655549 0.767 9.42543615152e-39
0.0184531210037 -0.14336655549 0.767 9.51763458398e-39
0.0198725918501 -0.14336655549 0.767 9.42543895411e-39
0.0212920626966 -0.14336655549 0.767 9.60983021384e-39
0.022711533543 -0.14336655549 0.767 9.79567882397e-39
0.0241310043894 -0.14336655549 0.767 9.24250504479e-39
0.0255504752359 -0.14336655549 0.767 8.59676849555e-39
0.0269699460823 -0.14336655549 0.767 9.61055468515e-39
0.0283894169288 -0.14336655549 0.767 9.14850314121e-39
0.0298088877752 -0.14336655549 0.767 9.51549199863e-39
0.0312283586216 -0.14336655549 0.767 1.04367322337e-38
0.0326478294681 -0.14336655549 0.767 7.76305896771e-39
0.0340673003145 -0.14336655549 0.767 1.08065825426e-38
0.0354867711609 -0.14336655549 0.767 1.09906094648e-38
0.0369062420074 -0.14336655549 0.767 1.01608431908e-38
0.0384256495236 -0.143740392662 0.769 1.03448743168e-38
0.0398488217282 -0.143740392662 0.769 1.08054993389e-38
0.0412719939327 -0.143740392662 0.769 1.03434435911e-38
0.0426951661373 -0.143740392662 0.769 1.07125778364e-38
0.0441183383419 -0.143740392662 0.769 1.08044077274e-38
0.0455415105465 -0.143740392662 0.769 9.97644072067e-39
0.0470868275696 -0.144114229834 0.771 9.88568002044e-39
0.0485137011324 -0.144114229834 0.771 9.42614380724e-39
0.0499405746951 -0.144114229834 0.771 9.24247561752e-39
0.0513674482578 -0.144114229834 0.771 9.51762057099e-39
0.0529312720717 -0.144488067006 0.773 9.42182220278e-39
0.0543618469925 -0.144488067006 0.773 1.16301929124e-38
0.0558645983971 -0.144674985592 0.774 1.68810222102e-38
0.0574450783226 -0.145048822765 0.776 1.12559901705e-38
0.0588812052807 -0.145048822765 0.776 9.22768351093e-39
0.0606282463224 -0.145796497109 0.78 9.96489542263e-39
0.0621513551968 -0.145983415695 0.781 9.87271380575e-39
0.0637595953083 -0.146357252867 0.783 1.03340675031e-38
0.0653752381361 -0.146731090039 0.785 9.96493465898e-39
0.0669982836802 -0.147104927211 0.787 9.50432084727e-39
0.0686287319406 -0.147478764383 0.789 9.31992678494e-39
0.0701777503219 -0.147665682969 0.79 9.04513776128e-39
0.0721838864334 -0.148787194485 0.796 8.95295194051e-39
0.0740271627868 -0.149534868829 0.8 7.57039163925e-39
0.0759796292053 -0.15046946176 0.805 8.76966630527e-39
0.0778543671029 -0.151217136104 0.809 1.03373647583e-38
0.0795477384517 -0.151590973276 0.811 7.84773102612e-39
0.0812485125167 -0.151964810448 0.813 9.13739504828e-39
0.082956689298 -0.15233864762 0.815 8.3069155134e-39
0.0848795448514 -0.153086321964 0.819 7.01617669531e-39
0.0866062284234 -0.153460159136 0.821 6.0952937913e-39
0.0883403147117 -0.153833996308 0.823 5.91089972898e-39
0.0907369441069 -0.155329344997 0.831 6.55626913802e-39
0.0927190213905 -0.156077019341 0.835 7.56935327709e-39
-0.00423065235327 -0.141021745109 0.762 7.56684495284e-39
-0.00281673354404 -0.140836677202 0.761 7.01617949791e-39
-0.00140836677202 -0.140836677202 0.761 7.66298804047e-39
0.0 -0.140836677202 0.761 7.56936448748e-39
0.00141021745109 -0.141021745109 0.762 8.49275431444e-39
0.00282043490218 -0.141021745109 0.762 7.47895130926e-39
0.00423065235327 -0.141021745109 0.762 6.92757259341e-39
0.00564086980436 -0.141021745109 0.762 6.09817906484e-39
0.00705108725545 -0.141021745109 0.762 7.29673206215e-39
0.00848351285537 -0.141391880923 0.764 7.4821995191e-39
0.0098974316646 -0.141391880923 0.764 8.95768552672e-39
0.0113113504738 -0.141391880923 0.764 1.07133191233e-38
0.0127252692831 -0.141391880923 0.764 1.11746433934e-38
0.0141391880923 -0.141391880923 0.764 1.05292739843e-38
0.0155531069015 -0.141391880923 0.764 1.12675578893e-38
0.0169670257107 -0.141391880923 0.764 1.04377972206e-38
0.01838094452 -0.141391880923 0.764 1.02544849607e-38
0.0197948633292 -0.141391880923 0.764 9.4247242919e-39
0.0212087821384 -0.141391880923 0.764 9.24069316588e-39
0.0226819226779 -0.141762016737 0.766 9.51872479418e-39
0.0240995428453 -0.141762016737 0.766 9.61092042405e-39
0.0255171630126 -0.141762016737 0.766 9.61055748774e-39
0.0268644573753 -0.141391880923 0.764 9.97825820478e-39
0.0282783761846 -0.141391880923 0.764 8.59495941923e-39
0.0296922949938 -0.141391880923 0.764 9.97645193106e-39
0.031106213803 -0.141391880923 0.764 8.96158393905e-39
0.0325201326123 -0.141391880923 0.764 1.03445211896e-38
0.0339340514215 -0.141391880923 0.764 1.09906038596e-38
0.0354405041842 -0.141762016737 0.766 1.06221772699e-38
0.0368581243516 -0.141762016737 0.766 1.00686475609e-38
0.0383257128538 -0.141947084644 0.767 1.09909597894e-38
0.0397451837003 -0.141947084644 0.767 1.08058496635e-38
0.0411646545467 -0.141947084644 0.767 1.03448715142e-38
0.0425841253931 -0.141947084644 0.767 1.02526758843e-38
0.0440035962396 -0.141947084644 0.767 1.00682874272e-38
0.045423067086 -0.141947084644 0.767 9.33108812721e-39
0.046964682751 -0.142317220458 0.769 9.88570244121e-39
0.0483878549556 -0.142317220458 0.769 9.51691992176e-39
0.0498110271602 -0.142317220458 0.769 9.60839108032e-39
0.0512341993648 -0.142317220458 0.769 8.22364895735e-39
0.0527943218205 -0.142687356272 0.771 1.20926158005e-38
0.0542211953832 -0.142687356272 0.771 1.78962475333e-38
0.0558645983971 -0.143242559993 0.774 1.07946560914e-38
0.057297023997 -0.143242559993 0.774 1.12545482344e-38
0.0588812052807 -0.143612695806 0.776 1.07010185254e-38
0.0604727892806 -0.14398283162 0.778 1.08857797279e-38
0.0621513551968 -0.144538035341 0.781 9.87199914353e-39
0.0637595953083 -0.144908171155 0.783 9.96420598378e-39
0.0653752381361 -0.145278306969 0.785 9.50395370707e-39
0.0671685461546 -0.146018578597 0.789 9.41212241481e-39
0.0687157138569 -0.146203646504 0.79 9.22773395768e-39
0.0703554155126 -0.146573782318 0.792 8.67600491721e-39
0.0723652529823 -0.14768418976 0.798 8.49197799509e-39
0.0742122306938 -0.148424461388 0.802 8.03209005598e-39
0.0759796292053 -0.148979665109 0.805 9.41575878432e-39
0.0778543671029 -0.149719936736 0.809 9.96858364018e-39
0.0797439104331 -0.150460208364 0.813 8.58529886762e-39
0.0814483858562 -0.150830344178 0.815 8.03105029252e-39
0.0833638386933 -0.151570615806 0.819 7.47716044982e-39
0.0850868209072 -0.15194075162 0.821 7.47643878111e-39
0.0868172058373 -0.152310887434 0.823 6.2786116564e-39
0.0883403147117 -0.152310887434 0.823 6.64739417586e-39
0.0907369441069 -0.15379143069 0.831 7.10837232517e-39
0.0929411028789 -0.154901838131 0.837 7.10801219147e-39
-0.00564086980436 -0.139611527658 0.762 8.02495884809e-39
-0.00422510031606 -0.13942831043 0.761 6.36900661774e-39
-0.00281673354404 -0.13942831043 0.761 6.18712228097e-39
-0.00140836677202 -0.13942831043 0.761 4.25137558884e-39
0.0 -0.13942831043 0.761 6.55045374939e-40
0.00140836677202 -0.13942831043 0.761 9.31270729526e-40
0.00281673354404 -0.13942831043 0.761 3.42126459546e-39
0.00422510031606 -0.13942831043 0.761 5.91162560158e-39
0.00563346708808 -0.13942831043 0.761 7.10981986649e-39
0.00705108725545 -0.139611527658 0.762 8.67715398196e-39
0.00846130470654 -0.139611527658 0.762 7.38677109368e-39
0.0098974316646 -0.139977962114 0.764 7.01798437033e-39
0.0113113504738 -0.139977962114 0.764 4.62446289718e-39
0.0127252692831 -0.139977962114 0.764 6.10102650332e-39
0.0141391880923 -0.139977962114 0.764 7.02298280195e-39
0.015512391962 -0.139611527658 0.762 1.01576342173e-38
0.0169226094131 -0.139611527658 0.762 1.02505459107e-38
0.0183328268642 -0.139611527658 0.762 1.11735784065e-38
0.0197430443153 -0.139611527658 0.762 1.02523367701e-38
0.0211532617663 -0.139611527658 0.762 1.10838925022e-38
0.0225634792174 -0.139611527658 0.762 9.33289159834e-39
0.0239736966685 -0.139611527658 0.762 9.60912536071e-39
0.0254505385661 -0.139977962114 0.764 1.01622991399e-38
0.0267941315707 -0.139611527658 0.762 1.0161933401e-38
0.0282043490218 -0.139611527658 0.762 9.4239942154e-39
0.0296145664729 -0.139611527658 0.762 8.87009035972e-39
0.031024783924 -0.139611527658 0.762 1.05285355e-38
0.0324350013751 -0.139611527658 0.762 1.10817134831e-38
0.0339340514215 -0.139977962114 0.764 1.01611949167e-38
0.0353479702307 -0.139977962114 0.764 1.03455875777e-38
0.0367618890399 -0.139977962114 0.764 1.02530388207e-38
0.0382757445189 -0.140344396569 0.766 1.07143728998e-38
0.0396933646863 -0.140344396569 0.766 9.51618143747e-39
0.0411109848537 -0.140344396569 0.766 9.79276272187e-39
0.0425841253931 -0.140527613797 0.767 9.51618143747e-39
0.0439462251884 -0.140344396569 0.766 1.06218213401e-38
0.0453638453558 -0.140344396569 0.766 9.23890090514e-39
0.0468425379324 -0.140527613797 0.767 9.23854077143e-39
0.0482620087789 -0.140527613797 0.767 9.32929166258e-39
0.0496814796253 -0.140527613797 0.767 9.23456809029e-39
0.0512341993648 -0.140894048253 0.769 1.41187616578e-38
0.0526573715693 -0.140894048253 0.769 1.66051527854e-38
0.0542211953832 -0.141260482709 0.771 1.1071242981e-38
0.0557924219134 -0.141626917165 0.773 1.05169817942e-38
0.057297023997 -0.141810134393 0.774 1.1253827967e-38
0.0588812052807 -0.142176568848 0.776 1.00545785243e-38
0.0604727892806 -0.142543003304 0.778 1.08843532061e-38
0.0621513551968 -0.143092654988 0.781 9.87165022021e-39
0.0637595953083 -0.143459089444 0.783 9.50322783447e-39
0.0655417992524 -0.144191958355 0.787 9.31991557456e-39
0.0672536773918 -0.144741610039 0.79 9.04369722646e-39
0.0687157138569 -0.144741610039 0.79 9.13590126412e-39
0.0705330807033 -0.145474478951 0.794 9.32173866386e-39
0.0723652529823 -0.146207347862 0.798 8.2161169781e-39
0.0742122306938 -0.146940216774 0.802 7.94025736242e-39
0.0763571677356 -0.148222737369 0.809 8.86258500514e-39
0.0780468377262 -0.148589171825 0.811 8.86223468053e-39
0.0799400824144 -0.149322040736 0.815 7.84665482889e-39
0.0816482591957 -0.149688475192 0.817 7.29276919009e-39
0.0833638386933 -0.150054909648 0.819 6.64668371754e-39
0.0850868209072 -0.150421344104 0.821 7.01438443458e-39
0.0868172058373 -0.15078777856 0.823 7.38316695403e-39
0.0883403147117 -0.15078777856 0.823 7.75195227608e-39
0.0911737043673 -0.152986385294 0.835 7.29204752139e-39
0.0931631843672 -0.153719254206 0.839 7.19948335003e-39
-0.00845020063212 -0.138019943658 0.761 1.90845121973e-38
-0.0070418338601 -0.138019943658 0.761 1.41999360753e-38
-0.00563346708808 -0.138019943658 0.761 4.24600861572e-39
-0.00422510031606 -0.138019943658 0.761 6.73741218791e-39
-0.00281673354404 -0.138019943658 0.761 6.73884011104e-39
-0.00140836677202 -0.138019943658 0.761 8.12213889659e-39
0.0 -0.138019943658 0.761 1.07961891119e-38
0.00140836677202 -0.138019943658 0.761 9.50545029383e-39
0.00281673354404 -0.138019943658 0.761 5.63322963568e-39
0.00421399624164 -0.13765721056 0.759 1.85321161388e-39
0.00561866165552 -0.13765721056 0.759 6.81591573048e-42
0.0070418338601 -0.138019943658 0.761 4.30478888241e-42
0.00845020063212 -0.138019943658 0.761 3.60314893223e-39
0.00985856740414 -0.138019943658 0.761 7.29132445138e-39
0.0112669341762 -0.138019943658 0.761 6.92469853026e-39
0.0126753009482 -0.138019943658 0.761 7.57114693912e-39
0.0140836677202 -0.138019943658 0.761 7.11016878981e-39
0.0154920344922 -0.138019943658 0.761 6.00382123145e-39
0.0169004012642 -0.138019943658 0.761 6.37439601163e-39
0.0182606503804 -0.13765721056 0.759 7.20559020873e-39
0.0196653157943 -0.13765721056 0.759 9.23676252368e-39
0.0210699812082 -0.13765721056 0.759 1.09895528857e-38
0.0224746466221 -0.13765721056 0.759 1.0252340974e-38
0.023879312036 -0.13765721056 0.759 1.0344184878e-38
0.0253506018964 -0.138019943658 0.761 9.51335221587e-39
0.0267941315707 -0.138201310207 0.762 8.4999079431e-39
0.0282043490218 -0.138201310207 0.762 1.0344518387e-38
0.0296145664729 -0.138201310207 0.762 1.19118258778e-38
0.031024783924 -0.138201310207 0.762 1.09898695792e-38
0.0324350013751 -0.138201310207 0.762 1.09895178532e-38
0.0338452188261 -0.138201310207 0.762 1.11749839089e-38
0.0352554362772 -0.138201310207 0.762 1.05299774362e-38
0.0366656537283 -0.138201310207 0.762 1.02530388207e-38
0.0380758711794 -0.138201310207 0.762 1.07143686959e-38
0.0394860886305 -0.138201310207 0.762 9.60872599065e-39
0.0408963060816 -0.138201310207 0.762 1.08083383696e-38
0.0424175642769 -0.138564043304 0.764 9.70164048663e-39
0.0438314830861 -0.138564043304 0.764 1.01619151841e-38
0.0452454018953 -0.138564043304 0.764 1.03470295138e-38
0.0467814655231 -0.138926776402 0.766 9.69985663368e-39
0.0482620087789 -0.139108142951 0.767 1.07089596838e-38
0.0496814796253 -0.139108142951 0.767 1.65125970218e-38
0.0511009504718 -0.139108142951 0.767 1.57717809705e-38
0.0526573715693 -0.139470876049 0.769 1.11605547386e-38
0.0540805437739 -0.139470876049 0.769 1.14371402269e-38
0.0557924219134 -0.140196342244 0.773 1.11616323371e-38
0.0572229968342 -0.140196342244 0.773 1.10694381086e-38
0.0587294495969 -0.140377708793 0.774 1.10694549241e-38
0.0604727892806 -0.141103174988 0.778 1.06996130231e-38
0.0621513551968 -0.141647274634 0.781 9.96349272286e-39
0.0639224550664 -0.14237274083 0.785 9.4110322046e-39
0.0655417992524 -0.142735473927 0.787 9.32027010307e-39
0.0672536773918 -0.143279573574 0.79 9.13588725113e-39
0.0688896776894 -0.143642306672 0.792 9.22809689398e-39
0.0705330807033 -0.144005039769 0.794 9.59797242624e-39
0.0723652529823 -0.144730505965 0.798 8.95404635461e-39
0.0742122306938 -0.14545597216 0.802 9.41539024283e-39
0.0763571677356 -0.146725538002 0.809 8.12537589605e-39
0.0780468377262 -0.147088271099 0.811 8.49345216107e-39
0.0799400824144 -0.147813737295 0.815 7.20164134966e-39
0.0818481325353 -0.14853920349 0.819 7.2927635849e-39
0.083567413391 -0.148901936588 0.821 7.93634073321e-39
0.0850868209072 -0.148901936588 0.821 8.21148848928e-39
0.0868172058373 -0.149264669685 0.823 7.47285145704e-39
0.0883403147117 -0.149264669685 0.823 7.28990073214e-39
0.0913920844976 -0.151803801369 0.837 7.93562466969e-39
0.0933852658556 -0.152529267564 0.841 8.39730486954e-39
-0.00845020063212 -0.136611576886 0.761 1.80710805362e-38
-0.0070418338601 -0.136611576886 0.761 1.60438486725e-38
-0.00563346708808 -0.136611576886 0.761 3.94605647554e-42
-0.00422510031606 -0.136611576886 0.761 5.81508874908e-39
-0.00281673354404 -0.136611576886 0.761 6.8299455307e-39
-0.00140836677202 -0.136611576886 0.761 7.38348645008e-39
0.0 -0.136611576886 0.761 6.73920725124e-39
0.00140836677202 -0.136611576886 0.761 3.78894429302e-39
0.00280933082776 -0.136252545146 0.759 5.63285548899e-39
0.00420289216722 -0.135893513407 0.757 9.22777039144e-39
0.00560385622296 -0.135893513407 0.757 9.41037779822e-39
0.0070048202787 -0.135893513407 0.757 8.11892712051e-39
0.00840578433445 -0.135893513407 0.757 3.13964284048e-39
0.00983265789716 -0.136252545146 0.759 1.89769443233e-40
0.011237323311 -0.136252545146 0.759 3.58732406867e-42
0.0126419887249 -0.136252545146 0.759 4.68145790962e-40
0.0140466541388 -0.136252545146 0.759 4.52475350495e-39
0.0154513195527 -0.136252545146 0.759 7.56828548766e-39
0.0168559849666 -0.136252545146 0.759 8.21436955892e-39
0.0182125327246 -0.135893513407 0.757 7.48039184408e-39
0.0196134967804 -0.135893513407 0.757 5.45495364245e-39
0.0210144608361 -0.135893513407 0.757 4.44259537598e-39
0.0224154248919 -0.135893513407 0.757 7.66836061879e-39
0.0238163889476 -0.135893513407 0.757 9.69595261616e-39
0.0252173530033 -0.135893513407 0.757 9.7874405903e-39
0.0266886428637 -0.136252545146 0.759 1.14476681823e-38
0.0281673354404 -0.136611576886 0.761 1.08033497471e-38
0.0295757022124 -0.136611576886 0.761 1.0989516452e-38
0.0309840689844 -0.136611576886 0.761 1.05285355e-38
0.0323924357565 -0.136611576886 0.761 1.07125778364e-38
0.0337119699331 -0.136252545146 0.759 1.01608291778e-38
0.035116635347 -0.136252545146 0.759 9.7005726972e-39
0.0365213007609 -0.136252545146 0.759 1.00690034907e-38
0.0379259661748 -0.136252545146 0.759 1.0530333366e-38
0.0394342696166 -0.136611576886 0.761 9.33320829179e-39
0.0408426363886 -0.136611576886 0.761 1.03477091436e-38
0.0423065235327 -0.136791092756 0.762 9.0566214022e-39
0.0437167409838 -0.136791092756 0.762 9.42434594131e-39
0.0451269584349 -0.136791092756 0.762 9.51832262152e-39
0.0466593207045 -0.137150124495 0.764 1.06214191674e-38
0.0481990856905 -0.137509156235 0.766 1.76221591589e-38
0.0496167058579 -0.137509156235 0.766 1.37438162277e-38
0.0511009504718 -0.137688672104 0.767 1.15264407741e-38
0.0525204213182 -0.137688672104 0.767 1.19874217261e-38
0.0540805437739 -0.138047703844 0.769 1.16200895505e-38
0.0556480689459 -0.138406735583 0.771 1.10694409112e-38
0.0572229968342 -0.138765767323 0.773 9.77834616326e-39
0.0587294495969 -0.138945283193 0.774 1.05155706866e-38
0.0604727892806 -0.139663346672 0.778 1.06077859347e-38
0.0623105135968 -0.140560926021 0.783 9.87094256449e-39
0.0639224550664 -0.14091995776 0.785 1.02418718732e-38
0.0657083603687 -0.141638021239 0.789 9.59757305617e-39
0.0672536773918 -0.141817537109 0.79 9.69013442494e-39
0.0688896776894 -0.142176568848 0.792 8.86039057175e-39
0.070710745894 -0.142894632327 0.796 9.9674780157e-39
0.0727279860799 -0.143971727546 0.802 8.76929916507e-39
0.0743047646473 -0.144151243416 0.803 8.77002083378e-39
0.0765459370007 -0.145587370374 0.811 8.03318026618e-39
0.0782393083494 -0.145946402113 0.813 6.83428675334e-39
0.0801362543958 -0.146664465592 0.817 6.37187787829e-39
0.0820480058748 -0.147382529071 0.821 7.20020642003e-39
0.083567413391 -0.147382529071 0.821 7.38352008124e-39
0.085294096963 -0.147741560811 0.823 7.01150756883e-39
0.0870281832513 -0.14810059255 0.825 7.93311214155e-39
0.0894137085721 -0.149536719508 0.833 7.47321859724e-39
0.091828844758 -0.150972846467 0.841 8.6731897086e-39
0.0933852658556 -0.150972846467 0.841 1.00568262071e-38
0.0951674697997 -0.151331878206 0.843 9.96498230313e-39
-0.00845020063212 -0.135203210114 0.761 1.90844925791e-38
-0.0070418338601 -0.135203210114 0.761 1.47537992933e-38
-0.00563346708808 -0.135203210114 0.761 2.03329528212e-39
-0.00422510031606 -0.135203210114 0.761 6.64521655804e-39
-0.00281673354404 -0.135203210114 0.761 4.15665762174e-39
-0.00140836677202 -0.135203210114 0.761 6.27717112158e-39
0.0 -0.134847879733 0.759 7.20055534335e-39
0.00140466541388 -0.134847879733 0.759 6.73993032125e-39
0.00280192811148 -0.134492549351 0.757 5.81797402261e-39
0.00420289216722 -0.134492549351 0.757 5.54030813321e-39
0.00560385622296 -0.134492549351 0.757 4.34176774758e-39
0.0070048202787 -0.134492549351 0.757 5.07897825798e-39
0.00840578433445 -0.134492549351 0.757 9.0433903421e-39
0.00980674839019 -0.134492549351 0.757 9.31961569669e-39
0.0112077124459 -0.134492549351 0.757 7.84699394312e-39
0.0126086765017 -0.134492549351 0.757 6.18675654207e-39
0.0140096405574 -0.134492549351 0.757 2.86556707774e-39
0.0153698896736 -0.13413721897 0.755 5.73971850987e-42
0.0167671523712 -0.13413721897 0.755 2.51112684807e-42
0.0181644150688 -0.13413721897 0.755 2.21879076504e-39
0.0195616777664 -0.13413721897 0.755 6.55270563603e-39
0.020958940464 -0.13413721897 0.755 8.30514567344e-39
0.0223562031616 -0.13413721897 0.755 8.49060472259e-39
0.0237534658592 -0.13413721897 0.755 5.35772875239e-39
0.0251507285568 -0.13413721897 0.755 7.11053593e-39
0.0266183170591 -0.134492549351 0.757 9.50905022958e-39
0.0280192811148 -0.134492549351 0.757 1.21841542214e-38
0.0294202451706 -0.134492549351 0.757 1.17274346181e-38
0.0308212092263 -0.134492549351 0.757 1.07154266762e-38
0.0323073045192 -0.134847879733 0.759 1.03466539659e-38
0.0337119699331 -0.134847879733 0.759 1.10838560685e-38
0.0350241013935 -0.134492549351 0.757 9.42505359704e-39
0.0364250654493 -0.134492549351 0.757 1.03477329657e-38
0.037826029505 -0.134492549351 0.757 9.79527805261e-39
0.0393306315886 -0.134847879733 0.759 9.97966931234e-39
0.0407352970025 -0.134847879733 0.759 9.14919117875e-39
0.0422510031606 -0.135203210114 0.761 9.42470187112e-39
0.0436593699326 -0.135203210114 0.761 9.60766100382e-39
0.0450677367046 -0.135203210114 0.761 1.14479820731e-38
0.0465371758859 -0.135380875305 0.762 1.45797257942e-38
0.0480732395138 -0.135736205686 0.764 1.208609696e-38
0.0496167058579 -0.136091536067 0.766 1.29129639475e-38
0.0510343260252 -0.136091536067 0.766 1.40164962972e-38
0.0525204213182 -0.136269201258 0.767 1.05141343557e-38
0.0540805437739 -0.136624531639 0.769 1.12531273178e-38
0.0556480689459 -0.136979862021 0.771 1.13446152919e-38
0.0572229968342 -0.137335192402 0.773 1.11602240322e-38
0.0587294495969 -0.137512857593 0.774 1.07914471179e-38
0.0606282463224 -0.138578848737 0.78 1.01453700531e-38
0.0626288303967 -0.139822505072 0.787 1.06992640997e-38
0.0640853148246 -0.139822505072 0.787 1.08840154932e-38
0.0657083603687 -0.140177835453 0.789 9.22737102138e-39
0.0674239398663 -0.140710831025 0.792 1.01504063198e-38
0.069063641522 -0.141066161407 0.794 9.50647604431e-39
0.0708884110847 -0.141776822169 0.798 1.01525895428e-38
0.0727279860799 -0.142487482932 0.802 8.95333869889e-39
0.0743047646473 -0.142665148123 0.803 8.30797209244e-39
0.0765459370007 -0.144086469648 0.811 6.64809762769e-39
0.0784317789727 -0.144797130411 0.815 7.29347124063e-39
0.0803324263772 -0.145507791174 0.819 7.5697078056e-39
0.0820480058748 -0.145863121555 0.821 7.66083004084e-39
0.0837709880887 -0.146218451937 0.823 7.93634353581e-39
0.0855013730188 -0.146573782318 0.825 8.12108371885e-39
0.0874501380792 -0.147284443081 0.829 7.01329702697e-39
0.0894137085721 -0.147995103843 0.833 9.87064408792e-39
0.091828844758 -0.149416425369 0.841 9.87135594754e-39
0.093607347344 -0.14977175575 0.843 9.13629362769e-39
0.0951674697997 -0.14977175575 0.843 9.78166303673e-39
-0.00845020063212 -0.133794843342 0.761 1.87160659895e-38
-0.0070418338601 -0.133794843342 0.761 1.50307393101e-38
-0.00563346708808 -0.133794843342 0.761 2.03365401453e-39
-0.00422510031606 -0.133794843342 0.761 7.38278439955e-39
-0.00281673354404 -0.133794843342 0.761 9.298343986e-40
-0.00140836677202 -0.133794843342 0.761 6.81591573048e-42
0.0 -0.133443214319 0.759 4.34141321907e-39
0.00140466541388 -0.133443214319 0.759 4.71055306963e-39
0.00280192811148 -0.133091585295 0.757 6.18568314744e-39
0.0041917880928 -0.132739956272 0.755 6.27787877731e-39
0.00558905079041 -0.132739956272 0.755 6.18568314744e-39
0.00698631348801 -0.132739956272 0.755 6.09348751758e-39
0.00838357618561 -0.132739956272 0.755 4.89494432936e-39
0.00978083888321 -0.132739956272 0.755 3.88079240086e-39
0.0111781015808 -0.132739956272 0.755 5.17368641599e-39
0.0125753642784 -0.132739956272 0.755 5.63466176271e-39
0.013972626976 -0.132739956272 0.755 8.03173973136e-39
0.0153495322039 -0.132564141761 0.754 8.02994186543e-39
0.0167449442224 -0.132564141761 0.754 6.64629555786e-39
0.0181403562409 -0.132564141761 0.754 3.9722845789e-39
0.0195357682594 -0.132564141761 0.754 6.09845091674e-42
0.020931180278 -0.132564141761 0.754 2.15519703813e-42
0.0223265922965 -0.132564141761 0.754 2.77302252456e-39
0.023722004315 -0.132564141761 0.754 8.02852515268e-39
0.0251174163336 -0.132564141761 0.754 6.73781716316e-39
0.0265128283521 -0.132564141761 0.754 6.27967944583e-39
0.027945253952 -0.132739956272 0.755 5.08293272224e-39
0.0293425166496 -0.132739956272 0.755 6.00774066325e-39
0.0307397793472 -0.132739956272 0.755 8.22187491349e-39
0.032222173282 -0.133091585295 0.757 1.07136568363e-38
0.0336231373378 -0.133091585295 0.757 1.20036879986e-38
0.03493156744 -0.132739956272 0.755 1.08062125998e-38
0.0363288301376 -0.132739956272 0.755 8.77968418799e-39
0.0377260928352 -0.132739956272 0.755 9.70306981106e-39
0.0392269935607 -0.133091585295 0.757 9.88675481636e-39
0.0407352970025 -0.133443214319 0.759 9.70021816868e-39
0.0421399624164 -0.133443214319 0.759 9.79062153781e-39
0.0435446278303 -0.133443214319 0.759 1.25561246948e-38
0.0450677367046 -0.133794843342 0.761 1.08022455239e-38
0.0464761034766 -0.133794843342 0.761 6.74238960005e-39
0.047947393337 -0.133970657853 0.762 1.21761878396e-38
0.049487158323 -0.134322286877 0.764 1.36477319946e-38
0.0510343260252 -0.1346739159 0.766 2.21338595686e-39
0.0525204213182 -0.134849730412 0.767 5.81220767943e-39
0.0540805437739 -0.135201359435 0.769 1.18988596631e-38
0.0556480689459 -0.135552988458 0.771 1.09758131543e-38
0.0572229968342 -0.135904617481 0.773 1.11605771594e-38
0.0588812052807 -0.136432061016 0.776 1.07914471179e-38
0.0607059748433 -0.137311133574 0.781 1.08832910219e-38
0.0624696719967 -0.138014391621 0.785 1.06070684699e-38
0.0642481745827 -0.138717649667 0.789 1.13446433179e-38
0.0657916409268 -0.138893464179 0.79 9.31742967108e-39
0.0675942023407 -0.139596722225 0.794 1.16244812199e-38
0.0692376053545 -0.139948351249 0.796 9.87420478731e-39
0.0710660762754 -0.140651609295 0.8 9.32247854945e-39
0.0727279860799 -0.141003238318 0.802 8.30796928984e-39
0.0743047646473 -0.14117905283 0.803 7.57040985613e-39
0.0765459370007 -0.142585568923 0.811 7.47714363424e-39
0.0784317789727 -0.143288826969 0.815 7.84557302648e-39
0.0803324263772 -0.143992085016 0.819 8.21328075001e-39
0.0822478792143 -0.144695343062 0.823 8.02889229288e-39
0.0837709880887 -0.144695343062 0.823 8.02889229288e-39
0.0857086490746 -0.145398601109 0.827 8.12215991607e-39
0.0874501380792 -0.145750230132 0.829 9.59585366296e-39
0.0902724236604 -0.147860004271 0.841 1.01465107101e-38
0.091828844758 -0.147860004271 0.841 1.0424169593e-38
0.093607347344 -0.148211633295 0.843 9.22813613034e-39
0.0951674697997 -0.148211633295 0.843 9.22813613034e-39
-0.00985856740414 -0.13238647657 0.761 1.4843510421e-38
-0.00845020063212 -0.13238647657 0.761 1.41066502352e-38
-0.0070418338601 -0.13238647657 0.761 1.17120595713e-38
-0.00563346708808 -0.13238647657 0.761 3.8775610066e-39
-0.00422510031606 -0.13238647657 0.761 6.7366905192e-39
-0.00281673354404 -0.13238647657 0.761 6.46082529832e-39
-0.00140836677202 -0.13238647657 0.761 6.36827794254e-39
0.0 -0.132038548905 0.759 3.23434959719e-39
0.00140466541388 -0.132038548905 0.759 1.94361218041e-39
0.00280192811148 -0.13169062124 0.757 2.9577627076e-39
0.0041917880928 -0.131342693575 0.755 3.41909678673e-39
0.00558905079041 -0.131342693575 0.755 5.35520501386e-39
0.00697706009266 -0.131168729742 0.754 5.72398753331e-39
0.00837247211119 -0.131168729742 0.754 6.73813946181e-39
0.00976788412972 -0.131168729742 0.754 7.10692198126e-39
0.0111632961483 -0.131168729742 0.754 4.98999720679e-39
0.0125587081668 -0.131168729742 0.754 4.16131273524e-39
0.0139541201853 -0.131168729742 0.754 3.32940527722e-39
0.0153495322039 -0.131168729742 0.754 4.43540531356e-39
0.0167005279247 -0.130820802077 0.752 5.72507353962e-39
0.0180922385851 -0.130820802077 0.752 7.5700679393e-39
0.0194839492455 -0.130820802077 0.752 6.83358190022e-39
0.0208756599059 -0.130820802077 0.752 6.74210513646e-39
0.0222673705663 -0.130820802077 0.752 5.26371003323e-39
0.0236590812267 -0.130820802077 0.752 9.28399468972e-40
0.0250507918871 -0.130820802077 0.752 2.86343990667e-39
0.0265128283521 -0.131168729742 0.754 4.98713995922e-39
0.0279082403706 -0.131168729742 0.754 7.47750937314e-39
0.0293036523892 -0.131168729742 0.754 6.18856561839e-39
0.0306990644077 -0.131168729742 0.754 6.28041933142e-39
0.0321370420448 -0.131342693575 0.755 4.71522920261e-39
0.0335343047424 -0.131342693575 0.755 6.09924685427e-39
0.03493156744 -0.131342693575 0.755 1.00650812563e-38
0.0363288301376 -0.131342693575 0.755 1.12657516156e-38
0.0377260928352 -0.131342693575 0.755 1.05288914298e-38
0.0391233555328 -0.131342693575 0.755 9.69877763386e-39
0.0406279576165 -0.13169062124 0.757 1.09873696627e-38
0.0420289216722 -0.13169062124 0.757 1.27387236938e-38
0.0435446278303 -0.132038548905 0.759 9.41931387853e-39
0.0449492932442 -0.132038548905 0.759 5.5492568252e-39
0.0464761034766 -0.13238647657 0.761 7.84985539459e-39
0.0478844702487 -0.13238647657 0.761 9.50151965164e-39
0.0493576107881 -0.132560440402 0.762 9.29116933786e-41
0.0509010771322 -0.132908368067 0.764 3.92363570011e-44
0.0525204213182 -0.133430259565 0.767 7.93165338985e-39
0.0540805437739 -0.13377818723 0.769 1.16222727735e-38
0.0557924219134 -0.13447404256 0.773 1.11605547386e-38
0.0572229968342 -0.13447404256 0.773 1.08839930724e-38
0.0588812052807 -0.134995934058 0.776 1.0699251488e-38
0.0607059748433 -0.135865753221 0.781 1.08840070854e-38
0.0624696719967 -0.136561608551 0.785 1.00538946907e-38
0.0642481745827 -0.137257463881 0.789 1.20832901592e-38
0.0657916409268 -0.137431427714 0.79 9.7791378969e-39
0.0675942023407 -0.138127283044 0.794 1.1900014333e-38
0.0694115691871 -0.138823138374 0.798 9.22778720702e-39
0.0710660762754 -0.139171066039 0.8 8.30796928984e-39
0.0727279860799 -0.139518993704 0.802 7.29345582634e-39
0.0743047646473 -0.139692957537 0.803 7.75408505234e-39
0.0767347062658 -0.141432595862 0.813 7.38459487716e-39
0.0786242495959 -0.142128451193 0.817 8.4898676396e-39
0.0805285983586 -0.142824306523 0.821 8.58206326946e-39
0.0822478792143 -0.143172234188 0.823 8.30510923968e-39
0.0839745627863 -0.143520161853 0.825 8.12107250846e-39
0.0857086490746 -0.143868089518 0.827 9.59728999388e-39
0.0876611154931 -0.144563944848 0.831 9.50330070199e-39
0.0902724236604 -0.146303583174 0.841 1.00543192841e-38
0.091828844758 -0.146303583174 0.841 1.02394266074e-38
0.093607347344 -0.146651510839 0.843 1.00568262071e-38
0.0951674697997 -0.146651510839 0.843 9.13559157716e-39
-0.00985856740414 -0.130978109798 0.761 9.31249569919e-39
-0.00845020063212 -0.130978109798 0.761 1.0603942173e-38
-0.0070418338601 -0.130978109798 0.761 7.01008525089e-39
-0.00563346708808 -0.130978109798 0.761 5.44488951688e-39
-0.00422510031606 -0.130978109798 0.761 6.82852321276e-39
-0.00281673354404 -0.130978109798 0.761 3.69458926222e-39
-0.00140836677202 -0.130978109798 0.761 5.7225385907e-39
0.0 -0.130633883491 0.759 6.737783532e-39
0.00140466541388 -0.130633883491 0.759 5.7236344061e-39
0.00280192811148 -0.130289657184 0.757 5.07826499706e-39
0.0041917880928 -0.129945430877 0.755 3.51093928938e-39
0.00558905079041 -0.129945430877 0.755 2.2201976687e-39
0.00697706009266 -0.129773317723 0.754 1.75922372328e-39
0.00837247211119 -0.129773317723 0.754 1.66702949471e-39
0.00976788412972 -0.129773317723 0.754 6.64558790214e-39
0.0111632961483 -0.129773317723 0.754 5.72542666684e-39
0.0125587081668 -0.129773317723 0.754 6.27895497453e-39
0.0139541201853 -0.129773317723 0.754 7.29237822782e-39
0.0153088172643 -0.129429091417 0.752 5.81724674871e-39
0.0167005279247 -0.129429091417 0.752 4.3421166709e-39
0.0180922385851 -0.129429091417 0.752 1.8542878111e-39
0.0194839492455 -0.129429091417 0.752 4.25280911717e-39
0.0208201395338 -0.12908486511 0.75 7.01868642086e-39
0.0222081488361 -0.12908486511 0.75 8.12142283308e-39
0.0235961581383 -0.12908486511 0.75 9.78057002393e-39
0.0249841674406 -0.12908486511 0.75 8.58061993205e-39
0.0264425025475 -0.129429091417 0.752 6.0009401618e-39
0.0278342132079 -0.129429091417 0.752 2.12839019851e-39
0.0292259238682 -0.129429091417 0.752 4.3435740213e-39
0.0306176345286 -0.129429091417 0.752 7.01761863143e-39
0.0320944764262 -0.129773317723 0.754 5.63398213295e-39
0.0334898884448 -0.129773317723 0.754 6.37439881423e-39
0.0348853004633 -0.129773317723 0.754 3.33301081817e-39
0.0362807124818 -0.129773317723 0.754 5.63825469197e-39
0.0376761245004 -0.129773317723 0.754 8.8654506605e-39
0.0390715365189 -0.129773317723 0.754 1.26454574719e-38
0.0405206182304 -0.129945430877 0.755 1.30145889147e-38
0.041917880928 -0.129945430877 0.755 9.04945376055e-39
0.043429885728 -0.130289657184 0.757 6.37506162841e-39
0.0448308497837 -0.130289657184 0.757 8.22262460817e-39
0.0463539586581 -0.130633883491 0.759 9.14066708019e-39
0.0478844702487 -0.130978109798 0.761 7.49694678414e-43
0.0493576107881 -0.131150222951 0.762 1.66135003204e-39
0.0509010771322 -0.131494449258 0.764 2.77342189462e-40
0.0525204213182 -0.132010788719 0.767 8.30185822724e-39
0.0540805437739 -0.132355015026 0.769 1.1530078545e-38
0.0557924219134 -0.13304346764 0.773 1.0789649252e-38
0.057297023997 -0.133215580793 0.774 1.07900163922e-38
0.0588812052807 -0.1335598071 0.776 1.09754838491e-38
0.0607059748433 -0.134420372867 0.781 1.10683983451e-38
0.0623105135968 -0.134764599174 0.783 1.09765656515e-38
0.0640853148246 -0.135453051788 0.787 1.0793264602e-38
0.0659582020431 -0.136313617556 0.792 9.77985396041e-39
0.0677644648151 -0.13700207017 0.796 9.68839821614e-39
0.0694115691871 -0.137346296477 0.798 8.76753352901e-39
0.0710660762754 -0.137690522784 0.8 7.75443537696e-39
0.0727279860799 -0.13803474909 0.802 8.30652875502e-39
0.0744898325543 -0.138551088551 0.805 8.49057389403e-39
0.077112244796 -0.140616446393 0.817 8.76645452919e-39
0.0788167202191 -0.1409606727 0.819 8.85757816573e-39
0.08072477034 -0.141649125314 0.823 8.39731047473e-39
0.0824477525538 -0.141993351621 0.825 8.67352321763e-39
0.084178137484 -0.142337577927 0.827 1.01490036201e-38
0.0859159251304 -0.142681804234 0.829 9.22778160183e-39
0.0882940477349 -0.144058709462 0.837 9.77916592287e-39
0.0900577448883 -0.144402935769 0.839 1.02387077413e-38
0.0916104646278 -0.144402935769 0.839 9.50186156846e-39
0.093607347344 -0.145091388383 0.843 1.00568290097e-38
0.0951674697997 -0.145091388383 0.843 9.2270711435e-39
-0.00985856740414 -0.129569743026 0.761 1.0787625777e-38
-0.00845020063212 -0.129569743026 0.761 1.12496717157e-38
-0.0070418338601 -0.129569743026 0.761 7.93168421841e-39
-0.00563346708808 -0.129569743026 0.761 6.45904144537e-39
-0.00422510031606 -0.129569743026 0.761 6.82852321276e-39
-0.00281673354404 -0.129569743026 0.761 3.97153208162e-39
-0.00140836677202 -0.129569743026 0.761 4.15556881284e-39
0.0 -0.129229218077 0.759 3.87864000642e-39
0.00140466541388 -0.129229218077 0.759 5.81475383874e-39
0.00280192811148 -0.128888693128 0.757 7.10548985423e-39
0.0041917880928 -0.128548168179 0.755 6.36792481533e-39
0.00558905079041 -0.128548168179 0.755 7.01329142177e-39
0.00697706009266 -0.128377905705 0.754 4.98534349459e-39
0.00837247211119 -0.128377905705 0.754 4.24777845568e-39
0.00976788412972 -0.128377905705 0.754 3.6946046765e-39
0.0111632961483 -0.128377905705 0.754 3.94605647554e-42
0.0125253959435 -0.128037380756 0.752 3.41587800416e-39
0.0139171066039 -0.128037380756 0.752 4.98426309347e-39
0.0153088172643 -0.128037380756 0.752 6.09095677255e-39
0.016656111627 -0.127696855807 0.75 6.09130989977e-39
0.0180441209293 -0.127696855807 0.75 6.18458733205e-39
0.0194321302315 -0.127696855807 0.75 6.09348471498e-39
0.0208201395338 -0.127696855807 0.75 3.78968417861e-39
0.0222081488361 -0.127696855807 0.75 1.02346355679e-39
0.0235961581383 -0.127696855807 0.75 4.25135036547e-39
0.0249841674406 -0.127696855807 0.75 5.72614413165e-39
0.0263721767428 -0.127696855807 0.75 7.1094429172e-39
0.0277601860451 -0.127696855807 0.75 6.64741099144e-39
0.0291093310869 -0.127526593333 0.749 6.55805018837e-39
0.03049548971 -0.127526593333 0.749 6.74245405978e-39
0.0319242139518 -0.127696855807 0.75 5.45066146525e-39
0.0333122232541 -0.127696855807 0.75 5.26660651716e-39
0.0347927665098 -0.128037380756 0.752 6.00417435866e-39
0.0361844771702 -0.128037380756 0.752 1.57843099801e-39
0.0375761878306 -0.128037380756 0.752 6.83463567666e-39
0.038967898491 -0.128037380756 0.752 1.48574141043e-38
0.0404669485374 -0.128377905705 0.754 8.49698063061e-39
0.041862360556 -0.128377905705 0.754 6.46727127125e-39
0.0433151436257 -0.128548168179 0.755 8.03248662344e-39
0.0448308497837 -0.128888693128 0.757 7.57624065904e-39
0.0463539586581 -0.129229218077 0.759 9.87828396714e-39
0.0477586240719 -0.129229218077 0.759 9.28138827458e-40
0.049487158323 -0.130080530449 0.764 2.03121155131e-39
0.0510343260252 -0.130421055398 0.766 9.23409445141e-40
0.0526573715693 -0.130931842821 0.769 7.93412948423e-39
0.0542211953832 -0.13127236777 0.771 1.25442304734e-38
0.0558645983971 -0.131783155193 0.774 1.18938654354e-38
0.057297023997 -0.131783155193 0.774 1.1802747404e-38
0.0590329609644 -0.132464205091 0.778 1.13439174453e-38
0.0607059748433 -0.132974992514 0.781 1.11602408478e-38
0.0623105135968 -0.133315517463 0.783 1.02400796125e-38
0.0640853148246 -0.13399656736 0.787 1.16244573978e-38
0.0661247631593 -0.135188404681 0.794 9.68872331738e-39
0.0677644648151 -0.13552892963 0.796 8.03029499264e-39
0.0695855330196 -0.136209979528 0.8 7.75335917974e-39
0.0713325740614 -0.136720766951 0.803 7.75335497584e-39
0.0730000359032 -0.1370612919 0.805 8.30653295892e-39
0.0746749004612 -0.137401816849 0.807 7.93668265003e-39
0.077112244796 -0.139104441593 0.817 8.2125618839e-39
0.0788167202191 -0.139444966542 0.819 8.21148568668e-39
0.0809209423214 -0.140466541388 0.825 8.39623147492e-39
0.0826476258934 -0.140807066337 0.827 1.07018270746e-38
0.0843817121817 -0.141147591286 0.829 9.31852268388e-39
0.0865377532978 -0.142169166132 0.835 1.01497294927e-38
0.0882940477349 -0.142509691081 0.837 8.76536431899e-39
0.0900577448883 -0.14285021603 0.839 1.12521351984e-38
0.0916104646278 -0.14285021603 0.839 9.04051347635e-39
0.093607347344 -0.143531265927 0.843 1.05170798851e-38
0.0951674697997 -0.143531265927 0.843 8.67424768894e-39
-0.00987152215763 -0.128329788049 0.762 1.04184733148e-38
-0.00846130470654 -0.128329788049 0.762 1.1157110347e-38
-0.00705108725545 -0.128329788049 0.762 7.74765028979e-39
-0.00564086980436 -0.128329788049 0.762 6.18245455578e-39
-0.00422510031606 -0.128161376254 0.761 6.92143770873e-39
-0.00281673354404 -0.128161376254 0.761 5.35411059976e-39
-0.00140836677202 -0.128161376254 0.761 6.82960501517e-39
0.0 -0.127824552663 0.759 7.19732254779e-39
0.00140466541388 -0.127824552663 0.759 3.50914142345e-39
0.00280192811148 -0.127487729072 0.757 2.31059823523e-39
0.0041917880928 -0.127150905482 0.755 3.78608424285e-39
0.00558905079041 -0.127150905482 0.755 6.9207356582e-39
0.00697706009266 -0.126982493686 0.754 6.82853722574e-39
0.00837247211119 -0.126982493686 0.754 7.28951397376e-39
0.00976788412972 -0.126982493686 0.754 5.90657952581e-39
0.0111632961483 -0.126982493686 0.754 4.52293321824e-39
