# .PCD v0.7 - Point Cloud Data file format
VERSION 0.7
FIELDS x y z rgb
SIZE 4 4 4 4
TYPE F F F F
COUNT 1 1 1 1
WIDTH 850
HEIGHT 1
VIEWPOINT 0 0 0 1 0 0 0
POINTS 850
DATA ascii
-0.0314134265286 -0.124287904961 0.738 1.93649470525e-38
-0.0300476253752 -0.124287904961 0.738 1.93663651665e-38
-0.0286818242218 -0.124287904961 0.738 1.55860164383e-38
-0.0273160230683 -0.124287904961 0.738 1.84447886198e-38
-0.0259502219149 -0.124287904961 0.738 2.13946746287e-38
-0.0245844207615 -0.124287904961 0.738 1.72437469164e-38
-0.0232500811523 -0.124456316756 0.739 1.38339001008e-38
-0.0218824293198 -0.124456316756 0.739 1.48509120795e-38
-0.0205147774873 -0.124456316756 0.739 1.52218385856e-38
-0.0191212161478 -0.124287904961 0.738 1.77114723178e-38
-0.0177554149944 -0.124287904961 0.738 1.68813935543e-38
-0.016389613841 -0.124287904961 0.738 1.72512494684e-38
-0.0150238126876 -0.124287904961 0.738 1.55016540668e-38
-0.0136580115342 -0.124287904961 0.738 1.42134025535e-38
-0.0122922103808 -0.124287904961 0.738 1.45821962834e-38
-0.0109264092273 -0.124287904961 0.738 1.4491092265e-38
-0.00956060807392 -0.124287904961 0.738 1.35694989027e-38
-0.00820591099492 -0.124456316756 0.739 1.3662049061e-38
-0.00683825916243 -0.124456316756 0.739 1.36631252583e-38
-0.00547060732995 -0.124456316756 0.739 1.33865355661e-38
-0.00410295549746 -0.124456316756 0.739 1.29262762829e-38
-0.00273530366497 -0.124456316756 0.739 1.26496921959e-38
-0.00137135319063 -0.124793140347 0.741 1.24649450063e-38
0.0 -0.124793140347 0.741 1.1914282354e-38
0.00137135319063 -0.124793140347 0.741 1.23749087774e-38
0.00274270638125 -0.124793140347 0.741 1.21890769829e-38
0.00411405957188 -0.124793140347 0.741 1.23727507778e-38
0.0054854127625 -0.124793140347 0.741 1.19121215518e-38
0.00685676595313 -0.124793140347 0.741 1.1544046688e-38
0.00822811914376 -0.124793140347 0.741 1.19121215518e-38
0.00959947233438 -0.124793140347 0.741 1.19124872907e-38
0.010970825525 -0.124793140347 0.741 1.2465295331e-38
0.0123588348273 -0.124961552142 0.742 1.29262734803e-38
0.013732038697 -0.124961552142 0.742 1.29269909451e-38
0.0151052425667 -0.124961552142 0.742 1.26518333799e-38
0.0164784464364 -0.124961552142 0.742 1.23766702096e-38
0.017851650306 -0.124961552142 0.742 1.20071674227e-38
0.0192248541757 -0.124961552142 0.742 1.14529216502e-38
0.0205702978594 -0.124793140347 0.741 1.2003952844e-38
0.0218824293198 -0.124456316756 0.739 1.0994108507e-38
0.0232500811523 -0.124456316756 0.739 1.05334778797e-38
0.0246177329848 -0.124456316756 0.739 1.08096962278e-38
0.0259853848173 -0.124456316756 0.739 1.09922896216e-38
0.0273530366497 -0.124456316756 0.739 1.11748970284e-38
0.0287206884822 -0.124456316756 0.739 1.19106824182e-38
0.0301697701938 -0.124793140347 0.741 1.21862015184e-38
0.0315411233844 -0.124793140347 0.741 1.21862015184e-38
0.0341450288354 -0.124287904961 0.738 9.31742967108e-39
0.0355108299888 -0.124287904961 0.738 1.11584696065e-38
-0.0865877216327 -0.127752376179 0.767 1.83675196211e-40
-0.0850572100421 -0.127585815063 0.766 3.68418181853e-40
-0.0836395898747 -0.127585815063 0.766 2.76941418101e-40
-0.0820072909353 -0.127252692831 0.764 1.43913352286e-42
-0.080593372126 -0.127252692831 0.764 1.84644754619e-39
-0.0791794533168 -0.127252692831 0.764 6.54905385223e-39
-0.0775619598099 -0.126919570598 0.762 5.62887019615e-39
-0.0760518056891 -0.126753009482 0.761 4.43322209056e-39
-0.074643438917 -0.126753009482 0.761 4.52833942772e-39
-0.0728501308985 -0.126086765017 0.757 4.25180578747e-39
-0.0714491668428 -0.126086765017 0.757 4.06816702502e-39
-0.0697706009266 -0.125587081668 0.754 4.06781109521e-39
-0.0683751889081 -0.125587081668 0.754 3.97632031847e-39
-0.0668021116988 -0.125253959435 0.752 3.97632031847e-39
-0.0652364372059 -0.124920837203 0.75 3.97632031847e-39
-0.0638484279037 -0.124920837203 0.75 3.51606664046e-39
-0.0624604186014 -0.124920837203 0.75 3.05545142745e-39
-0.0609909794201 -0.124754276087 0.749 3.33240405594e-39
-0.0594456623969 -0.124421153854 0.747 2.96362153648e-39
-0.0579854766109 -0.124254592738 0.746 2.68811364671e-39
-0.0564531143412 -0.123921470505 0.744 2.50372238698e-39
-0.0550762091134 -0.123921470505 0.744 2.87322377255e-39
-0.0535549509181 -0.123588348273 0.742 3.33204392223e-39
-0.0521114212438 -0.123421787156 0.741 3.69791454348e-39
-0.0507400680532 -0.123421787156 0.741 5.44776358003e-39
-0.0493687148625 -0.123421787156 0.741 6.55334743072e-39
-0.0479973616719 -0.123421787156 0.741 5.35337071417e-39
-0.0465001623046 -0.123088664924 0.739 5.35374486086e-39
-0.0451325104721 -0.123088664924 0.739 5.26333868914e-39
-0.0437056369094 -0.122922103808 0.738 4.80379967334e-39
-0.0423398357559 -0.122922103808 0.738 4.15950646152e-39
-0.0409740346025 -0.122922103808 0.738 2.96241221591e-39
-0.0396082334491 -0.122922103808 0.738 1.39618652753e-39
-0.0381387942678 -0.122588981575 0.736 1.9486344341e-39
-0.0367766944725 -0.122588981575 0.736 9.32393169596e-39
-0.0354145946772 -0.122588981575 0.736 1.47634612462e-38
-0.0340524948819 -0.122588981575 0.736 1.93739433886e-38
-0.0326903950867 -0.122588981575 0.736 2.16730944167e-38
-0.0313282952914 -0.122588981575 0.736 1.98291916285e-38
-0.0299661954961 -0.122588981575 0.736 1.8999779883e-38
-0.0286040957008 -0.122588981575 0.736 1.84451851872e-38
-0.0272419959056 -0.122588981575 0.736 2.1947882039e-38
-0.0258798961103 -0.122588981575 0.736 1.75221008433e-38
-0.024517796315 -0.122588981575 0.736 2.34179772515e-38
-0.0232186196081 -0.122922103808 0.738 1.98230441321e-38
-0.0218528184547 -0.122922103808 0.738 1.53115385029e-38
-0.0204314969292 -0.122588981575 0.736 1.30080952976e-38
-0.0190693971339 -0.122588981575 0.736 1.21786975651e-38
-0.0177072973386 -0.122588981575 0.736 1.59573269002e-38
-0.0163451975433 -0.122588981575 0.736 1.94625390827e-38
-0.0149830977481 -0.122588981575 0.736 1.79899075201e-38
-0.0136209979528 -0.122588981575 0.736 1.60566257119e-38
-0.0122588981575 -0.122588981575 0.736 1.4951345943e-38
-0.0108967983622 -0.122588981575 0.736 1.46747772703e-38
-0.00953469856695 -0.122588981575 0.736 1.38457354676e-38
-0.00817259877167 -0.122588981575 0.736 1.36617001377e-38
-0.00682900576709 -0.122922103808 0.738 1.38471647921e-38
-0.00546320461367 -0.122922103808 0.738 1.347837947e-38
-0.00409740346025 -0.122922103808 0.738 1.28337317297e-38
-0.00273530366497 -0.123088664924 0.739 1.32021583193e-38
-0.00136765183249 -0.123088664924 0.739 1.23723976506e-38
0.0 -0.123088664924 0.739 1.20072038565e-38
0.00136765183249 -0.123088664924 0.739 1.19150082266e-38
0.00273530366497 -0.123088664924 0.739 1.15444320451e-38
0.00410295549746 -0.123088664924 0.739 1.20043227868e-38
0.00547060732995 -0.123088664924 0.739 1.24656498595e-38
0.00683825916243 -0.123088664924 0.739 1.1451497931e-38
0.00820591099492 -0.123088664924 0.739 1.1820644788e-38
0.00957356282741 -0.123088664924 0.739 1.12678451555e-38
0.0109412146599 -0.123088664924 0.739 1.17291778334e-38
0.0123421787156 -0.123421787156 0.741 1.2558581171e-38
0.0137135319063 -0.123421787156 0.741 1.20061290606e-38
0.0150848850969 -0.123421787156 0.741 1.24685379356e-38
0.0164562382875 -0.123421787156 0.741 1.17302428202e-38
0.0178275914781 -0.123421787156 0.741 1.15458431527e-38
0.0191989446688 -0.123421787156 0.741 1.2281611727e-38
0.0205702978594 -0.123421787156 0.741 1.2095073678e-38
0.0218824293198 -0.123088664924 0.739 1.11763529775e-38
0.0232500811523 -0.123088664924 0.739 1.07167985474e-38
0.0245844207615 -0.122922103808 0.738 1.10859299902e-38
0.0259502219149 -0.122922103808 0.738 1.10859299902e-38
0.0273530366497 -0.123088664924 0.739 1.09926693735e-38
0.0287206884822 -0.123088664924 0.739 1.11756299075e-38
0.0301697701938 -0.123421787156 0.741 1.09905169791e-38
0.0315411233844 -0.123421787156 0.741 1.12678115244e-38
0.032779227682 -0.122922103808 0.738 1.12664032194e-38
0.0341450288354 -0.122922103808 0.738 1.28297870745e-38
0.0355108299888 -0.122922103808 0.738 1.12592383804e-38
0.0366767578027 -0.122255859342 0.734 9.78125946277e-39
0.0379833372259 -0.122089298226 0.733 1.05177819356e-38
0.0391788759049 -0.121589614877 0.73 1.06089265916e-38
0.0405298716258 -0.121589614877 0.73 1.13432658415e-38
0.0418808673467 -0.121589614877 0.73 1.16162598018e-38
0.0432318630675 -0.121589614877 0.73 1.2443510745e-38
-0.0851682507863 -0.126332905333 0.767 2.76223953288e-40
-0.0836395898747 -0.126168194896 0.766 2.77300150508e-40
-0.0822219697073 -0.126168194896 0.766 1.43913352286e-42
-0.08080434954 -0.126168194896 0.766 1.84609301768e-39
-0.0791794533168 -0.125838774021 0.764 6.64161241839e-39
-0.0777655345076 -0.125838774021 0.764 5.8143376531e-39
-0.0761517423588 -0.125509353147 0.762 5.07967049942e-39
-0.074643438917 -0.12534464271 0.761 4.89711914457e-39
-0.0730426015218 -0.125015221835 0.759 4.80497676405e-39
-0.0714491668428 -0.124685800961 0.757 4.06744535631e-39
-0.0698631348801 -0.124356380087 0.755 4.98940445754e-39
-0.0683751889081 -0.124191669649 0.754 3.88268275249e-39
-0.0669797768895 -0.124191669649 0.754 4.52770323822e-39
-0.0654104010385 -0.123862248775 0.752 4.25076041882e-39
-0.0638484279037 -0.123532827901 0.75 3.69937890037e-39
-0.0624604186014 -0.123532827901 0.75 3.51678410528e-39
-0.0609909794201 -0.123368117463 0.749 3.14872045193e-39
-0.0596048207969 -0.123368117463 0.749 2.87285523105e-39
-0.0580632051319 -0.123038696589 0.747 2.78210153731e-39
-0.056604870025 -0.122873986152 0.746 2.50552025291e-39
-0.0550762091134 -0.122544565277 0.744 2.60092485626e-39
-0.0535549509181 -0.122215144403 0.742 3.15123858528e-39
-0.0521114212438 -0.122050433966 0.741 1.48596772014e-39
-0.0507400680532 -0.122050433966 0.741 1.45454780597e-42
-0.0493687148625 -0.122050433966 0.741 3.23006162389e-39
-0.0479973616719 -0.122050433966 0.741 6.64056004325e-39
-0.0465001623046 -0.121721013091 0.739 5.9980240597e-39
-0.0451325104721 -0.121721013091 0.739 5.17220384221e-39
-0.0437056369094 -0.121556302654 0.738 5.35515736971e-39
-0.0423398357559 -0.121556302654 0.738 4.80199199832e-39
-0.0409740346025 -0.121556302654 0.738 3.9754725329e-39
-0.0395008940631 -0.12122688178 0.736 3.97727600403e-39
-0.0381387942678 -0.12122688178 0.736 2.31849595337e-39
-0.0367766944725 -0.12122688178 0.736 9.36291581923e-40
-0.0354145946772 -0.12122688178 0.736 1.58236864669e-39
-0.0340524948819 -0.12122688178 0.736 8.6817642539e-39
-0.0326903950867 -0.12122688178 0.736 1.53187593939e-38
-0.0313282952914 -0.12122688178 0.736 2.15812953543e-38
-0.029884765617 -0.120897460905 0.734 2.11221024592e-38
-0.0285263671799 -0.120897460905 0.734 1.87250132802e-38
-0.0271679687428 -0.120897460905 0.734 1.97362911455e-38
-0.0258095703056 -0.120897460905 0.734 2.08411673405e-38
-0.024517796315 -0.12122688178 0.736 2.30502765344e-38
-0.0231556965197 -0.12122688178 0.736 2.2586086609e-38
-0.0217935967244 -0.12122688178 0.736 2.25914591873e-38
-0.0204314969292 -0.12122688178 0.736 2.23159541002e-38
-0.0190693971339 -0.12122688178 0.736 1.58640634809e-38
-0.0177072973386 -0.12122688178 0.736 1.37456855599e-38
-0.0163451975433 -0.12122688178 0.736 1.39318718829e-38
-0.0149830977481 -0.12122688178 0.736 1.5499917858e-38
-0.0136209979528 -0.12122688178 0.736 1.76207830838e-38
-0.0122588981575 -0.12122688178 0.736 1.7161577577e-38
-0.0108967983622 -0.12122688178 0.736 1.55963860469e-38
-0.00953469856695 -0.12122688178 0.736 1.49517313001e-38
-0.00817259877167 -0.12122688178 0.736 1.38464599389e-38
-0.00681049897639 -0.12122688178 0.736 1.37546188376e-38
-0.00544839918111 -0.12122688178 0.736 1.33865523817e-38
-0.00409740346025 -0.121556302654 0.738 1.31099654921e-38
-0.00273160230683 -0.121556302654 0.738 1.29255770349e-38
-0.00136580115342 -0.121556302654 0.738 1.24649604206e-38
0.0 -0.121556302654 0.738 1.18224608708e-38
0.00136580115342 -0.121556302654 0.738 1.17306183682e-38
0.00273160230683 -0.121556302654 0.738 1.20972526971e-38
0.00409740346025 -0.121556302654 0.738 1.26493362661e-38
0.00546320461367 -0.121556302654 0.738 1.24656526621e-38
0.00682900576709 -0.121556302654 0.738 1.15440578984e-38
0.0081948069205 -0.121556302654 0.738 1.13603925113e-38
0.00956060807392 -0.121556302654 0.738 1.1268213697e-38
0.0109264092273 -0.121556302654 0.738 1.09919743295e-38
0.0122922103808 -0.121556302654 0.738 1.03473335956e-38
0.0136765183249 -0.121721013091 0.739 9.88636945928e-39
0.0150441701574 -0.121721013091 0.739 1.09001640567e-38
0.0164118219898 -0.121721013091 0.739 1.18213874762e-38
0.0177794738223 -0.121721013091 0.739 1.21894301101e-38
0.0191471256548 -0.121721013091 0.739 1.25574797504e-38
0.0205147774873 -0.121721013091 0.739 1.20035814999e-38
0.0218824293198 -0.121721013091 0.739 1.23738185672e-38
0.0232500811523 -0.121721013091 0.739 1.15454914268e-38
0.0245844207615 -0.121556302654 0.738 1.12699723266e-38
0.0259502219149 -0.121556302654 0.738 1.09008338773e-38
0.0273530366497 -0.121721013091 0.739 1.08079347956e-38
0.0287206884822 -0.121721013091 0.739 1.09001360307e-38
0.0300883403147 -0.121721013091 0.739 1.07160908917e-38
0.0314134265286 -0.121556302654 0.738 1.07164300059e-38
0.032779227682 -0.121556302654 0.738 1.03505117405e-38
0.0341450288354 -0.121556302654 0.738 1.03487152759e-38
0.0355108299888 -0.121556302654 0.738 1.17269946104e-38
0.0366767578027 -0.120897460905 0.734 1.22762489577e-38
0.0379833372259 -0.120732750468 0.733 1.17213207529e-38
0.039339884984 -0.120732750468 0.733 1.0336264739e-38
0.0405298716258 -0.120238619157 0.73 9.68660035021e-39
0.0418808673467 -0.120238619157 0.73 1.0604960917e-38
0.0432318630675 -0.120238619157 0.73 1.16141032035e-38
0.0445828587884 -0.120238619157 0.73 1.17981329282e-38
-0.0851682507863 -0.124913434487 0.767 2.76223953288e-40
-0.0837487799398 -0.124913434487 0.767 2.76941418101e-40
-0.0822219697073 -0.124750574728 0.766 1.07899981753e-42
-0.08080434954 -0.124750574728 0.766 1.10887690209e-39
-0.0793867293726 -0.124750574728 0.766 6.27246976524e-39
-0.0777655345076 -0.124424855212 0.764 6.08914629494e-39
-0.0761517423588 -0.124099135696 0.762 5.35482666328e-39
-0.074643438917 -0.123936275938 0.761 4.80455497321e-39
-0.0730426015218 -0.123610556421 0.759 4.34327974862e-39
-0.0716379361079 -0.123610556421 0.759 5.26454660841e-39
-0.070048202787 -0.123284836905 0.757 9.59844606512e-39
-0.0684658721825 -0.122959117389 0.755 3.97415110845e-39
-0.0669797768895 -0.122796257631 0.754 4.98690594238e-39
-0.0654104010385 -0.122470538115 0.752 4.71209169534e-39
-0.0640186903781 -0.122470538115 0.752 3.97701956641e-39
-0.0626269797177 -0.122470538115 0.752 3.42530453893e-39
-0.0609909794201 -0.12198195884 0.749 3.24165456609e-39
-0.0596048207969 -0.12198195884 0.749 2.78210433991e-39
-0.0580632051319 -0.121656239324 0.747 2.8750020203e-39
-0.0566807478668 -0.121656239324 0.747 2.68953736595e-39
-0.0550762091134 -0.12116766005 0.744 3.05796395559e-39
-0.0536993038856 -0.12116766005 0.744 3.14764705731e-39
-0.0521817470484 -0.120841940533 0.742 2.49723857899e-39
-0.0507400680532 -0.120679080775 0.741 1.47276468601e-42
-0.0493687148625 -0.120679080775 0.741 7.37581854488e-40
-0.0479973616719 -0.120679080775 0.741 5.6051938573e-45
-0.0465001623046 -0.120353361259 0.739 2.30703473323e-39
-0.0451325104721 -0.120353361259 0.739 6.45725759243e-39
-0.0437056369094 -0.120190501501 0.738 5.53813892318e-39
-0.0423398357559 -0.120190501501 0.738 5.26260581004e-39
-0.0409740346025 -0.120190501501 0.738 4.89382749448e-39
-0.0395008940631 -0.119864781984 0.736 5.63281625263e-39
-0.0381387942678 -0.119864781984 0.736 4.71230889661e-39
-0.0367766944725 -0.119864781984 0.736 3.97513201737e-39
-0.0354145946772 -0.119864781984 0.736 2.86914459272e-39
-0.0339599609285 -0.119539062468 0.734 5.66438470443e-40
-0.0326015624913 -0.119539062468 0.734 1.08695919281e-40
-0.0312431640542 -0.119539062468 0.734 7.29921516303e-39
-0.029884765617 -0.119539062468 0.734 1.43964864018e-38
-0.0285263671799 -0.119539062468 0.734 2.18567990402e-38
-0.0271679687428 -0.119539062468 0.734 2.13976187568e-38
-0.0258095703056 -0.119539062468 0.734 2.0660397036e-38
-0.0244511718685 -0.119539062468 0.734 2.00128668247e-38
-0.0230927734314 -0.119539062468 0.734 2.12106939494e-38
-0.0217343749942 -0.119539062468 0.734 2.2683315703e-38
-0.0203759765571 -0.119539062468 0.734 2.17616999199e-38
-0.0190175781199 -0.119539062468 0.734 2.05627783811e-38
-0.0176591796828 -0.119539062468 0.734 2.01025022823e-38
-0.0163007812457 -0.119539062468 0.734 1.7705073989e-38
-0.0149423828085 -0.119539062468 0.734 1.77068858679e-38
-0.0135839843714 -0.119539062468 0.734 1.37457079807e-38
-0.0122588981575 -0.119864781984 0.736 1.66069870851e-38
-0.0108967983622 -0.119864781984 0.736 1.66999015811e-38
-0.00953469856695 -0.119864781984 0.736 1.58722820964e-38
-0.00817259877167 -0.119864781984 0.736 1.45836732519e-38
-0.00681049897639 -0.119864781984 0.736 1.41244677452e-38
-0.00544839918111 -0.119864781984 0.736 1.36645573853e-38
-0.00408629938583 -0.119864781984 0.736 1.32947070764e-38
-0.00272419959056 -0.119864781984 0.736 1.32922099625e-38
-0.00136209979528 -0.119864781984 0.736 1.33819070772e-38
0.0 -0.119864781984 0.736 1.28330436921e-38
0.00136209979528 -0.119864781984 0.736 1.16362899621e-38
0.00272419959056 -0.119864781984 0.736 1.13607778684e-38
0.00408629938583 -0.119864781984 0.736 1.16380724137e-38
0.00544839918111 -0.119864781984 0.736 1.1822813998e-38
0.00681049897639 -0.119864781984 0.736 1.11774473916e-38
0.00817259877167 -0.119864781984 0.736 1.09927002021e-38
0.00953469856695 -0.119864781984 0.736 1.08990738465e-38
0.0108967983622 -0.119864781984 0.736 1.0255115545e-38
0.0122588981575 -0.119864781984 0.736 1.11785123784e-38
0.0136580115342 -0.120190501501 0.738 9.88743444612e-39
0.0150238126876 -0.120190501501 0.738 1.05335339317e-38
0.016389613841 -0.120190501501 0.738 9.98000422267e-39
0.0177554149944 -0.120190501501 0.738 1.0809030611e-38
0.0191212161478 -0.120190501501 0.738 1.1546581637e-38
0.0204870173013 -0.120190501501 0.738 1.22830536631e-38
0.0218528184547 -0.120190501501 0.738 1.1914282354e-38
0.0232186196081 -0.120190501501 0.738 1.14529524788e-38
0.0245844207615 -0.120190501501 0.738 1.16387772668e-38
0.0259502219149 -0.120190501501 0.738 1.09008380812e-38
0.0273160230683 -0.120190501501 0.738 1.07160950956e-38
0.0287206884822 -0.120353361259 0.739 1.06228386828e-38
0.0300476253752 -0.120190501501 0.738 1.08994115594e-38
0.0314134265286 -0.120190501501 0.738 1.07171362604e-38
0.032779227682 -0.120190501501 0.738 1.08096962278e-38
0.0340524948819 -0.119864781984 0.736 1.06242329748e-38
0.0354145946772 -0.119864781984 0.736 1.09008212657e-38
0.0366767578027 -0.119539062468 0.734 1.10845132774e-38
0.0379833372259 -0.11937620271 0.733 1.1174576131e-38
0.039339884984 -0.11937620271 0.733 1.14493903781e-38
0.0405853919979 -0.119050483194 0.731 1.16316348486e-38
0.0419382383978 -0.119050483194 0.731 9.96995551138e-39
0.0434095282582 -0.11937620271 0.733 1.05152385789e-38
0.0447660760163 -0.11937620271 0.733 1.28144190342e-38
0.0461226237743 -0.11937620271 0.733 1.18895970803e-38
0.0476734928347 -0.119864781984 0.736 1.35505519461e-38
-0.0851682507863 -0.12349396364 0.767 6.44650542931e-40
-0.0837487799398 -0.12349396364 0.767 5.53526906393e-40
-0.0823293090934 -0.12349396364 0.767 1.07899981753e-42
-0.0809098382469 -0.12349396364 0.767 8.32645942308e-40
-0.0793867293726 -0.123332954561 0.766 6.54869091593e-39
-0.0779691092052 -0.123332954561 0.766 6.18098459369e-39
-0.0763516156983 -0.123010936403 0.764 5.44666215943e-39
-0.0747415249077 -0.122688918245 0.762 4.89638486418e-39
-0.073235072145 -0.122527909166 0.761 5.07976859031e-39
-0.0716379361079 -0.122205891008 0.759 4.15748018394e-39
-0.070048202787 -0.121883872849 0.757 9.50516302764e-39
-0.0686472387313 -0.121883872849 0.757 3.23514133083e-39
-0.0670686094849 -0.121561854691 0.755 4.24895554639e-39
-0.065584364871 -0.121400845612 0.754 3.60501125789e-39
-0.0640186903781 -0.121078827454 0.752 3.9766580314e-39
-0.0626269797177 -0.121078827454 0.752 3.51678130268e-39
-0.0612352690573 -0.121078827454 0.752 3.24093569998e-39
-0.0596048207969 -0.120595800217 0.749 2.9647019376e-39
-0.0582186621737 -0.120595800217 0.749 3.05724649078e-39
-0.0566807478668 -0.120273782059 0.747 2.87285523105e-39
-0.055224263439 -0.12011277298 0.746 2.87286083625e-39
-0.053843656853 -0.12011277298 0.746 3.23912662366e-39
-0.0521817470484 -0.119468736664 0.742 2.58871534274e-39
-0.0508085431787 -0.119468736664 0.742 3.93764868475e-43
-0.0493687148625 -0.119307727584 0.741 2.24207754292e-44
-0.0479973616719 -0.119307727584 0.741 5.52471728649e-40
-0.0466260084813 -0.119307727584 0.741 9.80908925027e-45
-0.0451325104721 -0.118985709426 0.739 1.44473871672e-42
-0.0437648586396 -0.118985709426 0.739 2.49464337423e-39
-0.0423398357559 -0.118824700347 0.738 5.62962689732e-39
-0.0409740346025 -0.118824700347 0.738 6.18172447928e-39
-0.0395008940631 -0.118502682189 0.736 5.63174005541e-39
-0.0381387942678 -0.118502682189 0.736 4.89562115652e-39
-0.0367766944725 -0.118502682189 0.736 4.61833782159e-39
-0.0354145946772 -0.118502682189 0.736 4.34354879793e-39
-0.0339599609285 -0.118180664031 0.734 3.60705995624e-39
-0.0326015624913 -0.118180664031 0.734 2.41247543618e-39
-0.0312431640542 -0.118180664031 0.734 1.18381694266e-41
-0.029884765617 -0.118180664031 0.734 1.30542722859e-39
-0.0284875029194 -0.118019654952 0.733 7.11231698035e-39
-0.0271309551614 -0.118019654952 0.733 1.43017810464e-38
-0.0257744074033 -0.118019654952 0.733 2.20404700325e-38
-0.0244178596452 -0.118019654952 0.733 2.10302557527e-38
-0.0230613118872 -0.118019654952 0.733 1.90012260231e-38
-0.0217047641291 -0.118019654952 0.733 1.81682493743e-38
-0.020348216371 -0.118019654952 0.733 1.43874914669e-38
-0.018991668613 -0.118019654952 0.733 2.0656406138e-38
-0.0176591796828 -0.118180664031 0.734 2.00099563278e-38
-0.0163007812457 -0.118180664031 0.734 2.12074401344e-38
-0.0149423828085 -0.118180664031 0.734 1.77969375111e-38
-0.0135839843714 -0.118180664031 0.734 1.58636949394e-38
-0.0122255859342 -0.118180664031 0.734 1.3193236252e-38
-0.0108671874971 -0.118180664031 0.734 1.74335107544e-38
-0.00950878905997 -0.118180664031 0.734 1.41158974038e-38
-0.00815039062283 -0.118180664031 0.734 1.49488726512e-38
-0.00679199218569 -0.118180664031 0.734 1.53215928194e-38
-0.00543359374855 -0.118180664031 0.734 1.38482493971e-38
-0.00407519531142 -0.118180664031 0.734 1.34801913489e-38
-0.00271679687428 -0.118180664031 0.734 1.32021765362e-38
-0.00135839843714 -0.118180664031 0.734 1.34780557701e-38
0.0 -0.118180664031 0.734 1.27404907312e-38
0.00135839843714 -0.118180664031 0.734 1.2189110614e-38
0.00271679687428 -0.118180664031 0.734 1.17295603878e-38
0.00407519531142 -0.118180664031 0.734 1.10856175006e-38
0.00543359374855 -0.118180664031 0.734 9.79559194347e-39
0.00679199218569 -0.118180664031 0.734 1.05324409189e-38
0.00815039062283 -0.118180664031 0.734 1.08083117449e-38
0.00950878905997 -0.118180664031 0.734 1.09912694763e-38
0.0108671874971 -0.118180664031 0.734 1.06235435359e-38
0.0122089298226 -0.118019654952 0.733 1.07168209682e-38
0.0135654775807 -0.118019654952 0.733 9.4264562968e-39
0.0149423828085 -0.118180664031 0.734 1.0625375033e-38
0.0163007812457 -0.118180664031 0.734 1.01643996863e-38
0.0176591796828 -0.118180664031 0.734 1.03480664747e-38
0.0190175781199 -0.118180664031 0.734 1.06246393513e-38
0.0203759765571 -0.118180664031 0.734 1.0992328858e-38
0.0217343749942 -0.118180664031 0.734 1.20993994863e-38
0.0231556965197 -0.118502682189 0.736 1.16387912798e-38
0.024517796315 -0.118502682189 0.736 1.19146565007e-38
0.0258798961103 -0.118502682189 0.736 1.1454737733e-38
0.0272419959056 -0.118502682189 0.736 1.15458543631e-38
0.0286818242218 -0.118824700347 0.738 1.15444348477e-38
0.0299661954961 -0.118502682189 0.736 1.08994115594e-38
0.0313282952914 -0.118502682189 0.736 1.13617797968e-38
0.0326903950867 -0.118502682189 0.736 1.12685247853e-38
0.0340524948819 -0.118502682189 0.736 1.09919435009e-38
0.0354145946772 -0.118502682189 0.736 1.09015401318e-38
0.0366767578027 -0.118180664031 0.734 1.06245973124e-38
0.0380351562399 -0.118180664031 0.734 1.04398571293e-38
0.039393554677 -0.118180664031 0.734 1.03462405828e-38
0.0406964327421 -0.118019654952 0.733 1.1082374896e-38
0.0420529805001 -0.118019654952 0.733 1.19110593675e-38
0.0434095282582 -0.118019654952 0.733 1.24606430201e-38
0.0447660760163 -0.118019654952 0.733 1.11631373317e-38
0.0461855468627 -0.118180664031 0.734 1.16180436548e-38
0.0476734928347 -0.118502682189 0.736 1.29062811551e-38
0.04903559263 -0.118502682189 0.736 7.55932558528e-39
-0.0853903322746 -0.122392809594 0.769 9.1835496158e-41
-0.0837487799398 -0.122074492794 0.767 1.84747189537e-40
-0.0823293090934 -0.122074492794 0.767 7.21668709127e-43
-0.0809098382469 -0.122074492794 0.767 6.47901555368e-40
-0.0794903674005 -0.122074492794 0.767 6.54940277555e-39
-0.0779691092052 -0.121915334394 0.766 6.18169224942e-39
-0.0765514890379 -0.121915334394 0.766 5.53813331799e-39
-0.0749376968891 -0.121597017594 0.764 5.2633723203e-39
-0.0733313074566 -0.121278700794 0.762 5.17016775554e-39
-0.071826705373 -0.121119542394 0.761 3.78725853096e-39
-0.070233270694 -0.120801225594 0.759 1.06097099175e-38
-0.0688286052801 -0.120801225594 0.759 1.85147960897e-39
-0.0672462746756 -0.120482908794 0.757 8.21296405656e-39
-0.0656713467873 -0.120164591994 0.755 1.1532017942e-38
-0.0641889528525 -0.120005433594 0.754 5.17126076834e-39
-0.0627935408339 -0.120005433594 0.754 4.43550480575e-39
-0.0612352690573 -0.119687116794 0.752 4.16035985228e-39
-0.0596843999969 -0.119368799994 0.75 3.33168939372e-39
-0.0582186621737 -0.119209641594 0.749 3.42388782618e-39
-0.0568325035505 -0.119209641594 0.749 3.23949376386e-39
-0.0552982906018 -0.118891324794 0.747 2.68811504801e-39
-0.0539158333367 -0.118891324794 0.747 3.33204111963e-39
-0.0523223986577 -0.118413849594 0.744 2.40504294913e-39
-0.0509454934299 -0.118413849594 0.744 3.50324616081e-44
-0.0494353393091 -0.118095532794 0.742 2.52233723578e-44
-0.0480621354394 -0.118095532794 0.742 1.68155815719e-44
-0.0466260084813 -0.117936374394 0.741 1.84402470114e-40
-0.0451325104721 -0.117618057594 0.739 1.85835998443e-40
-0.0437648586396 -0.117618057594 0.739 1.44473871672e-42
-0.0423398357559 -0.117458899194 0.738 1.0761972206e-42
-0.0409740346025 -0.117458899194 0.738 1.20105291377e-39
-0.0395008940631 -0.117140582394 0.736 5.16935640373e-39
-0.0381387942678 -0.117140582394 0.736 4.98709792027e-39
-0.0367766944725 -0.117140582394 0.736 4.43394936446e-39
-0.0354145946772 -0.117140582394 0.736 4.25170489398e-39
-0.0339599609285 -0.116822265594 0.734 4.06874435999e-39
-0.0326015624913 -0.116822265594 0.734 3.14823560267e-39
-0.0312431640542 -0.116822265594 0.734 3.51738526232e-39
-0.0298440506775 -0.116663107194 0.733 1.67312794563e-39
-0.0284875029194 -0.116663107194 0.733 5.6572100563e-40
-0.0271309551614 -0.116663107194 0.733 1.39439286549e-39
-0.0257744074033 -0.116663107194 0.733 7.84736248462e-39
-0.0244178596452 -0.116663107194 0.733 1.420885534e-38
-0.0230613118872 -0.116663107194 0.733 1.94636433059e-38
-0.0216455423989 -0.116344790394 0.731 1.47613284699e-38
-0.0202926959989 -0.116344790394 0.731 1.73420760296e-38
-0.018939849599 -0.116344790394 0.731 2.00142877414e-38
-0.0176351208549 -0.116663107194 0.733 2.10262788676e-38
-0.0162785730968 -0.116663107194 0.733 1.88110838344e-38
-0.0149220253388 -0.116663107194 0.733 1.85334291554e-38
-0.0135839843714 -0.116822265594 0.734 1.8165717228e-38
-0.0122255859342 -0.116822265594 0.734 1.90901706405e-38
-0.0108523820646 -0.116663107194 0.733 2.25907080914e-38
-0.00949583430648 -0.116663107194 0.733 1.55838346166e-38
-0.00813928654841 -0.116663107194 0.733 1.66019410093e-38
-0.00678273879034 -0.116663107194 0.733 1.33790470271e-38
-0.00542619103228 -0.116663107194 0.733 1.5135071586e-38
-0.00405853919979 -0.116344790394 0.731 1.42170627451e-38
-0.00270569279986 -0.116344790394 0.731 1.3021032085e-38
-0.00135284639993 -0.116344790394 0.731 1.20083122836e-38
0.0 -0.116344790394 0.731 1.28341198894e-38
0.00135284639993 -0.116344790394 0.731 1.25568071272e-38
0.00270569279986 -0.116344790394 0.731 1.18210329477e-38
0.00405853919979 -0.116344790394 0.731 1.15458767838e-38
0.00541138559972 -0.116344790394 0.731 1.15465900448e-38
0.00676423199965 -0.116344790394 0.731 1.14536783514e-38
0.00811707839958 -0.116344790394 0.731 1.07150371153e-38
0.00945697004602 -0.116185631994 0.73 1.07146825867e-38
0.0108079657669 -0.116185631994 0.73 1.08086648721e-38
0.0121756175994 -0.116344790394 0.731 1.12692898942e-38
0.0135284639993 -0.116344790394 0.731 1.07161301281e-38
0.0148813103992 -0.116344790394 0.731 1.10849238579e-38
0.0162341567992 -0.116344790394 0.731 1.053175148e-38
0.0176351208549 -0.116663107194 0.733 1.05313871424e-38
0.018991668613 -0.116663107194 0.733 1.04391774996e-38
0.020348216371 -0.116663107194 0.733 1.02551379658e-38
0.0217047641291 -0.116663107194 0.733 1.00721816357e-38
0.0230613118872 -0.116663107194 0.733 1.05324521292e-38
0.0244511718685 -0.116822265594 0.734 1.13618498617e-38
0.0258095703056 -0.116822265594 0.734 1.15465760318e-38
0.0271679687428 -0.116822265594 0.734 1.17302428202e-38
0.0285263671799 -0.116822265594 0.734 1.20979603528e-38
0.0299661954961 -0.117140582394 0.736 1.13596652374e-38
0.0313282952914 -0.117140582394 0.736 1.10844726398e-38
0.0326015624913 -0.116822265594 0.734 1.13600043516e-38
0.0339599609285 -0.116822265594 0.734 1.07142818154e-38
0.0353183593656 -0.116822265594 0.734 1.08086242345e-38
0.0366767578027 -0.116822265594 0.734 1.04409109058e-38
0.0380351562399 -0.116822265594 0.734 1.01643240162e-38
0.039393554677 -0.116822265594 0.734 1.10859313915e-38
0.0406964327421 -0.116663107194 0.733 1.01625513736e-38
0.0420529805001 -0.116663107194 0.733 1.13596652374e-38
0.0434095282582 -0.116663107194 0.733 1.18221119475e-38
0.0447660760163 -0.116663107194 0.733 9.60371634864e-39
0.0461855468627 -0.116822265594 0.734 6.55481599151e-39
0.0475439452998 -0.116822265594 0.734 1.13454070255e-38
0.048902343737 -0.116822265594 0.734 6.91752388212e-39
-0.0853903322746 -0.120969637389 0.769 2.76223953288e-40
-0.08396716007 -0.120969637389 0.769 4.6097534672e-40
-0.0825439878655 -0.120969637389 0.769 1.44473871672e-42
-0.0809098382469 -0.120655021947 0.767 6.47904357965e-40
-0.0794903674005 -0.120655021947 0.767 6.36608210785e-39
-0.0779691092052 -0.120497714226 0.766 6.08984554287e-39
-0.0765514890379 -0.120497714226 0.766 5.72180010641e-39
-0.0751338688705 -0.120497714226 0.766 5.63179190345e-39
-0.0735237780799 -0.120183098784 0.764 5.90665379463e-39
-0.0719210900056 -0.119868483343 0.762 4.06240628703e-39
-0.070418338601 -0.119711175622 0.761 1.00554557372e-38
-0.0688286052801 -0.11939656018 0.759 7.65872248795e-39
-0.0674239398663 -0.11939656018 0.759 1.17160084304e-38
-0.0658453106198 -0.119081944738 0.757 1.20430392621e-39
-0.0642740840897 -0.118767329296 0.755 3.32449092351e-39
-0.0628768213921 -0.118767329296 0.755 7.84386624495e-39
-0.0613981288154 -0.118610021575 0.754 5.54111948502e-39
-0.0598435583969 -0.118295406133 0.752 4.43550760835e-39
-0.0582963906946 -0.117980790692 0.75 3.7908752823e-39
-0.0569083813924 -0.117980790692 0.75 3.42244589006e-39
-0.0554463449273 -0.117823482971 0.749 3.14801279621e-39
-0.0540601863042 -0.117823482971 0.749 3.51643237936e-39
-0.0525333760717 -0.117508867529 0.747 2.12917632695e-39
-0.0510824436811 -0.117351559808 0.746 7.53898573807e-43
-0.0495685882021 -0.117036944366 0.744 1.85140954405e-40
-0.0480621354394 -0.116722328924 0.742 1.96181785005e-44
-0.0466260084813 -0.116565021203 0.741 1.12103877146e-44
-0.0452546552907 -0.116565021203 0.741 7.24471306056e-43
-0.0437648586396 -0.116250405761 0.739 2.80259692865e-44
-0.0423972068071 -0.116250405761 0.739 3.69883940046e-40
-0.0409740346025 -0.11609309804 0.738 1.96181785005e-44
-0.0396082334491 -0.11609309804 0.738 3.50842535994e-39
-0.0381387942678 -0.115778482599 0.736 5.17077591908e-39
-0.0367766944725 -0.115778482599 0.736 4.52614779692e-39
-0.0354145946772 -0.115778482599 0.736 4.25170209138e-39
-0.0339599609285 -0.115463867157 0.734 4.06838422628e-39
-0.0326015624913 -0.115463867157 0.734 4.06874856388e-39
-0.0312431640542 -0.115463867157 0.734 3.42266869652e-39
-0.0298440506775 -0.115306559436 0.733 3.6992611913e-39
-0.0284875029194 -0.115306559436 0.733 3.4223197732e-39
-0.0270569279986 -0.114991943994 0.731 1.76352851216e-39
-0.0257040815987 -0.114991943994 0.731 1.14794370197e-41
-0.0243512351987 -0.114991943994 0.731 6.57197769381e-40
-0.0229669272546 -0.114834636273 0.73 6.92683270782e-39
-0.0216159315338 -0.114834636273 0.73 1.11696547708e-38
-0.0202649358129 -0.114834636273 0.73 2.047925819e-38
-0.018913940092 -0.114834636273 0.73 2.21322985221e-38
-0.0175629443712 -0.114834636273 0.73 1.88161186998e-38
-0.0162341567992 -0.114991943994 0.731 1.75217911564e-38
-0.0148813103992 -0.114991943994 0.731 2.11152725305e-38
-0.0135284639993 -0.114991943994 0.731 2.08386758318e-38
-0.0121756175994 -0.114991943994 0.731 1.80731530566e-38
-0.0108227711994 -0.114991943994 0.731 2.21261482232e-38
-0.00946992479951 -0.114991943994 0.731 2.23098136103e-38
-0.00811707839958 -0.114991943994 0.731 1.72422909673e-38
-0.00676423199965 -0.114991943994 0.731 1.29119718281e-38
-0.00540398288344 -0.114834636273 0.73 1.31013923481e-38
-0.00405298716258 -0.114834636273 0.73 1.31056999395e-38
-0.00270199144172 -0.114834636273 0.73 1.43081905855e-38
-0.00135099572086 -0.114834636273 0.73 1.39412017281e-38
0.0 -0.114834636273 0.73 1.36620868961e-38
0.00135099572086 -0.114834636273 0.73 1.31085459767e-38
0.00270199144172 -0.114834636273 0.73 1.1819240687e-38
0.00405298716258 -0.114834636273 0.73 1.15444432555e-38
0.00540398288344 -0.114834636273 0.73 1.1545520854e-38
0.0067549786043 -0.114834636273 0.73 1.12682108944e-38
0.00810597432516 -0.114834636273 0.73 1.1268213697e-38
0.00945697004602 -0.114834636273 0.73 1.15440831218e-38
0.0108079657669 -0.114834636273 0.73 1.17299121138e-38
0.0121589614877 -0.114834636273 0.73 1.09923484761e-38
0.0135099572086 -0.114834636273 0.73 1.04391859074e-38
0.0148813103992 -0.114991943994 0.731 1.11764006216e-38
0.0162341567992 -0.114991943994 0.731 1.00700544646e-38
0.0175870031991 -0.114991943994 0.731 1.05313871424e-38
0.018939849599 -0.114991943994 0.731 1.09919981515e-38
0.0202926959989 -0.114991943994 0.731 1.07157615866e-38
0.0216455423989 -0.114991943994 0.731 1.03494915952e-38
0.0229983887988 -0.114991943994 0.731 1.03487867421e-38
0.0244178596452 -0.115306559436 0.733 1.03480664747e-38
0.0257744074033 -0.115306559436 0.733 1.09015723616e-38
0.0271309551614 -0.115306559436 0.733 1.14536559306e-38
0.0284875029194 -0.115306559436 0.733 1.14525853386e-38
0.029884765617 -0.115463867157 0.734 1.15444124269e-38
0.0312431640542 -0.115463867157 0.734 1.15450990632e-38
0.0326015624913 -0.115463867157 0.734 1.26500271062e-38
0.0339599609285 -0.115463867157 0.734 1.10830643348e-38
0.0353183593656 -0.115463867157 0.734 1.10841335256e-38
0.0366767578027 -0.115463867157 0.734 1.04409109058e-38
0.0379833372259 -0.115306559436 0.733 1.00732059848e-38
0.039339884984 -0.115306559436 0.733 1.0809340298e-38
0.0406964327421 -0.115306559436 0.733 1.10845104748e-38
0.0420529805001 -0.115306559436 0.733 1.06213967467e-38
0.0434095282582 -0.115306559436 0.733 3.89368434673e-39
0.0447660760163 -0.115306559436 0.733 1.77034442789e-39
0.0461226237743 -0.115306559436 0.733 4.89959664026e-39
0.0475439452998 -0.115463867157 0.734 4.15807573579e-39
0.048902343737 -0.115463867157 0.734 7.65972161375e-39
-0.0858344952513 -0.120168293352 0.773 1.84029724723e-40
-0.0844039203305 -0.120168293352 0.773 7.3756223631e-40
-0.0827586666375 -0.119857379268 0.771 2.77674297198e-40
-0.0813317930748 -0.119857379268 0.771 6.47549829454e-40
-0.0796976434563 -0.119546465184 0.769 6.55047336757e-39
-0.0780708965541 -0.119235551101 0.767 6.55082088959e-39
-0.0765514890379 -0.119080094059 0.766 5.81434886349e-39
-0.0751338688705 -0.119080094059 0.766 5.63106743214e-39
-0.0735237780799 -0.118769179975 0.764 6.4591059051e-39
-0.0719210900056 -0.118458265892 0.762 4.8921669558e-39
-0.0705108725545 -0.118458265892 0.762 1.06093497838e-38
-0.069009971829 -0.11830280885 0.761 9.50300082411e-39
-0.0676016050569 -0.11830280885 0.761 1.03327222565e-38
-0.0660192744524 -0.117991894766 0.759 3.23153999377e-39
-0.0644443465641 -0.117680980682 0.757 3.41453696153e-39
-0.0630433825083 -0.117680980682 0.757 4.6148612001e-39
-0.0614795586945 -0.117370066599 0.755 2.31246056089e-39
-0.0598435583969 -0.116903695473 0.752 9.41225693946e-39
-0.0584518477365 -0.116903695473 0.752 4.43406987613e-39
-0.0569083813924 -0.116592781389 0.75 4.52733609802e-39
-0.0555203720901 -0.116592781389 0.75 3.97704338848e-39
-0.0540601863042 -0.116437324347 0.749 3.97560425496e-39
-0.052674027681 -0.116437324347 0.749 1.11430272974e-39
-0.0510824436811 -0.115970953222 0.746 1.47416598447e-42
-0.0497018370951 -0.115970953222 0.746 2.66246708222e-44
-0.0481916829742 -0.115660039138 0.744 1.96181785005e-44
-0.0466889315697 -0.115349125054 0.742 1.40129846432e-44
-0.0452546552907 -0.115193668013 0.741 3.65738899189e-43
-0.0438833021 -0.115193668013 0.741 9.22124454449e-41
-0.0423972068071 -0.114882753929 0.739 1.68155815719e-44
-0.0410295549746 -0.114882753929 0.739 2.24207754292e-44
-0.0396082334491 -0.114727296887 0.738 2.30988357301e-39
-0.0381387942678 -0.114416382803 0.736 4.61832100601e-39
-0.0367766944725 -0.114416382803 0.736 4.24955530214e-39
-0.0354145946772 -0.114416382803 0.736 4.06659056425e-39
-0.0339599609285 -0.11410546872 0.734 4.15878479281e-39
-0.0326015624913 -0.11410546872 0.734 4.25062309157e-39
-0.0312431640542 -0.11410546872 0.734 3.97511800439e-39
-0.0298440506775 -0.113950011678 0.733 3.79037221615e-39
-0.0284875029194 -0.113950011678 0.733 3.42267149911e-39
-0.0270569279986 -0.113639097594 0.731 3.14681048213e-39
-0.0256689186963 -0.113483640552 0.73 3.14752934824e-39
-0.0243179229755 -0.113483640552 0.73 2.2255758522e-39
-0.0229669272546 -0.113483640552 0.73 3.82767478127e-40
-0.0216159315338 -0.113483640552 0.73 1.65016907159e-41
-0.0202649358129 -0.113483640552 0.73 2.69017075286e-39
-0.018913940092 -0.113483640552 0.73 1.06161110489e-38
-0.0175629443712 -0.113483640552 0.73 2.21323055286e-38
-0.0162119486503 -0.113483640552 0.73 2.21323069299e-38
-0.0148609529295 -0.113483640552 0.73 2.07490095457e-38
-0.0135099572086 -0.113483640552 0.73 1.77973060526e-38
-0.0121589614877 -0.113483640552 0.73 1.95493747459e-38
-0.0108079657669 -0.113483640552 0.73 2.19417863907e-38
-0.00945697004602 -0.113483640552 0.73 2.16648351635e-38
-0.00810597432516 -0.113483640552 0.73 2.19414052375e-38
-0.0067364718136 -0.113172726469 0.728 1.90854818958e-38
-0.00538917745088 -0.113172726469 0.728 1.67834596072e-38
-0.00404188308816 -0.113172726469 0.728 1.10694885553e-38
-0.00269458872544 -0.113172726469 0.728 1.31925117807e-38
-0.00134729436272 -0.113172726469 0.728 1.24560341494e-38
0.0 -0.113172726469 0.728 1.39347347357e-38
0.00135099572086 -0.113483640552 0.73 1.42127495484e-38
0.00270199144172 -0.113483640552 0.73 1.32003898807e-38
0.00404188308816 -0.113172726469 0.728 1.28330408895e-38
0.00538917745088 -0.113172726469 0.728 1.24653317647e-38
0.0067364718136 -0.113172726469 0.728 1.21891022062e-38
0.00808376617632 -0.113172726469 0.728 1.27422759854e-38
0.00943106053904 -0.113172726469 0.728 1.1819240687e-38
0.0107783549018 -0.113172726469 0.728 1.17288345152e-38
0.0121589614877 -0.113483640552 0.73 1.11767425385e-38
0.0135099572086 -0.113483640552 0.73 1.09919981515e-38
0.0148609529295 -0.113483640552 0.73 1.13607820723e-38
0.0162119486503 -0.113483640552 0.73 1.04384698438e-38
0.0175629443712 -0.113483640552 0.73 1.06232156321e-38
0.018913940092 -0.113483640552 0.73 1.11767425385e-38
0.0202649358129 -0.113483640552 0.73 1.16377178852e-38
0.0216159315338 -0.113483640552 0.73 9.33569279397e-39
0.0229669272546 -0.113483640552 0.73 1.04413383018e-38
0.0243179229755 -0.113483640552 0.73 1.05321032059e-38
0.0256689186963 -0.113483640552 0.73 1.02562071565e-38
0.0270199144172 -0.113483640552 0.73 1.00717976799e-38
0.0284097743985 -0.113639097594 0.731 1.03469566463e-38
0.0298440506775 -0.113950011678 0.733 1.11763529775e-38
0.0312005984356 -0.113950011678 0.733 1.18220558956e-38
0.0325571461937 -0.113950011678 0.733 1.27422199335e-38
0.0339136939517 -0.113950011678 0.733 1.17284365465e-38
0.0352702417098 -0.113950011678 0.733 1.15447641529e-38
0.0366267894679 -0.113950011678 0.733 1.08089941773e-38
0.0379833372259 -0.113950011678 0.733 1.04402116578e-38
0.039339884984 -0.113950011678 0.733 1.1822442654e-38
0.0405853919979 -0.113639097594 0.731 9.88420865705e-39
0.0419382383978 -0.113639097594 0.731 3.79718252669e-39
0.0434095282582 -0.113950011678 0.733 4.07414076037e-39
0.0447660760163 -0.113950011678 0.733 4.99394886846e-39
0.0461226237743 -0.113950011678 0.733 4.7134131198e-39
0.0475439452998 -0.11410546872 0.734 6.0945637148e-39
0.048902343737 -0.11410546872 0.734 3.88151266827e-39
0.0503976924253 -0.114416382803 0.736 4.61835463717e-39
-0.0858344952513 -0.118737718431 0.773 2.76223953288e-40
-0.0844039203305 -0.118737718431 0.773 4.6097534672e-40
-0.0829733454096 -0.118737718431 0.773 7.30076499913e-43
-0.0813317930748 -0.118430505705 0.771 1.82729319748e-42
-0.0799049195121 -0.118430505705 0.771 6.91854122481e-39
-0.0782744712517 -0.11812329298 0.769 6.73521495192e-39
-0.0766514257076 -0.117816080254 0.767 6.45971687123e-39
-0.0751338688705 -0.117662473892 0.766 5.9994814101e-39
-0.0737162487031 -0.117662473892 0.766 5.72188978951e-39
-0.0721098592707 -0.117355261166 0.764 5.26166694007e-39
-0.0705108725545 -0.11704804844 0.762 9.87287075118e-39
-0.069009971829 -0.116894442078 0.761 1.76037699191e-39
-0.0676016050569 -0.116894442078 0.761 6.82967788269e-39
-0.0660192744524 -0.116587229352 0.759 7.6569414376e-39
-0.0644443465641 -0.116280016627 0.757 4.89037189247e-39
-0.0630433825083 -0.116280016627 0.757 9.96183358548e-39
-0.0614795586945 -0.115972803901 0.755 1.15309417448e-38
-0.0600027167969 -0.115819197538 0.754 6.64421883354e-39
-0.0584518477365 -0.115511984813 0.752 2.12736304673e-39
-0.0570601370761 -0.115511984813 0.752 4.70991828143e-39
-0.0556684264157 -0.115511984813 0.752 6.83221563421e-39
-0.0541323627879 -0.115204772087 0.75 4.15746336836e-39
-0.0527443534856 -0.115204772087 0.75 1.75786166117e-39
-0.0512878690578 -0.115051165724 0.749 2.9104969104e-42
-0.0497684615416 -0.114743952999 0.747 2.66246708222e-44
-0.0483212305091 -0.114590346636 0.746 1.96181785005e-44
-0.0468147777464 -0.11428313391 0.744 1.68155815719e-44
-0.0453157277 -0.113975921185 0.742 3.67140197653e-43
-0.0438833021 -0.113822314822 0.741 1.84394062324e-40
-0.0425119489094 -0.113822314822 0.741 2.80259692865e-45
-0.0410295549746 -0.113515102096 0.739 3.76949286903e-43
-0.0396082334491 -0.113361495734 0.738 2.5864704626e-39
-0.0382424322957 -0.113361495734 0.738 4.52612677744e-39
-0.0367766944725 -0.113054283008 0.736 4.43430109037e-39
-0.0354145946772 -0.113054283008 0.736 4.43465001369e-39
-0.0340524948819 -0.113054283008 0.736 4.24990702805e-39
-0.0326015624913 -0.112747070282 0.734 4.1584274617e-39
-0.0312431640542 -0.112747070282 0.734 4.06623183184e-39
-0.0298440506775 -0.11259346392 0.733 3.6985311148e-39
-0.0284875029194 -0.11259346392 0.733 3.51450279138e-39
-0.0270569279986 -0.112286251194 0.731 3.42266869652e-39
-0.0256689186963 -0.112132644831 0.73 3.42375049893e-39
-0.0243179229755 -0.112132644831 0.73 3.24007810532e-39
-0.0229669272546 -0.112132644831 0.73 2.59542896368e-39
-0.0216159315338 -0.112132644831 0.73 2.32137001652e-39
-0.0202649358129 -0.112132644831 0.73 1.47080286816e-41
-0.018913940092 -0.112132644831 0.73 9.32704257855e-42
-0.0175629443712 -0.112132644831 0.73 1.85681014833e-39
-0.0162119486503 -0.112132644831 0.73 1.37471751401e-38
-0.0148609529295 -0.112132644831 0.73 2.22241494326e-38
-0.0134729436272 -0.111825432106 0.728 2.23159835274e-38
-0.0121256492645 -0.111825432106 0.728 1.97373729479e-38
-0.0107783549018 -0.111825432106 0.728 1.84426922773e-38
-0.00943106053904 -0.111825432106 0.728 1.88096643191e-38
-0.00808376617632 -0.111825432106 0.728 2.03758886062e-38
-0.0067364718136 -0.111825432106 0.728 2.20346658542e-38
-0.00538917745088 -0.111825432106 0.728 1.96379312037e-38
-0.00404188308816 -0.111825432106 0.728 2.03762207139e-38
-0.00269458872544 -0.111825432106 0.728 1.67824030282e-38
-0.00134729436272 -0.111825432106 0.728 1.42023785385e-38
0.0 -0.111825432106 0.728 1.30092079286e-38
0.00134729436272 -0.111825432106 0.728 1.25503765685e-38
0.00269458872544 -0.111825432106 0.728 1.38429076473e-38
0.00404188308816 -0.111825432106 0.728 1.39376130027e-38
0.00538917745088 -0.111825432106 0.728 1.34777082481e-38
0.0067364718136 -0.111825432106 0.728 1.25561050766e-38
0.00808376617632 -0.111825432106 0.728 1.25560994714e-38
0.00943106053904 -0.111825432106 0.728 1.27408480623e-38
0.0107783549018 -0.111825432106 0.728 1.20983457099e-38
0.0121256492645 -0.111825432106 0.728 1.20983429073e-38
0.0134729436272 -0.111825432106 0.728 1.19128754503e-38
0.0148609529295 -0.112132644831 0.73 1.15440929309e-38
0.0162119486503 -0.112132644831 0.73 1.14515371673e-38
0.0175629443712 -0.112132644831 0.73 1.12678619711e-38
0.018913940092 -0.112132644831 0.73 1.05313731294e-38
0.0202649358129 -0.112132644831 0.73 1.09930673423e-38
0.0216159315338 -0.112132644831 0.73 9.79594366938e-39
0.0229669272546 -0.112132644831 0.73 1.03484167993e-38
0.024251298529 -0.111825432106 0.728 9.97892942675e-39
0.0255985928917 -0.111825432106 0.728 1.01640115266e-38
0.0269458872544 -0.111825432106 0.728 1.06256903252e-38
0.0282931816171 -0.111825432106 0.728 1.05324269059e-38
0.0297219058589 -0.112132644831 0.73 1.08086606682e-38
0.0310729015798 -0.112132644831 0.73 1.09930337111e-38
0.0324683135983 -0.112286251194 0.731 1.08075522412e-38
0.0338211599982 -0.112286251194 0.731 1.15444096243e-38
0.0351740063982 -0.112286251194 0.731 1.11756467231e-38
0.0365268527981 -0.112286251194 0.731 1.20979715632e-38
0.037879699198 -0.112286251194 0.731 1.20979743658e-38
0.039232545598 -0.112286251194 0.731 7.57896618455e-39
0.0405853919979 -0.112286251194 0.731 3.88865929044e-39
0.0419382383978 -0.112286251194 0.731 4.90068965306e-39
0.0432910847977 -0.112286251194 0.731 5.63538903661e-39
0.0446439311977 -0.112286251194 0.731 4.89672257711e-39
0.0461226237743 -0.11259346392 0.733 8.12177455899e-39
0.0474791715324 -0.11259346392 0.733 6.92324258116e-39
0.048902343737 -0.112747070282 0.734 6.46477555869e-39
0.0503976924253 -0.113054283008 0.736 5.82012921965e-39
-0.0859455359955 -0.117458899194 0.774 1.84029724723e-40
-0.0844039203305 -0.11730714351 0.773 2.7658688959e-40
-0.0829733454096 -0.11730714351 0.773 1.09301280217e-42
-0.0815427704888 -0.11730714351 0.773 2.78418386683e-40
-0.0801121955679 -0.11730714351 0.773 6.08807290031e-39
-0.0784780459494 -0.117003632143 0.771 6.73414576119e-39
-0.0768512990472 -0.116700120775 0.769 5.62959326616e-39
-0.0754281268426 -0.116700120775 0.769 5.99983033342e-39
-0.0737162487031 -0.116244853724 0.766 5.90770757108e-39
-0.0722986285358 -0.116244853724 0.766 4.61808979176e-39
-0.0706959404614 -0.115941342357 0.764 9.1374679158e-39
-0.0691006551034 -0.115637830989 0.762 4.06780128612e-39
-0.0676016050569 -0.115486075306 0.761 4.80212512168e-39
-0.0661932382849 -0.115486075306 0.761 8.85799575267e-39
-0.0646146090385 -0.115182563938 0.759 5.5382201985e-39
-0.0632099436246 -0.115182563938 0.759 9.87069453466e-39
-0.0616424184526 -0.114879052571 0.757 1.11103770432e-39
-0.0600027167969 -0.11442378552 0.754 1.0054018005e-38
-0.0586073047783 -0.11442378552 0.754 4.89142847151e-39
-0.0572118927598 -0.11442378552 0.754 5.62936485451e-39
-0.0558164807413 -0.11442378552 0.754 1.04245941864e-38
-0.0542767157553 -0.114120274152 0.752 3.78542983647e-39
-0.0528850050949 -0.114120274152 0.752 6.36511381061e-39
-0.0513563441834 -0.113816762785 0.75 3.82554480761e-43
-0.0499683348811 -0.113816762785 0.75 2.80259692865e-44
-0.0485155518114 -0.113665007101 0.749 9.18607195303e-41
-0.0469406239231 -0.11320974005 0.746 1.68155815719e-44
-0.0454378725186 -0.112906228682 0.744 3.69942794582e-43
-0.0439425238303 -0.112602717315 0.742 0.0
-0.0425119489094 -0.112450961631 0.741 2.80259692865e-45
