# .PCD v0.7 - Point Cloud Data file format
VERSION 0.7
FIELDS x y z rgb
SIZE 4 4 4 4
TYPE F F F F
COUNT 1 1 1 1
WIDTH 835
HEIGHT 1
VIEWPOINT 0 0 0 1 0 0 0
POINTS 835
DATA ascii
0.0366767578027 -0.0597695312341 0.734 4.15376253911e-39
0.0379833372259 -0.059688101355 0.733 4.24596657677e-39
0.039339884984 -0.059688101355 0.733 2.67829614967e-39
0.0405853919979 -0.0595252415969 0.731 2.67901781838e-39
0.0419382383978 -0.0595252415969 0.731 2.58681938592e-39
0.0432910847977 -0.0595252415969 0.731 2.49643283237e-39
0.0446439311977 -0.0595252415969 0.731 1.20534649227e-39
0.0459967775976 -0.0595252415969 0.731 2.1523944412e-42
0.0473496239975 -0.0595252415969 0.731 1.13422036572e-38
-0.0822885941539 -0.0631858847967 0.794 2.3418050119e-38
-0.0808191549725 -0.0631858847967 0.794 2.35098828126e-38
-0.0793497157912 -0.0631858847967 0.794 2.35098730035e-38
-0.0778802766099 -0.0631858847967 0.794 2.35091681503e-38
-0.0764108374286 -0.0631858847967 0.794 2.21287574409e-38
-0.0747526289822 -0.0630267263967 0.792 7.14662216806e-44
-0.073286891159 -0.0630267263967 0.792 5.0753993417e-39
-0.071639786787 -0.0628675679967 0.79 6.54908748339e-39
-0.0700889177266 -0.0627879887967 0.789 7.83945495738e-39
-0.0686287319406 -0.0627879887967 0.789 7.19444007685e-39
-0.0669982836802 -0.0626288303967 0.787 6.73310739903e-39
-0.0655417992524 -0.0626288303967 0.787 7.28592805099e-39
-0.0637595953083 -0.0623105135968 0.783 7.47031931072e-39
-0.0623105135968 -0.0623105135968 0.783 6.73311020162e-39
-0.0608614318852 -0.0623105135968 0.783 6.36467940808e-39
-0.0592605944899 -0.0621513551968 0.781 7.01004601453e-39
-0.0578152141365 -0.0621513551968 0.781 7.01039493785e-39
-0.0562976572994 -0.0620717759968 0.78 6.91820070928e-39
-0.054854127625 -0.0620717759968 0.78 6.64126349508e-39
-0.0534105979507 -0.0620717759968 0.78 6.73310739903e-39
-0.0519670682764 -0.0620717759968 0.78 7.47067243793e-39
-0.050523538602 -0.0620717759968 0.78 6.64126629767e-39
-0.0489541627509 -0.0619126175968 0.778 6.82600788202e-39
-0.0473921896161 -0.0617534591968 0.776 6.91855523779e-39
-0.0458376191976 -0.0615943007968 0.774 7.10151156789e-39
-0.0444051935977 -0.0615943007968 0.774 8.11566489769e-39
-0.0429172476257 -0.0615147215968 0.773 6.63982856545e-39
-0.0414866727048 -0.0615147215968 0.773 5.62604097455e-39
-0.040056097784 -0.0615147215968 0.773 5.62604377715e-39
-0.0385255861933 -0.0613555631968 0.771 6.73310459643e-39
-0.037002477319 -0.0611964047968 0.769 6.91820351188e-39
-0.0355793051144 -0.0611964047968 0.769 7.10294649752e-39
-0.0340673003145 -0.0610372463968 0.767 7.1018731029e-39
-0.0326478294681 -0.0610372463968 0.767 3.87502745898e-39
-0.0311876436821 -0.0609576671968 0.766 4.52039546672e-39
-0.0297700235147 -0.0609576671968 0.766 6.54869932372e-39
-0.0283524033474 -0.0609576671968 0.766 8.48480755085e-39
-0.0268644573753 -0.0607985087968 0.764 7.37846279508e-39
-0.0254505385661 -0.0607985087968 0.764 7.56285685741e-39
-0.0240366197569 -0.0607985087968 0.764 7.37846559768e-39
-0.0225634792174 -0.0606393503968 0.762 6.82672814943e-39
-0.0211532617663 -0.0606393503968 0.762 6.82743300255e-39
-0.0197430443153 -0.0606393503968 0.762 7.10328421045e-39
-0.0183328268642 -0.0606393503968 0.762 7.28695380147e-39
-0.0169004012642 -0.0605597711968 0.761 7.28588180814e-39
-0.0154920344922 -0.0605597711968 0.761 6.3642968536e-39
-0.0140836677202 -0.0605597711968 0.761 5.90368724578e-39
-0.0126753009482 -0.0605597711968 0.761 6.18099019889e-39
-0.011237323311 -0.0604006127969 0.759 6.36538145861e-39
-0.00980674839019 -0.0602414543969 0.757 6.27318582875e-39
-0.00840578433445 -0.0602414543969 0.757 6.9185496326e-39
-0.0070048202787 -0.0602414543969 0.757 5.9040333665e-39
-0.00560385622296 -0.0602414543969 0.757 4.42926902759e-39
-0.00420289216722 -0.0602414543969 0.757 5.9036704302e-39
-0.0027945253952 -0.0600822959969 0.755 5.44269508348e-39
-0.0013972626976 -0.0600822959969 0.755 6.36465138211e-39
0.0 -0.0600822959969 0.755 5.25831783674e-39
0.00139541201853 -0.0600027167969 0.754 6.0877211744e-39
0.00279082403706 -0.0600027167969 0.754 5.25831503414e-39
0.00417513198118 -0.0598435583969 0.752 5.07463703533e-39
0.00556684264157 -0.0598435583969 0.752 5.62816534302e-39
0.00695855330196 -0.0598435583969 0.752 5.9980240597e-39
0.00832805581352 -0.0596843999969 0.75 5.16826619353e-39
0.00970311036229 -0.0596048207969 0.749 5.07607056366e-39
0.0110892689855 -0.0596048207969 0.749 5.81220207424e-39
0.0124754276087 -0.0596048207969 0.749 4.06049211333e-39
0.0138245726504 -0.0594456623969 0.747 4.15268634189e-39
0.0152070299155 -0.0594456623969 0.747 5.4444985546e-39
0.0165672790317 -0.0593660831969 0.746 5.26010589358e-39
0.0178997679619 -0.0592069247969 0.744 5.62888841303e-39
0.0192766731897 -0.0592069247969 0.744 5.44521321682e-39
0.0205980580454 -0.0590477663969 0.742 5.26082195709e-39
0.0219712619151 -0.0590477663969 0.742 5.16935360113e-39
0.0233444657848 -0.0590477663969 0.742 4.89276671154e-39
0.0246843574313 -0.0589681871969 0.741 5.07643490126e-39
0.0260557106219 -0.0589681871969 0.741 4.79984661037e-39
0.0274270638125 -0.0589681871969 0.741 4.79912774426e-39
0.0287984170032 -0.0589681871969 0.741 4.52254225597e-39
0.0301697701938 -0.0589681871969 0.741 3.78498562486e-39
0.0315411233844 -0.0589681871969 0.741 3.50804420675e-39
0.0328236439797 -0.0588090287969 0.739 3.50661207972e-39
0.0341450288354 -0.0587294495969 0.738 3.69207673407e-39
0.0355108299888 -0.0587294495969 0.738 4.52254225597e-39
0.0367766944725 -0.0585702911969 0.736 4.43034662611e-39
0.0380351562399 -0.058411132797 0.734 4.98353161568e-39
0.039393554677 -0.058411132797 0.734 2.49390769254e-39
0.0406964327421 -0.058331553597 0.733 2.40243373139e-39
0.0420529805001 -0.058331553597 0.733 2.49462655865e-39
0.0434095282582 -0.058331553597 0.733 2.03545468306e-39
0.0447660760163 -0.058331553597 0.733 1.20534649227e-39
0.0459967775976 -0.058172395197 0.731 2.51112684807e-42
0.0473496239975 -0.058172395197 0.731 1.21723216571e-38
-0.0822885941539 -0.0617164456154 0.794 2.3418050119e-38
-0.0808191549725 -0.0617164456154 0.794 2.350988001e-38
-0.0795495891307 -0.0618719026572 0.796 2.35098730035e-38
-0.0778802766099 -0.0617164456154 0.794 2.35091681503e-38
-0.0764108374286 -0.0617164456154 0.794 2.31425436305e-38
-0.0749413982473 -0.0617164456154 0.794 4.40007717798e-43
-0.0734719590659 -0.0617164456154 0.794 4.61477431959e-39
-0.0718211533358 -0.0615609885735 0.792 6.08810933407e-39
-0.0701777503219 -0.0614055315317 0.79 7.56287087039e-39
-0.0686287319406 -0.0613278030108 0.789 7.93164778465e-39
-0.0671685461546 -0.0613278030108 0.789 7.37812368086e-39
-0.0655417992524 -0.0611723459689 0.787 6.91714973543e-39
-0.0639224550664 -0.0610168889271 0.785 6.91679380562e-39
-0.0623105135968 -0.0608614318852 0.783 7.0093425627e-39
-0.0608614318852 -0.0608614318852 0.783 6.91749865875e-39
-0.0594123501736 -0.0608614318852 0.783 6.73346192754e-39
-0.0578152141365 -0.0607059748433 0.781 6.08879176643e-39
-0.0563698337831 -0.0607059748433 0.781 6.82635680533e-39
-0.0549244534297 -0.0607059748433 0.781 6.82600788202e-39
-0.0534790730763 -0.0607059748433 0.781 7.00969148602e-39
-0.0519670682764 -0.0606282463224 0.78 6.73310459643e-39
-0.050523538602 -0.0606282463224 0.78 6.45687223535e-39
-0.0490800089277 -0.0606282463224 0.78 7.10259056771e-39
-0.0475143344347 -0.0604727892806 0.778 6.9185496326e-39
-0.0459560626581 -0.0603173322387 0.776 7.47029408735e-39
-0.0444051935977 -0.0601618751969 0.774 6.45614356015e-39
-0.0429727679978 -0.0601618751969 0.774 6.36359200047e-39
-0.0415403423978 -0.0601618751969 0.774 7.65505248727e-39
-0.040056097784 -0.0600841466759 0.773 7.37810966787e-39
-0.0386255228631 -0.0600841466759 0.773 5.16613341726e-39
-0.0370987126306 -0.0599286896341 0.771 4.15198148877e-39
-0.0356718390679 -0.0599286896341 0.771 7.47102416385e-39
-0.0341561329098 -0.0597732325922 0.769 7.56320578072e-39
-0.0326478294681 -0.0596177755504 0.767 8.39331957671e-39
-0.0312283586216 -0.0596177755504 0.767 7.01038512876e-39
-0.0298088877752 -0.0596177755504 0.767 4.70549298088e-39
-0.0283894169288 -0.0596177755504 0.767 5.627094751e-39
-0.02693478318 -0.0595400470295 0.766 4.98172814455e-39
-0.0255171630126 -0.0595400470295 0.766 6.36431086659e-39
-0.0240995428453 -0.0595400470295 0.766 7.19371840814e-39
-0.0226227009477 -0.0593845899876 0.764 7.19516034426e-39
-0.0212087821384 -0.0593845899876 0.764 7.65684474801e-39
-0.0197430443153 -0.0592291329458 0.762 7.28732374426e-39
-0.0183328268642 -0.0592291329458 0.762 7.28695660406e-39
-0.0169226094131 -0.0592291329458 0.762 7.6546643276e-39
-0.015512391962 -0.0592291329458 0.762 7.28517415242e-39
-0.0141021745109 -0.0592291329458 0.762 6.64053341858e-39
-0.0126753009482 -0.0591514044248 0.761 6.73344511196e-39
-0.0112669341762 -0.0591514044248 0.761 6.18063567038e-39
-0.00983265789716 -0.058995947383 0.759 5.71965752106e-39
-0.00842799248328 -0.058995947383 0.759 5.44342515998e-39
-0.0070233270694 -0.058995947383 0.759 6.91818949889e-39
-0.00561866165552 -0.058995947383 0.759 6.45720994828e-39
-0.00421399624164 -0.058995947383 0.759 5.99551293285e-39
-0.00280192811148 -0.0588404903411 0.757 5.90331730299e-39
-0.00140096405574 -0.0588404903411 0.757 5.99479266544e-39
0.0 -0.0586850332993 0.755 5.3505134666e-39
0.0013972626976 -0.0586850332993 0.755 5.81149161592e-39
0.0027945253952 -0.0586850332993 0.755 5.44270349127e-39
0.0041862360556 -0.0586073047783 0.754 5.99695066508e-39
0.00558164807413 -0.0586073047783 0.754 6.08914349234e-39
0.00695855330196 -0.0584518477365 0.752 5.07607056366e-39
0.00835026396236 -0.0584518477365 0.752 4.7069321144e-39
0.00971606511577 -0.0582963906946 0.75 4.52254085467e-39
0.011104074418 -0.0582963906946 0.75 4.8902485782e-39
0.0124754276087 -0.0582186621737 0.749 6.08879456902e-39
0.0138615862318 -0.0582186621737 0.749 5.81220487684e-39
0.0152070299155 -0.0580632051319 0.747 4.89132757802e-39
0.0165894871805 -0.0580632051319 0.747 4.61473788583e-39
0.0179478856177 -0.0579854766109 0.746 4.61473788583e-39
0.0193284922036 -0.0579854766109 0.746 4.33886986236e-39
0.0206535784175 -0.0578300195691 0.744 4.79984661037e-39
0.0219712619151 -0.0576745625272 0.742 5.81472581277e-39
0.0233444657848 -0.0576745625272 0.742 5.7221742531e-39
0.0247176696545 -0.0576745625272 0.742 5.44594049072e-39
0.0260908735242 -0.0576745625272 0.742 5.62960727914e-39
0.0274270638125 -0.0575968340063 0.741 5.26046182339e-39
0.0287984170032 -0.0575968340063 0.741 5.16826619353e-39
0.0301697701938 -0.0575968340063 0.741 4.98279873658e-39
0.0315411233844 -0.0575968340063 0.741 4.98244140547e-39
0.032912476575 -0.0575968340063 0.741 4.79770122243e-39
0.0341912958122 -0.0574413769644 0.739 4.1534094119e-39
0.0355589476447 -0.0574413769644 0.739 4.24595676768e-39
0.0368766311423 -0.0573636484435 0.738 4.24595676768e-39
0.0381387942678 -0.0572081914017 0.736 4.70694472609e-39
0.0395008940631 -0.0572081914017 0.736 2.30951923541e-39
0.0408629938583 -0.0572081914017 0.736 3.13999877029e-39
0.0422250936536 -0.0572081914017 0.736 2.67902062098e-39
0.0434687499884 -0.0570527343598 0.734 1.94325905319e-39
0.0448271484256 -0.0570527343598 0.734 1.48193338186e-39
0.0461855468627 -0.0570527343598 0.734 3.73440435549e-40
-0.0822885941539 -0.0602470064341 0.794 2.3418050119e-38
-0.0808191549725 -0.0602470064341 0.794 2.35098786087e-38
-0.0793497157912 -0.0602470064341 0.794 2.35098730035e-38
-0.0780764485913 -0.0603987621178 0.796 2.35091681503e-38
-0.0766033080518 -0.0603987621178 0.796 2.29588642304e-38
-0.0751301675124 -0.0603987621178 0.796 5.53257857088e-40
-0.0734719590659 -0.0602470064341 0.794 5.44453358707e-39
-0.0720025198846 -0.0602470064341 0.794 5.90372087695e-39
-0.0703554155126 -0.0600952507504 0.792 7.37812368086e-39
-0.0688896776894 -0.0600952507504 0.792 5.16578169135e-39
-0.0672536773918 -0.0599434950666 0.79 3.50590862789e-39
-0.0657083603687 -0.0598676172248 0.789 6.82459817576e-39
-0.0640853148246 -0.0597158615411 0.787 7.4699703874e-39
-0.0624696719967 -0.0595641058574 0.785 7.0093453653e-39
-0.0610168889271 -0.0595641058574 0.785 6.73275427181e-39
-0.0594123501736 -0.0594123501736 0.783 6.91749585615e-39
-0.0579632684621 -0.0594123501736 0.783 6.9185496326e-39
-0.0565141867505 -0.0594123501736 0.783 7.01074526246e-39
-0.0549244534297 -0.0592605944899 0.781 7.19478619757e-39
-0.0534790730763 -0.0592605944899 0.781 6.73345912494e-39
-0.0520336927229 -0.0592605944899 0.781 7.74761385603e-39
-0.050523538602 -0.0591847166481 0.78 6.91820351188e-39
-0.0490800089277 -0.0591847166481 0.78 6.73416117547e-39
-0.0475143344347 -0.0590329609644 0.778 5.99694786248e-39
-0.0460745061185 -0.0590329609644 0.778 6.17955246666e-39
-0.0445199357 -0.0588812052807 0.776 7.56248971721e-39
-0.0429727679978 -0.0587294495969 0.774 7.28590282762e-39
-0.0415403423978 -0.0587294495969 0.774 6.64124948209e-39
-0.0401079167979 -0.0587294495969 0.774 5.99588287565e-39
-0.0386255228631 -0.0586535717551 0.773 6.27247817303e-39
-0.0371949479422 -0.0586535717551 0.773 7.10188711588e-39
-0.0357643730214 -0.0586535717551 0.773 7.19408835094e-39
-0.0342449655052 -0.0585018160714 0.771 7.47136187678e-39
-0.0328180919425 -0.0585018160714 0.771 6.91889295072e-39
-0.0313097885007 -0.0583500603877 0.769 7.56426235977e-39
-0.0298866162961 -0.0583500603877 0.769 7.93304487922e-39
-0.0284634440915 -0.0583500603877 0.769 7.84049472085e-39
-0.027040271887 -0.0583500603877 0.769 7.01038372746e-39
-0.0255504752359 -0.0581983047039 0.767 5.53490192373e-39
-0.0240995428453 -0.0581224268621 0.766 3.0452794019e-39
-0.0226227009477 -0.0579706711784 0.764 4.79843830542e-39
-0.0212087821384 -0.0579706711784 0.764 6.82673375462e-39
-0.0197948633292 -0.0579706711784 0.764 7.10257935732e-39
-0.0183328268642 -0.0578189154947 0.762 7.74793755598e-39
-0.0169226094131 -0.0578189154947 0.762 7.3777215082e-39
-0.015512391962 -0.0578189154947 0.762 6.91639163296e-39
-0.0141021745109 -0.0578189154947 0.762 5.90296557707e-39
-0.0126919570598 -0.0578189154947 0.762 6.45685822237e-39
-0.0112817396087 -0.0578189154947 0.762 5.99624721325e-39
-0.00985856740414 -0.0577430376528 0.761 6.73453251956e-39
-0.00845020063212 -0.0577430376528 0.761 7.01039493785e-39
-0.0070418338601 -0.0577430376528 0.761 6.73344230936e-39
-0.00563346708808 -0.0577430376528 0.761 6.08842883012e-39
-0.00422510031606 -0.0577430376528 0.761 5.6267318147e-39
-0.00280933082776 -0.0575912819691 0.759 6.36321785378e-39
-0.00140466541388 -0.0575912819691 0.759 6.45541348365e-39
0.0 -0.0575912819691 0.759 6.17955246666e-39
0.00140096405574 -0.0574395262854 0.757 5.99588007305e-39
0.0027945253952 -0.0572877706017 0.755 5.25866816135e-39
0.0041917880928 -0.0572877706017 0.755 5.25938562617e-39
0.00558905079041 -0.0572877706017 0.755 5.53596971316e-39
0.00697706009266 -0.0572118927598 0.754 5.26010589358e-39
0.00837247211119 -0.0572118927598 0.754 5.90547670392e-39
0.00974197462275 -0.0570601370761 0.752 6.18206639611e-39
0.0111336852831 -0.0570601370761 0.752 5.35122953012e-39
0.0124920837203 -0.0569083813924 0.75 4.98244701066e-39
0.0138800930225 -0.0569083813924 0.75 3.96829788476e-39
0.015247744855 -0.0568325035505 0.749 4.70658038848e-39
0.0166339034782 -0.0568325035505 0.749 5.07571883775e-39
0.0179719444456 -0.0566807478668 0.747 5.26011009747e-39
0.0193544017106 -0.0566807478668 0.747 4.89204364154e-39
0.0206535784175 -0.0564531143412 0.744 4.89204364154e-39
0.0220304836454 -0.0564531143412 0.744 3.41728490782e-39
0.0234073888732 -0.0564531143412 0.744 4.06265431686e-39
0.0247176696545 -0.0563013586575 0.742 4.33959573496e-39
0.0260908735242 -0.0563013586575 0.742 5.07643349996e-39
0.0274640773939 -0.0563013586575 0.742 4.89167930394e-39
0.0287984170032 -0.0562254808157 0.741 5.35265465066e-39
0.0301697701938 -0.0562254808157 0.741 5.53596691056e-39
0.0315411233844 -0.0562254808157 0.741 5.4437712807e-39
0.032912476575 -0.0562254808157 0.741 5.53526486003e-39
0.0342838297657 -0.0562254808157 0.741 4.89132757802e-39
0.0355589476447 -0.056073725132 0.739 4.9838721312e-39
0.0369265994771 -0.056073725132 0.739 4.9838749338e-39
0.0382942513096 -0.056073725132 0.739 5.16828020651e-39
0.0396619031421 -0.056073725132 0.739 2.21732500685e-39
0.0410295549746 -0.056073725132 0.739 3.32403410021e-39
0.0423398357559 -0.0559978472901 0.738 2.77086032103e-39
0.0435871934489 -0.0558460916064 0.736 2.31204157265e-39
0.0449492932442 -0.0558460916064 0.736 2.21949561817e-39
0.0463113930394 -0.0558460916064 0.736 1.57197941988e-39
0.047867814137 -0.056073725132 0.739 1.34630604752e-38
-0.0822885941539 -0.0587775672528 0.794 2.3418050119e-38
-0.0808191549725 -0.0587775672528 0.794 2.35098856151e-38
-0.0793497157912 -0.0587775672528 0.794 2.35091653477e-38
-0.0782726205727 -0.0590736759039 0.798 2.35095268827e-38
-0.0767957786751 -0.0590736759039 0.798 2.31425380253e-38
-0.0753189367775 -0.0590736759039 0.798 6.47952002113e-40
-0.0736570269729 -0.0589256215783 0.796 4.43041388843e-39
-0.0721838864334 -0.0589256215783 0.796 5.99698709884e-39
-0.0705330807033 -0.0587775672528 0.794 8.66813242244e-39
-0.0688896776894 -0.0586295129272 0.792 8.02240848489e-39
-0.0674239398663 -0.0586295129272 0.792 7.93022967061e-39
-0.0657916409268 -0.0584814586016 0.79 6.7331298198e-39
-0.0642481745827 -0.0584074314388 0.789 3.87541701995e-39
-0.0627879887967 -0.0584074314388 0.789 5.90442573007e-39
-0.0611723459689 -0.0582593771132 0.787 7.56429879353e-39
-0.0595641058574 -0.0581113227877 0.785 7.10259477161e-39
-0.0581113227877 -0.0581113227877 0.785 7.01074526246e-39
-0.0565141867505 -0.0579632684621 0.783 5.81220207424e-39
-0.055065105039 -0.0579632684621 0.783 6.73416397807e-39
-0.0536160233274 -0.0579632684621 0.783 7.19478759887e-39
-0.0520336927229 -0.0578152141365 0.781 7.01004321193e-39
-0.0505883123695 -0.0578152141365 0.781 6.82565195221e-39
-0.049142932016 -0.0578152141365 0.781 6.27283130024e-39
-0.0476364792533 -0.0577411869737 0.78 7.28698182744e-39
-0.046192949579 -0.0577411869737 0.78 7.74617752511e-39
-0.0446346778023 -0.0575931326482 0.778 7.65398049395e-39
-0.0430838087419 -0.0574450783226 0.776 5.8104182213e-39
-0.0416476817839 -0.0574450783226 0.776 6.73237451993e-39
-0.0401079167979 -0.057297023997 0.774 7.37774673157e-39
-0.038675491198 -0.057297023997 0.774 7.19335827444e-39
-0.0372430655981 -0.057297023997 0.774 7.46994516403e-39
-0.0357643730214 -0.0572229968342 0.773 6.45614356015e-39
-0.0343337981005 -0.0572229968342 0.773 6.08805888733e-39
-0.0329032231797 -0.0572229968342 0.773 7.00894179134e-39
-0.0313912183798 -0.0570749425087 0.771 6.73342829637e-39
-0.029964344817 -0.0570749425087 0.771 7.28661889113e-39
-0.0285374712543 -0.0570749425087 0.771 7.37951937413e-39
-0.0271105976916 -0.0570749425087 0.771 7.74831310397e-39
-0.0256170996824 -0.0569268881831 0.769 7.7490165558e-39
-0.0241310043894 -0.0567788338575 0.767 8.02560344539e-39
-0.022711533543 -0.0567788338575 0.767 7.65682232723e-39
-0.0212643025105 -0.0567048066947 0.766 7.10293248454e-39
-0.0197948633292 -0.0565567523691 0.764 7.37988231043e-39
-0.01838094452 -0.0565567523691 0.764 7.28733215205e-39
-0.0169226094131 -0.0564086980436 0.762 7.28733775725e-39
-0.015512391962 -0.0564086980436 0.762 6.91783917428e-39
-0.0141391880923 -0.0565567523691 0.764 6.3646625925e-39
-0.0127252692831 -0.0565567523691 0.764 7.10258075862e-39
-0.0113113504738 -0.0565567523691 0.764 5.72215183233e-39
-0.00987152215763 -0.0564086980436 0.762 3.60239082976e-39
-0.00846130470654 -0.0564086980436 0.762 3.78319196282e-39
-0.00705108725545 -0.0564086980436 0.762 5.53455300041e-39
-0.00563346708808 -0.0563346708808 0.761 5.07678242328e-39
-0.00422510031606 -0.0563346708808 0.761 6.27675493594e-39
-0.00281673354404 -0.0563346708808 0.761 5.81364961555e-39
-0.00140466541388 -0.0561866165552 0.759 6.08772677959e-39
0.0 -0.0561866165552 0.759 5.9922759334e-39
0.00140466541388 -0.0561866165552 0.759 6.63871733577e-39
0.00280192811148 -0.0560385622296 0.757 6.91674616148e-39
0.00420289216722 -0.0560385622296 0.757 6.73451570398e-39
0.00558905079041 -0.0558905079041 0.755 5.9983897986e-39
0.00698631348801 -0.0558905079041 0.755 6.46009241922e-39
0.00837247211119 -0.0558164807413 0.754 5.16935640373e-39
0.00974197462275 -0.0556684264157 0.752 4.15520447523e-39
0.0111336852831 -0.0556684264157 0.752 4.7069321144e-39
0.0125253959435 -0.0556684264157 0.752 5.53704871298e-39
0.0138800930225 -0.0555203720901 0.75 5.35230152344e-39
0.015247744855 -0.0554463449273 0.749 5.81220487684e-39
0.0166339034782 -0.0554463449273 0.749 4.79805294834e-39
0.0180200621014 -0.0554463449273 0.749 4.79805014574e-39
0.0193544017106 -0.0552982906018 0.747 5.62781081451e-39
0.0207090987896 -0.055224263439 0.746 4.98279593398e-39
0.0220897053756 -0.055224263439 0.746 4.79877601835e-39
0.0234703119616 -0.055224263439 0.746 5.26047583637e-39
0.024784294101 -0.0550762091134 0.744 5.1675627417e-39
0.0260908735242 -0.0549281547878 0.742 5.07536711183e-39
0.0274640773939 -0.0549281547878 0.742 4.42999630149e-39
0.0288372812636 -0.0549281547878 0.742 3.96937408199e-39
0.0302104851333 -0.0549281547878 0.742 4.89167930394e-39
0.031583689003 -0.0549281547878 0.742 5.16826058833e-39
0.0329568928727 -0.0549281547878 0.742 5.25903109766e-39
0.0342838297657 -0.054854127625 0.741 5.53561518465e-39
0.0356551829563 -0.054854127625 0.741 5.44412721051e-39
0.0370265361469 -0.054854127625 0.741 5.16826339093e-39
0.0383978893375 -0.054854127625 0.741 5.53634526115e-39
0.0397692425282 -0.054854127625 0.741 2.49283149532e-39
0.0411405957188 -0.054854127625 0.741 3.50735336661e-39
0.0425119489094 -0.054854127625 0.741 3.59919306666e-39
0.0437648586396 -0.0547060732995 0.739 2.03473301435e-39
0.0449492932442 -0.0544839918111 0.736 2.21876974556e-39
0.0463113930394 -0.0544839918111 0.736 2.95454812893e-39
0.047867814137 -0.0547060732995 0.739 1.37392900337e-38
-0.0810227296702 -0.0574524810389 0.796 2.35098856151e-38
-0.0795495891307 -0.0574524810389 0.796 2.35091681503e-38
-0.0782726205727 -0.0575968340063 0.798 2.35095268827e-38
-0.0767957786751 -0.0575968340063 0.798 2.27751932381e-38
-0.0753189367775 -0.0575968340063 0.798 2.58441055386e-39
-0.0736570269729 -0.0574524810389 0.796 3.96872808339e-39
-0.0721838864334 -0.0574524810389 0.796 6.18209862597e-39
-0.070710745894 -0.0574524810389 0.796 8.11423277066e-39
-0.069063641522 -0.0573081280714 0.794 7.19192754871e-39
-0.0675942023407 -0.0573081280714 0.794 6.63949085252e-39
-0.0659582020431 -0.057163775104 0.792 6.91752388212e-39
-0.0643296044618 -0.0570194221366 0.79 7.10298293128e-39
-0.0628675679967 -0.0570194221366 0.79 6.82674216241e-39
-0.0614055315317 -0.0570194221366 0.79 5.53599213394e-39
-0.0598676172248 -0.0569472456528 0.789 4.70550839516e-39
-0.0582593771132 -0.0568028926854 0.787 4.98244420807e-39
-0.056658539718 -0.056658539718 0.785 7.28733495465e-39
-0.0552057566483 -0.056658539718 0.785 7.93270716629e-39
-0.0537529735786 -0.056658539718 0.785 6.45722255997e-39
-0.0521669416159 -0.0565141867505 0.783 6.54906506262e-39
-0.0507178599043 -0.0565141867505 0.783 6.8256547548e-39
-0.049142932016 -0.0563698337831 0.781 6.54906506262e-39
-0.0476975516626 -0.0563698337831 0.781 6.64126069248e-39
-0.046192949579 -0.0562976572994 0.78 6.08665618757e-39
-0.0447494199046 -0.0562976572994 0.78 7.56214079389e-39
-0.0433058902303 -0.0562976572994 0.78 7.10151296919e-39
-0.0417550211699 -0.056153304332 0.778 7.19370719776e-39
-0.0402115548258 -0.0560089513645 0.776 7.28554829911e-39
-0.038675491198 -0.0558645983971 0.774 6.64018169266e-39
-0.0372430655981 -0.0558645983971 0.774 6.45614356015e-39
-0.0358106399981 -0.0558645983971 0.774 7.28625315224e-39
-0.0343782143982 -0.0558645983971 0.774 7.46991713806e-39
-0.0329032231797 -0.0557924219134 0.773 7.65468254448e-39
-0.0314726482588 -0.0557924219134 0.773 6.27245294965e-39
-0.030042073338 -0.0557924219134 0.773 6.54870212631e-39
-0.0286114984171 -0.0557924219134 0.773 6.64195433522e-39
-0.0271809234963 -0.0557924219134 0.773 7.19513932479e-39
-0.0256837241289 -0.0556480689459 0.771 7.19584277662e-39
-0.0242568505662 -0.0556480689459 0.771 7.38131023356e-39
-0.0227707552732 -0.0555037159785 0.769 7.10293248454e-39
-0.0212920626966 -0.0553593630111 0.767 7.19477218459e-39
-0.0198466823432 -0.0552871865274 0.766 7.28768948316e-39
-0.0184290621758 -0.0552871865274 0.766 7.28733495465e-39
-0.0170114420084 -0.0552871865274 0.766 7.10294369492e-39
-0.015593821841 -0.0552871865274 0.766 5.99587727045e-39
-0.0141762016737 -0.0552871865274 0.766 7.28517415242e-39
-0.0127585815063 -0.0552871865274 0.766 7.83798639659e-39
-0.0113409613389 -0.0552871865274 0.766 7.74866482988e-39
-0.0098974316646 -0.0551428335599 0.764 7.93197428719e-39
-0.00846130470654 -0.0549984805925 0.762 8.11351670714e-39
-0.00705108725545 -0.0549984805925 0.762 5.99231236716e-39
-0.00563346708808 -0.0549263041088 0.761 4.98315186379e-39
-0.00422510031606 -0.0549263041088 0.761 3.5105553336e-39
-0.00281673354404 -0.0549263041088 0.761 3.60059716773e-39
-0.00140836677202 -0.0549263041088 0.761 4.0590571837e-39
0.0 -0.0549263041088 0.761 6.54724477591e-39
0.00140466541388 -0.0547819511413 0.759 6.82454772902e-39
0.00280933082776 -0.0547819511413 0.759 6.18062025609e-39
0.00420289216722 -0.0546375981739 0.757 5.35230152344e-39
0.00560385622296 -0.0546375981739 0.757 5.7210840429e-39
0.00698631348801 -0.0544932452065 0.755 5.53741305058e-39
0.00838357618561 -0.0544932452065 0.755 6.08987076624e-39
0.00976788412972 -0.0544210687227 0.754 6.27318302615e-39
0.0111632961483 -0.0544210687227 0.754 5.90582842984e-39
0.0125253959435 -0.0542767157553 0.752 5.90582842984e-39
0.0139171066039 -0.0542767157553 0.752 5.35230152344e-39
0.0153088172643 -0.0542767157553 0.752 5.07571883775e-39
0.016656111627 -0.0541323627879 0.75 5.07464264053e-39
0.0180200621014 -0.0540601863042 0.749 5.62781641971e-39
0.0194062207246 -0.0540601863042 0.749 5.99659613656e-39
0.0207923793478 -0.0540601863042 0.749 5.62781081451e-39
0.0221193162407 -0.0539158333367 0.747 4.70693631829e-39
0.0235017735058 -0.0539158333367 0.747 4.79877601835e-39
0.0248509185475 -0.053843656853 0.746 4.42999630149e-39
0.0261611993289 -0.0536993038856 0.744 4.79878022224e-39
0.0275381045567 -0.0536993038856 0.744 4.79878022224e-39
0.0289150097845 -0.0536993038856 0.744 5.1675585378e-39
0.0302919150124 -0.0536993038856 0.744 5.16791026372e-39
0.0316688202402 -0.0536993038856 0.744 5.81363279997e-39
0.033045725468 -0.0536993038856 0.744 5.44341955479e-39
0.0344226306959 -0.0536993038856 0.744 5.4437740833e-39
0.0357995359237 -0.0536993038856 0.744 5.25973454949e-39
0.0371764411516 -0.0536993038856 0.744 5.07642228958e-39
0.0384497083515 -0.0535549509181 0.742 4.61474068843e-39
0.0398229122212 -0.0535549509181 0.742 3.13855263028e-39
0.0411961160909 -0.0535549509181 0.742 3.50770228993e-39
0.0425119489094 -0.0534827744344 0.741 3.59990072239e-39
0.0438833021 -0.0534827744344 0.741 2.68009962079e-39
0.0449492932442 -0.0531218920158 0.736 1.48120610795e-39
0.0463113930394 -0.0531218920158 0.736 4.70626789893e-39
-0.0810227296702 -0.0559793404994 0.796 2.35098856151e-38
-0.0795495891307 -0.0559793404994 0.796 2.35091681503e-38
-0.0782726205727 -0.0561199921087 0.798 2.35095268827e-38
-0.0769882492983 -0.056260643718 0.8 2.2958867033e-38
-0.0755077060426 -0.056260643718 0.8 3.13758433304e-39
-0.0740271627868 -0.056260643718 0.8 4.15311934312e-39
-0.0723652529823 -0.0561199921087 0.798 5.44488951688e-39
-0.0708884110847 -0.0561199921087 0.798 7.56285685741e-39
-0.0692376053545 -0.0559793404994 0.796 7.7458215953e-39
-0.0675942023407 -0.0558386888901 0.794 7.37705589143e-39
-0.0661247631593 -0.0558386888901 0.794 7.37849922884e-39
-0.0644924642199 -0.0556980372808 0.792 6.2725033964e-39
-0.0630267263967 -0.0556980372808 0.792 6.73383046903e-39
-0.0615609885735 -0.0556980372808 0.792 7.19408274574e-39
-0.0599434950666 -0.0555573856715 0.79 8.20823467424e-39
-0.0584814586016 -0.0555573856715 0.79 7.3791774573e-39
-0.0569472456528 -0.0554870598669 0.789 5.81185174962e-39
-0.0553464082576 -0.0553464082576 0.787 5.53526626133e-39
-0.0538899238298 -0.0553464082576 0.787 6.36467380289e-39
-0.0523001905089 -0.0552057566483 0.785 7.8398066833e-39
-0.0508474074392 -0.0552057566483 0.785 7.65541822617e-39
-0.0493946243695 -0.0552057566483 0.785 7.19443727426e-39
-0.0478196964812 -0.055065105039 0.783 6.91785038467e-39
-0.0462521713092 -0.0549244534297 0.781 7.00896701471e-39
-0.0448067909558 -0.0549244534297 0.781 7.8390780081e-39
-0.0433614106024 -0.0549244534297 0.781 6.91747343538e-39
-0.041862360556 -0.054854127625 0.78 6.54868811333e-39
-0.0403151928537 -0.0547134760158 0.778 7.00931593803e-39
-0.0388753645375 -0.0547134760158 0.778 7.47029548864e-39
-0.0373393009097 -0.0545728244065 0.776 7.47064721456e-39
-0.0358106399981 -0.0544321727972 0.774 7.10221642102e-39
-0.0343782143982 -0.0544321727972 0.774 6.91747343538e-39
-0.0329457887983 -0.0544321727972 0.774 6.82457295239e-39
-0.0315133631984 -0.0544321727972 0.774 7.47064301066e-39
-0.0300809375984 -0.0544321727972 0.774 7.1018731029e-39
-0.0286485119985 -0.0544321727972 0.774 7.01073405208e-39
-0.0272160863986 -0.0544321727972 0.774 6.45757708848e-39
-0.0257503485754 -0.0543618469925 0.773 5.35157565084e-39
-0.0243197736545 -0.0543618469925 0.773 6.55012444426e-39
-0.0227707552732 -0.0540805437739 0.769 7.37845999249e-39
-0.0213475830687 -0.0540805437739 0.769 7.65504688208e-39
-0.0198725918501 -0.0539398921646 0.767 7.37953058451e-39
-0.0184531210037 -0.0539398921646 0.767 7.47136187678e-39
-0.0170336501573 -0.0539398921646 0.767 7.37880050801e-39
-0.0156141793108 -0.0539398921646 0.767 6.36285351618e-39
-0.0141947084644 -0.0539398921646 0.767 7.46704587751e-39
-0.0127585815063 -0.05386956636 0.766 8.47940414397e-39
-0.0113409613389 -0.05386956636 0.766 4.0544020702e-39
-0.00992334117158 -0.05386956636 0.766 6.08162412478e-39
-0.00848351285537 -0.0537289147507 0.764 8.93683140298e-39
-0.00706959404614 -0.0537289147507 0.764 7.46314185998e-39
-0.00564086980436 -0.0535882631414 0.762 7.92910302664e-39
-0.00423065235327 -0.0535882631414 0.762 7.93267633772e-39
-0.00281673354404 -0.0535179373367 0.761 6.45576801216e-39
-0.00140836677202 -0.0535179373367 0.761 6.63871733577e-39
0.0 -0.0535179373367 0.761 4.24380437324e-39
0.00140836677202 -0.0535179373367 0.761 4.6129428225e-39
0.00280933082776 -0.0533772857275 0.759 3.41513251338e-39
0.00421399624164 -0.0533772857275 0.759 5.53561518465e-39
0.00560385622296 -0.0532366341182 0.757 6.45792881439e-39
0.0070048202787 -0.0532366341182 0.757 6.45684701198e-39
0.00840578433445 -0.0532366341182 0.757 5.71784003695e-39
0.00978083888321 -0.0530959825089 0.755 5.90115229686e-39
0.0111632961483 -0.0530256567042 0.754 5.71999523399e-39
0.0125587081668 -0.0530256567042 0.754 5.16826339093e-39
0.013972626976 -0.0530959825089 0.755 5.7210840429e-39
0.0153495322039 -0.0530256567042 0.754 5.90547950652e-39
0.0167449442224 -0.0530256567042 0.754 6.08951483643e-39
0.0181403562409 -0.0530256567042 0.754 5.81293074944e-39
0.0194839492455 -0.0528850050949 0.752 4.98316727807e-39
0.0208756599059 -0.0528850050949 0.752 4.42999349889e-39
0.0222673705663 -0.0528850050949 0.752 4.79913194816e-39
0.0235961581383 -0.0527443534856 0.75 5.53669418447e-39
0.0249508552173 -0.052674027681 0.749 5.62889261693e-39
0.0263370138405 -0.052674027681 0.749 5.25975416766e-39
0.0276491453009 -0.0525333760717 0.747 4.24560223917e-39
0.0290316025659 -0.0525333760717 0.747 4.52254505857e-39
0.030414059831 -0.0525333760717 0.747 3.69279139629e-39
0.031796517096 -0.0525333760717 0.747 5.26010589358e-39
0.0331789743611 -0.0525333760717 0.747 5.53561798725e-39
0.0345614316261 -0.0525333760717 0.747 5.53596971316e-39
0.0358957712353 -0.052463050267 0.746 5.25973454949e-39
0.0372763778213 -0.052463050267 0.746 5.16861651814e-39
0.0385533463794 -0.0523223986577 0.744 4.70728804421e-39
0.0399302516072 -0.0523223986577 0.744 3.23146152106e-39
0.0411961160909 -0.0521817470484 0.742 4.06157811964e-39
0.0425693199606 -0.0521817470484 0.742 3.50840293916e-39
0.0439425238303 -0.0521817470484 0.742 3.04887933765e-39
0.0453157277 -0.0521817470484 0.742 1.29681765082e-39
0.0466889315697 -0.0521817470484 0.742 5.62822419756e-39
-0.0810227296702 -0.05450619996 0.796 2.35098856151e-38
-0.0795495891307 -0.05450619996 0.796 2.35091681503e-38
-0.0782726205727 -0.0546431502111 0.798 2.35095268827e-38
-0.0769882492983 -0.0547801004623 0.8 2.29588656317e-38
-0.0755077060426 -0.0547801004623 0.8 6.08784448867e-39
-0.0740271627868 -0.0547801004623 0.8 2.40140237572e-39
-0.0725466195311 -0.0547801004623 0.8 5.90586766619e-39
-0.0708884110847 -0.0546431502111 0.798 7.65541262098e-39
-0.0692376053545 -0.05450619996 0.796 7.65434483155e-39
-0.0677644648151 -0.05450619996 0.796 6.17922876672e-39
-0.0661247631593 -0.0543692497088 0.794 6.73204941868e-39
-0.064655323978 -0.0543692497088 0.794 7.47032351461e-39
-0.0631858847967 -0.0543692497088 0.794 7.47067524053e-39
-0.0615609885735 -0.0542322994576 0.792 7.00969709121e-39
-0.0600952507504 -0.0542322994576 0.792 6.17958189393e-39
-0.0584814586016 -0.0540953492065 0.79 7.37882573139e-39
-0.0569472456528 -0.0540268740809 0.789 7.28698322874e-39
-0.0554870598669 -0.0540268740809 0.789 8.02419514043e-39
-0.0538899238298 -0.0538899238298 0.787 6.08809251849e-39
-0.0524334394019 -0.0538899238298 0.787 4.42821384985e-39
-0.0508474074392 -0.0537529735786 0.785 4.70480073944e-39
-0.0493946243695 -0.0537529735786 0.785 6.18028814836e-39
-0.0479418412998 -0.0537529735786 0.785 7.74761385603e-39
-0.0463706147697 -0.0536160233274 0.783 6.64054743156e-39
-0.0448067909558 -0.0534790730763 0.781 7.00968027563e-39
-0.0433614106024 -0.0534790730763 0.781 6.54905104963e-39
-0.041916030249 -0.0534790730763 0.781 7.01002919895e-39
-0.0404188308816 -0.0534105979507 0.78 7.28626436262e-39
-0.0388753645375 -0.0532736476996 0.778 6.64089775618e-39
-0.0374355362213 -0.0532736476996 0.778 6.73344511196e-39
-0.0359031739516 -0.0531366974484 0.776 6.54940557814e-39
-0.0344670469936 -0.0531366974484 0.776 7.37846279508e-39
-0.0330309200355 -0.0531366974484 0.776 6.73274446272e-39
-0.0315133631984 -0.0529997471972 0.774 7.56320297813e-39
-0.0300809375984 -0.0529997471972 0.774 7.00968027563e-39
-0.0287225391613 -0.0531366974484 0.776 6.27316901317e-39
-0.0272160863986 -0.0529997471972 0.774 7.28662169373e-39
-0.0257836607987 -0.0529997471972 0.774 6.82599386903e-39
-0.0243512351987 -0.0529997471972 0.774 7.56320858332e-39
-0.0228891987337 -0.0529312720717 0.773 6.5483489991e-39
-0.0214031034407 -0.0527943218205 0.771 6.08844284311e-39
-0.0199244108641 -0.0526573715693 0.769 6.64232007412e-39
-0.0185012386595 -0.0526573715693 0.769 7.37951517023e-39
-0.0170780664549 -0.0526573715693 0.769 7.37807323411e-39
-0.0156548942503 -0.0526573715693 0.769 6.36069551655e-39
-0.0141947084644 -0.0525204213182 0.767 7.73968951322e-39
-0.0127752376179 -0.0525204213182 0.767 1.01339130369e-38
-0.0113557667715 -0.0525204213182 0.767 5.79931152967e-39
-0.00993629592506 -0.0525204213182 0.767 5.4294430039e-39
-0.00851682507863 -0.0525204213182 0.767 6.71911403256e-39
-0.00708810083684 -0.0524519461926 0.766 6.99677992197e-39
-0.00567048066947 -0.0524519461926 0.766 9.30701522089e-39
-0.00424175642769 -0.0523149959415 0.764 7.28264901259e-39
-0.00282043490218 -0.0521780456903 0.762 7.09791163214e-39
-0.00141021745109 -0.0521780456903 0.762 8.20209278307e-39
0.0 -0.0521780456903 0.762 8.11242789824e-39
0.00141021745109 -0.0521780456903 0.762 7.28446929929e-39
0.00281673354404 -0.0521095705647 0.761 6.54726019019e-39
0.00422510031606 -0.0521095705647 0.761 5.90332150688e-39
0.00563346708808 -0.0521095705647 0.761 6.82527360162e-39
0.0070418338601 -0.0521095705647 0.761 7.74650402765e-39
0.00845020063212 -0.0521095705647 0.761 7.74613969005e-39
0.00983265789716 -0.0519726203136 0.759 6.91673495109e-39
0.0112077124459 -0.0518356700624 0.757 7.01108858059e-39
0.0125753642784 -0.0516987198113 0.755 5.72070989621e-39
0.013972626976 -0.0516987198113 0.755 5.7207141001e-39
0.0153698896736 -0.0516987198113 0.755 4.98279593398e-39
0.0167449442224 -0.0516302446857 0.754 4.24595676768e-39
0.0181403562409 -0.0516302446857 0.754 4.98352040529e-39
0.0195357682594 -0.0516302446857 0.754 6.27425922337e-39
0.020931180278 -0.0516302446857 0.754 6.27426202597e-39
0.0222673705663 -0.0514932944345 0.752 6.08878896383e-39
0.0236590812267 -0.0514932944345 0.752 5.53597251576e-39
0.0249841674406 -0.0513563441834 0.75 4.61401621713e-39
0.0263370138405 -0.0512878690578 0.749 4.70585451588e-39
0.0277231724637 -0.0512878690578 0.749 5.25902829506e-39
0.0291093310869 -0.0512878690578 0.749 5.35122392492e-39
0.03049548971 -0.0512878690578 0.749 5.16683546779e-39
0.031796517096 -0.0511509188066 0.747 5.81220487684e-39
0.0331789743611 -0.0511509188066 0.747 5.53526626133e-39
0.0345614316261 -0.0511509188066 0.747 5.81220487684e-39
0.0359438888912 -0.0511509188066 0.747 5.81290972996e-39
0.0373263461562 -0.0511509188066 0.747 5.62959606876e-39
0.0386569844073 -0.0510824436811 0.746 5.16791026372e-39
0.0400375909933 -0.0510824436811 0.746 3.96901534958e-39
0.0413071568351 -0.0509454934299 0.744 4.06192984555e-39
0.0426840620629 -0.0509454934299 0.744 3.32473194684e-39
0.0440609672907 -0.0509454934299 0.744 3.41801778691e-39
0.0454378725186 -0.0509454934299 0.744 1.48120750925e-39
0.0468147777464 -0.0509454934299 0.744 7.10335707797e-39
-0.0810227296702 -0.0530330594205 0.796 2.35098856151e-38
-0.0795495891307 -0.0530330594205 0.796 2.35091653477e-38
-0.0782726205727 -0.0531663083135 0.798 2.35095268827e-38
-0.0771807199216 -0.0534328060995 0.802 2.26833549393e-38
-0.0756964753077 -0.0534328060995 0.802 8.66932072354e-39
-0.0742122306938 -0.0534328060995 0.802 2.2173670458e-39
-0.0725466195311 -0.0532995572065 0.8 5.81366923373e-39
-0.0710660762754 -0.0532995572065 0.8 7.10332064421e-39
-0.0694115691871 -0.0531663083135 0.798 7.47067243793e-39
-0.0677644648151 -0.0530330594205 0.796 6.91714973543e-39
-0.0662913242756 -0.0530330594205 0.796 7.00898943549e-39
-0.064655323978 -0.0528998105275 0.794 7.10117665756e-39
-0.0631858847967 -0.0528998105275 0.794 6.91678259524e-39
-0.0617164456154 -0.0528998105275 0.794 6.91714553154e-39
-0.0602470064341 -0.0528998105275 0.794 7.47032351461e-39
-0.0586295129272 -0.0527665616345 0.792 8.11639637549e-39
-0.0570194221366 -0.0526333127414 0.79 5.71930439385e-39
-0.0554870598669 -0.0525666882949 0.789 6.64126349508e-39
-0.0540268740809 -0.0525666882949 0.789 6.73310459643e-39
-0.0524334394019 -0.0524334394019 0.787 7.47067243793e-39
-0.0509769549741 -0.0524334394019 0.787 7.5628652652e-39
-0.0495204705463 -0.0524334394019 0.787 6.8256575574e-39
-0.0479418412998 -0.0523001905089 0.785 4.79735089781e-39
-0.0463706147697 -0.0521669416159 0.783 5.07286719537e-39
-0.0449215330581 -0.0521669416159 0.783 6.5483489991e-39
-0.0434724513466 -0.0521669416159 0.783 7.93163657426e-39
-0.041916030249 -0.0520336927229 0.781 6.8252890159e-39
-0.0404188308816 -0.0519670682764 0.78 6.64054462896e-39
-0.0389753012073 -0.0519670682764 0.78 6.64054883286e-39
-0.0374355362213 -0.0518338193833 0.778 6.82493588869e-39
-0.0359031739516 -0.0517005704903 0.776 7.74724251194e-39
-0.0344670469936 -0.0517005704903 0.776 7.5625009276e-39
-0.0330309200355 -0.0517005704903 0.776 6.54800007578e-39
-0.0315947930774 -0.0517005704903 0.776 6.82564074182e-39
-0.0301586661194 -0.0517005704903 0.776 6.73274025883e-39
-0.0287225391613 -0.0517005704903 0.776 6.73379403527e-39
-0.0272864122032 -0.0517005704903 0.776 7.1018731029e-39
-0.0258502852452 -0.0517005704903 0.776 6.18027133278e-39
-0.0244141582871 -0.0517005704903 0.776 5.90333271727e-39
-0.0229188095988 -0.0515673215973 0.774 6.45650369385e-39
-0.0214863839989 -0.0515673215973 0.774 6.82635400274e-39
-0.020028048892 -0.0515006971508 0.773 7.19584277662e-39
-0.0185974739711 -0.0515006971508 0.773 7.37986549485e-39
-0.0171224827526 -0.0513674482578 0.771 7.00893058095e-39
-0.0156956091899 -0.0513674482578 0.771 7.28050502594e-39
-0.0142317220458 -0.0512341993648 0.769 5.24719432953e-39
-0.0128085498412 -0.0512341993648 0.769 9.48425845715e-39
-0.0113853776366 -0.0512341993648 0.769 6.99390585882e-39
-0.00996220543204 -0.0512341993648 0.769 7.17827750037e-39
-0.00851682507863 -0.0511009504718 0.767 7.729664624e-39
-0.00709735423219 -0.0511009504718 0.767 7.08430362275e-39
-0.00567788338575 -0.0511009504718 0.767 1.05016193591e-38
-0.0042528605021 -0.0510343260252 0.766 9.12190789765e-39
-0.00282783761846 -0.0509010771322 0.764 3.68167069168e-39
-0.00141391880923 -0.0509010771322 0.764 7.55278992924e-39
0.0 -0.0507678282392 0.762 7.55423186536e-39
0.00141021745109 -0.0507678282392 0.762 7.92373325092e-39
0.00282043490218 -0.0507678282392 0.762 7.92444651184e-39
0.00422510031606 -0.0507012037927 0.761 8.387574253e-39
0.00563346708808 -0.0507012037927 0.761 7.09862769565e-39
0.0070418338601 -0.0507012037927 0.761 7.37700544468e-39
0.00845020063212 -0.0507012037927 0.761 6.82562392624e-39
0.00985856740414 -0.0507012037927 0.761 6.73414576119e-39
0.011237323311 -0.0505679548997 0.759 6.82633158196e-39
0.0126086765017 -0.0504347060067 0.757 6.54974188977e-39
0.0140096405574 -0.0504347060067 0.757 6.54974469237e-39
0.0153698896736 -0.0503014571137 0.755 6.82669451826e-39
0.0167671523712 -0.0503014571137 0.755 6.36571917154e-39
0.0181403562409 -0.0502348326672 0.754 6.08949661955e-39
0.0195357682594 -0.0502348326672 0.754 5.25938002097e-39
0.020931180278 -0.0502348326672 0.754 4.61509241435e-39
0.0223265922965 -0.0502348326672 0.754 5.25938562617e-39
0.023722004315 -0.0502348326672 0.754 5.72036377549e-39
0.0250507918871 -0.0501015837741 0.752 6.08914349234e-39
0.0263721767428 -0.0499683348811 0.75 6.18133631961e-39
0.0277231724637 -0.0499017104346 0.749 6.27353194947e-39
0.0291093310869 -0.0499017104346 0.749 5.25938282357e-39
0.03049548971 -0.0499017104346 0.749 4.61365888602e-39
0.0318816483332 -0.0499017104346 0.749 4.24488197176e-39
0.0332678069564 -0.0499017104346 0.749 4.33637274849e-39
0.0345614316261 -0.0497684615416 0.747 5.07429091461e-39
0.0359438888912 -0.0497684615416 0.747 5.9043977041e-39
0.0373263461562 -0.0497684615416 0.747 5.35230292474e-39
0.0387088034212 -0.0497684615416 0.747 4.98316727807e-39
0.0400375909933 -0.0497018370951 0.746 3.78462829375e-39
0.0414181975792 -0.0497018370951 0.746 4.06193264815e-39
0.0426840620629 -0.0495685882021 0.744 3.78534435726e-39
0.0440609672907 -0.0495685882021 0.744 3.51021341678e-39
0.0454378725186 -0.0495685882021 0.744 9.28040736565e-40
0.0468147777464 -0.0495685882021 0.744 8.48629152592e-39
-0.0810227296702 -0.051559918881 0.796 2.35098856151e-38
-0.0795495891307 -0.051559918881 0.796 2.35091653477e-38
-0.0782726205727 -0.0516894664159 0.798 2.35098828126e-38
-0.0771807199216 -0.0519485614857 0.802 2.27751890342e-38
-0.0757908599402 -0.0520133352531 0.803 1.06054289507e-38
-0.0743047646473 -0.0520133352531 0.803 2.03297578607e-39
-0.0727279860799 -0.0519485614857 0.802 5.72147360387e-39
-0.0712437414661 -0.0519485614857 0.802 6.73490106106e-39
-0.0695855330196 -0.0518190139508 0.8 7.65578676767e-39
-0.0679347272895 -0.0516894664159 0.798 7.56251914448e-39
-0.0662913242756 -0.051559918881 0.796 7.37776354715e-39
-0.0648181837362 -0.051559918881 0.796 6.82386529666e-39
-0.0633450431967 -0.051559918881 0.796 7.00932995101e-39
-0.0617164456154 -0.0514303713462 0.794 7.37775794196e-39
-0.0602470064341 -0.0514303713462 0.794 7.37812508215e-39
-0.0587775672528 -0.0514303713462 0.794 7.01004881713e-39
-0.057163775104 -0.0513008238113 0.792 6.8256547548e-39
-0.0555573856715 -0.0511712762764 0.79 6.64126629767e-39
-0.0540953492065 -0.0511712762764 0.79 7.47066963533e-39
-0.0525666882949 -0.051106502509 0.789 7.28627837561e-39
-0.051106502509 -0.051106502509 0.789 6.73310459643e-39
-0.049646316723 -0.051106502509 0.789 7.01004881713e-39
-0.0480639861184 -0.0509769549741 0.787 7.65541542357e-39
-0.0466075016906 -0.0509769549741 0.787 7.93165058725e-39
-0.0451510172628 -0.0509769549741 0.787 6.73310459643e-39
-0.0435834920908 -0.0508474074392 0.785 6.27247817303e-39
-0.0421307090211 -0.0508474074392 0.785 4.98174215754e-39
-0.0405742879235 -0.0507178599043 0.783 7.10188991848e-39
-0.0390252695422 -0.0505883123695 0.781 6.73311020162e-39
-0.0375798891887 -0.0505883123695 0.781 7.83945495738e-39
-0.0360882418586 -0.050523538602 0.78 6.27247817303e-39
-0.0346447121842 -0.050523538602 0.78 6.73345632234e-39
-0.0332011825099 -0.050523538602 0.78 6.17993361985e-39
-0.0316762229565 -0.0503939910671 0.778 7.01039493785e-39
-0.0302363946403 -0.0503939910671 0.778 6.64019290305e-39
-0.0287965663241 -0.0503939910671 0.778 6.18027133278e-39
-0.0273567380079 -0.0503939910671 0.778 6.45579323553e-39
-0.0258502852452 -0.0502644435323 0.776 7.93126943407e-39
-0.0244141582871 -0.0502644435323 0.776 7.65468534707e-39
-0.022978031329 -0.0502644435323 0.776 7.19406032497e-39
-0.0214863839989 -0.0501348959974 0.774 7.10257655473e-39
-0.020053958399 -0.0501348959974 0.774 6.91925308443e-39
-0.0185974739711 -0.0500701222299 0.773 6.91960621164e-39
-0.0171668990503 -0.0500701222299 0.773 7.47027306787e-39
-0.0157363241294 -0.0500701222299 0.773 7.92552270906e-39
-0.0142687356272 -0.0499405746951 0.771 6.25992113749e-39
-0.0128418620644 -0.0499405746951 0.771 6.62477021215e-39
-0.0114149885017 -0.0499405746951 0.771 6.34781197847e-39
-0.00996220543204 -0.0498110271602 0.769 6.80875929922e-39
-0.00853903322746 -0.0498110271602 0.769 8.65052510724e-39
-0.00711586102289 -0.0498110271602 0.769 7.82078125405e-39
-0.00567788338575 -0.0496814796253 0.767 7.45665384809e-39
-0.00425841253931 -0.0496814796253 0.767 1.28061583798e-38
-0.00283524033474 -0.0496167058579 0.766 5.70603970258e-39
-0.00141391880923 -0.049487158323 0.764 7.64069478321e-39
0.0 -0.049487158323 0.764 1.05923800594e-38
0.00141391880923 -0.049487158323 0.764 7.73538752693e-39
0.00282043490218 -0.0493576107881 0.762 7.82830062161e-39
0.00423065235327 -0.0493576107881 0.762 7.00033221357e-39
0.00564086980436 -0.0493576107881 0.762 7.55529825349e-39
0.00705108725545 -0.0493576107881 0.762 6.82024574273e-39
0.00845020063212 -0.0492928370207 0.761 7.74471316821e-39
0.00985856740414 -0.0492928370207 0.761 7.83870246011e-39
0.0112669341762 -0.0492928370207 0.761 6.54687343182e-39
0.0126419887249 -0.0491632894858 0.759 6.82345751881e-39
0.0140466541388 -0.0491632894858 0.759 7.28551186535e-39
0.0154513195527 -0.0491632894858 0.759 7.28551186535e-39
0.0168115686689 -0.0490337419509 0.757 6.9174510146e-39
0.0181644150688 -0.0489041944161 0.755 7.01036971447e-39
0.0195616777664 -0.0489041944161 0.755 6.54975450146e-39
0.020958940464 -0.0489041944161 0.755 6.27316901317e-39
0.0223562031616 -0.0489041944161 0.755 6.54940697944e-39
0.023722004315 -0.0488394206486 0.754 5.62745068081e-39
0.0251174163336 -0.0488394206486 0.754 4.89024017041e-39
0.0264425025475 -0.0487098731137 0.752 5.16682285611e-39
0.0277601860451 -0.0485803255789 0.75 4.79840467426e-39
0.0291481953473 -0.0485803255789 0.75 5.53560397426e-39
0.0305362046496 -0.0485803255789 0.75 5.44305801978e-39
0.0318816483332 -0.0485155518114 0.749 5.90368164059e-39
0.0332678069564 -0.0485155518114 0.749 6.54906506262e-39
0.0346539655796 -0.0485155518114 0.749 5.44307063147e-39
0.0359438888912 -0.0483860042765 0.747 6.08879176643e-39
0.0373263461562 -0.0483860042765 0.747 5.81292794684e-39
0.0387088034212 -0.0483860042765 0.747 4.98281555216e-39
0.0400912606863 -0.0483860042765 0.747 3.13890856009e-39
0.0414737179513 -0.0483860042765 0.747 4.1537765521e-39
0.0427988041652 -0.0483212305091 0.746 4.70730205719e-39
0.0441794107512 -0.0483212305091 0.746 3.51021201548e-39
0.0455600173372 -0.0483212305091 0.746 1.20462342226e-39
0.0469406239231 -0.0483212305091 0.746 1.04223969505e-38
-0.0810227296702 -0.0500867783416 0.796 2.35098828126e-38
-0.0795495891307 -0.0500867783416 0.796 2.35091653477e-38
-0.0782726205727 -0.0502126245183 0.798 2.35098828126e-38
-0.0771807199216 -0.0504643168718 0.802 2.29588628291e-38
-0.0757908599402 -0.0505272399602 0.803 1.18965236986e-38
-0.0744898325543 -0.0506530861369 0.805 1.84858172375e-39
-0.0728186693543 -0.0505272399602 0.803 5.44488671428e-39
-0.0713325740614 -0.0505272399602 0.803 5.81366643114e-39
-0.0697594968522 -0.0504643168718 0.802 6.45796244555e-39
