# .PCD v0.7 - Point Cloud Data file format
VERSION 0.7
FIELDS x y z rgb
SIZE 4 4 4 4
TYPE F F F F
COUNT 1 1 1 1
WIDTH 842
HEIGHT 1
VIEWPOINT 0 0 0 1 0 0 0
POINTS 842
DATA ascii
0.0161638309945 -0.0749413982473 0.794 7.56608825167e-39
0.0176332701758 -0.0749413982473 0.794 3.60168877923e-39
0.019150827013 -0.0751301675124 0.796 5.53779840766e-39
0.0206239675524 -0.0751301675124 0.796 8.48876341641e-39
0.022152628464 -0.0753189367775 0.798 8.58202543441e-39
0.0236294703616 -0.0753189367775 0.798 9.50507194324e-39
0.0251063122592 -0.0753189367775 0.798 8.1228647692e-39
0.0266497786033 -0.0755077060426 0.8 7.10763384088e-39
0.0282006476636 -0.0756964753077 0.802 7.84483314089e-39
0.0297219058589 -0.0757908599402 0.803 8.95081215775e-39
0.0312080011519 -0.0757908599402 0.803 9.78056862263e-39
0.0326940964448 -0.0757908599402 0.803 9.50291394361e-39
0.034265322975 -0.0759796292053 0.805 7.84268775294e-39
0.035755119626 -0.0759796292053 0.805 8.21214289566e-39
0.0373374502306 -0.0761683984705 0.807 8.39653415538e-39
0.0389271835515 -0.0763571677356 0.809 9.68621499313e-39
0.0405243195886 -0.0765459370007 0.811 9.04084698539e-39
0.042128858342 -0.0767347062658 0.813 7.38275357098e-39
0.0437407998117 -0.0769234755309 0.815 8.02847470594e-39
0.0452491032535 -0.0769234755309 0.815 8.67421125518e-39
0.0468721487976 -0.077112244796 0.817 8.95009609424e-39
0.0485025970579 -0.0773010140611 0.819 9.87132792157e-39
0.050018303216 -0.0773010140611 0.819 9.59437249048e-39
0.0516598555508 -0.0774897833262 0.821 1.07007158449e-38
0.0533088106019 -0.0776785525913 0.823 9.31921632662e-39
0.0549651683692 -0.0778673218564 0.825 9.78055741224e-39
0.0566289288529 -0.0780560911215 0.827 1.09747958116e-38
0.0581594404435 -0.0780560911215 0.827 8.38505892226e-39
0.0598343050015 -0.0782448603866 0.829 6.34957060804e-39
0.0615165722759 -0.0784336296517 0.831 8.28032026984e-39
0.0630544865828 -0.0784336296517 0.831 8.64801818429e-39
0.0647478579315 -0.0786223989168 0.833 1.01220384337e-38
0.0664486319965 -0.0788111681819 0.835 1.02145689739e-38
0.0679939490197 -0.0788111681819 0.835 1.05840535439e-38
0.0697058271592 -0.078999937447 0.837 1.31673360525e-38
0.0712548455405 -0.078999937447 0.837 1.52910865518e-38
0.0728038639218 -0.078999937447 0.837 1.68598668073e-38
0.0745305474938 -0.0791887067122 0.839 1.57556352096e-38
0.0762646337821 -0.0793774759773 0.841 1.44656180602e-38
0.0781911906936 -0.0797550145075 0.845 1.72336449557e-38
0.0801325530377 -0.0801325530377 0.849 1.64078247383e-38
0.0818962501911 -0.0803213223028 0.851 1.38281505732e-38
0.0834711780794 -0.0803213223028 0.851 1.0419427599e-38
0.0853459159769 -0.0806044762005 0.854 9.49926636371e-39
0.0869263959024 -0.0806044762005 0.854 9.68296398069e-39
0.0885068758279 -0.0806044762005 0.854 9.6868848138e-39
0.0902983331674 -0.0807932454656 0.856 8.02880120848e-39
0.0920971932231 -0.0809820147307 0.858 7.75151366966e-39
0.0939034559951 -0.0811707839958 0.86 9.59436828659e-39
0.095495039995 -0.0811707839958 0.86 9.96279908012e-39
0.0973124068414 -0.0813595532609 0.862 1.01475420658e-38
0.0989076921995 -0.0813595532609 0.862 9.96385706046e-39
0.100502977558 -0.0813595532609 0.862 8.02845508776e-39
0.102335149837 -0.081548322526 0.864 9.87380821985e-39
0.103934136553 -0.081548322526 0.864 6.92212434498e-39
0.105899557725 -0.0818314764236 0.867 9.31425713136e-39
0.108000078469 -0.0822090149539 0.871 1.13393492123e-38
0.109612019938 -0.0822090149539 0.871 3.9629729506e-39
-0.0304621774868 -0.076155443717 0.823 2.35095268827e-38
-0.0289390686124 -0.076155443717 0.823 2.35098856151e-38
-0.0272827108451 -0.075785307903 0.819 2.30489102684e-38
-0.025767004687 -0.075785307903 0.819 1.76093681065e-38
-0.0241920767987 -0.0756002399961 0.817 6.36430806399e-39
-0.0226800719988 -0.0756002399961 0.817 1.19886100271e-38
-0.0211162481849 -0.0754151720891 0.815 8.11747257271e-39
-0.0195598270874 -0.0752301041821 0.813 1.04230765802e-38
-0.0179663924084 -0.0748599683682 0.809 6.73527660905e-39
-0.0164284781015 -0.0746749004612 0.807 6.82818690113e-39
-0.0148979665109 -0.0744898325543 0.805 8.21289118904e-39
-0.0133748576365 -0.0743047646473 0.803 7.56717005408e-39
-0.011873956911 -0.0742122306938 0.802 7.75121239049e-39
-0.0103897122971 -0.0742122306938 0.802 7.38171380752e-39
-0.00886105138558 -0.0738420948799 0.798 6.82925609186e-39
-0.00736570269729 -0.0736570269729 0.796 9.04123094117e-39
-0.00587775672528 -0.0734719590659 0.794 8.76499998139e-39
-0.00439721346954 -0.073286891159 0.792 9.50256221769e-39
-0.00292407293008 -0.073101823252 0.79 7.38206273084e-39
-0.00146018578597 -0.0730092892985 0.789 9.04122113208e-39
0.0 -0.0730092892985 0.789 8.48660121288e-39
0.00145648442783 -0.0728242213916 0.787 9.31671781146e-39
0.00291296885566 -0.0728242213916 0.787 5.07787403479e-39
0.00436945328349 -0.0728242213916 0.787 4.98782379287e-39
0.00582593771132 -0.0728242213916 0.787 1.19031980832e-38
0.00730092892985 -0.0730092892985 0.789 8.30719997699e-39
0.00876111471582 -0.0730092892985 0.789 9.13552711743e-39
0.0102213005018 -0.0730092892985 0.789 1.0699627036e-38
0.0116962917203 -0.073101823252 0.79 5.44449715331e-39
0.0131916404086 -0.073286891159 0.792 5.07643490126e-39
0.0146943918132 -0.0734719590659 0.794 4.98496234141e-39
0.016204545934 -0.0736570269729 0.796 8.11926203085e-39
0.0176776864735 -0.0736570269729 0.796 9.96354316961e-39
0.019150827013 -0.0736570269729 0.796 9.68695347742e-39
0.0206757865664 -0.0738420948799 0.798 9.04228611891e-39
0.022152628464 -0.0738420948799 0.798 7.10759740712e-39
0.0236294703616 -0.0738420948799 0.798 6.92394463169e-39
0.0251692353475 -0.0740271627868 0.8 7.75335497584e-39
0.0267164030498 -0.0742122306938 0.802 9.3199632187e-39
0.028235810566 -0.0743047646473 0.803 8.48947807863e-39
0.0297219058589 -0.0743047646473 0.803 7.65970619947e-39
0.0312080011519 -0.0743047646473 0.803 7.65970339687e-39
0.0327755263239 -0.0744898325543 0.805 8.02742092949e-39
0.034265322975 -0.0744898325543 0.805 9.86954967382e-39
0.0358439522214 -0.0746749004612 0.807 8.76354122968e-39
0.0374299841841 -0.0748599683682 0.809 9.40961689315e-39
0.0390234188631 -0.0750450362752 0.811 7.38202629708e-39
0.0406242562583 -0.0752301041821 0.813 8.21143523993e-39
0.0422324963699 -0.0754151720891 0.815 9.50254820471e-39
0.0438481391977 -0.0756002399961 0.817 9.13341395934e-39
0.0453601439976 -0.0756002399961 0.817 9.59474383457e-39
0.0469868908999 -0.075785307903 0.819 9.22738503436e-39
0.0485025970579 -0.075785307903 0.819 9.31815694498e-39
0.0501404480346 -0.07597037581 0.821 1.00549989139e-38
0.0516598555508 -0.07597037581 0.821 9.04262943703e-39
0.0534383581368 -0.0763405116239 0.825 8.9515015966e-39
0.0549651683692 -0.0763405116239 0.825 9.59723254065e-39
0.0566289288529 -0.0765255795309 0.827 1.08847553788e-38
0.0583000920528 -0.0767106474379 0.829 7.09720677901e-39
0.0598343050015 -0.0767106474379 0.829 6.7198118792e-39
0.0615165722759 -0.0768957153448 0.831 8.00516971118e-39
0.0630544865828 -0.0768957153448 0.831 9.38629788541e-39
0.0649033149734 -0.0772658511588 0.835 9.66178335441e-39
0.0664486319965 -0.0772658511588 0.835 1.122908524e-38
0.0681568087778 -0.0774509190657 0.837 1.1415623289e-38
0.0697058271592 -0.0774509190657 0.837 1.7595966088e-38
0.0714251080149 -0.0776359869727 0.839 1.39117422305e-38
0.0729778277543 -0.0776359869727 0.839 1.88935516504e-38
0.0747082126845 -0.0778210548797 0.841 1.47479488722e-38
0.0764460003309 -0.0780061227866 0.843 1.4840524254e-38
0.0783762586006 -0.0783762586006 0.847 1.29984039174e-38
0.0801325530377 -0.0785613265075 0.849 1.07889289846e-38
0.0818962501911 -0.0787463944145 0.851 1.11584471857e-38
0.0834711780794 -0.0787463944145 0.851 9.03902669868e-39
0.0853459159769 -0.079023996275 0.854 1.04223072674e-38
0.0869263959024 -0.079023996275 0.854 9.40675123779e-39
0.0887141518838 -0.0792090641819 0.856 7.01323256724e-39
0.0902983331674 -0.0792090641819 0.856 1.08861622824e-38
0.0920971932231 -0.0793941320889 0.858 1.01482511228e-38
0.0939034559951 -0.0795791999959 0.86 9.22487110492e-39
0.095495039995 -0.0795791999959 0.86 8.57950449847e-39
0.0973124068414 -0.0797642679028 0.862 1.01468274035e-38
0.0989076921995 -0.0797642679028 0.862 9.77839380741e-39
0.10073616312 -0.0799493358098 0.864 8.02738449573e-39
0.102690480218 -0.0802269376702 0.867 7.56749935922e-39
0.104295018971 -0.0802269376702 0.867 9.68694226703e-39
0.106143847362 -0.0804120055772 0.869 2.27744645629e-38
-0.0304621774868 -0.0746323348426 0.823 2.35088094179e-38
-0.0289390686124 -0.0746323348426 0.823 2.35095268827e-38
-0.0273493352916 -0.0744509682938 0.821 2.35091681503e-38
-0.025767004687 -0.074269601745 0.819 1.41059341717e-38
-0.024251298529 -0.074269601745 0.819 8.20857799237e-39
-0.0226800719988 -0.0740882351961 0.817 9.03834706893e-39
-0.0211162481849 -0.0739068686473 0.815 1.06978712091e-38
-0.0195598270874 -0.0737255020985 0.813 9.31673182445e-39
-0.018010808706 -0.0735441355497 0.811 1.04227458738e-38
-0.016469193041 -0.0733627690008 0.809 7.47355771147e-39
-0.0149349800922 -0.073181402452 0.807 6.09239450478e-39
-0.0134081698598 -0.0730000359032 0.805 6.64521655804e-39
-0.0118887623436 -0.0728186693543 0.803 7.10692057997e-39
-0.0103897122971 -0.0727279860799 0.802 7.10692057997e-39
-0.00888325953442 -0.0725466195311 0.8 6.2771599112e-39
-0.00738420948799 -0.0723652529823 0.798 7.10584158015e-39
-0.00589256215783 -0.0721838864334 0.796 8.11963057234e-39
-0.00440831754396 -0.0720025198846 0.794 6.82817008555e-39
-0.00293147564636 -0.0718211533358 0.792 8.67135961281e-39
-0.00146203646504 -0.071639786787 0.79 8.48696835308e-39
0.0 -0.0715491035126 0.789 8.76319230637e-39
0.00146018578597 -0.0715491035126 0.789 7.28806222855e-39
0.00292037157194 -0.0715491035126 0.789 5.26226809711e-39
0.00438055735791 -0.0715491035126 0.789 5.81758586294e-39
0.00584074314388 -0.0715491035126 0.789 1.04284239351e-38
0.00730092892985 -0.0715491035126 0.789 1.07042835508e-38
0.00876111471582 -0.0715491035126 0.789 9.04332868497e-39
0.0102342552553 -0.071639786787 0.79 1.05155903048e-38
0.0116962917203 -0.071639786787 0.79 8.85608858546e-39
0.0132249526319 -0.0720025198846 0.794 9.87060625286e-39
0.0147314053946 -0.0721838864334 0.796 1.03323060709e-38
0.016204545934 -0.0721838864334 0.796 8.39584751914e-39
0.0176776864735 -0.0721838864334 0.796 7.28986710098e-39
0.0191989446688 -0.0723652529823 0.798 7.47461148791e-39
0.0206757865664 -0.0723652529823 0.798 8.12068154619e-39
0.0222081488361 -0.0725466195311 0.8 8.4912395108e-39
0.0236886920918 -0.0725466195311 0.8 1.05195657886e-38
0.0252321584359 -0.0727279860799 0.802 8.02957892913e-39
0.0267164030498 -0.0727279860799 0.802 8.12069555917e-39
0.028235810566 -0.0728186693543 0.803 7.93629589166e-39
0.0297219058589 -0.0728186693543 0.803 9.04227490852e-39
0.0312857296728 -0.0730000359032 0.805 9.77876094761e-39
0.0327755263239 -0.0730000359032 0.805 9.40891344132e-39
0.0343504542122 -0.073181402452 0.807 8.20966539997e-39
0.0359327848167 -0.0733627690008 0.809 8.57950449847e-39
0.0375225181376 -0.0735441355497 0.811 9.31706673478e-39
0.0391196541747 -0.0737255020985 0.813 1.04230611659e-38
0.0407241929281 -0.0739068686473 0.815 9.40927357503e-39
0.0422324963699 -0.0739068686473 0.815 8.48732007899e-39
0.0438481391977 -0.0740882351961 0.817 7.84302406457e-39
0.0454711847418 -0.074269601745 0.819 9.59509836309e-39
0.0469868908999 -0.074269601745 0.819 1.07936415513e-38
0.0486210405184 -0.0744509682938 0.821 9.59439210866e-39
0.0501404480346 -0.0744509682938 0.821 1.01468386139e-38
0.0517857017275 -0.0746323348426 0.823 9.96458293307e-39
0.0534383581368 -0.0748137013915 0.825 9.96636398342e-39
0.0550984172622 -0.0749950679403 0.827 8.58415540807e-39
0.056765879104 -0.0751764344891 0.829 1.17163111109e-38
0.0584407436621 -0.0753578010379 0.831 5.80719523483e-39
0.059978657969 -0.0753578010379 0.831 7.09005034775e-39
0.0615165722759 -0.0753578010379 0.831 7.45342385513e-39
0.0632062422665 -0.0755391675868 0.833 7.727481401e-39
0.0649033149734 -0.0757205341356 0.835 9.38556080242e-39
0.0666077903965 -0.0759019006844 0.837 1.13213018893e-38
0.0681568087778 -0.0759019006844 0.837 1.16000355682e-38
0.0698723882754 -0.0760832672332 0.839 1.66758160631e-38
0.0714251080149 -0.0760832672332 0.839 1.52057068377e-38
0.0731517915869 -0.0762646337821 0.841 1.45646450201e-38
0.0748858778752 -0.0764460003309 0.843 1.12499071339e-38
0.0766273668797 -0.0766273668797 0.845 1.02368678364e-38
0.0785613265075 -0.0769900999774 0.849 8.76316988559e-39
0.0801325530377 -0.0769900999774 0.849 9.04189936053e-39
0.0818962501911 -0.0771714665262 0.851 7.84338139568e-39
0.0834711780794 -0.0771714665262 0.851 9.31742967108e-39
0.0853459159769 -0.0774435163495 0.854 9.22557595804e-39
0.0869263959024 -0.0774435163495 0.854 1.0237246187e-38
0.0887141518838 -0.0776248828983 0.856 1.06078223684e-38
0.0902983331674 -0.0776248828983 0.856 9.13304121395e-39
0.0920971932231 -0.0778062494471 0.858 7.7497438297e-39
0.0939034559951 -0.0779876159959 0.86 9.87023771136e-39
0.095495039995 -0.0779876159959 0.86 9.96171167252e-39
0.0973124068414 -0.0781689825448 0.862 1.09758607984e-38
0.0989076921995 -0.0781689825448 0.862 1.03308473192e-38
0.10073616312 -0.0783503490936 0.864 8.67060711553e-39
0.102690480218 -0.0786223989168 0.867 7.65934326317e-39
0.10453560725 -0.0788037654657 0.869 8.67138483618e-39
-0.0305362046496 -0.073286891159 0.825 2.29563488997e-38
-0.0290093944171 -0.073286891159 0.825 2.35098856151e-38
-0.0274159597381 -0.0731092259683 0.823 2.34173326542e-38
-0.0258299277754 -0.0729315607776 0.821 1.45658529394e-38
-0.024251298529 -0.0727538955869 0.819 7.10222763141e-39
-0.0227355923709 -0.0727538955869 0.819 8.85501238824e-39
-0.0211162481849 -0.0723985652055 0.815 9.59259984792e-39
-0.0195598270874 -0.0722209000148 0.813 1.03301817024e-38
-0.018010808706 -0.0720432348242 0.811 9.50114550495e-39
-0.016469193041 -0.0718655696335 0.809 8.94832064909e-39
-0.0149349800922 -0.0716879044428 0.807 9.6855115413e-39
-0.0134081698598 -0.0715102392521 0.805 8.20966259738e-39
-0.0118887623436 -0.0713325740614 0.803 8.02492521693e-39
-0.0104026670506 -0.0713325740614 0.803 8.02528535063e-39
-0.00888325953442 -0.0710660762754 0.8 8.11783270641e-39
-0.00738420948799 -0.0708884110847 0.798 7.65720488171e-39
-0.00589256215783 -0.070710745894 0.796 7.10438282845e-39
-0.00440831754396 -0.0705330807033 0.794 7.38096971804e-39
-0.00293147564636 -0.0703554155126 0.792 7.65755941022e-39
-0.00146203646504 -0.0701777503219 0.79 9.50147481009e-39
0.0 -0.0701777503219 0.79 8.76427831268e-39
0.00146018578597 -0.0700889177266 0.789 7.93523370742e-39
0.00292037157194 -0.0700889177266 0.789 4.15663940486e-39
0.00438055735791 -0.0700889177266 0.789 6.92393202e-39
0.00584074314388 -0.0700889177266 0.789 1.11659973818e-38
0.0073101823252 -0.0701777503219 0.79 9.41391607684e-39
0.00877221879024 -0.0701777503219 0.79 8.2142966914e-39
0.0102342552553 -0.0701777503219 0.79 9.31921072143e-39
0.0117259025854 -0.0703554155126 0.792 7.28912581409e-39
0.0132249526319 -0.0705330807033 0.794 7.38134386473e-39
0.0147314053946 -0.070710745894 0.796 7.9345204465e-39
0.016204545934 -0.070710745894 0.796 8.30507841111e-39
0.0177221027712 -0.0708884110847 0.798 8.95044501756e-39
0.0191989446688 -0.0708884110847 0.798 8.7657160449e-39
0.0207276055803 -0.0710660762754 0.8 7.93560365022e-39
0.0222636692081 -0.0712437414661 0.802 8.1217717564e-39
0.023747913822 -0.0712437414661 0.802 7.65934326317e-39
0.0252321584359 -0.0712437414661 0.802 9.41035537744e-39
0.026749715273 -0.0713325740614 0.803 9.68764712016e-39
0.028235810566 -0.0713325740614 0.803 7.7511983775e-39
0.0297959330217 -0.0715102392521 0.805 7.66005932668e-39
0.0312857296728 -0.0715102392521 0.805 7.93558963723e-39
0.0328569562029 -0.0716879044428 0.807 9.40999944763e-39
0.0344355854494 -0.0718655696335 0.809 8.57881505962e-39
0.0360216174121 -0.0720432348242 0.811 8.67206446593e-39
0.0376150520911 -0.0722209000148 0.813 7.28985028539e-39
0.0391196541747 -0.0722209000148 0.813 8.49020254993e-39
0.0407241929281 -0.0723985652055 0.815 8.58167791239e-39
0.0423361343978 -0.0725762303962 0.817 9.59474383457e-39
0.0439554785838 -0.0727538955869 0.819 9.7784078204e-39
0.0454711847418 -0.0727538955869 0.819 5.72288190883e-39
0.0471016330022 -0.0729315607776 0.821 3.51091406601e-39
0.0486210405184 -0.0729315607776 0.821 9.50468658617e-39
0.0501404480346 -0.0729315607776 0.821 9.68837299277e-39
0.0517857017275 -0.0731092259683 0.823 1.01497014667e-38
0.0535679056716 -0.0734645563497 0.827 9.50433766285e-39
0.0550984172622 -0.0734645563497 0.827 9.77841062299e-39
0.056765879104 -0.0736422215403 0.829 1.10651837664e-38
0.0584407436621 -0.073819886731 0.831 6.07946892774e-39
0.059978657969 -0.073819886731 0.831 9.48604931659e-39
0.0616646266014 -0.0739975519217 0.833 6.98956463618e-39
0.0633579979502 -0.0741752171124 0.835 8.27921324406e-39
0.0649033149734 -0.0741752171124 0.835 1.12330565199e-38
0.0666077903965 -0.0743528823031 0.837 9.8547827906e-39
0.068319668536 -0.0745305474938 0.839 9.95092727953e-39
0.0698723882754 -0.0745305474938 0.839 1.2076453224e-38
0.0715953704893 -0.0747082126845 0.841 1.06956739731e-38
0.0733257554194 -0.0748858778752 0.843 1.08818630987e-38
0.0750635430659 -0.0750635430659 0.845 9.4110378098e-39
0.0766273668797 -0.0750635430659 0.845 9.87310056412e-39
0.0785613265075 -0.0754188734472 0.849 9.59723534324e-39
0.0801325530377 -0.0754188734472 0.849 7.84551557324e-39
0.0818962501911 -0.0755965386379 0.851 8.49053465767e-39
0.0834711780794 -0.0755965386379 0.851 1.1070933294e-38
0.0853459159769 -0.075863036424 0.854 1.02393719567e-38
0.0869263959024 -0.075863036424 0.854 8.48586693249e-39
0.0887141518838 -0.0760407016146 0.856 8.9464779416e-39
0.0905093105813 -0.0762183668053 0.858 9.5003705869e-39
0.0920971932231 -0.0762183668053 0.858 1.12517316245e-38
0.0939034559951 -0.076396031996 0.86 1.04226912231e-38
0.095495039995 -0.076396031996 0.86 1.00546289711e-38
0.0973124068414 -0.0765736971867 0.862 1.07925485385e-38
0.0991371764041 -0.0767513623774 0.864 1.00560526903e-38
0.101085941465 -0.0770178601634 0.867 7.93662799939e-39
0.102690480218 -0.0770178601634 0.867 5.63535540545e-39
0.10453560725 -0.0771955253541 0.869 1.41138010613e-38
-0.0306102318124 -0.071934044759 0.827 2.350988001e-38
-0.0290797202217 -0.071934044759 0.827 2.33254915528e-38
-0.0274159597381 -0.0715861170939 0.823 2.35095268827e-38
-0.0258928508638 -0.0715861170939 0.823 1.34591536551e-38
-0.0243105202592 -0.0714121532614 0.821 7.10259056771e-39
-0.022791112743 -0.0714121532614 0.821 5.81255380015e-39
-0.0211680671989 -0.0710642255963 0.817 9.4085715245e-39
-0.0196079447432 -0.0708902617637 0.815 9.50114270235e-39
-0.0180552250037 -0.0707162979312 0.813 8.67138063228e-39
-0.0165099079805 -0.0705423340987 0.811 9.77735684655e-39
-0.0149719936736 -0.0703683702661 0.809 1.06067489738e-38
-0.013441482083 -0.0701944064336 0.807 9.40748271559e-39
-0.0119183732087 -0.070020442601 0.805 8.11604184697e-39
-0.0104026670506 -0.0698464787685 0.803 7.47067243793e-39
-0.00890546768326 -0.0697594968522 0.802 7.65649162079e-39
-0.00740271627868 -0.0695855330196 0.8 7.74903617397e-39
-0.00589256215783 -0.0692376053545 0.796 7.19693438812e-39
-0.00441942161837 -0.0692376053545 0.796 7.38132424655e-39
-0.00293887836264 -0.069063641522 0.794 6.91999156872e-39
-0.00146203646504 -0.0687157138569 0.79 8.67279033854e-39
0.0 -0.0687157138569 0.79 8.85719000605e-39
0.00146203646504 -0.0687157138569 0.79 8.12069976307e-39
0.00292037157194 -0.0686287319406 0.789 4.06551997222e-39
0.00438055735791 -0.0686287319406 0.789 6.55586836666e-39
0.00584814586016 -0.0687157138569 0.79 1.04284351455e-38
0.0073101823252 -0.0687157138569 0.79 8.4919639821e-39
0.00877221879024 -0.0687157138569 0.79 8.49088778488e-39
0.0102601647623 -0.0688896776894 0.792 9.50396772005e-39
0.0117259025854 -0.0688896776894 0.792 9.31815414239e-39
0.0132582648551 -0.0692376053545 0.796 9.22525926459e-39
0.014768418976 -0.0694115691871 0.798 8.76427831268e-39
0.0162452608736 -0.0694115691871 0.798 7.5675133722e-39
0.0177221027712 -0.0694115691871 0.798 6.83066159422e-39
0.0191989446688 -0.0694115691871 0.798 8.67351761244e-39
0.0207794245943 -0.0697594968522 0.802 8.39730486954e-39
0.0222636692081 -0.0697594968522 0.802 8.58204785518e-39
0.0237775246871 -0.0698464787685 0.803 8.67243440873e-39
0.0252636199801 -0.0698464787685 0.803 9.13268948804e-39
0.026749715273 -0.0698464787685 0.803 7.84408624881e-39
0.0283061363706 -0.070020442601 0.805 9.13448174877e-39
0.0297959330217 -0.070020442601 0.805 8.48983120584e-39
0.0313634581937 -0.0701944064336 0.807 8.30438616967e-39
0.0328569562029 -0.0701944064336 0.807 8.9486695724e-39
0.0345207166866 -0.0705423340987 0.811 7.84232201404e-39
0.0360216174121 -0.0705423340987 0.811 8.57951570886e-39
0.0376150520911 -0.0707162979312 0.813 9.50291394361e-39
0.0392158894863 -0.0708902617637 0.815 9.41252458747e-39
0.0407241929281 -0.0708902617637 0.815 6.27751303841e-39
0.0423361343978 -0.0710642255963 0.817 4.70874119072e-39
0.0439554785838 -0.0712381894288 0.819 8.67134840242e-39
0.0454711847418 -0.0712381894288 0.819 8.11926062955e-39
0.0471016330022 -0.0714121532614 0.821 1.02419251225e-38
0.0486210405184 -0.0714121532614 0.821 8.9518631316e-39
0.0502625928532 -0.0715861170939 0.823 8.67385532537e-39
0.0519115479043 -0.0717600809265 0.825 6.83065879162e-39
0.0536974532065 -0.0721080085916 0.829 9.59546270069e-39
0.0552316661553 -0.0721080085916 0.829 1.1528336731e-38
0.056765879104 -0.0721080085916 0.829 1.16176358769e-38
0.0584407436621 -0.0722819724241 0.831 5.06531419665e-39
0.0601230109364 -0.0724559362567 0.833 1.09622485851e-38
0.061812680927 -0.0726299000892 0.835 4.96378031382e-39
0.0633579979502 -0.0726299000892 0.835 9.94268624327e-39
0.0650587720152 -0.0728038639218 0.837 9.48601008023e-39
0.0667669487965 -0.0729778277543 0.839 1.18888333726e-38
0.0684825282941 -0.0731517915869 0.841 1.24459560108e-38
0.0700389493917 -0.0731517915869 0.841 1.10658984286e-38
0.0717656329637 -0.0733257554194 0.843 1.0237579696e-38
0.073499719252 -0.073499719252 0.845 1.0514886853e-38
0.0752412082565 -0.0736736830845 0.847 8.76640268115e-39
0.0768087334286 -0.0736736830845 0.847 7.29199146945e-39
0.0785613265075 -0.0738476469171 0.849 9.59796121585e-39
0.0801325530377 -0.0738476469171 0.849 9.50468658617e-39
0.0818962501911 -0.0740216107496 0.851 1.06103152784e-38
0.0834711780794 -0.0740216107496 0.851 8.5805722879e-39
0.0853459159769 -0.0742825564985 0.854 9.13158806744e-39
0.0869263959024 -0.0742825564985 0.854 1.07893115391e-38
0.0887141518838 -0.074456520331 0.856 1.07896618637e-38
0.0905093105813 -0.0746304841636 0.858 1.10673305557e-38
0.0923118719952 -0.0748044479961 0.86 1.09751461362e-38
0.0941218361253 -0.0749784118287 0.862 1.03301424661e-38
0.0957171214834 -0.0749784118287 0.862 1.07918436854e-38
0.0975381896879 -0.0751523756612 0.864 1.06085216164e-38
0.0994814027111 -0.07541332141 0.867 1.01489713902e-38
0.101085941465 -0.07541332141 0.867 8.12101925912e-39
0.102690480218 -0.07541332141 0.867 3.42374769633e-39
0.10453560725 -0.0755872852426 0.869 1.73417271063e-38
-0.0306102318124 -0.0704035331684 0.827 2.350988001e-38
-0.0290797202217 -0.0704035331684 0.827 2.35098828126e-38
-0.0274825841846 -0.070233270694 0.825 2.35095268827e-38
-0.0259557739521 -0.070233270694 0.825 1.24453590577e-38
-0.0243697419894 -0.0700630082196 0.823 7.65649442339e-39
-0.022791112743 -0.0698927457452 0.821 1.01468386139e-38
-0.0211680671989 -0.0695522207964 0.817 7.10440524922e-39
-0.019656062399 -0.0695522207964 0.817 7.75014460106e-39
-0.0180552250037 -0.0692116958476 0.813 8.48806136588e-39
-0.0165506229201 -0.0692116958476 0.813 9.31817095797e-39
-0.015009007255 -0.0690414333731 0.811 1.00553688567e-38
-0.0134747943063 -0.0688711708987 0.809 1.03312354789e-38
-0.0119183732087 -0.0685306459499 0.805 9.8688350116e-39
-0.0104026670506 -0.0683603834755 0.803 8.76248605194e-39
-0.00890546768326 -0.0682752522383 0.802 7.10331503902e-39
-0.00740271627868 -0.0681049897639 0.8 7.56536097776e-39
-0.00589256215783 -0.0677644648151 0.796 7.93449802573e-39
-0.00441942161837 -0.0677644648151 0.796 7.19800918404e-39
-0.00293887836264 -0.0675942023407 0.794 5.90727316855e-39
-0.00146573782318 -0.0674239398663 0.792 7.19765465553e-39
0.0 -0.0672536773918 0.79 9.31780521907e-39
0.00146203646504 -0.0672536773918 0.79 7.75119697621e-39
0.00292407293008 -0.0672536773918 0.79 3.42015476707e-39
0.00438610939512 -0.0672536773918 0.79 7.29343480687e-39
0.00584814586016 -0.0672536773918 0.79 1.00596554287e-38
0.0073286891159 -0.0674239398663 0.792 9.04478463407e-39
0.00879442693908 -0.0674239398663 0.792 8.6749231148e-39
0.0102601647623 -0.0674239398663 0.792 8.95007787736e-39
0.0117555134506 -0.0675942023407 0.794 7.65828388153e-39
0.0132582648551 -0.0677644648151 0.796 8.02706640098e-39
0.014768418976 -0.0679347272895 0.798 8.76569922932e-39
0.0162452608736 -0.0679347272895 0.798 8.48911514233e-39
0.0177221027712 -0.0679347272895 0.798 8.58131357479e-39
0.0192470623246 -0.0681049897639 0.8 8.85826059808e-39
0.0208053341012 -0.0683603834755 0.803 7.38313472416e-39
0.0222914293942 -0.0683603834755 0.803 8.4887760281e-39
0.0237775246871 -0.0683603834755 0.803 8.67278753594e-39
0.0253265430684 -0.0685306459499 0.805 1.01479176138e-38
0.0268163397195 -0.0685306459499 0.805 8.39693352545e-39
0.0283764621753 -0.0687009084243 0.807 7.75299484214e-39
0.0298699601845 -0.0687009084243 0.807 7.38420671749e-39
0.0314411867146 -0.0688711708987 0.809 8.02920478244e-39
0.032938386082 -0.0688711708987 0.809 9.7795008332e-39
0.0345207166866 -0.0690414333731 0.811 9.31710036594e-39
0.0361104500074 -0.0692116958476 0.813 8.21037866089e-39
0.0376150520911 -0.0692116958476 0.813 4.06337318297e-39
0.0392158894863 -0.069381958322 0.815 7.66081042266e-39
0.0408241295979 -0.0695522207964 0.817 7.84448281627e-39
0.0423361343978 -0.0695522207964 0.817 1.10695249891e-38
0.0439554785838 -0.0697224832708 0.819 1.12524743127e-38
0.045582225486 -0.0698927457452 0.821 7.56573512445e-39
0.0471016330022 -0.0698927457452 0.821 7.47534857091e-39
0.0487394839789 -0.0700630082196 0.823 8.58236735123e-39
0.0503847376718 -0.070233270694 0.825 9.68621219053e-39
0.052037394081 -0.0704035331684 0.827 9.5954472864e-39
0.0536974532065 -0.0705737956428 0.829 9.96388088254e-39
0.0552316661553 -0.0705737956428 0.829 1.05152609997e-38
0.0569028293552 -0.0707440581172 0.831 1.07893115391e-38
0.0585813952714 -0.0709143205917 0.833 3.68489928334e-39
0.0601230109364 -0.0709143205917 0.833 1.34551165142e-38
0.061812680927 -0.0710845830661 0.835 6.90813658371e-39
0.0633579979502 -0.0710845830661 0.835 1.24413051012e-38
0.0650587720152 -0.0712548455405 0.837 1.23516177956e-38
0.0667669487965 -0.0714251080149 0.839 1.23541275212e-38
0.0684825282941 -0.0715953704893 0.841 1.01439463339e-38
0.070205510508 -0.0717656329637 0.843 1.00539087037e-38
0.0719358954381 -0.0719358954381 0.845 8.7638957582e-39
0.073499719252 -0.0719358954381 0.845 8.67206306463e-39
0.0752412082565 -0.0721061579125 0.847 9.3188758111e-39
0.0769900999774 -0.0722764203869 0.849 9.87276565379e-39
0.0785613265075 -0.0722764203869 0.849 1.08869175823e-38
0.0803213223028 -0.0724466828613 0.851 7.19872805015e-39
0.0818962501911 -0.0724466828613 0.851 9.77876375021e-39
0.0837654360515 -0.072702076573 0.854 1.01453854674e-38
0.0853459159769 -0.072702076573 0.854 1.1802747404e-38
0.0871299706001 -0.0728723390474 0.856 1.1156654925e-38
0.0889214279396 -0.0730426015218 0.858 1.06063496038e-38
0.0907202879953 -0.0732128639962 0.86 1.07911037998e-38
0.0923118719952 -0.0732128639962 0.86 9.59221168825e-39
0.0941218361253 -0.0733831264706 0.862 1.01457540089e-38
0.0959392029717 -0.073553388945 0.864 1.05152581971e-38
0.0978768639577 -0.0738087826566 0.867 1.12535378982e-38
0.0994814027111 -0.0738087826566 0.867 8.58129535791e-39
0.101085941465 -0.0738087826566 0.867 9.96458013047e-39
0.102927367139 -0.073979045131 0.869 2.40889091471e-39
0.10453560725 -0.073979045131 0.869 2.15813023608e-38
-0.0306102318124 -0.0688730215778 0.827 2.350988001e-38
-0.0290797202217 -0.0688730215778 0.827 2.35098828126e-38
-0.0274825841846 -0.0687064604615 0.825 2.35095268827e-38
-0.0259557739521 -0.0687064604615 0.825 1.07858377202e-38
-0.0243697419894 -0.0685398993453 0.823 7.93272958707e-39
-0.0228466331151 -0.0685398993453 0.823 8.30365609317e-39
-0.0212717052268 -0.068373338229 0.821 1.01475827034e-38
-0.019656062399 -0.0680402159965 0.817 7.47427237369e-39
-0.0180996413014 -0.0678736548802 0.815 7.84448561887e-39
-0.0165506229201 -0.0677070937639 0.813 8.85826480198e-39
-0.015009007255 -0.0675405326476 0.811 1.00557247865e-38
-0.0134747943063 -0.0673739715314 0.809 9.68586326722e-39
-0.0119479840738 -0.0672074104151 0.807 1.05145589492e-38
-0.0104285765576 -0.0670408492988 0.805 9.40821139079e-39
-0.00890546768326 -0.0667910076244 0.802 8.39476992062e-39
-0.00740271627868 -0.0666244465082 0.8 7.56536097776e-39
-0.00590736759039 -0.0664578853919 0.798 7.65791113614e-39
-0.00441942161837 -0.0662913242756 0.796 7.65934326317e-39
-0.00293887836264 -0.0661247631593 0.794 7.75118296322e-39
-0.00146573782318 -0.0659582020431 0.792 7.38240044377e-39
0.0 -0.0659582020431 0.792 8.48839907881e-39
0.00146203646504 -0.0657916409268 0.79 7.65935447356e-39
0.00292407293008 -0.0657916409268 0.79 3.97224394124e-39
0.00438610939512 -0.0657916409268 0.79 7.38491157062e-39
0.00586295129272 -0.0659582020431 0.792 1.05195615847e-38
0.0073286891159 -0.0659582020431 0.792 8.49053746027e-39
0.00881663508791 -0.0661247631593 0.794 9.04299237334e-39
0.0102860742692 -0.0661247631593 0.794 8.76568801893e-39
0.0117851243157 -0.0662913242756 0.796 8.67280435152e-39
0.0132915770784 -0.0664578853919 0.798 8.76570203192e-39
0.014768418976 -0.0664578853919 0.798 9.04299377463e-39
0.0162859758131 -0.0666244465082 0.8 7.56680571648e-39
0.0177665190688 -0.0666244465082 0.8 7.19766866851e-39
0.0192951799804 -0.0667910076244 0.802 8.76605656043e-39
0.0208053341012 -0.0668742881826 0.803 9.04300358372e-39
0.0222914293942 -0.0668742881826 0.803 9.77951624748e-39
0.0238367464174 -0.0670408492988 0.805 6.92037972839e-39
0.0253265430684 -0.0670408492988 0.805 7.56715884369e-39
0.026882964166 -0.0672074104151 0.807 7.56860077981e-39
0.0284467879799 -0.0673739715314 0.809 8.76856068078e-39
0.0299439873473 -0.0673739715314 0.809 9.96569836665e-39
0.0315189152356 -0.0675405326476 0.811 7.38313332287e-39
0.0330198159611 -0.0675405326476 0.811 6.73669612439e-39
0.0346058479238 -0.0677070937639 0.813 5.81472301018e-39
0.0361104500074 -0.0677070937639 0.813 7.38060678173e-39
0.0376150520911 -0.0677070937639 0.813 1.01475644865e-38
0.0392158894863 -0.0678736548802 0.815 9.22777039144e-39
0.0408241295979 -0.0680402159965 0.817 8.76679224212e-39
0.0424397724257 -0.0682067771127 0.819 8.488043149e-39
0.0440628179698 -0.068373338229 0.821 9.96173409329e-39
0.045582225486 -0.068373338229 0.821 1.00542968634e-38
0.0472163751045 -0.0685398993453 0.823 9.77916031767e-39
0.0488579274393 -0.0687064604615 0.825 8.39582649966e-39
0.0505068824904 -0.0688730215778 0.827 1.01464742763e-38
0.0521632402577 -0.0690395826941 0.829 9.96350393325e-39
0.0536974532065 -0.0690395826941 0.829 1.02397418995e-38
0.0553649150483 -0.0692061438103 0.831 9.86988738675e-39
0.0569028293552 -0.0692061438103 0.831 1.03301284531e-38
0.0585813952714 -0.0693727049266 0.833 8.57484518107e-39
0.0602673639038 -0.0695392660429 0.835 1.22608753123e-38
0.061812680927 -0.0695392660429 0.835 1.13417818664e-38
0.0635097536339 -0.0697058271592 0.837 1.12513827012e-38
0.0652142290571 -0.0698723882754 0.839 1.06067293556e-38
0.0669261071965 -0.0700389493917 0.841 8.94828701792e-39
0.0686453880522 -0.070205510508 0.843 9.13303841135e-39
0.070205510508 -0.070205510508 0.843 9.04084558409e-39
0.0719358954381 -0.0703720716242 0.845 9.87132792157e-39
0.0736736830845 -0.0705386327405 0.847 1.11620695423e-38
0.0754188734472 -0.0707051938568 0.849 9.50291534491e-39
0.0769900999774 -0.0707051938568 0.849 7.84339400737e-39
0.0787463944145 -0.0708717549731 0.851 1.04245073059e-38
0.0803213223028 -0.0708717549731 0.851 1.01471931424e-38
0.082184956126 -0.0711215966475 0.854 1.14368431516e-38
0.0837654360515 -0.0711215966475 0.854 1.11580940585e-38
0.0855457893165 -0.0712881577637 0.856 1.1433239012e-38
0.0871299706001 -0.0712881577637 0.856 1.22619206809e-38
0.0889214279396 -0.07145471888 0.858 1.08829350921e-38
0.0907202879953 -0.0716212799963 0.86 8.11814659727e-39
0.0925265507673 -0.0717878411125 0.862 9.86951604265e-39
0.0943402162556 -0.0719544022288 0.864 1.08843952451e-38
0.0962723252043 -0.0722042439032 0.867 1.09762349451e-38
0.0978768639577 -0.0722042439032 0.867 1.16223204177e-38
0.0994814027111 -0.0722042439032 0.867 8.30506439813e-39
0.101319127027 -0.0723708050195 0.869 9.41140635129e-39
0.102927367139 -0.0723708050195 0.869 3.79147924194e-39
0.10453560725 -0.0723708050195 0.869 2.13969223114e-38
-0.0306102318124 -0.0673425099872 0.827 2.31414562229e-38
-0.0290797202217 -0.0673425099872 0.827 2.350988001e-38
-0.0274825841846 -0.0671796502291 0.825 2.30485557399e-38
-0.0259557739521 -0.0671796502291 0.825 1.22609649954e-38
-0.0243697419894 -0.0670167904709 0.823 6.91822593265e-39
-0.0228466331151 -0.0670167904709 0.823 1.02394139957e-38
-0.0212717052268 -0.0668539307128 0.821 8.11927884643e-39
-0.019656062399 -0.0665282111965 0.817 1.08869428057e-38
-0.0180996413014 -0.0663653514384 0.815 8.58240098239e-39
-0.0165506229201 -0.0662024916803 0.813 7.93666022926e-39
-0.015009007255 -0.0660396319221 0.811 8.30400501649e-39
-0.0134747943063 -0.065876772164 0.809 1.0239039849e-38
-0.0119479840738 -0.0657139124059 0.807 1.06996662724e-38
-0.0104285765576 -0.0655510526477 0.805 8.76355804527e-39
-0.00891657175768 -0.0653881928896 0.803 9.50111747898e-39
-0.00740271627868 -0.0651439032524 0.8 9.31815694498e-39
-0.00590736759039 -0.0649810434943 0.798 7.84338139568e-39
-0.00441942161837 -0.0648181837362 0.796 7.19800918404e-39
-0.00293887836264 -0.064655323978 0.794 7.01433398783e-39
-0.00146573782318 -0.0644924642199 0.792 7.47531213715e-39
0.0 -0.0644924642199 0.792 9.41070710336e-39
0.00146573782318 -0.0644924642199 0.792 7.84338139568e-39
0.00293147564636 -0.0644924642199 0.792 4.24918676064e-39
0.00439721346954 -0.0644924642199 0.792 8.03028097966e-39
0.00586295129272 -0.0644924642199 0.792 9.78199794706e-39
0.0073286891159 -0.0644924642199 0.792 5.6321156034e-39
0.00881663508791 -0.064655323978 0.794 8.30507280592e-39
0.0102860742692 -0.064655323978 0.794 8.21108211272e-39
0.0117851243157 -0.0648181837362 0.796 7.10512411533e-39
0.0132915770784 -0.0649810434943 0.798 8.39728244876e-39
0.014768418976 -0.0649810434943 0.798 9.04299377463e-39
0.0162859758131 -0.0651439032524 0.8 9.68730520334e-39
0.0178109353665 -0.0653067630106 0.802 8.76499717879e-39
0.0192951799804 -0.0653067630106 0.802 8.02848871892e-39
0.0208053341012 -0.0653881928896 0.803 6.27676894892e-39
0.0222914293942 -0.0653881928896 0.803 8.85684108274e-39
0.0238367464174 -0.0655510526477 0.805 1.05174302097e-38
0.0253265430684 -0.0655510526477 0.805 1.06103334953e-38
0.0269495886125 -0.065876772164 0.809 8.12072078255e-39
0.0285171137846 -0.0660396319221 0.811 3.60490195661e-39
0.0300180145101 -0.0660396319221 0.811 3.60383416718e-39
0.0315189152356 -0.0660396319221 0.811 7.47637992658e-39
0.0331012458401 -0.0662024916803 0.813 9.77985676301e-39
0.0346058479238 -0.0662024916803 0.813 9.50112308417e-39
0.0361992826028 -0.0663653514384 0.815 9.68549752832e-39
0.0377075860445 -0.0663653514384 0.815 6.64483820746e-39
0.039312124798 -0.0665282111965 0.817 7.47640514995e-39
0.0408241295979 -0.0665282111965 0.817 9.13520341748e-39
0.0424397724257 -0.0666910709547 0.819 1.01471903399e-38
0.0440628179698 -0.0668539307128 0.821 9.68477305701e-39
0.0456932662302 -0.0670167904709 0.823 8.76390416599e-39
0.0472163751045 -0.0670167904709 0.823 9.22669419422e-39
0.0489763708998 -0.0673425099872 0.827 8.85609138806e-39
0.0505068824904 -0.0673425099872 0.827 9.6844213311e-39
0.0521632402577 -0.0675053697453 0.829 1.05163147761e-38
0.0536974532065 -0.0675053697453 0.829 1.05163245852e-38
0.0553649150483 -0.0676682295035 0.831 1.02386699062e-38
0.0570397796063 -0.0678310892616 0.833 1.09769397982e-38
0.0585813952714 -0.0678310892616 0.833 1.09744440857e-38
0.0602673639038 -0.0679939490197 0.835 1.08818827169e-38
0.061812680927 -0.0679939490197 0.835 8.67385532537e-39
0.0635097536339 -0.0681568087778 0.837 8.21467504198e-39
0.0653696860989 -0.0684825282941 0.841 6.92358029409e-39
0.0670852655965 -0.0686453880522 0.843 9.13519921359e-39
0.0686453880522 -0.0686453880522 0.843 1.0978394346e-38
0.070205510508 -0.0686453880522 0.843 1.06096146292e-38
0.0721061579125 -0.0689711075685 0.847 9.96352635403e-39
0.0738476469171 -0.0691339673266 0.849 8.11961375676e-39
0.0754188734472 -0.0691339673266 0.849 1.00560891241e-38
0.0771714665262 -0.0692968270848 0.851 1.01482833527e-38
0.0787463944145 -0.0692968270848 0.851 8.11961095416e-39
0.0806044762005 -0.069541116722 0.854 8.67169452314e-39
0.082184956126 -0.069541116722 0.854 1.13435615155e-38
0.0837654360515 -0.069541116722 0.854 1.15268667689e-38
0.0855457893165 -0.0697039764801 0.856 1.23548295717e-38
0.0873335452978 -0.0698668362382 0.858 1.30001989808e-38
0.0891287039954 -0.0700296959964 0.86 1.06996158257e-38
0.0909312654092 -0.0701925557545 0.862 1.13464299734e-38
0.0927412295394 -0.0703554155126 0.864 1.07925457359e-38
0.0946677864509 -0.0705997051498 0.867 1.12531749619e-38
0.0962723252043 -0.0705997051498 0.867 1.05159728593e-38
0.0981026468042 -0.0707625649079 0.869 1.07929128761e-38
0.0997108869157 -0.0707625649079 0.869 9.59580041362e-39
0.101319127027 -0.0707625649079 0.869 8.48980177857e-39
0.102927367139 -0.0707625649079 0.869 4.43470186173e-39
0.10453560725 -0.0707625649079 0.869 2.22241774585e-38
-0.0306102318124 -0.0658119983966 0.827 2.350988001e-38
-0.0290797202217 -0.0658119983966 0.827 2.16663261451e-38
-0.0274825841846 -0.0656528399966 0.825 2.35095268827e-38
-0.0259557739521 -0.0656528399966 0.825 1.06936364851e-38
-0.0243697419894 -0.0654936815966 0.823 8.20861442613e-39
-0.0228466331151 -0.0654936815966 0.823 6.9200139895e-39
-0.0212717052268 -0.0653345231966 0.821 8.58025699574e-39
-0.0197041800548 -0.0651753647966 0.819 1.07018270746e-38
-0.0180996413014 -0.0648570479966 0.815 1.06099775655e-38
-0.0165506229201 -0.0646978895966 0.813 8.95009048905e-39
-0.015009007255 -0.0645387311966 0.811 7.38204871785e-39
-0.0135081065295 -0.0645387311966 0.811 8.76355524267e-39
-0.0119479840738 -0.0642204143967 0.807 9.96174530368e-39
-0.0104285765576 -0.0640612559967 0.805 9.50112308417e-39
-0.00891657175768 -0.0639020975967 0.803 9.86990280103e-39
-0.00742122306938 -0.0638225183967 0.802 1.00553688567e-38
-0.00590736759039 -0.0635042015967 0.798 9.7791350943e-39
-0.00441942161837 -0.0633450431967 0.796 7.19873085275e-39
-0.00293887836264 -0.0631858847967 0.794 4.34066352439e-39
-0.00146943918132 -0.0631858847967 0.794 7.01433398783e-39
0.0 -0.0631858847967 0.794 8.48802493212e-39
0.00146573782318 -0.0630267263967 0.792 8.02812578262e-39
0.00293147564636 -0.0630267263967 0.792 4.43285635166e-39
0.00440831754396 -0.0631858847967 0.794 7.29163974353e-39
0.00587775672528 -0.0631858847967 0.794 6.83066159422e-39
0.00734719590659 -0.0631858847967 0.794 7.19872805015e-39
0.00883884323675 -0.0633450431967 0.796 8.48875080473e-39
0.0103119837762 -0.0633450431967 0.796 9.04084698539e-39
0.0118147351808 -0.0635042015967 0.798 9.50221049178e-39
0.0132915770784 -0.0635042015967 0.798 8.0281482034e-39
0.0148054325574 -0.0636633599967 0.8 6.92250549816e-39
0.0163266907526 -0.0638225183967 0.802 7.38241445675e-39
0.0178109353665 -0.0638225183967 0.802 8.85719000605e-39
0.0193192388083 -0.0639020975967 0.803 1.02408293071e-38
0.0208571531152 -0.0640612559967 0.805 9.22595851252e-39
0.0223469497663 -0.0640612559967 0.805 9.40965332691e-39
0.0238959681476 -0.0642204143967 0.807 4.89243180121e-39
0.0253894661568 -0.0642204143967 0.807 4.15628627765e-39
0.0269495886125 -0.0643795727966 0.809 6.82995674109e-39
0.0285171137846 -0.0645387311966 0.811 9.50433205766e-39
0.0300920416729 -0.0646978895966 0.813 1.07943730291e-38
0.0315966437565 -0.0646978895966 0.813 9.31887861369e-39
0.0331012458401 -0.0646978895966 0.813 9.59331310884e-39
0.034690979161 -0.0648570479966 0.815 7.56392184424e-39
0.0361992826028 -0.0648570479966 0.815 8.85501238824e-39
0.0377075860445 -0.0648570479966 0.815 9.40962810354e-39
0.039312124798 -0.0650162063966 0.817 9.22739484345e-39
0.0408241295979 -0.0650162063966 0.817 7.66042226299e-39
0.0424397724257 -0.0651753647966 0.819 8.02739850872e-39
0.0440628179698 -0.0653345231966 0.821 9.59292635047e-39
0.0456932662302 -0.0654936815966 0.823 9.59365642697e-39
0.0473311172068 -0.0656528399966 0.825 8.58095764498e-39
0.0489763708998 -0.0658119983966 0.827 8.76354403228e-39
0.050629027309 -0.0659711567966 0.829 8.66991767669e-39
0.0521632402577 -0.0659711567966 0.829 9.87094536709e-39
0.0538270007414 -0.0661303151966 0.831 9.87095517618e-39
0.0553649150483 -0.0661303151966 0.831 1.07925625515e-38
0.0570397796063 -0.0662894735965 0.833 8.48802072823e-39
0.0587220468807 -0.0664486319965 0.835 8.85609979585e-39
0.0602673639038 -0.0664486319965 0.835 8.48730326341e-39
0.0619607352526 -0.0666077903965 0.837 7.01684651598e-39
0.0636615093176 -0.0667669487965 0.839 9.69124425332e-39
0.0653696860989 -0.0669261071965 0.841 9.6901708587e-39
0.0670852655965 -0.0670852655965 0.843 9.68837719666e-39
0.0686453880522 -0.0670852655965 0.843 9.41035537744e-39
0.0703720716242 -0.0672444239965 0.845 8.0274181269e-39
0.0721061579125 -0.0674035823965 0.847 1.05166973306e-38
0.0738476469171 -0.0675627407965 0.849 9.41142316687e-39
0.0755965386379 -0.0677218991965 0.851 9.87204959028e-39
0.0771714665262 -0.0677218991965 0.851 8.76498036321e-39
0.079023996275 -0.0679606367965 0.854 1.10695025683e-38
0.0806044762005 -0.0679606367965 0.854 1.18056214672e-38
0.0823774267492 -0.0681197951965 0.856 1.04219611466e-38
0.0839616080328 -0.0681197951965 0.856 1.19882050519e-38
0.085745662656 -0.0682789535964 0.858 1.06971061001e-38
0.0875371199954 -0.0684381119964 0.86 1.14343152092e-38
0.0893359800512 -0.0685972703964 0.862 1.01464504543e-38
0.0911422428232 -0.0687564287964 0.864 1.18077724603e-38
0.0930632476975 -0.0689951663964 0.867 9.59436828659e-39
0.0946677864509 -0.0689951663964 0.867 8.30328054518e-39
0.0964944066926 -0.0691543247964 0.869 1.11613450709e-38
0.0981026468042 -0.0691543247964 0.869 1.10694997657e-38
0.0997108869157 -0.0691543247964 0.869 8.30433852552e-39
0.101319127027 -0.0691543247964 0.869 8.95005966048e-39
0.102927367139 -0.0691543247964 0.869 1.02408783526e-38
-0.0290797202217 -0.064281486806 0.827 2.33258474826e-38
-0.0275492086311 -0.064281486806 0.827 2.35095268827e-38
-0.0259557739521 -0.0641260297641 0.825 9.77168018647e-39
-0.0243697419894 -0.0639705727222 0.823 9.40572268472e-39
-0.0228466331151 -0.0639705727222 0.823 1.10670250726e-38
-0.0212717052268 -0.0638151156804 0.821 8.67065475968e-39
-0.0197041800548 -0.0636596586385 0.819 8.57988705295e-39
-0.0181440575991 -0.0635042015967 0.817 9.41035257485e-39
-0.0165913378596 -0.0633487445548 0.815 1.02404677721e-38
-0.0150460208364 -0.063193287513 0.813 9.68586326722e-39
-0.0135081065295 -0.0630378304711 0.811 7.93308131298e-39
-0.0119775949389 -0.0628823734293 0.809 7.84124861942e-39
-0.0104544860646 -0.0627269163874 0.807 7.75012918678e-39
-0.00891657175768 -0.0624160023037 0.803 9.59403898145e-39
-0.00742122306938 -0.0623382737828 0.802 1.02397643203e-38
-0.00590736759039 -0.0620273596991 0.798 8.94974016443e-39
-0.00443052569279 -0.0620273596991 0.798 1.02408321097e-38
-0.00294628107892 -0.0618719026572 0.796 8.12104728509e-39
-0.00146943918132 -0.0617164456154 0.794 7.66042506558e-39
0.0 -0.0617164456154 0.794 8.21251283845e-39
0.00146943918132 -0.0617164456154 0.794 7.56714342941e-39
0.00293887836264 -0.0617164456154 0.794 4.61760354119e-39
0.00440831754396 -0.0617164456154 0.794 6.55407470463e-39
0.00589256215783 -0.0618719026572 0.796 6.64591720728e-39
0.00736570269729 -0.0618719026572 0.796 6.46080848274e-39
0.00883884323675 -0.0618719026572 0.796 9.22596131512e-39
0.0103378932832 -0.0620273596991 0.798 8.21073038681e-39
0.0118443460459 -0.0621828167409 0.8 7.29058876968e-39
0.0133248893016 -0.0621828167409 0.8 7.93632672022e-39
0.0148424461388 -0.0623382737828 0.802 9.87206640586e-39
0.0163470482224 -0.0624160023037 0.803 8.85826059808e-39
0.0178331435154 -0.0624160023037 0.803 7.75155010342e-39
0.0193192388083 -0.0624160023037 0.803 4.24704557659e-39
0.0208571531152 -0.0625714593456 0.805 5.1686515506e-39
0.0224024701384 -0.0627269163874 0.807 8.02671327377e-39
0.0239551898778 -0.0628823734293 0.809 9.40999944763e-39
0.0254523892452 -0.0628823734293 0.809 1.07929352969e-38
0.0270162130591 -0.0630378304711 0.811 8.21217512552e-39
0.0285874395892 -0.063193287513 0.813 8.58095904627e-39
0.0300920416729 -0.063193287513 0.813 8.21288278125e-39
0.0315966437565 -0.063193287513 0.813 9.04049105558e-39
0.0331012458401 -0.063193287513 0.813 1.02375979129e-38
0.034690979161 -0.0633487445548 0.815 8.57628711719e-39
0.0362881151981 -0.0635042015967 0.817 8.85394459881e-39
0.037800119998 -0.0635042015967 0.817 8.76390696858e-39
0.039312124798 -0.0635042015967 0.817 8.5820296383e-39
0.0409240662676 -0.0636596586385 0.819 1.0057511442e-38
0.0424397724257 -0.0636596586385 0.819 9.31741846069e-39
0.0440628179698 -0.0638151156804 0.821 9.31597652457e-39
0.0456932662302 -0.0639705727222 0.823 8.30291480628e-39
0.0474458593092 -0.064281486806 0.827 9.13448735397e-39
0.0490948143602 -0.0644369438478 0.829 1.09762503594e-38
0.050629027309 -0.0644369438478 0.829 1.01461365634e-38
0.0521632402577 -0.0644369438478 0.829 1.03322864527e-38
0.0538270007414 -0.0645924008897 0.831 8.39582649966e-39
0.0554981639413 -0.0647478579315 0.833 8.67170853612e-39
0.0570397796063 -0.0647478579315 0.833 6.64410953226e-39
0.0587220468807 -0.0649033149734 0.835 9.50147200749e-39
0.0604117168713 -0.0650587720152 0.837 1.12542427513e-38
0.0619607352526 -0.0650587720152 0.837 9.41321542761e-39
0.0638132650013 -0.0653696860989 0.841 9.04408258354e-39
0.0655251431408 -0.0655251431408 0.843 8.58131077219e-39
0.0670852655965 -0.0655251431408 0.843 9.68586326722e-39
0.0686453880522 -0.0655251431408 0.843 1.01468414165e-38
0.0703720716242 -0.0656806001826 0.845 9.68621639443e-39
0.0722764203869 -0.0659915142663 0.849 7.93593015276e-39
0.0738476469171 -0.0659915142663 0.849 1.01493399317e-38
0.0755965386379 -0.0661469713082 0.851 9.59474103198e-39
0.0774435163495 -0.066380156871 0.854 1.11613464722e-38
0.079023996275 -0.066380156871 0.854 1.00546345763e-38
0.0806044762005 -0.066380156871 0.854 1.06985578453e-38
0.0825698973724 -0.0666910709547 0.858 1.08825833661e-38
0.0841577800142 -0.0666910709547 0.858 1.09747817986e-38
0.0859455359955 -0.0668465279965 0.86 1.09751489388e-38
0.0877406946931 -0.0670019850384 0.862 1.10677103076e-38
0.089543256107 -0.0671574420802 0.864 9.59401656067e-39
0.0914587089441 -0.067390627643 0.867 7.38240324637e-39
0.0932779264696 -0.0675460846849 0.869 1.00557247865e-38
0.0948861665811 -0.0675460846849 0.869 9.50219928139e-39
0.0964944066926 -0.0675460846849 0.869 1.18070872254e-38
0.0981026468042 -0.0675460846849 0.869 1.1437577432e-38
0.0997108869157 -0.0675460846849 0.869 8.85680464898e-39
0.101319127027 -0.0675460846849 0.869 8.48837385544e-39
0.102927367139 -0.0675460846849 0.869 1.27276506333e-38
-0.0291500460264 -0.062902730899 0.829 2.31414548216e-38
-0.0275492086311 -0.0627509752153 0.827 2.30485543386e-38
-0.0259557739521 -0.0625992195316 0.825 8.48129729819e-39
-0.0244289637197 -0.0625992195316 0.825 9.9585363302e-39
-0.0229021534872 -0.0625992195316 0.825 9.59117192479e-39
-0.0212717052268 -0.0622957081642 0.821 1.01461407673e-38
-0.0197522977106 -0.0622957081642 0.821 8.11926483344e-39
-0.0181884738967 -0.0621439524805 0.819 8.67278473334e-39
-0.0166320527991 -0.0619921967968 0.817 9.40962530094e-39
-0.0150460208364 -0.0616886854293 0.813 1.06992963296e-38
-0.0135414187528 -0.0616886854293 0.813 1.06049595157e-38
-0.012007205804 -0.0615369297456 0.811 9.13198743751e-39
