# .PCD v0.7 - Point Cloud Data file format
VERSION 0.7
FIELDS x y z rgb
SIZE 4 4 4 4
TYPE F F F F
COUNT 1 1 1 1
WIDTH 834
HEIGHT 1
VIEWPOINT 0 0 0 1 0 0 0
POINTS 834
DATA ascii
-0.0868135044792 -0.0953525377067 0.769 7.67278031414e-39
-0.0851682507863 -0.0951045467113 0.767 7.304722266e-39
-0.0836395898747 -0.0949805512137 0.766 8.59438208426e-39
-0.0816852727771 -0.0943605737253 0.761 8.8666417642e-39
-0.0800659285912 -0.09411258273 0.759 8.49316629619e-39
-0.0782467110657 -0.0936166007393 0.755 2.03584284273e-39
-0.0767476610193 -0.0934926052416 0.754 5.81545869187e-39
-0.0751523756612 -0.0932446142463 0.752 3.69282082356e-39
-0.0734664070287 -0.0928726277533 0.749 6.45754766121e-40
-0.0717915424707 -0.0925006412603 0.746 2.48823944025e-39
-0.0702221666196 -0.092252650265 0.744 1.84501682046e-39
-0.0686601934848 -0.0920046592696 0.742 5.16550283295e-39
-0.0671963063407 -0.091880663772 0.741 6.73389913266e-39
-0.0653807901733 -0.0912606862836 0.736 9.1295253561e-39
-0.0637577446292 -0.0908886997906 0.733 5.9927271515e-39
-0.0619755406851 -0.0902687223023 0.728 8.48271681354e-39
-0.0605449657643 -0.0901447268046 0.727 7.92812351901e-39
-0.0588738025644 -0.0896487448139 0.723 1.13404156004e-38
-0.057535761597 -0.0896487448139 0.723 8.85007561375e-39
-0.0561199921087 -0.0895247493163 0.722 6.72957892949e-39
-0.0547838018204 -0.0895247493163 0.722 4.14740064409e-39
-0.0532255300437 -0.0891527628233 0.719 4.51440771839e-39
-0.0517505388252 -0.0889047718279 0.717 4.42359517011e-39
-0.0503532761276 -0.0887807763303 0.716 4.42535660228e-39
-0.0488912396626 -0.0885327853349 0.714 3.13358082333e-39
-0.0475698548068 -0.0885327853349 0.714 1.01238208854e-39
-0.0461836961836 -0.0884087898373 0.713 6.17779663969e-39
-0.044864162007 -0.0884087898373 0.713 6.82527780552e-39
-0.0435446278303 -0.0884087898373 0.713 6.64017889006e-39
-0.0421066501932 -0.0881607988419 0.711 5.9998443464e-39
-0.0407908173746 -0.0881607988419 0.711 2.22234726054e-39
-0.0394749845561 -0.0881607988419 0.711 8.95294213142e-39
-0.0381591517375 -0.0881607988419 0.711 8.76819494188e-39
-0.036843318919 -0.0881607988419 0.711 2.15812603218e-38
-0.0355274861005 -0.0881607988419 0.711 2.1209640173e-38
-0.0342116532819 -0.0881607988419 0.711 2.32343763241e-38
-0.0328495534867 -0.0880368033443 0.71 2.19429256464e-38
-0.0315355713472 -0.0880368033443 0.71 2.33258460813e-38
-0.0302215892077 -0.0880368033443 0.71 2.35098730035e-38
-0.0289076070683 -0.0880368033443 0.71 2.35098758061e-38
-0.0275936249288 -0.0880368033443 0.71 2.35098786087e-38
-0.0262796427893 -0.0880368033443 0.71 2.35098786087e-38
-0.0250008235522 -0.0881607988419 0.711 2.27726694996e-38
-0.0236849907336 -0.0881607988419 0.711 2.02837406205e-38
-0.0223691579151 -0.0881607988419 0.711 2.35098702009e-38
-0.0211125468268 -0.0884087898373 0.713 2.35098533853e-38
-0.0197930126501 -0.0884087898373 0.713 2.3142498789e-38
-0.0184734784735 -0.0884087898373 0.713 2.01018282577e-38
-0.0171539442968 -0.0884087898373 0.713 1.80752998459e-38
-0.0158344101201 -0.0884087898373 0.713 1.85380506378e-38
-0.0145148759434 -0.0884087898373 0.713 1.84462039312e-38
-0.0132138485575 -0.0885327853349 0.714 1.78941119544e-38
-0.0118924637017 -0.0885327853349 0.714 1.82629056843e-38
-0.010571078846 -0.0885327853349 0.714 1.76171873519e-38
-0.00924969399022 -0.0885327853349 0.714 1.7433513557e-38
-0.00792830913447 -0.0885327853349 0.714 1.64197119531e-38
-0.00660692427873 -0.0885327853349 0.714 1.77108024971e-38
-0.00528553942298 -0.0885327853349 0.714 1.7802998127e-38
-0.00396415456724 -0.0885327853349 0.714 1.74345869516e-38
-0.00264276971149 -0.0885327853349 0.714 1.7618629288e-38
-0.00132138485575 -0.0885327853349 0.714 1.84484039698e-38
0.0 -0.0887807763303 0.716 1.58679773075e-38
0.00132508621388 -0.0887807763303 0.716 1.49463559192e-38
0.00265017242777 -0.0887807763303 0.716 1.91855766451e-38
0.00397525864165 -0.0887807763303 0.716 1.81717638309e-38
0.00530034485554 -0.0887807763303 0.716 1.78958775905e-38
0.00662543106942 -0.0887807763303 0.716 1.7066132336e-38
0.00795051728331 -0.0887807763303 0.716 1.63299952202e-38
0.00927560349719 -0.0887807763303 0.716 1.55009772397e-38
0.0106006897111 -0.0887807763303 0.716 1.46700731113e-38
0.011925775925 -0.0887807763303 0.716 1.37481448387e-38
0.0132508621388 -0.0887807763303 0.716 1.17238136628e-38
0.0145759483527 -0.0887807763303 0.716 1.19110705779e-38
0.0159010345666 -0.0887807763303 0.716 1.10827182141e-38
0.0172261207805 -0.0887807763303 0.716 1.10830671374e-38
-0.0886956450931 -0.0944179447765 0.773 8.04011529228e-39
-0.0868135044792 -0.0939293655021 0.769 8.04048103118e-39
-0.0851682507863 -0.0936850758649 0.767 7.67242578563e-39
-0.0836395898747 -0.0935629310463 0.766 8.77697547806e-39
-0.0817926121632 -0.0930743517719 0.762 9.23254461531e-39
-0.0802769060051 -0.0929522069533 0.761 9.78030657982e-39
-0.0782467110657 -0.0922193380417 0.755 5.58215651055e-40
-0.0767476610193 -0.0920971932231 0.754 5.53744808304e-39
-0.0751523756612 -0.0918529035859 0.752 4.52113955621e-39
-0.0735644930194 -0.0916086139487 0.75 1.65881648441e-39
-0.0718877777823 -0.0912421794929 0.747 1.74994712744e-39
-0.0704109358847 -0.0911200346743 0.746 2.39747453612e-39
-0.0688452613918 -0.0908757450371 0.744 3.50491230469e-39
-0.0671963063407 -0.0905093105813 0.741 6.45660458734e-39
-0.065558455364 -0.0901428761255 0.738 6.73208585244e-39
-0.0638447265455 -0.0896542968511 0.734 7.65224848904e-39
-0.0621458031596 -0.0891657175768 0.73 7.74443010592e-39
-0.0606282463224 -0.0889214279396 0.728 9.49400869187e-39
-0.0590366623225 -0.0885549934838 0.725 1.08772752476e-38
-0.057535761597 -0.0883107038466 0.723 8.29509696215e-39
-0.0561977206296 -0.0883107038466 0.723 8.20326426859e-39
-0.0547838018204 -0.088188559028 0.722 3.68570082606e-39
-0.0534476115321 -0.088188559028 0.722 4.3310702351e-39
-0.0517505388252 -0.087577834935 0.717 4.42537341786e-39
-0.0503532761276 -0.0874556901164 0.716 4.24131566717e-39
-0.0488912396626 -0.0872114004792 0.714 4.23920391038e-39
-0.0475698548068 -0.0872114004792 0.714 4.88316781706e-39
-0.0461836961836 -0.0870892556606 0.713 1.84212033653e-39
-0.044864162007 -0.0870892556606 0.713 7.09866412941e-39
-0.0435446278303 -0.0870892556606 0.713 7.09901305273e-39
-0.0421066501932 -0.0868449660234 0.711 6.82565195221e-39
-0.0407908173746 -0.0868449660234 0.711 5.81544187629e-39
-0.0394749845561 -0.0868449660234 0.711 1.76245231494e-39
-0.0381591517375 -0.0868449660234 0.711 7.57361042182e-39
-0.036843318919 -0.0868449660234 0.711 8.40301796338e-39
-0.0354775177656 -0.0867228212048 0.71 1.84491284411e-38
-0.0341635356261 -0.0867228212048 0.71 2.19464765367e-38
-0.0328495534867 -0.0867228212048 0.71 2.13893693127e-38
-0.0315355713472 -0.0867228212048 0.71 2.35098786087e-38
-0.0302215892077 -0.0867228212048 0.71 2.35098786087e-38
-0.0289076070683 -0.0867228212048 0.71 2.32336504515e-38
-0.0275936249288 -0.0867228212048 0.71 2.34180417112e-38
-0.0262796427893 -0.0867228212048 0.71 1.96380208868e-38
-0.0249656606499 -0.0867228212048 0.71 1.91770427375e-38
-0.0236516785104 -0.0867228212048 0.71 2.35098758061e-38
-0.0223376963709 -0.0867228212048 0.71 2.32336476489e-38
-0.0210533250966 -0.0868449660234 0.711 2.32336476489e-38
-0.019737492278 -0.0868449660234 0.711 2.34180333034e-38
-0.0184216594595 -0.0868449660234 0.711 2.2590053685e-38
-0.0171539442968 -0.0870892556606 0.713 2.11170535808e-38
-0.0158344101201 -0.0870892556606 0.713 2.0104670091e-38
-0.0145148759434 -0.0870892556606 0.713 1.90922992129e-38
-0.0131953417668 -0.0870892556606 0.713 1.89086268192e-38
-0.0118758075901 -0.0870892556606 0.713 1.88160794635e-38
-0.0105562734134 -0.0870892556606 0.713 1.78944917063e-38
-0.00923673923673 -0.0870892556606 0.713 1.81710785959e-38
-0.00791720506005 -0.0870892556606 0.713 1.69736116049e-38
-0.00659767088338 -0.0870892556606 0.713 1.73423885192e-38
-0.0052781367067 -0.0870892556606 0.713 1.69736059997e-38
-0.00395860253003 -0.0870892556606 0.713 1.72505586282e-38
-0.00263906835335 -0.0870892556606 0.713 1.77115409814e-38
-0.00131953417668 -0.0870892556606 0.713 1.7712266854e-38
0.0 -0.0872114004792 0.714 1.61459977254e-38
0.00132138485575 -0.0872114004792 0.714 1.55924441943e-38
0.00264276971149 -0.0872114004792 0.714 1.78033666685e-38
0.00397525864165 -0.0874556901164 0.716 1.78955454828e-38
0.00530034485554 -0.0874556901164 0.716 1.73427080152e-38
0.00662543106942 -0.0874556901164 0.716 1.83568739567e-38
0.00795051728331 -0.0874556901164 0.716 1.64218405255e-38
0.00927560349719 -0.0874556901164 0.716 1.64211482841e-38
0.0106006897111 -0.0874556901164 0.716 1.54048047248e-38
0.011925775925 -0.0874556901164 0.716 1.47626695126e-38
0.0132508621388 -0.0874556901164 0.716 1.20943968508e-38
0.0145352334132 -0.0872114004792 0.714 1.14507930778e-38
0.0158566182689 -0.0872114004792 0.714 1.1817043451e-38
0.0171780031247 -0.0872114004792 0.714 1.13535765956e-38
0.0184993879804 -0.0872114004792 0.714 1.08047230196e-38
-0.0888103871954 -0.0931076639951 0.774 8.22450655201e-39
-0.0872650701722 -0.0929873698556 0.773 8.04048103118e-39
-0.085612413763 -0.0927467815766 0.771 7.2103686365e-39
-0.0837487799398 -0.0922656050184 0.767 2.3214793178e-39
-0.0822219697073 -0.0921453108789 0.766 9.78284012744e-39
-0.080593372126 -0.0919047225999 0.764 1.927357959e-38
-0.078972177261 -0.0916641343208 0.762 1.87645074761e-40
-0.0772565977634 -0.0913032519022 0.759 4.52222556252e-39
-0.0754521856705 -0.0908220753441 0.755 5.71860374461e-39
-0.0737606650008 -0.0904611929255 0.752 3.41052504402e-39
-0.0721764837172 -0.0902206046465 0.75 3.13215290019e-39
-0.0705053205173 -0.0898597222279 0.747 2.76481511945e-39
-0.0691228632522 -0.0898597222279 0.747 3.04285935945e-39
-0.0676497227128 -0.0897394280883 0.746 3.87477662655e-39
-0.0660914509361 -0.0894988398093 0.744 6.6409706237e-39
-0.0641926542106 -0.0887770749721 0.738 1.04181201875e-38
-0.0624863281084 -0.088295898414 0.734 1.20772645758e-38
-0.0608780879968 -0.0879350159954 0.731 1.09673381012e-38
-0.0592809519597 -0.0875741335768 0.728 1.07836376816e-38
-0.057694919997 -0.0872132511582 0.725 9.40036411939e-39
-0.0563531776715 -0.0872132511582 0.725 1.28126814242e-38
-0.0548596796623 -0.0869726628792 0.723 3.04068594553e-39
-0.0535216386949 -0.0869726628792 0.723 5.34592981933e-39
-0.0518948917926 -0.0864914863211 0.719 4.4239693168e-39
-0.0504236019323 -0.086250898042 0.717 4.97606830005e-39
-0.0490281899137 -0.0861306039025 0.716 4.23814733134e-39
-0.0475698548068 -0.0858900156234 0.714 4.51472020794e-39
-0.0461836961836 -0.0857697214839 0.713 3.0413543649e-39
-0.044864162007 -0.0857697214839 0.713 5.71535133088e-39
-0.0435446278303 -0.0857697214839 0.713 8.20569131753e-39
-0.0422250936536 -0.0857697214839 0.713 7.28516154073e-39
-0.0407908173746 -0.0855291332048 0.711 5.81327967276e-39
-0.039419464184 -0.0854088390653 0.71 5.44990476408e-39
-0.0381054820445 -0.0854088390653 0.71 1.67492160766e-39
-0.0367914999051 -0.0854088390653 0.71 6.01023777711e-39
-0.0354775177656 -0.0854088390653 0.71 7.85090917103e-39
-0.0341635356261 -0.0854088390653 0.71 1.93685539947e-38
-0.0328495534867 -0.0854088390653 0.71 2.21272678607e-38
-0.0315355713472 -0.0854088390653 0.71 2.28641504672e-38
-0.0302215892077 -0.0854088390653 0.71 2.28645190087e-38
-0.0289076070683 -0.0854088390653 0.71 2.35098856151e-38
-0.0275936249288 -0.0854088390653 0.71 2.34176871827e-38
-0.0262796427893 -0.0854088390653 0.71 2.27723177736e-38
-0.0249656606499 -0.0854088390653 0.71 2.35098828126e-38
-0.0236516785104 -0.0854088390653 0.71 2.28645134035e-38
-0.0223376963709 -0.0854088390653 0.71 2.35098856151e-38
-0.0210533250966 -0.0855291332048 0.711 2.3418050119e-38
-0.019737492278 -0.0855291332048 0.711 2.3418050119e-38
-0.0184216594595 -0.0855291332048 0.711 2.295885302e-38
-0.017105826641 -0.0855291332048 0.711 2.19464653263e-38
-0.0157899938224 -0.0855291332048 0.711 2.16716440728e-38
-0.0144741610039 -0.0855291332048 0.711 1.88157151259e-38
-0.0131583281854 -0.0855291332048 0.711 1.98305859205e-38
-0.0118424953668 -0.0855291332048 0.711 1.90004707232e-38
-0.0105266625483 -0.0855291332048 0.711 1.81710785959e-38
-0.00921082972975 -0.0855291332048 0.711 1.79874090049e-38
-0.00789499691122 -0.0855291332048 0.711 1.7895213375e-38
-0.00657916409268 -0.0855291332048 0.711 1.73420381946e-38
-0.00526333127414 -0.0855291332048 0.711 1.75271483204e-38
-0.00394749845561 -0.0855291332048 0.711 1.67895832815e-38
-0.00263166563707 -0.0855291332048 0.711 1.72516404306e-38
-0.00131953417668 -0.0857697214839 0.713 1.63296813294e-38
0.0 -0.0857697214839 0.713 1.60541622292e-38
0.00131953417668 -0.0857697214839 0.713 1.63307351058e-38
0.00264276971149 -0.0858900156234 0.714 1.62356906362e-38
0.00396415456724 -0.0858900156234 0.714 1.67888461985e-38
0.00528553942298 -0.0858900156234 0.714 1.69742912347e-38
0.00660692427873 -0.0858900156234 0.714 1.78955426802e-38
0.00792830913447 -0.0858900156234 0.714 1.68824669489e-38
0.00924969399022 -0.0858900156234 0.714 1.6420800762e-38
0.0106006897111 -0.0861306039025 0.716 1.60559600952e-38
0.0118924637017 -0.0858900156234 0.714 1.51332639109e-38
0.0132138485575 -0.0858900156234 0.714 1.43921059428e-38
0.0145352334132 -0.0858900156234 0.714 1.3933224136e-38
0.0158566182689 -0.0858900156234 0.714 1.33843467379e-38
0.0171780031247 -0.0858900156234 0.714 1.18174358145e-38
0.0184734784735 -0.0857697214839 0.713 1.08972675727e-38
0.0197930126501 -0.0857697214839 0.713 1.05288227662e-38
0.0211125468268 -0.0857697214839 0.713 8.22932141353e-39
-0.08396716007 -0.0910830210929 0.769 1.82619499987e-38
-0.0822219697073 -0.0907276907116 0.766 2.2867037142e-38
-0.08080434954 -0.0907276907116 0.766 2.3418050119e-38
-0.078972177261 -0.0902539168697 0.762 7.55299872271e-43
-0.0774601724611 -0.0901354734093 0.761 3.7839402562e-39
-0.07565205901 -0.0896616995674 0.757 5.99589688863e-39
-0.0739568369822 -0.089306369186 0.754 6.73024174367e-39
-0.0723689543404 -0.0890694822651 0.752 4.97780871275e-39
-0.0706940897824 -0.0887141518838 0.749 2.57823783412e-39
-0.0691228632522 -0.0884772649628 0.747 3.96120030804e-39
-0.0676497227128 -0.0883588215024 0.746 4.14525385484e-39
-0.0660914509361 -0.0881219345815 0.744 6.08422493473e-39
-0.0641926542106 -0.0874112738187 0.738 7.09837265933e-39
-0.0624863281084 -0.0869374999769 0.734 1.04170495955e-38
-0.0610446491131 -0.0868190565164 0.733 8.38695067519e-39
-0.0594438117178 -0.086463726135 0.73 1.10613343995e-38
-0.057933657597 -0.0862268392141 0.728 7.65117229182e-39
-0.0565086347133 -0.0861083957537 0.727 1.16163004395e-38
-0.0551631910297 -0.0861083957537 0.727 4.33248975045e-39
-0.053817747346 -0.0861083957537 0.727 5.16116441291e-39
-0.0521114212438 -0.0855161784514 0.722 5.71291447285e-39
-0.0505642535416 -0.08516084807 0.719 5.25229085204e-39
-0.0490281899137 -0.0848055176886 0.716 3.86970532741e-39
-0.0475698548068 -0.0845686307677 0.714 5.25228804945e-39
-0.0462484699511 -0.0845686307677 0.714 2.4881945987e-39
-0.044864162007 -0.0844501873072 0.713 6.73094519549e-39
-0.0435446278303 -0.0844501873072 0.713 7.83727874087e-39
-0.0422250936536 -0.0844501873072 0.713 7.10221361842e-39
-0.0407334463235 -0.0840948569259 0.71 6.64159840541e-39
-0.039419464184 -0.0840948569259 0.71 6.08987076624e-39
-0.0381054820445 -0.0840948569259 0.71 5.07787683738e-39
-0.0367914999051 -0.0840948569259 0.71 3.32724307369e-39
-0.0353775810958 -0.0838579700049 0.708 6.55515090185e-39
-0.0340673003145 -0.0838579700049 0.708 8.39906630171e-39
-0.0327570195332 -0.0838579700049 0.708 1.73406102714e-38
-0.0314467387519 -0.0838579700049 0.708 2.34180276982e-38
-0.0301364579705 -0.0838579700049 0.708 2.35098631944e-38
-0.0288261771892 -0.0838579700049 0.708 2.35098758061e-38
-0.0275158964079 -0.0838579700049 0.708 2.16631129677e-38
-0.0262056156265 -0.0838579700049 0.708 2.35095268827e-38
-0.0248953348452 -0.0838579700049 0.708 2.35098687996e-38
-0.0236516785104 -0.0840948569259 0.71 2.34180431125e-38
-0.0223376963709 -0.0840948569259 0.71 2.31425436305e-38
-0.0210533250966 -0.0842133003863 0.711 2.35098856151e-38
-0.019737492278 -0.0842133003863 0.711 2.35095268827e-38
-0.0184216594595 -0.0842133003863 0.711 2.35098786087e-38
-0.017105826641 -0.0842133003863 0.711 2.35098687996e-38
-0.0157899938224 -0.0842133003863 0.711 2.26825996395e-38
-0.0144741610039 -0.0842133003863 0.711 2.07471920616e-38
-0.0131583281854 -0.0842133003863 0.711 2.0011408073e-38
-0.0118424953668 -0.0842133003863 0.711 1.96436961456e-38
-0.0105118571157 -0.0840948569259 0.71 1.73409633986e-38
-0.00919787497627 -0.0840948569259 0.71 1.84491018164e-38
-0.00789499691122 -0.0842133003863 0.711 1.66055423464e-38
-0.00657916409268 -0.0842133003863 0.711 1.75275014476e-38
-0.00526333127414 -0.0842133003863 0.711 1.81725177294e-38
-0.00394749845561 -0.0842133003863 0.711 1.66059192957e-38
-0.00263166563707 -0.0842133003863 0.711 1.76200684216e-38
-0.00131583281854 -0.0842133003863 0.711 1.67906622813e-38
0.0 -0.0842133003863 0.711 1.60541664331e-38
0.00131953417668 -0.0844501873072 0.713 1.58697723708e-38
0.00263906835335 -0.0844501873072 0.713 1.64218797619e-38
0.00395860253003 -0.0844501873072 0.713 1.61452900697e-38
0.0052781367067 -0.0844501873072 0.713 1.53158825281e-38
0.00659767088338 -0.0844501873072 0.713 1.74360260852e-38
0.00791720506005 -0.0844501873072 0.713 1.71597923228e-38
0.00923673923673 -0.0844501873072 0.713 1.65140697865e-38
0.010571078846 -0.0845686307677 0.714 1.53169643305e-38
0.0118758075901 -0.0844501873072 0.713 1.46715809085e-38
0.0131953417668 -0.0844501873072 0.713 1.44871756358e-38
0.0145148759434 -0.0844501873072 0.713 1.38428586019e-38
0.0158344101201 -0.0844501873072 0.713 1.33833125796e-38
0.0171539442968 -0.0844501873072 0.713 1.30152685444e-38
0.0184734784735 -0.0844501873072 0.713 1.17252401847e-38
0.0197930126501 -0.0844501873072 0.713 1.12646137613e-38
0.0211125468268 -0.0844501873072 0.713 1.13589645882e-38
-0.08396716007 -0.0896598488884 0.769 2.24982602278e-38
-0.0823293090934 -0.0894266633256 0.767 2.31411058983e-38
-0.08080434954 -0.0893100705442 0.766 2.35091653477e-38
-0.0791794533168 -0.0890768849814 0.764 4.60665659759e-40
-0.0774601724611 -0.0887271066372 0.761 4.98213031721e-39
-0.0758519323495 -0.0884939210745 0.759 5.90370125877e-39
-0.0740549229729 -0.0880275499489 0.755 7.19192474611e-39
-0.0725614249637 -0.0879109571675 0.754 6.63731043211e-39
-0.0707884744149 -0.087444586042 0.75 5.52884130787e-39
-0.0693079311592 -0.0873279932606 0.749 3.77571323292e-39
-0.0677404059872 -0.0870948076978 0.747 4.9739243134e-39
-0.0662691161268 -0.0869782149164 0.746 4.42218966775e-39
-0.0645405818757 -0.0865118437908 0.742 7.3738819504e-39
-0.0626565905828 -0.0858122871025 0.736 8.38839401261e-39
-0.0610446491131 -0.0854625087583 0.733 7.65118630481e-39
-0.0595252415969 -0.0852293231956 0.731 1.20765737357e-38
-0.058092815997 -0.0851127304142 0.73 7.37494973983e-39
-0.0565863632343 -0.0848795448514 0.728 1.1154603424e-38
-0.0552390688715 -0.0848795448514 0.728 4.05553712196e-39
-0.053817747346 -0.08476295207 0.727 5.80544080915e-39
-0.0523279506949 -0.0845297665072 0.725 5.52743580551e-39
-0.0507752309555 -0.0841799881631 0.722 5.06717091712e-39
-0.0490966650393 -0.0835970242561 0.717 5.25191390276e-39
-0.0477031036998 -0.0834804314747 0.716 5.06754506381e-39
-0.0462484699511 -0.0832472459119 0.714 3.4090831079e-39
-0.0449270850953 -0.0832472459119 0.714 6.73022773068e-39
-0.0435446278303 -0.0831306531306 0.713 7.19262819794e-39
-0.0422250936536 -0.0831306531306 0.713 6.82564074182e-39
-0.0407334463235 -0.0827808747864 0.71 6.73344511196e-39
-0.039419464184 -0.0827808747864 0.71 6.82564354442e-39
-0.0381054820445 -0.0827808747864 0.71 6.45650369385e-39
-0.0367914999051 -0.0827808747864 0.71 6.36610452862e-39
-0.0353775810958 -0.0825476892236 0.708 3.78642195578e-39
-0.0340673003145 -0.0825476892236 0.708 4.24991123195e-39
-0.0327570195332 -0.0825476892236 0.708 9.2302689066e-39
-0.0314467387519 -0.0825476892236 0.708 2.09358656894e-38
-0.0301364579705 -0.0825476892236 0.708 2.32343539033e-38
-0.0288261771892 -0.0825476892236 0.708 2.13886812752e-38
-0.0275158964079 -0.0825476892236 0.708 2.00046608209e-38
-0.0262056156265 -0.0825476892236 0.708 2.35095268827e-38
-0.0248953348452 -0.0825476892236 0.708 2.35098758061e-38
-0.0235850540639 -0.0825476892236 0.708 2.35098687996e-38
-0.0222747732826 -0.0825476892236 0.708 2.32343791267e-38
-0.0210237142315 -0.0827808747864 0.71 2.35095268827e-38
-0.019709732092 -0.0827808747864 0.71 2.35095268827e-38
-0.0183957499525 -0.0827808747864 0.71 2.35098828126e-38
-0.0170817678131 -0.0827808747864 0.71 2.35098786087e-38
-0.0157677856736 -0.0827808747864 0.71 2.35098687996e-38
-0.0144538035341 -0.0827808747864 0.71 2.25900508824e-38
-0.0131398213947 -0.0827808747864 0.71 2.23145233744e-38
-0.0118258392552 -0.0827808747864 0.71 2.07486227873e-38
-0.0105118571157 -0.0827808747864 0.71 1.98298922777e-38
-0.00919787497627 -0.0827808747864 0.71 1.93710609177e-38
-0.0078838928368 -0.0827808747864 0.71 1.71587161256e-38
-0.00656991069733 -0.0827808747864 0.71 1.64211510867e-38
-0.00525592855787 -0.0827808747864 0.71 1.56832357231e-38
-0.0039419464184 -0.0827808747864 0.71 1.7066897445e-38
-0.00262796427893 -0.0827808747864 0.71 1.80810493735e-38
-0.00131398213947 -0.0827808747864 0.71 1.72512830995e-38
0.0 -0.0828974675678 0.711 1.63303973929e-38
0.00131583281854 -0.0828974675678 0.711 1.63303973929e-38
0.00263906835335 -0.0831306531306 0.713 1.66988267851e-38
0.00395860253003 -0.0831306531306 0.713 1.59612631475e-38
0.0052781367067 -0.0831306531306 0.713 1.60534587774e-38
0.00659767088338 -0.0831306531306 0.713 1.53158923372e-38
0.00791720506005 -0.0831306531306 0.713 1.65147914552e-38
0.00923673923673 -0.0831306531306 0.713 1.6791731472e-38
0.0105562734134 -0.0831306531306 0.713 1.58687059827e-38
0.0118424953668 -0.0828974675678 0.711 1.59612491346e-38
0.0131583281854 -0.0828974675678 0.711 1.48566770214e-38
0.0144741610039 -0.0828974675678 0.711 1.46726346849e-38
0.0157899938224 -0.0828974675678 0.711 1.43042151018e-38
0.017105826641 -0.0828974675678 0.711 1.3197870346e-38
0.0184734784735 -0.0831306531306 0.713 1.26457727641e-38
0.0197930126501 -0.0831306531306 0.713 1.22773433718e-38
0.0211125468268 -0.0831306531306 0.713 1.22780608366e-38
0.0224635425477 -0.0832472459119 0.714 1.0528122117e-38
0.0237849274034 -0.0832472459119 0.714 1.12671094738e-38
-0.0823293090934 -0.0880071924791 0.767 2.35088080166e-38
-0.0809098382469 -0.0880071924791 0.767 2.35084464816e-38
-0.0793867293726 -0.0878924503768 0.766 1.83722840359e-40
-0.0775619598099 -0.0874334819675 0.762 5.16545098491e-39
-0.0760518056891 -0.0873187398652 0.761 6.27141318619e-39
-0.0742510949543 -0.0868597714559 0.757 7.56071006816e-39
-0.0726576602753 -0.0866302872513 0.755 8.29682896705e-39
-0.07097724368 -0.0862860609443 0.752 7.65040998546e-39
-0.0694004651127 -0.0860565767397 0.75 6.08238222725e-39
-0.0677404059872 -0.0857123504327 0.747 4.69803527045e-39
-0.0662691161268 -0.0855976083304 0.746 6.2642931887e-39
-0.0647145457083 -0.0853681241258 0.744 6.07990192897e-39
-0.0628268530572 -0.0846796715119 0.738 7.64938843888e-39
-0.0611279296712 -0.0842207031026 0.734 8.85044555655e-39
-0.0595252415969 -0.0838764767956 0.731 1.12486081302e-38
-0.058092815997 -0.0837617346933 0.73 9.58764345525e-39
-0.0565863632343 -0.0835322504887 0.728 1.1798530897e-38
-0.0552390688715 -0.0835322504887 0.728 7.09511043651e-39
-0.053817747346 -0.0834175083864 0.727 1.02301009661e-38
-0.0523279506949 -0.0831880241817 0.725 4.51291393422e-39
-0.0508455567601 -0.0829585399771 0.723 5.43487303545e-39
-0.049302090416 -0.0826143136701 0.72 4.88241531979e-39
-0.0477697281463 -0.0822700873632 0.717 5.2501440628e-39
-0.046378017486 -0.0821553452608 0.716 4.32960447691e-39
-0.0449270850953 -0.0819258610562 0.714 7.28267984115e-39
-0.0436057002396 -0.0819258610562 0.714 8.11313975786e-39
-0.0422250936536 -0.0818111189539 0.713 7.37774673157e-39
-0.0407334463235 -0.0814668926469 0.71 7.10152558088e-39
-0.039419464184 -0.0814668926469 0.71 7.10152558088e-39
-0.0381054820445 -0.0814668926469 0.71 6.64054743156e-39
-0.0366878618772 -0.0812374084423 0.708 6.54906786521e-39
-0.0353775810958 -0.0812374084423 0.708 5.81329508704e-39
-0.0340673003145 -0.0812374084423 0.708 4.5250687971e-39
-0.0327570195332 -0.0812374084423 0.708 3.23540757753e-39
-0.0314467387519 -0.0812374084423 0.708 7.47887844174e-39
-0.0301364579705 -0.0812374084423 0.708 1.42070504676e-38
-0.0288261771892 -0.0812374084423 0.708 2.28670315368e-38
-0.0274770321474 -0.08112266634 0.707 2.31425436305e-38
-0.0261686020451 -0.08112266634 0.707 2.34180473164e-38
-0.0248601719429 -0.08112266634 0.707 2.35095268827e-38
-0.0235850540639 -0.0812374084423 0.708 2.35095268827e-38
-0.0222747732826 -0.0812374084423 0.708 2.35098730035e-38
-0.0210237142315 -0.0814668926469 0.71 2.35098828126e-38
-0.019709732092 -0.0814668926469 0.71 2.35095268827e-38
-0.0183957499525 -0.0814668926469 0.71 2.35095268827e-38
-0.0170817678131 -0.0814668926469 0.71 2.35098856151e-38
-0.0157677856736 -0.0814668926469 0.71 2.33258432787e-38
-0.0144538035341 -0.0814668926469 0.71 2.34180305008e-38
-0.0131398213947 -0.0814668926469 0.71 2.27747980719e-38
-0.0118258392552 -0.0814668926469 0.71 1.96404983825e-38
-0.0105118571157 -0.0814668926469 0.71 1.92756507091e-38
-0.00919787497627 -0.0814668926469 0.71 1.81707240674e-38
-0.0078838928368 -0.0814668926469 0.71 1.86331301399e-38
-0.00656991069733 -0.0814668926469 0.71 1.78033666685e-38
-0.00525592855787 -0.0814668926469 0.71 1.73427570607e-38
-0.0039419464184 -0.0814668926469 0.71 1.66970359257e-38
-0.00262796427893 -0.0814668926469 0.71 1.75278727917e-38
-0.00131398213947 -0.0814668926469 0.71 1.74356743592e-38
0.0 -0.0814668926469 0.71 1.58694220462e-38
0.00131583281854 -0.0815816347492 0.711 1.59616176761e-38
0.00263166563707 -0.0815816347492 0.711 1.65144355254e-38
0.00394749845561 -0.0815816347492 0.711 1.58690703203e-38
0.00526333127414 -0.0815816347492 0.711 1.61456572099e-38
0.00657916409268 -0.0815816347492 0.711 1.48549155892e-38
0.00789499691122 -0.0815816347492 0.711 1.57768704865e-38
0.00921082972975 -0.0815816347492 0.711 1.72523564941e-38
0.0105266625483 -0.0815816347492 0.711 1.59605442814e-38
0.0118424953668 -0.0815816347492 0.711 1.5499194788e-38
0.0131583281854 -0.0815816347492 0.711 1.54080585398e-38
0.0144741610039 -0.0815816347492 0.711 1.49481509825e-38
0.0157899938224 -0.0815816347492 0.711 1.46715640929e-38
0.017105826641 -0.0815816347492 0.711 1.43027843761e-38
0.0184216594595 -0.0815816347492 0.711 1.31971528812e-38
0.019737492278 -0.0815816347492 0.711 1.28287248903e-38
0.0211125468268 -0.0818111189539 0.713 1.18152862227e-38
0.0224320810035 -0.0818111189539 0.713 1.17248702419e-38
0.0237849274034 -0.0819258610562 0.714 1.16340941274e-38
0.0251063122592 -0.0819258610562 0.714 1.08054124584e-38
0.0265017242777 -0.0821553452608 0.716 8.95936708488e-39
-0.0847314905258 -0.0876037444419 0.776 2.35095268827e-38
-0.0827586666375 -0.0870392873257 0.771 2.35095240801e-38
-0.0811208156609 -0.0868135044792 0.769 2.35095212775e-38
-0.0794903674005 -0.0865877216327 0.767 1.83729846851e-40
-0.0777655345076 -0.0862490473629 0.764 4.51972984995e-39
-0.0760518056891 -0.0859103730932 0.761 7.37740621604e-39
-0.0744472669357 -0.0856845902467 0.759 7.37596568122e-39
-0.0726576602753 -0.0852330245537 0.755 7.83620674754e-39
-0.07097724368 -0.0848943502839 0.752 8.29612831782e-39
-0.0694004651127 -0.0846685674374 0.75 8.66528218137e-39
-0.0677404059872 -0.0843298931677 0.747 7.18945005302e-39
-0.0663579487221 -0.0843298931677 0.747 7.27698916809e-39
-0.0648885095408 -0.0842170017445 0.746 7.46174896931e-39
-0.0630822467688 -0.0836525446282 0.741 5.89802179609e-39
-0.0614610519038 -0.0833138703585 0.738 7.74517419541e-39
-0.0597695312341 -0.0828623046655 0.734 8.39125966797e-39
-0.058331553597 -0.0827494132422 0.733 9.03446687348e-39
-0.0567418202761 -0.0824107389725 0.73 1.2534655401e-38
-0.0552390688715 -0.082184956126 0.728 8.29077255509e-39
-0.0538917745088 -0.082184956126 0.728 1.37320887609e-38
-0.0523279506949 -0.0818462818562 0.725 1.33629685285e-38
-0.0508455567601 -0.0816204990097 0.723 6.17171500435e-39
-0.049302090416 -0.08128182474 0.72 5.71145992504e-39
-0.0477697281463 -0.0809431504702 0.717 5.24942940058e-39
-0.046378017486 -0.080830259047 0.716 4.97425642114e-39
-0.0449270850953 -0.0806044762005 0.714 8.20391727367e-39
-0.0436057002396 -0.0806044762005 0.714 8.20497105012e-39
-0.0422250936536 -0.0804915847772 0.713 7.10116264458e-39
-0.0407334463235 -0.0801529105075 0.71 6.91713572245e-39
-0.039419464184 -0.0801529105075 0.71 7.10080671477e-39
-0.0381054820445 -0.0801529105075 0.71 6.82421982518e-39
-0.0366878618772 -0.079927127661 0.708 5.71858833033e-39
-0.0353775810958 -0.079927127661 0.708 6.82672814943e-39
-0.0340673003145 -0.079927127661 0.708 5.44558736351e-39
-0.0327570195332 -0.079927127661 0.708 4.70945725423e-39
-0.0314023224542 -0.0798142362377 0.707 2.96169615239e-39
-0.0300938923519 -0.0798142362377 0.707 8.40372281651e-39
-0.0287854622497 -0.0798142362377 0.707 1.1996853866e-38
-0.0274770321474 -0.0798142362377 0.707 2.24996685327e-38
-0.0261686020451 -0.0798142362377 0.707 2.29588726382e-38
-0.0248601719429 -0.0798142362377 0.707 2.34176913866e-38
-0.0235517418406 -0.0798142362377 0.707 2.35088094179e-38
-0.0222433117384 -0.0798142362377 0.707 2.3509865997e-38
-0.0209644925012 -0.079927127661 0.708 2.350988001e-38
-0.0196542117199 -0.079927127661 0.708 2.35098856151e-38
-0.0183439309386 -0.079927127661 0.708 2.35095268827e-38
-0.0170336501573 -0.079927127661 0.708 2.35095268827e-38
-0.0157233693759 -0.079927127661 0.708 2.35098856151e-38
-0.0144130885946 -0.079927127661 0.708 2.35098786087e-38
-0.0131398213947 -0.0801529105075 0.71 2.34180319021e-38
-0.0117925270319 -0.079927127661 0.708 2.29577656124e-38
-0.0104822462506 -0.079927127661 0.708 2.14869235079e-38
-0.00917196546929 -0.079927127661 0.708 2.01057645051e-38
-0.00786168468796 -0.079927127661 0.708 1.81703611311e-38
-0.00655140390664 -0.079927127661 0.708 1.81710757933e-38
-0.00524112312531 -0.079927127661 0.708 1.70654527063e-38
-0.00393084234398 -0.079927127661 0.708 1.72502097049e-38
-0.00262056156265 -0.079927127661 0.708 1.63282534063e-38
-0.00131028078133 -0.079927127661 0.708 1.6237131171e-38
0.0 -0.079927127661 0.708 1.65144369267e-38
0.00131398213947 -0.0801529105075 0.71 1.61456544073e-38
0.00262796427893 -0.0801529105075 0.71 1.61456572099e-38
0.0039419464184 -0.0801529105075 0.71 1.5408092171e-38
0.00526333127414 -0.0802658019307 0.711 1.605346158e-38
0.00657916409268 -0.0802658019307 0.711 1.5408092171e-38
0.00789499691122 -0.0802658019307 0.711 1.48549155892e-38
0.00921082972975 -0.0802658019307 0.711 1.57768718878e-38
0.0105266625483 -0.0802658019307 0.711 1.66973876516e-38
0.0118424953668 -0.0802658019307 0.711 1.65129837802e-38
0.0131583281854 -0.0802658019307 0.711 1.61449047126e-38
0.0144741610039 -0.0802658019307 0.711 1.54076899983e-38
0.0157899938224 -0.0802658019307 0.711 1.48541602893e-38
0.017105826641 -0.0802658019307 0.711 1.46704878957e-38
0.0184216594595 -0.0802658019307 0.711 1.42098656762e-38
0.019737492278 -0.0802658019307 0.711 1.36570436229e-38
0.0210533250966 -0.0802658019307 0.711 1.33808084592e-38
0.0223691579151 -0.0802658019307 0.711 1.17223605163e-38
0.0237516151802 -0.0804915847772 0.713 1.12642480224e-38
0.0250711493568 -0.0804915847772 0.713 1.09898037181e-38
0.0263906835335 -0.0804915847772 0.713 1.09901540428e-38
0.0277102177102 -0.0804915847772 0.713 1.02504562276e-38
-0.0847314905258 -0.0861676174839 0.776 2.34180445138e-38
-0.0829733454096 -0.0858344952513 0.773 2.32340119865e-38
-0.0813317930748 -0.085612413763 0.771 2.34180445138e-38
-0.0796976434563 -0.0853903322746 0.769 2.75572349502e-40
-0.0779691092052 -0.0850572100421 0.766 5.44061275396e-39
-0.0765514890379 -0.0850572100421 0.766 7.74511954477e-39
-0.074643438917 -0.0845020063212 0.761 8.02062042805e-39
-0.0728501308985 -0.0840578433445 0.757 8.85000274623e-39
-0.07097724368 -0.0835026396236 0.752 8.38867847619e-39
-0.0694004651127 -0.0832805581352 0.75 8.66598703449e-39
-0.0677404059872 -0.0829474359027 0.747 8.75819667734e-39
-0.0663579487221 -0.0829474359027 0.747 7.64647654067e-39
-0.0648885095408 -0.0828363951585 0.746 7.09295523947e-39
-0.0633376404804 -0.0826143136701 0.744 6.91180658439e-39
-0.0617108935782 -0.0822811914376 0.741 5.71614586711e-39
-0.0600952507504 -0.081948069205 0.738 8.48201476301e-39
-0.058411132797 -0.0815039062283 0.734 8.94191110991e-39
-0.056819548797 -0.0811707839958 0.731 1.00446545286e-38
-0.0553908245553 -0.0810597432516 0.73 9.67370700304e-39
-0.0538917745088 -0.0808376617632 0.728 1.00442635663e-38
-0.0524723036624 -0.0807266210191 0.727 6.26390502902e-39
-0.0509862083694 -0.0805045395307 0.725 1.1150279017e-38
-0.0494390406672 -0.0801714172981 0.722 4.0519399888e-39
-0.0479029770394 -0.0798382950656 0.719 5.89479600703e-39
-0.0464427912534 -0.0796162135772 0.717 4.78986516141e-39
-0.0450529312721 -0.0795051728331 0.716 7.3741566049e-39
-0.0436057002396 -0.0792830913447 0.714 8.48155793971e-39
-0.0422250936536 -0.0791720506005 0.713 7.83872207829e-39
-0.0407908173746 -0.0789499691122 0.711 7.00896421212e-39
-0.039419464184 -0.078838928368 0.71 7.19335266924e-39
-0.0381054820445 -0.078838928368 0.71 6.82384707978e-39
-0.0366878618772 -0.0786168468796 0.708 6.64053341858e-39
-0.0353775810958 -0.0786168468796 0.708 6.27318302615e-39
-0.0340191826587 -0.0785058061354 0.707 5.99803527009e-39
-0.0327107525564 -0.0785058061354 0.707 5.63033175045e-39
-0.0314023224542 -0.0785058061354 0.707 4.71235373816e-39
-0.0300938923519 -0.0785058061354 0.707 1.94935189892e-39
-0.0287854622497 -0.0785058061354 0.707 5.91550579703e-39
-0.0274381678869 -0.0783947653913 0.706 1.09834165997e-38
-0.0261315884638 -0.0783947653913 0.706 1.93675338494e-38
-0.0248250090406 -0.0783947653913 0.706 2.31425436305e-38
-0.0235517418406 -0.0785058061354 0.707 2.35098730035e-38
-0.0222433117384 -0.0785058061354 0.707 2.30456676638e-38
-0.0209348816361 -0.0785058061354 0.707 2.35095268827e-38
-0.0196264515339 -0.0785058061354 0.707 2.34176913866e-38
-0.0183180214316 -0.0785058061354 0.707 2.35095268827e-38
-0.0170095913293 -0.0785058061354 0.707 2.34173326542e-38
-0.0157011612271 -0.0785058061354 0.707 2.35095268827e-38
-0.0143927311248 -0.0785058061354 0.707 2.35098856151e-38
-0.0131028078133 -0.0786168468796 0.708 2.350988001e-38
-0.0117925270319 -0.0786168468796 0.708 2.35098786087e-38
-0.0104822462506 -0.0786168468796 0.708 1.96415885927e-38
-0.00917196546929 -0.0786168468796 0.708 2.09330252574e-38
-0.00786168468796 -0.0786168468796 0.708 1.92752821676e-38
-0.00655140390664 -0.0786168468796 0.708 1.95529396492e-38
-0.00523372040903 -0.0785058061354 0.707 1.90926831686e-38
-0.00392529030677 -0.0785058061354 0.707 1.74338863024e-38
-0.00261686020451 -0.0785058061354 0.707 1.74342464361e-38
-0.00130843010226 -0.0785058061354 0.707 1.62360577764e-38
0.0 -0.0785058061354 0.707 1.64218881696e-38
0.00131028078133 -0.0786168468796 0.708 1.60531056502e-38
0.00262796427893 -0.078838928368 0.71 1.61453012801e-38
0.0039419464184 -0.078838928368 0.71 1.5499931871e-38
0.00525592855787 -0.078838928368 0.71 1.56843231307e-38
0.00656991069733 -0.078838928368 0.71 1.51311493516e-38
0.0078838928368 -0.078838928368 0.71 1.49467580918e-38
0.00919787497627 -0.078838928368 0.71 1.51311493516e-38
0.0105266625483 -0.0789499691122 0.711 1.50382194413e-38
0.0118258392552 -0.078838928368 0.71 1.65133327035e-38
0.0131398213947 -0.078838928368 0.71 1.64218419268e-38
0.0144538035341 -0.078838928368 0.71 1.58690226761e-38
0.0157677856736 -0.078838928368 0.71 1.46701235581e-38
0.0170817678131 -0.078838928368 0.71 1.51311031087e-38
0.0183957499525 -0.078838928368 0.71 1.40251100789e-38
0.019709732092 -0.078838928368 0.71 1.42098530645e-38
0.0210533250966 -0.0789499691122 0.711 1.3380441319e-38
0.0223691579151 -0.0789499691122 0.711 1.31964171995e-38
0.0237516151802 -0.0791720506005 0.713 1.24599423708e-38
0.0250711493568 -0.0791720506005 0.713 1.19096272405e-38
0.0263906835335 -0.0791720506005 0.713 1.12663878051e-38
0.0277102177102 -0.0791720506005 0.713 1.06220861855e-38
-0.0830806847957 -0.0845131103956 0.774 2.30507039305e-38
-0.0815427704888 -0.0844039203305 0.773 2.31425408279e-38
-0.0801121955679 -0.0844039203305 0.773 3.13328094545e-39
-0.0782744712517 -0.08396716007 0.769 6.26965595792e-39
-0.0766514257076 -0.0837487799398 0.767 8.11390626812e-39
-0.074643438917 -0.0830936395492 0.761 9.95637552796e-39
-0.0730426015218 -0.0828752594189 0.759 9.03439820985e-39
-0.0712603975777 -0.0824384991585 0.755 9.03476955395e-39
-0.0695855330196 -0.0821109289632 0.752 9.03512408246e-39
-0.0677404059872 -0.0815649786376 0.747 9.31172218244e-39
-0.0663579487221 -0.0815649786376 0.747 9.30814046356e-39
-0.0648885095408 -0.0814557885725 0.746 7.27948768325e-39
-0.0633376404804 -0.0812374084423 0.744 6.72812298039e-39
-0.0617108935782 -0.0809098382469 0.741 6.63593856091e-39
-0.0600952507504 -0.0805822680516 0.738 7.00544695297e-39
-0.058411132797 -0.0801455077912 0.734 8.57204959064e-39
-0.0569750058389 -0.0800363177261 0.733 8.8464728754e-39
-0.0553908245553 -0.0797087475307 0.73 1.05049096079e-38
-0.0540398288344 -0.0797087475307 0.73 8.75461776106e-39
-0.0525444801461 -0.0794903674005 0.728 5.5267141368e-39
-0.0511268599787 -0.0793811773354 0.727 1.32715029751e-38
-0.0496444660439 -0.0791627972052 0.725 5.98804681463e-39
-0.0481028503789 -0.0788352270098 0.722 5.06575000047e-39
-0.0465723387883 -0.0785076568145 0.719 6.63413508979e-39
-0.0450529312721 -0.0781800866192 0.716 8.11244050992e-39
-0.0436057002396 -0.077961706489 0.714 8.38972945004e-39
-0.0422250936536 -0.0778525164239 0.713 7.74688097694e-39
-0.0407908173746 -0.0776341362936 0.711 7.1015087653e-39
-0.039419464184 -0.0775249462285 0.71 7.28517695502e-39
-0.0381054820445 -0.0775249462285 0.71 6.73200037324e-39
-0.0366878618772 -0.0773065660983 0.708 7.37736978228e-39
-0.0353775810958 -0.0773065660983 0.708 6.36501431842e-39
-0.0340191826587 -0.0771973760332 0.707 6.08878896383e-39
-0.0327107525564 -0.0771973760332 0.707 6.18206359351e-39
-0.0314023224542 -0.0771973760332 0.707 5.54029692282e-39
-0.0300938923519 -0.0771973760332 0.707 4.98857909274e-39
-0.0287854622497 -0.0771973760332 0.707 3.33047867185e-39
-0.0274381678869 -0.0770881859681 0.706 5.54530376223e-39
-0.0261315884638 -0.0770881859681 0.706 1.13514816544e-38
-0.0248250090406 -0.0770881859681 0.706 2.24078078132e-38
-0.0235184296174 -0.0770881859681 0.706 2.18528599902e-38
-0.0222118501942 -0.0770881859681 0.706 2.35091681503e-38
-0.0209348816361 -0.0771973760332 0.707 2.35095268827e-38
-0.0195986913478 -0.0770881859681 0.706 2.3418050119e-38
-0.0182921119246 -0.0770881859681 0.706 2.3418050119e-38
-0.0170095913293 -0.0771973760332 0.707 2.35098856151e-38
-0.0157011612271 -0.0771973760332 0.707 2.35098856151e-38
-0.0143927311248 -0.0771973760332 0.707 2.35095268827e-38
-0.0130843010226 -0.0771973760332 0.707 2.35095268827e-38
-0.0117758709203 -0.0771973760332 0.707 2.35095268827e-38
-0.0104674408181 -0.0771973760332 0.707 2.34180333034e-38
-0.0091590107158 -0.0771973760332 0.707 2.05631791524e-38
-0.00785058061354 -0.0771973760332 0.707 2.06567942976e-38
-0.00654215051129 -0.0771973760332 0.707 1.83533286716e-38
-0.00523372040903 -0.0771973760332 0.707 1.90916125766e-38
-0.00392529030677 -0.0771973760332 0.707 1.78945113245e-38
-0.00261686020451 -0.0771973760332 0.707 1.67888826323e-38
-0.00130843010226 -0.0771973760332 0.707 1.7249857979e-38
0.0 -0.0771973760332 0.707 1.59601953581e-38
0.00130843010226 -0.0771973760332 0.707 1.64218923735e-38
0.00261686020451 -0.0771973760332 0.707 1.70672603813e-38
0.00393084234398 -0.0773065660983 0.708 1.58687143905e-38
0.00525592855787 -0.0775249462285 0.71 1.5499931871e-38
0.00656991069733 -0.0775249462285 0.71 1.51311521542e-38
0.0078838928368 -0.0775249462285 0.71 1.50389565243e-38
0.00919787497627 -0.0775249462285 0.71 1.5407740445e-38
0.0105118571157 -0.0775249462285 0.71 1.54069991582e-38
0.0118258392552 -0.0775249462285 0.71 1.52233113503e-38
0.0131028078133 -0.0773065660983 0.708 1.69757331708e-38
0.0144130885946 -0.0773065660983 0.708 1.66991434786e-38
0.0157677856736 -0.0775249462285 0.71 1.55920798567e-38
0.0170817678131 -0.0775249462285 0.71 1.52232987386e-38
0.0183957499525 -0.0775249462285 0.71 1.44850092284e-38
0.019709732092 -0.0775249462285 0.71 1.43931625218e-38
0.0210237142315 -0.0775249462285 0.71 1.37492210359e-38
0.0223376963709 -0.0775249462285 0.71 1.31960612697e-38
0.0236849907336 -0.0776341362936 0.711 1.25510702113e-38
0.0250008235522 -0.0776341362936 0.711 1.27368921967e-38
0.0263166563707 -0.0776341362936 0.711 1.17255863054e-38
0.0276324891893 -0.0776341362936 0.711 1.13589351609e-38
-0.0851682507863 -0.0837247211119 0.78 2.33262132215e-38
-0.0832953635678 -0.0832953635678 0.776 2.3418050119e-38
-0.0816482591957 -0.0830806847957 0.774 2.3418050119e-38
-0.0802158335958 -0.0830806847957 0.774 4.69988358312e-39
-0.0786816206471 -0.0829733454096 0.773 6.8228283358e-39
-0.0770511723867 -0.0827586666375 0.771 8.75819667734e-39
-0.0749376968891 -0.0820072909353 0.764 9.49504285014e-39
-0.073235072145 -0.0816852727771 0.761 1.0140392641e-38
-0.071826705373 -0.0816852727771 0.761 1.01407639851e-38
-0.0695855330196 -0.0807192183028 0.752 9.58866219924e-39
-0.0677404059872 -0.0801825213726 0.747 9.49719244198e-39
-0.0663579487221 -0.0801825213726 0.747 8.3897686864e-39
-0.0648885095408 -0.0800751819865 0.746 9.31065159041e-39
-0.0633376404804 -0.0798605032144 0.744 7.37312104534e-39
-0.0617941741363 -0.0796458244424 0.742 7.18766900267e-39
-0.0601766806294 -0.0793238062842 0.739 7.64829542608e-39
-0.058411132797 -0.078787109354 0.734 7.46390696895e-39
-0.0569750058389 -0.078679769968 0.733 7.46498316617e-39
-0.0553908245553 -0.0783577518099 0.73 6.91288138031e-39
-0.0540398288344 -0.0783577518099 0.73 8.38549472608e-39
-0.0525444801461 -0.0781430730378 0.728 5.06575280307e-39
-0.0511268599787 -0.0780357336517 0.727 1.39172381231e-38
-0.0496444660439 -0.0778210548797 0.725 4.42215323399e-39
-0.0481694748254 -0.0776063761076 0.723 5.34340748209e-39
-0.0467666600906 -0.0774990367215 0.722 6.63592735052e-39
-0.0452417005372 -0.0771770185634 0.719 8.38974906822e-39
-0.0437278450582 -0.0768550004053 0.716 8.39045672395e-39
-0.0422843153838 -0.0766403216332 0.714 8.39225038598e-39
-0.0407908173746 -0.0763183034751 0.711 7.74723410415e-39
-0.039419464184 -0.0762109640891 0.71 7.46956541214e-39
-0.0381054820445 -0.0762109640891 0.71 6.8238344681e-39
-0.0366878618772 -0.075996285317 0.708 7.37665091617e-39
-0.0353775810958 -0.075996285317 0.708 6.82527500292e-39
-0.0340191826587 -0.0758889459309 0.707 6.73344511196e-39
-0.0327107525564 -0.0758889459309 0.707 6.45722115867e-39
-0.0314023224542 -0.0758889459309 0.707 7.01039493785e-39
-0.0300938923519 -0.0758889459309 0.707 5.53743407006e-39
-0.0287447473101 -0.0757816065449 0.706 5.90803967881e-39
-0.0274381678869 -0.0757816065449 0.706 2.40781752009e-39
-0.0261315884638 -0.0757816065449 0.706 5.63820004133e-39
-0.0248250090406 -0.0757816065449 0.706 1.02458417517e-38
-0.0235184296174 -0.0757816065449 0.706 2.18560857792e-38
-0.0222118501942 -0.0757816065449 0.706 2.24985965394e-38
-0.020905270771 -0.0757816065449 0.706 2.32343735215e-38
-0.0195986913478 -0.0757816065449 0.706 2.34180473164e-38
-0.0182921119246 -0.0757816065449 0.706 2.33262104189e-38
-0.0169855325014 -0.0757816065449 0.706 2.34176899853e-38
-0.0156789530783 -0.0757816065449 0.706 2.35098856151e-38
-0.0143723736551 -0.0757816065449 0.706 2.35095268827e-38
-0.0130657942319 -0.0757816065449 0.706 2.35095268827e-38
-0.0117592148087 -0.0757816065449 0.706 2.35095268827e-38
-0.0104526353855 -0.0757816065449 0.706 2.31414548216e-38
-0.00914605596231 -0.0757816065449 0.706 2.31425170058e-38
-0.00783947653913 -0.0757816065449 0.706 2.19464653263e-38
-0.00653289711594 -0.0757816065449 0.706 1.95504411341e-38
-0.00522631769275 -0.0757816065449 0.706 2.03819996688e-38
-0.00391973826956 -0.0757816065449 0.706 1.89994281571e-38
-0.00261315884638 -0.0757816065449 0.706 1.75260959452e-38
-0.00130657942319 -0.0757816065449 0.706 1.75260917414e-38
0.0 -0.0757816065449 0.706 1.66974072698e-38
0.00130657942319 -0.0757816065449 0.706 1.64215364437e-38
0.00261315884638 -0.0757816065449 0.706 1.66984792631e-38
0.00393084234398 -0.075996285317 0.708 1.63296953424e-38
0.00524112312531 -0.075996285317 0.708 1.63296953424e-38
0.00655140390664 -0.075996285317 0.708 1.60531098541e-38
0.00786168468796 -0.075996285317 0.708 1.54995801451e-38
0.00917196546929 -0.075996285317 0.708 1.56839742074e-38
0.0104822462506 -0.075996285317 0.708 1.60538133059e-38
0.0117925270319 -0.075996285317 0.708 1.53162314514e-38
0.0131028078133 -0.075996285317 0.708 1.4210235619e-38
0.0144130885946 -0.075996285317 0.708 1.60545041461e-38
0.0157233693759 -0.075996285317 0.708 1.57764851294e-38
0.0170336501573 -0.075996285317 0.708 1.54069851452e-38
0.0183439309386 -0.075996285317 0.708 1.48541630919e-38
0.0196542117199 -0.075996285317 0.708 1.48548707476e-38
0.0209644925012 -0.075996285317 0.708 1.41183706956e-38
0.0223376963709 -0.0762109640891 0.71 1.39347053084e-38
0.0236516785104 -0.0762109640891 0.71 1.32897030396e-38
0.0249656606499 -0.0762109640891 0.71 1.29209177175e-38
0.0262796427893 -0.0762109640891 0.71 1.19078307759e-38
0.0275936249288 -0.0762109640891 0.71 1.21865560469e-38
0.0289076070683 -0.0762109640891 0.71 1.14497028676e-38
-0.0888455500977 -0.0830196123864 0.787 2.35095268827e-38
-0.0871669841815 -0.0828086349724 0.785 2.35084506855e-38
-0.0851682507863 -0.0822811914376 0.78 2.35088094179e-38
-0.0835100423398 -0.0820702140236 0.778 2.35091681503e-38
-0.0818592366097 -0.0818592366097 0.776 2.35091681503e-38
-0.0804231096516 -0.0818592366097 0.776 7.83345319606e-39
-0.0787834079959 -0.0816482591957 0.774 7.65187013846e-39
-0.0770511723867 -0.0813317930748 0.771 8.8503923072e-39
-0.0751338688705 -0.08080434954 0.766 9.77163254232e-39
-0.0735237780799 -0.080593372126 0.764 9.95672585258e-39
-0.071826705373 -0.0802769060051 0.761 9.67979144097e-39
-0.0697706009266 -0.0795384850563 0.754 9.68050189929e-39
-0.067921772536 -0.0790110415215 0.749 9.58903494463e-39
-0.0665356139128 -0.0790110415215 0.749 9.40642893915e-39
-0.0649754914571 -0.0788000641075 0.747 9.68194383541e-39
-0.0635079029548 -0.0786945754006 0.746 9.12591140736e-39
-0.0619607352526 -0.0784835979866 0.744 7.55536971971e-39
-0.0603395403876 -0.0781671318657 0.741 8.10711557576e-39
-0.0587294495969 -0.0778506657448 0.738 7.00221135482e-39
-0.0570527343598 -0.0774287109169 0.734 9.03375080996e-39
-0.0554667023971 -0.077112244796 0.731 7.37566159945e-39
-0.0540398288344 -0.077006756089 0.73 4.97534943394e-39
-0.0526888331135 -0.077006756089 0.73 5.15796244592e-39
-0.0511971857834 -0.0767957786751 0.728 1.31800374218e-38
-0.0497814162951 -0.0766902899681 0.727 5.52957698957e-39
-0.0481694748254 -0.0762683351402 0.723 4.8835027274e-39
-0.0467666600906 -0.0761628464332 0.722 6.45224935172e-39
-0.0453046236255 -0.0759518690193 0.72 8.66705482392e-39
-0.0437889174675 -0.0756354028984 0.717 8.39082246284e-39
-0.0422843153838 -0.0753189367775 0.714 7.74688237823e-39
-0.0407908173746 -0.0750024706566 0.711 7.56248691461e-39
-0.039419464184 -0.0748969819496 0.71 7.46956821474e-39
-0.0381054820445 -0.0748969819496 0.71 7.2844580889e-39
-0.0366878618772 -0.0746860045356 0.708 7.2844580889e-39
-0.0353775810958 -0.0746860045356 0.708 6.82384567849e-39
-0.0340191826587 -0.0745805158287 0.707 6.45650929905e-39
-0.0327107525564 -0.0745805158287 0.707 6.36467940808e-39
-0.0314023224542 -0.0745805158287 0.707 6.4539981722e-39
-0.0300938923519 -0.0745805158287 0.707 7.00753628898e-39
-0.0287447473101 -0.0744750271217 0.706 6.36684581551e-39
-0.0274381678869 -0.0744750271217 0.706 5.08077612391e-39
-0.026057561301 -0.0742640497078 0.704 5.66079738036e-40
-0.0247546832359 -0.0742640497078 0.704 6.37471550768e-39
-0.0234518051709 -0.0742640497078 0.704 8.12392134824e-39
-0.0221489271058 -0.0742640497078 0.704 2.19486303324e-38
-0.020905270771 -0.0744750271217 0.706 2.24064037121e-38
