# .PCD v0.7 - Point Cloud Data file format
VERSION 0.7
FIELDS x y z rgb
SIZE 4 4 4 4
TYPE F F F F
COUNT 1 1 1 1
WIDTH 845
HEIGHT 1
VIEWPOINT 0 0 0 1 0 0 0
POINTS 845
DATA ascii
0.014398283162 -0.0100787982134 0.778 6.54903703665e-39
0.0157973965387 -0.0100528887065 0.776 7.3784487821e-39
0.0171891071991 -0.0100269791995 0.774 7.93162256128e-39
0.018621532799 -0.0100269791995 0.774 7.56319176774e-39
0.020053958399 -0.0100269791995 0.774 6.54938876256e-39
0.0214586238128 -0.010014024446 0.773 6.82668330788e-39
0.0228299770035 -0.00998811493901 0.771 7.19582596103e-39
0.0241939274778 -0.00996220543204 0.769 7.65752297646e-39
0.0256170996824 -0.00996220543204 0.769 7.19654762974e-39
0.027040271887 -0.00996220543204 0.769 7.01287803873e-39
0.0284634440915 -0.00996220543204 0.769 7.56534696478e-39
0.0298866162961 -0.00996220543204 0.769 6.36681778954e-39
0.0313097885007 -0.00996220543204 0.769 6.73489825846e-39
0.0328180919425 -0.00998811493901 0.771 1.07911542465e-38
0.0342449655052 -0.00998811493901 0.771 1.0420230543e-38
0.0359031739516 -0.0100528887065 0.776 1.06961013691e-38
0.0375798891887 -0.0101176624739 0.781 1.05117101094e-38
0.0393250795514 -0.0101953909948 0.787 9.95817899909e-39
0.0409370210211 -0.0102342552553 0.79 1.03269671237e-38
0.0426137362582 -0.0102860742692 0.794 1.07875935471e-38
0.0440831754396 -0.0102860742692 0.794 1.161700249e-38
0.0456673567232 -0.0103119837762 0.796 1.27229969211e-38
0.0473773841836 -0.0103638027902 0.8 1.19839899461e-38
0.0489800722579 -0.0103897122971 0.802 1.07843901788e-38
0.0506530861369 -0.0104285765576 0.805 1.05106395173e-38
0.052142882788 -0.0104285765576 0.805 1.08797863744e-38
-0.0700296959964 -0.0095495039995 0.86 9.03802336898e-39
-0.0684381119964 -0.0095495039995 0.86 9.22025242518e-39
-0.0666910709547 -0.00952729585067 0.858 9.31172498503e-39
-0.0649514326292 -0.00950508770183 0.856 8.39049315771e-39
-0.0633672513455 -0.00950508770183 0.856 8.20611170707e-39
-0.0614221876433 -0.00944956732974 0.851 8.48340625238e-39
-0.059847259755 -0.00944956732974 0.851 8.57450886944e-39
-0.0581353816156 -0.0094273591809 0.849 8.57414032795e-39
-0.0564309061924 -0.00940515103207 0.847 9.49609942918e-39
-0.0548633810204 -0.00940515103207 0.847 1.09708763798e-38
-0.0531700096716 -0.00938294288323 0.845 1.10637908758e-38
-0.0513618962206 -0.00933852658556 0.841 8.11460411475e-39
-0.0496870316625 -0.00931631843672 0.839 8.29791917726e-39
-0.0480195698208 -0.00929411028789 0.837 6.73167527199e-39
-0.0463595106953 -0.00927190213905 0.835 7.0089810277e-39
-0.044706854286 -0.00924969399022 0.833 7.37920408197e-39
-0.043165238621 -0.00924969399022 0.833 7.47175984554e-39
-0.041623622956 -0.00924969399022 0.833 7.10297732609e-39
-0.0399857719793 -0.00922748584138 0.831 6.91822172876e-39
-0.0382627897654 -0.00918306954371 0.827 6.82530302889e-39
-0.0366434455795 -0.00916086139487 0.825 7.37847400547e-39
-0.0350315041098 -0.00913865324604 0.823 7.5628652652e-39
-0.0333455354773 -0.00909423694836 0.819 7.93165058725e-39
-0.0318298293193 -0.00909423694836 0.819 7.46995637442e-39
-0.0302400959984 -0.00907202879953 0.817 7.83873609127e-39
-0.0287280911985 -0.00907202879953 0.817 7.83837175367e-39
-0.0271494619521 -0.00904982065069 0.815 8.02311894321e-39
-0.0255782354219 -0.00902761250186 0.813 7.83872488089e-39
-0.0240144116081 -0.00900540435302 0.811 8.11425519143e-39
-0.0224579905105 -0.00898319620418 0.809 1.06010400839e-38
-0.0209089721291 -0.00896098805535 0.807 1.27186753167e-38
-0.0194154741199 -0.00896098805535 0.807 9.94992675243e-39
-0.017877559813 -0.00893877990651 0.805 3.76993147545e-39
-0.0163470482224 -0.00891657175768 0.803 6.99388343804e-39
-0.0148609529295 -0.00891657175768 0.803 9.57355480049e-39
-0.0133582015249 -0.00890546768326 0.802 9.20297441511e-39
-0.011873956911 -0.00890546768326 0.802 9.85228567673e-39
-0.0103638027902 -0.00888325953442 0.8 9.39310259075e-39
-0.00888325953442 -0.00888325953442 0.8 8.28854729313e-39
-0.00738420948799 -0.00886105138558 0.798 7.46094322269e-39
-0.00589256215783 -0.00883884323675 0.796 6.17343720016e-39
-0.00441942161837 -0.00883884323675 0.796 7.92767230091e-39
-0.00293887836264 -0.00881663508791 0.794 7.74508311101e-39
-0.00146573782318 -0.00879442693908 0.792 7.00931593803e-39
0.0 -0.00877221879024 0.79 7.10259056771e-39
0.00146203646504 -0.00877221879024 0.79 7.28663010152e-39
0.00292037157194 -0.00876111471582 0.789 7.47102416385e-39
0.00438055735791 -0.00876111471582 0.789 7.74759704045e-39
0.00582593771132 -0.00873890656699 0.787 7.56425675457e-39
0.00728242213916 -0.00873890656699 0.787 8.11741652077e-39
0.00869449026931 -0.00869449026931 0.783 8.57696954955e-39
0.0101435719809 -0.00869449026931 0.783 8.29932888351e-39
0.0115630428273 -0.00867228212048 0.781 7.37915503653e-39
0.0130084231807 -0.00867228212048 0.781 7.74793755598e-39
0.0144352967434 -0.00866117804606 0.78 7.56319457034e-39
0.0158381114782 -0.00863896989722 0.778 7.3784515847e-39
0.0172335234968 -0.00861676174839 0.776 6.73272624584e-39
0.018621532799 -0.00859455359955 0.774 7.10186189251e-39
0.020053958399 -0.00859455359955 0.774 7.83977865733e-39
0.0214586238128 -0.00858344952513 0.773 7.37915223393e-39
0.0228891987337 -0.00858344952513 0.773 6.36536464303e-39
0.0241939274778 -0.00853903322746 0.769 6.64267039873e-39
0.0256170996824 -0.00853903322746 0.769 7.10364854805e-39
0.027040271887 -0.00853903322746 0.769 7.01145291819e-39
0.0284634440915 -0.00853903322746 0.769 7.19621552201e-39
0.0298866162961 -0.00853903322746 0.769 6.82672814943e-39
0.0313097885007 -0.00853903322746 0.769 7.1033318546e-39
0.0328180919425 -0.0085612413763 0.771 1.06064140635e-38
0.0342449655052 -0.0085612413763 0.771 9.86670083404e-39
0.0361345088353 -0.00867228212048 0.781 1.01425702588e-38
0.037772359812 -0.00871669841815 0.785 9.68194944061e-39
0.0394749845561 -0.00877221879024 0.79 9.49683931477e-39
0.0411442970769 -0.00881663508791 0.794 9.68123197579e-39
0.0427210756443 -0.00883884323675 0.796 1.1523712446e-38
0.0441942161837 -0.00883884323675 0.796 1.18003035395e-38
0.0457820988255 -0.00886105138558 0.798 1.2628992215e-38
0.0473773841836 -0.00888325953442 0.8 1.22609285616e-38
0.0490411446672 -0.00891657175768 0.803 9.95606023581e-39
0.0506530861369 -0.00893877990651 0.805 9.86634910812e-39
0.052142882788 -0.00893877990651 0.805 1.06049959494e-38
-0.0651031883129 -0.00793941320889 0.858 8.29829752784e-39
-0.0633672513455 -0.00792090641819 0.856 8.20647604467e-39
-0.0616387170945 -0.0079023996275 0.854 8.20683057318e-39
-0.059847259755 -0.00787463944145 0.851 8.11461812774e-39
-0.0581353816156 -0.00785613265075 0.849 8.11460691735e-39
-0.0565641550854 -0.00785613265075 0.849 8.9432885863e-39
-0.0548633810204 -0.00783762586006 0.847 8.11281185401e-39
-0.0532958558484 -0.00783762586006 0.847 1.05102513577e-38
-0.0516061858578 -0.00781911906936 0.845 1.07871899732e-38
-0.049805475123 -0.00778210548797 0.841 8.94364171351e-39
-0.0481343119231 -0.00776359869727 0.839 8.11460411475e-39
-0.0464705514394 -0.00774509190657 0.837 7.10117105237e-39
-0.0448141936721 -0.00772658511588 0.835 6.27213205231e-39
-0.0432688766489 -0.00772658511588 0.835 6.73383327163e-39
-0.041623622956 -0.00770807832518 0.833 6.82674496501e-39
-0.0400820072909 -0.00770807832518 0.833 7.19552748446e-39
-0.0383553237189 -0.00767106474379 0.829 6.91893779227e-39
-0.0367322781748 -0.00765255795309 0.827 7.47102416385e-39
-0.035116635347 -0.00763405116239 0.825 7.10224164439e-39
-0.0334269653564 -0.007597037581 0.821 7.19444007685e-39
-0.0319075578402 -0.007597037581 0.821 7.00932995101e-39
-0.0303141231612 -0.0075785307903 0.819 7.65469936006e-39
-0.0287280911985 -0.00756002399961 0.817 7.65398049395e-39
-0.0272160863986 -0.00756002399961 0.817 7.74617612381e-39
-0.0256411585103 -0.00754151720891 0.815 7.56178486408e-39
-0.0240736333383 -0.00752301041821 0.813 1.00500102913e-38
-0.0225690312546 -0.00752301041821 0.813 1.02322575644e-38
-0.021012610157 -0.00750450362752 0.811 1.1520486657e-38
-0.0194635917757 -0.00748599683682 0.809 1.30856473585e-38
-0.0179663924084 -0.00748599683682 0.809 1.03172533228e-38
-0.0164284781015 -0.00746749004612 0.807 4.50532450174e-39
-0.0148979665109 -0.00744898325543 0.805 5.88610375265e-39
-0.0133748576365 -0.00743047646473 0.803 8.55834349036e-39
-0.0118887623436 -0.00743047646473 0.803 1.01263712486e-38
-0.0103897122971 -0.00742122306938 0.802 9.94268624327e-39
-0.00890546768326 -0.00742122306938 0.802 9.11507376504e-39
-0.00742122306938 -0.00742122306938 0.802 1.06841931348e-38
-0.00592217302295 -0.00740271627868 0.8 8.28926475794e-39
-0.00441942161837 -0.00736570269729 0.796 7.18579967052e-39
-0.00294628107892 -0.00736570269729 0.796 8.38615193506e-39
-0.00146943918132 -0.00734719590659 0.794 8.11137272049e-39
0.0 -0.0073286891159 0.792 7.83873609127e-39
0.00146203646504 -0.0073101823252 0.79 6.08774079258e-39
0.00292407293008 -0.0073101823252 0.79 6.73310739903e-39
0.00438610939512 -0.0073101823252 0.79 7.28698322874e-39
0.00584074314388 -0.00730092892985 0.789 7.47171220139e-39
0.00730092892985 -0.00730092892985 0.789 7.37986549485e-39
0.00873890656699 -0.00728242213916 0.787 7.65645798963e-39
0.0101694814878 -0.00726391534846 0.785 8.3929636469e-39
0.0115926536924 -0.00724540855776 0.783 7.9319714846e-39
0.013041735404 -0.00724540855776 0.783 7.84013318584e-39
0.0144538035341 -0.00722690176707 0.781 7.9319714846e-39
0.0158991838875 -0.00722690176707 0.781 7.93197708979e-39
0.0172779397944 -0.00719914158102 0.778 8.30040367943e-39
0.0186696504548 -0.00718063479032 0.776 7.83942553012e-39
0.0201057774129 -0.00718063479032 0.776 7.93197428719e-39
0.021541904371 -0.00718063479032 0.776 8.39295243651e-39
0.0229188095988 -0.00716212799963 0.774 7.56355750664e-39
0.0243197736545 -0.00715287460428 0.773 6.36501431842e-39
0.0256837241289 -0.00713436781358 0.771 7.65575033391e-39
0.0271105976916 -0.00713436781358 0.771 7.1954910507e-39
0.0285374712543 -0.00713436781358 0.771 7.28733215205e-39
0.029964344817 -0.00713436781358 0.771 6.27355437025e-39
0.0313912183798 -0.00713436781358 0.771 8.39335180657e-39
0.0329032231797 -0.00715287460428 0.773 1.07900892597e-38
0.0344670469936 -0.00718063479032 0.776 1.00510934951e-38
0.0364121106958 -0.00728242213916 0.787 9.86598336922e-39
0.0378685951236 -0.00728242213916 0.787 9.95781746408e-39
0.0394250162212 -0.00730092892985 0.789 1.00492900239e-38
0.0411442970769 -0.00734719590659 0.794 9.8641798981e-39
0.0428284150303 -0.00738420948799 0.798 1.13382337787e-38
0.0443052569279 -0.00738420948799 0.798 1.20754442891e-38
0.0457820988255 -0.00738420948799 0.798 1.24435135476e-38
0.0475550493743 -0.00743047646473 0.803 1.1156011729e-38
0.0491632894858 -0.00744898325543 0.805 9.68090407195e-39
0.0507789323136 -0.00746749004612 0.807 9.49829105998e-39
0.0522724303229 -0.00746749004612 0.807 1.0329127926e-38
-0.0635153056711 -0.00635153056711 0.858 8.20647604467e-39
-0.0617830700619 -0.00633672513455 0.856 7.93024368359e-39
-0.060058237169 -0.006321919702 0.854 8.39192668603e-39
-0.0582723318667 -0.00629971155316 0.851 7.65435043674e-39
-0.0565641550854 -0.0062849061206 0.849 7.37668734993e-39
-0.0549929285553 -0.0062849061206 0.849 7.9291408617e-39
-0.0534217020251 -0.0062849061206 0.849 8.48194750068e-39
-0.0516061858578 -0.00625529525549 0.845 8.57449205386e-39
-0.0499239185834 -0.00624048982293 0.843 8.94364171351e-39
-0.0482490540254 -0.00622568439037 0.841 9.95851671202e-39
-0.0466926329278 -0.00622568439037 0.841 9.40569886265e-39
-0.0450288724442 -0.00621087895782 0.839 7.74617752511e-39
-0.0433725146768 -0.00619607352526 0.837 6.45615757313e-39
-0.0417235596257 -0.0061812680927 0.835 6.17993081725e-39
-0.0401782426026 -0.0061812680927 0.835 7.01077048584e-39
-0.0385403916259 -0.00616646266014 0.833 6.91929372208e-39
-0.0368211107702 -0.00613685179503 0.829 7.10224164439e-39
-0.0352017665842 -0.00612204636247 0.827 6.73345632234e-39
-0.0335898251145 -0.00610724092991 0.825 7.01004321193e-39
-0.0319852863611 -0.00609243549736 0.823 7.28626996782e-39
-0.030388150324 -0.0060776300648 0.821 7.5625009276e-39
-0.0287984170032 -0.00606282463224 0.819 7.93092331335e-39
-0.0272160863986 -0.00604801919968 0.817 7.74617612381e-39
-0.0257040815987 -0.00604801919968 0.817 7.93056738354e-39
-0.0241328550685 -0.00603321376713 0.815 9.9585335276e-39
-0.0225690312546 -0.00601840833457 0.813 1.05110024537e-38
-0.021064429171 -0.00601840833457 0.813 8.38834636846e-39
-0.0194635917757 -0.00598879746946 0.809 1.12442514933e-38
-0.0179663924084 -0.00598879746946 0.809 1.29016036208e-38
-0.016469193041 -0.00598879746946 0.809 1.29912783147e-38
-0.0149349800922 -0.0059739920369 0.807 7.54922642724e-39
-0.0134081698598 -0.00595918660434 0.805 6.07231249649e-39
-0.0118887623436 -0.00594438117178 0.803 9.29626025518e-39
-0.0103897122971 -0.0059369784555 0.802 7.08355112548e-39
-0.00890546768326 -0.0059369784555 0.802 9.66538048756e-39
-0.00742122306938 -0.0059369784555 0.802 1.08649956691e-38
-0.00592217302295 -0.00592217302295 0.8 8.4700672923e-39
-0.00443052569279 -0.00590736759039 0.798 8.10345118027e-39
-0.00294628107892 -0.00589256215783 0.796 8.47404277604e-39
-0.00146943918132 -0.00587775672528 0.794 8.84463577311e-39
0.0 -0.00586295129272 0.792 1.31817806371e-38
0.00146573782318 -0.00586295129272 0.792 9.49611063957e-39
0.00292407293008 -0.00584814586016 0.79 7.9291394604e-39
0.00438610939512 -0.00584814586016 0.79 6.73238012512e-39
0.00584814586016 -0.00584814586016 0.79 7.28661608854e-39
0.00730092892985 -0.00584074314388 0.789 7.28768387797e-39
0.00876111471582 -0.00584074314388 0.789 7.74866482988e-39
0.0101953909948 -0.00582593771132 0.787 7.47172901697e-39
0.0116222645575 -0.00581113227877 0.785 8.11708161044e-39
0.013041735404 -0.00579632684621 0.783 6.36500030543e-39
0.0144908171155 -0.00579632684621 0.783 6.64158439242e-39
0.0158991838875 -0.00578152141365 0.781 7.1947581716e-39
0.017344564241 -0.00578152141365 0.781 8.11671447024e-39
0.0187658857665 -0.00577411869737 0.78 7.74793475338e-39
0.0201575964269 -0.00575931326482 0.778 7.47135066639e-39
0.021541904371 -0.00574450783226 0.776 8.11672007543e-39
0.022978031329 -0.00574450783226 0.776 7.93197428719e-39
0.0243197736545 -0.00572229968342 0.773 6.73414996508e-39
0.0257503485754 -0.00572229968342 0.773 7.1951239105e-39
0.0271809234963 -0.00572229968342 0.773 7.37987110004e-39
0.0286114984171 -0.00572229968342 0.773 7.74866202728e-39
0.0300809375984 -0.0057297023997 0.774 5.25903109766e-39
0.0315133631984 -0.0057297023997 0.774 9.31601576093e-39
0.0330309200355 -0.00574450783226 0.776 9.49970216753e-39
0.0346447121842 -0.00577411869737 0.78 9.86670223534e-39
0.0364121106958 -0.00582593771132 0.787 9.22061396018e-39
0.0378685951236 -0.00582593771132 0.787 9.68123057449e-39
0.0394250162212 -0.00584074314388 0.789 9.49611624476e-39
0.0412479351048 -0.00589256215783 0.796 1.0601744937e-38
0.0428284150303 -0.00590736759039 0.798 1.06006687398e-38
0.0443052569279 -0.00590736759039 0.798 1.2628255132e-38
0.0457820988255 -0.00590736759039 0.798 1.23509521789e-38
0.0476734928347 -0.00595918660434 0.805 1.05106367148e-38
0.0492854343044 -0.0059739920369 0.807 9.49794213666e-39
0.0509047784904 -0.00598879746946 0.809 9.40681990142e-39
0.0524019778577 -0.00598879746946 0.809 9.7766758155e-39
-0.0601988887783 -0.00475254385092 0.856 8.11569292366e-39
-0.0584777572435 -0.0047414397765 0.854 7.74690620031e-39
-0.0566974039784 -0.00472478366487 0.851 7.37812508215e-39
-0.0551224760902 -0.00472478366487 0.851 7.4696046485e-39
-0.0534217020251 -0.00471367959045 0.849 7.74474539808e-39
-0.0517283306764 -0.00470257551603 0.847 7.92984431353e-39
-0.0500423620439 -0.00469147144162 0.845 7.19264781612e-39
-0.0483637961277 -0.0046803673672 0.843 8.39119100434e-39
-0.046803673672 -0.0046803673672 0.843 9.86559801215e-39
-0.0451362118302 -0.00466926329278 0.841 8.4826621629e-39
-0.0434761527047 -0.00465815921836 0.839 7.92984431353e-39
-0.0418234962955 -0.00464705514394 0.837 6.7313011253e-39
-0.0401782426026 -0.00463595106953 0.835 6.08701071608e-39
-0.0386329255794 -0.00463595106953 0.835 5.81078396019e-39
-0.0369987759609 -0.00462484699511 0.833 6.91784758207e-39
-0.0352868978214 -0.00460263884627 0.829 7.28698603133e-39
-0.0336712549936 -0.00459153477185 0.827 6.73381225215e-39
-0.0320630148821 -0.00458043069744 0.825 6.91748464577e-39
-0.030388150324 -0.0045582225486 0.821 6.64089775618e-39
-0.0288687428078 -0.0045582225486 0.821 7.37774673157e-39
-0.0272827108451 -0.00454711847418 0.819 7.37774953417e-39
-0.0257040815987 -0.00453601439976 0.817 7.37739360436e-39
-0.0241920767987 -0.00453601439976 0.817 7.56107860966e-39
-0.0226245516267 -0.00452491032535 0.815 9.03586256675e-39
-0.021064429171 -0.00451380625093 0.813 8.85004198259e-39
-0.0195117094315 -0.00450270217651 0.811 8.75568835309e-39
-0.018010808706 -0.00450270217651 0.811 1.23498703764e-38
-0.0165099079805 -0.00450270217651 0.811 1.37313642896e-38
-0.0149719936736 -0.00449159810209 0.809 1.33611482418e-38
-0.013441482083 -0.00448049402767 0.807 6.44504807891e-39
-0.0118887623436 -0.00445828587884 0.803 7.17900057037e-39
-0.0103897122971 -0.00445273384163 0.802 8.74451860303e-39
-0.00890546768326 -0.00445273384163 0.802 8.559402872e-39
-0.00742122306938 -0.00445273384163 0.802 9.48099343173e-39
-0.00592217302295 -0.00444162976721 0.8 1.04955054939e-38
-0.00444162976721 -0.00444162976721 0.8 1.09586444455e-38
-0.00295368379519 -0.00443052569279 0.798 7.08895032846e-39
-0.00147314053946 -0.00441942161837 0.796 9.39456694765e-39
0.0 -0.00440831754396 0.794 9.21341548997e-39
0.00146573782318 -0.00439721346954 0.792 1.27175626857e-38
0.00293147564636 -0.00439721346954 0.792 1.06914112231e-38
0.00439721346954 -0.00439721346954 0.792 9.31026483203e-39
0.00584814586016 -0.00438610939512 0.79 7.19191353572e-39
0.0073101823252 -0.00438610939512 0.79 5.90332991467e-39
0.00876111471582 -0.00438055735791 0.789 6.91820070928e-39
0.0102213005018 -0.00438055735791 0.789 7.56429599093e-39
0.0116518754226 -0.00436945328349 0.787 7.84014439623e-39
0.0130750476272 -0.00435834920908 0.785 7.74793475338e-39
0.0144908171155 -0.00434724513466 0.783 7.28730973128e-39
0.0159398988271 -0.00434724513466 0.783 7.10327019747e-39
0.017344564241 -0.00433614106024 0.781 7.37985428446e-39
0.0187899445944 -0.00433614106024 0.781 7.65608804684e-39
0.0202094154408 -0.00433058902303 0.78 7.74828788059e-39
0.0215974247431 -0.00431948494861 0.778 7.93232601311e-39
0.022978031329 -0.00430838087419 0.776 7.47134786379e-39
0.0244141582871 -0.00430838087419 0.776 6.4571931327e-39
0.0258502852452 -0.00430838087419 0.776 7.01071863779e-39
0.0272864122032 -0.00430838087419 0.776 7.10363033117e-39
0.0287225391613 -0.00430838087419 0.776 7.01108297539e-39
0.0301586661194 -0.00430838087419 0.776 6.4579232092e-39
0.0316762229565 -0.00431948494861 0.778 8.76211610915e-39
0.0331160512727 -0.00431948494861 0.778 9.40678066506e-39
0.0347779610773 -0.00434724513466 0.783 9.22133142499e-39
0.0364121106958 -0.00436945328349 0.787 8.39085329141e-39
0.0378685951236 -0.00436945328349 0.787 9.68194944061e-39
0.0394749845561 -0.00438610939512 0.79 9.31244525244e-39
0.0412479351048 -0.00441942161837 0.796 9.58831187462e-39
0.0428284150303 -0.00443052569279 0.798 1.05095521097e-38
0.0444162976721 -0.00444162976721 0.8 1.14311510773e-38
0.0458968409278 -0.00444162976721 0.8 1.06003170139e-38
0.0479103797556 -0.00449159810209 0.809 9.77379054196e-39
0.049407579123 -0.00449159810209 0.809 1.01436660742e-38
0.0509047784904 -0.00449159810209 0.809 9.95928602487e-39
0.0524019778577 -0.00449159810209 0.809 9.22350483891e-39
-0.0584777572435 -0.003160959851 0.854 7.74725932752e-39
-0.0566974039784 -0.00314985577658 0.851 7.37920408197e-39
-0.0551224760902 -0.00314985577658 0.851 7.28557632508e-39
-0.0535475482019 -0.00314985577658 0.851 7.19337228742e-39
-0.051850475495 -0.0031424530603 0.849 7.37739500565e-39
-0.0500423620439 -0.00312764762774 0.845 7.83873889387e-39
-0.0483637961277 -0.00312024491147 0.843 7.19265342131e-39
-0.046803673672 -0.00312024491147 0.843 7.37631600584e-39
-0.0451362118302 -0.00311284219519 0.841 9.86415467473e-39
-0.0435797907326 -0.00311284219519 0.841 9.77159330597e-39
-0.0419234329653 -0.00310543947891 0.839 9.03438419687e-39
-0.0402744779142 -0.00309803676263 0.837 8.02059240208e-39
-0.0386329255794 -0.00309063404635 0.835 6.36215006436e-39
-0.0370876085562 -0.00309063404635 0.835 5.44235737055e-39
-0.0354571602958 -0.00308323133007 0.833 6.18028254316e-39
-0.0337526848727 -0.00306842589751 0.829 7.47137729106e-39
-0.032140743403 -0.00306102318124 0.827 6.73309058344e-39
-0.0305362046496 -0.00305362046496 0.825 7.10223043401e-39
-0.0289390686124 -0.00304621774868 0.823 7.28590422892e-39
-0.0273493352916 -0.0030388150324 0.821 7.10115703938e-39
-0.025767004687 -0.00303141231612 0.819 7.5621379913e-39
-0.0241920767987 -0.00302400959984 0.817 8.388672871e-39
-0.0226800719988 -0.00302400959984 0.817 1.00464103556e-38
-0.0211162481849 -0.00301660688356 0.815 1.02300967622e-38
-0.0195117094315 -0.00300180145101 0.811 1.03212175961e-38
-0.018010808706 -0.00300180145101 0.811 9.85987510922e-39
-0.0165099079805 -0.00300180145101 0.811 1.40079511792e-38
-0.0149719936736 -0.00299439873473 0.809 1.29016050221e-38
-0.013441482083 -0.00298699601845 0.807 1.29934475248e-38
-0.0119183732087 -0.00297959330217 0.805 9.21018129311e-39
-0.0104026670506 -0.00297219058589 0.803 6.71873848457e-39
-0.00891657175768 -0.00297219058589 0.803 8.5604930822e-39
-0.00743047646473 -0.00297219058589 0.803 7.45270358772e-39
-0.0059369784555 -0.00296848922775 0.802 8.92711199683e-39
-0.00445273384163 -0.00296848922775 0.802 9.94341631977e-39
-0.00295368379519 -0.00295368379519 0.798 6.71872447159e-39
-0.0014768418976 -0.00295368379519 0.798 7.64247303096e-39
0.0 -0.00294628107892 0.796 7.08787413124e-39
0.00147314053946 -0.00294628107892 0.796 7.91871099723e-39
0.00293887836264 -0.00293887836264 0.794 8.93537265127e-39
0.00439721346954 -0.00293147564636 0.792 1.30863311922e-38
0.00586295129272 -0.00293147564636 0.792 1.10612671372e-38
0.0073101823252 -0.00292407293008 0.79 8.48231043698e-39
0.00877221879024 -0.00292407293008 0.79 6.5487189419e-39
0.0102213005018 -0.00292037157194 0.789 6.45795964296e-39
0.0116814862878 -0.00292037157194 0.789 6.0877211744e-39
0.0130750476272 -0.00290556613938 0.785 7.65503427039e-39
0.0144908171155 -0.0028981634231 0.783 7.93232881571e-39
0.0159398988271 -0.0028981634231 0.783 8.39365308574e-39
0.0173889805386 -0.0028981634231 0.783 7.65644117405e-39
0.0187899445944 -0.00289076070683 0.781 7.74863960651e-39
0.0202353249478 -0.00289076070683 0.781 7.65609225073e-39
0.0216529451152 -0.00288705934869 0.78 8.20891570529e-39
0.0230372530593 -0.00287965663241 0.778 7.1947581716e-39
0.0244141582871 -0.00287225391613 0.776 6.45754485861e-39
0.0258502852452 -0.00287225391613 0.776 7.19546022214e-39
0.0272864122032 -0.00287225391613 0.776 7.19617908825e-39
0.0287225391613 -0.00287225391613 0.776 7.19582876363e-39
0.0302363946403 -0.00287965663241 0.778 6.55047476887e-39
0.0316762229565 -0.00287965663241 0.778 8.76211610915e-39
0.0332011825099 -0.00288705934869 0.78 8.85360968848e-39
0.0349556262679 -0.00291296885566 0.787 8.85218877184e-39
0.0364121106958 -0.00291296885566 0.787 9.22061396018e-39
0.0379648304352 -0.00292037157194 0.789 9.22097129129e-39
0.0395749212258 -0.00293147564636 0.792 8.9443844017e-39
0.0413515731327 -0.00295368379519 0.798 9.86634070033e-39
0.0428284150303 -0.00295368379519 0.798 1.0234405755e-38
0.0445273384163 -0.00296848922775 0.802 9.77307447844e-39
0.0460689540813 -0.00297219058589 0.803 9.8652729109e-39
0.0479103797556 -0.00299439873473 0.809 9.68159491209e-39
0.049407579123 -0.00299439873473 0.809 9.68160612248e-39
0.0509047784904 -0.00299439873473 0.809 9.40504165367e-39
-0.0584777572435 -0.0015804799255 0.854 7.37847400547e-39
-0.0566974039784 -0.00157492788829 0.851 6.64199917677e-39
-0.0551224760902 -0.00157492788829 0.851 6.73420041183e-39
-0.0535475482019 -0.00157492788829 0.851 7.0093425627e-39
-0.051850475495 -0.00157122653015 0.849 7.0089754225e-39
-0.0501608055044 -0.00156752517201 0.847 6.17958189393e-39
-0.04847853823 -0.00156382381387 0.845 7.19301495631e-39
-0.0469147144162 -0.00156382381387 0.845 7.74510132789e-39
-0.0452435512162 -0.00156012245573 0.843 7.28231410225e-39
-0.0436834287605 -0.00156012245573 0.843 8.75635677246e-39
-0.042023369635 -0.00155642109759 0.841 9.95417829197e-39
-0.0403707132258 -0.00155271973945 0.839 1.03236796775e-38
-0.0387254595329 -0.00154901838131 0.837 9.12513648931e-39
-0.0370876085562 -0.00154531702318 0.835 7.46994236143e-39
-0.035542291533 -0.00154531702318 0.835 5.0739377874e-39
-0.0339155446308 -0.00154161566504 0.833 5.16648654448e-39
-0.0322184719239 -0.00153421294876 0.829 7.19442606387e-39
-0.0306102318124 -0.00153051159062 0.827 7.01003200154e-39
-0.0290093944171 -0.00152681023248 0.825 7.47029408735e-39
-0.0274159597381 -0.00152310887434 0.823 7.19370859905e-39
-0.0258299277754 -0.0015194075162 0.821 7.19335266924e-39
-0.0243105202592 -0.0015194075162 0.821 7.5567457948e-39
-0.0227355923709 -0.00151570615806 0.819 8.93646005888e-39
-0.0211680671989 -0.00151200479992 0.817 9.21234770054e-39
-0.0195598270874 -0.00150460208364 0.813 9.85808424978e-39
-0.0180552250037 -0.00150460208364 0.813 1.1148818864e-38
-0.0165506229201 -0.00150460208364 0.813 1.06885483704e-38
-0.015009007255 -0.0015009007255 0.811 1.29927174483e-38
-0.0134747943063 -0.00149719936736 0.809 1.24402625352e-38
-0.0119479840738 -0.00149349800922 0.807 1.36380868573e-38
-0.0104285765576 -0.00148979665109 0.805 9.21018129311e-39
-0.00893877990651 -0.00148979665109 0.805 6.62582819249e-39
-0.00744898325543 -0.00148979665109 0.805 7.91405308113e-39
-0.00594438117178 -0.00148609529295 0.803 7.91260974372e-39
-0.00445828587884 -0.00148609529295 0.803 1.05873493979e-38
-0.00297219058589 -0.00148609529295 0.803 1.04058223922e-38
-0.00148054325574 -0.00148054325574 0.8 1.07767502996e-38
0.0 -0.00148054325574 0.8 1.14185463976e-38
0.0014768418976 -0.0014768418976 0.798 8.28389217963e-39
0.00294628107892 -0.00147314053946 0.796 9.85372901415e-39
0.00440831754396 -0.00146943918132 0.794 8.56658732922e-39
0.00586295129272 -0.00146573782318 0.792 1.19803521753e-38
0.0073101823252 -0.00146203646504 0.79 1.29059126136e-38
0.00877221879024 -0.00146203646504 0.79 9.40535694582e-39
0.0102213005018 -0.00146018578597 0.789 7.19445689243e-39
0.0116814862878 -0.00146018578597 0.789 6.91677979264e-39
0.0130750476272 -0.00145278306969 0.785 6.82457014979e-39
0.0145278306969 -0.00145278306969 0.785 6.64088234189e-39
0.0159398988271 -0.00144908171155 0.783 6.82597565215e-39
0.0173889805386 -0.00144908171155 0.783 7.65608804684e-39
0.0187899445944 -0.00144538035341 0.781 7.84048070786e-39
0.0202353249478 -0.00144538035341 0.781 7.74793475338e-39
0.0216529451152 -0.00144352967434 0.78 7.93197708979e-39
0.0230964747895 -0.00144352967434 0.78 7.19403790419e-39
0.0244770813755 -0.0014398283162 0.778 6.45754485861e-39
0.0259169096917 -0.0014398283162 0.778 7.37985148186e-39
0.0273567380079 -0.0014398283162 0.778 7.47204711173e-39
0.0287965663241 -0.0014398283162 0.778 6.64265638575e-39
0.0302363946403 -0.0014398283162 0.778 5.53525084705e-39
0.0317576528356 -0.00144352967434 0.78 9.22274113125e-39
0.0332011825099 -0.00144352967434 0.78 8.57667107297e-39
0.0349556262679 -0.00145648442783 0.787 9.03622270045e-39
0.0365046446493 -0.00146018578597 0.789 9.40500521991e-39
0.038012948091 -0.00146203646504 0.79 8.85218877184e-39
0.0395749212258 -0.00146573782318 0.792 8.9447445354e-39
0.0414552111606 -0.00148054325574 0.8 8.85255030684e-39
0.0429357544164 -0.00148054325574 0.8 9.49756658867e-39
0.0445828587884 -0.00148609529295 0.803 9.49757079257e-39
0.0461836961836 -0.00148979665109 0.805 9.77380175235e-39
0.0480288232161 -0.0015009007255 0.811 9.4050080225e-39
0.0495297239416 -0.0015009007255 0.811 9.49685472905e-39
-0.0553167973925 0.0 0.854 6.82423243686e-39
-0.0535475482019 0.0 0.851 6.36361161865e-39
-0.051850475495 0.0 0.849 6.82422122647e-39
-0.0501608055044 0.0 0.847 6.45652331203e-39
-0.04847853823 0.0 0.845 6.45580444592e-39
-0.0469147144162 0.0 0.845 6.17885181743e-39
-0.0452435512162 0.0 0.843 7.00788801489e-39
-0.0436834287605 0.0 0.843 6.82312821367e-39
-0.042023369635 0.0 0.841 8.38972664745e-39
-0.0404669485374 0.0 0.841 9.03580371221e-39
-0.0388179934863 0.0 0.839 8.11420194209e-39
-0.0371764411516 0.0 0.837 7.37809565489e-39
-0.035542291533 0.0 0.835 6.73380944956e-39
-0.0339969745099 0.0 0.835 7.10438843364e-39
-0.0323739289658 0.0 0.833 4.98568120752e-39
-0.0306102318124 0.0 0.827 4.15663940486e-39
-0.0290797202217 0.0 0.827 6.64448648154e-39
-0.0274825841846 0.0 0.825 7.28698322874e-39
-0.0258928508638 0.0 0.823 7.28554829911e-39
-0.0243105202592 0.0 0.821 8.47618956529e-39
-0.022791112743 0.0 0.821 9.48495630379e-39
-0.0212198862128 0.0 0.819 9.38845868764e-39
-0.019656062399 0.0 0.817 1.00313183711e-38
-0.0180996413014 0.0 0.815 1.05848550866e-38
-0.0165913378596 0.0 0.815 1.33564749114e-38
-0.0150460208364 0.0 0.813 1.02293708896e-38
-0.0135081065295 0.0 0.811 1.07882941964e-38
-0.0119775949389 0.0 0.809 1.26264488582e-38
-0.0104544860646 0.0 0.807 1.37310041559e-38
-0.00896098805535 0.0 0.807 9.8587961094e-39
-0.00744898325543 0.0 0.805 3.31002952336e-39
-0.00595918660434 0.0 0.805 8.00660323951e-39
-0.00446938995326 0.0 0.805 9.10969978543e-39
-0.00297219058589 0.0 0.803 9.38699993594e-39
-0.00148424461388 0.0 0.802 8.74522345616e-39
0.0 0.0 0.802 9.11545631952e-39
0.00148054325574 0.0 0.8 7.91763480001e-39
0.00295368379519 0.0 0.798 8.00911436636e-39
0.00441942161837 0.0 0.796 7.82508324033e-39
0.00587775672528 0.0 0.794 5.89256794247e-39
0.0073286891159 0.0 0.792 1.13346282377e-38
0.00879442693908 0.0 0.792 1.34598122654e-38
0.0102342552553 0.0 0.79 9.95854754058e-39
0.0116814862878 0.0 0.789 8.11387964344e-39
0.0131083598505 0.0 0.787 7.56104497849e-39
0.0145278306969 0.0 0.785 7.46920107454e-39
0.0159806137666 0.0 0.785 6.17917831997e-39
0.0173889805386 0.0 0.783 6.82527360162e-39
0.0188380622502 0.0 0.783 7.3784473808e-39
0.0202353249478 0.0 0.781 7.74829909098e-39
0.0216807053012 0.0 0.781 7.28767266758e-39
0.0230964747895 0.0 0.78 6.45791480141e-39
0.0245400044638 0.0 0.78 6.91959079736e-39
0.0259835341382 0.0 0.78 7.28837752071e-39
0.0274270638125 0.0 0.78 7.10398205709e-39
0.0288705934869 0.0 0.78 6.91960621164e-39
0.0303141231612 0.0 0.78 6.18028534576e-39
0.0317983677751 0.0 0.781 9.22346840515e-39
0.0333288793657 0.0 0.783 8.11606426775e-39
0.0349556262679 0.0 0.787 9.22133562889e-39
0.0365046446493 0.0 0.789 8.57596341725e-39
0.038012948091 0.0 0.79 8.76035327568e-39
0.0395749212258 0.0 0.792 9.03694016527e-39
0.0414552111606 0.0 0.8 9.12913719643e-39
0.0430430938024 0.0 0.802 9.58976221853e-39
0.0448049402767 0.0 0.807 9.31317953284e-39
0.0464131803883 0.0 0.809 9.68160892508e-39
0.0480288232161 0.0 0.811 9.49650300314e-39
0.0498961583974 0.0 0.817 1.14315420395e-38
0.0514081631973 0.0 0.817 1.30914305173e-38
-0.0535475482019 0.00157492788829 0.851 6.45508277721e-39
-0.0519726203136 0.00157492788829 0.851 6.08701071608e-39
-0.0502792489648 0.00157122653015 0.849 6.64019290305e-39
-0.0485932803324 0.00156752517201 0.847 5.9948290992e-39
-0.0470257551603 0.00156752517201 0.847 6.27141318619e-39
-0.0453508906023 0.00156382381387 0.845 6.27069151748e-39
-0.0437870667884 0.00156382381387 0.845 5.99481508622e-39
-0.0421233063048 0.00156012245573 0.843 6.36286752917e-39
-0.0404669485374 0.00155642109759 0.841 6.73200037324e-39
-0.0388179934863 0.00155271973945 0.839 7.00857885504e-39
-0.0372652737469 0.00155271973945 0.839 6.55049578835e-39
-0.0356274227702 0.00154901838131 0.837 6.36610592992e-39
-0.0339969745099 0.00154531702318 0.835 6.91639723816e-39
-0.0323739289658 0.00154161566504 0.833 7.55960584497e-39
-0.0306842589751 0.00153421294876 0.829 5.89936564132e-39
-0.0290797202217 0.00153051159062 0.827 5.34727366455e-39
-0.0275492086311 0.00153051159062 0.827 5.71749952142e-39
-0.0259557739521 0.00152681023248 0.825 6.45650929905e-39
-0.0244289637197 0.00152681023248 0.825 9.49356728285e-39
-0.0228466331151 0.00152310887434 0.823 1.02253841955e-38
-0.0212717052268 0.0015194075162 0.821 7.91510966018e-39
-0.0197041800548 0.00151570615806 0.819 9.29266031943e-39
-0.0181440575991 0.00151200479992 0.817 9.19974862605e-39
-0.0166320527991 0.00151200479992 0.817 8.92711760202e-39
-0.0150830344178 0.00150830344178 0.815 1.12384795449e-38
-0.0135414187528 0.00150460208364 0.813 9.86057435715e-39
-0.0119775949389 0.00149719936736 0.809 1.10576770106e-38
-0.0104544860646 0.00149349800922 0.807 1.38249920465e-38
-0.00896098805535 0.00149349800922 0.807 7.7411678831e-39
-0.00746749004612 0.00149349800922 0.807 2.66717544506e-39
-0.00595918660434 0.00148979665109 0.805 5.98081050936e-39
-0.00446938995326 0.00148979665109 0.805 7.63528577113e-39
-0.00297959330217 0.00148979665109 0.805 7.54380340219e-39
-0.00148609529295 0.00148609529295 0.803 6.80911522903e-39
0.0 0.00148609529295 0.803 9.48459056489e-39
0.00148424461388 0.00148424461388 0.802 8.47008691048e-39
0.00296108651147 0.00148054325574 0.8 7.91584253927e-39
0.00443052569279 0.0014768418976 0.798 8.100233799e-39
0.00590736759039 0.0014768418976 0.798 8.65592010633e-39
0.00736570269729 0.00147314053946 0.796 2.48171079071e-39
0.00881663508791 0.00146943918132 0.794 7.27911353656e-39
0.0102342552553 0.00146203646504 0.79 1.12460605696e-38
0.0116962917203 0.00146203646504 0.79 1.15240515603e-38
0.0131416720737 0.00146018578597 0.789 8.57449485646e-39
0.0145648442783 0.00145648442783 0.787 9.12838189656e-39
0.0160213287061 0.00145648442783 0.787 7.83764307847e-39
0.0174333968363 0.00145278306969 0.785 8.02311894321e-39
0.0188380622502 0.00144908171155 0.783 7.10152277828e-39
0.0202871439617 0.00144908171155 0.783 7.65539860799e-39
0.0216807053012 0.00144538035341 0.781 7.84121218566e-39
0.0231260856546 0.00144538035341 0.781 6.64195153262e-39
0.0245400044638 0.00144352967434 0.78 6.8273951675e-39
0.0259835341382 0.00144352967434 0.78 7.10363033117e-39
0.0274270638125 0.00144352967434 0.78 7.1047009232e-39
0.0288705934869 0.00144352967434 0.78 6.91960621164e-39
0.0303529874217 0.00144538035341 0.781 6.27320824953e-39
0.0317983677751 0.00144538035341 0.781 9.31530810521e-39
0.0333288793657 0.00144908171155 0.783 8.66924084953e-39
0.0349556262679 0.00145648442783 0.787 8.94439280949e-39
0.036550911626 0.00146203646504 0.79 8.6678059199e-39
0.0381091834027 0.00146573782318 0.792 8.9447487393e-39
0.0396748578956 0.00146943918132 0.794 9.22133562889e-39
0.0414552111606 0.00148054325574 0.8 8.9447487393e-39
0.0432041028815 0.00148979665109 0.805 9.40537095881e-39
0.0448049402767 0.00149349800922 0.807 9.1284323433e-39
0.0464131803883 0.00149719936736 0.809 9.49722046795e-39
0.048265710137 0.00150830344178 0.815 8.48127908131e-39
0.0498961583974 0.00151200479992 0.817 1.13393464097e-38
0.0514081631973 0.00151200479992 0.817 1.26300880304e-38
-0.0503976924253 0.00314985577658 0.851 6.73239133551e-39
-0.0487080224347 0.0031424530603 0.849 6.17886302782e-39
-0.0471367959045 0.0031424530603 0.849 6.45544991741e-39
-0.0454582299883 0.00313505034402 0.847 5.90263346934e-39
-0.0437870667884 0.00312764762774 0.845 6.17849588762e-39
-0.0422232429745 0.00312764762774 0.845 6.27140197581e-39
-0.040563183849 0.00312024491147 0.843 6.63945582006e-39
-0.0389105274398 0.00311284219519 0.841 6.8242016083e-39
-0.0373541063422 0.00311284219519 0.841 5.72433365403e-39
-0.0357125540074 0.00310543947891 0.839 5.62890382732e-39
-0.0340784043889 0.00309803676263 0.837 7.92479823776e-39
-0.0324516574867 0.00309063404635 0.835 9.94483022992e-39
-0.0307582861379 0.00307582861379 0.831 1.1509997938e-38
-0.0291500460264 0.00306842589751 0.829 9.11722756078e-39
-0.0275492086311 0.00306102318124 0.827 5.89793491559e-39
-0.0260186970405 0.00306102318124 0.827 3.8764679938e-39
-0.0244289637197 0.00305362046496 0.825 6.45469461754e-39
-0.0228466331151 0.00304621774868 0.823 8.01842179076e-39
-0.0213235242407 0.00304621774868 0.823 9.21193992269e-39
-0.0197522977106 0.0030388150324 0.821 8.65374248851e-39
-0.0181440575991 0.00302400959984 0.817 9.0185733463e-39
-0.0166320527991 0.00302400959984 0.817 8.74127039319e-39
-0.0150830344178 0.00301660688356 0.815 8.00406548799e-39
-0.013574730976 0.00301660688356 0.815 1.17858799744e-38
-0.012007205804 0.00300180145101 0.811 1.20700240666e-38
-0.0104803955715 0.00299439873473 0.809 1.22580180647e-38
-0.00898319620418 0.00299439873473 0.809 1.19828745125e-38
-0.00746749004612 0.00298699601845 0.807 1.36402448569e-38
-0.0059739920369 0.00298699601845 0.807 1.28976407487e-38
-0.00448049402767 0.00298699601845 0.807 6.53253814853e-39
-0.00297959330217 0.00297959330217 0.805 7.17825788219e-39
-0.00148609529295 0.00297219058589 0.803 7.91761658313e-39
0.0 0.00297219058589 0.803 8.10093164563e-39
0.00148609529295 0.00297219058589 0.803 8.46900230547e-39
0.00296848922775 0.00296848922775 0.802 8.37573608358e-39
0.00444162976721 0.00296108651147 0.8 8.28390339002e-39
0.00590736759039 0.00295368379519 0.798 6.9027640054e-39
0.00738420948799 0.00295368379519 0.798 1.20682402137e-38
0.00883884323675 0.00294628107892 0.796 8.47621759126e-39
0.0102601647623 0.00293147564636 0.792 2.39311930049e-39
0.0116962917203 0.00292407293008 0.79 8.11068047905e-39
0.0131416720737 0.00292037157194 0.789 1.20765232889e-38
0.0145648442783 0.00291296885566 0.787 9.58795594481e-39
0.0160213287061 0.00291296885566 0.787 6.63877198641e-39
0.0174333968363 0.00290556613938 0.785 9.49683931477e-39
0.018886179906 0.00290556613938 0.785 8.483756577e-39
0.0202871439617 0.0028981634231 0.783 7.47102416385e-39
0.0217362256733 0.0028981634231 0.783 7.74938930119e-39
0.0231260856546 0.00289076070683 0.781 6.45720714568e-39
0.024571466008 0.00289076070683 0.781 6.5508124818e-39
0.0260168463614 0.00289076070683 0.781 6.73485201561e-39
0.0274622267148 0.00289076070683 0.781 6.8277595051e-39
0.0289076070683 0.00289076070683 0.781 6.91960901424e-39
0.0303529874217 0.00289076070683 0.781 6.27320824953e-39
0.0318797976542 0.0028981634231 0.783 8.5777430663e-39
0.0334140106029 0.00290556613938 0.785 8.39265115734e-39
0.0350444588633 0.00292037157194 0.789 8.57561309263e-39
0.0366434455795 0.00293147564636 0.792 8.85219998222e-39
0.0381091834027 0.00293147564636 0.792 9.03659124195e-39
0.0397747945654 0.00294628107892 0.796 9.12878687181e-39
0.0414552111606 0.00296108651147 0.8 8.6678087225e-39
0.0432041028815 0.00297959330217 0.805 9.1284323433e-39
0.0448049402767 0.00298699601845 0.807 8.85185105891e-39
0.0465279224906 0.00300180145101 0.811 9.22027624725e-39
0.0483841535975 0.00302400959984 0.817 1.28148254108e-38
0.050018303216 0.00303141231612 0.819 1.24460442926e-38
0.0515340093741 0.00303141231612 0.819 1.45661906523e-38
-0.0455655693744 0.00471367959045 0.849 6.08701912387e-39
-0.0439943428442 0.00471367959045 0.849 5.99517942382e-39
-0.0423231796443 0.00470257551603 0.847 6.17956647965e-39
-0.040563183849 0.0046803673672 0.843 6.27139637061e-39
-0.0389105274398 0.00466926329278 0.841 6.08700511088e-39
-0.0373541063422 0.00466926329278 0.841 5.90764871654e-39
-0.0357125540074 0.00465815921836 0.839 6.08916591312e-39
-0.0340784043889 0.00464705514394 0.837 8.19995159902e-39
-0.0324516574867 0.00463595106953 0.835 1.03121750171e-38
-0.0308323133007 0.00462484699511 0.833 1.06784408046e-38
-0.029220371831 0.00461374292069 0.831 1.02214185208e-38
-0.0275492086311 0.00459153477185 0.827 9.58288324437e-39
-0.0260186970405 0.00459153477185 0.827 6.91604270965e-39
-0.0244881854499 0.00459153477185 0.827 5.16610539129e-39
-0.0229021534872 0.00458043069744 0.825 5.62564160449e-39
-0.0213235242407 0.00456932662302 0.823 7.1893799881e-39
-0.0198004153664 0.00456932662302 0.823 8.10811049767e-39
-0.0182328901944 0.0045582225486 0.821 8.19599573345e-39
-0.0166727677387 0.00454711847418 0.819 8.37643673281e-39
-0.0151200479992 0.00453601439976 0.817 9.84904867728e-39
-0.013574730976 0.00452491032535 0.815 1.00323609372e-38
-0.0120368166691 0.00451380625093 0.813 8.29000324223e-39
-0.0105063050785 0.00450270217651 0.811 1.13367806322e-38
-0.00900540435302 0.00450270217651 0.811 1.19832346462e-38
-0.00748599683682 0.00449159810209 0.809 1.20736380154e-38
-0.00598879746946 0.00449159810209 0.809 1.44682118637e-38
-0.00449159810209 0.00449159810209 0.809 1.26214167955e-38
-0.00298699601845 0.00448049402767 0.807 7.18114455702e-39
-0.00148979665109 0.00446938995326 0.805 6.07586478809e-39
0.0 0.00445828587884 0.803 8.56191119625e-39
0.00148609529295 0.00445828587884 0.803 8.37645214709e-39
0.00296848922775 0.00445273384163 0.802 8.37609901988e-39
0.00445273384163 0.00445273384163 0.802 7.6403318469e-39
0.00592217302295 0.00444162976721 0.8 5.33723336106e-39
0.00738420948799 0.00443052569279 0.798 9.94989031867e-39
0.00886105138558 0.00443052569279 0.798 1.22558684729e-38
0.0103119837762 0.00441942161837 0.796 1.20732862895e-38
0.0117259025854 0.00439721346954 0.792 5.80472194304e-39
0.0131583281854 0.00438610939512 0.79 3.31723780266e-39
0.0146018578597 0.00438055735791 0.789 1.05092115942e-38
0.0160620436457 0.00438055735791 0.789 1.00493124447e-38
0.017477813134 0.00436945328349 0.787 5.53244264493e-39
0.018886179906 0.00435834920908 0.785 4.79594539545e-39
0.0203389629757 0.00435834920908 0.785 6.18101261966e-39
0.0217362256733 0.00434724513466 0.783 7.74975784268e-39
0.0231853073848 0.00434724513466 0.783 6.45792881439e-39
0.024571466008 0.00433614106024 0.781 6.82739937139e-39
0.0260168463614 0.00433614106024 0.781 7.19547423512e-39
0.0274622267148 0.00433614106024 0.781 7.01215637002e-39
0.0289076070683 0.00433614106024 0.781 6.08949521826e-39
0.0304307159426 0.00434724513466 0.783 5.90406980026e-39
0.0318797976542 0.00434724513466 0.783 8.11676491698e-39
0.0334140106029 0.00435834920908 0.785 8.85362790536e-39
0.0350444588633 0.00438055735791 0.789 8.29902760434e-39
0.0366434455795 0.00439721346954 0.792 8.94404108358e-39
0.0382054187143 0.00440831754396 0.794 8.94404108358e-39
0.0397747945654 0.00441942161837 0.796 8.75964982385e-39
0.0414552111606 0.00444162976721 0.8 8.94404388617e-39
0.0433114422675 0.00448049402767 0.807 9.40502483809e-39
0.0449159810209 0.00449159810209 0.809 9.12808061739e-39
0.0466426645929 0.00451380625093 0.813 9.49686874203e-39
0.0486210405184 0.0045582225486 0.821 1.1893225042e-38
0.0501404480346 0.0045582225486 0.821 1.47502105679e-38
0.0519115479043 0.00458043069744 0.825 1.45665437795e-38
0.0535679056716 0.00459153477185 0.827 1.18925173863e-38
-0.0439943428442 0.0062849061206 0.849 6.45650649645e-39
-0.0424231163141 0.0062849061206 0.849 5.81113428481e-39
-0.0406594191607 0.00625529525549 0.845 6.17991680426e-39
-0.0390030613933 0.00624048982293 0.843 6.18027413537e-39
-0.0374429389376 0.00624048982293 0.843 5.6281877638e-39
-0.0357976852446 0.00622568439037 0.841 5.99481508622e-39
-0.034159834268 0.00621087895782 0.839 6.54475186594e-39
-0.0325293860076 0.00619607352526 0.837 7.09396697696e-39
-0.0308323133007 0.00616646266014 0.833 9.21230846418e-39
-0.0292906976357 0.00616646266014 0.833 8.84424200824e-39
-0.0276158330776 0.00613685179503 0.829 9.12262396117e-39
-0.0260816201289 0.00613685179503 0.829 8.01807426874e-39
-0.0244881854499 0.00612204636247 0.827 7.1007744849e-39
-0.0229576738593 0.00612204636247 0.827 7.00929491855e-39
-0.0213753432547 0.00610724092991 0.825 5.16431313056e-39
-0.0198485330222 0.00610724092991 0.825 5.90045024633e-39
-0.0182773064921 0.00609243549736 0.823 8.20282846477e-39
-0.0166727677387 0.00606282463224 0.819 7.18616540942e-39
-0.0151200479992 0.00604801919968 0.817 8.01269188134e-39
-0.0136080431993 0.00604801919968 0.817 9.39311099854e-39
-0.0120664275343 0.00603321376713 0.815 1.24420519933e-38
-0.0105322145855 0.00601840833457 0.813 1.16144521268e-38
-0.00902761250186 0.00601840833457 0.813 1.06003001983e-38
-0.00750450362752 0.00600360290201 0.811 1.06914280387e-38
-0.00600360290201 0.00600360290201 0.811 7.18656898338e-39
-0.00450270217651 0.00600360290201 0.811 1.17023569808e-38
-0.00299439873473 0.00598879746946 0.809 1.19767718577e-38
-0.00148979665109 0.00595918660434 0.805 5.70672774013e-39
0.0 0.00595918660434 0.805 6.34994475473e-39
0.00148609529295 0.00594438117178 0.803 5.98045457955e-39
0.00297219058589 0.00594438117178 0.803 6.9038542156e-39
0.00445273384163 0.0059369784555 0.802 5.06137514667e-39
0.0059369784555 0.0059369784555 0.802 9.1201296499e-39
0.00740271627868 0.00592217302295 0.8 9.49142049361e-39
0.00886105138558 0.00590736759039 0.798 1.16129989803e-38
0.0103119837762 0.00589256215783 0.796 8.57090893369e-39
0.0117555134506 0.00587775672528 0.794 1.11524230036e-38
0.0131916404086 0.00586295129272 0.792 1.20740247737e-38
0.0146203646504 0.00584814586016 0.79 4.42286088971e-39
0.0160620436457 0.00584074314388 0.789 3.31795246487e-39
0.0175222294316 0.00584074314388 0.789 1.01415080746e-38
0.0189342975618 0.00582593771132 0.787 1.01432919275e-38
0.0203389629757 0.00581113227877 0.785 3.59953218089e-39
0.0217917460454 0.00581113227877 0.785 7.28877408817e-39
0.0232445291151 0.00581113227877 0.785 5.4437740833e-39
0.0246343890964 0.00579632684621 0.783 6.5508124818e-39
0.0260834708079 0.00579632684621 0.783 7.28767266758e-39
0.0275325525195 0.00579632684621 0.783 6.36642962987e-39
0.028981634231 0.00579632684621 0.783 5.99694505988e-39
0.0305084444635 0.00581113227877 0.785 5.99626963402e-39
0.0320426574123 0.00582593771132 0.787 9.03872401821e-39
0.0335842730773 0.00584074314388 0.789 8.39264975604e-39
0.035088875161 0.00584814586016 0.79 8.57561449393e-39
0.0368285134865 0.00589256215783 0.796 8.85184825631e-39
0.0383016540259 0.00589256215783 0.796 8.75965262645e-39
0.0398747312351 0.00590736759039 0.798 8.57526416932e-39
0.0415588491885 0.0059369784555 0.802 8.66710246807e-39
0.0433114422675 0.0059739920369 0.807 9.5890615693e-39
0.0449159810209 0.00598879746946 0.809 9.49686874203e-39
0.0468721487976 0.00604801919968 0.817 8.66710807326e-39
0.0487394839789 0.00609243549736 0.823 1.42903114184e-38
0.0502625928532 0.00609243549736 0.823 1.336727612e-38
0.0519115479043 0.00610724092991 0.825 1.51186385589e-38
0.0535679056716 0.00612204636247 0.827 1.10627567175e-38
-0.0407556544723 0.00783762586006 0.847 5.53562078984e-39
-0.0390955953468 0.00781911906936 0.845 5.62889261693e-39
-0.0374429389376 0.00780061227866 0.843 6.17812454353e-39
-0.0358828164819 0.00780061227866 0.843 6.08557578645e-39
-0.0342412641471 0.00778210548797 0.841 5.90370125877e-39
-0.0326071145285 0.00776359869727 0.839 6.0888127859e-39
-0.0309063404635 0.00772658511588 0.835 5.62711156658e-39
-0.0293610234403 0.00772658511588 0.835 6.91568958243e-39
-0.0277490819706 0.00770807832518 0.833 8.57268718144e-39
-0.0261445432172 0.00768957153448 0.831 8.01627500151e-39
-0.0246066289103 0.00768957153448 0.831 6.82203660217e-39
-0.0230131942314 0.00767106474379 0.829 6.82455333421e-39
-0.0214271622687 0.00765255795309 0.827 7.10186469511e-39
-0.0198485330222 0.00763405116239 0.825 5.62638289138e-39
-0.0183217227897 0.00763405116239 0.825 5.07285598499e-39
-0.0167541976177 0.0076155443717 0.823 6.17777141631e-39
-0.015194075162 0.007597037581 0.821 6.82242616314e-39
-0.0136413554225 0.0075785307903 0.819 7.28232811524e-39
-0.0120960383994 0.00756002399961 0.817 1.02336756785e-38
-0.0105322145855 0.00752301041821 0.813 1.1154190041e-38
-0.00902761250186 0.00752301041821 0.813 1.07850473878e-38
-0.00752301041821 0.00752301041821 0.813 8.94042993743e-39
-0.00601840833457 0.00752301041821 0.813 2.02541998475e-39
-0.00450270217651 0.00750450362752 0.811 7.09474750021e-39
-0.00300180145101 0.00750450362752 0.811 1.29923713275e-38
-0.00149349800922 0.00746749004612 0.807 1.13292248309e-38
0.0 0.00744898325543 0.805 1.06824134857e-38
0.00148979665109 0.00744898325543 0.805 9.76082572857e-39
0.00297219058589 0.00743047646473 0.803 9.39385088413e-39
0.00445828587884 0.00743047646473 0.803 8.38221568768e-39
0.0059369784555 0.00742122306938 0.802 8.38435967433e-39
0.00740271627868 0.00740271627868 0.8 9.76908498171e-39
0.00888325953442 0.00740271627868 0.8 9.21591120253e-39
0.0103378932832 0.00738420948799 0.798 1.02289883351e-38
