# .PCD v0.7 - Point Cloud Data file format
VERSION 0.7
FIELDS x y z rgb
SIZE 4 4 4 4
TYPE F F F F
COUNT 1 1 1 1
WIDTH 825
HEIGHT 1
VIEWPOINT 0 0 0 1 0 0 0
POINTS 825
DATA ascii
-0.0430282883699 -0.0319242139518 0.75 7.19513932479e-39
-0.0416402790676 -0.0319242139518 0.75 6.73381225215e-39
-0.0402522697653 -0.0319242139518 0.75 7.01039914174e-39
-0.0388642604631 -0.0319242139518 0.75 7.19586239479e-39
-0.037426282826 -0.0318816483332 0.749 6.73523737269e-39
-0.0360401242028 -0.0318816483332 0.749 6.73523737269e-39
-0.0347002325563 -0.0319242139518 0.75 6.73560311159e-39
-0.0333122232541 -0.0319242139518 0.75 6.73524858308e-39
-0.0318816483332 -0.0318816483332 0.749 6.55121465446e-39
-0.03049548971 -0.0318816483332 0.749 6.09023089995e-39
-0.0291481953473 -0.0319242139518 0.75 6.27497668819e-39
-0.0277601860451 -0.0319242139518 0.75 6.45972107513e-39
-0.0263370138405 -0.0318816483332 0.749 6.82850359458e-39
-0.0249508552173 -0.0318816483332 0.749 5.62996040636e-39
-0.0235646965941 -0.0318816483332 0.749 5.07643069737e-39
-0.0221785379709 -0.0318816483332 0.749 5.81579079961e-39
-0.0207923793478 -0.0318816483332 0.749 5.72288190883e-39
-0.0193544017106 -0.031796517096 0.747 5.9044005067e-39
-0.0179719444456 -0.031796517096 0.747 5.07427690163e-39
-0.0165672790317 -0.0317539514774 0.746 5.07427269773e-39
-0.0151866724457 -0.0317539514774 0.746 4.06192704296e-39
-0.0138060658597 -0.0317539514774 0.746 3.60274956217e-39
-0.0123921470505 -0.0316688202402 0.744 1.39152300624e-39
-0.0110152418227 -0.0316688202402 0.744 2.5914927163e-39
-0.00963833659485 -0.0316688202402 0.744 2.31454289041e-39
-0.00823922321818 -0.031583689003 0.742 3.97189501792e-39
-0.00686601934848 -0.031583689003 0.742 4.52505758671e-39
-0.00550762091134 -0.0316688202402 0.744 5.26225688672e-39
-0.00413071568351 -0.0316688202402 0.744 5.72396090864e-39
-0.00276121317195 -0.0317539514774 0.746 4.25027697085e-39
-0.00138245726504 -0.031796517096 0.747 2.22306472536e-39
0.0 -0.031796517096 0.747 9.22387057781e-39
0.00138615862318 -0.0318816483332 0.749 1.71505283386e-38
-0.0514932944345 -0.0306176345286 0.752 2.34180445138e-38
-0.0501015837741 -0.0306176345286 0.752 2.35091681503e-38
-0.0488394206486 -0.0306990644077 0.754 2.35088010101e-38
-0.0474440086301 -0.0306990644077 0.754 2.30506997266e-38
-0.0460485966116 -0.0306990644077 0.754 1.86232565909e-42
-0.0445347411326 -0.0306176345286 0.752 6.36541228718e-39
-0.0431430304722 -0.0306176345286 0.752 6.55084891556e-39
-0.0417513198118 -0.0306176345286 0.752 4.8906199223e-39
-0.0403596091514 -0.0306176345286 0.752 4.79914315855e-39
-0.038967898491 -0.0306176345286 0.752 5.62925835583e-39
-0.0374762511608 -0.0305362046496 0.75 5.62960868044e-39
-0.0360882418586 -0.0305362046496 0.75 5.81472020758e-39
-0.0347002325563 -0.0305362046496 0.75 5.9991170725e-39
-0.0333122232541 -0.0305362046496 0.75 6.18350552963e-39
-0.0319242139518 -0.0305362046496 0.75 6.18386005814e-39
-0.0305362046496 -0.0305362046496 0.75 6.552639775e-39
-0.0292259238682 -0.0306176345286 0.752 6.73738696454e-39
-0.0278342132079 -0.0306176345286 0.752 5.90762349317e-39
-0.0263721767428 -0.0305362046496 0.75 6.09201755549e-39
-0.0249841674406 -0.0305362046496 0.75 5.81507473609e-39
-0.0235961581383 -0.0305362046496 0.75 5.44629501924e-39
-0.0221785379709 -0.03049548971 0.749 4.24990983065e-39
-0.0207923793478 -0.03049548971 0.749 4.61761755418e-39
-0.0194062207246 -0.03049548971 0.749 5.99804087528e-39
-0.0180200621014 -0.03049548971 0.749 6.18098739629e-39
-0.0165894871805 -0.030414059831 0.747 6.55012444426e-39
-0.0152070299155 -0.030414059831 0.747 6.36680657915e-39
-0.0138060658597 -0.0303733448914 0.746 6.55228524649e-39
-0.0124254592738 -0.0303733448914 0.746 5.35447493736e-39
-0.0110448526878 -0.0303733448914 0.746 5.07896704759e-39
-0.00966424610182 -0.0303733448914 0.746 3.41872123874e-39
-0.00826143136701 -0.0302919150124 0.744 4.06336197258e-39
-0.00688452613918 -0.0302919150124 0.744 4.98458819472e-39
-0.0055224263439 -0.0303733448914 0.746 6.09021688697e-39
-0.00414181975792 -0.0303733448914 0.746 5.72359797234e-39
-0.00276121317195 -0.0303733448914 0.746 4.89492751378e-39
-0.00138245726504 -0.030414059831 0.747 1.5777051254e-39
0.0 -0.030414059831 0.747 1.12518058933e-38
0.00138615862318 -0.03049548971 0.749 1.76118638191e-38
-0.0516987198113 -0.0293425166496 0.755 2.34180473164e-38
-0.0503014571137 -0.0293425166496 0.755 2.35088094179e-38
-0.0489041944161 -0.0293425166496 0.755 2.35095184749e-38
-0.0475069317185 -0.0293425166496 0.755 2.24053289162e-38
-0.0461096690209 -0.0293425166496 0.755 2.21965676749e-42
-0.044653184593 -0.0293036523892 0.754 4.98427570516e-39
-0.0432577725745 -0.0293036523892 0.754 5.99803527009e-39
-0.0417513198118 -0.0292259238682 0.752 4.98461341809e-39
-0.0403596091514 -0.0292259238682 0.752 5.4452356376e-39
-0.038967898491 -0.0292259238682 0.752 5.63069748935e-39
-0.0375761878306 -0.0292259238682 0.752 4.8012871452e-39
-0.0361844771702 -0.0292259238682 0.752 4.43322629445e-39
-0.0347927665098 -0.0292259238682 0.752 4.70946005683e-39
-0.0334010558494 -0.0292259238682 0.752 4.80092561019e-39
-0.032009345189 -0.0292259238682 0.752 4.70908310754e-39
-0.0306176345286 -0.0292259238682 0.752 5.17005845426e-39
-0.0293036523892 -0.0293036523892 0.754 4.89347016337e-39
-0.0279082403706 -0.0293036523892 0.754 6.36860024119e-39
-0.0264425025475 -0.0292259238682 0.752 5.72323503604e-39
-0.0250507918871 -0.0292259238682 0.752 5.35409658678e-39
-0.0236590812267 -0.0292259238682 0.752 4.89276390895e-39
-0.0222081488361 -0.0291481953473 0.75 5.26370723063e-39
-0.0208201395338 -0.0291481953473 0.75 4.98712594624e-39
-0.0194321302315 -0.0291481953473 0.75 6.09167703997e-39
-0.0180441209293 -0.0291481953473 0.75 5.99732200917e-39
-0.016656111627 -0.0291481953473 0.75 6.64339627134e-39
-0.015247744855 -0.0291093310869 0.749 6.09021968956e-39
-0.0138615862318 -0.0291093310869 0.749 5.81399853887e-39
-0.0124754276087 -0.0291093310869 0.749 5.16900047392e-39
-0.0110892689855 -0.0291093310869 0.749 4.984965144e-39
-0.00967720085531 -0.0290316025659 0.747 5.26082475969e-39
-0.00829474359027 -0.0290316025659 0.747 6.36680377656e-39
-0.00691228632522 -0.0290316025659 0.747 6.64302212465e-39
-0.00554463449273 -0.0291093310869 0.749 6.08949241566e-39
-0.00415847586955 -0.0291093310869 0.749 5.2611778869e-39
-0.00277231724637 -0.0291093310869 0.749 5.17151440337e-39
-0.00138615862318 -0.0291093310869 0.749 1.5777051254e-39
0.0 -0.0291481953473 0.75 1.22663067451e-38
-0.0518356700624 -0.0280192811148 0.757 2.34180473164e-38
-0.0490337419509 -0.0280192811148 0.757 2.34166025777e-38
-0.0476327778952 -0.0280192811148 0.757 2.32343693176e-38
-0.0462318138395 -0.0280192811148 0.757 2.21265027517e-42
-0.0448308497837 -0.0280192811148 0.757 5.99842623236e-39
-0.043429885728 -0.0280192811148 0.757 6.82887774127e-39
-0.0420289216722 -0.0280192811148 0.757 4.7083894648e-39
-0.0406279576165 -0.0280192811148 0.757 5.16936761412e-39
-0.0392269935607 -0.0280192811148 0.757 4.70946145813e-39
-0.0377260928352 -0.027945253952 0.755 4.89420444377e-39
-0.0363288301376 -0.027945253952 0.755 5.0785957035e-39
-0.03493156744 -0.027945253952 0.755 4.80273468651e-39
-0.0334898884448 -0.0279082403706 0.754 4.70944604384e-39
-0.0320944764262 -0.0279082403706 0.754 5.07858028921e-39
-0.0306990644077 -0.0279082403706 0.754 4.70979776976e-39
-0.0293425166496 -0.027945253952 0.755 4.70979776976e-39
-0.0279082403706 -0.0279082403706 0.754 4.61760354119e-39
-0.0265128283521 -0.0279082403706 0.754 4.80163887111e-39
-0.0251174163336 -0.0279082403706 0.754 5.07823136589e-39
-0.023722004315 -0.0279082403706 0.754 5.17007246725e-39
-0.0223265922965 -0.0279082403706 0.754 4.89492751378e-39
-0.0208756599059 -0.0278342132079 0.752 5.26335550472e-39
-0.0194839492455 -0.0278342132079 0.752 5.63069889065e-39
-0.0180922385851 -0.0278342132079 0.752 6.46009522182e-39
-0.0167005279247 -0.0278342132079 0.752 6.45936514532e-39
-0.0152681023248 -0.0277601860451 0.75 5.90654449335e-39
-0.0138800930225 -0.0277601860451 0.75 5.35301758696e-39
-0.0124920837203 -0.0277601860451 0.75 5.26155203359e-39
-0.0110892689855 -0.0277231724637 0.749 5.9983911999e-39
-0.00970311036229 -0.0277231724637 0.749 5.62924154025e-39
-0.0083169517391 -0.0277231724637 0.749 5.9972967858e-39
-0.00693079311592 -0.0277231724637 0.749 6.82633158196e-39
-0.00554463449273 -0.0277231724637 0.749 6.45863086492e-39
-0.00416402790676 -0.0277601860451 0.75 4.98458819472e-39
-0.00277601860451 -0.0277601860451 0.75 4.98712034104e-39
-0.00138800930225 -0.0277601860451 0.75 1.11673398258e-39
0.0 -0.0277601860451 0.75 1.35566714165e-38
-0.0492928370207 -0.0267589686684 0.761 2.35098758061e-38
-0.0478844702487 -0.0267589686684 0.761 2.25900705006e-38
-0.0464761034766 -0.0267589686684 0.761 4.06376554654e-43
-0.0449492932442 -0.0266886428637 0.759 6.55160001154e-39
-0.0435446278303 -0.0266886428637 0.759 5.35374766346e-39
-0.0421399624164 -0.0266886428637 0.759 4.70767059869e-39
-0.0407352970025 -0.0266886428637 0.759 5.35376167644e-39
-0.0392269935607 -0.0266183170591 0.757 5.07752511147e-39
-0.037826029505 -0.0266183170591 0.757 4.98640007363e-39
-0.0364250654493 -0.0266183170591 0.757 5.17043540355e-39
-0.0350241013935 -0.0266183170591 0.757 5.5392221269e-39
-0.0335343047424 -0.0265479912544 0.755 4.98603573603e-39
-0.0321370420448 -0.0265479912544 0.755 5.17042139056e-39
-0.0307397793472 -0.0265479912544 0.755 4.80199480092e-39
-0.0293425166496 -0.0265479912544 0.755 4.70979917106e-39
-0.027945253952 -0.0265479912544 0.755 4.98638606065e-39
-0.0265479912544 -0.0265479912544 0.755 4.89383450097e-39
-0.0251174163336 -0.0265128283521 0.754 4.70944884644e-39
-0.023722004315 -0.0265128283521 0.754 4.70909431793e-39
-0.0223265922965 -0.0265128283521 0.754 3.41907856985e-39
-0.020931180278 -0.0265128283521 0.754 3.32688434129e-39
-0.0195357682594 -0.0265128283521 0.754 3.97153208162e-39
-0.0181403562409 -0.0265128283521 0.754 4.52470025561e-39
-0.0167449442224 -0.0265128283521 0.754 4.70979917106e-39
-0.0153088172643 -0.0264425025475 0.752 4.80163326592e-39
-0.0139171066039 -0.0264425025475 0.752 4.98566719454e-39
-0.0125253959435 -0.0264425025475 0.752 5.2615464284e-39
-0.0111336852831 -0.0264425025475 0.752 5.5384906491e-39
-0.00971606511577 -0.0263721767428 0.75 5.62996040636e-39
-0.00832805581352 -0.0263721767428 0.75 6.36607930525e-39
-0.00694004651127 -0.0263721767428 0.75 7.10327860526e-39
-0.00555203720901 -0.0263721767428 0.75 6.55082649479e-39
-0.00416402790676 -0.0263721767428 0.75 5.35337071417e-39
-0.00277601860451 -0.0263721767428 0.75 5.17079133336e-39
-0.00138800930225 -0.0263721767428 0.75 1.3007637073e-39
-0.0492928370207 -0.0253506018964 0.761 2.35098758061e-38
-0.0478844702487 -0.0253506018964 0.761 2.32343623111e-38
-0.0464761034766 -0.0253506018964 0.761 1.12384136839e-42
-0.0450677367046 -0.0253506018964 0.761 6.27429425584e-39
-0.0436593699326 -0.0253506018964 0.761 7.47317095309e-39
-0.0421399624164 -0.0252839774498 0.759 7.47246329737e-39
-0.0407352970025 -0.0252839774498 0.759 5.62962969992e-39
-0.0393306315886 -0.0252839774498 0.759 4.89241498563e-39
-0.0379259661748 -0.0252839774498 0.759 4.24811897121e-39
-0.0365213007609 -0.0252839774498 0.759 3.78714082189e-39
-0.035116635347 -0.0252839774498 0.759 3.97117755311e-39
-0.0336231373378 -0.0252173530033 0.757 4.70909431793e-39
-0.032222173282 -0.0252173530033 0.757 4.70944884644e-39
-0.0308212092263 -0.0252173530033 0.757 4.98603293343e-39
-0.0293425166496 -0.0251507285568 0.755 5.17042139056e-39
-0.027945253952 -0.0251507285568 0.755 4.89383450097e-39
-0.0265479912544 -0.0251507285568 0.755 4.89383730357e-39
-0.0251507285568 -0.0251507285568 0.755 4.98567840492e-39
-0.0237534658592 -0.0251507285568 0.755 5.17007246725e-39
-0.0223562031616 -0.0251507285568 0.755 4.70944604384e-39
-0.020958940464 -0.0251507285568 0.755 4.43214028814e-39
-0.0195616777664 -0.0251507285568 0.755 4.70909151533e-39
-0.0181644150688 -0.0251507285568 0.755 4.61796928009e-39
-0.0167671523712 -0.0251507285568 0.755 4.52612677744e-39
-0.0153495322039 -0.0251174163336 0.754 4.61832100601e-39
-0.0139541201853 -0.0251174163336 0.754 4.61760354119e-39
-0.0125587081668 -0.0251174163336 0.754 4.34066632699e-39
-0.0111632961483 -0.0251174163336 0.754 3.78893308263e-39
-0.00974197462275 -0.0250507918871 0.752 3.97260267365e-39
-0.00835026396236 -0.0250507918871 0.752 4.98458679342e-39
-0.00695855330196 -0.0250507918871 0.752 5.72178609343e-39
-0.00556684264157 -0.0250507918871 0.752 6.18276424274e-39
-0.00417513198118 -0.0250507918871 0.752 5.44556634403e-39
-0.00278342132079 -0.0250507918871 0.752 4.80200601131e-39
-0.00139171066039 -0.0250507918871 0.752 1.57627019577e-39
-0.0525204213182 -0.0241310043894 0.767 2.3418050119e-38
-0.0493576107881 -0.0239736966685 0.762 2.35095156724e-38
-0.0478844702487 -0.0239422351243 0.761 2.29588516187e-38
-0.0464761034766 -0.0239422351243 0.761 1.84130618212e-42
-0.0450677367046 -0.0239422351243 0.761 7.10405492461e-39
-0.0436593699326 -0.0239422351243 0.761 6.9192783078e-39
-0.0422510031606 -0.0239422351243 0.761 6.45795123517e-39
-0.0408426363886 -0.0239422351243 0.761 7.01148514805e-39
-0.0394342696166 -0.0239422351243 0.761 7.19622953499e-39
-0.0379259661748 -0.023879312036 0.759 6.64448648154e-39
-0.0365213007609 -0.023879312036 0.759 6.55229085168e-39
-0.035116635347 -0.023879312036 0.759 6.7363275829e-39
-0.0337119699331 -0.023879312036 0.759 4.89348838025e-39
-0.0323073045192 -0.023879312036 0.759 4.15663940486e-39
-0.0308212092263 -0.0238163889476 0.757 3.88004971268e-39
-0.0294202451706 -0.0238163889476 0.757 3.41943730226e-39
-0.0280192811148 -0.0238163889476 0.757 4.43357802037e-39
-0.0266183170591 -0.0238163889476 0.757 4.89420023987e-39
-0.0252173530033 -0.0238163889476 0.757 5.17078853076e-39
-0.0238163889476 -0.0238163889476 0.757 5.0785957035e-39
-0.0224154248919 -0.0238163889476 0.757 4.80127593481e-39
-0.020958940464 -0.0237534658592 0.755 5.16897945444e-39
-0.0195616777664 -0.0237534658592 0.755 4.80163887111e-39
-0.0181644150688 -0.0237534658592 0.755 4.71015930476e-39
-0.0167671523712 -0.0237534658592 0.755 4.4350087461e-39
-0.0153698896736 -0.0237534658592 0.755 4.4350087461e-39
-0.013972626976 -0.0237534658592 0.755 4.4350087461e-39
-0.0125587081668 -0.023722004315 0.754 4.43430109037e-39
-0.0111632961483 -0.023722004315 0.754 4.06696190834e-39
-0.00976788412972 -0.023722004315 0.754 3.97368447606e-39
-0.00837247211119 -0.023722004315 0.754 4.61724761138e-39
-0.00697706009266 -0.023722004315 0.754 5.53811650241e-39
-0.00558164807413 -0.023722004315 0.754 6.36715830507e-39
-0.0041862360556 -0.023722004315 0.754 5.72215323362e-39
-0.00279082403706 -0.023722004315 0.754 4.61689588547e-39
-0.0540805437739 -0.0227707552732 0.769 2.3418050119e-38
-0.0525204213182 -0.022711533543 0.767 2.3418050119e-38
-0.0511009504718 -0.022711533543 0.767 2.35095268827e-38
-0.0493576107881 -0.0225634792174 0.762 2.35091681503e-38
-0.047947393337 -0.0225634792174 0.762 2.10216910164e-38
-0.0465371758859 -0.0225634792174 0.762 1.46295559676e-42
-0.0451269584349 -0.0225634792174 0.762 7.19588061167e-39
-0.0436593699326 -0.0225338683523 0.761 8.02562306356e-39
-0.0422510031606 -0.0225338683523 0.761 7.28771190394e-39
-0.0408426363886 -0.0225338683523 0.761 7.01041735862e-39
-0.0394342696166 -0.0225338683523 0.761 7.10261298849e-39
-0.0380259028445 -0.0225338683523 0.761 6.73418359625e-39
-0.0366175360725 -0.0225338683523 0.761 5.07501118202e-39
-0.0352091693005 -0.0225338683523 0.761 5.62853948971e-39
-0.0338008025285 -0.0225338683523 0.761 6.45866729868e-39
-0.0323073045192 -0.0224746466221 0.759 6.55086012595e-39
-0.0309026391054 -0.0224746466221 0.759 6.91999437132e-39
-0.0294979736915 -0.0224746466221 0.759 7.47351707381e-39
-0.0280933082776 -0.0224746466221 0.759 6.09093435178e-39
-0.0266886428637 -0.0224746466221 0.759 5.814703392e-39
-0.0252173530033 -0.0224154248919 0.757 5.72215183233e-39
-0.0238163889476 -0.0224154248919 0.757 4.89239256485e-39
-0.0224154248919 -0.0224154248919 0.757 3.69458505832e-39
-0.0210144608361 -0.0224154248919 0.757 4.5243387206e-39
-0.0196134967804 -0.0224154248919 0.757 4.24810916212e-39
-0.0182125327246 -0.0224154248919 0.757 5.53883957242e-39
-0.0168115686689 -0.0224154248919 0.757 5.07857748662e-39
-0.0153698896736 -0.0223562031616 0.755 4.80199199832e-39
-0.013972626976 -0.0223562031616 0.755 5.17042139056e-39
-0.0125753642784 -0.0223562031616 0.755 4.89348277506e-39
-0.0111781015808 -0.0223562031616 0.755 4.71015930476e-39
-0.00976788412972 -0.0223265922965 0.754 4.52684984745e-39
-0.00837247211119 -0.0223265922965 0.754 4.61689588547e-39
-0.00697706009266 -0.0223265922965 0.754 5.16935360113e-39
-0.00558164807413 -0.0223265922965 0.754 6.36789398676e-39
-0.0041917880928 -0.0223562031616 0.755 5.72324624643e-39
-0.0027945253952 -0.0223562031616 0.755 4.43359763855e-39
-0.0540805437739 -0.0213475830687 0.769 2.34180473164e-38
-0.0526573715693 -0.0213475830687 0.769 2.34180473164e-38
-0.0511009504718 -0.0212920626966 0.767 2.35095268827e-38
-0.049487158323 -0.0212087821384 0.764 2.35091681503e-38
-0.0480732395138 -0.0212087821384 0.764 2.12060878814e-38
-0.0466593207045 -0.0212087821384 0.764 3.2524137357e-42
-0.0451269584349 -0.0211532617663 0.762 6.73490246236e-39
-0.0437167409838 -0.0211532617663 0.762 8.39440558302e-39
-0.0423065235327 -0.0211532617663 0.762 7.10331784161e-39
-0.0408963060816 -0.0211532617663 0.762 6.54979233652e-39
-0.0394342696166 -0.0211255015803 0.761 6.64199076898e-39
-0.0380259028445 -0.0211255015803 0.761 7.01076908454e-39
-0.0366175360725 -0.0211255015803 0.761 7.47210036107e-39
-0.0352091693005 -0.0211255015803 0.761 7.38025645712e-39
-0.0338008025285 -0.0211255015803 0.761 7.19586659869e-39
-0.0323924357565 -0.0211255015803 0.761 7.10366676493e-39
-0.0309840689844 -0.0211255015803 0.761 7.19621412071e-39
-0.0295757022124 -0.0211255015803 0.761 7.74973822451e-39
-0.0281673354404 -0.0211255015803 0.761 7.01253051671e-39
-0.0266886428637 -0.0210699812082 0.759 7.56534696478e-39
-0.0252839774498 -0.0210699812082 0.759 7.38095850765e-39
-0.023879312036 -0.0210699812082 0.759 7.10401849085e-39
-0.0224746466221 -0.0210699812082 0.759 7.10438282845e-39
-0.0210699812082 -0.0210699812082 0.759 6.18350272703e-39
-0.0196653157943 -0.0210699812082 0.759 5.44629221664e-39
-0.0182606503804 -0.0210699812082 0.759 5.44664394255e-39
-0.0168115686689 -0.0210144608361 0.757 5.0778614231e-39
-0.0154106046132 -0.0210144608361 0.757 4.89347156467e-39
-0.013972626976 -0.020958940464 0.755 4.98531686992e-39
-0.0125753642784 -0.020958940464 0.755 4.61617982195e-39
-0.0111781015808 -0.020958940464 0.755 4.70979917106e-39
-0.00976788412972 -0.020931180278 0.754 4.43321508406e-39
-0.00837247211119 -0.020931180278 0.754 4.70837264922e-39
-0.00698631348801 -0.020958940464 0.755 5.72252738031e-39
-0.00558905079041 -0.020958940464 0.755 6.2756983569e-39
-0.0041917880928 -0.020958940464 0.755 5.539217923e-39
-0.0027945253952 -0.020958940464 0.755 4.5254401412e-39
-0.0543618469925 -0.020028048892 0.773 2.34180473164e-38
-0.0526573715693 -0.0199244108641 0.769 2.34180473164e-38
-0.0511009504718 -0.0198725918501 0.767 2.35098828126e-38
-0.0496167058579 -0.0198466823432 0.766 2.35095268827e-38
-0.0481990856905 -0.0198466823432 0.766 2.09298527177e-38
-0.0467814655231 -0.0198466823432 0.766 2.16080223199e-42
-0.0452454018953 -0.0197948633292 0.764 7.01113342214e-39
-0.0438314830861 -0.0197948633292 0.764 6.27391030006e-39
-0.0424175642769 -0.0197948633292 0.764 5.72073652088e-39
-0.0408963060816 -0.0197430443153 0.762 6.64269281951e-39
-0.0394860886305 -0.0197430443153 0.762 7.37990192861e-39
-0.0380758711794 -0.0197430443153 0.762 7.65684474801e-39
-0.0366656537283 -0.0197430443153 0.762 6.55049718965e-39
-0.0352554362772 -0.0197430443153 0.762 6.36610452862e-39
-0.0338452188261 -0.0197430443153 0.762 6.55084471167e-39
-0.0324350013751 -0.0197430443153 0.762 7.0121759882e-39
-0.0309840689844 -0.0197171348083 0.761 7.47350866602e-39
-0.0295757022124 -0.0197171348083 0.761 7.65789712315e-39
-0.0282043490218 -0.0197430443153 0.762 6.73594362712e-39
-0.0267589686684 -0.0197171348083 0.761 7.38096131025e-39
-0.0253506018964 -0.0197171348083 0.761 7.01147113507e-39
-0.0239422351243 -0.0197171348083 0.761 7.01147533896e-39
-0.0225338683523 -0.0197171348083 0.761 5.99804087528e-39
-0.0211255015803 -0.0197171348083 0.761 6.36681778954e-39
-0.0197171348083 -0.0197171348083 0.761 7.10473735696e-39
-0.0183087680363 -0.0197171348083 0.761 6.64411233485e-39
-0.0168559849666 -0.0196653157943 0.759 7.19728611403e-39
-0.0154106046132 -0.0196134967804 0.757 7.10509048417e-39
-0.0140096405574 -0.0196134967804 0.757 6.45936934921e-39
-0.0126086765017 -0.0196134967804 0.757 5.81364681296e-39
-0.0112077124459 -0.0196134967804 0.757 4.98603293343e-39
-0.00978083888321 -0.0195616777664 0.755 4.61724761138e-39
-0.00838357618561 -0.0195616777664 0.755 5.16970532705e-39
-0.00698631348801 -0.0195616777664 0.755 5.99874012321e-39
-0.00558905079041 -0.0195616777664 0.755 6.73630376082e-39
-0.00420289216722 -0.0196134967804 0.757 5.44665655424e-39
-0.00280192811148 -0.0196134967804 0.757 4.15666182564e-39
-0.0543618469925 -0.0185974739711 0.773 2.34180473164e-38
-0.0527943218205 -0.0185493563153 0.771 2.34180473164e-38
-0.0512341993648 -0.0185012386595 0.769 2.35095198762e-38
-0.0496814796253 -0.0184531210037 0.767 2.35091611438e-38
-0.0482620087789 -0.0184531210037 0.767 2.10223958696e-38
-0.0468425379324 -0.0184531210037 0.767 4.30759147933e-42
-0.0453638453558 -0.0184290621758 0.766 8.20967941296e-39
-0.0439462251884 -0.0184290621758 0.766 7.10367096883e-39
-0.0424175642769 -0.01838094452 0.764 5.72073231698e-39
-0.0410036454676 -0.01838094452 0.764 5.35230292474e-39
-0.0395897266584 -0.01838094452 0.764 4.33815099624e-39
-0.0381758078492 -0.01838094452 0.764 5.16791166501e-39
-0.0367618890399 -0.01838094452 0.764 5.35230572734e-39
-0.0353479702307 -0.01838094452 0.764 5.53634385985e-39
-0.0339340514215 -0.01838094452 0.764 6.45900501161e-39
-0.0325201326123 -0.01838094452 0.764 6.18241251683e-39
-0.031024783924 -0.0183328268642 0.762 6.36680377656e-39
-0.0296145664729 -0.0183328268642 0.762 7.19656444533e-39
-0.0282783761846 -0.01838094452 0.764 7.0121731856e-39
-0.0267941315707 -0.0183328268642 0.762 7.01182286098e-39
-0.0253839141196 -0.0183328268642 0.762 7.19586239479e-39
-0.0239736966685 -0.0183328268642 0.762 7.19586519739e-39
-0.0225634792174 -0.0183328268642 0.762 6.73524858308e-39
-0.0211255015803 -0.0183087680363 0.761 6.91999437132e-39
-0.0197171348083 -0.0183087680363 0.761 6.45936934921e-39
-0.0183087680363 -0.0183087680363 0.761 7.2894817439e-39
-0.0169004012642 -0.0183087680363 0.761 6.45972107513e-39
-0.0154513195527 -0.0182606503804 0.759 7.0125389245e-39
-0.0140466541388 -0.0182606503804 0.759 6.64340467913e-39
-0.0126419887249 -0.0182606503804 0.759 6.4590190246e-39
-0.011237323311 -0.0182606503804 0.759 6.09130709717e-39
-0.00980674839019 -0.0182125327246 0.757 6.18385725555e-39
-0.00840578433445 -0.0182125327246 0.757 7.01289205171e-39
-0.0070048202787 -0.0182125327246 0.757 6.73629395173e-39
-0.00560385622296 -0.0182125327246 0.757 6.55261875552e-39
-0.00420289216722 -0.0182125327246 0.757 5.17006125686e-39
-0.00280933082776 -0.0182606503804 0.759 3.87899593623e-39
-0.0543618469925 -0.0171668990503 0.773 2.3418050119e-38
-0.0527943218205 -0.0171224827526 0.771 2.34180473164e-38
-0.0513674482578 -0.0171224827526 0.771 2.33251286165e-38
-0.0498110271602 -0.0170780664549 0.769 2.35091583412e-38
-0.0483878549556 -0.0170780664549 0.769 2.04695766189e-38
-0.046964682751 -0.0170780664549 0.769 3.94605647554e-42
-0.045423067086 -0.0170336501573 0.767 8.30187504282e-39
-0.0439462251884 -0.0170114420084 0.766 7.56429318833e-39
-0.042528605021 -0.0170114420084 0.766 7.28805802466e-39
-0.0411109848537 -0.0170114420084 0.766 8.67134419852e-39
-0.0396933646863 -0.0170114420084 0.766 7.01217879079e-39
-0.0382757445189 -0.0170114420084 0.766 7.93413228683e-39
-0.0368581243516 -0.0170114420084 0.766 7.19621412071e-39
-0.0354405041842 -0.0170114420084 0.766 5.90547670392e-39
-0.0340228840168 -0.0170114420084 0.766 6.18206639611e-39
-0.0325201326123 -0.0169670257107 0.764 5.16791166501e-39
-0.031106213803 -0.0169670257107 0.764 5.99767093249e-39
-0.0296922949938 -0.0169670257107 0.764 5.26046182339e-39
-0.0282783761846 -0.0169670257107 0.764 5.26045902079e-39
-0.0268644573753 -0.0169670257107 0.764 5.72143717011e-39
-0.0253839141196 -0.0169226094131 0.762 6.09021968956e-39
-0.0239736966685 -0.0169226094131 0.762 6.64339627134e-39
-0.0225634792174 -0.0169226094131 0.762 6.1817104663e-39
-0.0211532617663 -0.0169226094131 0.762 6.55049578835e-39
-0.0197430443153 -0.0169226094131 0.762 7.19621552201e-39
-0.0183328268642 -0.0169226094131 0.762 7.01217879079e-39
-0.0169226094131 -0.0169226094131 0.762 7.19656724792e-39
-0.0154920344922 -0.0169004012642 0.761 7.56499664016e-39
-0.0140836677202 -0.0169004012642 0.761 7.01182706488e-39
-0.0126419887249 -0.0168559849666 0.759 7.01147533896e-39
-0.011237323311 -0.0168559849666 0.759 6.36681778954e-39
-0.00983265789716 -0.0168559849666 0.759 7.19693018422e-39
-0.00842799248328 -0.0168559849666 0.759 6.92033488684e-39
-0.0070233270694 -0.0168559849666 0.759 7.47313451933e-39
-0.00561866165552 -0.0168559849666 0.759 6.27566752833e-39
-0.00421399624164 -0.0168559849666 0.759 5.99874012321e-39
-0.00281673354404 -0.0169004012642 0.761 4.33925521943e-39
-0.0543618469925 -0.0157363241294 0.773 2.3418050119e-38
-0.0527943218205 -0.0156956091899 0.771 2.3418050119e-38
-0.0513674482578 -0.0156956091899 0.771 2.33251314191e-38
-0.0499405746951 -0.0156956091899 0.771 2.35095212775e-38
-0.0483878549556 -0.0156548942503 0.769 1.95476203203e-38
-0.046964682751 -0.0156548942503 0.769 4.30478888241e-42
-0.0455415105465 -0.0156548942503 0.769 7.47211157145e-39
-0.0441183383419 -0.0156548942503 0.769 7.28770629874e-39
-0.0425841253931 -0.0156141793108 0.767 7.28806082725e-39
-0.0411109848537 -0.015593821841 0.766 7.01182706488e-39
-0.0396933646863 -0.015593821841 0.766 7.01182286098e-39
-0.0382757445189 -0.015593821841 0.766 7.84193945956e-39
-0.0368581243516 -0.015593821841 0.766 7.93413508943e-39
-0.0354405041842 -0.015593821841 0.766 8.30291480628e-39
-0.0340228840168 -0.015593821841 0.766 7.38025365452e-39
-0.0326052638495 -0.015593821841 0.766 7.56464771684e-39
-0.0311876436821 -0.015593821841 0.766 7.93378336351e-39
-0.0297700235147 -0.015593821841 0.766 6.64304034153e-39
-0.0283894169288 -0.0156141793108 0.767 6.09021968956e-39
-0.02693478318 -0.015593821841 0.766 5.9980212571e-39
-0.0255171630126 -0.015593821841 0.766 6.09057421807e-39
-0.0240366197569 -0.0155531069015 0.764 4.98422806101e-39
-0.0226227009477 -0.0155531069015 0.764 3.96937408199e-39
-0.0212087821384 -0.0155531069015 0.764 5.44414542739e-39
-0.0197948633292 -0.0155531069015 0.764 5.90547530262e-39
-0.0183328268642 -0.015512391962 0.762 5.72143717011e-39
-0.0169226094131 -0.015512391962 0.762 6.36680657915e-39
-0.015512391962 -0.015512391962 0.762 6.55120064148e-39
-0.0140836677202 -0.0154920344922 0.761 6.27426202597e-39
-0.0126753009482 -0.0154920344922 0.761 6.55049578835e-39
-0.0112669341762 -0.0154920344922 0.761 6.64340467913e-39
-0.00985856740414 -0.0154920344922 0.761 6.4586490818e-39
-0.00845020063212 -0.0154920344922 0.761 7.65682232723e-39
-0.0070418338601 -0.0154920344922 0.761 7.65645238444e-39
-0.00563346708808 -0.0154920344922 0.761 6.18239570125e-39
-0.00422510031606 -0.0154920344922 0.761 6.18276984794e-39
-0.00282043490218 -0.015512391962 0.762 3.69352147279e-39
-0.0544321727972 -0.0143242559993 0.774 2.3418050119e-38
-0.0529312720717 -0.0143057492086 0.773 2.3418050119e-38
-0.0515006971508 -0.0143057492086 0.773 2.33247782919e-38
-0.0500701222299 -0.0143057492086 0.773 2.35095268827e-38
-0.0485137011324 -0.0142687356272 0.771 1.88097007529e-38
-0.0470868275696 -0.0142687356272 0.771 5.58920504182e-40
-0.0456599540069 -0.0142687356272 0.771 7.84125002072e-39
-0.0441183383419 -0.0142317220458 0.769 6.27355437025e-39
-0.0425841253931 -0.0141947084644 0.767 5.90477185079e-39
-0.0411646545467 -0.0141947084644 0.767 6.6423368897e-39
-0.0397451837003 -0.0141947084644 0.767 6.64269141821e-39
-0.0383257128538 -0.0141947084644 0.767 7.01182426228e-39
-0.0369062420074 -0.0141947084644 0.767 6.82778472847e-39
-0.0354867711609 -0.0141947084644 0.767 7.56570149329e-39
-0.0340673003145 -0.0141947084644 0.767 6.91998316093e-39
-0.0326052638495 -0.0141762016737 0.766 7.4728010103e-39
-0.0311876436821 -0.0141762016737 0.766 7.93377915962e-39
-0.0297700235147 -0.0141762016737 0.766 7.65754819984e-39
-0.0283894169288 -0.0141947084644 0.767 8.39511323874e-39
-0.0269699460823 -0.0141947084644 0.767 7.47315694011e-39
-0.0255504752359 -0.0141947084644 0.767 7.56534976738e-39
-0.0241310043894 -0.0141947084644 0.767 7.10437161806e-39
-0.0226819226779 -0.0141762016737 0.766 7.56500084406e-39
-0.0212643025105 -0.0141762016737 0.766 6.4586532857e-39
-0.0198466823432 -0.0141762016737 0.766 6.55120064148e-39
-0.01838094452 -0.0141391880923 0.764 5.16826058833e-39
-0.0169670257107 -0.0141391880923 0.764 5.81362999738e-39
-0.015512391962 -0.0141021745109 0.762 5.44485028052e-39
-0.0141021745109 -0.0141021745109 0.762 5.16791166501e-39
-0.0126753009482 -0.0140836677202 0.761 4.98316727807e-39
-0.0112669341762 -0.0140836677202 0.761 5.4444985546e-39
-0.00985856740414 -0.0140836677202 0.761 6.08914629494e-39
-0.00845020063212 -0.0140836677202 0.761 7.01038092486e-39
-0.0070418338601 -0.0140836677202 0.761 7.10328421045e-39
-0.00564086980436 -0.0141021745109 0.762 6.91888734553e-39
-0.00423065235327 -0.0141021745109 0.762 6.91925728832e-39
-0.00282043490218 -0.0141021745109 0.762 3.4162087106e-39
-0.0544321727972 -0.0128918303993 0.774 2.3418050119e-38
-0.0529312720717 -0.0128751742877 0.773 2.3418050119e-38
-0.0515006971508 -0.0128751742877 0.773 2.35091681503e-38
-0.0500701222299 -0.0128751742877 0.773 2.35091681503e-38
-0.0486395473091 -0.0128751742877 0.773 1.84405651062e-38
-0.0472089723882 -0.0128751742877 0.773 7.42957235397e-40
-0.0457783974674 -0.0128751742877 0.773 8.02563987915e-39
-0.0442330804442 -0.0128418620644 0.771 7.65684474801e-39
-0.0426951661373 -0.0128085498412 0.769 7.84088568312e-39
-0.0412719939327 -0.0128085498412 0.769 8.76248605194e-39
-0.0397451837003 -0.0127752376179 0.767 6.73453812476e-39
-0.0383257128538 -0.0127752376179 0.767 6.9192755052e-39
-0.0369062420074 -0.0127752376179 0.767 6.27460814669e-39
-0.0354867711609 -0.0127752376179 0.767 6.27531299982e-39
-0.0340673003145 -0.0127752376179 0.767 6.45970425955e-39
-0.0326478294681 -0.0127752376179 0.767 6.27495987261e-39
-0.0312283586216 -0.0127752376179 0.767 6.45935673753e-39
-0.0298088877752 -0.0127752376179 0.767 6.09021968956e-39
-0.0284634440915 -0.0128085498412 0.769 6.4586490818e-39
-0.027040271887 -0.0128085498412 0.769 7.01182706488e-39
-0.0256170996824 -0.0128085498412 0.769 7.28805802466e-39
-0.0241310043894 -0.0127752376179 0.767 6.64269141821e-39
-0.022711533543 -0.0127752376179 0.767 6.82635960793e-39
-0.0212920626966 -0.0127752376179 0.767 6.54976711315e-39
-0.0198725918501 -0.0127752376179 0.767 8.2096401766e-39
-0.0184290621758 -0.0127585815063 0.766 7.47242966621e-39
-0.0170114420084 -0.0127585815063 0.766 7.65681812334e-39
-0.015593821841 -0.0127585815063 0.766 7.19584417791e-39
-0.0141391880923 -0.0127252692831 0.764 7.01110259357e-39
-0.0126919570598 -0.0126919570598 0.762 6.27318302615e-39
-0.0112817396087 -0.0126919570598 0.762 5.35158125603e-39
-0.00987152215763 -0.0126919570598 0.762 5.99695066508e-39
-0.00846130470654 -0.0126919570598 0.762 6.73379683787e-39
-0.00705108725545 -0.0126919570598 0.762 7.37880050801e-39
-0.00564086980436 -0.0126919570598 0.762 6.734501691e-39
-0.00423065235327 -0.0126919570598 0.762 6.55047476887e-39
-0.00282043490218 -0.0126919570598 0.762 3.41584997819e-39
-0.0545728244065 -0.0114890156645 0.776 2.350988001e-38
-0.0529997471972 -0.0114594047994 0.774 2.35098856151e-38
-0.0515673215973 -0.0114594047994 0.774 2.34180431125e-38
-0.0501348959974 -0.0114594047994 0.774 2.31418191592e-38
-0.0486395473091 -0.0114445993668 0.773 1.69651029206e-38
-0.0472089723882 -0.0114445993668 0.773 2.81604939391e-40
-0.0457783974674 -0.0114445993668 0.773 9.31673182445e-39
-0.0443478225465 -0.0114445993668 0.773 8.57844511683e-39
-0.0428062068815 -0.0114149885017 0.771 7.28842796745e-39
-0.0413793333188 -0.0114149885017 0.771 6.82817288814e-39
-0.0399524597561 -0.0114149885017 0.771 6.73597725828e-39
-0.0384256495236 -0.0113853776366 0.769 7.28950136208e-39
-0.037002477319 -0.0113853776366 0.769 7.65719647392e-39
-0.0355793051144 -0.0113853776366 0.769 7.65646920002e-39
-0.0341561329098 -0.0113853776366 0.769 8.39475730893e-39
-0.0326478294681 -0.0113557667715 0.767 7.19621552201e-39
-0.0312283586216 -0.0113557667715 0.767 6.45829735589e-39
-0.0298088877752 -0.0113557667715 0.767 6.73488844937e-39
-0.0284634440915 -0.0113853776366 0.769 6.27355437025e-39
-0.027040271887 -0.0113853776366 0.769 6.73488844937e-39
-0.0256170996824 -0.0113853776366 0.769 5.53634105725e-39
-0.0241939274778 -0.0113853776366 0.769 5.07571883775e-39
-0.0227707552732 -0.0113853776366 0.769 5.99767093249e-39
-0.0213475830687 -0.0113853776366 0.769 6.45900501161e-39
-0.0199244108641 -0.0113853776366 0.769 6.64339627134e-39
-0.0184531210037 -0.0113557667715 0.767 7.19656724792e-39
-0.0170336501573 -0.0113557667715 0.767 7.65754539724e-39
-0.015593821841 -0.0113409613389 0.766 7.7497438297e-39
-0.0141762016737 -0.0113409613389 0.766 7.10401849085e-39
-0.0127585815063 -0.0113409613389 0.766 6.4586490818e-39
-0.0113409613389 -0.0113409613389 0.766 7.01219280378e-39
-0.0098974316646 -0.0113113504738 0.764 7.28698182744e-39
-0.00848351285537 -0.0113113504738 0.764 8.30040788333e-39
-0.00706959404614 -0.0113113504738 0.764 7.56319457034e-39
-0.00565567523691 -0.0113113504738 0.764 6.36752544526e-39
-0.0042528605021 -0.0113409613389 0.766 5.44701388535e-39
-0.00283524033474 -0.0113409613389 0.766 2.68044854411e-39
-0.0545728244065 -0.0100528887065 0.776 2.350988001e-38
-0.0531366974484 -0.0100528887065 0.776 2.35098856151e-38
-0.0517005704903 -0.0100528887065 0.776 2.34180403099e-38
-0.0501348959974 -0.0100269791995 0.774 2.30507025292e-38
-0.0487024703975 -0.0100269791995 0.774 1.64115774155e-38
-0.0472700447975 -0.0100269791995 0.774 1.75672660941e-39
-0.0458376191976 -0.0100269791995 0.774 8.94723324148e-39
-0.0444051935977 -0.0100269791995 0.774 9.22381732847e-39
-0.0429172476257 -0.010014024446 0.773 8.67100648559e-39
-0.0414866727048 -0.010014024446 0.773 8.39549859582e-39
-0.040056097784 -0.010014024446 0.773 8.48769142309e-39
-0.0385255861933 -0.00998811493901 0.771 8.39477272322e-39
-0.0370987126306 -0.00998811493901 0.771 8.21001432329e-39
-0.0356718390679 -0.00998811493901 0.771 7.28733215205e-39
-0.0342449655052 -0.00998811493901 0.771 6.73524017529e-39
-0.0327329607053 -0.00996220543204 0.769 7.10366676493e-39
-0.0313097885007 -0.00996220543204 0.769 7.38025645712e-39
-0.0298866162961 -0.00996220543204 0.769 7.10366956753e-39
-0.0285374712543 -0.00998811493901 0.771 7.84123460643e-39
-0.0271105976916 -0.00998811493901 0.771 7.47245208698e-39
-0.0256170996824 -0.00996220543204 0.769 6.82707987534e-39
-0.0241939274778 -0.00996220543204 0.769 6.82743580515e-39
-0.0227707552732 -0.00996220543204 0.769 6.55156497908e-39
-0.0213475830687 -0.00996220543204 0.769 5.44521742072e-39
-0.0199244108641 -0.00996220543204 0.769 5.72180431031e-39
-0.0185012386595 -0.00996220543204 0.769 5.72180290901e-39
-0.0170336501573 -0.00993629592506 0.767 5.81399853887e-39
-0.0156141793108 -0.00993629592506 0.767 5.81399853887e-39
-0.0141947084644 -0.00993629592506 0.767 6.55156357778e-39
-0.0127585815063 -0.00992334117158 0.766 6.36717231805e-39
-0.0113409613389 -0.00992334117158 0.766 6.27534943358e-39
-0.00992334117158 -0.00992334117158 0.766 6.9192797091e-39
-0.00848351285537 -0.0098974316646 0.764 8.48479634046e-39
-0.00706959404614 -0.0098974316646 0.764 7.93197708979e-39
-0.00567048066947 -0.00992334117158 0.766 6.18385725555e-39
-0.0042528605021 -0.00992334117158 0.766 5.53957385281e-39
-0.00283524033474 -0.00992334117158 0.766 2.9566724974e-39
-0.0591847166481 -0.00866117804606 0.78 2.35098856151e-38
-0.0575931326482 -0.00863896989722 0.778 2.34180473164e-38
-0.056153304332 -0.00863896989722 0.778 2.35095268827e-38
-0.0545728244065 -0.00861676174839 0.776 2.35098828126e-38
-0.0531366974484 -0.00861676174839 0.776 2.35095268827e-38
-0.0518338193833 -0.00863896989722 0.778 2.34180403099e-38
-0.0502644435323 -0.00861676174839 0.776 2.32343735215e-38
-0.0488283165742 -0.00861676174839 0.776 1.55818139442e-38
-0.0473921896161 -0.00861676174839 0.776 2.309897586e-39
-0.0459560626581 -0.00861676174839 0.776 8.20931367406e-39
-0.0445199357 -0.00861676174839 0.776 7.01076908454e-39
-0.0429727679978 -0.00859455359955 0.774 7.84125002072e-39
-0.0414866727048 -0.00858344952513 0.773 8.39550139842e-39
-0.040056097784 -0.00858344952513 0.773 8.11890890363e-39
-0.038675491198 -0.00859455359955 0.774 9.13233776212e-39
-0.0372430655981 -0.00859455359955 0.774 8.9475793622e-39
-0.0358106399981 -0.00859455359955 0.774 8.76246222987e-39
-0.0343337981005 -0.00858344952513 0.773 9.13124755192e-39
-0.0329032231797 -0.00858344952513 0.773 9.22308024548e-39
-0.0313912183798 -0.0085612413763 0.771 8.76210069486e-39
-0.029964344817 -0.0085612413763 0.771 7.65575033391e-39
-0.0285374712543 -0.0085612413763 0.771 8.20892411309e-39
-0.0271105976916 -0.0085612413763 0.771 7.6557531365e-39
-0.0256837241289 -0.0085612413763 0.771 7.378814521e-39
-0.0242568505662 -0.0085612413763 0.771 7.56285125221e-39
-0.0228299770035 -0.0085612413763 0.771 7.56464771684e-39
-0.0214031034407 -0.0085612413763 0.771 7.19658126091e-39
-0.0199244108641 -0.00853903322746 0.769 8.76390696858e-39
-0.0185012386595 -0.00853903322746 0.769 7.19657845831e-39
-0.0170780664549 -0.00853903322746 0.769 7.01254312839e-39
-0.0156548942503 -0.00853903322746 0.769 5.44521742072e-39
-0.0141947084644 -0.00851682507863 0.767 5.07643349996e-39
-0.0127752376179 -0.00851682507863 0.767 5.44521601942e-39
-0.0113557667715 -0.00851682507863 0.767 5.44594329332e-39
-0.00993629592506 -0.00851682507863 0.767 5.81292794684e-39
-0.00851682507863 -0.00851682507863 0.767 7.19405612107e-39
-0.00709735423219 -0.00851682507863 0.767 7.74830189358e-39
-0.00567788338575 -0.00851682507863 0.767 6.09166162568e-39
-0.00426951661373 -0.00853903322746 0.769 5.90800044246e-39
-0.00284634440915 -0.00853903322746 0.769 4.06302285836e-39
-0.0591847166481 -0.00721764837172 0.78 2.35098856151e-38
-0.0575931326482 -0.00719914158102 0.778 2.3418050119e-38
-0.056153304332 -0.00719914158102 0.778 2.35095268827e-38
-0.0547134760158 -0.00719914158102 0.778 2.35098856151e-38
-0.0532736476996 -0.00719914158102 0.778 2.35095268827e-38
-0.0518338193833 -0.00719914158102 0.778 2.34180431125e-38
-0.0503939910671 -0.00719914158102 0.778 2.32343735215e-38
-0.0488283165742 -0.00718063479032 0.776 1.45676620157e-38
-0.0473921896161 -0.00718063479032 0.776 2.86307136518e-39
-0.0460745061185 -0.00719914158102 0.778 8.48590336625e-39
-0.0446346778023 -0.00719914158102 0.778 7.37847680807e-39
-0.0430838087419 -0.00718063479032 0.776 6.45831557277e-39
-0.0415403423978 -0.00716212799963 0.774 6.09061065183e-39
-0.0401079167979 -0.00716212799963 0.774 5.72182252719e-39
-0.0387754278677 -0.00718063479032 0.776 5.72109665458e-39
-0.0373393009097 -0.00718063479032 0.776 6.55049298575e-39
-0.0359031739516 -0.00718063479032 0.776 7.01038512876e-39
-0.0345558795889 -0.00719914158102 0.778 8.02381819114e-39
-0.0330309200355 -0.00718063479032 0.776 7.74758583006e-39
-0.0315133631984 -0.00716212799963 0.774 7.93232881571e-39
-0.0300809375984 -0.00716212799963 0.774 8.39365728964e-39
-0.0286485119985 -0.00716212799963 0.774 8.39330135983e-39
-0.0272160863986 -0.00716212799963 0.774 8.85392778323e-39
-0.0257503485754 -0.00715287460428 0.773 8.11566069379e-39
-0.0243197736545 -0.00715287460428 0.773 7.74652925102e-39
-0.0228891987337 -0.00715287460428 0.773 7.01147533896e-39
-0.0214586238128 -0.00715287460428 0.773 7.1962267324e-39
-0.019976229878 -0.00713436781358 0.771 8.39512725173e-39
-0.0185493563153 -0.00713436781358 0.771 7.84195066995e-39
-0.0171224827526 -0.00713436781358 0.771 7.10438282845e-39
-0.0156956091899 -0.00713436781358 0.771 7.38132564785e-39
-0.0142317220458 -0.00711586102289 0.769 7.750106766e-39
-0.0128085498412 -0.00711586102289 0.769 7.93449802573e-39
-0.0113853776366 -0.00711586102289 0.769 6.36789678936e-39
-0.00996220543204 -0.00711586102289 0.769 6.82743580515e-39
-0.00853903322746 -0.00711586102289 0.769 7.56355470404e-39
-0.00711586102289 -0.00711586102289 0.769 7.74830189358e-39
-0.00570749425087 -0.00713436781358 0.771 5.99946879842e-39
-0.00428062068815 -0.00713436781358 0.771 5.63141635546e-39
-0.00285374712543 -0.00713436781358 0.771 3.87827707012e-39
-0.00143242559993 -0.00716212799963 0.774 1.34630366531e-38
0.0 -0.00718063479032 0.776 1.40154943688e-38
-0.0591847166481 -0.00577411869737 0.78 2.35098856151e-38
-0.0575931326482 -0.00575931326482 0.778 2.34180473164e-38
-0.056153304332 -0.00575931326482 0.778 2.35095268827e-38
-0.0547134760158 -0.00575931326482 0.778 2.35098856151e-38
-0.0534105979507 -0.00577411869737 0.78 2.35095268827e-38
-0.0519670682764 -0.00577411869737 0.78 2.32343693176e-38
-0.050523538602 -0.00577411869737 0.78 2.31425394266e-38
-0.0490800089277 -0.00577411869737 0.78 1.38300997794e-38
-0.0476364792533 -0.00577411869737 0.78 2.49429164832e-39
-0.046192949579 -0.00577411869737 0.78 8.76140845342e-39
-0.0447494199046 -0.00577411869737 0.78 7.37847400547e-39
-0.0433058902303 -0.00577411869737 0.78 7.37955160399e-39
-0.041862360556 -0.00577411869737 0.78 6.919645448e-39
-0.0403151928537 -0.00575931326482 0.778 7.1962267324e-39
-0.0388753645375 -0.00575931326482 0.778 7.01147393766e-39
-0.0375317715329 -0.00577411869737 0.78 7.6561174741e-39
-0.0360882418586 -0.00577411869737 0.78 7.28661608854e-39
-0.0345558795889 -0.00575931326482 0.778 7.10186189251e-39
-0.0331160512727 -0.00575931326482 0.778 7.37880050801e-39
-0.0316762229565 -0.00575931326482 0.778 7.56354069106e-39
-0.0302363946403 -0.00575931326482 0.778 7.28730552738e-39
-0.0287225391613 -0.00574450783226 0.776 7.37950115725e-39
-0.0272864122032 -0.00574450783226 0.776 7.37915223393e-39
-0.0257836607987 -0.0057297023997 0.774 7.93162256128e-39
-0.0243512351987 -0.0057297023997 0.774 7.74652644842e-39
-0.0228891987337 -0.00572229968342 0.773 7.65684474801e-39
-0.0214586238128 -0.00572229968342 0.773 7.47317095309e-39
-0.020028048892 -0.00572229968342 0.773 8.11854036214e-39
-0.0185974739711 -0.00572229968342 0.773 8.30292881927e-39
-0.0171668990503 -0.00572229968342 0.773 8.4873172764e-39
-0.0156956091899 -0.00570749425087 0.771 7.74975223749e-39
-0.0142687356272 -0.00570749425087 0.771 7.65791253744e-39
-0.0128418620644 -0.00570749425087 0.771 7.38132564785e-39
-0.0114149885017 -0.00570749425087 0.771 6.27642002561e-39
-0.00998811493901 -0.00570749425087 0.771 7.7501081673e-39
-0.0085612413763 -0.00570749425087 0.771 8.48551100268e-39
-0.00713436781358 -0.00570749425087 0.771 7.47207513769e-39
-0.00572229968342 -0.00572229968342 0.773 5.9983897986e-39
-0.00429172476257 -0.00572229968342 0.773 4.61726582826e-39
-0.00286485119985 -0.0057297023997 0.774 6.55123427264e-39
-0.00143242559993 -0.0057297023997 0.774 1.4015138439e-38
0.0 -0.00574450783226 0.776 1.34619646598e-38
-0.0575931326482 -0.00431948494861 0.778 2.34180473164e-38
-0.056153304332 -0.00431948494861 0.778 2.35095268827e-38
-0.0547134760158 -0.00431948494861 0.778 2.35098856151e-38
-0.0534105979507 -0.00433058902303 0.78 2.35095268827e-38
-0.0519670682764 -0.00433058902303 0.78 2.30496207267e-38
-0.050523538602 -0.00433058902303 0.78 2.31425422292e-38
-0.0490800089277 -0.00433058902303 0.78 1.34609613301e-38
-0.0476364792533 -0.00433058902303 0.78 3.13930793015e-39
-0.0462521713092 -0.00433614106024 0.781 9.22274393385e-39
-0.0448067909558 -0.00433614106024 0.781 8.76140004563e-39
-0.0433614106024 -0.00433614106024 0.781 8.85503200642e-39
-0.041916030249 -0.00433614106024 0.781 8.210735992e-39
-0.0404188308816 -0.00433058902303 0.78 7.74975504009e-39
-0.0389753012073 -0.00433058902303 0.78 7.10402269474e-39
-0.0375317715329 -0.00433058902303 0.78 7.19513932479e-39
-0.0360882418586 -0.00433058902303 0.78 7.47029128475e-39
-0.0346447121842 -0.00433058902303 0.78 7.10257935732e-39
-0.0332011825099 -0.00433058902303 0.78 7.10292968194e-39
-0.0317576528356 -0.00433058902303 0.78 7.01108577799e-39
-0.0303141231612 -0.00433058902303 0.78 7.10363453507e-39
-0.0288705934869 -0.00433058902303 0.78 7.10363453507e-39
-0.0273567380079 -0.00431948494861 0.778 6.55011043127e-39
-0.0258502852452 -0.00430838087419 0.776 6.54940277555e-39
-0.0244141582871 -0.00430838087419 0.776 6.73344511196e-39
-0.0229188095988 -0.00429727679978 0.774 6.45829735589e-39
-0.0214863839989 -0.00429727679978 0.774 6.27462496227e-39
-0.020053958399 -0.00429727679978 0.774 6.82779874145e-39
-0.018621532799 -0.00429727679978 0.774 7.38096971804e-39
-0.0171891071991 -0.00429727679978 0.774 8.02633912708e-39
-0.0157363241294 -0.00429172476257 0.773 7.4731653479e-39
-0.0143057492086 -0.00429172476257 0.773 7.38096971804e-39
-0.0128418620644 -0.00428062068815 0.771 7.01218719858e-39
-0.0114149885017 -0.00428062068815 0.771 5.63141355287e-39
-0.00998811493901 -0.00428062068815 0.771 7.65863280485e-39
-0.0085612413763 -0.00428062068815 0.771 8.30183860906e-39
-0.00715287460428 -0.00429172476257 0.773 7.28768668056e-39
-0.00572229968342 -0.00429172476257 0.773 6.36717371935e-39
-0.00429172476257 -0.00429172476257 0.773 5.16936481152e-39
-0.00286485119985 -0.00429727679978 0.774 6.55015807542e-39
-0.00143242559993 -0.00429727679978 0.774 1.38307471793e-38
0.0 -0.00429727679978 0.774 1.33697690299e-38
-0.0577411869737 -0.00288705934869 0.78 2.34180431125e-38
-0.056153304332 -0.00287965663241 0.778 2.35098856151e-38
-0.0547134760158 -0.00287965663241 0.778 2.35098828126e-38
-0.0534105979507 -0.00288705934869 0.78 2.35095268827e-38
-0.0520336927229 -0.00289076070683 0.781 2.34180473164e-38
-0.0505883123695 -0.00289076070683 0.781 2.32343791267e-38
-0.049142932016 -0.00289076070683 0.781 1.25386533056e-38
-0.0476975516626 -0.00289076070683 0.781 3.50773872369e-39
-0.0462521713092 -0.00289076070683 0.781 9.49932802084e-39
-0.0449215330581 -0.0028981634231 0.783 8.57735770922e-39
-0.0434724513466 -0.0028981634231 0.783 7.6561174741e-39
-0.041916030249 -0.00289076070683 0.781 7.65719367132e-39
-0.0404706498956 -0.00289076070683 0.781 7.84158493105e-39
-0.0390252695422 -0.00289076070683 0.781 8.30148408055e-39
-0.0375798891887 -0.00289076070683 0.781 8.76174616635e-39
-0.0361345088353 -0.00289076070683 0.781 8.66883727557e-39
-0.0346447121842 -0.00288705934869 0.78 7.74866202728e-39
-0.0332011825099 -0.00288705934869 0.78 7.28803840648e-39
-0.0317576528356 -0.00288705934869 0.78 6.82706025716e-39
-0.0303141231612 -0.00288705934869 0.78 6.82706025716e-39
-0.0289076070683 -0.00289076070683 0.781 7.10364714675e-39
-0.0274270638125 -0.00288705934869 0.78 6.82706165846e-39
-0.0259835341382 -0.00288705934869 0.78 6.73451009879e-39
-0.0244770813755 -0.00287965663241 0.778 6.18133631961e-39
-0.0229188095988 -0.00286485119985 0.774 5.53740884668e-39
-0.0214863839989 -0.00286485119985 0.774 6.27497388559e-39
-0.020053958399 -0.00286485119985 0.774 6.82815046737e-39
-0.018621532799 -0.00286485119985 0.774 6.64375920764e-39
-0.0171891071991 -0.00286485119985 0.774 6.18278245962e-39
-0.0157566815992 -0.00286485119985 0.774 5.90583964022e-39
-0.0143242559993 -0.00286485119985 0.774 6.36681778954e-39
-0.0128918303993 -0.00286485119985 0.774 6.18242933241e-39
-0.0114594047994 -0.00286485119985 0.774 6.46117702423e-39
-0.0100269791995 -0.00286485119985 0.774 7.56644278018e-39
-0.00859455359955 -0.00286485119985 0.774 7.74866763248e-39
-0.00716212799963 -0.00286485119985 0.774 7.10329822344e-39
-0.0057297023997 -0.00286485119985 0.774 6.09058682976e-39
-0.00429727679978 -0.00286485119985 0.774 4.80058229207e-39
