# .PCD v0.7 - Point Cloud Data file format
VERSION 0.7
FIELDS x y z rgb
SIZE 4 4 4 4
TYPE F F F F
COUNT 1 1 1 1
WIDTH 838
HEIGHT 1
VIEWPOINT 0 0 0 1 0 0 0
POINTS 838
DATA ascii
-0.0373263461562 -0.0138245726504 0.747 7.00646429565e-39
-0.0359438888912 -0.0138245726504 0.747 7.00681742287e-39
-0.0345614316261 -0.0138245726504 0.747 6.73023053328e-39
-0.0331789743611 -0.0138245726504 0.747 6.36324167586e-39
-0.031796517096 -0.0138245726504 0.747 6.73238012512e-39
-0.030414059831 -0.0138245726504 0.747 5.99445915641e-39
-0.0290316025659 -0.0138245726504 0.747 6.36324167586e-39
-0.0276491453009 -0.0138245726504 0.747 6.64018169266e-39
-0.0262315251335 -0.0138060658597 0.746 6.45614356015e-39
-0.0248509185475 -0.0138060658597 0.746 6.64088654579e-39
-0.0235017735058 -0.0138245726504 0.747 6.73307797176e-39
-0.0221193162407 -0.0138245726504 0.747 7.28698322874e-39
-0.0207368589757 -0.0138245726504 0.747 6.45686943275e-39
-0.0193544017106 -0.0138245726504 0.747 6.82600788202e-39
-0.0179719444456 -0.0138245726504 0.747 6.45722255997e-39
-0.0165894871805 -0.0138245726504 0.747 6.08807570291e-39
-0.0151866724457 -0.0138060658597 0.746 6.45685541977e-39
-0.0138060658597 -0.0138060658597 0.746 7.10186189251e-39
-0.0124254592738 -0.0138060658597 0.746 6.45649248347e-39
-0.0110448526878 -0.0138060658597 0.746 6.18025451719e-39
-0.00963833659485 -0.0137690522784 0.744 6.27245294965e-39
-0.00826143136701 -0.0137690522784 0.744 6.54760911351e-39
-0.00690303292987 -0.0138060658597 0.746 6.5468902474e-39
-0.0055224263439 -0.0138060658597 0.746 6.3635723823e-39
-0.00414737179513 -0.0138245726504 0.747 6.36464577692e-39
-0.00276491453009 -0.0138245726504 0.747 6.54940277555e-39
-0.00138245726504 -0.0138245726504 0.747 4.61474068843e-39
-0.0542767157553 -0.0125253959435 0.752 2.35098828126e-38
-0.0528850050949 -0.0125253959435 0.752 2.35098856151e-38
-0.0516302446857 -0.0125587081668 0.754 2.35098856151e-38
-0.0502348326672 -0.0125587081668 0.754 2.35098856151e-38
-0.0488394206486 -0.0125587081668 0.754 2.34176899853e-38
-0.0474440086301 -0.0125587081668 0.754 2.33258474826e-38
-0.045926451793 -0.0125253959435 0.752 2.35098758061e-38
-0.0445347411326 -0.0125253959435 0.752 7.98740124665e-44
-0.0430282883699 -0.0124920837203 0.75 4.33643160303e-39
-0.0416402790676 -0.0124920837203 0.75 9.77628625452e-39
-0.0401986000723 -0.0124754276087 0.749 1.14340013183e-38
-0.0388124414491 -0.0124754276087 0.749 1.03265649511e-38
-0.037426282826 -0.0124754276087 0.749 9.95672865518e-39
-0.0360401242028 -0.0124754276087 0.749 9.49574770326e-39
-0.0345614316261 -0.0124421153854 0.747 9.4035520734e-39
-0.0331789743611 -0.0124421153854 0.747 9.58901392515e-39
-0.031796517096 -0.0124421153854 0.747 8.85252508347e-39
-0.030414059831 -0.0124421153854 0.747 8.29899537448e-39
-0.0290316025659 -0.0124421153854 0.747 6.54763433688e-39
-0.0276491453009 -0.0124421153854 0.747 6.73238012512e-39
-0.0262666880358 -0.0124421153854 0.747 6.17955526926e-39
-0.0248842307708 -0.0124421153854 0.747 5.81112307442e-39
-0.0235017735058 -0.0124421153854 0.747 6.08806168993e-39
-0.0221785379709 -0.0124754276087 0.749 6.64125228469e-39
-0.0207923793478 -0.0124754276087 0.749 6.73309338604e-39
-0.0194062207246 -0.0124754276087 0.749 6.91748184317e-39
-0.0180200621014 -0.0124754276087 0.749 6.54833778871e-39
-0.0166339034782 -0.0124754276087 0.749 6.64053061598e-39
-0.0152070299155 -0.0124421153854 0.747 5.90332150688e-39
-0.0138245726504 -0.0124421153854 0.747 6.8241988057e-39
-0.0124421153854 -0.0124421153854 0.747 6.54761191611e-39
-0.0110596581204 -0.0124421153854 0.747 6.45719873789e-39
-0.00966424610182 -0.0124254592738 0.746 6.6405123991e-39
-0.00828363951585 -0.0124254592738 0.746 6.82347713699e-39
-0.00691228632522 -0.0124421153854 0.747 6.91567276685e-39
-0.00552982906018 -0.0124421153854 0.747 6.45504914605e-39
-0.00414737179513 -0.0124421153854 0.747 6.08805888733e-39
-0.00276491453009 -0.0124421153854 0.747 6.36501151582e-39
-0.00138615862318 -0.0124754276087 0.749 4.98352040529e-39
-0.0530256567042 -0.0111632961483 0.754 2.35098856151e-38
-0.0516302446857 -0.0111632961483 0.754 2.35098856151e-38
-0.0502348326672 -0.0111632961483 0.754 2.35098856151e-38
-0.0488394206486 -0.0111632961483 0.754 2.35098856151e-38
-0.0474440086301 -0.0111632961483 0.754 2.33254915528e-38
-0.0460485966116 -0.0111632961483 0.754 2.30489046632e-38
-0.0445347411326 -0.0111336852831 0.752 2.2149007605e-39
-0.0431430304722 -0.0111336852831 0.752 4.06054956657e-39
-0.0417513198118 -0.0111336852831 0.752 1.07882801834e-38
-0.0402522697653 -0.011104074418 0.75 1.09694484566e-38
-0.0388642604631 -0.011104074418 0.75 1.04180697408e-38
-0.0374762511608 -0.011104074418 0.75 7.84019204038e-39
-0.0360882418586 -0.011104074418 0.75 6.91932595195e-39
-0.0346539655796 -0.0110892689855 0.749 9.40932402177e-39
-0.0332678069564 -0.0110892689855 0.749 9.68339277802e-39
-0.0318816483332 -0.0110892689855 0.749 1.02347714939e-38
-0.03049548971 -0.0110892689855 0.749 1.12489206198e-38
-0.0291093310869 -0.0110892689855 0.749 8.02242249787e-39
-0.0277231724637 -0.0110892689855 0.749 6.45543730572e-39
-0.0263370138405 -0.0110892689855 0.749 6.54726019019e-39
-0.0249508552173 -0.0110892689855 0.749 6.27102782912e-39
-0.0235646965941 -0.0110892689855 0.749 6.54653992278e-39
-0.0221785379709 -0.0110892689855 0.749 6.0877211744e-39
-0.0207923793478 -0.0110892689855 0.749 6.27282989894e-39
-0.0194321302315 -0.011104074418 0.75 5.81220487684e-39
-0.0180200621014 -0.0110892689855 0.749 4.52146325615e-39
-0.0166339034782 -0.0110892689855 0.749 5.25866816135e-39
-0.015247744855 -0.0110892689855 0.749 5.44270349127e-39
-0.0138615862318 -0.0110892689855 0.749 5.25831503414e-39
-0.0124754276087 -0.0110892689855 0.749 5.0735692459e-39
-0.0110596581204 -0.0110596581204 0.747 5.6267318147e-39
-0.00967720085531 -0.0110596581204 0.747 4.70477551606e-39
-0.00829474359027 -0.0110596581204 0.747 5.25794929524e-39
-0.00691228632522 -0.0110596581204 0.747 6.27137955503e-39
-0.00554463449273 -0.0110892689855 0.749 6.45576520956e-39
-0.00415847586955 -0.0110892689855 0.749 6.64123546911e-39
-0.00277601860451 -0.011104074418 0.75 6.45684420938e-39
-0.00138615862318 -0.0110892689855 0.749 6.08842462623e-39
0.0 -0.0110892689855 0.749 2.86447826883e-39
-0.0544210687227 -0.00976788412972 0.754 2.35098856151e-38
-0.0530256567042 -0.00976788412972 0.754 2.35098856151e-38
-0.0516302446857 -0.00976788412972 0.754 2.35098856151e-38
-0.0502348326672 -0.00976788412972 0.754 2.35098856151e-38
-0.0488394206486 -0.00976788412972 0.754 2.35098856151e-38
-0.0474440086301 -0.00976788412972 0.754 2.31411030957e-38
-0.0460485966116 -0.00976788412972 0.754 2.35098856151e-38
-0.044653184593 -0.00976788412972 0.754 3.69146156405e-39
-0.0432577725745 -0.00976788412972 0.754 3.59956861465e-39
-0.0417513198118 -0.00974197462275 0.752 1.04184214667e-38
-0.0403596091514 -0.00974197462275 0.752 1.05999540776e-38
-0.038967898491 -0.00974197462275 0.752 1.02333267552e-38
-0.0375761878306 -0.00974197462275 0.752 4.79773625489e-39
-0.0361844771702 -0.00974197462275 0.752 3.0478311664e-39
-0.0347927665098 -0.00974197462275 0.752 2.5879292143e-39
-0.0334010558494 -0.00974197462275 0.752 6.82497512505e-39
-0.0319242139518 -0.00971606511577 0.75 1.03266153978e-38
-0.0305362046496 -0.00971606511577 0.75 1.12485688939e-38
-0.0291481953473 -0.00971606511577 0.75 7.74512234736e-39
-0.0277601860451 -0.00971606511577 0.75 6.36324307716e-39
-0.0263721767428 -0.00971606511577 0.75 5.90296978097e-39
-0.0249841674406 -0.00971606511577 0.75 5.80969515129e-39
-0.0235961581383 -0.00971606511577 0.75 6.54690706298e-39
-0.0222081488361 -0.00971606511577 0.75 5.90333551987e-39
-0.0208201395338 -0.00971606511577 0.75 5.81185595352e-39
-0.0194839492455 -0.00974197462275 0.752 5.90404737949e-39
-0.0180441209293 -0.00971606511577 0.75 5.72001204957e-39
-0.016656111627 -0.00971606511577 0.75 5.99659613656e-39
-0.0152681023248 -0.00971606511577 0.75 5.9044033093e-39
-0.0138615862318 -0.00970311036229 0.749 5.71965752106e-39
-0.0124754276087 -0.00970311036229 0.749 5.81185595352e-39
-0.0110892689855 -0.00970311036229 0.749 6.45614215885e-39
-0.00970311036229 -0.00970311036229 0.749 5.3501477277e-39
-0.0083169517391 -0.00970311036229 0.749 6.3642968536e-39
-0.00693079311592 -0.00970311036229 0.749 6.17990419258e-39
-0.00554463449273 -0.00970311036229 0.749 6.27245575225e-39
-0.00416402790676 -0.00971606511577 0.75 6.64123546911e-39
-0.00277601860451 -0.00971606511577 0.75 6.64123546911e-39
-0.00138615862318 -0.00970311036229 0.749 5.9036704302e-39
0.0 -0.00970311036229 0.749 2.49570135457e-39
-0.0544210687227 -0.00837247211119 0.754 2.35098856151e-38
-0.0530256567042 -0.00837247211119 0.754 2.35098856151e-38
-0.0516302446857 -0.00837247211119 0.754 2.35098856151e-38
-0.0505679548997 -0.00842799248328 0.759 2.35098856151e-38
-0.0491632894858 -0.00842799248328 0.759 2.35098856151e-38
-0.0476327778952 -0.00840578433445 0.757 2.33254943554e-38
-0.0461096690209 -0.00838357618561 0.755 2.35098856151e-38
-0.0447124063233 -0.00838357618561 0.755 5.90415948336e-39
-0.0432577725745 -0.00837247211119 0.754 4.24458489648e-39
-0.041862360556 -0.00837247211119 0.754 1.05106184979e-38
-0.0404669485374 -0.00837247211119 0.754 1.03230112582e-38
-0.038967898491 -0.00835026396236 0.752 1.07857816682e-38
-0.0375761878306 -0.00835026396236 0.752 7.83875010426e-39
-0.0361844771702 -0.00835026396236 0.752 8.11643000665e-39
-0.0347927665098 -0.00835026396236 0.752 7.93239187414e-39
-0.0334010558494 -0.00835026396236 0.752 8.02207637715e-39
-0.032009345189 -0.00835026396236 0.752 1.00485865721e-38
-0.0306176345286 -0.00835026396236 0.752 1.12478500277e-38
-0.0292259238682 -0.00835026396236 0.752 7.6529267175e-39
-0.0278342132079 -0.00835026396236 0.752 7.7458215953e-39
-0.0264425025475 -0.00835026396236 0.752 6.73309338604e-39
-0.0250507918871 -0.00835026396236 0.752 6.087723977e-39
-0.0236590812267 -0.00835026396236 0.752 6.82457575499e-39
-0.0222673705663 -0.00835026396236 0.752 6.27248377822e-39
-0.0208756599059 -0.00835026396236 0.752 6.18028814836e-39
-0.0194839492455 -0.00835026396236 0.752 6.45686943275e-39
-0.0180922385851 -0.00835026396236 0.752 5.81185315092e-39
-0.0167005279247 -0.00835026396236 0.752 5.6274618912e-39
-0.0152681023248 -0.00832805581352 0.75 5.53526486003e-39
-0.0138800930225 -0.00832805581352 0.75 5.6274618912e-39
-0.0124920837203 -0.00832805581352 0.75 6.27283130024e-39
-0.0111336852831 -0.00835026396236 0.752 5.90296837967e-39
-0.00974197462275 -0.00835026396236 0.752 5.90332150688e-39
-0.00835026396236 -0.00835026396236 0.752 5.71893024716e-39
-0.00695855330196 -0.00835026396236 0.752 6.17990559388e-39
-0.00556684264157 -0.00835026396236 0.752 5.44233915367e-39
-0.00417513198118 -0.00835026396236 0.752 5.9036732328e-39
-0.00279082403706 -0.00837247211119 0.754 6.82562672883e-39
-0.00139541201853 -0.00837247211119 0.754 6.54903983924e-39
0.0 -0.00837247211119 0.754 3.14070222212e-39
0.0013972626976 -0.00838357618561 0.755 1.25410803545e-38
-0.0530256567042 -0.00697706009266 0.754 2.35098856151e-38
-0.0516302446857 -0.00697706009266 0.754 2.35098856151e-38
-0.0505679548997 -0.0070233270694 0.759 2.34176899853e-38
-0.0491632894858 -0.0070233270694 0.759 2.35098856151e-38
-0.0476327778952 -0.0070048202787 0.757 2.35098856151e-38
-0.0462318138395 -0.0070048202787 0.757 2.35098856151e-38
-0.0448308497837 -0.0070048202787 0.757 6.82575845089e-39
-0.043429885728 -0.0070048202787 0.757 4.79848034437e-39
-0.041917880928 -0.00698631348801 0.755 1.0050360616e-38
-0.0405206182304 -0.00698631348801 0.755 1.18903369658e-38
-0.0391233555328 -0.00698631348801 0.755 1.12471171486e-38
-0.0377260928352 -0.00698631348801 0.755 1.10652314106e-38
-0.0363288301376 -0.00698631348801 0.755 1.06042658729e-38
-0.03493156744 -0.00698631348801 0.755 1.00503662212e-38
-0.0336231373378 -0.0070048202787 0.757 1.05099136447e-38
-0.0321370420448 -0.00698631348801 0.755 9.86383097478e-39
-0.0307397793472 -0.00698631348801 0.755 1.11549299266e-38
-0.0293425166496 -0.00698631348801 0.755 7.6529239149e-39
-0.0279082403706 -0.00697706009266 0.754 7.56250513149e-39
-0.0265128283521 -0.00697706009266 0.754 7.10187590549e-39
-0.0251174163336 -0.00697706009266 0.754 6.45722536256e-39
-0.023722004315 -0.00697706009266 0.754 6.64126629767e-39
-0.0223265922965 -0.00697706009266 0.754 6.45615617183e-39
-0.020931180278 -0.00697706009266 0.754 5.99517521992e-39
-0.0195357682594 -0.00697706009266 0.754 6.54870492891e-39
-0.0181403562409 -0.00697706009266 0.754 6.17991680426e-39
-0.0167449442224 -0.00697706009266 0.754 5.90368724578e-39
-0.0153495322039 -0.00697706009266 0.754 5.71929318346e-39
-0.0139541201853 -0.00697706009266 0.754 5.44270349127e-39
-0.0125587081668 -0.00697706009266 0.754 5.627094751e-39
-0.0111632961483 -0.00697706009266 0.754 5.35051066401e-39
-0.00976788412972 -0.00697706009266 0.754 5.90368444319e-39
-0.00837247211119 -0.00697706009266 0.754 5.35051066401e-39
-0.00697706009266 -0.00697706009266 0.754 5.53490192373e-39
-0.00558164807413 -0.00697706009266 0.754 6.18026853018e-39
-0.0041862360556 -0.00697706009266 0.754 5.9040375704e-39
-0.0027945253952 -0.00698631348801 0.755 6.54940277555e-39
-0.0013972626976 -0.00698631348801 0.755 6.08878055604e-39
0.0 -0.00698631348801 0.755 2.6797310793e-39
0.00139541201853 -0.00697706009266 0.754 1.23566918974e-38
0.00279082403706 -0.00697706009266 0.754 1.74217258343e-38
-0.0530256567042 -0.00558164807413 0.754 2.35098856151e-38
-0.0516302446857 -0.00558164807413 0.754 2.35098856151e-38
-0.0507012037927 -0.00563346708808 0.761 2.35098856151e-38
-0.0491632894858 -0.00561866165552 0.759 2.35098856151e-38
-0.0477586240719 -0.00561866165552 0.759 2.35098856151e-38
-0.0463539586581 -0.00561866165552 0.759 2.2956711836e-38
-0.0449492932442 -0.00561866165552 0.759 8.57747541829e-39
-0.0435446278303 -0.00561866165552 0.759 3.87652404574e-39
-0.0421399624164 -0.00561866165552 0.759 1.03269475056e-38
-0.0407352970025 -0.00561866165552 0.759 1.32739874773e-38
-0.0392269935607 -0.00560385622296 0.757 1.30910269433e-38
-0.037826029505 -0.00560385622296 0.757 1.1064867073e-38
-0.0364250654493 -0.00560385622296 0.757 1.09723225198e-38
-0.0350241013935 -0.00560385622296 0.757 1.14318545291e-38
-0.0336231373378 -0.00560385622296 0.757 1.21690678421e-38
-0.032222173282 -0.00560385622296 0.757 1.17999335967e-38
-0.0308212092263 -0.00560385622296 0.757 1.26304131316e-38
-0.0294202451706 -0.00560385622296 0.757 8.66742897061e-39
-0.027945253952 -0.00558905079041 0.755 7.74689218732e-39
-0.0265479912544 -0.00558905079041 0.755 6.64089495358e-39
-0.0251507285568 -0.00558905079041 0.755 6.73381225215e-39
-0.0237534658592 -0.00558905079041 0.755 5.90369845617e-39
-0.0223562031616 -0.00558905079041 0.755 7.00968027563e-39
-0.020958940464 -0.00558905079041 0.755 6.08807850551e-39
-0.0195616777664 -0.00558905079041 0.755 5.90368444319e-39
-0.0181644150688 -0.00558905079041 0.755 6.18026853018e-39
-0.0167671523712 -0.00558905079041 0.755 6.6416026093e-39
-0.0153495322039 -0.00558164807413 0.754 5.44305521719e-39
-0.0139541201853 -0.00558164807413 0.754 6.08878055604e-39
-0.0125587081668 -0.00558164807413 0.754 6.18097338331e-39
-0.0111632961483 -0.00558164807413 0.754 6.27246416004e-39
-0.00978083888321 -0.00558905079041 0.755 5.81149161592e-39
-0.00837247211119 -0.00558164807413 0.754 6.3646653951e-39
-0.00697706009266 -0.00558164807413 0.754 6.27211243413e-39
-0.00558905079041 -0.00558905079041 0.755 7.01003480414e-39
-0.0041917880928 -0.00558905079041 0.755 7.19442045867e-39
-0.0027945253952 -0.00558905079041 0.755 6.73379683787e-39
-0.0013972626976 -0.00558905079041 0.755 6.36536744563e-39
0.0 -0.00558905079041 0.755 2.58753685073e-39
0.00138615862318 -0.00554463449273 0.749 1.30939010065e-38
0.00277231724637 -0.00554463449273 0.749 1.79748996135e-38
-0.0530256567042 -0.0041862360556 0.754 2.35098856151e-38
-0.0516302446857 -0.0041862360556 0.754 2.35098856151e-38
-0.0507012037927 -0.00422510031606 0.761 2.35098856151e-38
-0.0492928370207 -0.00422510031606 0.761 2.35098856151e-38
-0.0478844702487 -0.00422510031606 0.761 2.35098856151e-38
-0.0464761034766 -0.00422510031606 0.761 2.33254943554e-38
-0.0450677367046 -0.00422510031606 0.761 8.67002557667e-39
-0.0436593699326 -0.00422510031606 0.761 4.24565688981e-39
-0.0422510031606 -0.00422510031606 0.761 7.0089754225e-39
-0.0407352970025 -0.00421399624164 0.759 6.73024734886e-39
-0.0393306315886 -0.00421399624164 0.759 7.10010046034e-39
-0.0379259661748 -0.00421399624164 0.759 7.19408274574e-39
-0.0365213007609 -0.00421399624164 0.759 7.7465460666e-39
-0.035116635347 -0.00421399624164 0.759 8.38975187082e-39
-0.0337119699331 -0.00421399624164 0.759 9.95672445128e-39
-0.0323073045192 -0.00421399624164 0.759 1.03258713083e-38
-0.0309026391054 -0.00421399624164 0.759 1.05102625681e-38
-0.0294979736915 -0.00421399624164 0.759 8.66778069653e-39
-0.0280933082776 -0.00421399624164 0.759 7.83872207829e-39
-0.0266886428637 -0.00421399624164 0.759 6.3646625925e-39
-0.0252173530033 -0.00420289216722 0.757 6.91783917428e-39
-0.0238163889476 -0.00420289216722 0.757 6.17992240946e-39
-0.0223562031616 -0.0041917880928 0.755 6.0873568368e-39
-0.020958940464 -0.0041917880928 0.755 6.45649528606e-39
-0.0196134967804 -0.00420289216722 0.757 6.73307937306e-39
-0.0181644150688 -0.0041917880928 0.755 6.54868811333e-39
-0.0167671523712 -0.0041917880928 0.755 6.3642954523e-39
-0.0153698896736 -0.0041917880928 0.755 6.18026012239e-39
-0.013972626976 -0.0041917880928 0.755 6.36464577692e-39
-0.0125753642784 -0.0041917880928 0.755 6.45719873789e-39
-0.0111781015808 -0.0041917880928 0.755 6.54940697944e-39
-0.00978083888321 -0.0041917880928 0.755 6.45722115867e-39
-0.00838357618561 -0.0041917880928 0.755 6.18063567038e-39
-0.00698631348801 -0.0041917880928 0.755 6.54942099243e-39
-0.00558905079041 -0.0041917880928 0.755 6.27283410284e-39
-0.0041917880928 -0.0041917880928 0.755 7.10294649752e-39
-0.0027945253952 -0.0041917880928 0.755 6.73415837287e-39
-0.0013972626976 -0.0041917880928 0.755 6.08914068974e-39
0.0 -0.0041917880928 0.755 3.41764784412e-39
0.00138615862318 -0.00415847586955 0.749 1.30020613064e-38
0.00277231724637 -0.00415847586955 0.749 1.69607448824e-38
0.00415847586955 -0.00415847586955 0.749 1.57596905673e-38
-0.0578152141365 -0.00289076070683 0.781 2.35098856151e-38
-0.0562976572994 -0.00288705934869 0.78 2.35098856151e-38
-0.054854127625 -0.00288705934869 0.78 2.35098856151e-38
-0.0521780456903 -0.00282043490218 0.762 2.35098856151e-38
-0.0507678282392 -0.00282043490218 0.762 2.35098856151e-38
-0.0492928370207 -0.00281673354404 0.761 2.35098856151e-38
-0.0478844702487 -0.00281673354404 0.761 2.35098856151e-38
-0.0464761034766 -0.00281673354404 0.761 2.35098856151e-38
-0.0450677367046 -0.00281673354404 0.761 1.04210138689e-38
-0.0436593699326 -0.00281673354404 0.761 3.87722329367e-39
-0.0422510031606 -0.00281673354404 0.761 8.39297765988e-39
-0.0408426363886 -0.00281673354404 0.761 7.00862369659e-39
-0.0394342696166 -0.00281673354404 0.761 7.01077328843e-39
-0.0380259028445 -0.00281673354404 0.761 7.01148514805e-39
-0.0366175360725 -0.00281673354404 0.761 6.36504794958e-39
-0.0352091693005 -0.00281673354404 0.761 7.0086124862e-39
-0.0338008025285 -0.00281673354404 0.761 6.36324307716e-39
-0.0323924357565 -0.00281673354404 0.761 6.08630025776e-39
-0.0309840689844 -0.00281673354404 0.761 5.16506562783e-39
-0.0294979736915 -0.00280933082776 0.759 6.45543730572e-39
-0.0280933082776 -0.00280933082776 0.759 7.65468534707e-39
-0.0266886428637 -0.00280933082776 0.759 6.64088374319e-39
-0.0252839774498 -0.00280933082776 0.759 6.91747343538e-39
-0.023879312036 -0.00280933082776 0.759 6.54690426038e-39
-0.0223562031616 -0.0027945253952 0.755 6.82492187571e-39
-0.020958940464 -0.0027945253952 0.755 7.3784515847e-39
-0.0196134967804 -0.00280192811148 0.757 6.73272904844e-39
-0.0182125327246 -0.00280192811148 0.757 6.54833919001e-39
-0.0168115686689 -0.00280192811148 0.757 6.54833919001e-39
-0.0154106046132 -0.00280192811148 0.757 6.91711750557e-39
-0.0140096405574 -0.00280192811148 0.757 6.54869091593e-39
-0.0126086765017 -0.00280192811148 0.757 6.27209982244e-39
-0.0112077124459 -0.00280192811148 0.757 5.71929038086e-39
-0.00980674839019 -0.00280192811148 0.757 5.99624300935e-39
-0.00840578433445 -0.00280192811148 0.757 5.3508778042e-39
-0.0070048202787 -0.00280192811148 0.757 5.53491593672e-39
-0.00558905079041 -0.0027945253952 0.755 5.81150002371e-39
-0.0041917880928 -0.0027945253952 0.755 7.19478759887e-39
-0.0027945253952 -0.0027945253952 0.755 6.82635400274e-39
-0.00140096405574 -0.00280192811148 0.757 6.08914349234e-39
0.0 -0.00280192811148 0.757 3.32580814407e-39
0.00140096405574 -0.00280192811148 0.757 1.27254716142e-38
-0.0578152141365 -0.00144538035341 0.781 2.35098856151e-38
-0.0562976572994 -0.00144352967434 0.78 2.35098856151e-38
-0.054854127625 -0.00144352967434 0.78 2.35098856151e-38
-0.0521780456903 -0.00141021745109 0.762 2.35098856151e-38
-0.0507678282392 -0.00141021745109 0.762 2.35098856151e-38
-0.0492928370207 -0.00140836677202 0.761 2.34176899853e-38
-0.0478844702487 -0.00140836677202 0.761 2.35098856151e-38
-0.0464761034766 -0.00140836677202 0.761 2.33254943554e-38
-0.0450677367046 -0.00140836677202 0.761 1.17121072155e-38
-0.0436593699326 -0.00140836677202 0.761 4.15416190918e-39
-0.0422510031606 -0.00140836677202 0.761 8.48552641696e-39
-0.0408426363886 -0.00140836677202 0.761 7.37847961067e-39
-0.0394342696166 -0.00140836677202 0.761 7.19587921038e-39
-0.0380758711794 -0.00141021745109 0.762 7.4742583607e-39
-0.0366656537283 -0.00141021745109 0.762 7.56538620114e-39
-0.0352554362772 -0.00141021745109 0.762 7.37883133658e-39
-0.0338008025285 -0.00140836677202 0.761 6.82565195221e-39
-0.0323924357565 -0.00140836677202 0.761 6.91785038467e-39
-0.0309840689844 -0.00140836677202 0.761 7.2859168406e-39
-0.0295757022124 -0.00140836677202 0.761 7.37846559768e-39
-0.0281673354404 -0.00140836677202 0.761 7.56284284442e-39
-0.0267589686684 -0.00140836677202 0.761 7.56211557052e-39
-0.0252839774498 -0.00140466541388 0.759 6.91567276685e-39
-0.023879312036 -0.00140466541388 0.759 6.54653992278e-39
-0.0225338683523 -0.00140836677202 0.761 5.8107741511e-39
-0.0211255015803 -0.00140836677202 0.761 6.91712170946e-39
-0.0197171348083 -0.00140836677202 0.761 6.36359480307e-39
-0.0183087680363 -0.00140836677202 0.761 6.63982856545e-39
-0.0169004012642 -0.00140836677202 0.761 6.73202559661e-39
-0.0154920344922 -0.00140836677202 0.761 6.63982856545e-39
-0.0140466541388 -0.00140466541388 0.759 6.64018169266e-39
-0.0126419887249 -0.00140466541388 0.759 6.45578763034e-39
-0.011237323311 -0.00140466541388 0.759 6.08807850551e-39
-0.00983265789716 -0.00140466541388 0.759 6.18063567038e-39
-0.00842799248328 -0.00140466541388 0.759 6.45686943275e-39
-0.0070233270694 -0.00140466541388 0.759 5.25832904713e-39
-0.00561866165552 -0.00140466541388 0.759 6.0880897159e-39
-0.00420289216722 -0.00140096405574 0.757 7.28698603133e-39
-0.00280192811148 -0.00140096405574 0.757 6.73416117547e-39
-0.00140096405574 -0.00140096405574 0.757 6.55012164166e-39
0.0 -0.00140466541388 0.759 3.2336139155e-39
0.00140466541388 -0.00140466541388 0.759 1.30942527324e-38
-0.0579632684621 0.0 0.783 2.35098856151e-38
-0.0563698337831 0.0 0.781 2.35098856151e-38
-0.0549244534297 0.0 0.781 2.35098856151e-38
-0.0534105979507 0.0 0.78 2.35098856151e-38
-0.0507678282392 0.0 0.762 2.35098856151e-38
-0.0493576107881 0.0 0.762 2.35098856151e-38
-0.0478844702487 0.0 0.761 2.35098856151e-38
-0.0464761034766 0.0 0.761 2.35098856151e-38
-0.0450677367046 0.0 0.761 1.25422083998e-38
-0.0437167409838 0.0 0.762 1.29539253029e-39
-0.0423065235327 0.0 0.762 6.27357118583e-39
-0.0408963060816 0.0 0.762 7.74905439085e-39
-0.0394860886305 0.0 0.762 7.84053115461e-39
-0.0380758711794 0.0 0.762 7.47175143775e-39
-0.0367618890399 0.0 0.764 8.11568871976e-39
-0.0353479702307 0.0 0.764 8.29971704319e-39
-0.0338452188261 0.0 0.762 7.93021285502e-39
-0.0324350013751 0.0 0.762 7.19370859905e-39
-0.031024783924 0.0 0.762 8.11636274432e-39
-0.0296145664729 0.0 0.762 7.74720888078e-39
-0.0281673354404 0.0 0.761 7.83905138343e-39
-0.0267589686684 0.0 0.761 7.56211837312e-39
-0.0253506018964 0.0 0.761 6.63981034857e-39
-0.0239422351243 0.0 0.761 6.17883219925e-39
-0.0225634792174 0.0 0.762 5.5338369369e-39
-0.0211532617663 0.0 0.762 6.27211803932e-39
-0.0197430443153 0.0 0.762 5.99588287565e-39
-0.0183328268642 0.0 0.762 4.79733688483e-39
-0.0169004012642 0.0 0.761 4.52039826932e-39
-0.0154920344922 0.0 0.761 5.44200424334e-39
-0.0140836677202 0.0 0.761 6.17957068354e-39
-0.0126753009482 0.0 0.761 5.81078816409e-39
-0.0112669341762 0.0 0.761 6.27211803932e-39
-0.00985856740414 0.0 0.761 6.64124948209e-39
-0.00845020063212 0.0 0.761 7.84049752344e-39
-0.0070418338601 0.0 0.761 6.36464577692e-39
-0.00563346708808 0.0 0.761 7.19405612107e-39
-0.00422510031606 0.0 0.761 7.19370439516e-39
-0.00281673354404 0.0 0.761 7.00967747303e-39
-0.00140836677202 0.0 0.761 6.73309058344e-39
0.0 0.0 0.761 3.87718685991e-39
0.00140836677202 0.0 0.761 1.23574121648e-38
-0.0579632684621 0.00144908171155 0.783 2.35098856151e-38
-0.0562976572994 0.00144352967434 0.78 2.35098856151e-38
-0.054854127625 0.00144352967434 0.78 2.35098856151e-38
-0.0532736476996 0.0014398283162 0.778 2.35098856151e-38
-0.0510343260252 0.00141762016737 0.766 2.35098856151e-38
-0.0493576107881 0.00141021745109 0.762 2.35098856151e-38
-0.047947393337 0.00141021745109 0.762 2.35098856151e-38
-0.0465371758859 0.00141021745109 0.762 2.35098856151e-38
-0.0451269584349 0.00141021745109 0.762 1.30028236128e-38
-0.0438314830861 0.00141391880923 0.764 1.20284797711e-39
-0.0424175642769 0.00141391880923 0.764 6.08955407279e-39
-0.0410036454676 0.00141391880923 0.764 5.90478586378e-39
-0.0395897266584 0.00141391880923 0.764 5.35125195089e-39
-0.0382757445189 0.00141762016737 0.766 6.17993642244e-39
-0.0368581243516 0.00141762016737 0.766 5.53384814729e-39
-0.0353479702307 0.00141391880923 0.764 5.81043223428e-39
-0.0339340514215 0.00141391880923 0.764 6.27069151748e-39
-0.0325201326123 0.00141391880923 0.764 6.0873596394e-39
-0.031106213803 0.00141391880923 0.764 6.27280467557e-39
-0.0296922949938 0.00141391880923 0.764 6.08876514176e-39
-0.0282043490218 0.00141021745109 0.762 6.36500310803e-39
-0.0267941315707 0.00141021745109 0.762 6.82527780552e-39
-0.0253839141196 0.00141021745109 0.762 6.91712030817e-39
-0.0239736966685 0.00141021745109 0.762 7.00931313543e-39
-0.0226227009477 0.00141391880923 0.764 6.91748184317e-39
-0.0211532617663 0.00141021745109 0.762 7.01003200154e-39
-0.0197430443153 0.00141021745109 0.762 6.82634559495e-39
-0.0183328268642 0.00141021745109 0.762 6.91925728832e-39
-0.0169226094131 0.00141021745109 0.762 6.55012444426e-39
-0.015512391962 0.00141021745109 0.762 6.82635960793e-39
-0.0141021745109 0.00141021745109 0.762 7.01039493785e-39
-0.0126919570598 0.00141021745109 0.762 6.64196554561e-39
-0.0112669341762 0.00140836677202 0.761 6.18098459369e-39
-0.00985856740414 0.00140836677202 0.761 5.99730098969e-39
-0.00845020063212 0.00140836677202 0.761 7.19583016493e-39
-0.00705108725545 0.00141021745109 0.762 7.47169678711e-39
-0.00564086980436 0.00141021745109 0.762 6.91817688721e-39
-0.00422510031606 0.00140836677202 0.761 7.47064721456e-39
-0.00281673354404 0.00140836677202 0.761 7.3788173236e-39
-0.00141021745109 0.00141021745109 0.762 6.64161241839e-39
0.0 0.00141021745109 0.762 3.69279560019e-39
0.00141021745109 0.00141021745109 0.762 1.23574121648e-38
-0.0562976572994 0.00288705934869 0.78 2.35098856151e-38
-0.054854127625 0.00288705934869 0.78 2.35098856151e-38
-0.0532736476996 0.00287965663241 0.778 2.35098856151e-38
-0.0515673215973 0.00286485119985 0.774 2.35098856151e-38
-0.0500701222299 0.00286114984171 0.773 2.35098856151e-38
-0.0483878549556 0.00284634440915 0.769 2.35098856151e-38
-0.0467814655231 0.00283524033474 0.766 2.35098856151e-38
-0.0453638453558 0.00283524033474 0.766 1.37396781934e-38
-0.0439462251884 0.00283524033474 0.766 1.88344322695e-40
-0.042528605021 0.00283524033474 0.766 6.18139797674e-39
-0.0411109848537 0.00283524033474 0.766 6.27357398843e-39
-0.0396933646863 0.00283524033474 0.766 6.0888169898e-39
-0.0382757445189 0.00283524033474 0.766 6.17993361985e-39
-0.0368581243516 0.00283524033474 0.766 6.08773518738e-39
-0.0354405041842 0.00283524033474 0.766 6.27176210951e-39
-0.0340228840168 0.00283524033474 0.766 6.08737365238e-39
-0.0326052638495 0.00283524033474 0.766 6.27211243413e-39
-0.0311876436821 0.00283524033474 0.766 5.9040361691e-39
-0.0297700235147 0.00283524033474 0.766 6.18062025609e-39
-0.0282783761846 0.00282783761846 0.764 6.27246416004e-39
-0.0268644573753 0.00282783761846 0.764 6.54870212631e-39
-0.0253839141196 0.00282043490218 0.762 6.27211523672e-39
-0.0239736966685 0.00282043490218 0.762 5.90368444319e-39
-0.0226819226779 0.00283524033474 0.766 5.81220767943e-39
-0.0212643025105 0.00283524033474 0.766 5.81255940535e-39
-0.0197948633292 0.00282783761846 0.764 5.72070989621e-39
-0.01838094452 0.00282783761846 0.764 5.81326145588e-39
-0.0169670257107 0.00282783761846 0.764 5.81290552607e-39
-0.015512391962 0.00282043490218 0.762 5.7207141001e-39
-0.0141021745109 0.00282043490218 0.762 5.7207126988e-39
-0.0126919570598 0.00282043490218 0.762 5.81325865328e-39
-0.0112669341762 0.00281673354404 0.761 5.62959046356e-39
-0.00985856740414 0.00281673354404 0.761 5.72214202324e-39
-0.00845020063212 0.00281673354404 0.761 6.2738710637e-39
-0.00705108725545 0.00282043490218 0.762 6.64193751964e-39
-0.00564086980436 0.00282043490218 0.762 6.27280747817e-39
-0.00423065235327 0.00282043490218 0.762 6.6416026093e-39
-0.00282043490218 0.00282043490218 0.762 6.45757148328e-39
-0.00141021745109 0.00282043490218 0.762 6.55120064148e-39
0.0 0.00282043490218 0.762 3.32437321444e-39
0.00141021745109 0.00282043490218 0.762 1.1896788544e-38
-0.0532736476996 0.00431948494861 0.778 2.35098856151e-38
-0.0517005704903 0.00430838087419 0.776 2.35098856151e-38
-0.0501348959974 0.00429727679978 0.774 2.35098856151e-38
-0.0485137011324 0.00428062068815 0.771 2.35098856151e-38
-0.046964682751 0.00426951661373 0.769 2.35098856151e-38
-0.0455415105465 0.00426951661373 0.769 1.59512999155e-38
-0.0441183383419 0.00426951661373 0.769 2.7947076183e-40
-0.0425841253931 0.00425841253931 0.767 6.27324047939e-39
-0.0411646545467 0.00425841253931 0.767 5.99663257032e-39
-0.0397451837003 0.00425841253931 0.767 5.90406980026e-39
-0.0383257128538 0.00425841253931 0.767 5.62783884048e-39
-0.0369062420074 0.00425841253931 0.767 6.45687223535e-39
-0.0354867711609 0.00425841253931 0.767 6.18063567038e-39
-0.0340673003145 0.00425841253931 0.767 5.90477465339e-39
-0.0326478294681 0.00425841253931 0.767 5.72038339366e-39
-0.0312283586216 0.00425841253931 0.767 5.81257622093e-39
-0.0297700235147 0.0042528605021 0.766 6.36575280271e-39
-0.0283524033474 0.0042528605021 0.766 5.81258182612e-39
-0.02693478318 0.0042528605021 0.766 5.99661715604e-39
-0.0254505385661 0.00424175642769 0.764 5.81258182612e-39
-0.0240366197569 0.00424175642769 0.764 5.72038059107e-39
-0.022711533543 0.00425841253931 0.767 5.81257902353e-39
-0.0212920626966 0.00425841253931 0.767 5.99732200917e-39
-0.0198466823432 0.0042528605021 0.766 5.81328107406e-39
-0.0184290621758 0.0042528605021 0.766 5.53669278317e-39
-0.0170114420084 0.0042528605021 0.766 6.18098459369e-39
-0.015593821841 0.0042528605021 0.766 6.08914629494e-39
-0.0141762016737 0.0042528605021 0.766 6.08949241566e-39
-0.0126919570598 0.00423065235327 0.762 6.09020007138e-39
-0.0112817396087 0.00423065235327 0.762 5.81434886349e-39
-0.00987152215763 0.00423065235327 0.762 6.27461094929e-39
-0.00846130470654 0.00423065235327 0.762 6.08877635214e-39
-0.00705108725545 0.00423065235327 0.762 6.08805888733e-39
-0.00564086980436 0.00423065235327 0.762 6.27137955503e-39
-0.00423065235327 0.00423065235327 0.762 6.45685541977e-39
-0.00282043490218 0.00423065235327 0.762 5.90475223261e-39
-0.00141391880923 0.00424175642769 0.764 5.8147005894e-39
0.0 0.00424175642769 0.764 3.23253771828e-39
0.00141391880923 0.00424175642769 0.764 1.14350845221e-38
-0.0532736476996 0.00575931326482 0.778 2.35098856151e-38
-0.0517005704903 0.00574450783226 0.776 2.35098856151e-38
-0.0501348959974 0.0057297023997 0.774 2.35098856151e-38
-0.0486395473091 0.00572229968342 0.773 2.35098856151e-38
-0.046964682751 0.00569268881831 0.769 2.35098856151e-38
-0.0455415105465 0.00569268881831 0.769 1.61349737104e-38
-0.0441183383419 0.00569268881831 0.769 3.68541496117e-43
-0.0426951661373 0.00569268881831 0.769 5.07362249525e-39
-0.0412719939327 0.00569268881831 0.769 5.35091003407e-39
-0.0398488217282 0.00569268881831 0.769 3.59918325758e-39
-0.0384256495236 0.00569268881831 0.769 4.24454846272e-39
-0.037002477319 0.00569268881831 0.769 3.87611766918e-39
-0.0355793051144 0.00569268881831 0.769 3.50804420675e-39
-0.0341561329098 0.00569268881831 0.769 6.18172447928e-39
-0.0326478294681 0.00567788338575 0.767 5.26049265196e-39
-0.0312283586216 0.00567788338575 0.767 4.79951730524e-39
-0.0298088877752 0.00567788338575 0.767 5.44488951688e-39
-0.0283894169288 0.00567788338575 0.767 5.44488951688e-39
-0.0269699460823 0.00567788338575 0.767 5.72147080127e-39
-0.0255171630126 0.00567048066947 0.766 5.44488391168e-39
-0.0240995428453 0.00567048066947 0.766 5.53707954155e-39
-0.022711533543 0.00567788338575 0.767 6.08955407279e-39
-0.0212920626966 0.00567788338575 0.767 5.53530129379e-39
-0.0198725918501 0.00567788338575 0.767 6.5498063495e-39
-0.0184531210037 0.00567788338575 0.767 5.99591370421e-39
-0.0170336501573 0.00567788338575 0.767 6.91787000284e-39
-0.0156141793108 0.00567788338575 0.767 5.81115390299e-39
-0.0141947084644 0.00567788338575 0.767 5.71965611976e-39
-0.0127585815063 0.00567048066947 0.766 5.81219086385e-39
-0.0113409613389 0.00567048066947 0.766 5.81222589631e-39
-0.00992334117158 0.00567048066947 0.766 5.99554236012e-39
-0.00850572100421 0.00567048066947 0.766 6.17812454353e-39
-0.00708810083684 0.00567048066947 0.766 6.72985638659e-39
-0.00565567523691 0.00565567523691 0.764 7.00644327618e-39
-0.00424175642769 0.00565567523691 0.764 6.54654132408e-39
-0.00283524033474 0.00567048066947 0.766 6.08842883012e-39
-0.00141762016737 0.00567048066947 0.766 6.09057141548e-39
0.0 0.00567048066947 0.766 4.06156831055e-39
0.00141762016737 0.00567048066947 0.766 1.15261983495e-38
-0.0532736476996 0.00719914158102 0.778 2.35098856151e-38
-0.0517005704903 0.00718063479032 0.776 2.35098856151e-38
-0.0502644435323 0.00718063479032 0.776 2.35098856151e-38
-0.0486395473091 0.00715287460428 0.773 2.35098856151e-38
-0.0472089723882 0.00715287460428 0.773 2.35098856151e-38
-0.0457783974674 0.00715287460428 0.773 1.77948495764e-38
-0.0443478225465 0.00715287460428 0.773 3.64337600724e-43
-0.0428062068815 0.00713436781358 0.771 5.81118473156e-39
-0.0413793333188 0.00713436781358 0.771 5.62749972625e-39
-0.0399524597561 0.00713436781358 0.771 5.25907033401e-39
-0.0385255861933 0.00713436781358 0.771 4.98248064183e-39
-0.0370987126306 0.00713436781358 0.771 4.98282956514e-39
-0.0356718390679 0.00713436781358 0.771 4.79842709503e-39
-0.0342449655052 0.00713436781358 0.771 5.53635787284e-39
-0.0327329607053 0.00711586102289 0.769 4.79916417802e-39
-0.0313097885007 0.00711586102289 0.769 4.52258149233e-39
-0.0298866162961 0.00711586102289 0.769 5.07575246891e-39
-0.0284634440915 0.00711586102289 0.769 4.43073478578e-39
-0.0269699460823 0.00709735423219 0.767 4.79987183375e-39
-0.0255504752359 0.00709735423219 0.767 6.45904144537e-39
-0.0241310043894 0.00709735423219 0.767 7.1040591285e-39
-0.022711533543 0.00709735423219 0.767 3.87652404574e-39
-0.0213475830687 0.00711586102289 0.769 2.4003233759e-39
-0.0199244108641 0.00711586102289 0.769 2.76910309276e-39
-0.0185012386595 0.00711586102289 0.769 1.38509244758e-39
-0.0170780664549 0.00711586102289 0.769 1.10778949448e-39
-0.0156141793108 0.00709735423219 0.767 2.5825454256e-39
-0.0141947084644 0.00709735423219 0.767 5.44130079151e-39
-0.0127752376179 0.00709735423219 0.767 6.64089775618e-39
-0.0113557667715 0.00709735423219 0.767 7.19231290578e-39
-0.00993629592506 0.00709735423219 0.767 6.54514843341e-39
-0.00851682507863 0.00709735423219 0.767 5.89867900507e-39
-0.00709735423219 0.00709735423219 0.767 6.17310088853e-39
-0.00567048066947 0.00708810083684 0.766 5.80359810167e-39
-0.0042528605021 0.00708810083684 0.766 6.35821101437e-39
-0.00283894169288 0.00709735423219 0.767 5.99193822047e-39
-0.00141762016737 0.00708810083684 0.766 5.71857711994e-39
0.0 0.00708810083684 0.766 4.33635873551e-39
0.00141947084644 0.00709735423219 0.767 1.1986097499e-38
0.00283894169288 0.00709735423219 0.767 1.64082759564e-38
-0.0532736476996 0.00863896989722 0.778 2.35098856151e-38
-0.0517005704903 0.00861676174839 0.776 2.35098856151e-38
-0.0501348959974 0.00859455359955 0.774 2.35098856151e-38
-0.0486395473091 0.00858344952513 0.773 2.35098856151e-38
-0.0472089723882 0.00858344952513 0.773 2.35098856151e-38
-0.0457783974674 0.00858344952513 0.773 1.81636264907e-38
-0.0443478225465 0.00858344952513 0.773 7.17464813734e-43
-0.0429172476257 0.00858344952513 0.773 5.53423630696e-39
-0.0414866727048 0.00858344952513 0.773 4.88993468735e-39
-0.040056097784 0.00858344952513 0.773 5.07432594707e-39
-0.0386255228631 0.00858344952513 0.773 4.52115216789e-39
-0.0371949479422 0.00858344952513 0.773 4.98247783923e-39
-0.0357643730214 0.00858344952513 0.773 5.25977238454e-39
-0.0343337981005 0.00858344952513 0.773 5.62820177679e-39
-0.0328180919425 0.0085612413763 0.771 5.35126596388e-39
-0.0313912183798 0.0085612413763 0.771 5.2587144042e-39
-0.029964344817 0.0085612413763 0.771 5.44381331966e-39
-0.0285374712543 0.0085612413763 0.771 5.62890662991e-39
-0.027040271887 0.00853903322746 0.769 5.1679284806e-39
-0.0256170996824 0.00853903322746 0.769 6.0891827287e-39
-0.0241939274778 0.00853903322746 0.769 7.19447090542e-39
-0.0227707552732 0.00853903322746 0.769 4.79777268865e-39
-0.0214031034407 0.0085612413763 0.771 4.15205155369e-39
-0.019976229878 0.0085612413763 0.771 6.17963934717e-39
-0.0185493563153 0.0085612413763 0.771 5.80978203179e-39
-0.0170780664549 0.00853903322746 0.769 4.61052278005e-39
-0.0156548942503 0.00853903322746 0.769 3.68819093343e-39
-0.0142317220458 0.00853903322746 0.769 4.05766149043e-39
-0.0128085498412 0.00853903322746 0.769 6.08737365238e-39
-0.0113853776366 0.00853903322746 0.769 7.37454896847e-39
-0.00996220543204 0.00853903322746 0.769 6.26604060788e-39
-0.00853903322746 0.00853903322746 0.769 6.44789551739e-39
-0.00709735423219 0.00851682507863 0.767 7.73718399156e-39
-0.00567788338575 0.00851682507863 0.767 8.01234015542e-39
-0.00425841253931 0.00851682507863 0.767 6.35390902809e-39
-0.00284634440915 0.00853903322746 0.769 3.68312103559e-39
-0.00141947084644 0.00851682507863 0.767 3.86967309755e-39
0.0 0.00851682507863 0.767 3.68884533981e-39
0.00141947084644 0.00851682507863 0.767 1.25392740808e-38
0.00283894169288 0.00851682507863 0.767 1.56707137201e-38
-0.0534105979507 0.0101047077204 0.78 2.35098856151e-38
-0.0518338193833 0.0100787982134 0.778 2.35098856151e-38
-0.0501348959974 0.0100269791995 0.774 2.35098856151e-38
-0.0487024703975 0.0100269791995 0.774 2.35098856151e-38
-0.0472700447975 0.0100269791995 0.774 2.35098856151e-38
-0.0458376191976 0.0100269791995 0.774 1.82550976492e-38
-0.0444051935977 0.0100269791995 0.774 1.0761972206e-42
-0.0429172476257 0.010014024446 0.773 5.71862476409e-39
-0.0414866727048 0.010014024446 0.773 5.35019397055e-39
-0.040056097784 0.010014024446 0.773 5.35091423796e-39
-0.038675491198 0.0100269791995 0.774 5.44275393802e-39
-0.0372430655981 0.0100269791995 0.774 5.16651877434e-39
-0.0357643730214 0.010014024446 0.773 5.25942205993e-39
-0.0343337981005 0.010014024446 0.773 5.25906753142e-39
-0.0329032231797 0.010014024446 0.773 5.07432314448e-39
-0.0314726482588 0.010014024446 0.773 4.79773625489e-39
-0.030042073338 0.010014024446 0.773 4.70624267555e-39
-0.0285374712543 0.00998811493901 0.771 4.24632390788e-39
-0.0271105976916 0.00998811493901 0.771 5.4448670961e-39
-0.0256837241289 0.00998811493901 0.771 5.72040020925e-39
-0.0242568505662 0.00998811493901 0.771 8.39266236773e-39
-0.0228299770035 0.00998811493901 0.771 8.85438040263e-39
-0.0214586238128 0.010014024446 0.773 8.2097326623e-39
-0.020028048892 0.010014024446 0.773 8.02427081055e-39
-0.0185974739711 0.010014024446 0.773 6.36367888098e-39
-0.0171224827526 0.00998811493901 0.771 6.54663100718e-39
-0.0156956091899 0.00998811493901 0.771 6.26966856961e-39
-0.0142317220458 0.00996220543204 0.769 5.71718282797e-39
-0.0128085498412 0.00996220543204 0.769 5.71858833033e-39
-0.0113853776366 0.00996220543204 0.769 7.37345595567e-39
-0.00996220543204 0.00996220543204 0.769 7.55496334316e-39
-0.00853903322746 0.00996220543204 0.769 8.38254779541e-39
-0.00711586102289 0.00996220543204 0.769 8.5640537816e-39
-0.00569268881831 0.00996220543204 0.769 7.08822025196e-39
-0.00426951661373 0.00996220543204 0.769 5.98226085327e-39
-0.00284634440915 0.00996220543204 0.769 4.78590088806e-39
-0.00141947084644 0.00993629592506 0.767 4.32709475136e-39
0.0 0.00993629592506 0.767 2.76582685695e-39
0.00141947084644 0.00993629592506 0.767 1.36449055756e-38
0.00283894169288 0.00993629592506 0.767 1.4932429815e-38
-0.0534105979507 0.0115482373947 0.78 2.35098856151e-38
-0.0518338193833 0.0115186265296 0.778 2.35098856151e-38
-0.0501348959974 0.0114594047994 0.774 2.35098856151e-38
-0.0487024703975 0.0114594047994 0.774 2.35098856151e-38
-0.0472700447975 0.0114594047994 0.774 2.35098856151e-38
-0.0458376191976 0.0114594047994 0.774 2.06543308149e-38
-0.0444051935977 0.0114594047994 0.774 6.46124708916e-40
-0.0429727679978 0.0114594047994 0.774 4.70448684858e-39
-0.0415403423978 0.0114594047994 0.774 3.41445008102e-39
-0.0401079167979 0.0114594047994 0.774 4.15344584566e-39
-0.038675491198 0.0114594047994 0.774 4.33748818207e-39
-0.0372430655981 0.0114594047994 0.774 4.15309131715e-39
-0.0358106399981 0.0114594047994 0.774 4.43038586246e-39
-0.0343337981005 0.0114445993668 0.773 5.07541335468e-39
-0.0329032231797 0.0114445993668 0.773 5.35200444817e-39
-0.0314726482588 0.0114445993668 0.773 5.26016054422e-39
-0.030042073338 0.0114445993668 0.773 5.0753993417e-39
-0.0286114984171 0.0114445993668 0.773 4.42966139116e-39
-0.0271105976916 0.0114149885017 0.771 3.96796157313e-39
-0.0256837241289 0.0114149885017 0.771 5.2576255953e-39
-0.0243197736545 0.0114445993668 0.773 7.00899223808e-39
-0.0228891987337 0.0114445993668 0.773 8.01918830102e-39
-0.0214863839989 0.0114594047994 0.774 8.66528498396e-39
-0.020028048892 0.0114445993668 0.773 8.48306573686e-39
-0.0185974739711 0.0114445993668 0.773 7.65584141831e-39
-0.0171668990503 0.0114445993668 0.773 7.47146136897e-39
-0.0156956091899 0.0114149885017 0.771 8.02354914184e-39
-0.0142687356272 0.0114149885017 0.771 6.91537709288e-39
-0.0128418620644 0.0114149885017 0.771 4.24059680105e-39
-0.0114149885017 0.0114149885017 0.771 7.09506279236e-39
-0.00998811493901 0.0114149885017 0.771 8.84424761344e-39
-0.0085612413763 0.0114149885017 0.771 9.67148033978e-39
-0.00711586102289 0.0113853776366 0.769 1.06834896829e-38
-0.00569268881831 0.0113853776366 0.769 8.00910876116e-39
-0.00428062068815 0.0114149885017 0.771 6.62868684136e-39
-0.00285374712543 0.0114149885017 0.771 5.80252610834e-39
-0.00142317220458 0.0113853776366 0.769 4.23738082108e-39
0.0 0.0113557667715 0.767 5.34731290091e-39
0.00141947084644 0.0113557667715 0.767 1.58568930366e-38
0.00283894169288 0.0113557667715 0.767 1.50246226423e-38
-0.0518338193833 0.0129584548458 0.778 2.35098856151e-38
-0.0501348959974 0.0128918303993 0.774 2.35098856151e-38
-0.0487024703975 0.0128918303993 0.774 2.35098856151e-38
-0.0472700447975 0.0128918303993 0.774 2.35098856151e-38
-0.0459560626581 0.0129251426226 0.776 2.17606783733e-38
-0.0447494199046 0.0129917670691 0.78 2.77361807641e-40
-0.0431948494861 0.0129584548458 0.778 4.1520403433e-39
-0.0416476817839 0.0129251426226 0.776 4.70627070152e-39
-0.0402115548258 0.0129251426226 0.776 4.98320651443e-39
-0.0387754278677 0.0129251426226 0.776 4.5218794418e-39
-0.0373393009097 0.0129251426226 0.776 3.96870005742e-39
-0.0358106399981 0.0128918303993 0.774 3.96905178334e-39
-0.0343782143982 0.0128918303993 0.774 3.13930793015e-39
-0.0329457887983 0.0128918303993 0.774 2.40246175736e-39
-0.0315133631984 0.0128918303993 0.774 3.23185388463e-39
-0.0300809375984 0.0128918303993 0.774 3.13929111457e-39
-0.0286114984171 0.0128751742877 0.773 3.87613028087e-39
-0.0271809234963 0.0128751742877 0.773 3.87576874587e-39
-0.0257503485754 0.0128751742877 0.773 4.79664604468e-39
-0.0243197736545 0.0128751742877 0.773 6.45544991741e-39
-0.0229188095988 0.0128918303993 0.774 9.49142049361e-39
-0.0214863839989 0.0128918303993 0.774 9.12264077675e-39
-0.020053958399 0.0128918303993 0.774 8.38760788417e-39
-0.018621532799 0.0128918303993 0.774 7.74442169813e-39
-0.0171891071991 0.0128918303993 0.774 5.9927271515e-39
-0.0157363241294 0.0128751742877 0.773 4.7012750725e-39
-0.0143057492086 0.0128751742877 0.773 5.80616668175e-39
-0.0128751742877 0.0128751742877 0.773 6.08201508705e-39
-0.0114445993668 0.0128751742877 0.773 7.46170132516e-39
-0.010014024446 0.0128751742877 0.773 8.19816214088e-39
-0.00858344952513 0.0128751742877 0.773 8.5647810555e-39
-0.00715287460428 0.0128751742877 0.773 1.00363364209e-38
-0.00572229968342 0.0128751742877 0.773 1.0129260726e-38
-0.00429727679978 0.0128918303993 0.774 9.76405432023e-39
-0.00286485119985 0.0128918303993 0.774 7.37091960545e-39
-0.00143242559993 0.0128918303993 0.774 4.42355873635e-39
0.0 0.0128918303993 0.774 7.00647970994e-39
0.00143242559993 0.0128918303993 0.774 1.55799544211e-38
0.00286485119985 0.0128918303993 0.774 1.40111923825e-38
-0.0519670682764 0.0144352967434 0.78 2.35098856151e-38
-0.050523538602 0.0144352967434 0.78 2.35098856151e-38
-0.0490800089277 0.0144352967434 0.78 2.35098856151e-38
-0.0476364792533 0.0144352967434 0.78 2.35098856151e-38
-0.046192949579 0.0144352967434 0.78 2.2867027333e-38
-0.0447494199046 0.0144352967434 0.78 3.69204310291e-40
-0.0433058902303 0.0144352967434 0.78 3.50631780705e-39
-0.0417550211699 0.014398283162 0.778 4.52152351199e-39
-0.0403151928537 0.014398283162 0.778 4.89101368717e-39
-0.0388753645375 0.014398283162 0.778 4.33748818207e-39
-0.0373393009097 0.0143612695806 0.776 4.42967820674e-39
-0.0359031739516 0.0143612695806 0.776 4.70697275205e-39
-0.0344670469936 0.0143612695806 0.776 4.52259130142e-39
-0.0330309200355 0.0143612695806 0.776 3.87794075849e-39
-0.0315947930774 0.0143612695806 0.776 5.07611820781e-39
-0.0301586661194 0.0143612695806 0.776 4.33818743e-39
-0.0286485119985 0.0143242559993 0.774 5.16722643007e-39
-0.0272160863986 0.0143242559993 0.774 5.07430913149e-39
-0.0258502852452 0.0143612695806 0.776 4.61333098218e-39
-0.0244141582871 0.0143612695806 0.776 5.35017575367e-39
-0.022978031329 0.0143612695806 0.776 7.74005244952e-39
-0.0215974247431 0.014398283162 0.778 8.10703289915e-39
-0.0201575964269 0.014398283162 0.778 8.38399253413e-39
-0.0187177681107 0.014398283162 0.778 8.56876494704e-39
-0.0172779397944 0.014398283162 0.778 7.92378089507e-39
-0.0158381114782 0.014398283162 0.778 9.58332185079e-39
-0.014398283162 0.014398283162 0.778 9.21525819745e-39
-0.0129584548458 0.014398283162 0.778 2.48533174594e-39
-0.0114890156645 0.0143612695806 0.776 4.78660293859e-39
-0.0100528887065 0.0143612695806 0.776 5.98368176992e-39
-0.00861676174839 0.0143612695806 0.776 6.81271516478e-39
-0.00718063479032 0.0143612695806 0.776 6.53399269633e-39
-0.00574450783226 0.0143612695806 0.776 6.6269141988e-39
-0.00430838087419 0.0143612695806 0.776 7.18402142277e-39
-0.00287225391613 0.0143612695806 0.776 5.80503723519e-39
-0.00143242559993 0.0143242559993 0.774 4.24024927903e-39
0.0 0.0143242559993 0.774 6.45330593076e-39
0.00143242559993 0.0143242559993 0.774 1.60409325704e-38
0.00288705934869 0.0144352967434 0.78 1.44714516657e-38
-0.0520336927229 0.0158991838875 0.781 2.35098856151e-38
-0.0505883123695 0.0158991838875 0.781 2.35098856151e-38
-0.049142932016 0.0158991838875 0.781 2.35098856151e-38
