# .PCD v0.7 - Point Cloud Data file format
VERSION 0.7
FIELDS x y z rgb
SIZE 4 4 4 4
TYPE F F F F
COUNT 1 1 1 1
WIDTH 864
HEIGHT 1
VIEWPOINT 0 0 0 1 0 0 0
POINTS 864
DATA ascii
0.0611131242387 -0.00482472033463 0.869 2.3205820664e-38
0.0627213643502 -0.00482472033463 0.869 2.34928486284e-38
0.0643296044618 -0.00482472033463 0.869 2.35098449775e-38
0.0659378445733 -0.00482472033463 0.869 2.3509865997e-38
0.0675460846849 -0.00482472033463 0.869 2.350988001e-38
0.0016415523348 -0.0032831046696 0.887 1.86007601453e-38
0.0032831046696 -0.0032831046696 0.887 1.87830186288e-38
0.00489689681835 -0.0032645978789 0.882 1.75840900835e-38
0.0065291957578 -0.0032645978789 0.882 2.01630285668e-38
0.00814298790655 -0.00325719516262 0.88 2.30232398819e-38
0.00977158548786 -0.00325719516262 0.88 2.32990882872e-38
0.0113742735622 -0.00324979244634 0.878 2.28381493742e-38
0.0129991697854 -0.00324979244634 0.878 2.34842138273e-38
0.0146240660085 -0.00324979244634 0.878 2.27427335605e-38
0.0161564282782 -0.00323128565565 0.873 2.14500455362e-38
0.0177720711061 -0.00323128565565 0.873 1.92421666823e-38
0.0194321302315 -0.00323868837192 0.875 1.87866339788e-38
0.0211236509012 -0.00324979244634 0.878 1.82345616202e-38
0.0227485471244 -0.00324979244634 0.878 2.06326849576e-38
0.0242901627894 -0.00323868837192 0.875 1.68512193944e-38
0.0258502852452 -0.00323128565565 0.873 2.00773601852e-38
0.027465928073 -0.00323128565565 0.873 1.99800974601e-38
0.0290815709008 -0.00323128565565 0.873 1.90606817156e-38
0.0306972137286 -0.00323128565565 0.873 1.98925737593e-38
0.0323128565565 -0.00323128565565 0.873 1.9613081978e-38
0.0338507708634 -0.00322388293937 0.871 1.97924537867e-38
0.035462712333 -0.00322388293937 0.871 2.0715854824e-38
0.0370746538027 -0.00322388293937 0.871 1.93325602424e-38
0.0386865952724 -0.00322388293937 0.871 2.05285726856e-38
0.0402985367421 -0.00322388293937 0.871 2.02516522869e-38
0.0419104782118 -0.00322388293937 0.871 2.06200788766e-38
0.0435224196815 -0.00322388293937 0.871 1.96992043804e-38
0.0451343611511 -0.00322388293937 0.871 1.94222237259e-38
0.0467463026208 -0.00322388293937 0.871 2.06243584421e-38
0.0483582440905 -0.00322388293937 0.871 2.12693775265e-38
0.0499701855602 -0.00322388293937 0.871 1.87833591443e-38
0.0515821270299 -0.00322388293937 0.871 2.11789181054e-38
0.0531940684996 -0.00322388293937 0.871 1.8694410323e-38
0.0548060099692 -0.00322388293937 0.871 2.29346806215e-38
0.0564179514389 -0.00322388293937 0.871 2.34863690243e-38
0.0580298929086 -0.00322388293937 0.871 2.34813145408e-38
0.0595048841271 -0.00321648022309 0.869 2.34806166941e-38
0.0611131242387 -0.00321648022309 0.869 2.30189084683e-38
0.0628657173177 -0.00322388293937 0.871 2.34957647305e-38
0.0644776587873 -0.00322388293937 0.871 2.35098589905e-38
0.066089600257 -0.00322388293937 0.871 2.35098673983e-38
0.0016415523348 -0.0016415523348 0.887 1.82308916196e-38
0.0032831046696 -0.0016415523348 0.887 1.96138232649e-38
0.00492465700439 -0.0016415523348 0.887 1.73096583909e-38
0.00656620933919 -0.0016415523348 0.887 1.86904152211e-38
0.00820776167399 -0.0016415523348 0.887 2.34852998336e-38
0.00982710585995 -0.00163785097666 0.885 2.21009122391e-38
0.0114649568366 -0.00163785097666 0.885 2.29292533926e-38
0.0131028078133 -0.00163785097666 0.885 2.27448621328e-38
0.0147406587899 -0.00163785097666 0.885 2.30196511565e-38
0.0162489622317 -0.00162489622317 0.878 2.32973100394e-38
0.0178738584549 -0.00162489622317 0.878 2.19175999792e-38
0.0195431709757 -0.00162859758131 0.88 2.15495559441e-38
0.021171768557 -0.00162859758131 0.88 2.2658399215e-38
0.0228003661383 -0.00162859758131 0.88 1.97127913703e-38
0.0243734433476 -0.00162489622317 0.878 1.91589687899e-38
0.0259095069754 -0.00161934418596 0.875 2.10010933303e-38
0.0275288511614 -0.00161934418596 0.875 2.02587975078e-38
0.0291481953473 -0.00161934418596 0.875 2.09016109484e-38
0.0307675395333 -0.00161934418596 0.875 2.01648068146e-38
0.0323128565565 -0.00161564282782 0.873 2.01615852294e-38
0.0339284993843 -0.00161564282782 0.873 2.23731859321e-38
0.0355441422121 -0.00161564282782 0.873 2.19161510366e-38
0.0371597850399 -0.00161564282782 0.873 2.05314383409e-38
0.0387754278677 -0.00161564282782 0.873 1.92353325497e-38
0.0403910706956 -0.00161564282782 0.873 2.3482752273e-38
0.0420067135234 -0.00161564282782 0.873 2.21895177423e-38
0.0436223563512 -0.00161564282782 0.873 2.17264068168e-38
0.045237999179 -0.00161564282782 0.873 2.09909941723e-38
0.0468536420069 -0.00161564282782 0.873 2.15484699378e-38
0.0484692848347 -0.00161564282782 0.873 2.17321479366e-38
0.0500849276625 -0.00161564282782 0.873 2.21917009653e-38
0.0517005704903 -0.00161564282782 0.873 2.16406949949e-38
0.0533162133182 -0.00161564282782 0.873 2.24714968284e-38
0.054931856146 -0.00161564282782 0.873 2.30232370793e-38
0.0564179514389 -0.00161194146968 0.871 2.34849396999e-38
0.0580298929086 -0.00161194146968 0.871 2.33902091211e-38
0.0596418343783 -0.00161194146968 0.871 2.34820614328e-38
0.061253775848 -0.00161194146968 0.871 2.3479883815e-38
0.0628657173177 -0.00161194146968 0.871 2.34964751888e-38
0.0644776587873 -0.00161194146968 0.871 2.35098589905e-38
0.066089600257 -0.00161194146968 0.871 2.35098673983e-38
0.0 0.0 0.894 1.85993112027e-38
0.00164895505108 0.0 0.891 1.91528409117e-38
0.00329050738588 0.0 0.889 1.78631824947e-38
0.00493576107881 0.0 0.889 1.76780709676e-38
0.00658101477175 0.0 0.889 1.77691693808e-38
0.00822626846469 0.0 0.889 2.18261456362e-38
0.00984931400879 0.0 0.887 2.29317266843e-38
0.0114908663436 0.0 0.887 2.29285107044e-38
0.0131324186784 0.0 0.887 2.32036668682e-38
0.0147739710132 0.0 0.887 2.29299568444e-38
0.016415523348 0.0 0.887 2.25612065548e-38
0.0180570756828 0.0 0.887 2.34849256869e-38
0.0196986280176 0.0 0.887 2.29299568444e-38
0.0213401803524 0.0 0.887 2.10885777947e-38
0.0229299136732 0.0 0.885 1.95269974108e-38
0.0244844840917 0.0 0.882 1.84192681721e-38
0.0261167830312 0.0 0.882 1.74926385431e-38
0.0276861588823 0.0 0.88 1.99765073335e-38
0.0293147564636 0.0 0.88 1.94247180372e-38
0.0309433540449 0.0 0.88 2.01616118541e-38
0.0325719516262 0.0 0.88 2.04360239285e-38
0.0342005492075 0.0 0.88 2.10806716688e-38
0.0358291467888 0.0 0.88 2.15412938883e-38
0.0374577443701 0.0 0.88 2.05246490499e-38
0.0390863419515 0.0 0.88 2.18164388418e-38
0.0408074734862 0.0 0.882 1.96058947182e-38
0.0424397724257 0.0 0.882 2.13579578063e-38
0.043722293021 0.0 0.875 2.0158709765e-38
0.0453416372069 0.0 0.875 2.13583375582e-38
0.0469609813929 0.0 0.875 1.9610579259e-38
0.0485803255789 0.0 0.875 2.30232398819e-38
0.0501996697648 0.0 0.875 2.34849382986e-38
0.0519966791415 0.0 0.878 2.34860102919e-38
0.0534383581368 0.0 0.875 2.34849368973e-38
0.0550577023227 0.0 0.875 2.34831222158e-38
0.0565474989738 0.0 0.873 2.34820586302e-38
0.0581631418016 0.0 0.873 2.34838564962e-38
0.0596418343783 0.0 0.871 2.32065787664e-38
0.061253775848 0.0 0.871 2.3388058128e-38
0.0628657173177 0.0 0.871 2.34982758574e-38
0.0646257131129 0.0 0.873 2.35098267606e-38
0.0662413559407 0.0 0.873 2.35098702009e-38
0.0 0.00165450708829 0.894 1.86911607119e-38
0.00164895505108 0.00164895505108 0.891 1.86918613611e-38
0.00329791010215 0.00164895505108 0.891 1.91531912363e-38
0.00493576107881 0.00164525369294 0.889 1.74000533523e-38
0.00658101477175 0.00164525369294 0.889 1.67542467381e-38
0.00824477525538 0.00164895505108 0.891 2.25647826685e-38
0.00989373030646 0.00164895505108 0.891 2.25630072233e-38
0.0115426853575 0.00164895505108 0.891 2.31143635184e-38
0.0131916404086 0.00164895505108 0.891 2.2837420699e-38
0.0148405954597 0.00164895505108 0.891 2.237605439e-38
0.0164895505108 0.00164895505108 0.891 2.3483503369e-38
0.0181385055618 0.00164895505108 0.891 2.28391835325e-38
0.0197430443153 0.00164525369294 0.889 2.33923797324e-38
0.0213882980082 0.00164525369294 0.889 2.10889337246e-38
0.0230335517011 0.00164525369294 0.889 2.13680163267e-38
0.024623285022 0.0016415523348 0.887 2.05375325879e-38
0.0262648373568 0.0016415523348 0.887 2.05361228817e-38
0.0279063896916 0.0016415523348 0.887 2.23789690908e-38
0.0294813175799 0.00163785097666 0.885 1.97042364431e-38
0.0311191685565 0.00163785097666 0.885 2.1360515176e-38
0.0327570195332 0.00163785097666 0.885 2.20051082657e-38
0.0343948705098 0.00163785097666 0.885 2.0621132653e-38
0.0360327214865 0.00163785097666 0.885 2.0895561543e-38
0.0376705724632 0.00163785097666 0.885 2.17242432119e-38
0.0393084234398 0.00163785097666 0.885 2.32944135555e-38
0.0409462744165 0.00163785097666 0.885 2.11756965203e-38
0.0425841253931 0.00163785097666 0.885 2.1540930952e-38
0.0442219763698 0.00163785097666 0.885 2.17267445297e-38
0.0458598273464 0.00163785097666 0.885 2.11743316556e-38
0.0476050177091 0.0016415523348 0.887 2.09909969749e-38
0.0492465700439 0.0016415523348 0.887 1.9975415722e-38
0.0508881223787 0.0016415523348 0.887 2.34795741281e-38
0.0525296747135 0.0016415523348 0.887 2.34824215665e-38
0.0541712270483 0.0016415523348 0.887 2.34821062744e-38
0.0558127793831 0.0016415523348 0.887 2.34838635027e-38
0.0573247841831 0.00163785097666 0.885 2.34824327769e-38
0.0587627618202 0.00163229893945 0.882 2.28381269534e-38
0.0601211602573 0.00162489622317 0.878 2.34860004828e-38
0.0617460564805 0.00162489622317 0.878 2.29281421629e-38
0.0630100702851 0.00161564282782 0.873 2.35011303023e-38
0.0646257131129 0.00161564282782 0.873 2.35098772074e-38
0.0662413559407 0.00161564282782 0.873 2.35098828126e-38
0.0 0.00330901417657 0.894 1.85067652482e-38
0.00165450708829 0.00330901417657 0.894 1.87851345895e-38
0.00329791010215 0.00329791010215 0.891 1.83241536376e-38
0.00494686515323 0.00329791010215 0.891 1.87847492324e-38
0.00659582020431 0.00329791010215 0.891 1.62951309145e-38
0.00827253544143 0.00330901417657 0.894 2.2378571122e-38
0.00992704252972 0.00330901417657 0.894 2.2655906305e-38
0.011581549618 0.00330901417657 0.894 2.27455655847e-38
0.0132360567063 0.00330901417657 0.894 2.32065367275e-38
0.0148905637946 0.00330901417657 0.894 2.27459313236e-38
0.0165450708829 0.00330901417657 0.894 2.34835089742e-38
0.0181995779711 0.00330901417657 0.894 2.26555125401e-38
0.0198540850594 0.00330901417657 0.894 2.26555153427e-38
0.0215085921477 0.00330901417657 0.894 2.34831194132e-38
0.0230853707151 0.00329791010215 0.891 2.3483113808e-38
0.0247343257662 0.00329791010215 0.891 2.28370129211e-38
0.0263832808172 0.00329791010215 0.891 2.34859752595e-38
0.0280322358683 0.00329791010215 0.891 1.84138087133e-38
0.0296145664729 0.00329050738588 0.889 2.03455701126e-38
0.0312598201658 0.00329050738588 0.889 2.00693713827e-38
0.032831046696 0.0032831046696 0.887 2.08030282002e-38
0.0344725990308 0.0032831046696 0.887 2.0804079174e-38
0.0361141513656 0.0032831046696 0.887 2.03424059807e-38
0.0377557037004 0.0032831046696 0.887 2.08029833586e-38
0.0393972560352 0.0032831046696 0.887 2.33873602813e-38
0.04103880837 0.0032831046696 0.887 2.01594020064e-38
0.0426803607048 0.0032831046696 0.887 2.13547376225e-38
0.0443219130396 0.0032831046696 0.887 2.34849453051e-38
0.0459634653743 0.0032831046696 0.887 2.34885662603e-38
0.0477123570952 0.00329050738588 0.889 2.31164920908e-38
0.0493576107881 0.00329050738588 0.889 2.34835103755e-38
0.0508881223787 0.0032831046696 0.887 2.34831530443e-38
0.0525296747135 0.0032831046696 0.887 2.34827732925e-38
0.0542933718669 0.00329050738588 0.889 2.34813467706e-38
0.0558127793831 0.0032831046696 0.887 2.34838578975e-38
0.0574543317179 0.0032831046696 0.887 2.34867319606e-38
0.0589626351597 0.00327570195332 0.885 2.34881332591e-38
0.0603950607596 0.0032645978789 0.882 2.34809726239e-38
0.0620273596991 0.0032645978789 0.882 2.34806138915e-38
0.0636596586385 0.0032645978789 0.882 2.3500072322e-38
0.065291957578 0.0032645978789 0.882 2.35098267606e-38
0.0 0.00496352126486 0.894 1.85085491012e-38
0.00165450708829 0.00496352126486 0.894 1.91535387583e-38
0.00329791010215 0.00494686515323 0.891 1.81397623778e-38
0.00494686515323 0.00494686515323 0.891 1.76801911322e-38
0.00661802835314 0.00496352126486 0.894 1.58355246363e-38
0.00829104223213 0.00497462533928 0.896 2.20105172778e-38
0.00994925067855 0.00497462533928 0.896 2.3485311044e-38
0.011607459125 0.00497462533928 0.896 2.28356088201e-38
0.0132656675714 0.00497462533928 0.896 2.30210958952e-38
0.0148905637946 0.00496352126486 0.894 2.15477636833e-38
0.0165450708829 0.00496352126486 0.894 2.30221706911e-38
0.0181995779711 0.00496352126486 0.894 2.27459159093e-38
0.0198985013571 0.00497462533928 0.896 2.28399122077e-38
0.0215085921477 0.00496352126486 0.894 2.32076171286e-38
0.023163099236 0.00496352126486 0.894 2.34845557441e-38
0.0248176063243 0.00496352126486 0.894 2.126615454e-38
0.0264721134126 0.00496352126486 0.894 2.34852732089e-38
0.0281895435892 0.00497462533928 0.896 1.79531850925e-38
0.0297811275891 0.00496352126486 0.894 1.99826029818e-38
0.0313301459705 0.00494686515323 0.891 2.00744300701e-38
0.0329050738588 0.00493576107881 0.889 1.93332636942e-38
0.0345503275517 0.00493576107881 0.889 2.12689487292e-38
0.0361955812446 0.00493576107881 0.889 1.99797191095e-38
0.0378408349376 0.00493576107881 0.889 2.06243556395e-38
0.0394860886305 0.00493576107881 0.889 2.00683302179e-38
0.0411313423234 0.00493576107881 0.889 2.34824369808e-38
0.0427765960164 0.00493576107881 0.889 1.97009013528e-38
0.0444218497093 0.00493576107881 0.889 2.12636364067e-38
0.0461707414302 0.00494686515323 0.891 2.07115346208e-38
0.0478196964812 0.00494686515323 0.891 2.14523478696e-38
0.0494686515323 0.00494686515323 0.891 2.34867235528e-38
0.0510028644811 0.00493576107881 0.889 2.34827690886e-38
0.052648118174 0.00493576107881 0.889 2.34820628341e-38
0.0542933718669 0.00493576107881 0.889 2.34827873054e-38
0.0559386255599 0.00493576107881 0.889 2.34831390314e-38
0.0575838792528 0.00493576107881 0.889 2.33909448028e-38
0.0590958840527 0.00492465700439 0.887 2.34874017813e-38
0.0606004861364 0.00491355292998 0.885 2.34838466871e-38
0.062238337113 0.00491355292998 0.885 2.34838592988e-38
0.0638761880897 0.00491355292998 0.885 2.35011779465e-38
0.0 0.00661802835314 0.894 1.95226842141e-38
0.00165450708829 0.00661802835314 0.894 1.8230888817e-38
0.00329791010215 0.00659582020431 0.891 1.8323437574e-38
0.00494686515323 0.00659582020431 0.891 1.70319672782e-38
0.0066328337857 0.0066328337857 0.896 1.71249112014e-38
0.00830954902282 0.00664763921826 0.898 2.10892840492e-38
0.00997145882739 0.00664763921826 0.898 2.22867524415e-38
0.011633368632 0.00664763921826 0.898 2.34845851714e-38
0.0132952784365 0.00664763921826 0.898 2.2744506203e-38
0.0149238760178 0.0066328337857 0.896 2.30232665065e-38
0.0165820844643 0.0066328337857 0.896 2.3486006088e-38
0.0182402929107 0.0066328337857 0.896 2.26541238534e-38
0.0198985013571 0.0066328337857 0.896 2.24700647014e-38
0.0216048274593 0.00664763921826 0.898 2.34834921586e-38
0.0232667372639 0.00664763921826 0.898 2.34820446173e-38
0.0248731266964 0.0066328337857 0.896 2.33891329239e-38
0.0265313351428 0.0066328337857 0.896 2.20105410999e-38
0.0281895435892 0.0066328337857 0.896 1.81465965104e-38
0.0298477520357 0.0066328337857 0.896 1.94362843547e-38
0.0314356346774 0.00661802835314 0.894 1.84203163434e-38
0.0329791010215 0.00659582020431 0.891 1.98914891543e-38
0.0346280560726 0.00659582020431 0.891 2.15473881353e-38
0.0362770111237 0.00659582020431 0.891 1.91496039123e-38
0.0379259661748 0.00659582020431 0.891 2.17303570771e-38
0.0395749212258 0.00659582020431 0.891 2.03484792082e-38
0.0412238762769 0.00659582020431 0.891 2.03481442979e-38
0.042872831328 0.00659582020431 0.891 2.154773846e-38
0.0445217863791 0.00659582020431 0.891 2.32980317081e-38
0.0464298364999 0.0066328337857 0.896 2.25644323439e-38
0.0480880449463 0.0066328337857 0.896 2.34892346797e-38
0.0497462533928 0.0066328337857 0.896 2.34845487376e-38
0.0512897197369 0.00661802835314 0.894 2.34831306236e-38
0.0529442268251 0.00661802835314 0.894 2.3482428573e-38
0.0545987339134 0.00661802835314 0.894 2.34820698406e-38
0.0560644717366 0.00659582020431 0.891 2.34849102726e-38
0.0577134267877 0.00659582020431 0.891 2.34846033883e-38
0.0592291329458 0.00658101477175 0.889 2.3488527024e-38
0.0608743866387 0.00658101477175 0.889 2.34827760951e-38
0.0625196403316 0.00658101477175 0.889 2.27390915858e-38
0.0 0.00827253544143 0.894 1.82316048805e-38
0.00165450708829 0.00827253544143 0.894 1.91531912363e-38
0.00332381960913 0.00830954902282 0.898 1.82305356898e-38
0.00498572941369 0.00830954902282 0.898 1.87851191752e-38
0.00664763921826 0.00830954902282 0.898 1.61114557182e-38
0.00830954902282 0.00830954902282 0.898 2.18268518907e-38
0.0100047710506 0.00833730920887 0.901 2.33008973635e-38
0.0116722328924 0.00833730920887 0.901 2.27430418461e-38
0.0133396947342 0.00833730920887 0.901 2.34820600315e-38
0.0149571882411 0.00830954902282 0.898 2.1177179094e-38
0.0166190980456 0.00830954902282 0.898 2.32058178614e-38
0.0182810078502 0.00830954902282 0.898 2.3207266804e-38
0.0199429176548 0.00830954902282 0.898 2.2284600047e-38
0.0216048274593 0.00830954902282 0.898 2.32976757783e-38
0.0232667372639 0.00830954902282 0.898 2.34849649233e-38
0.0249286470685 0.00830954902282 0.898 2.03542175254e-38
0.026590556873 0.00830954902282 0.898 1.95277793353e-38
0.0282524666776 0.00830954902282 0.898 1.99926572983e-38
0.0300143131519 0.00833730920887 0.901 1.9897985574e-38
0.0315059604821 0.00829104223213 0.896 1.96220853207e-38
0.0331641689285 0.00829104223213 0.896 2.2199244155e-38
0.0348223773749 0.00829104223213 0.896 2.27477137752e-38
0.0364805858214 0.00829104223213 0.896 2.12726355454e-38
0.0381387942678 0.00829104223213 0.896 2.08137859685e-38
0.0397970027142 0.00829104223213 0.896 2.05361677232e-38
0.0414552111606 0.00829104223213 0.896 2.05361284869e-38
0.0431134196071 0.00829104223213 0.896 2.01691200113e-38
0.0447716280535 0.00829104223213 0.896 2.05372397166e-38
0.0465334745278 0.00830954902282 0.898 2.03517988843e-38
0.0481953843324 0.00830954902282 0.898 2.34878642098e-38
0.0498572941369 0.00830954902282 0.898 2.34863522087e-38
0.0514044618392 0.00829104223213 0.896 2.34838452858e-38
0.0530626702856 0.00829104223213 0.896 2.3483503369e-38
0.054720878732 0.00829104223213 0.896 2.34881851071e-38
0.0563790871785 0.00829104223213 0.896 2.34831362288e-38
0.05790774809 0.00827253544143 0.894 2.34849411012e-38
0.0595622551783 0.00827253544143 0.894 2.34809880382e-38
0.0612167622666 0.00827253544143 0.894 2.34860327127e-38
0.0628712693549 0.00827253544143 0.894 2.3484573961e-38
0.00670686094849 0.0100602914227 0.906 1.65731597402e-38
0.00838357618561 0.0100602914227 0.906 2.13640730728e-38
0.0100602914227 0.0100602914227 0.906 2.3208379435e-38
0.0117370066599 0.0100602914227 0.906 2.3112197111e-38
0.0133693055993 0.0100269791995 0.903 2.22821015319e-38
0.015007156576 0.0100047710506 0.901 2.3482804121e-38
0.0166746184177 0.0100047710506 0.901 2.34831572482e-38
0.0182810078502 0.00997145882739 0.898 2.3021423799e-38
0.0199429176548 0.00997145882739 0.898 2.34852858206e-38
0.0217251215989 0.0100269791995 0.903 1.92429107718e-38
0.0233962847988 0.0100269791995 0.903 2.18276071905e-38
0.0250119276266 0.0100047710506 0.901 1.7961469569e-38
0.0266793894684 0.0100047710506 0.901 1.98043830405e-38
0.0283468513102 0.0100047710506 0.901 1.8419633911e-38
0.0300809375984 0.0100269791995 0.903 1.91560877203e-38
0.0316817749937 0.0100047710506 0.901 1.89728076902e-38
0.0332381960913 0.00997145882739 0.898 2.09085053369e-38
0.0349001058959 0.00997145882739 0.898 1.90584410394e-38
0.0365620157004 0.00997145882739 0.898 1.93365273183e-38
0.038223925505 0.00997145882739 0.898 2.17375653564e-38
0.0398858353096 0.00997145882739 0.898 2.05407976134e-38
0.0415477451141 0.00997145882739 0.898 1.97071105063e-38
0.0432096549187 0.00997145882739 0.898 1.84149465677e-38
0.0448715647232 0.00997145882739 0.898 2.01666593312e-38
0.0466889315697 0.0100047710506 0.901 1.98893787988e-38
0.0483563934114 0.0100047710506 0.901 2.17364681397e-38
0.0500238552532 0.0100047710506 0.901 2.2011259966e-38
0.051691317095 0.0100047710506 0.901 2.21945722259e-38
0.0533587789368 0.0100047710506 0.901 2.34842208338e-38
0.0550262407785 0.0100047710506 0.901 2.34813607836e-38
0.0565049333552 0.00997145882739 0.898 2.34831502417e-38
0.0581668431598 0.00997145882739 0.898 2.34860411205e-38
0.0596955040713 0.00994925067855 0.896 2.34853306622e-38
0.0613537125177 0.00994925067855 0.896 2.34871033047e-38
0.0630119209642 0.00994925067855 0.896 2.27401453622e-38
0.00672166638105 0.0117629161668 0.908 1.61125557375e-38
0.00840208297631 0.0117629161668 0.908 2.13630192964e-38
0.0101047077204 0.0117888256738 0.91 2.28388752468e-38
0.0117629161668 0.0117629161668 0.908 2.28370549601e-38
0.0134433327621 0.0117629161668 0.908 2.339129793e-38
0.0150904371341 0.0117370066599 0.906 2.17314136562e-38
0.0167671523712 0.0117370066599 0.906 2.34838663053e-38
0.0184438676083 0.0117370066599 0.906 2.25622477196e-38
0.0201205828455 0.0117370066599 0.906 2.2469344434e-38
0.0217972980826 0.0117370066599 0.906 2.19179881389e-38
0.0234740133197 0.0117370066599 0.906 2.23828941278e-38
0.0251507285568 0.0117370066599 0.906 2.05414856509e-38
0.026827443794 0.0117370066599 0.906 1.88766688065e-38
0.0285041590311 0.0117370066599 0.906 2.03510702091e-38
0.0302474987147 0.0117629161668 0.908 2.044828529e-38
0.03192791531 0.0117629161668 0.908 1.94351983484e-38
0.0334232639983 0.0116981423994 0.903 2.04450693101e-38
0.0350166986772 0.0116722328924 0.901 2.09992940631e-38
0.036684160519 0.0116722328924 0.901 2.09985499736e-38
0.0383516223608 0.0116722328924 0.901 1.98897445377e-38
0.0400190842026 0.0116722328924 0.901 1.96203070729e-38
0.0415477451141 0.011633368632 0.898 1.97071077037e-38
0.0432096549187 0.011633368632 0.898 1.97092614994e-38
0.0448715647232 0.011633368632 0.898 2.07209121102e-38
0.0466889315697 0.0116722328924 0.901 1.99826632376e-38
0.0483563934114 0.0116722328924 0.901 2.04468265383e-38
0.0501348959974 0.0116981423994 0.903 2.33069579793e-38
0.0518060591973 0.0116981423994 0.903 2.1920101297e-38
0.0534772223972 0.0116981423994 0.903 2.34881402656e-38
0.0551483855971 0.0116981423994 0.903 2.34845585467e-38
0.056819548797 0.0116981423994 0.903 2.34845781649e-38
0.058490711997 0.0116981423994 0.903 2.34849116739e-38
0.0598287529643 0.011633368632 0.898 2.34834949612e-38
0.0614906627689 0.011633368632 0.898 2.34856669738e-38
0.0631525725735 0.011633368632 0.898 2.3483850891e-38
0.00679569354383 0.0135913870877 0.918 1.62980175893e-38
0.00846685674374 0.01354697079 0.915 2.05354068182e-38
0.0101602280925 0.01354697079 0.915 2.27473760623e-38
0.0118276899343 0.0135173599249 0.913 2.29303043664e-38
0.0135173599249 0.0135173599249 0.913 2.33916538598e-38
0.0151570615806 0.0134729436272 0.91 2.33930957959e-38
0.016841179534 0.0134729436272 0.91 2.24707737584e-38
0.0185863698967 0.0135173599249 0.913 2.3023221665e-38
0.0202094154408 0.0134729436272 0.91 2.30228685378e-38
0.0218935333942 0.0134729436272 0.91 2.34838803182e-38
0.0235776513476 0.0134729436272 0.91 2.34816998978e-38
0.025261769301 0.0134729436272 0.91 2.23775019313e-38
0.0269458872544 0.0134729436272 0.91 2.31179256191e-38
0.0286300052078 0.0134729436272 0.91 2.30250237348e-38
0.0303141231612 0.0134729436272 0.91 2.34870696736e-38
0.0319982411146 0.0134729436272 0.91 2.2014114411e-38
0.0336083319052 0.0134433327621 0.908 2.20141298252e-38
0.0352110199796 0.013413721897 0.906 2.1644268306e-38
0.0368877352167 0.013413721897 0.906 2.07226847527e-38
0.0385644504538 0.013413721897 0.906 2.23811144788e-38
0.0401079167979 0.0133693055993 0.903 2.30264460527e-38
0.0417790799978 0.0133693055993 0.903 2.25662288085e-38
0.0434502431977 0.0133693055993 0.903 2.29357133785e-38
0.0451214063976 0.0133693055993 0.903 2.30257454035e-38
0.0467925695976 0.0133693055993 0.903 2.32090366439e-38
0.0486247418765 0.013413721897 0.906 2.3487813763e-38
0.0503014571137 0.013413721897 0.906 2.3489287929e-38
0.0519781723508 0.013413721897 0.906 2.34856389478e-38
0.0536548875879 0.013413721897 0.906 2.34852858206e-38
0.055331602825 0.013413721897 0.906 2.34842152286e-38
0.0570083180621 0.013413721897 0.906 2.34878291773e-38
0.0586850332993 0.013413721897 0.906 2.348667731e-38
0.0601618751969 0.0133693055993 0.903 2.34856515595e-38
0.0618330383968 0.0133693055993 0.903 2.34845669545e-38
0.0637151790106 0.013413721897 0.906 2.34852914258e-38
0.00854088390653 0.0153735910318 0.923 2.04428608637e-38
0.0102157484646 0.0153236226969 0.92 2.29317743285e-38
0.0118535994412 0.0152403421387 0.915 2.3114713843e-38
0.01354697079 0.0152403421387 0.915 2.23767802626e-38
0.0152070299155 0.0152070299155 0.913 2.34849172791e-38
0.0168966999061 0.0152070299155 0.913 2.34834935599e-38
0.0185863698967 0.0152070299155 0.913 2.24714758089e-38
0.0202760398873 0.0152070299155 0.913 2.34816886874e-38
0.0219657098779 0.0152070299155 0.913 2.28349025657e-38
0.0236553798685 0.0152070299155 0.913 2.34817125095e-38
0.0253450498591 0.0152070299155 0.913 2.34831194132e-38
0.0270347198498 0.0152070299155 0.913 2.33923376935e-38
0.0287243898404 0.0152070299155 0.913 2.22845846327e-38
0.0304806842775 0.0152403421387 0.915 2.34845585467e-38
0.0321740556262 0.0152403421387 0.915 2.09034704715e-38
0.033867426975 0.0152403421387 0.915 2.09020411471e-38
0.0355607983237 0.0152403421387 0.915 2.08995426319e-38
0.0372541696725 0.0152403421387 0.915 1.88723079656e-38
0.038649581691 0.0151237493574 0.908 2.03495932405e-38
0.0402411656909 0.0150904371341 0.906 2.24653689502e-38
0.041917880928 0.0150904371341 0.906 2.17318018158e-38
0.0435945961652 0.0150904371341 0.906 2.34856571647e-38
0.0452713114023 0.0150904371341 0.906 2.34870850878e-38
0.0470516646673 0.0151237493574 0.908 2.34863886425e-38
0.0487320812626 0.0151237493574 0.908 2.34881710941e-38
0.0504124978578 0.0151237493574 0.908 2.34831292223e-38
0.0520929144531 0.0151237493574 0.908 2.34881710941e-38
0.0537733310484 0.0151237493574 0.908 2.34852858206e-38
0.0554537476436 0.0151237493574 0.908 2.34860144958e-38
0.0571341642389 0.0151237493574 0.908 2.34838592988e-38
0.0588145808341 0.0151237493574 0.908 2.34863634191e-38
0.0604949974294 0.0151237493574 0.908 2.34831362288e-38
0.0620384637735 0.0150904371341 0.906 2.34902968639e-38
0.0637151790106 0.0150904371341 0.906 2.34878193682e-38
0.00684751255778 0.0171187813945 0.925 1.66632071795e-38
0.00855939069723 0.0171187813945 0.925 1.88740904173e-38
0.0102712688367 0.0171187813945 0.925 2.25644169296e-38
0.0119831469761 0.0171187813945 0.925 2.22831777291e-38
0.0136654142505 0.0170817678131 0.923 2.34831502417e-38
0.0152903104736 0.0169892338596 0.918 2.33908929548e-38
0.0169892338596 0.0169892338596 0.918 2.27448719419e-38
0.0186270848362 0.0169337134875 0.915 2.2560461064e-38
0.020320456185 0.0169337134875 0.915 2.34809768278e-38
0.0220138275337 0.0169337134875 0.915 2.33895224849e-38
0.0237071988825 0.0169337134875 0.915 2.34867193489e-38
0.0254005702312 0.0169337134875 0.915 1.57358040337e-38
0.02709394158 0.0169337134875 0.915 2.34803546513e-38
0.0287873129287 0.0169337134875 0.915 2.34917864442e-38
0.0304806842775 0.0169337134875 0.915 1.77742462851e-38
0.0321740556262 0.0169337134875 0.915 2.34924856921e-38
0.033867426975 0.0169337134875 0.915 2.15448671994e-38
0.0355607983237 0.0169337134875 0.915 2.21016381117e-38
0.0373763144911 0.0169892338596 0.918 2.00769215788e-38
0.039075237877 0.0169892338596 0.918 2.2838171795e-38
0.04064091237 0.0169337134875 0.915 2.34831306236e-38
0.0420104148815 0.0168041659526 0.908 2.32072640014e-38
0.0436908314768 0.0168041659526 0.908 2.34845949805e-38
0.0454711847418 0.016841179534 0.91 2.31125530408e-38
0.0471553026952 0.016841179534 0.91 2.34852914258e-38
0.0488394206486 0.016841179534 0.91 2.33880609306e-38
0.050523538602 0.016841179534 0.91 2.34834907573e-38
0.0522076565554 0.016841179534 0.91 2.34842096234e-38
0.0538917745088 0.016841179534 0.91 2.34838466871e-38
0.0555758924622 0.016841179534 0.91 2.34888955655e-38
0.0572600104156 0.016841179534 0.91 2.34809796304e-38
0.058944128369 0.016841179534 0.91 2.34878179669e-38
0.0606282463224 0.016841179534 0.91 2.34838873247e-38
0.0620384637735 0.0167671523712 0.906 2.34867389671e-38
0.0637151790106 0.0167671523712 0.906 2.3487428406e-38
0.0653918942478 0.0167671523712 0.906 2.35098057411e-38
0.00684751255778 0.0188306595339 0.925 1.71223930681e-38
0.00855939069723 0.0188306595339 0.925 1.79539319846e-38
0.0102712688367 0.0188306595339 0.925 2.26577209865e-38
0.0119831469761 0.0188306595339 0.925 2.28370549601e-38
0.0136950251156 0.0188306595339 0.925 2.34816886874e-38
0.015406903255 0.0188306595339 0.925 2.32040171928e-38
0.0170817678131 0.0187899445944 0.923 2.26530098211e-38
0.0187288721851 0.0187288721851 0.92 2.28356088201e-38
0.0204314969292 0.0187288721851 0.92 2.34802509552e-38
0.0221341216733 0.0187288721851 0.92 2.34838494897e-38
0.0237849274034 0.0186881572455 0.918 2.3482766286e-38
0.0254838507894 0.0186881572455 0.918 1.87782794374e-38
0.0271827741753 0.0186881572455 0.918 2.34819969731e-38
0.0288816975613 0.0186881572455 0.918 2.34867347632e-38
0.0305806209472 0.0186881572455 0.918 1.59356810428e-38
0.0322795443332 0.0186881572455 0.918 2.1930200455e-38
0.0339784677192 0.0186881572455 0.918 1.67503665427e-38
0.0356773911051 0.0186881572455 0.918 1.69390934198e-38
0.0373763144911 0.0186881572455 0.918 1.63884559909e-38
0.039075237877 0.0186881572455 0.918 1.75776833469e-38
0.040774161263 0.0186881572455 0.918 1.64734489466e-38
0.042102948835 0.0185252974874 0.91 2.34946114619e-38
0.0437870667884 0.0185252974874 0.91 2.11760622592e-38
0.0456210897465 0.0185863698967 0.913 1.98813269379e-38
0.047414397765 0.0186270848362 0.915 2.33009450076e-38
0.0491077691137 0.0186270848362 0.915 2.13615745577e-38
0.0508011404625 0.0186270848362 0.915 2.30167350544e-38
0.0524945118112 0.0186270848362 0.915 2.34856767829e-38
0.05418788316 0.0186270848362 0.915 2.34888927629e-38
0.0558812545087 0.0186270848362 0.915 2.34845571454e-38
0.0575746258575 0.0186270848362 0.915 2.34842152286e-38
0.0592679972062 0.0186270848362 0.915 2.34849340947e-38
0.060961368555 0.0186270848362 0.915 2.34848920557e-38
0.0621754140247 0.0184845825479 0.908 2.34842180312e-38
0.0638558306199 0.0184845825479 0.908 2.34827732925e-38
0.0655362472152 0.0184845825479 0.908 2.35098309645e-38
0.00684751255778 0.0205425376733 0.925 1.78610301003e-38
0.00855939069723 0.0205425376733 0.925 1.69394493497e-38
0.0102712688367 0.0205425376733 0.925 2.33931406375e-38
0.0119831469761 0.0205425376733 0.925 2.30228867546e-38
0.0136950251156 0.0205425376733 0.925 2.3482081051e-38
0.015406903255 0.0205425376733 0.925 2.29278016473e-38
0.0171187813945 0.0205425376733 0.925 2.33891329239e-38
0.0187288721851 0.0204314969292 0.92 2.33891329239e-38
0.0204314969292 0.0204314969292 0.92 2.34820628341e-38
0.0221341216733 0.0204314969292 0.92 2.34838845221e-38
0.0238367464174 0.0204314969292 0.92 1.87865639139e-38
0.0255393711615 0.0204314969292 0.92 2.28427932773e-38
0.0272419959056 0.0204314969292 0.92 2.21012625637e-38
0.0289446206497 0.0204314969292 0.92 2.23768012821e-38
0.0305806209472 0.0203870806315 0.918 1.98021549759e-38
0.0322795443332 0.0203870806315 0.918 2.19244929664e-38
0.0340524948819 0.0204314969292 0.92 2.11807790298e-38
0.035755119626 0.0204314969292 0.92 2.21945694233e-38
0.0374577443701 0.0204314969292 0.92 2.17342975284e-38
0.03928806597 0.0204981213757 0.923 2.27502347111e-38
0.0409962427514 0.0204981213757 0.923 2.18315364314e-38
0.0427044195327 0.0204981213757 0.923 2.34881626864e-38
0.044412596314 0.0204981213757 0.923 2.34863438009e-38
0.0461207730953 0.0204981213757 0.923 2.27470257377e-38
0.0476734928347 0.0204314969292 0.92 2.34871131138e-38
0.0493761175788 0.0204314969292 0.92 2.26544587637e-38
0.0510787423229 0.0204314969292 0.92 2.28388556286e-38
0.052781367067 0.0204314969292 0.92 2.34888955655e-38
0.0543655483507 0.0203870806315 0.918 2.34835005664e-38
0.0560644717366 0.0203870806315 0.918 2.34841970117e-38
0.0578892412993 0.0204314969292 0.92 2.34856543621e-38
0.0595918660434 0.0204314969292 0.92 2.34824215665e-38
0.0612944907875 0.0204314969292 0.92 2.34842208338e-38
0.0623123642758 0.0202094154408 0.91 2.34863788334e-38
0.0639964822292 0.0202094154408 0.91 2.34888913616e-38
0.0656806001826 0.0202094154408 0.91 2.35098113463e-38
0.00855939069723 0.0222544158128 0.925 1.55550631565e-38
0.0102712688367 0.0222544158128 0.925 2.2285351143e-38
0.0119831469761 0.0222544158128 0.925 2.34831194132e-38
0.0136950251156 0.0222544158128 0.925 2.34805704513e-38
0.0154568715899 0.0223265922965 0.928 2.34834837508e-38
0.0171743017665 0.0223265922965 0.928 2.34816760758e-38
0.0188917319432 0.0223265922965 0.928 2.32962184279e-38
0.0206091621199 0.0223265922965 0.928 2.34824131588e-38
0.0222544158128 0.0222544158128 0.925 2.34870920943e-38
0.0239662939522 0.0222544158128 0.925 1.4456959437e-38
0.0256226517196 0.022206298157 0.923 2.22053173825e-38
0.0273308285009 0.022206298157 0.923 1.48207169002e-38
0.0290390052822 0.022206298157 0.923 2.34849957518e-38
0.0306472453938 0.0221341216733 0.92 1.79503712852e-38
0.0323498701378 0.0221341216733 0.92 2.34806685422e-38
0.0341635356261 0.022206298157 0.923 2.34896046225e-38
0.0358717124074 0.022206298157 0.923 2.32987743963e-38
0.0375798891887 0.022206298157 0.923 2.34878025526e-38
0.0393731972073 0.0222544158128 0.925 2.34899885783e-38
0.0410850753467 0.0222544158128 0.925 1.83205438927e-38
0.0427969534861 0.0222544158128 0.925 2.09899207777e-38
0.0445088316256 0.0222544158128 0.925 2.26555153427e-38
0.046220709765 0.0222544158128 0.925 2.33016484595e-38
0.0479325879045 0.0222544158128 0.925 2.34878207695e-38
0.0496444660439 0.0222544158128 0.925 2.34910171313e-38
0.0513563441834 0.0222544158128 0.925 1.9521993374e-38
0.0529534802205 0.022206298157 0.923 2.34893033433e-38
0.0546616570018 0.022206298157 0.923 2.34863984516e-38
0.0563698337831 0.022206298157 0.923 2.34860046867e-38
0.0580780105644 0.022206298157 0.923 2.3485297031e-38
0.0597861873457 0.022206298157 0.923 2.34906990366e-38
0.061494364127 0.022206298157 0.923 2.34871089099e-38
0.0632025409083 0.022206298157 0.923 2.34881724954e-38
0.0649107176896 0.022206298157 0.923 2.349246187e-38
0.0669797768895 0.0223265922965 0.928 2.35098323658e-38
0.00692153972057 0.024225389022 0.935 1.74011281482e-38
0.00858715088327 0.0240440224732 0.928 1.55572127483e-38
0.0103045810599 0.0240440224732 0.928 2.30246888245e-38
0.012086785004 0.024173570008 0.933 2.34824117575e-38
0.013813468576 0.024173570008 0.933 2.3482390738e-38
0.015540152148 0.024173570008 0.933 2.31111195125e-38
0.01726683572 0.024173570008 0.933 2.34816774771e-38
0.018993519292 0.024173570008 0.933 2.34863662217e-38
0.020720202864 0.024173570008 0.933 2.34816886874e-38
0.022446886436 0.024173570008 0.933 2.3488912381e-38
0.024173570008 0.024173570008 0.933 1.4177145357e-38
0.02590025358 0.024173570008 0.933 2.25716168011e-38
0.027626937152 0.024173570008 0.933 1.92475812996e-38
0.0293536207241 0.024173570008 0.933 1.50973234079e-38
0.0309803676263 0.0240958414871 0.93 2.07172967601e-38
0.0326311733564 0.0240440224732 0.928 2.3117995684e-38
0.0343486035331 0.0240440224732 0.928 2.34895822017e-38
0.0360660337097 0.0240440224732 0.928 1.81336709334e-38
0.0377834638864 0.0240440224732 0.928 1.97906965584e-38
0.0395008940631 0.0240440224732 0.928 2.11757413618e-38
0.0412183242397 0.0240440224732 0.928 1.85017303829e-38
0.0429357544164 0.0240440224732 0.928 2.20976752397e-38
0.044653184593 0.0240440224732 0.928 1.91495983071e-38
0.0463706147697 0.0240440224732 0.928 1.97013553735e-38
0.0480880449463 0.0240440224732 0.928 1.85024338347e-38
0.049805475123 0.0240440224732 0.928 2.30189449021e-38
0.0515229052996 0.0240440224732 0.928 1.97063846337e-38
0.0532403354763 0.0240440224732 0.928 2.34871271268e-38
0.054957765653 0.0240440224732 0.928 2.34842026169e-38
0.0564919786017 0.0239662939522 0.925 2.34885172149e-38
0.0582038567412 0.0239662939522 0.925 2.34863508074e-38
0.0599157348806 0.0239662939522 0.925 2.3487813763e-38
0.06162761302 0.0239662939522 0.925 2.34863774321e-38
0.0633394911595 0.0239662939522 0.925 2.34831292223e-38
0.0650513692989 0.0239662939522 0.925 2.34910255391e-38
0.0669797768895 0.0240440224732 0.928 2.35098211554e-38
0.00692153972057 0.0259557739521 0.935 1.85081749545e-38
0.00865192465071 0.0259557739521 0.935 1.59263441911e-38
0.0104156218041 0.0260390545103 0.938 2.09949598469e-38
0.0121515587715 0.0260390545103 0.938 2.28395716921e-38
0.0138874957388 0.0260390545103 0.938 2.09909521333e-38
0.0156234327062 0.0260390545103 0.938 2.22784287286e-38
0.0173593696735 0.0260390545103 0.938 2.24668277019e-38
0.0190342342316 0.0259557739521 0.935 2.31132691043e-38
0.0207646191617 0.0259557739521 0.935 2.31161431674e-38
0.0224950040919 0.0259557739521 0.935 2.23771516067e-38
0.024225389022 0.0259557739521 0.935 2.04446573283e-38
0.0259557739521 0.0259557739521 0.935 2.18286511579e-38
0.0276861588823 0.0259557739521 0.935 2.06257863652e-38
0.0294165438124 0.0259557739521 0.935 2.01655481015e-38
0.0311469287426 0.0259557739521 0.935 1.97971565443e-38
0.0328069878681 0.02590025358 0.933 2.21917009653e-38
0.0345336714401 0.02590025358 0.933 2.32062102249e-38
0.0362603550121 0.02590025358 0.933 2.09034830832e-38
0.0378648937655 0.0258169730219 0.93 1.86879517384e-38
0.0395860253003 0.0258169730219 0.93 2.09924417136e-38
0.0413071568351 0.0258169730219 0.93 2.19172594637e-38
0.0430282883699 0.0258169730219 0.93 2.0715145767e-38
0.0447494199046 0.0258169730219 0.93 2.08069784605e-38
0.0466204564441 0.02590025358 0.933 2.05300314373e-38
0.0483471400161 0.02590025358 0.933 2.09931451654e-38
0.049912814509 0.0258169730219 0.93 2.26512399811e-38
0.0516339460438 0.0258169730219 0.93 1.97953376589e-38
0.0533550775786 0.0258169730219 0.93 2.34889039732e-38
0.0550762091134 0.0258169730219 0.93 2.34852788141e-38
0.0566751958296 0.0257614526498 0.928 2.34881640877e-38
0.0583926260063 0.0257614526498 0.928 2.34870584632e-38
0.0601100561829 0.0257614526498 0.928 2.34860102919e-38
0.0618274863596 0.0257614526498 0.928 2.34874550306e-38
0.0635449165362 0.0257614526498 0.928 2.34863774321e-38
0.0652623467129 0.0257614526498 0.928 2.34899633549e-38
0.00869819162745 0.0278342132079 0.94 1.54664646598e-38
0.0104378299529 0.0278342132079 0.94 2.16435340256e-38
0.0121774682784 0.0278342132079 0.94 2.34889165849e-38
0.0139171066039 0.0278342132079 0.94 2.14566246325e-38
0.0156567449294 0.0278342132079 0.94 2.2013776698e-38
0.0173963832549 0.0278342132079 0.94 2.17361178151e-38
0.0191360215804 0.0278342132079 0.94 2.33009225868e-38
0.0208756599059 0.0278342132079 0.94 2.27495256541e-38
0.0226152982314 0.0278342132079 0.94 2.26576859541e-38
0.0243549365569 0.0278342132079 0.94 2.22867706584e-38
0.0260945748824 0.0278342132079 0.94 2.10857121394e-38
0.0277749914776 0.0277749914776 0.938 2.34917794377e-38
0.029510928445 0.0277749914776 0.938 2.34881724954e-38
0.0312468654123 0.0277749914776 0.938 2.34856487569e-38
0.0330531281843 0.0278342132079 0.94 2.34878347825e-38
0.0347927665098 0.0278342132079 0.94 2.34888703421e-38
0.0364546763144 0.0277749914776 0.938 2.34853138466e-38
0.0380684684631 0.0276861588823 0.935 2.34885676616e-38
0.0397988533933 0.0276861588823 0.935 2.34910745846e-38
0.0415292383234 0.0276861588823 0.935 2.3487841789e-38
0.0432596232536 0.0276861588823 0.935 2.34907018392e-38
0.0449900081837 0.0276861588823 0.935 2.3491057769e-38
0.0466204564441 0.027626937152 0.933 2.34896270432e-38
0.0483471400161 0.027626937152 0.933 2.34900067951e-38
0.0500738235881 0.027626937152 0.933 2.34903529159e-38
0.0518005071601 0.027626937152 0.933 2.34928584375e-38
0.0535271907321 0.027626937152 0.933 2.34892991394e-38
0.0552538743041 0.027626937152 0.933 2.34907228586e-38
0.0567973406482 0.0275381045567 0.93 2.34896340497e-38
0.058518472183 0.0275381045567 0.93 2.34885494447e-38
0.0602396037178 0.0275381045567 0.93 2.34907032405e-38
0.0619607352526 0.0275381045567 0.93 2.34896242407e-38
0.0636818667874 0.0275381045567 0.93 2.34881851071e-38
0.0654029983222 0.0275381045567 0.93 2.34907046418e-38
0.0105044543995 0.0297626207984 0.946 1.9615227366e-38
0.0122163325389 0.0296682361659 0.943 2.34914319157e-38
0.0139615229016 0.0296682361659 0.943 1.01123078172e-38
0.0157067132643 0.0296682361659 0.943 1.38080741701e-38
0.017451903627 0.0296682361659 0.943 1.7583036307e-38
0.0191970939897 0.0296682361659 0.943 1.67525497657e-38
0.0209422843524 0.0296682361659 0.943 1.72124587243e-38
0.0226874747151 0.0296682361659 0.943 1.7674866198e-38
0.0244326650778 0.0296682361659 0.943 1.81369331562e-38
0.0261778554405 0.0296682361659 0.943 1.96116876861e-38
0.0278342132079 0.0295738515333 0.94 2.02588199286e-38
0.0295738515333 0.0295738515333 0.94 2.04425259533e-38
0.0314134265286 0.0296682361659 0.943 2.12736921245e-38
0.0331586168913 0.0296682361659 0.943 2.06287136777e-38
0.034903807254 0.0296682361659 0.943 2.0902782434e-38
0.0366489976167 0.0296682361659 0.943 2.11807888389e-38
0.0382720431608 0.0295738515333 0.94 2.09974933946e-38
0.0400116814863 0.0295738515333 0.94 2.1825444987e-38
0.0417513198118 0.0295738515333 0.94 2.19169119417e-38
0.0433984241838 0.029510928445 0.938 2.13673380983e-38
0.0451343611511 0.029510928445 0.938 2.10903826672e-38
0.0468702981185 0.029510928445 0.938 2.13662590984e-38
0.0486062350858 0.029510928445 0.938 2.03514051194e-38
0.0503421720532 0.029510928445 0.938 2.1179366521e-38
0.0520781090205 0.029510928445 0.938 2.1177568655e-38
0.0538140459879 0.029510928445 0.938 2.02559724901e-38
0.0555499829552 0.029510928445 0.938 1.93354581276e-38
0.0572859199226 0.029510928445 0.938 1.8595387567e-38
0.0590218568899 0.029510928445 0.938 1.85035702877e-38
0.0607577938573 0.029510928445 0.938 1.98857760605e-38
0.0624937308247 0.029510928445 0.938 2.17271102686e-38
0.064229667792 0.029510928445 0.938 2.34900081964e-38
0.0105266625483 0.0315799876449 0.948 1.95183780239e-38
0.0122811063063 0.0315799876449 0.948 2.3495020641e-38
0.0140355500644 0.0315799876449 0.948 1.19555477912e-38
0.0158899304922 0.0317798609844 0.954 1.37119156682e-38
0.0176554783247 0.0317798609844 0.954 1.40828716016e-38
0.0194210261571 0.0317798609844 0.954 1.28842863744e-38
0.0210089087989 0.0315133631984 0.946 1.29754576551e-38
0.0227596511988 0.0315133631984 0.946 1.35300607587e-38
0.0245103935987 0.0315133631984 0.946 1.29776128521e-38
0.0263166563707 0.0315799876449 0.948 1.34382210586e-38
0.0280118783985 0.0315133631984 0.946 1.43583766887e-38
0.0297626207984 0.0315133631984 0.946 1.352861602e-38
0.0315133631984 0.0315133631984 0.946 1.26999469627e-38
0.0332641055983 0.0315133631984 0.946 1.42672530522e-38
0.0350148479982 0.0315133631984 0.946 1.34385713832e-38
0.0367655903981 0.0315133631984 0.946 1.43608948221e-38
0.0383941879794 0.0314134265286 0.943 1.42661810589e-38
0.0401393783421 0.0314134265286 0.943 1.37130100823e-38
0.0418845687048 0.0314134265286 0.943 1.3715525413e-38
0.0434909581373 0.0313134898588 0.94 1.4177938492e-38
0.0452305964628 0.0313134898588 0.94 1.40857358556e-38
0.0469702347883 0.0313134898588 0.94 1.42672502496e-38
0.0488653301556 0.0314134265286 0.943 1.43608948221e-38
0.0506105205183 0.0314134265286 0.943 1.40853869323e-38
0.052355710881 0.0314134265286 0.943 1.50037489004e-38
0.0541009012437 0.0314134265286 0.943 1.48185813213e-38
0.0558460916064 0.0314134265286 0.943 1.50048208937e-38
0.0575912819691 0.0314134265286 0.943 1.61118887195e-38
0.0593364723318 0.0314134265286 0.943 1.46381655453e-38
0.0610816626945 0.0314134265286 0.943 2.20117083815e-38
0.0628268530572 0.0314134265286 0.943 1.97971565443e-38
0.0645720434199 0.0314134265286 0.943 2.34921479792e-38
0.0124236085947 0.0337212233285 0.959 2.34932143673e-38
0.0141539935248 0.0336157346215 0.956 1.38944502074e-38
0.0159232427154 0.0336157346215 0.956 1.59278379753e-38
0.0176924919061 0.0336157346215 0.956 1.61136641646e-38
0.0194210261571 0.0335454088169 0.954 1.74065581797e-38
0.0211865739896 0.0335454088169 0.954 1.62090869849e-38
0.0229521218221 0.0335454088169 0.954 1.79590229019e-38
0.0246399411336 0.0334399201099 0.951 1.61168885524e-38
0.0263999369289 0.0334399201099 0.951 1.64867696898e-38
0.0281599327241 0.0334399201099 0.951 1.52878985978e-38
0.0298255438868 0.0333344314029 0.948 1.59328700381e-38
0.0315799876449 0.0333344314029 0.948 1.53771781255e-38
0.0333344314029 0.0333344314029 0.948 1.58360305051e-38
0.035088875161 0.0333344314029 0.948 1.6390620997e-38
0.036843318919 0.0333344314029 0.948 1.53771809281e-38
0.0385977626771 0.0333344314029 0.948 1.52839315218e-38
0.0403522064351 0.0333344314029 0.948 1.63895672206e-38
0.0421066501932 0.0333344314029 0.948 1.51006164593e-38
0.0437685599977 0.0332641055983 0.946 1.62087562784e-38
0.0455193023976 0.0332641055983 0.946 1.52864342409e-38
0.0473699814673 0.0333344314029 0.948 1.62994791436e-38
0.0491244252253 0.0333344314029 0.948 1.6853043885e-38
0.0508788689834 0.0333344314029 0.948 1.67608328409e-38
0.0526333127414 0.0333344314029 0.948 1.74991447719e-38
0.0543877564995 0.0333344314029 0.948 1.78682327744e-38
0.0561422002575 0.0333344314029 0.948 1.79618647352e-38
0.0578966440156 0.0333344314029 0.948 1.79611612834e-38
0.0596510877736 0.0333344314029 0.948 1.59328672355e-38
0.0614055315317 0.0333344314029 0.948 2.09074935994e-38
0.0631599752897 0.0333344314029 0.948 2.1180089591e-38
0.0649144190478 0.0333344314029 0.948 2.34899927821e-38
0.0124624728552 0.0356070653005 0.962 2.34939388386e-38
0.0141984098225 0.0354960245563 0.959 1.16853676382e-38
0.0159732110503 0.0354960245563 0.959 1.48240239645e-38
0.0176924919061 0.0353849838121 0.956 1.31630733026e-38
0.0194617410967 0.0353849838121 0.956 1.48226044492e-38
0.0212309902873 0.0353849838121 0.956 1.35336536879e-38
0.0229521218221 0.0353109566493 0.954 1.42690523194e-38
0.0247176696545 0.0353109566493 0.954 1.50069858998e-38
0.026483217487 0.0353109566493 0.954 1.51013325228e-38
0.0282487653195 0.0353109566493 0.954 1.54675941063e-38
0.0299199285194 0.0351999159051 0.951 1.51895792936e-38
0.0316799243146 0.0351999159051 0.951 1.56498343729e-38
0.0334399201099 0.0351999159051 0.951 1.55576387431e-38
0.0351999159051 0.0351999159051 0.951 1.59264254664e-38
0.0369599117004 0.0351999159051 0.951 1.61133166426e-38
0.0387199074957 0.0351999159051 0.951 1.58352850143e-38
0.0404799032909 0.0351999159051 0.951 1.647958243e-38
0.0422398990862 0.0351999159051 0.951 1.51892135547e-38
0.0439998948814 0.0351999159051 0.951 1.67593895035e-38
0.0457598906767 0.0351999159051 0.951 1.55597925388e-38
0.0475198864719 0.0351999159051 0.951 1.66657659505e-38
0.0492798822672 0.0351999159051 0.951 1.63881028637e-38
0.0510398780625 0.0351999159051 0.951 1.64799355572e-38
0.0527998738577 0.0351999159051 0.951 1.57438348752e-38
0.0547319828065 0.0353109566493 0.954 1.60204147583e-38
0.0564975306389 0.0353109566493 0.954 1.61126103882e-38
0.0582630784714 0.0353109566493 0.954 1.45445658144e-38
0.0600286263038 0.0353109566493 0.954 1.39920800728e-38
0.0617941741363 0.0353109566493 0.954 2.182907435e-38
0.0635597219688 0.0353109566493 0.954 2.1643944606e-38
0.0124883823621 0.0374651470864 0.964 2.34961122525e-38
0.0142724369853 0.0374651470864 0.964 1.19630251198e-38
0.0159732110503 0.0372708257841 0.959 1.51913421271e-38
0.0177480122781 0.0372708257841 0.959 1.44538149232e-38
0.019522813506 0.0372708257841 0.959 1.611331384e-38
0.0212309902873 0.0371542330027 0.956 1.41811558733e-38
0.0230002394779 0.0371542330027 0.956 1.49169258488e-38
0.0247694886685 0.0371542330027 0.956 1.4270852988e-38
0.0265387378591 0.0371542330027 0.956 1.39932039141e-38
0.0283079870497 0.0371542330027 0.956 1.42690929571e-38
0.0300143131519 0.0370765044818 0.954 1.48226016466e-38
0.0317798609844 0.0370765044818 0.954 1.28872150882e-38
0.0335454088169 0.0370765044818 0.954 1.27943005922e-38
0.0353849838121 0.0371542330027 0.956 1.36251430634e-38
0.0371542330027 0.0371542330027 0.956 1.35336536879e-38
0.0389234821933 0.0371542330027 0.956 1.54672381765e-38
0.0406927313839 0.0371542330027 0.956 1.52814091846e-38
0.0424619805745 0.0371542330027 0.956 1.528105886e-38
0.0442312297651 0.0371542330027 0.956 1.50066173583e-38
0.0460004789557 0.0371542330027 0.956 1.45488818137e-38
0.0477697281463 0.0371542330027 0.956 1.47318087165e-38
0.049538977337 0.0371542330027 0.956 1.50066201609e-38
