# .PCD v0.7 - Point Cloud Data file format
VERSION 0.7
FIELDS x y z rgb
SIZE 4 4 4 4
TYPE F F F F
COUNT 1 1 1 1
WIDTH 852
HEIGHT 1
VIEWPOINT 0 0 0 1 0 0 0
POINTS 852
DATA ascii
0.0348223773749 -0.132656675714 0.896 1.85110854514e-38
0.0365620157004 -0.132952784365 0.898 1.82345195813e-38
0.038223925505 -0.132952784365 0.898 1.8234851689e-38
0.0400190842026 -0.133396947342 0.901 1.84181695541e-38
0.0416865460443 -0.133396947342 0.901 1.7775321081e-38
0.0433540078861 -0.133396947342 0.901 1.7775321081e-38
0.0450214697279 -0.133396947342 0.901 1.95245143099e-38
0.0467925695976 -0.133693055993 0.903 1.85085673181e-38
0.0484637327975 -0.133693055993 0.903 1.86015056361e-38
0.0501348959974 -0.133693055993 0.903 1.8142302932e-38
0.0518060591973 -0.133693055993 0.903 1.84185226813e-38
0.0534772223972 -0.133693055993 0.903 1.8140505066e-38
-0.052781367067 -0.134507354784 0.92 1.87757010482e-38
-0.0510787423229 -0.134507354784 0.92 1.85898720563e-38
-0.0492687781928 -0.134214947491 0.918 2.05274026013e-38
-0.047414397765 -0.133776336551 0.915 1.98824017338e-38
-0.0456210897465 -0.133483929258 0.913 1.85970467044e-38
-0.0436908314768 -0.132752911026 0.908 1.3251656385e-38
-0.041917880928 -0.132460503733 0.906 3.03057137321e-39
-0.0402411656909 -0.132460503733 0.906 7.08756024038e-39
-0.038436753598 -0.132021892793 0.903 6.62542882243e-39
-0.0363991559423 -0.130706059975 0.894 1.26152777069e-38
-0.0344725990308 -0.129682634449 0.887 1.16918542488e-38
-0.0327570195332 -0.129390227156 0.885 1.22446692955e-38
-0.0308730282403 -0.128366801631 0.878 1.15996558163e-38
-0.0292481320171 -0.128366801631 0.878 1.17833282099e-38
-0.0275288511614 -0.127928190691 0.875 1.07681197024e-38
-0.0259095069754 -0.127928190691 0.875 1.56526355686e-38
-0.0242346424173 -0.127635783398 0.873 1.84217821016e-38
-0.0226189995895 -0.127635783398 0.873 1.77753154758e-38
-0.0210514744175 -0.127928190691 0.875 1.80512213344e-38
-0.0194321302315 -0.127928190691 0.875 2.01706278084e-38
-0.0178127860456 -0.127928190691 0.875 1.15053890673e-38
-0.0162489622317 -0.128366801631 0.878 6.98102652463e-39
-0.0146240660085 -0.128366801631 0.878 1.29711668792e-38
-0.0129991697854 -0.128366801631 0.878 1.76899820045e-38
-0.0113742735622 -0.128366801631 0.878 1.72315149821e-38
-0.00977158548786 -0.128659208924 0.88 1.08660536495e-38
-0.00814298790655 -0.128659208924 0.88 1.88867231229e-38
-0.00651439032524 -0.128659208924 0.88 2.05411899769e-38
-0.00488579274393 -0.128659208924 0.88 1.83670992316e-39
-0.0032645978789 -0.128951616217 0.882 5.04467447157e-44
-0.00163229893945 -0.128951616217 0.882 1.84118006526e-40
0.0 -0.129390227156 0.885 5.46506401087e-44
0.00163785097666 -0.129390227156 0.885 4.59249227271e-39
0.00327570195332 -0.129390227156 0.885 1.39935850673e-38
0.00492465700439 -0.129682634449 0.887 5.32646157976e-39
0.00656620933919 -0.129682634449 0.887 2.11221641163e-39
0.00820776167399 -0.129682634449 0.887 7.34762441978e-40
0.00987152215763 -0.129975041742 0.889 4.59251749609e-40
0.0115167758506 -0.129975041742 0.889 5.6051938573e-44
0.0131620295435 -0.129975041742 0.889 1.01358131976e-38
0.0148072832364 -0.129975041742 0.889 1.93491305967e-38
0.0164895505108 -0.130267449035 0.891 1.97117740276e-38
0.0181385055618 -0.130267449035 0.891 1.71357712645e-38
0.0198540850594 -0.130706059975 0.894 5.329706987e-39
0.0215085921477 -0.130706059975 0.894 2.38772290011e-39
0.023163099236 -0.130706059975 0.894 1.40129846432e-44
0.0248176063243 -0.130706059975 0.894 1.44607345351e-38
0.0265313351428 -0.130998467268 0.896 1.88853330349e-38
0.0281895435892 -0.130998467268 0.896 1.84210254004e-38
0.0298477520357 -0.130998467268 0.896 1.82355733577e-38
0.0315059604821 -0.130998467268 0.896 1.81430274033e-38
0.0332381960913 -0.131290874561 0.898 1.80501101047e-38
0.0349001058959 -0.131290874561 0.898 1.80504632319e-38
0.0365620157004 -0.131290874561 0.898 1.79579116722e-38
0.038223925505 -0.131290874561 0.898 1.86021852659e-38
0.0400190842026 -0.1317294855 0.901 1.86014790114e-38
0.0416865460443 -0.1317294855 0.901 1.84181695541e-38
0.0433540078861 -0.1317294855 0.901 1.81430274033e-38
0.0450214697279 -0.1317294855 0.901 1.85085673181e-38
0.0467925695976 -0.132021892793 0.903 1.86929585778e-38
0.0484637327975 -0.132021892793 0.903 1.89720467851e-38
0.0501348959974 -0.132021892793 0.903 1.78667950422e-38
0.0518060591973 -0.132021892793 0.903 1.86029139411e-38
0.0534772223972 -0.132021892793 0.903 1.79571928061e-38
-0.052781367067 -0.13280473004 0.92 1.96994552128e-38
-0.0510787423229 -0.13280473004 0.92 1.79470361948e-38
-0.0492687781928 -0.132516024105 0.918 1.96973042196e-38
-0.047414397765 -0.132082965202 0.915 1.92366763949e-38
-0.0456210897465 -0.131794259268 0.913 1.77676629849e-38
-0.0436908314768 -0.13107249443 0.908 1.40828295626e-38
-0.041917880928 -0.130783788496 0.906 3.49333617807e-39
-0.0401079167979 -0.130350729593 0.903 1.10203856558e-39
-0.038436753598 -0.130350729593 0.903 9.02114472898e-39
-0.0365620157004 -0.129628964756 0.898 1.16976135855e-38
-0.0346280560726 -0.128618493984 0.891 1.16914857073e-38
-0.0327570195332 -0.127752376179 0.885 1.16911325801e-38
-0.0308730282403 -0.126741905407 0.878 1.17836785345e-38
-0.0292481320171 -0.126741905407 0.878 1.23347027219e-38
-0.0275288511614 -0.126308846505 0.875 1.1044706592e-38
-0.0259095069754 -0.126308846505 0.875 1.52849250424e-38
-0.0242901627894 -0.126308846505 0.875 1.89742398172e-38
-0.0226708186035 -0.126308846505 0.875 1.74980083188e-38
-0.0211236509012 -0.126741905407 0.878 1.74969517398e-38
-0.0194987546781 -0.126741905407 0.878 1.84210408147e-38
-0.0178738584549 -0.126741905407 0.878 1.92508042861e-38
-0.0162489622317 -0.126741905407 0.878 1.75974360501e-38
-0.0146240660085 -0.126741905407 0.878 1.19730850415e-38
-0.0130287806505 -0.127030611342 0.88 3.48978949166e-39
-0.0114001830692 -0.127030611342 0.88 4.48415508584e-44
-0.00977158548786 -0.127030611342 0.88 4.34402523941e-44
-0.00814298790655 -0.127030611342 0.88 2.08257054132e-38
-0.0065291957578 -0.127319317277 0.882 1.63959837662e-38
-0.00489689681835 -0.127319317277 0.882 2.75563941711e-40
-0.00327570195332 -0.127752376179 0.885 7.56701170735e-44
-0.00163785097666 -0.127752376179 0.885 5.74532370373e-44
0.0 -0.128041082114 0.887 5.184804318e-44
0.0016415523348 -0.128041082114 0.887 2.06377212242e-38
0.0032831046696 -0.128041082114 0.887 1.97107258563e-38
0.00492465700439 -0.128041082114 0.887 2.11851496797e-38
0.00658101477175 -0.128329788049 0.889 2.38772290011e-39
0.00822626846469 -0.128329788049 0.889 4.90454462514e-44
0.00987152215763 -0.128329788049 0.889 2.755737508e-40
0.0115426853575 -0.128618493984 0.891 6.58610278233e-44
0.0131916404086 -0.128618493984 0.891 2.39606763246e-39
0.0148405954597 -0.128618493984 0.891 2.19295320356e-38
0.0164895505108 -0.128618493984 0.891 1.51959916354e-38
0.0181995779711 -0.129051552886 0.894 7.34683969264e-40
0.0198540850594 -0.129051552886 0.894 4.48415508584e-44
0.0215567098035 -0.129340258821 0.896 9.18418020011e-40
0.02321491825 -0.129340258821 0.896 6.86636247519e-44
0.0248731266964 -0.129340258821 0.896 3.92363570011e-44
0.0265313351428 -0.129340258821 0.896 1.87921242662e-38
0.0281895435892 -0.129340258821 0.896 1.78678796472e-38
0.0298477520357 -0.129340258821 0.896 1.83259739243e-38
0.0315762862867 -0.129628964756 0.898 1.841779821e-38
0.0332381960913 -0.129628964756 0.898 1.84181695541e-38
0.0349001058959 -0.129628964756 0.898 1.86947606476e-38
0.0365620157004 -0.129628964756 0.898 1.74058379123e-38
0.0383516223608 -0.130062023658 0.901 1.95241611827e-38
0.0401079167979 -0.130350729593 0.903 1.81423085371e-38
0.0417790799978 -0.130350729593 0.903 1.8878788971e-38
0.0434502431977 -0.130350729593 0.903 1.80511764928e-38
0.0451214063976 -0.130350729593 0.903 1.84188884202e-38
0.0467925695976 -0.130350729593 0.903 1.84178136243e-38
0.0484637327975 -0.130350729593 0.903 1.7957558545e-38
0.0501348959974 -0.130350729593 0.903 1.8234504167e-38
0.0518060591973 -0.130350729593 0.903 1.80486849841e-38
0.0534772223972 -0.130350729593 0.903 1.93386839166e-38
-0.0526666249647 -0.130817100719 0.918 1.90526368611e-38
-0.0509677015787 -0.130817100719 0.918 1.82239692052e-38
-0.0492687781928 -0.130817100719 0.918 1.98824017338e-38
-0.047414397765 -0.130389593854 0.915 1.9422553031e-38
-0.0456210897465 -0.130104589277 0.913 1.74003224016e-38
-0.0436908314768 -0.129392077835 0.908 1.27016915793e-38
-0.041917880928 -0.129107073258 0.906 1.37753244237e-39
-0.0401079167979 -0.128679566393 0.903 1.16093443939e-38
-0.0383516223608 -0.128394561817 0.901 6.5300060022e-39
-0.0365620157004 -0.127967054951 0.898 1.22471734159e-38
-0.034744648854 -0.127397045798 0.894 1.20606718007e-38
-0.032831046696 -0.126399529779 0.887 1.20599108956e-38
-0.0310136798495 -0.125687018338 0.882 1.19676998515e-38
-0.0292481320171 -0.125117009184 0.878 1.20588571192e-38
-0.0275288511614 -0.124689502319 0.875 1.13209361504e-38
-0.0259095069754 -0.124689502319 0.875 1.64838367722e-38
-0.0242901627894 -0.124689502319 0.875 1.8328517281e-38
-0.0226708186035 -0.124689502319 0.875 1.7867150972e-38
-0.0211236509012 -0.125117009184 0.878 1.78667978448e-38
-0.0194987546781 -0.125117009184 0.878 2.00798390822e-38
-0.0178738584549 -0.125117009184 0.878 6.53108219942e-39
-0.0162859758131 -0.125402013761 0.88 2.94272677508e-44
-0.0146573782318 -0.125402013761 0.88 6.0255833966e-44
-0.0130287806505 -0.125402013761 0.88 6.30584308946e-44
-0.0114001830692 -0.125402013761 0.88 4.59257354802e-40
-0.00977158548786 -0.125402013761 0.88 3.22298646795e-44
-0.00816149469725 -0.125687018338 0.882 2.28500435956e-38
-0.0065291957578 -0.125687018338 0.882 2.8469003809e-39
-0.00489689681835 -0.125687018338 0.882 1.68155815719e-44
-0.00327570195332 -0.126114525203 0.885 7.34763843276e-40
-0.00163785097666 -0.126114525203 0.885 5.32493416443e-44
0.0 -0.126399529779 0.887 1.08719222874e-38
0.0016415523348 -0.126399529779 0.887 1.88870916644e-38
0.0032831046696 -0.126399529779 0.887 1.84188856176e-38
0.00493576107881 -0.126684534356 0.889 2.05397802707e-38
0.00658101477175 -0.126684534356 0.889 2.38772290011e-39
0.00822626846469 -0.126684534356 0.889 3.22298646795e-44
0.00989373030646 -0.126969538933 0.891 2.75579355994e-40
0.0115426853575 -0.126969538933 0.891 7.42688186092e-44
0.0131916404086 -0.126969538933 0.891 3.64337600724e-44
0.0148405954597 -0.126969538933 0.891 2.32170282491e-38
0.0165450708829 -0.127397045798 0.894 2.66322938858e-39
0.0182402929107 -0.127682050375 0.896 5.32493416443e-44
0.0198985013571 -0.127682050375 0.896 1.46944080605e-39
0.0215567098035 -0.127682050375 0.896 1.46944921384e-39
0.02321491825 -0.127682050375 0.896 1.74495009712e-39
0.0248731266964 -0.127682050375 0.896 4.62428493227e-44
0.026590556873 -0.127967054951 0.898 2.05359351077e-38
0.0282524666776 -0.127967054951 0.898 1.78682593991e-38
0.0299143764822 -0.127967054951 0.898 1.79568606984e-38
0.0315762862867 -0.127967054951 0.898 1.93394266048e-38
0.0332381960913 -0.127967054951 0.898 1.86018321387e-38
0.0350166986772 -0.128394561817 0.901 1.86940179594e-38
0.036684160519 -0.128394561817 0.901 1.80504632319e-38
0.0383516223608 -0.128394561817 0.901 1.84192359423e-38
0.0401079167979 -0.128679566393 0.903 1.81433749253e-38
0.0417790799978 -0.128679566393 0.903 1.80522582952e-38
0.0434502431977 -0.128679566393 0.903 1.80522582952e-38
0.0451214063976 -0.128679566393 0.903 1.8051905168e-38
0.0467925695976 -0.128679566393 0.903 1.81430091864e-38
0.0484637327975 -0.128679566393 0.903 1.82345013644e-38
0.0501348959974 -0.128679566393 0.903 1.81426714734e-38
0.0518060591973 -0.128679566393 0.903 1.87851542077e-38
0.0534772223972 -0.128679566393 0.903 1.86000412792e-38
-0.0526666249647 -0.129118177333 0.918 1.93270671524e-38
-0.0509677015787 -0.129118177333 0.918 1.89622376959e-38
-0.0492687781928 -0.129118177333 0.918 1.92377427831e-38
-0.047414397765 -0.128696222505 0.915 1.96987139259e-38
-0.0456210897465 -0.128414919286 0.913 1.63843852188e-38
-0.0436908314768 -0.12771166124 0.908 1.25151255043e-38
-0.041917880928 -0.127430358021 0.906 9.75829918743e-39
-0.0401079167979 -0.127008403193 0.903 1.21546512835e-38
-0.0383516223608 -0.126727099975 0.901 1.32577324151e-38
-0.0365620157004 -0.126305145147 0.898 1.11411958003e-38
-0.034744648854 -0.12574253871 0.894 1.2062429029e-38
-0.0329050738588 -0.125039280663 0.889 1.20595577684e-38
-0.0311191685565 -0.124476674226 0.885 1.17844002032e-38
-0.0292481320171 -0.123492112961 0.878 1.22443063592e-38
-0.0275288511614 -0.123070158133 0.875 9.84795846708e-39
-0.0259095069754 -0.123070158133 0.875 1.67607781903e-38
-0.0242901627894 -0.123070158133 0.875 1.83281613512e-38
-0.0226708186035 -0.123070158133 0.875 1.80501073021e-38
-0.0211236509012 -0.123492112961 0.878 1.88799030033e-38
-0.0195431709757 -0.12377341618 0.88 1.91575338603e-38
-0.0179145733944 -0.12377341618 0.88 1.25234267964e-38
-0.0162859758131 -0.12377341618 0.88 5.51017180843e-40
-0.014690690455 -0.124054719398 0.882 1.10210863051e-39
-0.0130583915156 -0.124054719398 0.882 8.26593734241e-40
-0.0114260925761 -0.124054719398 0.882 1.19393852147e-39
-0.0097937936367 -0.124054719398 0.882 2.38220738935e-44
-0.00818925488329 -0.124476674226 0.885 2.34925487505e-38
-0.00655140390664 -0.124476674226 0.885 1.46936793853e-39
-0.00491355292998 -0.124476674226 0.885 4.20389539297e-44
-0.0032831046696 -0.124757977445 0.887 1.83738254642e-40
-0.0016415523348 -0.124757977445 0.887 5.6051938573e-44
0.0 -0.124757977445 0.887 1.50113649575e-38
0.00164525369294 -0.125039280663 0.889 1.84235841714e-38
0.00329050738588 -0.125039280663 0.889 1.80508107539e-38
0.00493576107881 -0.125039280663 0.889 2.1277676016e-38
0.00658101477175 -0.125039280663 0.889 1.92854541932e-39
0.00824477525538 -0.125320583882 0.891 5.46506401087e-44
0.00989373030646 -0.125320583882 0.891 1.01027733824e-39
0.0115426853575 -0.125320583882 0.891 6.86636247519e-44
0.0132360567063 -0.12574253871 0.894 3.78350585368e-44
0.0148905637946 -0.12574253871 0.894 2.34928948713e-38
0.0165820844643 -0.126023841928 0.896 3.03057137321e-39
0.0182402929107 -0.126023841928 0.896 4.60332150725e-40
0.0198985013571 -0.126023841928 0.896 1.46942539176e-39
0.0215567098035 -0.126023841928 0.896 1.65312300875e-39
0.02321491825 -0.126023841928 0.896 6.16571324303e-44
0.0249286470685 -0.126305145147 0.898 5.88545355016e-44
0.026590556873 -0.126305145147 0.898 1.95292633104e-38
0.0282524666776 -0.126305145147 0.898 1.82348839189e-38
0.0299143764822 -0.126305145147 0.898 1.84196156941e-38
0.0315762862867 -0.126305145147 0.898 1.85107351268e-38
0.0333492368355 -0.126727099975 0.901 1.86951137748e-38
0.0350166986772 -0.126727099975 0.901 1.83259739243e-38
0.0367655903981 -0.127008403193 0.903 1.80494038503e-38
0.038436753598 -0.127008403193 0.903 1.8327432676e-38
0.0401079167979 -0.127008403193 0.903 1.77746022149e-38
0.0417790799978 -0.127008403193 0.903 1.81437280525e-38
0.0434502431977 -0.127008403193 0.903 1.82352076188e-38
0.0452713114023 -0.127430358021 0.906 1.81426560592e-38
0.0469480266394 -0.127430358021 0.906 1.85114371773e-38
0.0486247418765 -0.127430358021 0.906 1.91571597136e-38
0.0503014571137 -0.127430358021 0.906 1.82348671033e-38
0.0519781723508 -0.127430358021 0.906 1.88769770921e-38
0.0536548875879 -0.127430358021 0.906 1.92468778478e-38
-0.0509677015787 -0.127419253947 0.918 1.97906138818e-38
-0.0492687781928 -0.127419253947 0.918 1.94214389988e-38
-0.047414397765 -0.127002851156 0.915 2.02519507635e-38
-0.0456210897465 -0.126725249296 0.913 1.71219600668e-38
-0.0436908314768 -0.126031244645 0.908 1.26076546432e-38
-0.041917880928 -0.125753642784 0.906 1.20613598382e-38
-0.0401079167979 -0.125337239993 0.903 1.22446720981e-38
-0.0383516223608 -0.125059638133 0.901 1.31673346512e-38
-0.0365620157004 -0.124643235342 0.898 9.57174292158e-39
-0.034744648854 -0.124088031621 0.894 1.08671480636e-38
-0.032831046696 -0.12311642511 0.887 1.23397824288e-38
-0.0311191685565 -0.122838823249 0.885 1.22450252253e-38
-0.0293813809101 -0.122422420459 0.882 1.24290479436e-38
-0.0276232357939 -0.121867216738 0.878 1.0585523506e-38
-0.0259095069754 -0.121450813947 0.875 1.64845668487e-38
-0.0242901627894 -0.121450813947 0.875 1.85132490562e-38
-0.0226708186035 -0.121450813947 0.875 1.81433749253e-38
-0.0211236509012 -0.121867216738 0.878 1.78653629151e-38
-0.0195431709757 -0.122144818598 0.88 1.934120205e-38
-0.0179145733944 -0.122144818598 0.88 1.80533695249e-38
-0.0162859758131 -0.122144818598 0.88 2.02041314534e-39
-0.014690690455 -0.122422420459 0.882 8.26589530345e-40
-0.0130583915156 -0.122422420459 0.882 4.59243341818e-40
-0.0114649568366 -0.122838823249 0.885 7.34748428993e-40
-0.00982710585995 -0.122838823249 0.885 4.06376554654e-44
-0.00818925488329 -0.122838823249 0.885 2.34861602308e-38
-0.00656620933919 -0.12311642511 0.887 1.46936793853e-39
-0.00492465700439 -0.12311642511 0.887 4.62428493227e-44
-0.0032831046696 -0.12311642511 0.887 2.75584961188e-40
-0.0016415523348 -0.12311642511 0.887 5.88545355016e-44
0.0 -0.12339402697 0.889 3.68535890924e-39
0.00164525369294 -0.12339402697 0.889 2.09139325658e-38
0.00329050738588 -0.12339402697 0.889 2.00784167643e-38
0.00494686515323 -0.123671628831 0.891 2.09114172351e-38
0.00659582020431 -0.123671628831 0.891 1.46936793853e-39
0.00824477525538 -0.123671628831 0.891 9.26090129103e-41
0.00992704252972 -0.124088031621 0.894 9.184278291e-40
0.011581549618 -0.124088031621 0.894 1.10210162401e-39
0.0132656675714 -0.124365633482 0.896 3.36311631438e-44
0.0149238760178 -0.124365633482 0.896 2.22008066028e-38
0.0165820844643 -0.124365633482 0.896 2.75506488474e-39
0.0182402929107 -0.124365633482 0.896 4.62428493227e-44
0.0199429176548 -0.124643235342 0.898 4.48415508584e-44
0.0216048274593 -0.124643235342 0.898 5.32493416443e-44
0.0232667372639 -0.124643235342 0.898 1.83704623479e-40
0.0249286470685 -0.124643235342 0.898 1.96192883289e-38
0.026590556873 -0.124643235342 0.898 1.85143504768e-38
0.0282524666776 -0.124643235342 0.898 1.82337754918e-38
0.0299143764822 -0.124643235342 0.898 1.82334251672e-38
0.0316817749937 -0.125059638133 0.901 1.8234504167e-38
0.0333492368355 -0.125059638133 0.901 1.84196184967e-38
0.0350944271982 -0.125337239993 0.903 1.85103623814e-38
0.0367655903981 -0.125337239993 0.903 1.82345013644e-38
0.0385644504538 -0.125753642784 0.906 1.83277703889e-38
0.0402411656909 -0.125753642784 0.906 1.88798707735e-38
0.041917880928 -0.125753642784 0.906 1.80508289708e-38
0.0435945961652 -0.125753642784 0.906 1.82348544916e-38
0.0452713114023 -0.125753642784 0.906 1.80501101047e-38
0.0469480266394 -0.125753642784 0.906 1.81426588618e-38
0.0486247418765 -0.125753642784 0.906 1.86929585778e-38
0.0503014571137 -0.125753642784 0.906 1.89698943907e-38
0.0519781723508 -0.125753642784 0.906 1.84174478854e-38
0.0536548875879 -0.125753642784 0.906 1.93412118591e-38
-0.0493761175788 -0.125994231063 0.92 1.93288720248e-38
-0.047414397765 -0.125309479807 0.915 2.03444714946e-38
-0.0456210897465 -0.125035579305 0.913 1.70304622836e-38
-0.0436908314768 -0.124350828049 0.908 1.20563221702e-38
-0.0420104148815 -0.124350828049 0.908 1.2429782224e-38
-0.0401079167979 -0.123666076794 0.903 1.21535526655e-38
-0.038436753598 -0.123666076794 0.903 1.2614160872e-38
-0.0365620157004 -0.122981325538 0.898 1.09539585034e-38
-0.034744648854 -0.122433524533 0.894 6.81053754697e-39
-0.032831046696 -0.121474872775 0.887 8.09660723857e-39
-0.0311191685565 -0.121200972273 0.885 1.22464573524e-38
-0.0293813809101 -0.120790121519 0.882 1.26127315476e-38
-0.0276232357939 -0.120242320515 0.878 1.05848074425e-38
-0.0259983395707 -0.120242320515 0.878 1.76806017126e-38
-0.0243734433476 -0.120242320515 0.878 1.82373880392e-38
-0.0227485471244 -0.120242320515 0.878 1.82348544916e-38
-0.021171768557 -0.120516221017 0.88 1.80504632319e-38
-0.0195431709757 -0.120516221017 0.88 1.85107351268e-38
-0.0179145733944 -0.120516221017 0.88 1.94355781003e-38
-0.0163229893945 -0.120790121519 0.882 3.30610308506e-39
-0.0147406587899 -0.121200972273 0.885 2.75570948203e-40
-0.0131028078133 -0.121200972273 0.885 7.34748428993e-40
-0.0114908663436 -0.121474872775 0.887 9.18419421309e-40
-0.00984931400879 -0.121474872775 0.887 4.7644147787e-44
-0.00820776167399 -0.121474872775 0.887 2.12720778286e-38
-0.00656620933919 -0.121474872775 0.887 2.9408882715e-39
-0.00492465700439 -0.121474872775 0.887 1.82168800362e-44
-0.00329050738588 -0.121748773277 0.889 1.83750866328e-40
-0.00164525369294 -0.121748773277 0.889 7.34748428993e-40
0.0 -0.121748773277 0.889 3.08285662151e-44
0.00164895505108 -0.12202267378 0.891 1.40049481966e-38
0.00329791010215 -0.12202267378 0.891 1.78721802322e-38
0.00496352126486 -0.122433524533 0.894 2.93873587706e-39
0.00661802835314 -0.122433524533 0.894 9.1835496158e-41
0.00827253544143 -0.122433524533 0.894 1.19393151498e-39
0.00992704252972 -0.122433524533 0.894 4.59243341818e-40
0.011607459125 -0.122707425035 0.896 5.74532370373e-44
0.0132656675714 -0.122707425035 0.896 2.66246708222e-44
0.0149238760178 -0.122707425035 0.896 2.01685735049e-38
0.0165820844643 -0.122707425035 0.896 1.95299261246e-38
0.0182402929107 -0.122707425035 0.896 1.19706285653e-38
0.0199429176548 -0.122981325538 0.898 9.47887046456e-39
0.0216048274593 -0.122981325538 0.898 1.53803997107e-38
0.0232667372639 -0.122981325538 0.898 1.91614771141e-38
0.0249286470685 -0.122981325538 0.898 1.86043909097e-38
0.0266793894684 -0.123392176291 0.901 1.86951263865e-38
0.0283468513102 -0.123392176291 0.901 1.86036342085e-38
0.0300809375984 -0.123666076794 0.903 1.92468484205e-38
0.0317521007983 -0.123666076794 0.903 1.88787763594e-38
0.0335343047424 -0.124076927547 0.906 1.84181667515e-38
0.0352110199796 -0.124076927547 0.906 1.80508107539e-38
0.0368877352167 -0.124076927547 0.906 1.80504604293e-38
0.0385644504538 -0.124076927547 0.906 1.8143359511e-38
0.0402411656909 -0.124076927547 0.906 1.82352076188e-38
0.041917880928 -0.124076927547 0.906 1.80504576267e-38
0.0435945961652 -0.124076927547 0.906 1.88794952255e-38
0.0452713114023 -0.124076927547 0.906 1.85111078722e-38
0.0469480266394 -0.124076927547 0.906 1.83274200643e-38
0.0486247418765 -0.124076927547 0.906 1.87848206986e-38
0.0503014571137 -0.124076927547 0.906 1.86004098207e-38
0.0519781723508 -0.124076927547 0.906 1.88780701049e-38
0.0536548875879 -0.124076927547 0.906 1.90639075047e-38
-0.0493761175788 -0.124291606319 0.92 1.85916657183e-38
-0.0475698548068 -0.124021407175 0.918 1.95143254688e-38
-0.0457210264162 -0.123616108459 0.915 1.67535208655e-38
-0.0437870667884 -0.122940610598 0.91 1.18719295092e-38
-0.0420104148815 -0.122670411454 0.908 1.19691445902e-38
-0.0402411656909 -0.12240021231 0.906 1.20616975512e-38
-0.038436753598 -0.121994913594 0.903 1.29832937161e-38
-0.036684160519 -0.121724714449 0.901 1.07695672437e-38
-0.0348223773749 -0.121049216589 0.896 1.0591993301e-38
-0.0329050738588 -0.120103519584 0.889 6.72088807642e-39
-0.0311894943612 -0.11983332044 0.887 1.26159811587e-38
-0.0293813809101 -0.11915782258 0.882 1.26138091461e-38
-0.0276232357939 -0.118617424291 0.878 1.09539360826e-38
-0.0259983395707 -0.118617424291 0.878 1.74965635801e-38
-0.0243734433476 -0.118617424291 0.878 1.82370251029e-38
-0.0227485471244 -0.118617424291 0.878 1.82337726892e-38
-0.021171768557 -0.118887623436 0.88 1.79571956087e-38
-0.0195431709757 -0.118887623436 0.88 1.88791449009e-38
-0.0179552883339 -0.11915782258 0.882 2.0633752747e-38
-0.0163785097666 -0.119563121296 0.885 1.65303893084e-39
-0.0147406587899 -0.119563121296 0.885 1.84098388348e-40
-0.0131324186784 -0.11983332044 0.887 8.26590931644e-40
-0.0114908663436 -0.11983332044 0.887 1.19394132407e-39
-0.00984931400879 -0.11983332044 0.887 6.16571324303e-44
-0.00820776167399 -0.11983332044 0.887 1.47398353541e-38
-0.00656620933919 -0.11983332044 0.887 1.70424616024e-38
-0.00493576107881 -0.120103519584 0.889 3.67341984632e-39
-0.00329050738588 -0.120103519584 0.889 8.26623161508e-40
-0.00164525369294 -0.120103519584 0.889 4.59257354802e-40
0.0 -0.120373718729 0.891 1.10209882142e-39
0.00164895505108 -0.120373718729 0.891 4.48415508584e-44
0.00329791010215 -0.120373718729 0.891 3.64337600724e-44
0.00496352126486 -0.120779017445 0.894 4.62428493227e-44
0.00661802835314 -0.120779017445 0.894 5.04467447157e-44
0.00827253544143 -0.120779017445 0.894 2.94272677508e-44
0.00994925067855 -0.121049216589 0.896 5.46506401087e-44
0.011607459125 -0.121049216589 0.896 2.66324760546e-39
0.0132952784365 -0.121319415733 0.898 6.88775750014e-39
0.0149571882411 -0.121319415733 0.898 2.07149411774e-38
0.0166190980456 -0.121319415733 0.898 1.86961983798e-38
0.0182810078502 -0.121319415733 0.898 1.93412370824e-38
0.0199429176548 -0.121319415733 0.898 1.8512895929e-38
0.0216770039431 -0.121724714449 0.901 1.86047286226e-38
0.0233444657848 -0.121724714449 0.901 1.83274228669e-38
0.0250119276266 -0.121724714449 0.901 1.83252648672e-38
0.0266793894684 -0.121724714449 0.901 1.83256207971e-38
0.0284097743985 -0.121994913594 0.903 1.8233419562e-38
0.0300809375984 -0.121994913594 0.903 1.80497569775e-38
0.0318575895053 -0.12240021231 0.906 1.83256207971e-38
0.0335343047424 -0.12240021231 0.906 1.86022090879e-38
0.0352110199796 -0.12240021231 0.906 1.80508541942e-38
0.0368877352167 -0.12240021231 0.906 1.81426714734e-38
0.038649581691 -0.122670411454 0.908 1.93393971776e-38
0.0403299982863 -0.122670411454 0.908 1.8786226201e-38
0.0420104148815 -0.122670411454 0.908 1.76824037825e-38
0.0436908314768 -0.122670411454 0.908 1.80493940412e-38
0.0453712480721 -0.122670411454 0.908 1.84156682364e-38
0.0470516646673 -0.122670411454 0.908 1.86025650178e-38
0.0487320812626 -0.122670411454 0.908 1.86025650178e-38
0.0504124978578 -0.122670411454 0.908 1.86014790114e-38
0.0520929144531 -0.122670411454 0.908 1.87858632647e-38
0.0537733310484 -0.122670411454 0.908 1.95230723738e-38
-0.0493761175788 -0.122588981575 0.92 1.86845774117e-38
-0.0475698548068 -0.122322483789 0.918 1.98827674727e-38
-0.0458709314209 -0.122322483789 0.918 1.63854614161e-38
-0.0440276550675 -0.12192273711 0.915 1.20563221702e-38
-0.0422417497652 -0.121656239324 0.913 1.22450252253e-38
-0.0402411656909 -0.120723497073 0.906 1.23372208552e-38
-0.0385644504538 -0.120723497073 0.906 1.30744355695e-38
-0.036684160519 -0.120057252608 0.901 8.37390738908e-39
-0.0348223773749 -0.119391008143 0.896 6.44072367185e-39
-0.0329050738588 -0.118458265892 0.889 9.39668430963e-39
-0.0311894943612 -0.118191768105 0.887 1.20656940544e-38
-0.0294813175799 -0.117925270319 0.885 1.25219652421e-38
-0.0277490819706 -0.11752552364 0.882 1.10464848397e-38
-0.0259983395707 -0.116992528068 0.878 1.76809520372e-38
-0.0243734433476 -0.116992528068 0.878 1.80522779134e-38
-0.0227485471244 -0.116992528068 0.878 1.9156457663e-38
-0.021171768557 -0.117259025854 0.88 1.79579116722e-38
-0.0195875872734 -0.11752552364 0.882 1.85114371773e-38
-0.0179552883339 -0.11752552364 0.882 2.05408368497e-38
-0.0163785097666 -0.117925270319 0.885 1.28569694621e-39
-0.0147739710132 -0.118191768105 0.887 9.26090129103e-41
-0.0131324186784 -0.118191768105 0.887 6.42924143223e-40
-0.0114908663436 -0.118191768105 0.887 4.59243341818e-40
-0.00987152215763 -0.118458265892 0.889 5.6051938573e-44
-0.00822626846469 -0.118458265892 0.889 5.80656465052e-39
-0.00658101477175 -0.118458265892 0.889 2.20213619266e-38
-0.00493576107881 -0.118458265892 0.889 1.65303893084e-39
-0.00329050738588 -0.118458265892 0.889 6.72623262876e-44
-0.00164895505108 -0.118724763678 0.891 4.59265762593e-40
0.0 -0.119124510357 0.894 9.19013571858e-41
0.00165450708829 -0.119124510357 0.894 4.59257354802e-40
0.00330901417657 -0.119124510357 0.894 7.28675201449e-44
0.00497462533928 -0.119391008143 0.896 4.34402523941e-44
0.0066328337857 -0.119391008143 0.896 9.38748618651e-39
0.00829104223213 -0.119391008143 0.896 1.10430068169e-38
0.00994925067855 -0.119391008143 0.896 1.77792293024e-38
0.011607459125 -0.119391008143 0.896 1.98047179508e-38
0.0132952784365 -0.119657505929 0.898 2.01691774645e-38
0.0149571882411 -0.119657505929 0.898 1.91546808166e-38
0.0166190980456 -0.119657505929 0.898 1.8234504167e-38
0.0182810078502 -0.119657505929 0.898 1.85107351268e-38
0.0200095421013 -0.120057252608 0.901 1.82348572942e-38
0.0216770039431 -0.120057252608 0.901 1.84185324904e-38
0.0233444657848 -0.120057252608 0.901 1.83256207971e-38
0.0250674479987 -0.120323750394 0.903 1.80493912386e-38
0.0267386111986 -0.120323750394 0.903 1.82330748426e-38
0.0285041590311 -0.120723497073 0.906 1.94330445526e-38
0.0301808742682 -0.120723497073 0.906 1.82352230331e-38
0.0318575895053 -0.120723497073 0.906 1.82338007152e-38
0.0335343047424 -0.120723497073 0.906 1.87858772777e-38
0.0352110199796 -0.120723497073 0.906 1.80508135565e-38
0.0368877352167 -0.120723497073 0.906 1.8050473041e-38
0.038649581691 -0.120989994859 0.908 1.85089148401e-38
0.0403299982863 -0.120989994859 0.908 1.86000468844e-38
0.0420104148815 -0.120989994859 0.908 1.89706342763e-38
0.0436908314768 -0.120989994859 0.908 1.8511811324e-38
0.0453712480721 -0.120989994859 0.908 1.8233419562e-38
0.0470516646673 -0.120989994859 0.908 1.86029139411e-38
0.0487320812626 -0.120989994859 0.908 1.85103623814e-38
0.0504124978578 -0.120989994859 0.908 1.84189122423e-38
0.0520929144531 -0.120989994859 0.908 1.91539339245e-38
0.0537733310484 -0.120989994859 0.908 1.89702839517e-38
-0.0513563441834 -0.121543347901 0.925 1.7208034825e-38
-0.0495371266579 -0.121280551473 0.923 1.93285791534e-38
-0.0476734928347 -0.120886356831 0.92 2.00683176062e-38
-0.0458709314209 -0.120623560403 0.918 1.61081766798e-38
-0.0440276550675 -0.120229365761 0.915 9.01458665216e-39
-0.0422417497652 -0.119966569333 0.913 1.22446973215e-38
-0.0403299982863 -0.119309578264 0.908 1.27056334319e-38
-0.0385644504538 -0.119046781836 0.906 1.24294192877e-38
-0.036684160519 -0.118389790766 0.901 1.16936507134e-38
-0.0349001058959 -0.117995596124 0.898 9.02360540908e-39
-0.0329791010215 -0.117075808626 0.891 9.02612914762e-39
-0.0311894943612 -0.116550215771 0.887 1.01288823754e-38
-0.0294813175799 -0.116287419343 0.885 1.27070669602e-38
-0.0277490819706 -0.115893224701 0.882 1.16921989682e-38
-0.026057561301 -0.115630428273 0.88 1.70381287875e-38
-0.0244289637197 -0.115630428273 0.88 1.78689628509e-38
-0.0228003661383 -0.115630428273 0.88 1.80512073214e-38
-0.0212198862128 -0.115893224701 0.882 1.7497652389e-38
-0.0195875872734 -0.115893224701 0.882 1.84203219486e-38
-0.0180163607432 -0.116287419343 0.885 2.05408494614e-38
-0.016415523348 -0.116550215771 0.887 1.37753244237e-39
-0.0147739710132 -0.116550215771 0.887 4.06376554654e-44
-0.0131620295435 -0.116813012199 0.889 2.75576553397e-40
-0.0115167758506 -0.116813012199 0.889 4.59243341818e-40
-0.00987152215763 -0.116813012199 0.889 5.88545355016e-44
-0.00822626846469 -0.116813012199 0.889 2.80259692865e-44
-0.00658101477175 -0.116813012199 0.889 2.05469675305e-38
-0.00493576107881 -0.116813012199 0.889 1.79622458884e-38
-0.00329791010215 -0.117075808626 0.891 3.21424236553e-39
-0.00164895505108 -0.117075808626 0.891 2.10194769649e-44
0.0 -0.117470003268 0.894 2.52233723578e-44
0.00165450708829 -0.117470003268 0.894 4.7644147787e-44
0.00331641689285 -0.117732799696 0.896 2.29592243641e-39
0.00497462533928 -0.117732799696 0.896 1.99866289123e-38
0.0066328337857 -0.117732799696 0.896 1.92540637063e-38
0.00829104223213 -0.117732799696 0.896 1.94355781003e-38
0.00997145882739 -0.117995596124 0.898 1.8419981433e-38
0.011633368632 -0.117995596124 0.898 1.97081867035e-38
0.0132952784365 -0.117995596124 0.898 1.89698943907e-38
0.0149571882411 -0.117995596124 0.898 1.85103679866e-38
0.0166190980456 -0.117995596124 0.898 1.85110658332e-38
0.0182810078502 -0.117995596124 0.898 1.82348544916e-38
0.0200095421013 -0.118389790766 0.901 1.80501101047e-38
0.0217251215989 -0.118652587194 0.903 1.82337726892e-38
0.0233962847988 -0.118652587194 0.903 1.92483001657e-38
0.0250674479987 -0.118652587194 0.903 1.77742490877e-38
0.026827443794 -0.119046781836 0.906 1.92475812996e-38
0.0285041590311 -0.119046781836 0.906 1.85110826488e-38
0.0301808742682 -0.119046781836 0.906 1.8234504167e-38
0.0318575895053 -0.119046781836 0.906 1.86929767947e-38
0.0336083319052 -0.119309578264 0.908 1.88770163285e-38
0.0352887485005 -0.119309578264 0.908 1.8418535293e-38
0.0369691650957 -0.119309578264 0.908 1.8602580432e-38
0.038649581691 -0.119309578264 0.908 1.85085645155e-38
0.0403299982863 -0.119309578264 0.908 1.91568065864e-38
0.0420104148815 -0.119309578264 0.908 1.82341482372e-38
0.0436908314768 -0.119309578264 0.908 1.82348544916e-38
0.0453712480721 -0.119309578264 0.908 1.87887471369e-38
0.0470516646673 -0.119309578264 0.908 1.85110854514e-38
0.0488394206486 -0.119572374691 0.91 1.86951081696e-38
0.0504124978578 -0.119309578264 0.908 1.86032838839e-38
0.0520929144531 -0.119309578264 0.908 1.89706216646e-38
0.0537733310484 -0.119309578264 0.908 1.8047604583e-38
-0.0513563441834 -0.119831469761 0.925 1.70225701707e-38
-0.0495371266579 -0.119572374691 0.923 1.85002225857e-38
-0.0476734928347 -0.119183732087 0.92 1.93331908267e-38
-0.0459708680906 -0.119183732087 0.92 1.5464606538e-38
-0.0441720080349 -0.118924637017 0.918 1.18740762985e-38
-0.0423342837187 -0.118535994412 0.915 9.94234432644e-39
-0.0403299982863 -0.117629161668 0.908 7.08677831584e-39
-0.0385644504538 -0.117370066599 0.906 1.25227107329e-38
-0.036684160519 -0.116722328924 0.901 1.24294192877e-38
-0.0349001058959 -0.11633368632 0.898 1.19691614058e-38
-0.0330901417657 -0.11581549618 0.894 8.83955046099e-39
-0.0312598201658 -0.115167758506 0.889 9.02073414853e-39
-0.0294813175799 -0.114649568366 0.885 1.31684038419e-38
-0.0278434666032 -0.114649568366 0.885 1.00316308607e-38
-0.026057561301 -0.114001830692 0.88 1.74058070838e-38
-0.0244289637197 -0.114001830692 0.88 1.8421431777e-38
-0.0228003661383 -0.114001830692 0.88 1.78667978448e-38
-0.0212198862128 -0.114260925761 0.882 1.83277703889e-38
-0.0196542117199 -0.114649568366 0.885 1.80501227164e-38
-0.0180163607432 -0.114649568366 0.885 2.02642499601e-38
-0.016415523348 -0.114908663436 0.887 5.42654511868e-39
-0.0147739710132 -0.114908663436 0.887 1.96181785005e-44
-0.0131620295435 -0.115167758506 0.889 2.75584961188e-40
-0.0115167758506 -0.115167758506 0.889 7.3476944847e-40
-0.00987152215763 -0.115167758506 0.889 1.83735452045e-40
-0.00822626846469 -0.115167758506 0.889 3.08285662151e-44
-0.00658101477175 -0.115167758506 0.889 1.93491488136e-38
-0.00494686515323 -0.115426853575 0.891 1.89735083394e-38
-0.00330901417657 -0.11581549618 0.894 1.95277611184e-38
-0.00165450708829 -0.11581549618 0.894 1.55644406458e-38
0.0 -0.11607459125 0.896 1.42769388272e-38
0.00165820844643 -0.11607459125 0.896 1.72271849698e-38
0.00331641689285 -0.11607459125 0.896 2.00820012857e-38
0.00498572941369 -0.11633368632 0.898 1.86054320744e-38
0.00664763921826 -0.11633368632 0.898 1.86032642657e-38
0.00830954902282 -0.11633368632 0.898 1.81430217981e-38
0.00997145882739 -0.11633368632 0.898 1.82345013644e-38
0.011633368632 -0.11633368632 0.898 1.81423057345e-38
0.0132952784365 -0.11633368632 0.898 1.8511088254e-38
0.015007156576 -0.116722328924 0.901 1.84174478854e-38
0.0166746184177 -0.116722328924 0.901 1.92475574775e-38
0.0183420802595 -0.116722328924 0.901 1.86958298383e-38
0.0200095421013 -0.116722328924 0.901 1.82348699059e-38
0.0217251215989 -0.116981423994 0.903 1.90646375812e-38
0.0233962847988 -0.116981423994 0.903 1.81448266705e-38
0.0250674479987 -0.116981423994 0.903 1.87876751436e-38
0.026827443794 -0.117370066599 0.906 1.83259739243e-38
0.0285041590311 -0.117370066599 0.906 1.84185226813e-38
0.0301808742682 -0.117370066599 0.906 1.93390496555e-38
0.03192791531 -0.117629161668 0.908 1.84171003634e-38
0.0336083319052 -0.117629161668 0.908 1.85121644512e-38
0.0352887485005 -0.117629161668 0.908 1.82352076188e-38
0.0369691650957 -0.117629161668 0.908 1.8510365184e-38
0.038649581691 -0.117629161668 0.908 1.89698943907e-38
0.0403299982863 -0.117629161668 0.908 1.88802589331e-38
0.0420104148815 -0.117629161668 0.908 1.81430246007e-38
0.0437870667884 -0.117888256738 0.91 1.82345013644e-38
0.0454711847418 -0.117888256738 0.91 1.86954795137e-38
0.0471553026952 -0.117888256738 0.91 1.81408988309e-38
0.0488394206486 -0.117888256738 0.91 1.86958326409e-38
0.050523538602 -0.117888256738 0.91 1.85110854514e-38
0.0520929144531 -0.117629161668 0.908 1.90628172945e-38
0.0537733310484 -0.117629161668 0.908 1.71249112014e-38
-0.0495371266579 -0.11786419791 0.923 1.85945355776e-38
-0.0478289498766 -0.11786419791 0.923 1.94253640358e-38
-0.0459708680906 -0.117481107343 0.92 1.50976120754e-38
-0.0441720080349 -0.117225713631 0.918 1.26116749685e-38
-0.0423342837187 -0.116842623064 0.915 8.92926719387e-39
-0.0403299982863 -0.115948745073 0.908 1.01292298974e-38
-0.0385644504538 -0.115693351361 0.906 1.07756376686e-38
-0.0367655903981 -0.115310260794 0.903 1.20627821562e-38
-0.0350166986772 -0.115054867082 0.901 1.26145111966e-38
-0.0331641689285 -0.114416382803 0.896 1.17858463433e-38
-0.0313301459705 -0.113777898524 0.891 1.0219977986e-38
-0.0295479420264 -0.113267111101 0.887 1.27992723991e-38
-0.0278434666032 -0.113011717389 0.885 1.14131387868e-38
-0.0261167830312 -0.112628626822 0.882 1.72210753085e-38
-0.0244289637197 -0.11237323311 0.88 1.84217849042e-38
-0.0228003661383 -0.11237323311 0.88 1.78657160424e-38
-0.0212920626966 -0.113011717389 0.885 1.88809399642e-38
-0.0196542117199 -0.113011717389 0.885 1.78664629344e-38
-0.0180570756828 -0.113267111101 0.887 1.97096244357e-38
-0.0164525369294 -0.113522504813 0.889 1.30766005756e-38
-0.0148072832364 -0.113522504813 0.889 2.75513494966e-40
-0.0131620295435 -0.113522504813 0.889 1.19395533705e-39
-0.0115426853575 -0.113777898524 0.891 1.10210162401e-39
-0.00989373030646 -0.113777898524 0.891 7.34748428993e-40
-0.00824477525538 -0.113777898524 0.891 3.08285662151e-44
-0.00659582020431 -0.113777898524 0.891 1.96228826595e-38
-0.00494686515323 -0.113777898524 0.891 1.7961173895e-38
-0.00330901417657 -0.114160989092 0.894 1.81433749253e-38
-0.00165820844643 -0.114416382803 0.896 1.8788381398e-38
0.0 -0.114416382803 0.896 1.89731580148e-38
0.00165820844643 -0.114416382803 0.896 1.87891366979e-38
0.00332381960913 -0.114671776515 0.898 1.87883940097e-38
0.00498572941369 -0.114671776515 0.898 1.79590088889e-38
0.00664763921826 -0.114671776515 0.898 1.8234851689e-38
0.00830954902282 -0.114671776515 0.898 1.87890974615e-38
0.00997145882739 -0.114671776515 0.898 1.83288283692e-38
0.011633368632 -0.114671776515 0.898 1.87891002641e-38
0.0133396947342 -0.115054867082 0.901 1.84203373629e-38
0.015007156576 -0.115054867082 0.901 1.88780729075e-38
0.0166746184177 -0.115054867082 0.901 1.8970618862e-38
0.0183420802595 -0.115054867082 0.901 1.85114371773e-38
0.0200095421013 -0.115054867082 0.901 1.84185198787e-38
0.0217251215989 -0.115310260794 0.903 1.88791673216e-38
0.0233962847988 -0.115310260794 0.903 1.8420319146e-38
0.0251507285568 -0.115693351361 0.906 1.88784260347e-38
0.026827443794 -0.115693351361 0.906 1.84188884202e-38
0.0285041590311 -0.115693351361 0.906 1.85107323242e-38
0.0301808742682 -0.115693351361 0.906 1.85107323242e-38
0.03192791531 -0.115948745073 0.908 1.85107323242e-38
0.0336083319052 -0.115948745073 0.908 1.86958298383e-38
0.0352887485005 -0.115948745073 0.908 1.8511421763e-38
0.0369691650957 -0.115948745073 0.908 1.82352398487e-38
0.038649581691 -0.115948745073 0.908 1.9155734593e-38
0.0403299982863 -0.115948745073 0.908 1.81426588618e-38
0.042102948835 -0.116204138785 0.91 1.92486476877e-38
0.0437870667884 -0.116204138785 0.91 1.84188856176e-38
0.0454711847418 -0.116204138785 0.91 1.80501101047e-38
0.0473107597371 -0.116587229352 0.913 1.87887471369e-38
0.0490004297277 -0.116587229352 0.913 1.81423183462e-38
0.050523538602 -0.116204138785 0.91 1.87883968123e-38
0.0522076565554 -0.116204138785 0.91 2.01687977126e-38
0.0538917745088 -0.116204138785 0.91 1.74936923196e-38
-0.0496444660439 -0.116407713482 0.925 1.50836215115e-38
-0.0478289498766 -0.116156021129 0.923 1.60959643637e-38
-0.0459708680906 -0.115778482599 0.92 1.49997257725e-38
-0.0441720080349 -0.115526790245 0.918 1.18758895787e-38
-0.0423342837187 -0.115149251715 0.915 1.28925428249e-38
-0.0403299982863 -0.114268328478 0.908 9.10719706637e-39
-0.038649581691 -0.114268328478 0.908 8.18990428903e-39
-0.0367655903981 -0.113639097594 0.903 1.19717019599e-38
-0.0350166986772 -0.113387405241 0.901 1.2246807677e-38
-0.0331641689285 -0.112758174357 0.896 1.22461042252e-38
-0.0313301459705 -0.112128943473 0.891 1.22464573524e-38
-0.0296145664729 -0.11187725112 0.889 1.23372208552e-38
-0.0278434666032 -0.111373866413 0.885 1.17822520127e-38
-0.0261167830312 -0.110996327883 0.882 1.74994726757e-38
-0.0244844840917 -0.110996327883 0.882 1.86054474887e-38
-0.0228521851523 -0.110996327883 0.882 1.82348544916e-38
-0.0212920626966 -0.111373866413 0.885 1.7865718845e-38
-0.0196986280176 -0.111625558766 0.887 1.86029307567e-38
-0.0180570756828 -0.111625558766 0.887 1.93393971776e-38
-0.0164525369294 -0.11187725112 0.889 1.75920214328e-38
-0.0148072832364 -0.11187725112 0.889 2.20409114415e-39
-0.0131916404086 -0.112128943473 0.891 2.75582158591e-40
-0.011581549618 -0.112506482003 0.894 5.51087245767e-40
-0.00992704252972 -0.112506482003 0.894 1.37761231638e-39
-0.00827253544143 -0.112506482003 0.894 3.92363570011e-44
-0.00661802835314 -0.112506482003 0.894 2.0078884798e-38
-0.00496352126486 -0.112506482003 0.894 1.814557076e-38
-0.00331641689285 -0.112758174357 0.896 1.83277703889e-38
-0.00165820844643 -0.112758174357 0.896 1.84181667515e-38
0.0 -0.11300986671 0.898 1.90642578293e-38
0.00166190980456 -0.11300986671 0.898 1.81433749253e-38
0.00332381960913 -0.11300986671 0.898 1.89734943265e-38
0.00498572941369 -0.11300986671 0.898 1.85082113883e-38
0.00664763921826 -0.11300986671 0.898 1.94312494893e-38
0.00830954902282 -0.11300986671 0.898 1.84196184967e-38
0.00997145882739 -0.11300986671 0.898 1.82355761603e-38
0.0116722328924 -0.113387405241 0.901 1.82341482372e-38
0.0133396947342 -0.113387405241 0.901 1.86029307567e-38
0.0150404687992 -0.113639097594 0.903 1.86036370111e-38
0.0166746184177 -0.113387405241 0.901 1.89702685374e-38
0.0183420802595 -0.113387405241 0.901 1.8511088254e-38
0.020053958399 -0.113639097594 0.903 1.8880239315e-38
0.0217972980826 -0.114016636124 0.906 1.78653657177e-38
0.0234740133197 -0.114016636124 0.906 1.83259683191e-38
0.0251507285568 -0.114016636124 0.906 1.91561017332e-38
0.026827443794 -0.114016636124 0.906 1.86965487045e-38
0.0285041590311 -0.114016636124 0.906 1.83277731915e-38
0.0302474987147 -0.114268328478 0.908 1.85107323242e-38
0.03192791531 -0.114268328478 0.908 1.82348671033e-38
0.0336083319052 -0.114268328478 0.908 1.85107323242e-38
0.0352887485005 -0.114268328478 0.908 1.84185226813e-38
0.0369691650957 -0.114268328478 0.908 1.84188884202e-38
0.038649581691 -0.114268328478 0.908 1.82348544916e-38
0.0403299982863 -0.114268328478 0.908 1.86025622152e-38
0.042102948835 -0.114520020831 0.91 1.87855241504e-38
0.0437870667884 -0.114520020831 0.91 1.86940333737e-38
0.0454711847418 -0.114520020831 0.91 1.8878779162e-38
0.0473107597371 -0.114897559361 0.913 1.82348867215e-38
0.0490004297277 -0.114897559361 0.913 1.91571807331e-38
0.0506900997183 -0.114897559361 0.913 1.8234504167e-38
0.0523797697089 -0.114897559361 0.913 1.83256179945e-38
0.0540694396995 -0.114897559361 0.913 1.74929678483e-38
-0.0478289498766 -0.114447844348 0.923 1.9236310656e-38
-0.0459708680906 -0.114075857855 0.92 1.56486250524e-38
-0.0441720080349 -0.113827866859 0.918 1.13212920803e-38
-0.0423342837187 -0.113455880366 0.915 1.28918393731e-38
-0.0404188308816 -0.112835902878 0.91 1.1601823625e-38
-0.038649581691 -0.112587911883 0.908 8.7466485767e-39
-0.0367655903981 -0.111967934394 0.903 8.7484660608e-39
-0.0350166986772 -0.111719943399 0.901 1.10494079483e-38
-0.0332381960913 -0.111347956906 0.898 1.28921925003e-38
-0.0315059604821 -0.11109996591 0.896 1.22439560346e-38
-0.0296811909194 -0.110479988422 0.891 1.25212617903e-38
-0.0279693127799 -0.110231997427 0.889 1.0859962205e-38
-0.0262056156265 -0.109736015436 0.885 1.80501073021e-38
-0.0245677646499 -0.109736015436 0.885 1.86969242524e-38
-0.0229299136732 -0.109736015436 0.885 1.86029279541e-38
-0.0213401803524 -0.109984006431 0.887 1.80490381114e-38
-0.0196986280176 -0.109984006431 0.887 1.83249173452e-38
-0.0180570756828 -0.109984006431 0.887 1.88787917736e-38
-0.0164525369294 -0.110231997427 0.889 1.96199595509e-38
-0.0148072832364 -0.110231997427 0.889 2.84693120946e-39
-0.0131916404086 -0.110479988422 0.891 2.75582158591e-40
-0.011581549618 -0.110851974915 0.894 5.51087245767e-40
-0.00992704252972 -0.110851974915 0.894 9.18434835592e-40
-0.00829104223213 -0.11109996591 0.896 4.7644147787e-44
-0.0066328337857 -0.11109996591 0.896 1.97933674333e-38
-0.00497462533928 -0.11109996591 0.896 1.78693313924e-38
-0.00332381960913 -0.111347956906 0.898 1.83259683191e-38
-0.00166190980456 -0.111347956906 0.898 1.8325249453e-38
0.0 -0.111347956906 0.898 1.82345013644e-38
0.00166190980456 -0.111347956906 0.898 1.86036370111e-38
0.00332381960913 -0.111347956906 0.898 1.84181695541e-38
0.00498572941369 -0.111347956906 0.898 1.84178136243e-38
0.00666984736709 -0.111719943399 0.901 1.8510365184e-38
0.00833730920887 -0.111719943399 0.901 1.8418535293e-38
0.0100047710506 -0.111719943399 0.901 1.82345013644e-38
0.0116722328924 -0.111719943399 0.901 1.84178192295e-38
0.0133396947342 -0.111719943399 0.901 1.84178192295e-38
0.0150404687992 -0.111967934394 0.903 1.92475574775e-38
0.0167116319991 -0.111967934394 0.903 1.86940333737e-38
0.018382795199 -0.111967934394 0.903 1.84181695541e-38
0.020053958399 -0.111967934394 0.903 1.88809455694e-38
0.0217972980826 -0.112339920887 0.906 1.85110854514e-38
0.0234740133197 -0.112339920887 0.906 1.92486476877e-38
0.0251507285568 -0.112339920887 0.906 1.84178318412e-38
0.0268866655242 -0.112587911883 0.908 1.8142302932e-38
0.0285670821194 -0.112587911883 0.908 1.92486476877e-38
0.0302474987147 -0.112587911883 0.908 1.8511811324e-38
0.03192791531 -0.112587911883 0.908 1.83267292241e-38
0.0336083319052 -0.112587911883 0.908 1.86032838839e-38
0.0352887485005 -0.112587911883 0.908 1.84181667515e-38
0.0369691650957 -0.112587911883 0.908 1.82352076188e-38
0.0387347129282 -0.112835902878 0.91 1.84192387449e-38
0.0404188308816 -0.112835902878 0.91 1.85085673181e-38
0.0422417497652 -0.113207889371 0.913 1.97067573791e-38
0.0437870667884 -0.112835902878 0.91 1.86933145076e-38
0.0454711847418 -0.112835902878 0.91 1.88784232321e-38
0.0473107597371 -0.113207889371 0.913 1.88780729075e-38
0.0490004297277 -0.113207889371 0.913 1.86029307567e-38
0.0506900997183 -0.113207889371 0.913 1.86954823163e-38
0.0523797697089 -0.113207889371 0.913 1.8234504167e-38
0.0540694396995 -0.113207889371 0.913 2.06254388432e-38
-0.0478289498766 -0.112739667566 0.923 2.0804360835e-38
-0.0459708680906 -0.11237323311 0.92 1.51876539095e-38
-0.0441720080349 -0.112128943473 0.918 1.14120625896e-38
-0.0423342837187 -0.111762509017 0.915 1.09553948343e-38
-0.0404188308816 -0.111151784924 0.91 1.30773068301e-38
-0.038649581691 -0.110907495287 0.908 9.57498692753e-39
-0.0367655903981 -0.110296771194 0.903 1.1699038706e-38
-0.0350166986772 -0.110052481557 0.901 6.16374862258e-39
-0.0331641689285 -0.109441757464 0.896 1.31652284996e-38
-0.0315059604821 -0.109441757464 0.896 1.27052803047e-38
-0.0297811275891 -0.109197467827 0.894 1.26127315476e-38
-0.0279693127799 -0.108586743734 0.889 1.07684532114e-38
-0.0262648373568 -0.108342454097 0.887 1.77735456359e-38
-0.024623285022 -0.108342454097 0.887 1.8880239315e-38
-0.0229817326872 -0.108342454097 0.887 1.8418535293e-38
-0.0213401803524 -0.108342454097 0.887 1.83277731915e-38
-0.0197430443153 -0.108586743734 0.889 1.82345013644e-38
-0.0180977906223 -0.108586743734 0.889 1.82348572942e-38
-0.0164525369294 -0.108586743734 0.889 2.08192188026e-38
-0.0148405954597 -0.108831033371 0.891 1.928558031e-39
-0.0132360567063 -0.109197467827 0.894 4.60668462356e-40
-0.011581549618 -0.109197467827 0.894 5.51087245767e-40
-0.00994925067855 -0.109441757464 0.896 1.01027173305e-39
-0.00829104223213 -0.109441757464 0.896 4.20389539297e-44
