# .PCD v0.7 - Point Cloud Data file format
VERSION 0.7
FIELDS x y z rgb
SIZE 4 4 4 4
TYPE F F F F
COUNT 1 1 1 1
WIDTH 855
HEIGHT 1
VIEWPOINT 0 0 0 1 0 0 0
POINTS 855
DATA ascii
-0.0133582015249 -0.133582015249 0.802 9.86100875968e-39
-0.0118443460459 -0.133248893016 0.8 9.38869971098e-44
-0.0103638027902 -0.133248893016 0.8 1.02762821583e-40
-0.00886105138558 -0.132915770784 0.798 8.46436120495e-40
-0.00738420948799 -0.132915770784 0.798 9.38268814056e-40
-0.00590736759039 -0.132915770784 0.798 1.76839522173e-39
-0.00443052569279 -0.132915770784 0.798 2.59671395438e-39
-0.00295368379519 -0.132915770784 0.798 4.7157813142e-39
-0.0014768418976 -0.132915770784 0.798 3.98072039565e-39
0.0 -0.132915770784 0.798 3.88781570876e-39
0.0014768418976 -0.132915770784 0.798 2.87547145529e-39
0.00295368379519 -0.132915770784 0.798 3.14917867653e-39
0.00443052569279 -0.132915770784 0.798 2.78075769208e-39
0.00590736759039 -0.132915770784 0.798 2.68962845035e-39
0.00738420948799 -0.132915770784 0.798 3.61049033488e-39
0.00886105138558 -0.132915770784 0.798 8.72448423889e-42
0.0103378932832 -0.132915770784 0.798 1.36808769072e-41
0.0118147351808 -0.132915770784 0.798 5.34088234226e-39
0.0132915770784 -0.132915770784 0.798 2.02758667244e-38
0.014768418976 -0.132915770784 0.798 1.8525544049e-38
0.0162452608736 -0.132915770784 0.798 1.62188750546e-38
0.0177221027712 -0.132915770784 0.798 1.10559225849e-38
0.019150827013 -0.132582648551 0.796 1.35466185013e-38
0.0206239675524 -0.132582648551 0.796 1.31800093958e-38
0.0220971080919 -0.132582648551 0.796 1.15216048931e-38
0.0235702486313 -0.132582648551 0.796 1.17067192229e-38
0.0249804660824 -0.132249526319 0.794 1.29971049137e-38
0.0263832808172 -0.131916404086 0.792 1.4198164834e-38
0.0278490186404 -0.131916404086 0.792 1.521228173e-38
0.0293147564636 -0.131916404086 0.792 1.5949147521e-38
0.0307804942868 -0.131916404086 0.792 1.63175727094e-38
0.0322462321099 -0.131916404086 0.792 1.70551377483e-38
0.0337971011703 -0.132249526319 0.794 1.73309959627e-38
0.0352665403517 -0.132249526319 0.794 1.80703686766e-38
0.0368285134865 -0.132582648551 0.796 2.00053922987e-38
0.0383016540259 -0.132582648551 0.796 1.80674665875e-38
0.0398747312351 -0.132915770784 0.798 1.92642203175e-38
0.0414552111606 -0.133248893016 0.8 2.13839813201e-38
0.0429357544164 -0.133248893016 0.8 2.00003378151e-38
0.0444162976721 -0.133248893016 0.8 2.08315236044e-38
0.0458968409278 -0.133248893016 0.8 2.12928787031e-38
0.0473773841836 -0.133248893016 0.8 1.99116748587e-38
0.0488579274393 -0.133248893016 0.8 8.48494908199e-39
0.0503384706951 -0.133248893016 0.8 1.96293888883e-41
0.0518190139508 -0.133248893016 0.8 1.74489684778e-41
0.0532995572065 -0.133248893016 0.8 8.69064568357e-39
0.0547801004623 -0.133248893016 0.8 2.00972628273e-38
-0.0449215330581 -0.137862635937 0.837 1.42744220951e-38
-0.0432688766489 -0.137533215063 0.835 1.52874852147e-38
-0.0417235596257 -0.137533215063 0.835 1.46464051803e-38
-0.0401782426026 -0.137533215063 0.835 1.32711512492e-38
-0.0386329255794 -0.137533215063 0.835 1.45633390099e-38
-0.0370876085562 -0.137533215063 0.835 1.57636548407e-38
-0.0354571602958 -0.137203794188 0.833 4.78881979276e-39
-0.0338341147517 -0.136874373314 0.831 9.66895940384e-44
-0.0322184719239 -0.136544952439 0.829 8.82818032525e-44
-0.0305362046496 -0.135886110691 0.825 1.50275219288e-38
-0.0289390686124 -0.135556689816 0.823 1.35495303995e-38
-0.0272827108451 -0.134897848067 0.819 1.38268431617e-38
-0.0257040815987 -0.134568427193 0.817 1.34576878969e-38
-0.0241328550685 -0.134239006319 0.815 1.37317762713e-38
-0.0225690312546 -0.133909585444 0.813 1.38246781556e-38
-0.021064429171 -0.133909585444 0.813 1.35498863294e-38
-0.0195117094315 -0.13358016457 0.811 1.37339272645e-38
-0.017877559813 -0.132591901947 0.805 1.36428008253e-38
-0.0163470482224 -0.132262481072 0.803 1.37342803917e-38
-0.0148609529295 -0.132262481072 0.803 1.37335769398e-38
-0.0133582015249 -0.132097770635 0.802 1.60369977243e-38
-0.0118443460459 -0.131768349761 0.8 1.42874485657e-38
-0.0103638027902 -0.131768349761 0.8 3.68856928402e-39
-0.00886105138558 -0.131438928886 0.798 1.42932443361e-43
-0.00738420948799 -0.131438928886 0.798 1.99274450716e-40
-0.00590736759039 -0.131438928886 0.798 8.43917987155e-40
-0.00443052569279 -0.131438928886 0.798 1.1139762272e-40
-0.00295368379519 -0.131438928886 0.798 2.87653784342e-39
-0.00147314053946 -0.131109508012 0.796 3.70485377347e-39
0.0 -0.131109508012 0.796 4.62753874731e-39
0.0014768418976 -0.131438928886 0.798 5.72525430713e-39
0.00294628107892 -0.131109508012 0.796 4.25336122877e-39
0.00441942161837 -0.131109508012 0.796 3.4246893689e-39
0.00589256215783 -0.131109508012 0.796 2.50811545767e-39
0.00738420948799 -0.131438928886 0.798 3.05804242831e-39
0.00886105138558 -0.131438928886 0.798 3.79415572201e-39
0.0103378932832 -0.131438928886 0.798 6.5986303906e-40
0.0118147351808 -0.131438928886 0.798 2.60641514364e-42
0.0132915770784 -0.131438928886 0.798 1.65995153617e-39
0.014768418976 -0.131438928886 0.798 2.22112560854e-38
0.0162452608736 -0.131438928886 0.798 1.98152276893e-38
0.0177221027712 -0.131438928886 0.798 1.67727620947e-38
0.019150827013 -0.131109508012 0.796 1.47447819377e-38
0.0206239675524 -0.131109508012 0.796 1.34540585339e-38
0.0220971080919 -0.131109508012 0.796 1.44707510165e-38
0.0235702486313 -0.131109508012 0.796 1.43778337179e-38
0.0249804660824 -0.130780087137 0.794 1.40083407401e-38
0.0264499052637 -0.130780087137 0.794 1.39190261799e-38
0.0278490186404 -0.130450666263 0.792 1.33665740694e-38
0.0293147564636 -0.130450666263 0.792 1.45647613279e-38
0.0307804942868 -0.130450666263 0.792 1.5670032689e-38
0.0322462321099 -0.130450666263 0.792 1.65923645356e-38
0.0337971011703 -0.130780087137 0.794 1.73292037019e-38
0.0352665403517 -0.130780087137 0.794 1.82518634524e-38
0.0368285134865 -0.131109508012 0.796 1.92645874577e-38
0.0383016540259 -0.131109508012 0.796 1.92659957627e-38
0.0398747312351 -0.131438928886 0.798 2.02798169848e-38
0.0413515731327 -0.131438928886 0.798 2.11063154307e-38
0.0428284150303 -0.131438928886 0.798 2.2305577485e-38
0.0443052569279 -0.131438928886 0.798 2.03727174678e-38
0.0458968409278 -0.131768349761 0.8 9.95969380273e-39
0.0473773841836 -0.131768349761 0.8 5.68845901205e-40
0.0488579274393 -0.131768349761 0.8 4.88522071931e-40
0.0503384706951 -0.131768349761 0.8 2.06691523488e-41
0.0518190139508 -0.131768349761 0.8 2.96629521395e-39
0.0532995572065 -0.131768349761 0.8 1.95469687165e-38
0.0547801004623 -0.131768349761 0.8 1.99095925292e-38
0.056260643718 -0.131768349761 0.8 2.08315236044e-38
-0.0433725146768 -0.136313617556 0.837 1.54715163408e-38
-0.0418234962955 -0.136313617556 0.837 1.47393519061e-38
-0.0402744779142 -0.136313617556 0.837 1.3455166961e-38
-0.0386329255794 -0.135987898039 0.835 1.4564395589e-38
-0.0370876085562 -0.135987898039 0.835 3.87186612964e-39
-0.035542291533 -0.135987898039 0.835 1.05067312959e-38
-0.0339155446308 -0.135662178523 0.833 1.40108995111e-38
-0.0322962004448 -0.135336459007 0.831 1.44743257289e-38
-0.0305362046496 -0.134359300458 0.825 1.49328207773e-38
-0.0289390686124 -0.134033580942 0.823 1.40097728672e-38
-0.0273493352916 -0.133707861426 0.821 1.36420791566e-38
-0.025767004687 -0.133382141909 0.819 1.36420791566e-38
-0.0241328550685 -0.132730702877 0.815 1.37339272645e-38
-0.0226245516267 -0.132730702877 0.815 1.37342972073e-38
-0.021064429171 -0.132404983361 0.813 1.38261242956e-38
-0.0195117094315 -0.132079263844 0.811 1.36413757048e-38
-0.0179219761107 -0.131427824812 0.807 1.33658650124e-38
-0.0163877631619 -0.131102105295 0.805 1.36420847618e-38
-0.0148609529295 -0.130776385779 0.803 1.38257767736e-38
-0.0133582015249 -0.130613526021 0.802 1.41952557384e-38
-0.0118443460459 -0.130287806505 0.8 1.44718468319e-38
-0.0103638027902 -0.130287806505 0.8 1.62235595954e-38
-0.00886105138558 -0.129962086989 0.798 1.20758506656e-38
-0.00738420948799 -0.129962086989 0.798 8.30539790716e-40
-0.00589256215783 -0.129636367472 0.796 1.01986502234e-41
-0.00441942161837 -0.129636367472 0.796 1.48831909896e-41
-0.00294628107892 -0.129636367472 0.796 2.23082091236e-39
-0.00146943918132 -0.129310647956 0.794 2.23189150438e-39
0.0 -0.129310647956 0.794 2.8761903214e-39
0.00147314053946 -0.129636367472 0.796 5.08312189754e-39
0.00294628107892 -0.129636367472 0.796 5.81887645883e-39
0.00441942161837 -0.129636367472 0.796 5.08310648325e-39
0.00589256215783 -0.129636367472 0.796 4.43773707421e-39
0.00736570269729 -0.129636367472 0.796 3.24136449731e-39
0.00883884323675 -0.129636367472 0.796 3.24208056082e-39
0.0103119837762 -0.129636367472 0.796 3.42395508851e-39
0.0117851243157 -0.129636367472 0.796 1.95134174274e-39
0.0132582648551 -0.129636367472 0.796 1.56104648926e-42
0.0147314053946 -0.129636367472 0.796 7.73618906965e-39
0.016204545934 -0.129636367472 0.796 1.92660097757e-38
0.0176776864735 -0.129636367472 0.796 1.94486031695e-38
0.019150827013 -0.129636367472 0.796 1.89858131413e-38
0.0206239675524 -0.129636367472 0.796 1.70500580413e-38
0.0220971080919 -0.129636367472 0.796 1.4652230378e-38
0.0235702486313 -0.129636367472 0.796 1.51125022729e-38
0.0249175429941 -0.12898492844 0.792 1.88014639205e-38
0.0263832808172 -0.12898492844 0.792 1.79731031489e-38
0.0278490186404 -0.12898492844 0.792 1.78802040672e-38
0.0293147564636 -0.12898492844 0.792 1.82507690383e-38
0.0307804942868 -0.12898492844 0.792 1.79745380785e-38
0.0322462321099 -0.12898492844 0.792 1.82500501722e-38
0.0337971011703 -0.129310647956 0.794 1.82518452355e-38
0.0352665403517 -0.129310647956 0.794 2.08319187706e-38
0.0368285134865 -0.129636367472 0.796 1.99095673058e-38
0.0383016540259 -0.129636367472 0.796 2.01861541954e-38
0.0397747945654 -0.129636367472 0.796 2.17542057757e-38
0.0413515731327 -0.129962086989 0.798 2.00046341962e-38
0.0428284150303 -0.129962086989 0.798 1.06936561033e-38
0.0443052569279 -0.129962086989 0.798 1.58189360651e-39
0.0457820988255 -0.129962086989 0.798 4.91387727291e-40
0.0472589407231 -0.129962086989 0.798 1.31357017397e-39
0.0487357826207 -0.129962086989 0.798 1.31142338472e-39
0.0503384706951 -0.130287806505 0.8 1.56581090404e-41
0.0518190139508 -0.130287806505 0.8 1.79857652818e-38
0.0532995572065 -0.130287806505 0.8 1.85302874443e-38
0.0547801004623 -0.130287806505 0.8 2.06478904472e-38
0.056260643718 -0.130287806505 0.8 2.09240891771e-38
-0.0451362118302 -0.135408635491 0.841 1.49201432301e-38
-0.0434761527047 -0.135086617332 0.839 1.52889257496e-38
-0.0419234329653 -0.135086617332 0.839 1.43709393295e-38
-0.0403707132258 -0.135086617332 0.839 1.40079567844e-38
-0.0387254595329 -0.134764599174 0.837 1.36431539525e-38
-0.0371764411516 -0.134764599174 0.837 1.23506368867e-38
-0.035542291533 -0.134442581016 0.835 1.0369608636e-43
-0.0339155446308 -0.134120562858 0.833 9.66895940384e-44
-0.0323739289658 -0.134120562858 0.833 7.65122413987e-39
-0.0306102318124 -0.133154508384 0.827 1.4562653775e-38
-0.0290093944171 -0.132832490226 0.825 1.3088560658e-38
-0.0274159597381 -0.132510472068 0.823 1.31807548866e-38
-0.0258299277754 -0.132188453909 0.821 1.35498863294e-38
-0.0241920767987 -0.131544417593 0.817 1.36420791566e-38
-0.0226800719988 -0.131544417593 0.817 1.34587696993e-38
-0.0211162481849 -0.131222399435 0.815 1.38264774228e-38
-0.0195117094315 -0.130578363119 0.811 1.39186856644e-38
-0.0179219761107 -0.129934326803 0.807 1.31818268799e-38
-0.0163877631619 -0.129612308644 0.805 1.34569816425e-38
-0.0148609529295 -0.129290290486 0.803 1.32743882487e-38
-0.0133582015249 -0.129129281407 0.802 1.410415172e-38
-0.0118443460459 -0.128807263249 0.8 1.39183199255e-38
-0.0103638027902 -0.128807263249 0.8 1.39193919188e-38
-0.00886105138558 -0.128485245091 0.798 1.54852911047e-38
-0.00738420948799 -0.128485245091 0.798 1.54856288176e-38
-0.00589256215783 -0.128163226933 0.796 2.38220738935e-44
-0.00441942161837 -0.128163226933 0.796 3.80075583777e-40
-0.00293887836264 -0.127841208775 0.794 7.54969165833e-40
-0.00146943918132 -0.127841208775 0.794 1.67907085242e-39
0.0 -0.127519190617 0.792 2.04822331466e-39
0.00146573782318 -0.127519190617 0.792 2.87654064602e-39
0.00293887836264 -0.127841208775 0.794 3.61230781899e-39
0.00440831754396 -0.127841208775 0.794 4.80977621129e-39
0.00587775672528 -0.127841208775 0.794 6.18729884457e-39
0.00736570269729 -0.128163226933 0.796 3.24174284789e-39
0.00883884323675 -0.128163226933 0.796 2.59852863589e-39
0.0103119837762 -0.128163226933 0.796 3.24137710899e-39
0.0117851243157 -0.128163226933 0.796 3.14953460634e-39
0.0132582648551 -0.128163226933 0.796 3.24063442081e-39
0.0147314053946 -0.128163226933 0.796 6.23437686778e-42
0.016204545934 -0.128163226933 0.796 1.16307772539e-43
0.0176776864735 -0.128163226933 0.796 1.77984032693e-38
0.0191027093571 -0.127841208775 0.794 2.10170092783e-38
0.0205721485385 -0.127841208775 0.794 2.01839905906e-38
0.0220415877198 -0.127841208775 0.794 1.88017974295e-38
0.0235110269011 -0.127841208775 0.794 1.60330292471e-38
0.0249175429941 -0.127519190617 0.792 1.51107324329e-38
0.0263832808172 -0.127519190617 0.792 1.89843964285e-38
0.0278490186404 -0.127519190617 0.792 1.90798108409e-38
0.0293147564636 -0.127519190617 0.792 1.84355526616e-38
0.0307804942868 -0.127519190617 0.792 1.92642371331e-38
0.0322462321099 -0.127519190617 0.792 1.87114164812e-38
0.0337119699331 -0.127519190617 0.792 1.88972300588e-38
0.0352665403517 -0.127841208775 0.794 2.11099349846e-38
0.036735979533 -0.127841208775 0.794 2.15690900447e-38
0.0383016540259 -0.128163226933 0.796 2.00042782664e-38
0.0397747945654 -0.128163226933 0.796 1.08816683182e-38
0.0412479351048 -0.128163226933 0.796 2.31514264615e-39
0.0427210756443 -0.128163226933 0.796 7.67251546873e-40
0.0443052569279 -0.128485245091 0.798 9.45146386919e-40
0.0457820988255 -0.128485245091 0.798 1.77454692198e-39
0.0472589407231 -0.128485245091 0.798 2.78438425251e-39
0.0487357826207 -0.128485245091 0.798 1.42021599359e-41
0.0503384706951 -0.128807263249 0.8 1.08082472852e-38
0.0518190139508 -0.128807263249 0.8 2.01912339023e-38
0.0532995572065 -0.128807263249 0.8 1.82536781339e-38
0.0547801004623 -0.128807263249 0.8 2.06496939183e-38
0.0564012953273 -0.129129281407 0.802 2.08311900954e-38
-0.0451362118302 -0.133852214393 0.841 1.56594654973e-38
-0.0435797907326 -0.133852214393 0.841 1.39992631287e-38
-0.042023369635 -0.133852214393 0.841 1.54747813662e-38
-0.0404669485374 -0.133852214393 0.841 1.43774833933e-38
-0.0388179934863 -0.133533897593 0.839 1.33669370057e-38
-0.0372652737469 -0.133533897593 0.839 1.5393796124e-38
-0.0356274227702 -0.133215580793 0.837 4.90454462514e-44
-0.0339969745099 -0.132897263993 0.835 1.29085652716e-39
-0.0323739289658 -0.132578947193 0.833 1.07899981753e-43
-0.0306102318124 -0.131623996793 0.827 1.01423180251e-38
-0.0290093944171 -0.131305679993 0.825 1.55781901863e-38
-0.0274825841846 -0.131305679993 0.825 1.438035045e-38
-0.0258928508638 -0.130987363193 0.823 1.44729188252e-38
-0.0243105202592 -0.130669046393 0.821 1.45647613279e-38
-0.0227355923709 -0.130350729593 0.819 1.39193765045e-38
-0.0211680671989 -0.130032412793 0.817 1.32736539683e-38
-0.0195598270874 -0.129395779193 0.813 1.32729505164e-38
-0.0179219761107 -0.128440828793 0.807 1.41949054138e-38
-0.0164284781015 -0.128440828793 0.807 1.43789435463e-38
-0.0148979665109 -0.128122511993 0.805 7.1898368114e-39
-0.0133748576365 -0.127804195193 0.803 1.00521696923e-38
-0.0118443460459 -0.127326719993 0.8 1.49360269482e-38
-0.0103638027902 -0.127326719993 0.8 1.4748426715e-38
-0.00886105138558 -0.127008403193 0.798 1.36424350864e-38
-0.00738420948799 -0.127008403193 0.798 1.48406251474e-38
-0.00589256215783 -0.126690086393 0.796 1.12457004359e-38
-0.00440831754396 -0.126371769593 0.794 8.82818032525e-44
-0.00293147564636 -0.126053452793 0.792 4.80161925293e-40
-0.00146203646504 -0.125735135993 0.79 2.04604569685e-39
0.0 -0.125735135993 0.79 1.95386267867e-39
0.00146203646504 -0.125735135993 0.79 1.68051839373e-39
0.00292407293008 -0.125735135993 0.79 3.06058298242e-39
0.00439721346954 -0.126053452793 0.792 3.06093330704e-39
0.00586295129272 -0.126053452793 0.792 6.19197077365e-39
0.00734719590659 -0.126371769593 0.794 5.91359162333e-39
0.00879442693908 -0.126053452793 0.792 5.729197561e-39
0.0102601647623 -0.126053452793 0.792 5.91214127942e-39
0.0117259025854 -0.126053452793 0.792 3.97568272767e-39
0.0131916404086 -0.126053452793 0.792 3.42504249612e-39
0.0146943918132 -0.126371769593 0.794 3.88493183652e-39
0.0161638309945 -0.126371769593 0.794 1.37873755905e-41
0.0176332701758 -0.126371769593 0.794 2.56717878664e-42
0.0190545917013 -0.126053452793 0.792 1.48481599293e-38
0.0205203295245 -0.126053452793 0.792 2.26729376866e-38
0.0220415877198 -0.126371769593 0.794 2.08297257385e-38
0.0234518051709 -0.126053452793 0.792 2.04620166137e-38
0.0248546199057 -0.125735135993 0.79 1.99995769101e-38
0.0263166563707 -0.125735135993 0.79 1.89847019116e-38
0.0277786928358 -0.125735135993 0.79 1.92638447696e-38
0.0292407293008 -0.125735135993 0.79 1.90808856369e-38
0.0307027657658 -0.125735135993 0.79 1.88035868877e-38
0.0321648022309 -0.125735135993 0.79 1.88961384473e-38
0.0337119699331 -0.126053452793 0.792 2.12946541482e-38
0.0351777077563 -0.126053452793 0.792 2.01900946467e-38
0.0366434455795 -0.126053452793 0.792 1.21723791104e-38
0.0382054187143 -0.126371769593 0.794 2.59239515251e-39
0.0396748578956 -0.126371769593 0.794 2.57306424019e-41
0.0412479351048 -0.126690086393 0.796 9.45882068613e-40
0.0427210756443 -0.126690086393 0.796 2.141538582e-39
0.0441942161837 -0.126690086393 0.796 2.78473737972e-39
0.0457820988255 -0.127008403193 0.798 2.87693300959e-39
0.0472589407231 -0.127008403193 0.798 1.12508852402e-40
0.0487357826207 -0.127008403193 0.798 8.42945486021e-40
0.0503384706951 -0.127326719993 0.8 1.9731715906e-38
0.0518190139508 -0.127326719993 0.8 1.89894705302e-38
0.0532995572065 -0.127326719993 0.8 1.83473227064e-38
0.0547801004623 -0.127326719993 0.8 2.05574926833e-38
0.0564012953273 -0.127645036793 0.802 2.10162876096e-38
-0.0451362118302 -0.132295793295 0.841 1.51959916354e-38
-0.0435797907326 -0.132295793295 0.841 1.39070703014e-38
-0.042023369635 -0.132295793295 0.841 1.48300971921e-38
-0.0404669485374 -0.132295793295 0.841 1.41008894972e-38
-0.0389105274398 -0.132295793295 0.841 1.36427980227e-38
-0.0373541063422 -0.132295793295 0.841 1.56703858162e-38
-0.0357125540074 -0.131981177854 0.839 3.36311631438e-44
-0.0340784043889 -0.131666562412 0.837 1.1982881519e-39
-0.0324516574867 -0.13135194697 0.835 9.18468466756e-40
-0.0306842589751 -0.130408100644 0.829 2.95108131653e-39
-0.0290797202217 -0.130093485203 0.827 1.7700116195e-38
-0.0274825841846 -0.129778869761 0.825 9.0333542425e-39
-0.0258928508638 -0.129464254319 0.823 1.21912966396e-43
-0.0243697419894 -0.129464254319 0.823 6.7336777275e-39
-0.022791112743 -0.129149638877 0.821 1.49342697199e-38
-0.0212198862128 -0.128835023435 0.819 1.45633123852e-38
-0.0196079447432 -0.128205792551 0.815 1.3733183175e-38
-0.0180552250037 -0.12789117711 0.813 1.36420791566e-38
-0.0164284781015 -0.126947330784 0.807 1.42878044955e-38
-0.0148979665109 -0.126632715342 0.805 1.32740253124e-38
-0.0133748576365 -0.1263180999 0.803 9.52882955741e-44
-0.011873956911 -0.126160792179 0.802 1.12103877146e-43
-0.0103638027902 -0.125846176738 0.8 1.20780703224e-38
-0.00886105138558 -0.125531561296 0.798 1.4012701581e-38
-0.00738420948799 -0.125531561296 0.798 1.38271794734e-38
-0.00589256215783 -0.125216945854 0.796 1.30892641098e-38
-0.00439721346954 -0.12458771497 0.792 7.74195681413e-39
-0.00293147564636 -0.12458771497 0.792 4.43370834112e-42
-0.00146203646504 -0.124273099528 0.79 2.95432952637e-40
0.0 -0.124273099528 0.79 1.03478324579e-39
0.00146203646504 -0.124273099528 0.79 1.77019448895e-39
0.00292407293008 -0.124273099528 0.79 1.03694825191e-39
0.00438610939512 -0.124273099528 0.79 2.87689097063e-39
0.00584814586016 -0.124273099528 0.79 2.87654344861e-39
0.0073101823252 -0.124273099528 0.79 4.16656059799e-39
0.00877221879024 -0.124273099528 0.79 5.17998665388e-39
0.0102342552553 -0.124273099528 0.79 5.91358601813e-39
0.0116962917203 -0.124273099528 0.79 6.28020072886e-39
0.0131916404086 -0.12458771497 0.792 5.81777784083e-39
0.0146573782318 -0.12458771497 0.792 4.89978721685e-39
0.016123116055 -0.12458771497 0.792 3.24171482192e-39
0.0175888538782 -0.12458771497 0.792 8.45703241399e-40
0.0190545917013 -0.12458771497 0.792 3.68961885657e-42
0.0205203295245 -0.12458771497 0.792 1.23555792664e-38
0.0219860673477 -0.12458771497 0.792 2.24874968543e-38
0.0233925834406 -0.124273099528 0.79 2.05531584671e-38
0.0248546199057 -0.124273099528 0.79 2.02769176982e-38
0.0263166563707 -0.124273099528 0.79 1.97248271228e-38
0.0277786928358 -0.124273099528 0.79 1.83422429994e-38
0.0292407293008 -0.124273099528 0.79 2.01858080747e-38
0.0307027657658 -0.124273099528 0.79 2.18449412526e-38
0.0321648022309 -0.124273099528 0.79 2.25839664445e-38
0.0336268386959 -0.124273099528 0.79 9.77109444371e-39
0.0351777077563 -0.12458771497 0.792 2.17761781356e-41
0.0366434455795 -0.12458771497 0.792 1.92860707645e-41
0.0381091834027 -0.12458771497 0.792 2.78914446339e-41
0.0396748578956 -0.124902330412 0.794 1.3153680399e-39
0.0411442970769 -0.124902330412 0.794 2.69253894726e-39
0.0427210756443 -0.125216945854 0.796 2.5999761772e-39
0.0441942161837 -0.125216945854 0.796 2.69254174986e-39
0.0457820988255 -0.125531561296 0.798 2.04969187545e-39
0.0472589407231 -0.125531561296 0.798 1.52811597535e-41
0.0487357826207 -0.125531561296 0.798 1.58696028137e-38
0.0504643168718 -0.126160792179 0.802 1.95455183726e-38
0.0519485614857 -0.126160792179 0.802 1.88983314794e-38
0.0534328060995 -0.126160792179 0.802 1.86239053921e-38
0.0549170507134 -0.126160792179 0.802 2.03727300794e-38
0.0564012953273 -0.126160792179 0.802 2.07389972681e-38
-0.0436834287605 -0.131050286282 0.843 1.39982261678e-38
-0.0421233063048 -0.131050286282 0.843 1.46428164549e-38
-0.040563183849 -0.131050286282 0.843 1.44682328831e-38
-0.0390030613933 -0.131050286282 0.843 1.34576906995e-38
-0.0373541063422 -0.130739372198 0.841 1.60373746736e-38
-0.0357125540074 -0.130428458114 0.839 0.0
-0.034159834268 -0.130428458114 0.839 3.6960648295e-40
-0.0324516574867 -0.129806629947 0.835 1.56382806671e-39
-0.0306842589751 -0.128873887696 0.829 7.98740124665e-44
-0.0290797202217 -0.128562973612 0.827 1.85262475008e-38
-0.0275492086311 -0.128562973612 0.827 0.0
-0.0259557739521 -0.128252059528 0.825 5.53624997285e-40
-0.0243697419894 -0.127941145444 0.823 8.82818032525e-44
-0.0228466331151 -0.127941145444 0.823 8.68805047881e-44
-0.0212717052268 -0.127630231361 0.821 1.52076574451e-38
-0.0197041800548 -0.127319317277 0.819 1.55774432943e-38
-0.0180996413014 -0.12669748911 0.815 1.32740225098e-38
-0.0165099079805 -0.126075660942 0.811 1.29974314163e-38
-0.0148979665109 -0.125142918691 0.805 1.52101279343e-38
-0.0134081698598 -0.125142918691 0.805 4.34402523941e-44
-0.0118887623436 -0.124832004607 0.803 9.26608609535e-41
-0.0103897122971 -0.124676547566 0.802 6.58610278233e-44
-0.00888325953442 -0.124365633482 0.8 1.11597700115e-38
-0.00738420948799 -0.124054719398 0.798 1.30892641098e-38
-0.00589256215783 -0.123743805314 0.796 1.24438947008e-38
-0.00439721346954 -0.123121977147 0.792 1.47451897155e-38
-0.00292407293008 -0.122811063063 0.79 5.24982316545e-39
-0.00146018578597 -0.122655606022 0.789 4.07917982965e-42
0.0 -0.122655606022 0.789 8.51486400161e-40
0.00146018578597 -0.122655606022 0.789 1.77090354598e-39
0.00292037157194 -0.122655606022 0.789 2.13860706561e-39
0.00438055735791 -0.122655606022 0.789 1.86526278067e-39
0.00582593771132 -0.122344691938 0.787 2.87689097063e-39
0.00728242213916 -0.122344691938 0.787 3.33644680201e-39
0.00876111471582 -0.122655606022 0.789 3.15385340821e-39
0.0102213005018 -0.122655606022 0.789 4.16656340059e-39
0.0116814862878 -0.122655606022 0.789 3.98109454234e-39
0.0131416720737 -0.122655606022 0.789 4.80977901389e-39
0.0146018578597 -0.122655606022 0.789 4.90087602576e-39
0.0160824011154 -0.122811063063 0.79 5.27144379945e-39
0.0175444375805 -0.122811063063 0.79 3.70124402863e-39
0.0190064740455 -0.122811063063 0.79 1.95206341144e-39
0.0204685105106 -0.122811063063 0.79 1.19670888853e-42
0.0219305469756 -0.122811063063 0.79 7.37645893828e-39
0.0233925834406 -0.122811063063 0.79 2.19350419412e-38
0.0248546199057 -0.122811063063 0.79 2.07386245228e-38
0.0263166563707 -0.122811063063 0.79 2.03712685251e-38
0.0277786928358 -0.122811063063 0.79 2.00017629357e-38
0.0292407293008 -0.122811063063 0.79 2.12006536459e-38
0.0307027657658 -0.122811063063 0.79 2.35066570235e-38
0.0321648022309 -0.122811063063 0.79 2.2585058056e-38
0.0336268386959 -0.122811063063 0.79 9.10844001811e-44
0.0351777077563 -0.123121977147 0.792 1.31071713029e-39
0.0366434455795 -0.123121977147 0.792 1.86709287646e-39
0.0381091834027 -0.123121977147 0.792 2.60069504331e-39
0.0396748578956 -0.123432891231 0.794 2.8772833342e-39
0.0411442970769 -0.123432891231 0.794 3.06023546041e-39
0.0427210756443 -0.123743805314 0.796 2.69289207447e-39
0.0441942161837 -0.123743805314 0.796 2.78509050693e-39
0.0457820988255 -0.124054719398 0.798 2.10264834572e-41
0.0473773841836 -0.124365633482 0.8 5.82366049178e-39
0.0488579274393 -0.124365633482 0.8 2.02834463478e-38
0.0505272399602 -0.124832004607 0.803 1.89908956508e-38
0.0520133352531 -0.124832004607 0.803 1.90837947325e-38
0.0534994305461 -0.124832004607 0.803 1.84387882597e-38
0.054985525839 -0.124832004607 0.803 2.05571241418e-38
0.0564716211319 -0.124832004607 0.803 2.0554233263e-38
-0.0450288724442 -0.128875738375 0.839 1.5378912933e-38
-0.0434761527047 -0.128875738375 0.839 1.44584392082e-38
-0.0421233063048 -0.129490163826 0.843 1.41818621277e-38
-0.0406594191607 -0.129797376551 0.845 1.47422960342e-38
-0.0390955953468 -0.129797376551 0.845 1.44718440293e-38
-0.0374429389376 -0.129490163826 0.843 1.49324704527e-38
-0.0358828164819 -0.129490163826 0.843 7.37383991145e-39
-0.0342412641471 -0.1291829511 0.841 9.94921909671e-44
-0.0326071145285 -0.128875738375 0.839 1.01567934382e-39
-0.0309803676263 -0.128568525649 0.837 8.12753109308e-44
-0.0292906976357 -0.127954100198 0.833 1.8707405965e-38
-0.0275492086311 -0.127032462021 0.827 7.34724606919e-40
-0.0260186970405 -0.127032462021 0.827 1.4745065e-39
-0.0244289637197 -0.126725249296 0.825 1.47665749314e-39
-0.0229021534872 -0.126725249296 0.825 8.96831017168e-44
-0.0213753432547 -0.126725249296 0.825 3.22226339794e-39
-0.0198004153664 -0.12641803657 0.823 3.68249045128e-39
-0.0182328901944 -0.126110823845 0.821 1.34624018649e-38
-0.0166320527991 -0.125496398393 0.817 1.4658028951e-38
-0.0150460208364 -0.124881972942 0.813 1.66823909555e-38
-0.0135081065295 -0.124574760217 0.811 7.00649232162e-45
-0.0119183732087 -0.12365312204 0.805 2.02840615178e-39
-0.0104026670506 -0.123345909315 0.803 7.98740124665e-44
-0.00888325953442 -0.122885090226 0.8 8.20625183691e-39
-0.00738420948799 -0.122577877501 0.798 1.37349950539e-38
-0.00589256215783 -0.122270664775 0.796 1.25339393375e-38
-0.00439721346954 -0.121656239324 0.792 1.28116122334e-38
-0.00292407293008 -0.121349026598 0.79 1.57607681659e-38
-0.00146018578597 -0.121195420236 0.789 2.48430039027e-39
0.0 -0.121195420236 0.789 1.01888411341e-41
0.00146018578597 -0.121195420236 0.789 1.49395372008e-39
0.00291296885566 -0.12088820751 0.787 1.86309917584e-39
0.00436945328349 -0.12088820751 0.787 1.40500770136e-39
0.00582593771132 -0.12088820751 0.787 2.32481580945e-39
0.00728242213916 -0.12088820751 0.787 3.24424836955e-39
0.00873890656699 -0.12088820751 0.787 3.15385060561e-39
0.0101953909948 -0.12088820751 0.787 3.15277861229e-39
0.0116518754226 -0.12088820751 0.787 3.98181621105e-39
0.0131083598505 -0.12088820751 0.787 3.4304416991e-39
0.0146018578597 -0.121195420236 0.789 3.79741794483e-39
0.0160620436457 -0.121195420236 0.789 4.25695555933e-39
0.0175222294316 -0.121195420236 0.789 4.25766461635e-39
0.0189824152176 -0.121195420236 0.789 4.71791969566e-39
0.0204426010036 -0.121195420236 0.789 3.05912142813e-39
0.0219027867896 -0.121195420236 0.789 3.73305910896e-42
0.0233629725755 -0.121195420236 0.789 6.09649750668e-39
0.0248231583615 -0.121195420236 0.789 2.21248197922e-38
0.0262833441475 -0.121195420236 0.789 2.32289575029e-38
0.0277435299334 -0.121195420236 0.789 2.32296889807e-38
0.0292407293008 -0.121349026598 0.79 2.04667291804e-38
0.0307027657658 -0.121349026598 0.79 1.93600228897e-38
0.0321648022309 -0.121349026598 0.79 2.13879638103e-38
0.0336268386959 -0.121349026598 0.79 3.71716838438e-40
0.0351777077563 -0.121656239324 0.792 1.77242115221e-39
0.0366434455795 -0.121656239324 0.792 3.15279682917e-39
0.0381091834027 -0.121656239324 0.792 2.78509050693e-39
0.0396748578956 -0.121963452049 0.794 2.87693581218e-39
0.0411442970769 -0.121963452049 0.794 2.8772889394e-39
0.0427210756443 -0.122270664775 0.796 2.23191672775e-39
0.0441942161837 -0.122270664775 0.796 1.21920393278e-39
0.0457820988255 -0.122577877501 0.798 1.24211095878e-41
0.0473773841836 -0.122885090226 0.8 1.96427502691e-38
0.0489800722579 -0.123192302952 0.802 1.96362496455e-38
0.0505272399602 -0.123345909315 0.803 1.87139360158e-38
0.0520133352531 -0.123345909315 0.803 1.88986790014e-38
0.0534994305461 -0.123345909315 0.803 1.82536809365e-38
0.054985525839 -0.123345909315 0.803 2.01872822407e-38
0.0566122727412 -0.12365312204 0.805 2.03709210031e-38
-0.0450288724442 -0.127323018635 0.839 1.53807500353e-38
-0.0434761527047 -0.127323018635 0.839 1.46424843472e-38
-0.0423231796443 -0.128537064105 0.847 1.5749923517e-38
-0.0407556544723 -0.128537064105 0.847 1.46493815382e-38
-0.0391881293003 -0.128537064105 0.847 1.40094253451e-38
-0.0375317715329 -0.128233552738 0.845 1.41027041787e-38
-0.0358828164819 -0.12793004137 0.843 1.28119681632e-38
-0.0343226940261 -0.12793004137 0.843 9.10844001811e-44
-0.0326071145285 -0.127323018635 0.839 1.93620771932e-39
-0.0309803676263 -0.127019507268 0.837 7.42688186092e-44
-0.0292906976357 -0.126412484533 0.833 1.89772666219e-38
-0.0276158330776 -0.125805461798 0.829 8.26534879705e-40
-0.0260186970405 -0.125501950431 0.827 1.01534303219e-39
-0.0244881854499 -0.125501950431 0.827 1.10608971944e-39
-0.0229576738593 -0.125501950431 0.827 9.20629268988e-40
-0.0214271622687 -0.125501950431 0.827 1.02294787896e-43
-0.0198485330222 -0.125198439063 0.825 1.16307772539e-43
-0.0182328901944 -0.124591416328 0.821 9.10844001811e-44
-0.0166727677387 -0.124287904961 0.819 4.79679318102e-39
-0.0150830344178 -0.123680882226 0.815 1.79709829843e-38
-0.0135081065295 -0.123073859491 0.811 7.34685370562e-40
-0.0119479840738 -0.122466836756 0.807 6.46187767346e-40
-0.0104285765576 -0.122163325389 0.805 1.52040883379e-42
-0.00891657175768 -0.121859814022 0.803 3.41169092435e-39
-0.00742122306938 -0.121708058338 0.802 1.43803700681e-38
-0.00590736759039 -0.121101035603 0.798 1.29027134492e-38
-0.00439721346954 -0.120190501501 0.792 1.24417409051e-38
-0.00292407293008 -0.119886990133 0.79 1.3733183175e-38
-0.00146018578597 -0.11973523445 0.789 1.53909220609e-38
0.0 -0.11973523445 0.789 9.19473197754e-40
0.00146018578597 -0.11973523445 0.789 1.93510910132e-40
0.00291296885566 -0.119431723082 0.787 1.12806488196e-39
0.00436945328349 -0.119431723082 0.787 2.13860986821e-39
0.00581113227877 -0.119128211715 0.785 2.2329705042e-39
0.00726391534846 -0.119128211715 0.785 2.87653784342e-39
0.00871669841815 -0.119128211715 0.785 3.06165497575e-39
0.0101694814878 -0.119128211715 0.785 3.6137567616e-39
0.0116222645575 -0.119128211715 0.785 3.61375395901e-39
0.0131083598505 -0.119431723082 0.787 3.33824466794e-39
0.0145278306969 -0.119128211715 0.785 3.98181340845e-39
0.0159806137666 -0.119128211715 0.785 4.25695836192e-39
0.017477813134 -0.119431723082 0.787 4.53281937891e-39
0.0189824152176 -0.11973523445 0.789 4.16583472538e-39
0.0204426010036 -0.11973523445 0.789 3.8899737084e-39
0.0219027867896 -0.11973523445 0.789 3.88960096301e-39
0.0233629725755 -0.11973523445 0.789 1.63223245125e-41
0.0248231583615 -0.11973523445 0.789 1.3282065963e-38
0.0262833441475 -0.11973523445 0.789 2.35073688831e-38
0.0277435299334 -0.11973523445 0.789 2.09262541832e-38
0.0292407293008 -0.119886990133 0.79 1.93607291441e-38
0.0307027657658 -0.119886990133 0.79 1.84402372023e-38
0.0321648022309 -0.119886990133 0.79 2.11120985895e-38
0.0336268386959 -0.119886990133 0.79 3.13576544763e-39
0.0351777077563 -0.120190501501 0.792 1.30964793956e-39
0.0366434455795 -0.120190501501 0.792 2.97020343537e-39
0.0382054187143 -0.120494012868 0.794 2.78544363415e-39
0.0396748578956 -0.120494012868 0.794 2.87763926401e-39
0.0412479351048 -0.120797524236 0.796 2.96983209128e-39
0.0428284150303 -0.121101035603 0.798 2.78508770434e-39
0.0443052569279 -0.121101035603 0.798 1.45384715674e-41
0.0458968409278 -0.12140454697 0.8 1.03501460016e-38
0.047495827644 -0.121708058338 0.802 1.9454033201e-38
0.0490411446672 -0.121859814022 0.803 1.91745554327e-38
0.0506530861369 -0.122163325389 0.805 1.94514996534e-38
0.052142882788 -0.122163325389 0.805 1.89915963e-38
0.0536326794391 -0.122163325389 0.805 1.88075777857e-38
0.0551224760902 -0.122163325389 0.805 2.02805400548e-38
0.0566122727412 -0.122163325389 0.805 2.01861738136e-38
-0.0445643519977 -0.128918303993 0.86 1.52903578766e-38
-0.0424231163141 -0.127269348942 0.849 1.6212684118e-38
-0.0408518897839 -0.127269348942 0.849 1.52021979863e-38
-0.0392806632538 -0.127269348942 0.849 1.38239719012e-38
-0.0376206041283 -0.126969538933 0.847 1.37342803917e-38
-0.0359679477191 -0.126669728924 0.845 1.60391683357e-38
-0.0343226940261 -0.126369918914 0.843 4.34402523941e-44
-0.0326848430495 -0.126070108905 0.841 1.29263617621e-39
-0.0310543947891 -0.125770298896 0.839 7.70714155379e-44
-0.0293610234403 -0.125170678877 0.835 1.5751881131e-38
-0.0277490819706 -0.124870868868 0.833 4.5917748079e-40
-0.0260816201289 -0.124271248849 0.829 1.38375280625e-39
-0.0244881854499 -0.12397143884 0.827 8.68805047881e-44
-0.0229576738593 -0.12397143884 0.827 1.54863420785e-38
-0.0214271622687 -0.12397143884 0.827 1.14282728102e-38
-0.019896650678 -0.12397143884 0.827 0.0
-0.0182773064921 -0.123371818821 0.823 8.32749638394e-40
-0.0167134826782 -0.123072008812 0.821 7.00649232162e-44
-0.0151200479992 -0.122472388794 0.817 1.25383730459e-38
-0.0135414187528 -0.121872768775 0.813 4.51616074276e-39
-0.0119775949389 -0.121273148756 0.809 5.53285883057e-40
-0.0104285765576 -0.120673528738 0.805 1.38374019457e-39
-0.00891657175768 -0.120373718729 0.803 8.40779078595e-44
-0.00742122306938 -0.120223813724 0.802 1.4656972372e-38
-0.00590736759039 -0.119624193705 0.798 1.27190340491e-38
-0.00440831754396 -0.119024573687 0.794 1.29027190544e-38
-0.00293147564636 -0.118724763678 0.792 1.36406372205e-38
-0.00146018578597 -0.118275048664 0.789 1.37346335189e-38
0.0 -0.118275048664 0.789 1.49328081656e-38
0.00145648442783 -0.117975238654 0.787 1.38047376785e-39
0.00291296885566 -0.117975238654 0.787 4.7261873566e-40
0.00435834920908 -0.117675428645 0.785 2.04604289425e-39
0.00579632684621 -0.117375618636 0.783 2.78217720743e-39
0.00724540855776 -0.117375618636 0.783 2.60067962903e-39
0.00871669841815 -0.117675428645 0.785 2.96910341608e-39
0.0101435719809 -0.117375618636 0.783 3.33716566812e-39
0.0115926536924 -0.117375618636 0.783 3.70486918775e-39
0.0130750476272 -0.117675428645 0.785 3.52191005506e-39
0.0145278306969 -0.117675428645 0.785 3.88961777859e-39
0.0159806137666 -0.117675428645 0.785 4.5324662517e-39
0.0174333968363 -0.117675428645 0.785 3.79742495132e-39
0.018886179906 -0.117675428645 0.785 4.90197464375e-39
0.0203907819896 -0.117975238654 0.787 7.11392847359e-39
0.0218472664175 -0.117975238654 0.787 5.18070692129e-39
0.0233037508453 -0.117975238654 0.787 3.79705500853e-39
0.0247602352731 -0.117975238654 0.787 1.59986245672e-41
0.0262833441475 -0.118275048664 0.789 2.22198838801e-38
0.0277435299334 -0.118275048664 0.789 2.06518561218e-38
0.0292407293008 -0.118424953668 0.79 1.93611018895e-38
0.0307027657658 -0.118424953668 0.79 1.69643882584e-38
0.0321648022309 -0.118424953668 0.79 2.21251785246e-38
0.0336268386959 -0.118424953668 0.79 5.25516631649e-39
0.0351777077563 -0.118724763678 0.792 2.22765818172e-39
0.036735979533 -0.119024573687 0.794 2.96912863945e-39
0.0382054187143 -0.119024573687 0.794 2.32555008984e-39
0.0397747945654 -0.119324383696 0.796 2.14259095715e-39
0.0413515731327 -0.119624193705 0.798 3.15351569528e-39
0.0429357544164 -0.119924003715 0.8 1.30853110469e-39
0.0444162976721 -0.119924003715 0.8 1.49616637036e-41
0.0460115830302 -0.120223813724 0.802 2.0471422129e-38
0.0475550493743 -0.120373718729 0.803 1.94518681949e-38
0.0491632894858 -0.120673528738 0.805 1.88068491105e-38
0.0506530861369 -0.120673528738 0.805 1.93603760169e-38
0.052142882788 -0.120673528738 0.805 1.96373342506e-38
0.0536326794391 -0.120673528738 0.805 1.7978535983e-38
0.0552594263413 -0.120973338747 0.807 2.037238536e-38
0.0567529243505 -0.120973338747 0.807 2.03712839394e-38
-0.0445643519977 -0.127326719993 0.86 1.55669223454e-38
-0.0425230529838 -0.125994231063 0.851 1.46442962261e-38
-0.0409481250955 -0.125994231063 0.851 1.54787890798e-38
-0.0392806632538 -0.125698122412 0.849 1.43778337179e-38
-0.0377094367236 -0.125698122412 0.849 1.39172269127e-38
-0.0360530789563 -0.125402013761 0.847 1.58547812798e-38
-0.0344041239052 -0.12510590511 0.845 5.184804318e-44
-0.0327625715704 -0.124809796459 0.843 1.65891037141e-39
-0.0311284219519 -0.124513687807 0.841 7.70714155379e-44
-0.029431349245 -0.123921470505 0.837 9.12891719257e-39
-0.0278157064172 -0.123625361854 0.835 5.6214349065e-39
-0.0260816201289 -0.122737035901 0.829 8.28060893733e-40
-0.0245474071801 -0.122737035901 0.829 9.10844001811e-44
-0.0230131942314 -0.122737035901 0.829 1.53924340619e-38
-0.0214789812826 -0.122737035901 0.829 1.69582575776e-38
-0.019896650678 -0.122440927249 0.827 3.95904230841e-39
-0.0183217227897 -0.122144818598 0.825 1.16307772539e-43
-0.0167134826782 -0.121552601296 0.821 8.54792063238e-44
-0.0151570615806 -0.121256492645 0.819 9.03638104718e-39
-0.013574730976 -0.120664275343 0.815 1.13386205371e-38
-0.012007205804 -0.12007205804 0.811 9.10844001811e-44
-0.0104803955715 -0.119775949389 0.809 1.01639680864e-39
-0.00893877990651 -0.119183732087 0.805 7.14662216806e-44
-0.00743047646473 -0.118887623436 0.803 1.50271688016e-38
-0.00590736759039 -0.118147351808 0.798 1.2443538771e-38
-0.00440831754396 -0.117555134506 0.794 1.28123184879e-38
-0.00293147564636 -0.117259025854 0.792 1.28123184879e-38
-0.00146018578597 -0.116814862878 0.789 1.32733008411e-38
0.0 -0.116814862878 0.789 1.40097728672e-38
0.00145648442783 -0.116518754226 0.787 1.45618928699e-38
0.00290556613938 -0.116222645575 0.785 9.18733312165e-41
0.00435834920908 -0.116222645575 0.785 8.41381636935e-40
0.00579632684621 -0.115926536924 0.783 1.95421580589e-39
0.00724540855776 -0.115926536924 0.783 2.32444306406e-39
0.00869449026931 -0.115926536924 0.783 3.15421634451e-39
0.0101435719809 -0.115926536924 0.783 3.52191285766e-39
0.0115926536924 -0.115926536924 0.783 3.79742495132e-39
0.013041735404 -0.115926536924 0.783 4.34952253328e-39
0.0145278306969 -0.116222645575 0.785 4.80977901389e-39
0.0159806137666 -0.116222645575 0.785 6.09870595306e-39
0.0174333968363 -0.116222645575 0.785 5.73064370102e-39
0.018886179906 -0.116222645575 0.785 6.09907169196e-39
0.0203907819896 -0.116518754226 0.787 2.96948176666e-39
0.0218472664175 -0.116518754226 0.787 3.24751059237e-39
0.0233037508453 -0.116518754226 0.787 1.21885360817e-39
0.0247602352731 -0.116518754226 0.787 4.94658357907e-43
0.0262833441475 -0.116814862878 0.789 1.9920409152e-38
0.0277435299334 -0.116814862878 0.789 2.04674298297e-38
0.0292407293008 -0.116962917203 0.79 2.00057482285e-38
0.0307027657658 -0.116962917203 0.79 1.78859844233e-38
0.0321648022309 -0.116962917203 0.79 2.19425795256e-38
0.0337119699331 -0.117259025854 0.792 9.31140829158e-39
0.0351777077563 -0.117259025854 0.792 5.68855710294e-40
0.0368285134865 -0.117851243157 0.796 2.87730155108e-39
0.0383016540259 -0.117851243157 0.796 2.417747121e-39
0.0398747312351 -0.118147351808 0.798 2.96983489387e-39
0.0414552111606 -0.118443460459 0.8 3.42829490985e-39
0.0430430938024 -0.11873956911 0.802 1.20371538086e-41
0.0445273384163 -0.11873956911 0.802 1.5685573089e-38
0.0460689540813 -0.118887623436 0.803 1.95465707477e-38
0.0476734928347 -0.119183732087 0.805 1.90838087455e-38
0.0491632894858 -0.119183732087 0.805 1.89908928482e-38
0.0507789323136 -0.119479840738 0.807 1.88986944157e-38
0.0522724303229 -0.119479840738 0.807 1.89923179687e-38
0.0537659283321 -0.119479840738 0.807 1.86239025895e-38
0.0552594263413 -0.119479840738 0.807 2.05578458105e-38
-0.0445643519977 -0.125735135993 0.86 1.57520338725e-38
-0.042872831328 -0.1254427287 0.858 1.51971028651e-38
-0.0411887133746 -0.125150321407 0.856 1.52922117945e-38
-0.0393731972073 -0.124419303175 0.851 1.38243250284e-38
-0.0377094367236 -0.124126895882 0.849 1.35495360047e-38
-0.0361382101935 -0.124126895882 0.849 1.62235567928e-38
-0.0344855537843 -0.123834488589 0.847 0.0
-0.0327625715704 -0.123249674003 0.843 1.01499270758e-39
-0.0311284219519 -0.12295726671 0.841 1.10714910108e-39
-0.0295016750496 -0.122664859417 0.839 8.30579027073e-40
-0.0278823308637 -0.122372452124 0.837 1.53909220609e-38
-0.0262074663056 -0.121787637538 0.833 1.28574879426e-39
-0.0245474071801 -0.121202822952 0.829 6.0255833966e-44
-0.0230131942314 -0.121202822952 0.829 1.44726483746e-38
-0.0214789812826 -0.121202822952 0.829 1.43799973227e-38
-0.019896650678 -0.120910415659 0.827 1.4563296971e-38
-0.0183217227897 -0.120618008366 0.825 1.05097384824e-43
-0.0167541976177 -0.120325601073 0.823 1.89035162837e-42
-0.0151570615806 -0.119740786487 0.819 3.31986383598e-39
-0.013574730976 -0.119155971901 0.815 1.53008774242e-38
-0.0120368166691 -0.118863564608 0.813 7.34748428993e-40
-0.0104803955715 -0.118278750022 0.809 1.65961942843e-39
-0.00896098805535 -0.117986342729 0.807 7.56701170735e-44
-0.00744898325543 -0.117693935436 0.805 1.43822071704e-38
-0.00592217302295 -0.116962917203 0.8 1.3827196289e-38
-0.00440831754396 -0.116085695324 0.794 1.31803653256e-38
-0.00293147564636 -0.115793288031 0.792 1.29041609905e-38
-0.00146203646504 -0.115500880738 0.79 1.29967125502e-38
0.0 -0.115354677092 0.789 1.31807548866e-38
0.00145648442783 -0.115062269799 0.787 1.41030573059e-38
0.00290556613938 -0.114769862506 0.785 1.46544360218e-38
0.00435834920908 -0.114769862506 0.785 2.85630869879e-39
0.00579632684621 -0.114477455213 0.783 9.84692430881e-42
0.00724540855776 -0.114477455213 0.783 2.32408993684e-39
0.00869449026931 -0.114477455213 0.783 2.14257554286e-39
0.0101435719809 -0.114477455213 0.783 3.4297144252e-39
0.0115926536924 -0.114477455213 0.783 5.73100943992e-39
0.013041735404 -0.114477455213 0.783 5.9121538911e-39
0.0144908171155 -0.114477455213 0.783 6.19522038479e-39
0.0159806137666 -0.114769862506 0.785 5.08493657905e-39
0.0174333968363 -0.114769862506 0.785 4.44351743037e-39
0.018886179906 -0.114769862506 0.785 3.1538660199e-39
0.0203907819896 -0.115062269799 0.787 1.58943679615e-39
0.0218472664175 -0.115062269799 0.787 2.50959242625e-39
0.0233037508453 -0.115062269799 0.787 3.06058578502e-39
0.0247602352731 -0.115062269799 0.787 1.26116861789e-43
0.0262833441475 -0.115354677092 0.789 1.55033370263e-38
0.0277435299334 -0.115354677092 0.789 2.00064769037e-38
0.0292407293008 -0.115500880738 0.79 1.98202807716e-38
0.0307804942868 -0.115793288031 0.792 1.75175578337e-38
0.0322462321099 -0.115793288031 0.792 2.01915870296e-38
0.0337971011703 -0.116085695324 0.794 1.34598585082e-38
0.0352665403517 -0.116085695324 0.794 1.42357910991e-41
0.0368285134865 -0.116378102617 0.796 2.69470815728e-39
0.0383016540259 -0.116378102617 0.796 2.78545344324e-39
0.0398747312351 -0.11667050991 0.798 2.69289487707e-39
0.0414552111606 -0.116962917203 0.8 1.81398086207e-41
0.0430430938024 -0.117255324496 0.802 5.08358712863e-39
0.0445273384163 -0.117255324496 0.802 2.05607464983e-38
0.0460689540813 -0.117401528143 0.803 1.94529499973e-38
0.0476734928347 -0.117693935436 0.805 1.87157534999e-38
0.0491632894858 -0.117693935436 0.805 1.9636618187e-38
0.0509047784904 -0.118278750022 0.809 1.88994034727e-38
0.0524019778577 -0.118278750022 0.809 1.8991248778e-38
0.0538991772251 -0.118278750022 0.809 1.91770791712e-38
0.0553963765925 -0.118278750022 0.809 2.08347900312e-38
-0.0445643519977 -0.124143551994 0.86 1.47386176257e-38
-0.042872831328 -0.123854846059 0.858 1.51985125713e-38
-0.0411887133746 -0.123566140124 0.856 1.55713098109e-38
-0.0393731972073 -0.122844375287 0.851 1.36410253802e-38
-0.037798269319 -0.122844375287 0.851 1.39183227281e-38
-0.0361382101935 -0.122555669352 0.849 1.55785433136e-38
-0.0344855537843 -0.122266963417 0.847 6.36042366465e-39
-0.0328403000913 -0.121978257482 0.845 1.12103877146e-43
-0.0312024491147 -0.121689551547 0.843 1.93656084653e-39
-0.0295720008543 -0.121400845612 0.841 6.86636247519e-44
-0.0279489553102 -0.121112139677 0.839 1.93534816284e-38
-0.0262074663056 -0.120246021873 0.833 1.83677998808e-40
-0.0246066289103 -0.119957315938 0.831 9.80908925027e-44
-0.0230687146034 -0.119957315938 0.831 5.44073186433e-39
-0.0214789812826 -0.119668610003 0.829 1.54881273327e-38
-0.0199447683338 -0.119668610003 0.829 1.61313485512e-38
-0.0183661390874 -0.119379904068 0.827 5.6051938573e-44
-0.0167949125573 -0.119091198133 0.825 7.38035875191e-40
-0.015194075162 -0.118513786264 0.821 7.84727140022e-44
-0.0136080431993 -0.117936374394 0.817 1.75117648659e-38
-0.0120664275343 -0.117647668459 0.815 7.34738619904e-40
-0.0105063050785 -0.117070256589 0.811 2.02695440657e-39
-0.00898319620418 -0.116781550654 0.809 7.28675201449e-44
-0.00744898325543 -0.116204138785 0.805 1.45644656539e-38
-0.00592217302295 -0.115482373947 0.8 1.31821772045e-38
-0.00441942161837 -0.114904962078 0.796 1.31821800071e-38
-0.00293887836264 -0.114616256143 0.794 1.29041665957e-38
-0.00146203646504 -0.114038844273 0.79 1.3827196289e-38
0.0 -0.113894491306 0.789 1.32729561216e-38
0.00145648442783 -0.113605785371 0.787 1.37339300671e-38
0.00290556613938 -0.113317079436 0.785 1.37324769206e-38
0.00435834920908 -0.113317079436 0.785 1.46540884998e-38
0.00579632684621 -0.113028373501 0.783 2.48717165082e-39
0.00724540855776 -0.113028373501 0.783 9.5134152743e-42
0.00869449026931 -0.113028373501 0.783 1.31643723062e-39
0.0101435719809 -0.113028373501 0.783 4.25982822118e-39
0.0115926536924 -0.113028373501 0.783 6.6562083432e-39
0.013041735404 -0.113028373501 0.783 5.0863462853e-39
0.0144908171155 -0.113028373501 0.783 3.8914310588e-39
0.0159398988271 -0.113028373501 0.783 2.78689117546e-39
0.0174333968363 -0.113317079436 0.785 2.04861988213e-39
0.018886179906 -0.113317079436 0.785 2.32628296894e-39
0.0203907819896 -0.113605785371 0.787 2.87800220031e-39
0.0218472664175 -0.113605785371 0.787 2.96875589406e-39
0.0233037508453 -0.113605785371 0.787 2.96910902127e-39
0.0247602352731 -0.113605785371 0.787 1.198110187e-42
0.0262833441475 -0.113894491306 0.789 1.18948001015e-38
0.0277435299334 -0.113894491306 0.789 2.06514651596e-38
0.0293147564636 -0.114327550208 0.792 2.00050391715e-38
0.0308582228077 -0.114616256143 0.794 1.79785331804e-38
0.032327661989 -0.114616256143 0.794 2.00068272283e-38
0.0338822324075 -0.114904962078 0.796 1.71476837027e-38
0.035355372947 -0.114904962078 0.796 9.18831403058e-42
0.0369210474399 -0.115193668013 0.798 2.14225184292e-39
0.0383978893375 -0.115193668013 0.798 2.78473457712e-39
0.0398747312351 -0.115193668013 0.798 1.67982755359e-39
0.0414552111606 -0.115482373947 0.8 1.45622936413e-41
0.0430430938024 -0.115771079882 0.802 1.8905555173e-38
0.0445828587884 -0.11591543285 0.803 1.97288082117e-38
0.0461836961836 -0.116204138785 0.805 1.88079309129e-38
0.0479103797556 -0.116781550654 0.809 1.92689062596e-38
0.049407579123 -0.116781550654 0.809 1.8991248778e-38
0.0509047784904 -0.116781550654 0.809 1.88987000209e-38
0.0525315253926 -0.117070256589 0.811 1.89908928482e-38
0.0540324261181 -0.117070256589 0.811 1.88075805883e-38
-0.0445643519977 -0.122551967994 0.86 1.49201432301e-38
-0.042872831328 -0.122266963417 0.858 1.49197802938e-38
