# .PCD v0.7 - Point Cloud Data file format
VERSION 0.7
FIELDS x y z rgb
SIZE 4 4 4 4
TYPE F F F F
COUNT 1 1 1 1
WIDTH 854
HEIGHT 1
VIEWPOINT 0 0 0 1 0 0 0
POINTS 854
DATA ascii
0.0091164450972 -0.158018381685 0.821 1.98159437528e-38
0.0106358526134 -0.158018381685 0.821 2.02783540292e-38
0.0121552601296 -0.158018381685 0.821 1.94485863539e-38
0.0136746676458 -0.158018381685 0.821 1.95407889903e-38
0.015194075162 -0.158018381685 0.821 1.97241012502e-38
0.0167134826782 -0.158018381685 0.821 1.99077736438e-38
0.0182328901944 -0.158018381685 0.821 1.95404484747e-38
0.0197522977106 -0.158018381685 0.821 1.94489590993e-38
0.0212717052268 -0.158018381685 0.821 1.972518025e-38
0.0227355923709 -0.157633440438 0.819 1.96315538944e-38
0.024251298529 -0.157633440438 0.819 2.00932396994e-38
0.025767004687 -0.157633440438 0.819 1.93556872722e-38
0.0272827108451 -0.157633440438 0.819 1.99077764464e-38
0.0287984170032 -0.157633440438 0.819 2.01854521449e-38
0.0303141231612 -0.157633440438 0.819 2.03701993344e-38
0.0318298293193 -0.157633440438 0.819 2.09237360499e-38
0.0333455354773 -0.157633440438 0.819 2.2860553334e-38
0.0348612416354 -0.157633440438 0.819 2.25839860626e-38
0.0364657803888 -0.158018381685 0.821 3.74582493797e-40
0.037985187905 -0.158018381685 0.821 1.20805940609e-41
0.0395045954212 -0.158018381685 0.821 2.14819713191e-38
0.0411239396072 -0.158403322931 0.823 2.09252004068e-38
0.0427506865094 -0.158788264178 0.825 1.96369685117e-38
0.0443848361279 -0.159173205424 0.827 1.94522185195e-38
0.0460263884627 -0.159558146671 0.829 1.862066559e-38
0.0475606014115 -0.159558146671 0.829 2.000322449e-38
0.0490948143602 -0.159558146671 0.829 1.25277904399e-38
-0.0227355923709 -0.15611773428 0.819 2.0370563672e-39
-0.0212198862128 -0.15611773428 0.819 1.68014985223e-39
-0.0197041800548 -0.15611773428 0.819 4.5331879204e-39
-0.0181884738967 -0.15611773428 0.819 4.44242441757e-39
-0.0166727677387 -0.15611773428 0.819 4.80833287387e-39
-0.015194075162 -0.156498974169 0.821 4.5324662517e-39
-0.0136746676458 -0.156498974169 0.821 4.25767442544e-39
-0.0121552601296 -0.156498974169 0.821 3.79741794483e-39
-0.0106358526134 -0.156498974169 0.821 3.24244910232e-39
-0.0091164450972 -0.156498974169 0.821 2.13684002825e-41
-0.007597037581 -0.156498974169 0.821 1.38728547968e-43
-0.00609243549736 -0.156880214057 0.823 1.2455863191e-38
-0.00456932662302 -0.156880214057 0.823 2.24917708146e-38
-0.0030388150324 -0.156498974169 0.821 2.09215738464e-38
-0.0015194075162 -0.156498974169 0.821 1.75113865153e-38
0.0 -0.156498974169 0.821 1.76046835657e-38
0.0015194075162 -0.156498974169 0.821 1.88954167786e-38
0.0030388150324 -0.156498974169 0.821 2.18446161513e-38
0.0045582225486 -0.156498974169 0.821 2.25825189031e-38
0.0060776300648 -0.156498974169 0.821 9.50015618823e-39
0.007597037581 -0.156498974169 0.821 1.10750208816e-38
0.0091164450972 -0.156498974169 0.821 1.73363531267e-38
0.0106358526134 -0.156498974169 0.821 1.88086063388e-38
0.0121552601296 -0.156498974169 0.821 2.05570849054e-38
0.0136413554225 -0.15611773428 0.819 1.9909211376e-38
0.0151570615806 -0.15611773428 0.819 2.03709055888e-38
0.0166727677387 -0.15611773428 0.819 1.92638321579e-38
0.0181884738967 -0.15611773428 0.819 1.9723748123e-38
0.0197041800548 -0.15611773428 0.819 1.9538989723e-38
0.0212198862128 -0.15611773428 0.819 2.02761988321e-38
0.0227355923709 -0.15611773428 0.819 1.93545956607e-38
0.024251298529 -0.15611773428 0.819 1.97244529761e-38
0.025767004687 -0.15611773428 0.819 1.9909211376e-38
0.0272827108451 -0.15611773428 0.819 2.01858080747e-38
0.0287984170032 -0.15611773428 0.819 2.01858024695e-38
0.0303141231612 -0.15611773428 0.819 2.09229905591e-38
0.0318298293193 -0.15611773428 0.819 2.19375418577e-38
0.0333455354773 -0.15611773428 0.819 2.3508805214e-38
0.0348612416354 -0.15611773428 0.819 3.40913215335e-39
0.0363769477935 -0.15611773428 0.819 2.22806455828e-43
0.037985187905 -0.156498974169 0.821 1.90027716553e-38
0.0395045954212 -0.156498974169 0.821 2.04652844417e-38
0.0412238762769 -0.157261453945 0.825 1.94511493288e-38
0.0427506865094 -0.157261453945 0.825 1.93614578193e-38
0.0443848361279 -0.157642693834 0.827 1.83458639547e-38
0.0460263884627 -0.158023933722 0.829 1.92663881263e-38
0.0475606014115 -0.158023933722 0.829 2.00957760497e-38
0.0494501447416 -0.159167653387 0.835 1.19738907881e-38
-0.0241920767987 -0.154224489592 0.817 4.42794620184e-39
-0.0226800719988 -0.154224489592 0.817 2.8761875188e-39
-0.0211680671989 -0.154224489592 0.817 4.34951973069e-39
-0.0197041800548 -0.154602028122 0.819 4.80833007128e-39
-0.0181884738967 -0.154602028122 0.819 4.99417027362e-39
-0.0166727677387 -0.154602028122 0.819 5.72741931325e-39
-0.0151570615806 -0.154602028122 0.819 4.89981244022e-39
-0.0136413554225 -0.154602028122 0.819 4.80833007128e-39
-0.0121256492645 -0.154602028122 0.819 4.44062374905e-39
-0.0106099431064 -0.154602028122 0.819 4.9916325221e-39
-0.00909423694836 -0.154602028122 0.819 1.48789870942e-41
-0.007597037581 -0.154979566652 0.821 7.65710398822e-39
-0.0060776300648 -0.154979566652 0.821 2.35091681503e-38
-0.0045582225486 -0.154979566652 0.821 2.01858080747e-38
-0.0030388150324 -0.154979566652 0.821 1.32657786709e-38
-0.0015194075162 -0.154979566652 0.821 1.35434445603e-38
0.0 -0.154979566652 0.821 1.38233104883e-38
0.0015194075162 -0.154979566652 0.821 1.29034575387e-38
0.0030388150324 -0.154979566652 0.821 2.09244801394e-38
0.0045582225486 -0.154979566652 0.821 2.07393419876e-38
0.0060776300648 -0.154979566652 0.821 1.21731274037e-38
0.007597037581 -0.154979566652 0.821 2.78040456487e-39
0.0091164450972 -0.154979566652 0.821 1.31722055647e-43
0.0106358526134 -0.154979566652 0.821 1.70958412648e-43
0.0121256492645 -0.154602028122 0.819 5.26716423394e-39
0.0136413554225 -0.154602028122 0.819 1.45709354489e-38
0.0151570615806 -0.154602028122 0.819 1.7702261583e-38
0.0166320527991 -0.154224489592 0.817 1.98206128793e-38
0.0181440575991 -0.154224489592 0.817 2.04638200848e-38
0.019656062399 -0.154224489592 0.817 2.04612991489e-38
0.0211680671989 -0.154224489592 0.817 2.09226402345e-38
0.0226800719988 -0.154224489592 0.817 1.96319014164e-38
0.0241920767987 -0.154224489592 0.817 1.95407889903e-38
0.0257040815987 -0.154224489592 0.817 2.01858080747e-38
0.0272160863986 -0.154224489592 0.817 1.99088610514e-38
0.0287280911985 -0.154224489592 0.817 2.03709210031e-38
0.0302400959984 -0.154224489592 0.817 2.17534995213e-38
0.0317521007983 -0.154224489592 0.817 2.35041304824e-38
0.0332641055983 -0.154224489592 0.817 1.24439115164e-38
0.0347761103982 -0.154224489592 0.817 2.29812948149e-43
0.0363769477935 -0.154602028122 0.819 1.54136539246e-38
0.037985187905 -0.154979566652 0.821 2.08376739034e-38
0.0395045954212 -0.154979566652 0.821 1.95443987351e-38
0.0412238762769 -0.155734643713 0.825 1.94518555832e-38
0.0428543245373 -0.156112182243 0.827 1.93596585521e-38
0.0443848361279 -0.156112182243 0.827 1.95440540157e-38
0.0460263884627 -0.156489720773 0.829 1.91749113625e-38
0.0477900856161 -0.157244797834 0.833 1.9910309994e-38
0.0494501447416 -0.157622336364 0.835 1.15121867662e-38
-0.0270162130591 -0.151590973276 0.811 1.35379696872e-38
-0.0255153123336 -0.151590973276 0.811 3.22869956179e-39
-0.0240144116081 -0.151590973276 0.811 3.91246735135e-40
-0.0226245516267 -0.15233864762 0.815 5.36150665305e-39
-0.0211162481849 -0.15233864762 0.815 5.81922958604e-39
-0.0196079447432 -0.15233864762 0.815 4.99307445822e-39
-0.0180996413014 -0.15233864762 0.815 4.90052570114e-39
-0.0166320527991 -0.152712484792 0.817 4.90052570114e-39
-0.0151200479992 -0.152712484792 0.817 4.16439559186e-39
-0.0136080431993 -0.152712484792 0.817 4.07291322292e-39
-0.0120960383994 -0.152712484792 0.817 4.25730868654e-39
-0.0105840335994 -0.152712484792 0.817 2.92195953184e-40
-0.00907202879953 -0.152712484792 0.817 5.63161113595e-39
-0.00756002399961 -0.152712484792 0.817 2.35023522346e-38
-0.00604801919968 -0.152712484792 0.817 2.20268438062e-38
-0.00453601439976 -0.152712484792 0.817 1.9910643503e-38
-0.00303141231612 -0.153086321964 0.819 1.76057527565e-38
-0.00151570615806 -0.153086321964 0.819 2.05535143969e-38
0.0 -0.153460159136 0.821 1.9908863854e-38
0.0015194075162 -0.153460159136 0.821 2.03709182005e-38
0.0030388150324 -0.153460159136 0.821 1.92649209668e-38
0.00441942161837 -0.148787194485 0.796 1.9633350359e-38
0.00589256215783 -0.148787194485 0.796 1.94489590993e-38
0.007597037581 -0.153460159136 0.821 2.14743916957e-38
0.0091164450972 -0.153460159136 0.821 2.10137694762e-38
0.0106358526134 -0.153460159136 0.821 1.94486031695e-38
0.0121256492645 -0.153086321964 0.819 1.27226087615e-38
0.0136080431993 -0.152712484792 0.817 2.21537860328e-39
0.0151200479992 -0.152712484792 0.817 1.56945428004e-43
0.0166320527991 -0.152712484792 0.817 1.51340234147e-43
0.0181440575991 -0.152712484792 0.817 5.72634031344e-39
0.0196079447432 -0.15233864762 0.815 1.57683786178e-38
0.0211162481849 -0.15233864762 0.815 1.77022797999e-38
0.0226245516267 -0.15233864762 0.815 2.00053628714e-38
0.0241328550685 -0.15233864762 0.815 2.09251485587e-38
0.0256411585103 -0.15233864762 0.815 2.02783568318e-38
0.0270828375056 -0.151964810448 0.813 2.13829023203e-38
0.0285874395892 -0.151964810448 0.813 2.10162876096e-38
0.0301660688356 -0.15233864762 0.815 2.26740110812e-38
0.0316743722774 -0.15233864762 0.815 1.84358637498e-38
0.0331826757192 -0.15233864762 0.815 3.68261236425e-42
0.0347761103982 -0.152712484792 0.817 7.94986746728e-39
0.0363769477935 -0.153086321964 0.819 2.18493133038e-38
0.0378926539515 -0.153086321964 0.819 1.94522031052e-38
0.0395045954212 -0.153460159136 0.821 1.94529275765e-38
0.0412238762769 -0.15420783348 0.825 1.88057799198e-38
0.0428543245373 -0.154581670652 0.827 1.99121260768e-38
0.044492175514 -0.154955507824 0.829 1.94514996534e-38
0.0460263884627 -0.154955507824 0.829 1.86213844561e-38
0.0477900856161 -0.155703182169 0.833 2.01876213549e-38
-0.0270162130591 -0.15009007255 0.811 5.90277359918e-39
-0.0255153123336 -0.15009007255 0.811 5.78116891845e-40
-0.0240144116081 -0.15009007255 0.811 2.50884693547e-39
-0.0225690312546 -0.150460208364 0.813 3.98109454234e-39
-0.0211162481849 -0.150830344178 0.815 5.35933604173e-39
-0.0196079447432 -0.150830344178 0.815 5.08310928585e-39
-0.0180996413014 -0.150830344178 0.815 4.71756376585e-39
-0.0165913378596 -0.150830344178 0.815 4.80868319849e-39
-0.0150830344178 -0.150830344178 0.815 3.8899709058e-39
-0.013574730976 -0.150830344178 0.815 3.79741794483e-39
-0.0120664275343 -0.150830344178 0.815 2.0216392815e-40
-0.0105322145855 -0.150460208364 0.813 2.0356915025e-39
-0.00900540435302 -0.15009007255 0.811 2.35034284318e-38
-0.00750450362752 -0.15009007255 0.811 2.10159344824e-38
-0.00600360290201 -0.15009007255 0.811 1.88028666202e-38
-0.00450270217651 -0.15009007255 0.811 1.84333848529e-38
-0.00295368379519 -0.14768418976 0.798 1.97255361798e-38
-0.00147314053946 -0.147314053946 0.796 2.00932523111e-38
0.0 -0.146943918132 0.794 1.94482388319e-38
0.00146943918132 -0.146943918132 0.794 1.9080182185e-38
0.00294628107892 -0.147314053946 0.796 1.87121171304e-38
0.00441942161837 -0.147314053946 0.796 1.94500409017e-38
0.00589256215783 -0.147314053946 0.796 1.88968671225e-38
0.00736570269729 -0.147314053946 0.796 1.95404386656e-38
0.00883884323675 -0.147314053946 0.796 1.91698582803e-38
0.0103119837762 -0.147314053946 0.796 1.99091959617e-38
0.0118147351808 -0.14768418976 0.798 2.03719873913e-38
0.0135081065295 -0.15009007255 0.811 2.13836281929e-38
0.015009007255 -0.15009007255 0.811 2.13828967151e-38
0.0165506229201 -0.150460208364 0.813 1.76061283044e-38
0.0180552250037 -0.150460208364 0.813 1.17999742344e-38
0.0195598270874 -0.150460208364 0.813 1.19799247793e-39
0.021064429171 -0.150460208364 0.813 1.59748024933e-43
0.0225690312546 -0.150460208364 0.813 1.49938935683e-43
0.0240736333383 -0.150460208364 0.813 5.17463649634e-39
0.0255782354219 -0.150460208364 0.813 1.51255553681e-38
0.0270828375056 -0.150460208364 0.813 1.94539785504e-38
0.0285874395892 -0.150460208364 0.813 2.31389156688e-38
0.0300920416729 -0.150460208364 0.813 2.2400275834e-38
0.0315966437565 -0.150460208364 0.813 6.13488467681e-42
0.0331012458401 -0.150460208364 0.813 3.05563920144e-39
0.0347761103982 -0.151200479992 0.817 2.18496720362e-38
0.0363769477935 -0.151570615806 0.819 2.06489442236e-38
0.0378926539515 -0.151570615806 0.819 1.93596529469e-38
0.0395045954212 -0.15194075162 0.821 1.93596697624e-38
0.0412238762769 -0.152681023248 0.825 1.96358965183e-38
0.0428543245373 -0.153051159062 0.827 1.93586005717e-38
0.044492175514 -0.153421294876 0.829 1.93593054248e-38
0.0460263884627 -0.153421294876 0.829 1.92663909289e-38
-0.0300180145101 -0.148589171825 0.811 1.39078312065e-38
-0.0285171137846 -0.148589171825 0.811 5.07304796287e-39
-0.0270162130591 -0.148589171825 0.811 2.27921195222e-41
-0.0255153123336 -0.148589171825 0.811 1.95782835333e-39
-0.0240144116081 -0.148589171825 0.811 4.16656340059e-39
-0.0225690312546 -0.148955606281 0.813 4.44097407366e-39
-0.021064429171 -0.148955606281 0.813 4.62536813598e-39
-0.0195598270874 -0.148955606281 0.813 4.44097687626e-39
-0.0180552250037 -0.148955606281 0.813 4.07436216553e-39
-0.0165506229201 -0.148955606281 0.813 4.5331879204e-39
-0.0150460208364 -0.148955606281 0.813 3.88961777859e-39
-0.0135414187528 -0.148955606281 0.813 1.95351235406e-39
-0.0120368166691 -0.148955606281 0.813 9.88055547195e-42
-0.0104803955715 -0.148222737369 0.809 2.35084506855e-38
-0.00896098805535 -0.147856302913 0.807 2.13847001862e-38
-0.00743047646473 -0.147123434002 0.803 1.66830958086e-38
-0.00592217302295 -0.146573782318 0.8 1.98184632875e-38
-0.00443052569279 -0.146207347862 0.798 1.9909211376e-38
-0.00294628107892 -0.145840913406 0.796 2.05556597849e-38
-0.00146943918132 -0.145474478951 0.794 1.88968671225e-38
0.0 -0.145474478951 0.794 1.95415078564e-38
0.00146943918132 -0.145474478951 0.794 1.98177444213e-38
0.00293887836264 -0.145474478951 0.794 1.97251830526e-38
0.00440831754396 -0.145474478951 0.794 1.90798262552e-38
0.00587775672528 -0.145474478951 0.794 1.91727309421e-38
0.00734719590659 -0.145474478951 0.794 1.88954195812e-38
0.00881663508791 -0.145474478951 0.794 1.8895066454e-38
0.0102860742692 -0.145474478951 0.794 1.88968643199e-38
0.0117851243157 -0.145840913406 0.796 1.87128261874e-38
0.0132915770784 -0.146207347862 0.798 2.03709182005e-38
0.0149349800922 -0.147856302913 0.807 2.05538773332e-38
0.0165099079805 -0.148589171825 0.811 2.07386063059e-38
0.018010808706 -0.148589171825 0.811 2.11988655891e-38
0.0195117094315 -0.148589171825 0.811 2.16580444712e-38
0.021012610157 -0.148589171825 0.811 2.11977669711e-38
0.0225135108825 -0.148589171825 0.811 1.89883214655e-38
0.0240144116081 -0.148589171825 0.811 1.1893586577e-38
0.0255782354219 -0.148955606281 0.813 1.20338467442e-39
0.0270828375056 -0.148955606281 0.813 1.48537637218e-43
0.0285874395892 -0.148955606281 0.813 6.83593327904e-39
0.0300920416729 -0.148955606281 0.813 1.16475928355e-41
0.0315966437565 -0.148955606281 0.813 8.48205960456e-42
0.0331012458401 -0.148955606281 0.813 2.06558105861e-38
0.034690979161 -0.149322040736 0.815 2.00965187378e-38
0.0362881151981 -0.149688475192 0.817 1.97295116635e-38
0.0378926539515 -0.150054909648 0.819 1.89915836883e-38
0.0395045954212 -0.150421344104 0.821 1.9267109795e-38
0.0412238762769 -0.151154213015 0.825 1.94514996534e-38
0.0428543245373 -0.151520647471 0.827 1.92663909289e-38
0.044492175514 -0.151887081927 0.829 1.98195619055e-38
0.0463595106953 -0.152986385294 0.835 1.95433239392e-38
-0.0300180145101 -0.147088271099 0.811 7.01020996645e-39
-0.0285171137846 -0.147088271099 0.811 2.31298324521e-41
-0.0270162130591 -0.147088271099 0.811 1.773434291e-39
-0.0255153123336 -0.147088271099 0.811 3.4304416991e-39
-0.0240144116081 -0.147088271099 0.811 4.07220977109e-39
-0.0225690312546 -0.147451004197 0.813 3.79885427576e-39
-0.021064429171 -0.147451004197 0.813 4.16475992946e-39
-0.0195598270874 -0.147451004197 0.813 4.3495099216e-39
-0.0180552250037 -0.147451004197 0.813 3.52046251374e-39
-0.0165506229201 -0.147451004197 0.813 4.07220977109e-39
-0.0150460208364 -0.147451004197 0.813 3.51939612561e-39
-0.0135414187528 -0.147451004197 0.813 1.02042554172e-41
-0.012007205804 -0.147088271099 0.811 1.98289001584e-38
-0.0104285765576 -0.146000071806 0.805 2.17549218392e-38
-0.00891657175768 -0.145637338709 0.803 1.83433177954e-38
-0.00742122306938 -0.14545597216 0.802 1.79752737602e-38
-0.00590736759039 -0.144730505965 0.798 1.97255487915e-38
-0.00440831754396 -0.144005039769 0.794 2.08318907446e-38
-0.00293887836264 -0.144005039769 0.794 1.87121171304e-38
-0.00146943918132 -0.144005039769 0.794 2.00025056239e-38
0.0 -0.144005039769 0.794 2.00028587511e-38
0.00146943918132 -0.144005039769 0.794 1.91723750123e-38
0.00293887836264 -0.144005039769 0.794 1.97237509256e-38
0.00440831754396 -0.144005039769 0.794 1.94482416345e-38
0.00587775672528 -0.144005039769 0.794 1.85266552786e-38
0.0073286891159 -0.143642306672 0.792 1.88025162956e-38
0.00879442693908 -0.143642306672 0.792 1.86192012331e-38
0.0102860742692 -0.144005039769 0.794 1.80667477214e-38
0.0117555134506 -0.144005039769 0.794 1.88957657019e-38
0.0132582648551 -0.144367772867 0.796 1.9633350359e-38
0.0148609529295 -0.145637338709 0.803 1.91723750123e-38
0.016469193041 -0.146725538002 0.809 1.96333531616e-38
0.0179663924084 -0.146725538002 0.809 1.99084925099e-38
0.0194635917757 -0.146725538002 0.809 2.00918075724e-38
0.0209607911431 -0.146725538002 0.809 2.03694734618e-38
0.0224579905105 -0.146725538002 0.809 2.06467638032e-38
0.0240144116081 -0.147088271099 0.811 2.09240737628e-38
0.0255153123336 -0.147088271099 0.811 2.18438818709e-38
0.0270162130591 -0.147088271099 0.811 2.2397031828e-38
0.0285171137846 -0.147088271099 0.811 1.71436633775e-38
0.0300920416729 -0.147451004197 0.813 5.57296399262e-42
0.0315966437565 -0.147451004197 0.813 1.36773890753e-38
0.0331012458401 -0.147451004197 0.813 2.06522064465e-38
0.034690979161 -0.147813737295 0.815 1.96366153844e-38
0.0362881151981 -0.148176470392 0.817 1.95440512131e-38
0.0378926539515 -0.14853920349 0.819 1.96362496455e-38
0.0395045954212 -0.148901936588 0.821 1.99128295286e-38
0.0412238762769 -0.149627402783 0.825 1.89908774339e-38
0.0429579625652 -0.150352868978 0.829 1.87142863404e-38
0.044492175514 -0.150352868978 0.829 1.9451502456e-38
0.0463595106953 -0.151441068271 0.835 1.92653119291e-38
-0.032938386082 -0.145228338634 0.809 1.36370050549e-38
-0.0314411867146 -0.145228338634 0.809 6.64218134557e-39
-0.0299439873473 -0.145228338634 0.809 1.91949863643e-41
-0.0284467879799 -0.145228338634 0.809 3.95171772133e-40
-0.0269495886125 -0.145228338634 0.809 2.60102995365e-39
-0.0254523892452 -0.145228338634 0.809 3.42863962927e-39
-0.0239551898778 -0.145228338634 0.809 4.07291602551e-39
-0.0225135108825 -0.145587370374 0.811 3.98216933826e-39
-0.021012610157 -0.145587370374 0.811 4.34807499197e-39
-0.0195117094315 -0.145587370374 0.811 4.25731148914e-39
-0.018010808706 -0.145587370374 0.811 4.16511025408e-39
-0.0165099079805 -0.145587370374 0.811 4.7150498364e-39
-0.015009007255 -0.145587370374 0.811 1.30727133737e-41
-0.0135081065295 -0.145587370374 0.811 1.44831020611e-38
-0.0119775949389 -0.145228338634 0.809 2.23070264277e-38
-0.0104285765576 -0.144510275155 0.805 2.1014838667e-38
-0.00891657175768 -0.144151243416 0.803 1.5854077828e-38
-0.00740271627868 -0.143612695806 0.8 1.83455080249e-38
-0.00589256215783 -0.142894632327 0.796 2.0554233263e-38
-0.00440831754396 -0.142535600588 0.794 2.02783540292e-38
-0.00293887836264 -0.142535600588 0.794 1.94486031695e-38
-0.00146943918132 -0.142535600588 0.794 1.91720246877e-38
0.0 -0.142176568848 0.792 1.96329972318e-38
0.00146573782318 -0.142176568848 0.792 2.01858024695e-38
0.00293147564636 -0.142176568848 0.792 1.94496849719e-38
0.00439721346954 -0.142176568848 0.792 1.83440618848e-38
0.00586295129272 -0.142176568848 0.792 1.9357489342e-38
0.0073286891159 -0.142176568848 0.792 1.88957881227e-38
0.00879442693908 -0.142176568848 0.792 1.92638447696e-38
0.0102601647623 -0.142176568848 0.792 1.87103206658e-38
0.0117555134506 -0.142535600588 0.794 1.83426143435e-38
0.0132582648551 -0.142894632327 0.796 1.88043183655e-38
0.0148424461388 -0.143971727546 0.802 2.00939781837e-38
0.0163877631619 -0.144510275155 0.805 1.96344475757e-38
0.0179219761107 -0.144869306895 0.807 1.90805479239e-38
0.0194154741199 -0.144869306895 0.807 1.98159465554e-38
0.0209089721291 -0.144869306895 0.807 1.97241012502e-38
0.0224579905105 -0.145228338634 0.809 1.91705603308e-38
0.0239551898778 -0.145228338634 0.809 2.02769233034e-38
0.0255153123336 -0.145587370374 0.811 2.0278000902e-38
0.0270162130591 -0.145587370374 0.811 2.23981276434e-38
0.0285171137846 -0.145587370374 0.811 2.35098856151e-38
0.0300920416729 -0.145946402113 0.813 1.57643989302e-38
0.0315966437565 -0.145946402113 0.813 1.9824268867e-38
0.0331012458401 -0.145946402113 0.813 1.96355209703e-38
0.0347761103982 -0.146664465592 0.817 1.98206338988e-38
0.0363769477935 -0.147023497332 0.819 1.91752616871e-38
0.037985187905 -0.147382529071 0.821 1.94518681949e-38
0.0397933013561 -0.14845962429 0.827 1.98199150327e-38
0.041623622956 -0.149536719508 0.833 1.94514996534e-38
0.0432688766489 -0.149895751248 0.835 1.93603732143e-38
0.0448141936721 -0.149895751248 0.835 1.94518555832e-38
0.0464705514394 -0.150254782988 0.837 1.93593026222e-38
-0.0328569562029 -0.143375808886 0.807 3.69327484426e-39
-0.0313634581937 -0.143375808886 0.807 1.95467122789e-41
-0.0298699601845 -0.143375808886 0.807 1.49721874551e-39
-0.0283764621753 -0.143375808886 0.807 2.41808063004e-39
-0.026882964166 -0.143375808886 0.807 3.06020603314e-39
-0.0253894661568 -0.143375808886 0.807 3.05985570852e-39
-0.0238959681476 -0.143375808886 0.807 3.79669907872e-39
-0.0225135108825 -0.144086469648 0.811 3.98036726844e-39
-0.021012610157 -0.144086469648 0.811 3.52119118895e-39
-0.0195117094315 -0.144086469648 0.811 3.52191005506e-39
-0.018010808706 -0.144086469648 0.811 4.25585974393e-39
-0.0165099079805 -0.144086469648 0.811 1.52419233965e-41
-0.015009007255 -0.144086469648 0.811 7.38016397142e-39
-0.0135081065295 -0.144086469648 0.811 2.31328578555e-38
-0.0119479840738 -0.143375808886 0.807 2.03673056531e-38
-0.0104026670506 -0.142665148123 0.803 1.9631904219e-38
-0.00890546768326 -0.142487482932 0.802 1.34573193554e-38
-0.00734719590659 -0.141066161407 0.794 2.0004656617e-38
-0.00587775672528 -0.141066161407 0.794 1.95408044045e-38
-0.00439721346954 -0.140710831025 0.792 2.05553150654e-38
-0.00293147564636 -0.140710831025 0.792 1.95411575318e-38
-0.00146573782318 -0.140710831025 0.792 2.00932396994e-38
0.0 -0.140710831025 0.792 1.95404386656e-38
0.00146573782318 -0.140710831025 0.792 2.00939613681e-38
0.00293147564636 -0.140710831025 0.792 1.88972174471e-38
0.00438610939512 -0.140355500644 0.79 1.82525669042e-38
0.00584814586016 -0.140355500644 0.79 1.89897844211e-38
0.0073101823252 -0.140355500644 0.79 1.85270056033e-38
0.00877221879024 -0.140355500644 0.79 1.8710673793e-38
0.0102601647623 -0.140710831025 0.792 1.90794605163e-38
0.0117259025854 -0.140710831025 0.792 1.81585565928e-38
0.0132249526319 -0.141066161407 0.794 1.95404484747e-38
0.0148054325574 -0.142132152551 0.8 2.0463116633e-38
0.0163470482224 -0.142665148123 0.803 1.76993959276e-38
0.017877559813 -0.143020478504 0.805 1.97255642058e-38
0.0193673564641 -0.143020478504 0.805 1.9723748123e-38
0.0209089721291 -0.143375808886 0.807 1.97259019187e-38
0.0224024701384 -0.143375808886 0.807 1.97255361798e-38
0.0239551898778 -0.143731139267 0.809 1.95407889903e-38
0.0254523892452 -0.143731139267 0.809 2.0463116633e-38
0.0270162130591 -0.144086469648 0.811 2.35066556222e-38
0.0285171137846 -0.144086469648 0.811 2.12957457597e-38
0.0300920416729 -0.14444180003 0.813 1.97284172494e-38
0.0315966437565 -0.14444180003 0.813 1.9173486242e-38
0.0331826757192 -0.144797130411 0.815 1.89894284913e-38
0.0347761103982 -0.145152460792 0.817 2.03723797548e-38
0.0363769477935 -0.145507791174 0.819 1.91745554327e-38
0.037985187905 -0.145863121555 0.821 2.00968718651e-38
0.0398895366677 -0.147284443081 0.829 1.93585837561e-38
0.0417235596257 -0.148350434225 0.835 1.91749113625e-38
0.0433725146768 -0.148705764606 0.837 1.91756148144e-38
0.0449215330581 -0.148705764606 0.837 1.95437008885e-38
0.0465815921836 -0.149061094988 0.839 1.9267109795e-38
0.0485932803324 -0.150482416513 0.847 2.02805372522e-38
0.0503976924253 -0.151193077276 0.851 1.19734956219e-38
-0.0359327848167 -0.1422339399 0.809 1.66849132927e-38
-0.0343504542122 -0.141882310876 0.807 1.05125410794e-41
-0.0328569562029 -0.141882310876 0.807 1.52461272919e-41
-0.0313634581937 -0.141882310876 0.807 1.58867589108e-39
-0.0298699601845 -0.141882310876 0.807 2.68962845035e-39
-0.0283764621753 -0.141882310876 0.807 2.32373400703e-39
-0.026882964166 -0.141882310876 0.807 2.78398908634e-39
-0.0253894661568 -0.141882310876 0.807 3.33644399941e-39
-0.0238959681476 -0.141882310876 0.807 3.70485657607e-39
-0.0224579905105 -0.1422339399 0.809 3.70485657607e-39
-0.0209607911431 -0.1422339399 0.809 3.88852196319e-39
-0.0194635917757 -0.1422339399 0.809 3.70485377347e-39
-0.0179663924084 -0.1422339399 0.809 1.21557456976e-39
-0.016469193041 -0.1422339399 0.809 1.12195942455e-39
-0.0149719936736 -0.1422339399 0.809 2.27640809413e-38
-0.013441482083 -0.141882310876 0.807 2.08279138596e-38
-0.0119183732087 -0.141530681853 0.805 2.00917921581e-38
-0.0104026670506 -0.14117905283 0.803 1.93549487879e-38
-0.00883884323675 -0.139948351249 0.796 1.07869265291e-38
-0.0073286891159 -0.139245093202 0.792 1.87149925948e-38
-0.00586295129272 -0.139245093202 0.792 1.92645706422e-38
-0.00438610939512 -0.138893464179 0.79 2.01872500108e-38
-0.00292407293008 -0.138893464179 0.79 1.94496877745e-38
-0.00146203646504 -0.138893464179 0.79 2.03709153979e-38
0.0 -0.138893464179 0.79 2.01858052721e-38
0.00146203646504 -0.138893464179 0.79 1.94489562967e-38
0.00292407293008 -0.138893464179 0.79 1.94503912263e-38
0.00438610939512 -0.138893464179 0.79 1.87128261874e-38
0.00584814586016 -0.138893464179 0.79 1.86202774303e-38
0.0073101823252 -0.138893464179 0.79 1.90801793824e-38
0.00877221879024 -0.138893464179 0.79 1.83426143435e-38
0.0102342552553 -0.138893464179 0.79 1.89876278228e-38
0.0116962917203 -0.138893464179 0.79 1.89883340772e-38
0.0131583281854 -0.138893464179 0.79 1.95408044045e-38
0.0147314053946 -0.139948351249 0.796 2.06482253575e-38
0.0163266907526 -0.141003238318 0.802 1.69611246343e-38
0.0178331435154 -0.14117905283 0.803 2.11088391692e-38
0.0193673564641 -0.141530681853 0.805 1.97244767982e-38
0.0208571531152 -0.141530681853 0.805 1.91723750123e-38
0.0223469497663 -0.141530681853 0.805 1.93578396667e-38
0.0238959681476 -0.141882310876 0.807 1.90812485732e-38
0.0253894661568 -0.141882310876 0.807 2.35062926859e-38
0.0269495886125 -0.1422339399 0.809 2.21230079133e-38
0.0285171137846 -0.142585568923 0.811 1.81597126641e-38
0.0300920416729 -0.142937197946 0.813 1.96366125818e-38
0.0315966437565 -0.142937197946 0.813 1.95426148822e-38
0.0331826757192 -0.143288826969 0.815 1.84384253234e-38
0.0348612416354 -0.143992085016 0.819 1.89930480452e-38
0.0364657803888 -0.144343714039 0.821 1.94511493288e-38
0.0380777218585 -0.144695343062 0.823 1.93593026222e-38
0.0401782426026 -0.146805117202 0.835 1.9912826726e-38
0.0418234962955 -0.147156746225 0.837 2.02823323155e-38
0.0434761527047 -0.147508375248 0.839 1.92671069924e-38
0.0451362118302 -0.147860004271 0.841 2.00979438584e-38
0.046803673672 -0.148211633295 0.843 1.94518555832e-38
0.0485932803324 -0.148914891341 0.847 1.88968797342e-38
0.0503976924253 -0.149618149388 0.851 1.63063413022e-38
-0.0358439522214 -0.140388812867 0.807 2.57418527896e-42
-0.034265322975 -0.140040885202 0.805 8.41792217385e-40
-0.0327755263239 -0.140040885202 0.805 2.13790081119e-39
-0.0312857296728 -0.140040885202 0.805 2.41483942669e-39
-0.0297959330217 -0.140040885202 0.805 2.32408713425e-39
-0.0283061363706 -0.140040885202 0.805 2.50811545767e-39
-0.0268163397195 -0.140040885202 0.805 2.5095503873e-39
-0.0253265430684 -0.140040885202 0.805 3.24459869416e-39
-0.0238367464174 -0.140040885202 0.805 3.4293486863e-39
-0.0224024701384 -0.140388812867 0.807 3.70522231497e-39
-0.0209089721291 -0.140388812867 0.807 3.61265814361e-39
-0.0194154741199 -0.140388812867 0.807 1.67870371222e-39
-0.0179219761107 -0.140388812867 0.807 1.38322171414e-41
-0.0164284781015 -0.140388812867 0.807 2.07451111333e-38
-0.0149349800922 -0.140388812867 0.807 2.00010468722e-38
-0.0134081698598 -0.140040885202 0.805 1.90787542619e-38
-0.0118887623436 -0.139692957537 0.803 1.85255580619e-38
-0.0103119837762 -0.138475210709 0.796 1.76950617115e-38
-0.00879442693908 -0.137779355379 0.792 5.2558935904e-39
-0.0073286891159 -0.137779355379 0.792 1.59527152269e-38
-0.00584814586016 -0.137431427714 0.79 2.08329753497e-38
-0.00438610939512 -0.137431427714 0.79 2.00932551137e-38
-0.00292407293008 -0.137431427714 0.79 1.94482416345e-38
-0.00146203646504 -0.137431427714 0.79 2.00010594839e-38
0.0 -0.137431427714 0.79 1.94486059721e-38
0.00146203646504 -0.137431427714 0.79 1.91730812667e-38
0.00292407293008 -0.137431427714 0.79 1.97255614032e-38
0.00438055735791 -0.137257463881 0.789 1.87124702576e-38
0.00584074314388 -0.137257463881 0.789 1.93563935266e-38
0.00730092892985 -0.137257463881 0.789 1.80667505239e-38
0.00876111471582 -0.137257463881 0.789 1.8803236563e-38
0.0102213005018 -0.137257463881 0.789 1.90798290578e-38
0.0116814862878 -0.137257463881 0.789 2.07400440381e-38
0.0131583281854 -0.137431427714 0.79 1.96333531616e-38
0.0146203646504 -0.137431427714 0.79 1.6591305154e-38
0.0163266907526 -0.139518993704 0.802 1.76998065081e-38
0.0178331435154 -0.139692957537 0.803 1.9909211376e-38
0.0193192388083 -0.139692957537 0.803 2.03687531944e-38
0.0208571531152 -0.140040885202 0.805 1.97240970463e-38
0.0223469497663 -0.140040885202 0.805 2.01858052721e-38
0.0238367464174 -0.140040885202 0.805 2.12921304097e-38
0.0253894661568 -0.140388812867 0.807 2.35091681503e-38
0.026882964166 -0.140388812867 0.807 1.90809220706e-38
0.0285171137846 -0.141084668197 0.811 1.92667412535e-38
0.0300920416729 -0.141432595862 0.813 2.04656319637e-38
0.0315966437565 -0.141432595862 0.813 2.05574800716e-38
0.0333455354773 -0.142476378858 0.819 1.09720380562e-38
0.0348612416354 -0.142476378858 0.819 2.000828598e-38
0.0365546129841 -0.143172234188 0.823 1.92671041898e-38
0.038170255812 -0.143520161853 0.825 1.96358965183e-38
0.0402744779142 -0.145607727844 0.837 1.96362468429e-38
0.0419234329653 -0.145955655509 0.839 1.96362468429e-38
0.0435797907326 -0.146303583174 0.841 1.96362496455e-38
0.0452435512162 -0.146651510839 0.843 1.92671041898e-38
0.0469147144162 -0.146999438504 0.845 1.92678104442e-38
0.0487080224347 -0.147695293834 0.849 2.01872528134e-38
0.0503976924253 -0.148043221499 0.851 1.47390113906e-38
-0.0358439522214 -0.138895314858 0.807 4.78755021635e-40
-0.034265322975 -0.138551088551 0.805 2.87437704119e-39
-0.0327755263239 -0.138551088551 0.805 2.41340169447e-39
-0.0312080011519 -0.138206862244 0.803 2.69033470478e-39
-0.0297219058589 -0.138206862244 0.803 2.96657267105e-39
-0.028235810566 -0.138206862244 0.803 2.96908660049e-39
-0.026749715273 -0.138206862244 0.803 2.87689377323e-39
-0.0252636199801 -0.138206862244 0.803 3.33644399941e-39
-0.0237775246871 -0.138206862244 0.803 3.70485377347e-39
-0.0223469497663 -0.138551088551 0.805 3.33679432403e-39
-0.0208571531152 -0.138551088551 0.805 2.96694121255e-39
-0.0193673564641 -0.138551088551 0.805 1.34426561683e-41
-0.017877559813 -0.138551088551 0.805 1.72467513003e-38
-0.0163877631619 -0.138551088551 0.805 1.98188164147e-38
-0.0148979665109 -0.138551088551 0.805 1.99081029489e-38
-0.0133748576365 -0.138206862244 0.803 1.78805417801e-38
-0.011873956911 -0.13803474909 0.802 1.72373387785e-38
-0.0102601647623 -0.136313617556 0.792 1.41927348025e-38
-0.00877221879024 -0.135969391249 0.79 1.01393893113e-38
-0.0073101823252 -0.135969391249 0.79 1.16177605925e-38
-0.00584814586016 -0.135969391249 0.79 1.60409605964e-38
-0.00438055735791 -0.135797278095 0.789 2.02790700927e-38
-0.00292037157194 -0.135797278095 0.789 1.92631385151e-38
-0.00146018578597 -0.135797278095 0.789 1.97248425371e-38
0.0 -0.135797278095 0.789 1.97251984669e-38
0.00146018578597 -0.135797278095 0.789 1.88947133268e-38
0.00292037157194 -0.135797278095 0.789 1.94486087747e-38
0.00438055735791 -0.135797278095 0.789 1.89876152111e-38
0.00584074314388 -0.135797278095 0.789 1.88017974295e-38
0.00730092892985 -0.135797278095 0.789 1.88947161294e-38
0.00876111471582 -0.135797278095 0.789 1.95400855384e-38
0.0102213005018 -0.135797278095 0.789 2.09244451069e-38
0.0116814862878 -0.135797278095 0.789 1.9635871295e-38
0.0131416720737 -0.135797278095 0.789 1.99124764014e-38
0.0146203646504 -0.135969391249 0.79 1.50264779615e-38
0.0163266907526 -0.13803474909 0.802 1.96366279961e-38
0.0178109353665 -0.13803474909 0.802 2.08322466745e-38
0.0193192388083 -0.138206862244 0.803 2.05542178487e-38
0.0208053341012 -0.138206862244 0.803 1.95400827358e-38
0.0222914293942 -0.138206862244 0.803 1.91720218851e-38
0.0238367464174 -0.138551088551 0.805 2.35084352712e-38
0.0253265430684 -0.138551088551 0.805 2.08333410886e-38
0.0268163397195 -0.138551088551 0.805 1.87143059586e-38
0.0284467879799 -0.139239541165 0.809 1.95436980859e-38
0.0301660688356 -0.140272220086 0.815 2.19386292653e-38
0.0317521007983 -0.140616446393 0.817 1.84290085978e-39
0.0333455354773 -0.1409606727 0.819 9.03634040952e-39
0.0349463728726 -0.141304899007 0.821 2.04667263778e-38
0.0367322781748 -0.142337577927 0.827 1.91745582353e-38
0.0386329255794 -0.143714483155 0.835 1.9175641439e-38
0.0402744779142 -0.144058709462 0.837 1.99124764014e-38
0.0419234329653 -0.144402935769 0.839 1.94522241247e-38
0.0435797907326 -0.144747162076 0.841 1.95436980859e-38
0.0452435512162 -0.145091388383 0.843 1.94514996534e-38
0.0469147144162 -0.14543561469 0.845 1.96365999702e-38
0.0487080224347 -0.146124067304 0.849 1.92656566485e-38
0.0503976924253 -0.146468293611 0.851 1.48315447334e-38
-0.0387347129282 -0.1370612919 0.805 6.14609506453e-42
-0.0372449162771 -0.1370612919 0.805 2.01813603534e-40
-0.035755119626 -0.1370612919 0.805 2.13897280451e-39
-0.0341801917378 -0.136720766951 0.803 2.87402111138e-39
-0.0326940964448 -0.136720766951 0.803 2.14077487434e-39
-0.0312080011519 -0.136720766951 0.803 2.69108019556e-39
-0.0297219058589 -0.136720766951 0.803 2.96513634012e-39
-0.028235810566 -0.136720766951 0.803 2.69105917608e-39
-0.026749715273 -0.136720766951 0.803 3.15023805817e-39
-0.0252636199801 -0.136720766951 0.803 3.61446161473e-39
-0.0237775246871 -0.136720766951 0.803 3.52046251374e-39
-0.0223469497663 -0.1370612919 0.805 4.53065437278e-39
-0.0208571531152 -0.1370612919 0.805 1.52475285903e-41
-0.0193673564641 -0.1370612919 0.805 1.33799929035e-38
-0.017877559813 -0.1370612919 0.805 2.07407951341e-38
-0.0163877631619 -0.1370612919 0.805 1.90780087711e-38
-0.0148609529295 -0.136720766951 0.803 1.89858159439e-38
-0.0133748576365 -0.136720766951 0.803 1.71412195129e-38
-0.0118443460459 -0.136209979528 0.8 1.47483944851e-38
-0.0102601647623 -0.134847879733 0.792 1.29981348681e-38
-0.00877221879024 -0.134507354784 0.79 1.0510694168e-38
-0.0073101823252 -0.134507354784 0.79 1.39208422627e-38
-0.00584814586016 -0.134507354784 0.79 1.06965133509e-38
-0.00438055735791 -0.134337092309 0.789 1.37364453978e-38
-0.00292037157194 -0.134337092309 0.789 1.58562442354e-38
-0.00146018578597 -0.134337092309 0.789 1.91763028519e-38
0.0 -0.13399656736 0.787 2.01879716795e-38
0.00145648442783 -0.13399656736 0.787 1.92645734448e-38
0.00291296885566 -0.13399656736 0.787 1.88965111927e-38
0.00436945328349 -0.13399656736 0.787 1.95404512773e-38
0.00582593771132 -0.13399656736 0.787 2.00932719293e-38
0.00728242213916 -0.13399656736 0.787 2.02783540292e-38
0.00873890656699 -0.13399656736 0.787 1.83437087576e-38
0.0101953909948 -0.13399656736 0.787 1.74235671405e-38
0.0116814862878 -0.134337092309 0.789 1.65963049869e-38
0.0131416720737 -0.134337092309 0.789 1.86246340673e-38
0.0146203646504 -0.134507354784 0.79 1.47516889378e-38
0.0162859758131 -0.136209979528 0.8 2.04649313145e-38
0.0178109353665 -0.136550504477 0.802 1.972518025e-38
0.0192951799804 -0.136550504477 0.802 1.9908863854e-38
0.0208053341012 -0.136720766951 0.803 1.89869117592e-38
0.0222914293942 -0.136720766951 0.803 2.29509440915e-38
0.0238367464174 -0.1370612919 0.805 2.27690807742e-38
0.0253265430684 -0.1370612919 0.805 1.85320306596e-38
0.0268163397195 -0.1370612919 0.805 1.91763603051e-38
0.0283764621753 -0.137401816849 0.807 2.0557477269e-38
0.0302400959984 -0.139104441593 0.817 1.73316994145e-38
0.0318298293193 -0.139444966542 0.819 8.26766093952e-44
0.0333455354773 -0.139444966542 0.819 7.83789811479e-39
0.0349463728726 -0.13978549149 0.821 2.11124489141e-38
0.0369987759609 -0.141828641183 0.833 2.0281616252e-38
0.0387254595329 -0.142509691081 0.837 2.04656501806e-38
0.0403707132258 -0.14285021603 0.839 1.91745582353e-38
0.042023369635 -0.143190740979 0.841 1.93582306289e-38
0.0436834287605 -0.143531265927 0.843 2.05574926833e-38
0.0453508906023 -0.143871790876 0.845 1.93596557495e-38
0.0470257551603 -0.144212315825 0.847 1.94522087104e-38
0.0485932803324 -0.144212315825 0.847 2.02805232392e-38
0.0502792489648 -0.144552840774 0.849 1.33564272673e-38
-0.0402245095793 -0.135571495249 0.805 1.91137110534e-42
-0.0387347129282 -0.135571495249 0.805 1.57792512926e-39
-0.0372449162771 -0.135571495249 0.805 3.05876830091e-39
-0.035755119626 -0.135571495249 0.805 2.78218001002e-39
-0.0341801917378 -0.135234671658 0.803 1.68087152094e-39
-0.0326940964448 -0.135234671658 0.803 2.50666931766e-39
-0.0312080011519 -0.135234671658 0.803 2.87402111138e-39
-0.0297219058589 -0.135234671658 0.803 2.68962564775e-39
-0.028235810566 -0.135234671658 0.803 2.41663589132e-39
-0.0267164030498 -0.135066259863 0.802 3.3346321205e-39
-0.0252321584359 -0.135066259863 0.802 2.96838454996e-39
-0.023747913822 -0.135066259863 0.802 2.69214378109e-39
-0.0222914293942 -0.135234671658 0.803 1.59495791209e-41
-0.0208053341012 -0.135234671658 0.803 9.50312413838e-39
-0.0193192388083 -0.135234671658 0.803 2.25807616749e-38
-0.0178331435154 -0.135234671658 0.803 1.95386239841e-38
-0.0163470482224 -0.135234671658 0.803 1.88943237658e-38
-0.0148609529295 -0.135234671658 0.803 1.76039801139e-38
-0.0133582015249 -0.135066259863 0.802 1.60376983736e-38
-0.0118443460459 -0.134729436272 0.8 1.41041391084e-38
-0.0102601647623 -0.133382141909 0.792 1.14311819058e-38
-0.00877221879024 -0.133045318319 0.79 9.68093209792e-39
-0.0073101823252 -0.133045318319 0.79 1.39204891355e-38
-0.00584814586016 -0.133045318319 0.79 1.29985090148e-38
-0.00438055735791 -0.132876906523 0.789 1.26297475148e-38
-0.00292037157194 -0.132876906523 0.789 1.29988803589e-38
-0.00146018578597 -0.132876906523 0.789 1.27237606288e-38
0.0 -0.132540082933 0.787 1.53941870863e-38
0.00145648442783 -0.132540082933 0.787 1.66842238539e-38
0.00291296885566 -0.132540082933 0.787 1.6223562398e-38
0.00436945328349 -0.132540082933 0.787 1.78827053849e-38
0.00581113227877 -0.132203259342 0.785 1.64079508551e-38
0.00726391534846 -0.132203259342 0.785 1.79753017862e-38
0.00873890656699 -0.132540082933 0.787 1.54888910404e-38
0.0101953909948 -0.132540082933 0.787 1.43865259723e-38
0.0116814862878 -0.132876906523 0.789 1.63193901935e-38
0.0131416720737 -0.132876906523 0.789 1.77934230546e-38
0.0146203646504 -0.133045318319 0.79 1.96358740976e-38
0.0162859758131 -0.134729436272 0.8 2.03712839394e-38
0.0177665190688 -0.134729436272 0.8 1.96326342955e-38
0.0192951799804 -0.135066259863 0.802 1.99099400512e-38
0.0207794245943 -0.135066259863 0.802 1.93582110107e-38
0.0222636692081 -0.135066259863 0.802 2.35095268827e-38
0.0238367464174 -0.135571495249 0.805 1.97280641222e-38
0.0253265430684 -0.135571495249 0.805 1.83469457571e-38
0.0268163397195 -0.135571495249 0.805 1.99121232742e-38
0.0283764621753 -0.135908318839 0.807 2.08340599547e-38
0.0302400959984 -0.137592436793 0.817 7.00649232162e-44
0.0318298293193 -0.137929260384 0.819 2.03096212018e-39
0.0334269653564 -0.138266083974 0.821 5.16420943447e-39
0.0349463728726 -0.138266083974 0.821 2.14812286309e-38
0.0369987759609 -0.140287025518 0.833 1.9451502456e-38
0.0388179934863 -0.14129749629 0.839 1.92671069924e-38
0.0404669485374 -0.141634319881 0.841 1.95440540157e-38
0.0421233063048 -0.141971143472 0.843 1.98195619055e-38
0.0436834287605 -0.141971143472 0.843 1.98199248418e-38
0.0453508906023 -0.142307967062 0.845 2.00057454259e-38
0.0470257551603 -0.142644790653 0.847 1.97291641415e-38
0.0485932803324 -0.142644790653 0.847 1.97270005367e-38
0.0502792489648 -0.142981614244 0.849 1.26188916556e-38
-0.0401245729095 -0.133748576365 0.803 1.62550621862e-43
-0.0386384776166 -0.133748576365 0.803 4.73382443323e-40
-0.0371523823236 -0.133748576365 0.803 2.04390591409e-39
-0.0356662870307 -0.133748576365 0.803 1.77090354598e-39
-0.0341801917378 -0.133748576365 0.803 2.04677437205e-39
-0.0326940964448 -0.133748576365 0.803 2.69105917608e-39
-0.0311691368914 -0.133582015249 0.802 3.05733337129e-39
-0.0296848922775 -0.133582015249 0.802 1.95745981183e-39
-0.0282006476636 -0.133582015249 0.802 2.14112800155e-39
-0.0267164030498 -0.133582015249 0.802 2.87689377323e-39
-0.0252321584359 -0.133582015249 0.802 3.7948886011e-39
-0.023747913822 -0.133582015249 0.802 1.66866621132e-41
-0.0222914293942 -0.133748576365 0.803 4.80510988741e-39
-0.0208053341012 -0.133748576365 0.803 2.26722454451e-38
-0.0193192388083 -0.133748576365 0.803 2.02758330932e-38
-0.0178331435154 -0.133748576365 0.803 1.97233781802e-38
-0.0163266907526 -0.133582015249 0.802 1.84336959411e-38
-0.0148424461388 -0.133582015249 0.802 1.52994551062e-38
-0.0133248893016 -0.133248893016 0.8 1.53040863976e-38
-0.0118147351808 -0.132915770784 0.798 1.29974188046e-38
-0.0103119837762 -0.132582648551 0.796 1.21676525306e-38
-0.00879442693908 -0.131916404086 0.792 1.00497090122e-38
-0.0073101823252 -0.131583281854 0.79 1.0416333532e-38
-0.00584814586016 -0.131583281854 0.79 1.40119588928e-38
-0.00438055735791 -0.131416720737 0.789 1.38289941549e-38
-0.00292037157194 -0.131416720737 0.789 1.37360922706e-38
-0.00145648442783 -0.131083598505 0.787 1.40119588928e-38
0.0 -0.131083598505 0.787 1.51193980626e-38
0.00145648442783 -0.131083598505 0.787 1.48442348923e-38
0.00291296885566 -0.131083598505 0.787 1.47488176773e-38
0.00435834920908 -0.130750476272 0.785 1.61314032019e-38
0.00581113227877 -0.130750476272 0.785 1.53045123924e-38
0.00726391534846 -0.130750476272 0.785 1.77030280933e-38
0.00873890656699 -0.131083598505 0.787 1.65033890896e-38
0.0101953909948 -0.131083598505 0.787 1.54899574285e-38
0.0116814862878 -0.131416720737 0.789 1.73342455738e-38
0.0131416720737 -0.131416720737 0.789 1.75179109609e-38
0.0146573782318 -0.131916404086 0.792 2.23996088159e-38
0.0162452608736 -0.132915770784 0.798 2.1016284807e-38
0.0177665190688 -0.133248893016 0.8 1.96348007029e-38
0.0192470623246 -0.133248893016 0.8 2.00954047056e-38
0.0207794245943 -0.133582015249 0.802 2.16623758847e-38
0.0222636692081 -0.133582015249 0.802 2.16631059612e-38
0.0237775246871 -0.133748576365 0.803 1.78845256716e-38
0.0253265430684 -0.134081698598 0.805 1.89915934974e-38
0.0268163397195 -0.134081698598 0.805 2.09266353364e-38
0.0284467879799 -0.134747943063 0.809 1.10627693292e-38
0.0303141231612 -0.136413554225 0.819 1.14906474075e-43
0.0319075578402 -0.136746676458 0.821 3.41604195608e-39
0.0334269653564 -0.136746676458 0.821 3.31992128922e-39
0.035116635347 -0.137412920923 0.825 2.16656226933e-38
0.0369987759609 -0.138745409853 0.833 1.97288110143e-38
0.0388179934863 -0.139744776551 0.839 1.96365999702e-38
0.0404669485374 -0.140077898783 0.841 1.95440484105e-38
0.0421233063048 -0.140411021016 0.843 1.95440540157e-38
0.0437870667884 -0.140744143248 0.845 1.96362468429e-38
0.0453508906023 -0.140744143248 0.845 1.96358965183e-38
0.0470257551603 -0.141077265481 0.847 1.95440484105e-38
0.0485932803324 -0.141077265481 0.847 2.01879716795e-38
-0.0417143062304 -0.132591901947 0.805 1.94485891565e-38
-0.0401245729095 -0.132262481072 0.803 1.51158121399e-38
-0.0386384776166 -0.132262481072 0.803 7.72115453843e-43
-0.0371523823236 -0.132262481072 0.803 1.63139167217e-41
-0.0356662870307 -0.132262481072 0.803 1.30849046703e-39
-0.0341801917378 -0.132262481072 0.803 1.21557737236e-39
-0.0326533815053 -0.132097770635 0.802 1.76875115154e-39
-0.0311691368914 -0.132097770635 0.802 2.32120326201e-39
-0.0296848922775 -0.132097770635 0.802 3.24171201933e-39
-0.0282006476636 -0.132097770635 0.802 3.15023525557e-39
-0.0267164030498 -0.132097770635 0.802 2.41628276411e-39
-0.0252321584359 -0.132097770635 0.802 1.30814014242e-39
-0.023747913822 -0.132097770635 0.802 1.23804719323e-41
-0.0222636692081 -0.132097770635 0.802 2.21223086654e-38
-0.0207794245943 -0.132097770635 0.802 1.95386337932e-38
-0.0192951799804 -0.132097770635 0.802 1.90798108409e-38
-0.0178109353665 -0.132097770635 0.802 2.00921606996e-38
-0.0162859758131 -0.131768349761 0.8 1.75121334074e-38
-0.0148054325574 -0.131768349761 0.8 1.26279104125e-38
-0.0132915770784 -0.131438928886 0.798 1.52112027302e-38
-0.0117851243157 -0.131109508012 0.796 1.43800029279e-38
-0.0103119837762 -0.131109508012 0.796 1.14304630397e-38
-0.00879442693908 -0.130450666263 0.792 1.0785109045e-38
-0.0073286891159 -0.130450666263 0.792 1.05067284933e-38
-0.00584814586016 -0.130121245389 0.79 1.17063660957e-38
-0.00438055735791 -0.129956534951 0.789 1.29063316018e-38
-0.00292037157194 -0.129956534951 0.789 1.34605997951e-38
-0.00145648442783 -0.129627114077 0.787 1.4658028951e-38
0.0 -0.129627114077 0.787 1.53041438509e-38
0.00145648442783 -0.129627114077 0.787 1.47516889378e-38
0.00291296885566 -0.129627114077 0.787 1.51172344578e-38
0.00435834920908 -0.129297693203 0.785 1.56711439187e-38
0.00581113227877 -0.129297693203 0.785 1.48438845677e-38
0.00726391534846 -0.129297693203 0.785 1.77023064245e-38
0.00873890656699 -0.129627114077 0.787 1.56722004977e-38
0.0101953909948 -0.129627114077 0.787 1.58569673054e-38
0.0116814862878 -0.129956534951 0.789 1.74249964649e-38
0.0131583281854 -0.130121245389 0.79 1.93611173038e-38
0.0146943918132 -0.130780087137 0.794 2.20333332194e-38
0.0162452608736 -0.131438928886 0.798 2.00950725978e-38
0.0177221027712 -0.131438928886 0.798 2.00028615537e-38
0.0191989446688 -0.131438928886 0.798 1.9726264855e-38
0.0207276055803 -0.131768349761 0.8 2.35087897997e-38
0.0222636692081 -0.132097770635 0.802 1.87135674743e-38
0.0237775246871 -0.132262481072 0.803 1.89912431728e-38
0.0253265430684 -0.132591901947 0.805 1.91749085599e-38
0.0268163397195 -0.132591901947 0.805 2.09269884636e-38
0.0285171137846 -0.13358016457 0.811 1.33669398083e-38
0.0303141231612 -0.134897848067 0.819 1.72359711112e-43
0.0318298293193 -0.134897848067 0.819 4.05743167748e-39
0.0334269653564 -0.135227268942 0.821 5.2828952105e-43
0.035116635347 -0.135886110691 0.825 2.22177314856e-38
0.0371764411516 -0.137862635937 0.837 2.00972249923e-38
0.0389105274398 -0.138521477686 0.841 1.9451502456e-38
0.0404669485374 -0.138521477686 0.841 1.9358949495e-38
0.0421233063048 -0.13885089856 0.843 1.98199276444e-38
0.0437870667884 -0.139180319435 0.845 1.99121106625e-38
0.0453508906023 -0.139180319435 0.845 1.99124764014e-38
0.0471367959045 -0.139839161183 0.849 2.07429475285e-38
-0.0417143062304 -0.131102105295 0.805 1.898798095e-38
-0.0401245729095 -0.130776385779 0.803 1.52976754572e-38
-0.0386384776166 -0.130776385779 0.803 1.52104838641e-38
-0.0371523823236 -0.130776385779 0.803 7.52497275342e-43
-0.0356662870307 -0.130776385779 0.803 1.66936686055e-41
-0.0341801917378 -0.130776385779 0.803 1.12266007378e-39
-0.0326533815053 -0.130613526021 0.802 1.67475064925e-39
-0.0311691368914 -0.130613526021 0.802 1.76694768041e-39
-0.0296848922775 -0.130613526021 0.802 1.76875115154e-39
-0.0282006476636 -0.130613526021 0.802 1.67583665556e-39
-0.0266497786033 -0.130287806505 0.8 1.77451329082e-39
-0.0251692353475 -0.130287806505 0.8 7.67631298757e-42
-0.0236886920918 -0.130287806505 0.8 2.01001102658e-38
