# .PCD v0.7 - Point Cloud Data file format
VERSION 0.7
FIELDS x y z rgb
SIZE 4 4 4 4
TYPE F F F F
COUNT 1 1 1 1
WIDTH 837
HEIGHT 1
VIEWPOINT 0 0 0 1 0 0 0
POINTS 837
DATA ascii
0.0194154741199 -0.0940903745811 0.807 1.69611414499e-38
0.0209089721291 -0.0940903745811 0.807 1.69625889912e-38
0.0224579905105 -0.0943235601439 0.809 1.69625735769e-38
0.0238959681476 -0.0940903745811 0.807 1.73317050197e-38
0.0253894661568 -0.0940903745811 0.807 1.72388003328e-38
0.026882964166 -0.0940903745811 0.807 1.71469606327e-38
0.0283061363706 -0.0938571890184 0.805 1.71469606327e-38
0.0297959330217 -0.0938571890184 0.805 1.8161482504e-38
0.0312857296728 -0.0938571890184 0.805 1.88079337155e-38
0.0327755263239 -0.0938571890184 0.805 2.01894206221e-38
-0.0302400959984 -0.0937442975951 0.817 1.96333531616e-38
-0.0287280911985 -0.0937442975951 0.817 1.96337034862e-38
-0.0271494619521 -0.0935148133905 0.815 2.07407741146e-38
-0.0256411585103 -0.0935148133905 0.815 1.26290034253e-38
-0.0241328550685 -0.0935148133905 0.815 1.61331758444e-38
-0.0226800719988 -0.0937442975951 0.817 1.64086711225e-38
-0.0211162481849 -0.0935148133905 0.815 1.69622232523e-38
-0.0196079447432 -0.0935148133905 0.815 1.63161223655e-38
-0.0180996413014 -0.0935148133905 0.815 1.6316125168e-38
-0.0165913378596 -0.0935148133905 0.815 1.6316476894e-38
-0.0150830344178 -0.0935148133905 0.815 1.83444122095e-38
-0.013574730976 -0.0935148133905 0.815 1.18028426923e-38
-0.0120368166691 -0.0932853291858 0.813 1.66754517255e-43
-0.0105322145855 -0.0932853291858 0.813 2.07377627242e-38
-0.00902761250186 -0.0932853291858 0.813 0.0
-0.00752301041821 -0.0932853291858 0.813 1.07899981753e-43
-0.00601840833457 -0.0932853291858 0.813 6.72623262876e-44
-0.00450270217651 -0.0930558449812 0.811 1.27518160254e-43
-0.00300180145101 -0.0930558449812 0.811 1.52156182217e-38
-0.0015009007255 -0.0930558449812 0.811 7.84727140022e-44
0.0 -0.0930558449812 0.811 9.21974095124e-39
0.0015009007255 -0.0930558449812 0.811 1.85280775966e-38
0.00300920416729 -0.0932853291858 0.813 1.66849132927e-38
0.00450270217651 -0.0930558449812 0.811 1.67756767955e-38
0.00600360290201 -0.0930558449812 0.811 1.76065136615e-38
0.00750450362752 -0.0930558449812 0.811 1.71465920912e-38
0.00900540435302 -0.0930558449812 0.811 1.71462543783e-38
0.0105063050785 -0.0930558449812 0.811 1.6685985286e-38
0.0119775949389 -0.0928263607766 0.809 1.7423198599e-38
0.0134747943063 -0.0928263607766 0.809 1.76082961132e-38
0.0149719936736 -0.0928263607766 0.809 1.76086492404e-38
0.016469193041 -0.0928263607766 0.809 1.69629239015e-38
0.0179663924084 -0.0928263607766 0.809 1.74221027836e-38
0.0194635917757 -0.0928263607766 0.809 1.66849104901e-38
0.0209607911431 -0.0928263607766 0.809 1.73302798991e-38
0.0224579905105 -0.0928263607766 0.809 1.70536874044e-38
0.0239551898778 -0.0928263607766 0.809 1.6870377947e-38
0.0254523892452 -0.0928263607766 0.809 1.69625763795e-38
0.0269495886125 -0.0928263607766 0.809 1.66852608147e-38
0.0283061363706 -0.0923673923673 0.805 1.74235349106e-38
0.0297959330217 -0.0923673923673 0.805 1.76086618521e-38
0.0314411867146 -0.0928263607766 0.809 1.89912459754e-38
0.032938386082 -0.0928263607766 0.809 1.92671069924e-38
-0.0318298293193 -0.0924580756417 0.819 1.96351510275e-38
-0.0303141231612 -0.0924580756417 0.819 1.91727463564e-38
-0.0287984170032 -0.0924580756417 0.819 2.0187255616e-38
-0.0272160863986 -0.0922322927952 0.817 2.0648593899e-38
-0.0257040815987 -0.0922322927952 0.817 1.34569690308e-38
-0.0241920767987 -0.0922322927952 0.817 1.58562190121e-38
-0.0227355923709 -0.0924580756417 0.819 1.67778095718e-38
-0.0211680671989 -0.0922322927952 0.817 1.60395410811e-38
-0.019656062399 -0.0922322927952 0.817 1.67771089226e-38
-0.0180996413014 -0.0920065099487 0.815 1.63157720408e-38
-0.0165913378596 -0.0920065099487 0.815 1.66849104901e-38
-0.0150830344178 -0.0920065099487 0.815 1.73309861536e-38
-0.013574730976 -0.0920065099487 0.815 1.2907407799e-38
-0.0120664275343 -0.0920065099487 0.815 1.23314264861e-43
-0.0105581240925 -0.0920065099487 0.815 1.06019243032e-38
-0.00904982065069 -0.0920065099487 0.815 0.0
-0.00754151720891 -0.0920065099487 0.815 1.18073170383e-38
-0.00601840833457 -0.0917807271022 0.813 1.67769687927e-38
-0.00451380625093 -0.0917807271022 0.813 1.83783096193e-40
-0.00300920416729 -0.0917807271022 0.813 1.38352313343e-38
-0.00150460208364 -0.0917807271022 0.813 4.20389539297e-44
0.0 -0.0917807271022 0.813 7.00649232162e-44
0.00150460208364 -0.0917807271022 0.813 1.88971894212e-38
0.00300920416729 -0.0917807271022 0.813 1.88950818683e-38
0.00451380625093 -0.0917807271022 0.813 1.73309987653e-38
0.00601840833457 -0.0917807271022 0.813 1.65934309238e-38
0.00752301041821 -0.0917807271022 0.813 1.66866831327e-38
0.00900540435302 -0.0915549442557 0.811 1.62264126391e-38
0.0105063050785 -0.0915549442557 0.811 1.67788787625e-38
0.012007205804 -0.0915549442557 0.811 1.41977710691e-38
0.0135081065295 -0.0915549442557 0.811 1.16203165609e-38
0.015009007255 -0.0915549442557 0.811 1.01469871516e-38
0.0165099079805 -0.0915549442557 0.811 1.54921672762e-38
0.018010808706 -0.0915549442557 0.811 1.72395304093e-38
0.0195117094315 -0.0915549442557 0.811 1.68700220172e-38
0.021012610157 -0.0915549442557 0.811 1.76061577317e-38
0.0225135108825 -0.0915549442557 0.811 1.76990624186e-38
0.0240144116081 -0.0915549442557 0.811 1.76082933106e-38
0.0255153123336 -0.0915549442557 0.811 1.70540433342e-38
0.0270162130591 -0.0915549442557 0.811 1.81607608353e-38
0.0285171137846 -0.0915549442557 0.811 1.74232140133e-38
0.0299439873473 -0.0913291614092 0.809 1.77927027872e-38
0.0314411867146 -0.0913291614092 0.809 2.06507617077e-38
0.032938386082 -0.0913291614092 0.809 1.94511493288e-38
-0.0318298293193 -0.0909423694836 0.819 1.96344503783e-38
-0.0303141231612 -0.0909423694836 0.819 1.94497031888e-38
-0.0287984170032 -0.0909423694836 0.819 1.94493346473e-38
-0.0272827108451 -0.0909423694836 0.819 2.16606032422e-38
-0.0257040815987 -0.0907202879953 0.817 1.54849253658e-38
-0.0241920767987 -0.0907202879953 0.817 1.52101489538e-38
-0.0227355923709 -0.0909423694836 0.819 1.65001478863e-38
-0.0212198862128 -0.0909423694836 0.819 1.61317423161e-38
-0.019656062399 -0.0907202879953 0.817 1.63168538433e-38
-0.0181440575991 -0.0907202879953 0.817 1.62246554108e-38
-0.0166320527991 -0.0907202879953 0.817 1.61324569783e-38
-0.0151200479992 -0.0907202879953 0.817 1.71466047029e-38
-0.0136080431993 -0.0907202879953 0.817 1.84384253234e-38
-0.0120664275343 -0.0904982065069 0.815 1.12103877146e-43
-0.0105581240925 -0.0904982065069 0.815 1.84901332368e-40
-0.00904982065069 -0.0904982065069 0.815 1.00475986567e-38
-0.00754151720891 -0.0904982065069 0.815 1.34524652575e-43
-0.00603321376713 -0.0904982065069 0.815 2.57439267114e-39
-0.00451380625093 -0.0902761250186 0.813 1.31722055647e-43
-0.00300920416729 -0.0902761250186 0.813 6.91520333187e-39
-0.00150460208364 -0.0902761250186 0.813 8.66687265512e-39
0.0 -0.0902761250186 0.813 7.1084409888e-39
0.00150460208364 -0.0902761250186 0.813 1.71499187738e-38
0.00300920416729 -0.0902761250186 0.813 1.07850908281e-38
0.00451380625093 -0.0902761250186 0.813 1.10621233306e-38
0.00601840833457 -0.0902761250186 0.813 1.50250934786e-38
0.00752301041821 -0.0902761250186 0.813 1.56718627848e-38
0.00902761250186 -0.0902761250186 0.813 1.24518274514e-38
0.0105322145855 -0.0902761250186 0.813 8.48531762349e-39
0.0120368166691 -0.0902761250186 0.813 1.24446920396e-38
0.0135414187528 -0.0902761250186 0.813 1.10664295208e-38
0.015009007255 -0.0900540435302 0.811 1.36479043543e-38
0.0165099079805 -0.0900540435302 0.811 1.19861731691e-38
0.0180552250037 -0.0902761250186 0.813 1.76111631698e-38
0.0195598270874 -0.0902761250186 0.813 1.65077064902e-38
0.021012610157 -0.0900540435302 0.811 1.71502018361e-38
0.0225135108825 -0.0900540435302 0.811 1.67771117252e-38
0.0240144116081 -0.0900540435302 0.811 1.70536930096e-38
0.0255153123336 -0.0900540435302 0.811 1.65008821667e-38
0.0270162130591 -0.0900540435302 0.811 1.74246181144e-38
0.0285171137846 -0.0900540435302 0.811 1.74239146625e-38
0.0300180145101 -0.0900540435302 0.811 1.82540340637e-38
0.0315966437565 -0.0902761250186 0.813 1.98206310962e-38
0.0331012458401 -0.0902761250186 0.813 1.91741896938e-38
-0.030388150324 -0.0896450434558 0.821 2.03712839394e-38
-0.0288687428078 -0.0896450434558 0.821 1.98181003512e-38
-0.0273493352916 -0.0896450434558 0.821 2.07393419876e-38
-0.025767004687 -0.0894266633256 0.819 1.58547812798e-38
-0.024251298529 -0.0894266633256 0.819 1.56714844342e-38
-0.022791112743 -0.0896450434558 0.821 1.69614777615e-38
-0.0212717052268 -0.0896450434558 0.821 1.61321066537e-38
-0.0197041800548 -0.0894266633256 0.819 1.677710612e-38
-0.0181884738967 -0.0894266633256 0.819 1.62246526082e-38
-0.0166727677387 -0.0894266633256 0.819 1.69611386473e-38
-0.0151570615806 -0.0894266633256 0.819 1.69611442525e-38
-0.0136413554225 -0.0894266633256 0.819 1.88072022377e-38
-0.0120960383994 -0.0892082831954 0.817 0.0
-0.0105840335994 -0.0892082831954 0.817 1.21912966396e-43
-0.00907202879953 -0.0892082831954 0.817 1.9448676037e-38
-0.00756002399961 -0.0892082831954 0.817 1.81589489564e-38
-0.00603321376713 -0.0889899030651 0.815 1.85284279212e-38
-0.00452491032535 -0.0889899030651 0.815 1.86195543603e-38
-0.00301660688356 -0.0889899030651 0.815 1.88975986003e-38
-0.00150830344178 -0.0889899030651 0.815 1.83458611521e-38
0.0 -0.0889899030651 0.815 1.78856046715e-38
0.00150830344178 -0.0889899030651 0.815 1.75153970315e-38
0.00301660688356 -0.0889899030651 0.815 1.50253835474e-38
0.00452491032535 -0.0889899030651 0.815 1.62235567928e-38
0.00603321376713 -0.0889899030651 0.815 1.65891023128e-38
0.00754151720891 -0.0889899030651 0.815 1.71430201815e-38
0.00904982065069 -0.0889899030651 0.815 1.48467558282e-38
0.0105581240925 -0.0889899030651 0.815 1.3652902786e-38
0.0120664275343 -0.0889899030651 0.815 1.42961057876e-38
0.0135414187528 -0.0887715229349 0.813 1.66888761648e-38
0.0150460208364 -0.0887715229349 0.813 1.40126833641e-38
0.0165506229201 -0.0887715229349 0.813 1.44689937882e-38
0.0180552250037 -0.0887715229349 0.813 7.93285009873e-39
0.0195598270874 -0.0887715229349 0.813 3.6187790153e-39
0.021064429171 -0.0887715229349 0.813 1.72463687458e-38
0.0225690312546 -0.0887715229349 0.813 1.70536874044e-38
0.0240736333383 -0.0887715229349 0.813 1.70540433342e-38
0.0255782354219 -0.0887715229349 0.813 1.69625763795e-38
0.0270828375056 -0.0887715229349 0.813 1.72391562626e-38
0.0285874395892 -0.0887715229349 0.813 1.69629393158e-38
0.0300920416729 -0.0887715229349 0.813 1.77012232208e-38
0.0315966437565 -0.0887715229349 0.813 2.0374530748e-38
0.0331012458401 -0.0887715229349 0.813 1.88979545301e-38
-0.0319075578402 -0.0881256359396 0.821 2.00943257057e-38
-0.030388150324 -0.0881256359396 0.821 1.95418834044e-38
-0.0288687428078 -0.0881256359396 0.821 1.95418834044e-38
-0.0274159597381 -0.0883403147117 0.823 2.07407797198e-38
-0.025767004687 -0.0879109571675 0.819 1.73299015486e-38
-0.024251298529 -0.0879109571675 0.819 1.4933542446e-38
-0.022791112743 -0.0881256359396 0.821 1.69614945771e-38
-0.0212717052268 -0.0881256359396 0.821 1.69618406978e-38
-0.0197522977106 -0.0881256359396 0.821 1.68692765265e-38
-0.0182328901944 -0.0881256359396 0.821 1.61317367109e-38
-0.0167134826782 -0.0881256359396 0.821 1.73284820332e-38
-0.015194075162 -0.0881256359396 0.821 1.64987199631e-38
-0.0136746676458 -0.0881256359396 0.821 1.85291706094e-38
-0.0121256492645 -0.0879109571675 0.819 0.0
-0.0106099431064 -0.0879109571675 0.819 9.94921909671e-44
-0.00909423694836 -0.0879109571675 0.819 1.56801921029e-38
-0.0075785307903 -0.0879109571675 0.819 1.65934337263e-38
-0.00606282463224 -0.0879109571675 0.819 1.76057933941e-38
-0.00453601439976 -0.0876962783954 0.817 1.68685786798e-38
-0.00302400959984 -0.0876962783954 0.817 1.66849104901e-38
-0.00151200479992 -0.0876962783954 0.817 1.61342604495e-38
0.0 -0.0876962783954 0.817 1.66877817507e-38
0.00151200479992 -0.0876962783954 0.817 1.66877789481e-38
0.00302400959984 -0.0876962783954 0.817 1.76072101069e-38
0.00453601439976 -0.0876962783954 0.817 1.25372211785e-38
0.00604801919968 -0.0876962783954 0.817 1.44761964623e-38
0.00756002399961 -0.0876962783954 0.817 1.70583439192e-38
0.00907202879953 -0.0876962783954 0.817 4.42835678229e-39
0.0105840335994 -0.0876962783954 0.817 7.93538644895e-39
0.0120960383994 -0.0876962783954 0.817 6.74190194819e-39
0.013574730976 -0.0874815996233 0.815 8.77307706573e-39
0.0150830344178 -0.0874815996233 0.815 1.42013864192e-38
0.0165913378596 -0.0874815996233 0.815 1.77891350813e-38
0.0180996413014 -0.0874815996233 0.815 8.66601646176e-39
0.0196079447432 -0.0874815996233 0.815 9.04245707732e-39
0.0211162481849 -0.0874815996233 0.815 1.78856340987e-38
0.0225690312546 -0.0872669208513 0.813 1.68710968132e-38
0.0240736333383 -0.0872669208513 0.813 1.73309959627e-38
0.0255782354219 -0.0872669208513 0.813 1.73302953134e-38
0.0270828375056 -0.0872669208513 0.813 1.6870377947e-38
0.0285874395892 -0.0872669208513 0.813 1.77008602845e-38
0.0300920416729 -0.0872669208513 0.813 1.81625615038e-38
0.0315966437565 -0.0872669208513 0.813 2.02823351181e-38
0.0331012458401 -0.0872669208513 0.813 1.92667412535e-38
-0.0319852863611 -0.0868172058373 0.823 1.98177626382e-38
-0.0304621774868 -0.0868172058373 0.823 2.083154042e-38
-0.0289390686124 -0.0868172058373 0.823 1.96329972318e-38
-0.0274159597381 -0.0868172058373 0.823 2.01879744821e-38
-0.0258928508638 -0.0868172058373 0.823 1.76072002978e-38
-0.0243697419894 -0.0868172058373 0.823 1.46573226966e-38
-0.0228466331151 -0.0868172058373 0.823 1.69632770287e-38
-0.0212717052268 -0.0866062284234 0.821 1.61328059016e-38
-0.0197522977106 -0.0866062284234 0.821 1.71469578301e-38
-0.0182328901944 -0.0866062284234 0.821 1.60406102718e-38
-0.0167134826782 -0.0866062284234 0.821 1.65927148602e-38
-0.015194075162 -0.0866062284234 0.821 1.65930651849e-38
-0.0136746676458 -0.0866062284234 0.821 1.84366092406e-38
-0.0121552601296 -0.0866062284234 0.821 9.31146574482e-39
-0.0106358526134 -0.0866062284234 0.821 1.622929511e-38
-0.0091164450972 -0.0866062284234 0.821 1.74250146818e-38
-0.0075785307903 -0.0863952510095 0.819 1.69618435004e-38
-0.00606282463224 -0.0863952510095 0.819 1.74228258536e-38
-0.00454711847418 -0.0863952510095 0.819 1.63175572951e-38
-0.00302400959984 -0.0861842735955 0.817 1.68707282717e-38
-0.00151200479992 -0.0861842735955 0.817 1.65033834844e-38
0.0 -0.0863952510095 0.819 1.65952189806e-38
0.00151570615806 -0.0863952510095 0.819 1.65948658534e-38
0.00303141231612 -0.0863952510095 0.819 1.88983286768e-38
0.00454711847418 -0.0863952510095 0.819 1.85406640594e-39
0.00606282463224 -0.0863952510095 0.819 3.71806521539e-41
0.0075785307903 -0.0863952510095 0.819 1.50390980554e-38
0.00909423694836 -0.0863952510095 0.819 8.67475075509e-39
0.0106099431064 -0.0863952510095 0.819 1.77008728962e-38
0.0121256492645 -0.0863952510095 0.819 1.38243096141e-38
0.0136080431993 -0.0861842735955 0.817 9.59200009218e-39
0.0151200479992 -0.0861842735955 0.817 1.32776504715e-38
0.0166320527991 -0.0861842735955 0.817 1.30896887033e-38
0.0181440575991 -0.0861842735955 0.817 1.73317050197e-38
0.0196079447432 -0.0859732961816 0.815 1.78845256716e-38
0.0211162481849 -0.0859732961816 0.815 1.80682008679e-38
0.0226245516267 -0.0859732961816 0.815 1.67778263874e-38
0.0241328550685 -0.0859732961816 0.815 1.75153914263e-38
0.0256411585103 -0.0859732961816 0.815 1.7423198599e-38
0.0271494619521 -0.0859732961816 0.815 1.75157445535e-38
0.0286577653939 -0.0859732961816 0.815 1.67778263874e-38
0.0300920416729 -0.0857623187676 0.813 1.77008756988e-38
0.0315966437565 -0.0857623187676 0.813 2.0281616252e-38
0.0331012458401 -0.0857623187676 0.813 1.8898681804e-38
-0.0319852863611 -0.085294096963 0.823 1.92638699929e-38
-0.0304621774868 -0.085294096963 0.823 2.02772974501e-38
-0.0289390686124 -0.085294096963 0.823 1.99099456564e-38
-0.0274159597381 -0.085294096963 0.823 1.9819193364e-38
-0.0258928508638 -0.085294096963 0.823 1.96348007029e-38
-0.0243697419894 -0.085294096963 0.823 1.47484239124e-38
-0.0229021534872 -0.0855013730188 0.825 1.65937658341e-38
-0.0213235242407 -0.085294096963 0.823 1.68707282717e-38
-0.0198004153664 -0.085294096963 0.823 1.65930651849e-38
-0.0182773064921 -0.085294096963 0.823 1.65008821667e-38
-0.0167541976177 -0.085294096963 0.823 1.64083179953e-38
-0.0152310887434 -0.085294096963 0.823 1.65005164278e-38
-0.0137079798691 -0.085294096963 0.823 1.66838314903e-38
-0.0121552601296 -0.0850868209072 0.821 1.80667659382e-38
-0.0106358526134 -0.0850868209072 0.821 1.7330635829e-38
-0.0091164450972 -0.0850868209072 0.821 1.71462417666e-38
-0.007597037581 -0.0850868209072 0.821 1.65945141275e-38
-0.0060776300648 -0.0850868209072 0.821 1.65019639691e-38
-0.00454711847418 -0.0848795448514 0.819 1.65948658534e-38
-0.00303141231612 -0.0848795448514 0.819 1.65948630508e-38
-0.0015194075162 -0.0850868209072 0.821 1.65945113249e-38
0.0 -0.0850868209072 0.821 1.68703751444e-38
0.00151570615806 -0.0848795448514 0.819 1.69611386473e-38
0.00303141231612 -0.0848795448514 0.819 1.76057877889e-38
0.0045582225486 -0.0850868209072 0.821 1.30954144088e-38
0.0060776300648 -0.0850868209072 0.821 1.49439919287e-38
0.007597037581 -0.0850868209072 0.821 1.73349518282e-38
0.0091164450972 -0.0850868209072 0.821 1.59509355779e-38
0.0106358526134 -0.0850868209072 0.821 1.75186116102e-38
0.0121256492645 -0.0848795448514 0.819 1.82514977135e-38
0.0136413554225 -0.0848795448514 0.819 1.86202928446e-38
0.0151570615806 -0.0848795448514 0.819 1.79756493082e-38
0.0166727677387 -0.0848795448514 0.819 1.85291916289e-38
0.0181884738967 -0.0848795448514 0.819 1.71480396326e-38
0.019656062399 -0.0846722687956 0.817 1.71473333781e-38
0.0211680671989 -0.0846722687956 0.817 1.7607942986e-38
0.0226800719988 -0.0846722687956 0.817 1.66856293562e-38
0.024251298529 -0.0848795448514 0.819 1.72402352624e-38
0.025767004687 -0.0848795448514 0.819 1.6963292443e-38
0.0272160863986 -0.0846722687956 0.817 1.71462515757e-38
0.0286577653939 -0.0844649927398 0.815 1.76082961132e-38
0.0301660688356 -0.0844649927398 0.815 1.79781702441e-38
0.0316743722774 -0.0844649927398 0.815 2.00975879286e-38
0.0331826757192 -0.0844649927398 0.815 2.01897681441e-38
-0.0319852863611 -0.0837709880887 0.823 1.97252110786e-38
-0.0304621774868 -0.0837709880887 0.823 2.02780163162e-38
-0.0289390686124 -0.0837709880887 0.823 1.98173940967e-38
-0.0274825841846 -0.0839745627863 0.825 2.00950697952e-38
-0.0258928508638 -0.0837709880887 0.823 1.98188430393e-38
-0.0243697419894 -0.0837709880887 0.823 1.39183255307e-38
-0.0229576738593 -0.084178137484 0.827 1.69611414499e-38
-0.0213753432547 -0.0839745627863 0.825 1.63175544925e-38
-0.0198485330222 -0.0839745627863 0.825 1.67771089226e-38
-0.0183217227897 -0.0839745627863 0.825 1.65920086058e-38
-0.0167949125573 -0.0839745627863 0.825 1.60406130744e-38
-0.0152681023248 -0.0839745627863 0.825 1.6226065117e-38
-0.0137412920923 -0.0839745627863 0.825 1.67767333746e-38
-0.0121848709947 -0.0837709880887 0.823 1.6316476894e-38
-0.0106617621204 -0.0837709880887 0.823 1.65934337263e-38
-0.00913865324604 -0.0837709880887 0.823 1.69629393158e-38
-0.0076155443717 -0.0837709880887 0.823 1.64101214664e-38
-0.00609243549736 -0.0837709880887 0.823 1.71469550275e-38
-0.0045582225486 -0.083567413391 0.821 1.69632952456e-38
-0.0030388150324 -0.083567413391 0.821 1.67781753107e-38
-0.0015194075162 -0.083567413391 0.821 1.75153942289e-38
0.0 -0.083567413391 0.821 1.6685276229e-38
0.0015194075162 -0.083567413391 0.821 1.7607942986e-38
0.0030388150324 -0.083567413391 0.821 1.79763555626e-38
0.0045582225486 -0.083567413391 0.821 1.69618701251e-38
0.0060776300648 -0.083567413391 0.821 1.71469550275e-38
0.007597037581 -0.083567413391 0.821 1.78834508757e-38
0.0091164450972 -0.083567413391 0.821 1.7330983351e-38
0.0106358526134 -0.083567413391 0.821 1.70533230668e-38
0.0121552601296 -0.083567413391 0.821 1.74231817834e-38
0.0136746676458 -0.083567413391 0.821 1.69625707743e-38
0.015194075162 -0.083567413391 0.821 1.677710612e-38
0.0166727677387 -0.0833638386933 0.819 1.71458886394e-38
0.0181884738967 -0.0833638386933 0.819 1.71458886394e-38
0.0197041800548 -0.0833638386933 0.819 1.69625763795e-38
0.0212198862128 -0.0833638386933 0.819 1.73302798991e-38
0.0227355923709 -0.0833638386933 0.819 1.74235615353e-38
0.024251298529 -0.0833638386933 0.819 1.71476837027e-38
0.025767004687 -0.0833638386933 0.819 1.71462515757e-38
0.0272827108451 -0.0833638386933 0.819 1.76065108589e-38
0.0287280911985 -0.0831602639957 0.817 1.64083236005e-38
0.0302400959984 -0.0831602639957 0.817 1.80693120975e-38
0.0317521007983 -0.0831602639957 0.817 2.06503945675e-38
-0.0319852863611 -0.0822478792143 0.823 2.00939781837e-38
-0.0304621774868 -0.0822478792143 0.823 1.99085079242e-38
-0.0289390686124 -0.0822478792143 0.823 2.0278372246e-38
-0.0274825841846 -0.0824477525538 0.825 1.99106659238e-38
-0.0259557739521 -0.0824477525538 0.825 2.04642096458e-38
-0.0244289637197 -0.0824477525538 0.825 1.37332280165e-38
-0.0229576738593 -0.0826476258934 0.827 1.677782919e-38
-0.0214271622687 -0.0826476258934 0.827 1.63175544925e-38
-0.019896650678 -0.0826476258934 0.827 1.63172069705e-38
-0.0183661390874 -0.0826476258934 0.827 1.66856321588e-38
-0.0168356274968 -0.0826476258934 0.827 1.65934365289e-38
-0.0153051159062 -0.0826476258934 0.827 1.70540405316e-38
-0.0137746043156 -0.0826476258934 0.827 1.65015884211e-38
-0.0122440927249 -0.0826476258934 0.827 1.65934211147e-38
-0.0107135811343 -0.0826476258934 0.827 1.63172013653e-38
-0.00916086139487 -0.0824477525538 0.825 1.67781781133e-38
-0.00763405116239 -0.0824477525538 0.825 1.68707254691e-38
-0.00610724092991 -0.0824477525538 0.825 1.74238978469e-38
-0.00456932662302 -0.0822478792143 0.823 1.77012106091e-38
-0.00304621774868 -0.0822478792143 0.823 1.72402324598e-38
-0.00152310887434 -0.0822478792143 0.823 1.75157445535e-38
0.0 -0.0822478792143 0.823 1.76990568134e-38
0.0015194075162 -0.0820480058748 0.821 1.79759996328e-38
0.0030388150324 -0.0820480058748 0.821 1.78845256716e-38
0.00456932662302 -0.0822478792143 0.823 1.76086590495e-38
0.00609243549736 -0.0822478792143 0.823 1.69639986974e-38
0.0076155443717 -0.0822478792143 0.823 1.72398863391e-38
0.00913865324604 -0.0822478792143 0.823 1.75164662222e-38
0.0106617621204 -0.0822478792143 0.823 1.75157445535e-38
0.0121552601296 -0.0820480058748 0.821 1.80692700586e-38
0.0136746676458 -0.0820480058748 0.821 1.78852487417e-38
0.015194075162 -0.0820480058748 0.821 1.76075660367e-38
0.0167134826782 -0.0820480058748 0.821 1.797635276e-38
0.0182328901944 -0.0820480058748 0.821 1.69625735769e-38
0.0197522977106 -0.0820480058748 0.821 1.76068625848e-38
0.0212717052268 -0.0820480058748 0.821 1.7330635829e-38
0.022791112743 -0.0820480058748 0.821 1.71466047029e-38
0.0243105202592 -0.0820480058748 0.821 1.71458858368e-38
0.0258299277754 -0.0820480058748 0.821 1.76075898587e-38
0.0272827108451 -0.0818481325353 0.819 1.80689141288e-38
0.0287984170032 -0.0818481325353 0.819 1.74242705923e-38
0.0303141231612 -0.0818481325353 0.819 1.81607608353e-38
0.0318298293193 -0.0818481325353 0.819 2.04660005052e-38
-0.0305362046496 -0.0809209423214 0.825 1.99106659238e-38
-0.0290093944171 -0.0809209423214 0.825 1.9541886207e-38
-0.0274825841846 -0.0809209423214 0.825 1.9541886207e-38
-0.0259557739521 -0.0809209423214 0.825 2.07411454587e-38
-0.0244289637197 -0.0809209423214 0.825 1.26272335854e-38
-0.0229576738593 -0.0811171143028 0.827 1.66863300054e-38
-0.0214271622687 -0.0811171143028 0.827 1.62253616652e-38
-0.019896650678 -0.0811171143028 0.827 1.65937868536e-38
-0.0184105553851 -0.0813132862841 0.829 1.72377311421e-38
-0.0168356274968 -0.0811171143028 0.827 1.65016136445e-38
-0.0153051159062 -0.0811171143028 0.827 1.66852608147e-38
-0.0138079165388 -0.0813132862841 0.829 1.6776730572e-38
-0.0122440927249 -0.0811171143028 0.827 1.77912398316e-38
-0.0107135811343 -0.0811171143028 0.827 1.76082666859e-38
-0.00918306954371 -0.0811171143028 0.827 1.77916055705e-38
-0.00765255795309 -0.0811171143028 0.827 1.28144722836e-38
-0.00612204636247 -0.0811171143028 0.827 1.12479242966e-38
-0.00458043069744 -0.0809209423214 0.825 9.86535839011e-39
-0.00305362046496 -0.0809209423214 0.825 9.77496483007e-39
-0.00152681023248 -0.0809209423214 0.825 1.04242971112e-38
0.0 -0.0809209423214 0.825 1.13429967922e-38
0.00152310887434 -0.08072477034 0.823 1.02370135714e-38
0.00304621774868 -0.08072477034 0.823 9.41303466011e-39
0.00456932662302 -0.08072477034 0.823 1.16231864201e-38
0.00609243549736 -0.08072477034 0.823 1.04242816969e-38
0.0076155443717 -0.08072477034 0.823 1.05157766775e-38
0.00913865324604 -0.08072477034 0.823 9.13818818321e-39
0.0106617621204 -0.08072477034 0.823 1.00587417821e-38
0.0121848709947 -0.08072477034 0.823 1.11618593475e-38
0.0137079798691 -0.08072477034 0.823 9.40906898545e-39
0.015194075162 -0.0805285983586 0.821 1.71502648945e-38
0.0167134826782 -0.0805285983586 0.821 1.69625861886e-38
0.0182328901944 -0.0805285983586 0.821 1.72380814667e-38
0.0197522977106 -0.0805285983586 0.821 1.77923300418e-38
0.0212717052268 -0.0805285983586 0.821 1.74235475223e-38
0.022791112743 -0.0805285983586 0.821 1.81607608353e-38
0.0243105202592 -0.0805285983586 0.821 1.7330635829e-38
0.0258299277754 -0.0805285983586 0.821 1.7330645638e-38
0.0272827108451 -0.0803324263772 0.819 1.76086618521e-38
0.0287984170032 -0.0803324263772 0.819 1.73309987653e-38
0.0303141231612 -0.0803324263772 0.819 1.83465982351e-38
0.0318298293193 -0.0803324263772 0.819 2.05581961351e-38
-0.0290797202217 -0.0795866027121 0.827 1.92653063239e-38
-0.0275492086311 -0.0795866027121 0.827 1.93578578835e-38
-0.0260186970405 -0.0795866027121 0.827 2.01879716795e-38
-0.0244881854499 -0.0795866027121 0.827 1.4011602963e-38
-0.0230131942314 -0.0797790733354 0.829 1.67796270559e-38
-0.0214789812826 -0.0797790733354 0.829 1.66856111393e-38
-0.0199447683338 -0.0797790733354 0.829 1.71465920912e-38
-0.0184105553851 -0.0797790733354 0.829 1.65934183121e-38
-0.0168763424363 -0.0797790733354 0.829 1.72387905237e-38
-0.0153421294876 -0.0797790733354 0.829 1.40148525741e-38
-0.0138412287621 -0.0799715439586 0.831 1.32816063371e-38
-0.0122737035901 -0.0797790733354 0.829 1.60456297229e-38
-0.0107394906413 -0.0797790733354 0.829 1.56739759429e-38
-0.00918306954371 -0.0795866027121 0.827 1.67788633482e-38
-0.00765255795309 -0.0795866027121 0.827 1.69629000795e-38
-0.00612204636247 -0.0795866027121 0.827 1.54910168102e-38
-0.00459153477185 -0.0795866027121 0.827 1.65959546623e-38
-0.00306102318124 -0.0795866027121 0.827 1.71469606327e-38
-0.00153051159062 -0.0795866027121 0.827 1.43882986148e-38
0.0 -0.0793941320889 0.825 1.42986169144e-38
0.00152681023248 -0.0793941320889 0.825 1.56772381657e-38
0.00305362046496 -0.0793941320889 0.825 1.36536062378e-38
0.00458043069744 -0.0793941320889 0.825 1.74303844575e-38
0.00610724092991 -0.0793941320889 0.825 1.45705290723e-38
0.00763405116239 -0.0793941320889 0.825 1.58644880743e-38
0.00916086139487 -0.0793941320889 0.825 1.35610420664e-38
0.0107135811343 -0.0795866027121 0.827 1.55878983821e-38
0.0122440927249 -0.0795866027121 0.827 1.49375039168e-38
0.0137412920923 -0.0793941320889 0.825 1.43875825513e-38
0.0152310887434 -0.0792016614656 0.823 1.76119212723e-38
0.0167541976177 -0.0792016614656 0.823 1.75161102924e-38
0.0182773064921 -0.0792016614656 0.823 1.77923300418e-38
0.0198004153664 -0.0792016614656 0.823 1.75178983492e-38
0.0213235242407 -0.0792016614656 0.823 1.74253467896e-38
0.022791112743 -0.0790091908424 0.821 1.641228367e-38
0.0243105202592 -0.0790091908424 0.821 1.76101079921e-38
0.0258928508638 -0.0792016614656 0.823 1.75157473561e-38
0.0273493352916 -0.0790091908424 0.821 1.72398793326e-38
0.0287984170032 -0.0788167202191 0.819 1.78852557481e-38
0.0303141231612 -0.0788167202191 0.819 1.75168389676e-38
0.0318298293193 -0.0788167202191 0.819 2.08355060947e-38
-0.029220371831 -0.0784336296517 0.831 1.95418806018e-38
-0.0276824575241 -0.0784336296517 0.831 1.97266207848e-38
-0.0260816201289 -0.0782448603866 0.829 2.11092021055e-38
-0.0245474071801 -0.0782448603866 0.829 1.2075847863e-38
-0.0230687146034 -0.0784336296517 0.831 1.60427808831e-38
-0.0215308002966 -0.0784336296517 0.831 1.59480615147e-38
-0.0199928859897 -0.0784336296517 0.831 1.6316476894e-38
-0.0184549716828 -0.0784336296517 0.831 1.63161055499e-38
-0.0169170573759 -0.0784336296517 0.831 1.69614945771e-38
-0.015379143069 -0.0784336296517 0.831 9.95720649795e-39
-0.0138412287621 -0.0784336296517 0.831 1.02384667179e-38
-0.0122737035901 -0.0782448603866 0.829 1.27284465709e-38
-0.0107394906413 -0.0782448603866 0.829 1.00504573056e-38
-0.00920527769254 -0.0782448603866 0.829 1.06900996078e-38
-0.00767106474379 -0.0782448603866 0.829 1.11500057638e-38
-0.00613685179503 -0.0782448603866 0.829 1.16131138868e-38
-0.00459153477185 -0.0780560911215 0.827 1.06926051294e-38
-0.00306102318124 -0.0780560911215 0.827 1.25314758548e-38
-0.00153051159062 -0.0780560911215 0.827 9.12924229381e-39
0.0 -0.0780560911215 0.827 9.13535335642e-39
0.00152681023248 -0.0778673218564 0.825 1.24493415479e-38
0.00305362046496 -0.0778673218564 0.825 8.02429883652e-39
0.00458043069744 -0.0778673218564 0.825 1.87135842899e-38
0.00612204636247 -0.0780560911215 0.827 8.75753806706e-39
0.00765255795309 -0.0780560911215 0.827 9.50271636053e-39
0.00918306954371 -0.0780560911215 0.827 8.21162441523e-39
0.0107135811343 -0.0780560911215 0.827 1.16149117527e-38
0.0122440927249 -0.0780560911215 0.827 1.08751859115e-38
0.0137746043156 -0.0780560911215 0.827 1.09645004718e-38
0.0152681023248 -0.0778673218564 0.825 1.1242536304e-38
0.0167949125573 -0.0778673218564 0.825 1.12475767745e-38
0.0182773064921 -0.0776785525913 0.823 7.28677443526e-39
0.0198004153664 -0.0776785525913 0.823 8.94811045432e-39
0.0213235242407 -0.0776785525913 0.823 9.95937150408e-39
0.0228466331151 -0.0776785525913 0.823 1.14347972559e-38
0.0243697419894 -0.0776785525913 0.823 1.75193627061e-38
0.0259557739521 -0.0778673218564 0.825 1.76083115274e-38
0.0274159597381 -0.0776785525913 0.823 1.74235447197e-38
0.0288687428078 -0.0774897833262 0.821 1.72406024026e-38
0.030388150324 -0.0774897833262 0.821 1.78866878752e-38
0.0319075578402 -0.0774897833262 0.821 2.10199029596e-38
-0.0277490819706 -0.0770807832518 0.833 1.95418806018e-38
-0.0261445432172 -0.0768957153448 0.831 2.01879688769e-38
-0.0246066289103 -0.0768957153448 0.831 1.23513557528e-38
-0.0231242349755 -0.0770807832518 0.833 1.70561943273e-38
-0.0215826193105 -0.0770807832518 0.833 1.66859824834e-38
-0.0200410036455 -0.0770807832518 0.833 1.70543964614e-38
-0.0184993879804 -0.0770807832518 0.833 1.70543936588e-38
-0.0169577723154 -0.0770807832518 0.833 1.73317050197e-38
-0.0154161566504 -0.0770807832518 0.833 1.74228286562e-38
-0.0138745409853 -0.0770807832518 0.833 1.73302798991e-38
-0.0123329253203 -0.0770807832518 0.833 1.76075926613e-38
-0.0107913096553 -0.0770807832518 0.833 1.71469606327e-38
-0.00924969399022 -0.0770807832518 0.833 1.80674693901e-38
-0.00767106474379 -0.0767106474379 0.829 1.76054248526e-38
-0.00613685179503 -0.0767106474379 0.829 1.7698336546e-38
-0.00460263884627 -0.0767106474379 0.829 1.77916111757e-38
-0.00306102318124 -0.0765255795309 0.827 1.74228258536e-38
-0.00153051159062 -0.0765255795309 0.827 1.50279269041e-38
0.0 -0.0765255795309 0.827 1.21759790461e-38
0.00153051159062 -0.0765255795309 0.827 1.66877971649e-38
0.00306102318124 -0.0765255795309 0.827 1.48427929562e-38
0.00459153477185 -0.0765255795309 0.827 1.89908802365e-38
0.00613685179503 -0.0767106474379 0.829 1.29077959587e-38
0.00767106474379 -0.0767106474379 0.829 1.47606964843e-38
0.00920527769254 -0.0767106474379 0.829 1.46681154974e-38
0.0107394906413 -0.0767106474379 0.829 1.73360406371e-38
0.0122440927249 -0.0765255795309 0.827 1.81589461538e-38
0.0137746043156 -0.0765255795309 0.827 1.79727556269e-38
0.0153051159062 -0.0765255795309 0.827 1.82511445863e-38
0.0168356274968 -0.0765255795309 0.827 1.83447793497e-38
0.0183217227897 -0.0763405116239 0.825 1.80696343962e-38
0.0198485330222 -0.0763405116239 0.825 1.78856018689e-38
0.0213753432547 -0.0763405116239 0.825 1.8069267256e-38
0.0229021534872 -0.0763405116239 0.825 1.8253312395e-38
0.0244881854499 -0.0765255795309 0.827 1.71462543783e-38
0.0260186970405 -0.0765255795309 0.827 1.75146879745e-38
0.0274825841846 -0.0763405116239 0.825 1.77923300418e-38
0.0289390686124 -0.076155443717 0.823 1.59505824506e-38
0.0304621774868 -0.076155443717 0.823 1.76101135973e-38
0.0319852863611 -0.076155443717 0.823 2.12024935508e-38
-0.0278157064172 -0.0757205341356 0.835 1.94500409017e-38
-0.0262074663056 -0.0755391675868 0.833 2.07411454587e-38
-0.0246658506406 -0.0755391675868 0.833 1.2444261841e-38
-0.0231797553476 -0.0757205341356 0.835 1.65023142937e-38
-0.0216344383245 -0.0757205341356 0.835 1.64108249183e-38
-0.0200891213013 -0.0757205341356 0.835 1.69611218317e-38
-0.0185438042781 -0.0757205341356 0.835 1.66852608147e-38
-0.0169984872549 -0.0757205341356 0.835 1.61324569783e-38
-0.0154531702318 -0.0757205341356 0.835 1.76072157121e-38
-0.0139078532086 -0.0757205341356 0.835 1.7699393125e-38
-0.0123625361854 -0.0757205341356 0.835 1.71469606327e-38
-0.0108172191622 -0.0757205341356 0.835 1.76082933106e-38
-0.00927190213905 -0.0757205341356 0.835 1.77923244366e-38
-0.00770807832518 -0.0755391675868 0.833 1.71462543783e-38
-0.00616646266014 -0.0755391675868 0.833 1.81611167651e-38
-0.00462484699511 -0.0755391675868 0.833 1.69618701251e-38
-0.00306842589751 -0.0751764344891 0.829 1.78856046715e-38
-0.00153421294876 -0.0751764344891 0.829 1.36449952587e-38
0.0 -0.0751764344891 0.829 1.14340811924e-38
0.00153421294876 -0.0751764344891 0.829 1.69625861886e-38
0.00306842589751 -0.0751764344891 0.829 1.45654675823e-38
0.00460263884627 -0.0751764344891 0.829 1.63175544925e-38
0.00613685179503 -0.0751764344891 0.829 1.50268338913e-38
0.00767106474379 -0.0751764344891 0.829 9.68566148024e-39
0.00920527769254 -0.0751764344891 0.829 1.01495080875e-38
0.0107394906413 -0.0751764344891 0.829 1.71509473269e-38
0.0122737035901 -0.0751764344891 0.829 1.82525851211e-38
0.0138079165388 -0.0751764344891 0.829 1.73295512239e-38
0.0153421294876 -0.0751764344891 0.829 1.83455080249e-38
0.0168763424363 -0.0751764344891 0.829 1.82532829677e-38
0.0184105553851 -0.0751764344891 0.829 1.74235349106e-38
0.0199447683338 -0.0751764344891 0.829 1.85295419535e-38
0.0214789812826 -0.0751764344891 0.829 1.74239006495e-38
0.0230131942314 -0.0751764344891 0.829 1.75157445535e-38
0.0245474071801 -0.0751764344891 0.829 1.779234966e-38
0.0260186970405 -0.0749950679403 0.827 1.76079401834e-38
0.0275492086311 -0.0749950679403 0.827 1.77926803664e-38
0.0290797202217 -0.0749950679403 0.827 1.70558440027e-38
0.0306102318124 -0.0749950679403 0.827 1.77019532973e-38
0.032140743403 -0.0749950679403 0.827 2.19404117169e-38
-0.0278157064172 -0.0741752171124 0.835 1.9264940585e-38
-0.026270389394 -0.0741752171124 0.835 2.10177365522e-38
-0.0247250723708 -0.0741752171124 0.835 1.22609467785e-38
-0.0231797553476 -0.0741752171124 0.835 1.67792739287e-38
-0.0216344383245 -0.0741752171124 0.835 1.65941371782e-38
-0.0200891213013 -0.0741752171124 0.835 1.66852608147e-38
-0.0185438042781 -0.0741752171124 0.835 1.64083207979e-38
-0.0169984872549 -0.0741752171124 0.835 1.6225008538e-38
-0.0154531702318 -0.0741752171124 0.835 1.83440590822e-38
-0.0139078532086 -0.0741752171124 0.835 8.38659614668e-39
-0.0123625361854 -0.0741752171124 0.835 1.15223433774e-38
-0.0108172191622 -0.0741752171124 0.835 1.16163508862e-38
-0.00927190213905 -0.0741752171124 0.835 1.42917841831e-38
-0.00772658511588 -0.0741752171124 0.835 1.18075692721e-38
-0.0061812680927 -0.0741752171124 0.835 1.37440011991e-38
-0.00462484699511 -0.0739975519217 0.833 1.36496349579e-38
-0.00308323133007 -0.0739975519217 0.833 1.6686332808e-38
-0.00154161566504 -0.0739975519217 0.833 1.36431175188e-38
0.0 -0.0739975519217 0.833 1.52126488702e-38
0.0015379143069 -0.073819886731 0.831 1.57672547765e-38
0.00307582861379 -0.073819886731 0.831 1.70558383975e-38
0.00461374292069 -0.073819886731 0.831 1.77909021186e-38
0.00615165722759 -0.073819886731 0.831 1.7327030288e-38
0.00768957153448 -0.073819886731 0.831 1.73317022171e-38
0.00922748584138 -0.073819886731 0.831 1.62300307917e-38
0.0107394906413 -0.0736422215403 0.829 1.53088129774e-38
0.0122737035901 -0.0736422215403 0.829 1.6411936148e-38
0.0138079165388 -0.0736422215403 0.829 1.72391562626e-38
0.0153421294876 -0.0736422215403 0.829 1.66866831327e-38
0.0169170573759 -0.073819886731 0.831 1.70587096581e-38
0.0184105553851 -0.0736422215403 0.829 1.66906488073e-38
0.0199447683338 -0.0736422215403 0.829 1.59523831192e-38
0.0215308002966 -0.073819886731 0.831 1.4755286071e-38
0.0230687146034 -0.073819886731 0.831 1.7241712231e-38
0.0246066289103 -0.073819886731 0.831 1.78856018689e-38
0.0261445432172 -0.073819886731 0.831 1.70558440027e-38
0.0276158330776 -0.0736422215403 0.829 1.72391562626e-38
0.0291500460264 -0.0736422215403 0.829 1.72398863391e-38
0.0306842589751 -0.0736422215403 0.829 1.79788863076e-38
0.0323739289658 -0.0739975519217 0.833 2.0651114835e-38
0.0339155446308 -0.0739975519217 0.833 1.95419156342e-38
-0.0278157064172 -0.0726299000892 0.835 1.93574921446e-38
-0.026270389394 -0.0726299000892 0.835 2.13865148677e-38
-0.0247250723708 -0.0726299000892 0.835 1.27212172721e-38
-0.0232352757197 -0.0728038639218 0.837 1.69625763795e-38
-0.0216862573384 -0.0728038639218 0.837 1.68689262018e-38
-0.0201372389571 -0.0728038639218 0.837 1.67774620498e-38
-0.0185882205758 -0.0728038639218 0.837 1.66849104901e-38
-0.0169984872549 -0.0726299000892 0.835 1.67774592472e-38
-0.0154531702318 -0.0726299000892 0.835 1.64090270523e-38
-0.0139078532086 -0.0726299000892 0.835 1.64111934598e-38
-0.0123625361854 -0.0726299000892 0.835 1.58601692724e-38
-0.0108172191622 -0.0726299000892 0.835 1.49393073879e-38
-0.00927190213905 -0.0726299000892 0.835 1.57694351969e-38
-0.00772658511588 -0.0726299000892 0.835 1.3466322698e-38
-0.0061812680927 -0.0726299000892 0.835 1.34649031827e-38
-0.00463595106953 -0.0726299000892 0.835 1.41985151586e-38
-0.00309063404635 -0.0726299000892 0.835 1.74245858845e-38
-0.00154531702318 -0.0726299000892 0.835 1.36435042772e-38
0.0 -0.0726299000892 0.835 1.42885654005e-38
0.00154161566504 -0.0724559362567 0.833 1.29967573917e-38
0.00308323133007 -0.0724559362567 0.833 1.33651615606e-38
0.00462484699511 -0.0724559362567 0.833 1.66838314903e-38
0.0061812680927 -0.0726299000892 0.835 1.33630007584e-38
0.00770807832518 -0.0724559362567 0.833 1.17060185736e-38
0.00924969399022 -0.0724559362567 0.833 1.27241165586e-38
0.0107913096553 -0.0724559362567 0.833 1.31843856509e-38
0.0123329253203 -0.0724559362567 0.833 1.11531923165e-38
0.0138745409853 -0.0724559362567 0.833 1.17917303955e-38
0.0154161566504 -0.0724559362567 0.833 1.38236664181e-38
0.0169577723154 -0.0724559362567 0.833 1.45655194303e-38
0.0184993879804 -0.0724559362567 0.833 1.28148646472e-38
0.0200410036455 -0.0724559362567 0.833 1.39190542059e-38
0.0215826193105 -0.0724559362567 0.833 1.21706246847e-38
0.0231242349755 -0.0724559362567 0.833 1.86235788895e-38
0.0246658506406 -0.0724559362567 0.833 1.80696203832e-38
0.0261445432172 -0.0722819724241 0.831 1.76994099406e-38
0.0276824575241 -0.0722819724241 0.831 1.74235475223e-38
0.029220371831 -0.0722819724241 0.831 1.72388031354e-38
0.0307582861379 -0.0722819724241 0.831 1.83476758336e-38
0.0323739289658 -0.0724559362567 0.833 1.87161038245e-38
0.0339155446308 -0.0724559362567 0.833 2.05581961351e-38
-0.0279489553102 -0.0714251080149 0.839 1.9541886207e-38
-0.0263962355707 -0.0714251080149 0.839 2.08333284769e-38
-0.0248435158313 -0.0714251080149 0.839 1.32729505164e-38
-0.0232907960918 -0.0714251080149 0.839 1.64072488046e-38
-0.0217380763524 -0.0714251080149 0.839 1.7144792824e-38
-0.0201372389571 -0.0712548455405 0.837 1.66845377447e-38
-0.0185882205758 -0.0712548455405 0.837 1.64090270523e-38
-0.0170392021945 -0.0712548455405 0.837 1.76068597822e-38
-0.0154901838131 -0.0712548455405 0.837 9.86321440346e-39
-0.0139411654318 -0.0712548455405 0.837 1.14312239448e-38
-0.0123921470505 -0.0712548455405 0.837 8.11360358765e-39
-0.0108431286692 -0.0712548455405 0.837 1.08794752861e-38
-0.00929411028789 -0.0712548455405 0.837 1.05989577544e-38
-0.00774509190657 -0.0712548455405 0.837 9.21279891864e-39
-0.0061812680927 -0.0710845830661 0.835 1.40994825936e-38
-0.00463595106953 -0.0710845830661 0.835 1.19822327178e-38
-0.00309063404635 -0.0710845830661 0.835 1.0047586045e-38
-0.00154531702318 -0.0710845830661 0.835 1.29964042645e-38
0.0 -0.0710845830661 0.835 1.40080142376e-38
0.00154161566504 -0.0709143205917 0.833 1.28112871322e-38
0.00308323133007 -0.0709143205917 0.833 1.56715152628e-38
0.00462484699511 -0.0709143205917 0.833 9.86602821077e-39
0.0061812680927 -0.0710845830661 0.835 1.39216424041e-38
0.00772658511588 -0.0710845830661 0.835 1.39212094029e-38
0.00927190213905 -0.0710845830661 0.835 1.82525697068e-38
0.0108172191622 -0.0710845830661 0.835 1.48402594085e-38
0.0123329253203 -0.0709143205917 0.833 1.46584087029e-38
0.0138745409853 -0.0709143205917 0.833 1.29031100167e-38
0.0154161566504 -0.0709143205917 0.833 1.57593766765e-38
0.0169577723154 -0.0709143205917 0.833 1.44715119216e-38
0.0185438042781 -0.0710845830661 0.835 1.41931453829e-38
0.0200891213013 -0.0710845830661 0.835 1.34523377394e-38
0.0215826193105 -0.0709143205917 0.833 1.29009968586e-38
0.0231242349755 -0.0709143205917 0.833 1.23514005944e-38
0.0246658506406 -0.0709143205917 0.833 1.79749612706e-38
0.0262074663056 -0.0709143205917 0.833 1.84369805847e-38
0.0278157064172 -0.0710845830661 0.835 1.68700248198e-38
0.0292906976357 -0.0709143205917 0.833 1.71455383148e-38
0.0308323133007 -0.0709143205917 0.833 1.91752855092e-38
0.0324516574867 -0.0710845830661 0.835 1.75179137635e-38
0.0339969745099 -0.0710845830661 0.835 2.00975879286e-38
-0.0296423266589 -0.070205510508 0.843 1.97262676576e-38
-0.0280822042032 -0.070205510508 0.843 1.98184632875e-38
-0.0265220817475 -0.070205510508 0.843 1.99102931784e-38
-0.0249619592917 -0.070205510508 0.843 1.51164861644e-38
-0.023401836836 -0.070205510508 0.843 1.64072642189e-38
-0.0217898953663 -0.0700389493917 0.841 1.67767333746e-38
-0.0201853566129 -0.0698723882754 0.839 1.6500869555e-38
-0.0186326368734 -0.0698723882754 0.839 1.65937868536e-38
-0.0170392021945 -0.0697058271592 0.837 1.65015912237e-38
-0.0154901838131 -0.0697058271592 0.837 1.73309805484e-38
-0.0139411654318 -0.0697058271592 0.837 1.76068625848e-38
-0.0123921470505 -0.0697058271592 0.837 1.77916237874e-38
-0.0108431286692 -0.0697058271592 0.837 1.76072157121e-38
-0.00929411028789 -0.0697058271592 0.837 1.81596650199e-38
-0.00774509190657 -0.0697058271592 0.837 1.78816361942e-38
-0.00619607352526 -0.0697058271592 0.837 1.82540186494e-38
-0.00464705514394 -0.0697058271592 0.837 1.73335014843e-38
-0.00309063404635 -0.0695392660429 0.835 1.82533095924e-38
-0.00154531702318 -0.0695392660429 0.835 1.84369651704e-38
0.0 -0.0695392660429 0.835 1.54874561108e-38
0.00154531702318 -0.0695392660429 0.835 1.69643490221e-38
0.00309063404635 -0.0695392660429 0.835 1.7611182788e-38
0.00463595106953 -0.0695392660429 0.835 1.7979221218e-38
0.0061812680927 -0.0695392660429 0.835 1.59509355779e-38
0.00772658511588 -0.0695392660429 0.835 1.53069730725e-38
0.00927190213905 -0.0695392660429 0.835 1.78848759963e-38
0.0108172191622 -0.0695392660429 0.835 1.70561943273e-38
0.0123625361854 -0.0695392660429 0.835 1.7243454045e-38
0.0139078532086 -0.0695392660429 0.835 1.82547347129e-38
0.0154531702318 -0.0695392660429 0.835 1.79774093391e-38
0.0169984872549 -0.0695392660429 0.835 1.65022764586e-38
0.0185438042781 -0.0695392660429 0.835 1.73320553443e-38
0.0200891213013 -0.0695392660429 0.835 1.74235447197e-38
0.0216344383245 -0.0695392660429 0.835 1.76079163613e-38
0.0231797553476 -0.0695392660429 0.835 1.75168165468e-38
0.0247250723708 -0.0695392660429 0.835 1.82533095924e-38
0.026270389394 -0.0695392660429 0.835 1.85295237366e-38
0.0278157064172 -0.0695392660429 0.835 1.77005043547e-38
0.0293610234403 -0.0695392660429 0.835 1.80685638042e-38
0.0309063404635 -0.0695392660429 0.835 1.86213872587e-38
0.0324516574867 -0.0695392660429 0.835 1.6136422653e-38
0.0339969745099 -0.0695392660429 0.835 2.08355060947e-38
-0.0296423266589 -0.0686453880522 0.843 1.92642203175e-38
-0.0280822042032 -0.0686453880522 0.843 1.88039652382e-38
-0.0265220817475 -0.0686453880522 0.843 2.00954103108e-38
-0.0249619592917 -0.0686453880522 0.843 1.5945893706e-38
-0.023401836836 -0.0686453880522 0.843 1.63154245188e-38
-0.0218417143803 -0.0686453880522 0.843 1.75142984135e-38
-0.0202334742687 -0.0684825282941 0.841 1.67767333746e-38
-0.0186326368734 -0.068319668536 0.839 1.65930805991e-38
-0.017079917134 -0.068319668536 0.839 1.6685985286e-38
-0.0155271973945 -0.068319668536 0.839 1.63175572951e-38
-0.0139744776551 -0.068319668536 0.839 1.71469606327e-38
-0.0124217579156 -0.068319668536 0.839 1.63164712888e-38
-0.0108690381762 -0.068319668536 0.839 1.74231817834e-38
-0.00931631843672 -0.068319668536 0.839 1.80674665875e-38
-0.00776359869727 -0.068319668536 0.839 1.24442996761e-38
-0.00621087895782 -0.068319668536 0.839 1.07851062424e-38
-0.00465815921836 -0.068319668536 0.839 9.03452292542e-39
-0.00309803676263 -0.0681568087778 0.837 1.17060185736e-38
-0.00154901838131 -0.0681568087778 0.837 1.06861185188e-38
0.0 -0.0681568087778 0.837 1.09673969557e-38
0.00154531702318 -0.0679939490197 0.835 1.29967573917e-38
0.00309063404635 -0.0679939490197 0.835 1.10614044645e-38
0.00463595106953 -0.0679939490197 0.835 1.2722357929e-38
0.00619607352526 -0.0681568087778 0.837 1.22624545756e-38
0.00774509190657 -0.0681568087778 0.837 1.38276068694e-38
0.00929411028789 -0.0681568087778 0.837 9.77033073605e-39
0.0108431286692 -0.0681568087778 0.837 1.35507046877e-38
0.0123625361854 -0.0679939490197 0.835 1.33662335539e-38
0.0139078532086 -0.0679939490197 0.835 1.35517038135e-38
0.0154901838131 -0.0681568087778 0.837 1.10635302342e-38
0.0170392021945 -0.0681568087778 0.837 1.7698749929e-38
0.0185882205758 -0.0681568087778 0.837 1.77005071573e-38
0.0201372389571 -0.0681568087778 0.837 1.7607942986e-38
0.0216862573384 -0.0681568087778 0.837 1.7884175347e-38
0.0232352757197 -0.0681568087778 0.837 1.78856018689e-38
0.024784294101 -0.0681568087778 0.837 1.71476837027e-38
0.0263333124823 -0.0681568087778 0.837 1.71462515757e-38
0.0278823308637 -0.0681568087778 0.837 1.75153970315e-38
0.029431349245 -0.0681568087778 0.837 1.79760178497e-38
0.0309063404635 -0.0679939490197 0.835 1.94522241247e-38
0.0324516574867 -0.0679939490197 0.835 1.57669142609e-38
0.0339969745099 -0.0679939490197 0.835 2.00993759854e-38
-0.0295720008543 -0.0669261071965 0.841 1.9910309994e-38
-0.0280155797567 -0.0669261071965 0.841 1.90801975993e-38
-0.0265220817475 -0.0670852655965 0.843 2.04634795693e-38
-0.0249619592917 -0.0670852655965 0.843 1.68678598137e-38
-0.023401836836 -0.0670852655965 0.843 1.54863729071e-38
-0.0218935333942 -0.0672444239965 0.845 1.63157692382e-38
-0.0202815919245 -0.0670852655965 0.843 1.67774620498e-38
-0.0187214694688 -0.0670852655965 0.843 1.65934309238e-38
-0.0171613470131 -0.0670852655965 0.843 1.67771089226e-38
-0.0155642109759 -0.0669261071965 0.841 1.65008723576e-38
-0.0140077898783 -0.0669261071965 0.841 1.62246526082e-38
-0.0124513687807 -0.0669261071965 0.841 1.68692765265e-38
-0.0108949476832 -0.0669261071965 0.841 1.39208394601e-38
-0.00933852658556 -0.0669261071965 0.841 1.558321244e-38
-0.00778210548797 -0.0669261071965 0.841 1.40169755413e-38
-0.00622568439037 -0.0669261071965 0.841 1.5950579648e-38
-0.00466926329278 -0.0669261071965 0.841 1.53059164934e-38
-0.00310543947891 -0.0667669487965 0.839 1.84366092406e-38
-0.00155271973945 -0.0667669487965 0.839 1.8157853141e-38
0.0 -0.0667669487965 0.839 1.71483647338e-38
0.00154901838131 -0.0666077903965 0.837 1.82539920248e-38
0.00309803676263 -0.0666077903965 0.837 1.81596524082e-38
0.00464705514394 -0.0666077903965 0.837 1.67795990299e-38
0.00621087895782 -0.0667669487965 0.839 1.68725443545e-38
