# .PCD v0.7 - Point Cloud Data file format
VERSION 0.7
FIELDS x y z rgb
SIZE 4 4 4 4
TYPE F F F F
COUNT 1 1 1 1
WIDTH 845
HEIGHT 1
VIEWPOINT 0 0 0 1 0 0 0
POINTS 845
DATA ascii
0.0393972560352 -0.111625558766 0.887 1.8510379197e-38
0.04103880837 -0.111625558766 0.887 1.84181695541e-38
0.0426803607048 -0.111625558766 0.887 1.85121644512e-38
0.0444218497093 -0.11187725112 0.889 1.89716936579e-38
0.0460671034023 -0.11187725112 0.889 1.88784386464e-38
0.0478196964812 -0.112128943473 0.891 1.86856886414e-38
-0.0424619805745 -0.118539695771 0.956 1.91444723573e-38
-0.0406927313839 -0.118539695771 0.956 1.87753367106e-38
-0.0388420523143 -0.118291704775 0.954 2.06213890906e-38
-0.0370765044818 -0.118291704775 0.954 1.23271244998e-38
-0.0351999159051 -0.117919718282 0.951 1.24294192877e-38
-0.0333344314029 -0.117547731789 0.948 1.27063579032e-38
-0.0312468654123 -0.116307776813 0.938 1.19673859606e-38
-0.0292592360915 -0.115315812831 0.93 1.36218808406e-38
-0.0273900502311 -0.114695835343 0.925 1.36250758011e-38
-0.0256781720917 -0.114695835343 0.925 1.19677124632e-38
-0.0238367464174 -0.114075857855 0.92 7.63709905135e-39
-0.0220860040175 -0.113827866859 0.918 1.16043067259e-38
-0.020320456185 -0.113455880366 0.915 1.30747676772e-38
-0.0186270848362 -0.113455880366 0.915 1.23372600916e-38
-0.0164895505108 -0.110479988422 0.891 1.23375739824e-38
-0.0148405954597 -0.110479988422 0.891 1.24294164851e-38
-0.0131620295435 -0.110231997427 0.889 1.2519814249e-38
-0.0114649568366 -0.109736015436 0.885 1.25212617903e-38
-0.0097937936367 -0.109364028943 0.882 1.22450252253e-38
-0.00814298790655 -0.109116037948 0.88 1.20595451567e-38
-0.00649958489268 -0.108868046952 0.878 1.44555567372e-38
-0.00485803255789 -0.108496060459 0.875 1.8145584773e-38
-0.00323128565565 -0.108248069464 0.873 1.78664447176e-38
-0.00161564282782 -0.108248069464 0.873 1.78667978448e-38
0.0 -0.108248069464 0.873 1.81423085371e-38
0.00161564282782 -0.108248069464 0.873 1.83252648672e-38
0.00323868837192 -0.108496060459 0.875 1.83256179945e-38
0.00485803255789 -0.108496060459 0.875 2.04468433539e-38
0.00647737674385 -0.108496060459 0.875 3.58158435016e-39
0.00809672092981 -0.108496060459 0.875 2.80259692865e-44
0.00971606511577 -0.108496060459 0.875 0.0
0.0113354093017 -0.108496060459 0.875 8.57460696034e-39
0.0129991697854 -0.108868046952 0.878 1.40042419421e-38
0.0146240660085 -0.108868046952 0.878 2.75511112759e-39
0.0162489622317 -0.108868046952 0.878 1.61919406968e-38
0.0178738584549 -0.108868046952 0.878 2.93873587706e-39
0.0194987546781 -0.108868046952 0.878 1.69497026505e-38
0.0211236509012 -0.108868046952 0.878 1.48301126064e-38
0.0228003661383 -0.109116037948 0.88 1.20628045769e-38
0.0244844840917 -0.109364028943 0.882 1.47357912067e-38
0.0261167830312 -0.109364028943 0.882 1.80508583981e-38
0.0277490819706 -0.109364028943 0.882 1.46421158057e-38
0.0293813809101 -0.109364028943 0.882 1.47390015815e-38
0.0311191685565 -0.109736015436 0.885 1.92544364517e-38
0.0327570195332 -0.109736015436 0.885 9.85227166375e-39
0.0344725990308 -0.109984006431 0.887 1.62098268704e-38
0.0361141513656 -0.109984006431 0.887 1.08610341984e-38
0.0377557037004 -0.109984006431 0.887 1.82374735185e-38
0.0393972560352 -0.109984006431 0.887 1.80475891687e-38
0.0411313423234 -0.110231997427 0.889 1.84178136243e-38
0.0427765960164 -0.110231997427 0.889 1.82352048162e-38
0.0444218497093 -0.110231997427 0.889 1.85107155086e-38
0.0461707414302 -0.110479988422 0.891 1.86936648322e-38
0.0478196964812 -0.110479988422 0.891 2.03466645267e-38
-0.0424619805745 -0.11677044658 0.956 1.91444723573e-38
-0.0406076001467 -0.116526156943 0.954 1.95146884051e-38
-0.0388420523143 -0.116526156943 0.954 2.07135693062e-38
-0.0370765044818 -0.116526156943 0.954 1.22335009468e-38
-0.0351999159051 -0.116159722487 0.951 1.29815210735e-38
-0.0333344314029 -0.115793288031 0.948 1.28903918318e-38
-0.0313134898588 -0.114816129482 0.94 1.24298116512e-38
-0.0293536207241 -0.113961115752 0.933 9.9372674221e-39
-0.0274788828265 -0.113350391659 0.928 1.39917269455e-38
-0.0257614526498 -0.113350391659 0.928 1.08635229044e-38
-0.0239144749383 -0.112739667566 0.923 9.20585128086e-39
-0.0221341216733 -0.11237323311 0.92 5.97722879049e-39
-0.0203870806315 -0.112128943473 0.918 9.57501915739e-39
-0.0186270848362 -0.111762509017 0.915 1.2890772985e-38
-0.0165450708829 -0.109197467827 0.894 1.23375683772e-38
-0.0148405954597 -0.108831033371 0.891 1.24294164851e-38
-0.0131620295435 -0.108586743734 0.889 1.25212617903e-38
-0.0114908663436 -0.108342454097 0.887 1.24283823268e-38
-0.00982710585995 -0.108098164459 0.885 1.22439686463e-38
-0.00816149469725 -0.107731730004 0.882 1.18758923813e-38
-0.00649958489268 -0.107243150729 0.878 1.45466691634e-38
-0.00487468866951 -0.107243150729 0.878 1.86054502913e-38
-0.00323868837192 -0.106876716274 0.875 1.78667950422e-38
-0.00161934418596 -0.106876716274 0.875 1.81426588618e-38
0.0 -0.106876716274 0.875 1.81426588618e-38
0.00161934418596 -0.106876716274 0.875 1.83241956765e-38
0.00324979244634 -0.107243150729 0.878 1.95227234505e-38
0.00487468866951 -0.107243150729 0.878 2.09092634394e-38
0.00649958489268 -0.107243150729 0.878 1.37753244237e-39
0.00812448111586 -0.107243150729 0.878 2.52233723578e-44
0.00974937733903 -0.107243150729 0.878 1.09593857324e-38
0.0113742735622 -0.107243150729 0.878 1.10203296039e-39
0.0129991697854 -0.107243150729 0.878 6.79587576114e-39
0.0146240660085 -0.107243150729 0.878 6.79582671569e-39
0.0162489622317 -0.107243150729 0.878 2.05376138632e-38
0.0179145733944 -0.107487440366 0.88 1.80537226521e-38
0.0195431709757 -0.107487440366 0.88 1.99915909101e-38
0.021171768557 -0.107487440366 0.88 1.56548131864e-38
0.0228521851523 -0.107731730004 0.882 1.46417991122e-38
0.0244844840917 -0.107731730004 0.882 1.90642816514e-38
0.0262056156265 -0.108098164459 0.885 1.57484465485e-38
0.0278434666032 -0.108098164459 0.885 1.04048274703e-38
0.0294813175799 -0.108098164459 0.885 9.02295941049e-39
0.0311894943612 -0.108342454097 0.887 1.74094854922e-38
0.032831046696 -0.108342454097 0.887 9.30483900438e-39
0.0344725990308 -0.108342454097 0.887 1.07796635991e-38
0.0361141513656 -0.108342454097 0.887 1.45499902407e-38
0.0378408349376 -0.108586743734 0.889 1.94370102273e-38
0.0394860886305 -0.108586743734 0.889 1.88816658368e-38
0.0411313423234 -0.108586743734 0.889 1.81430274033e-38
0.0427765960164 -0.108586743734 0.889 1.80497415632e-38
0.0445217863791 -0.108831033371 0.891 1.85103679866e-38
0.046326198472 -0.109197467827 0.894 1.89702447153e-38
0.0479807055603 -0.109197467827 0.894 2.07172140835e-38
-0.0424619805745 -0.115001197389 0.956 1.92359729431e-38
-0.0406076001467 -0.11476060911 0.954 1.90522781287e-38
-0.0388420523143 -0.11476060911 0.954 2.08983277061e-38
-0.0370765044818 -0.11476060911 0.954 1.23253490546e-38
-0.0351999159051 -0.114399726692 0.951 1.28889695139e-38
-0.0333344314029 -0.114038844273 0.948 1.33506497137e-38
-0.0314134265286 -0.113437373575 0.943 9.66430849424e-39
-0.0293536207241 -0.11223443218 0.933 1.32588436448e-38
-0.0274788828265 -0.111632961483 0.928 1.38120006084e-38
-0.0257614526498 -0.111632961483 0.928 9.84868433968e-39
-0.0239144749383 -0.111031490785 0.923 8.09844994605e-39
-0.022206298157 -0.111031490785 0.923 1.06809841613e-38
-0.0204314969292 -0.110670608366 0.92 5.98154759236e-39
-0.0186270848362 -0.110069137669 0.915 1.21522060177e-38
-0.0168041659526 -0.109227078692 0.908 1.224537555e-38
-0.0148405954597 -0.10718207832 0.891 1.24294164851e-38
-0.0131620295435 -0.106941490041 0.889 1.24290661605e-38
-0.0114908663436 -0.106700901762 0.887 1.24283627086e-38
-0.00982710585995 -0.106460313483 0.885 1.25223323823e-38
-0.00816149469725 -0.106099431064 0.882 1.14170596199e-38
-0.00651439032524 -0.105858842785 0.88 1.51916756361e-38
-0.00487468866951 -0.105618254506 0.878 1.84206876875e-38
-0.00324979244634 -0.105618254506 0.878 1.8419971624e-38
-0.00162489622317 -0.105618254506 0.878 1.80497569775e-38
0.0 -0.105618254506 0.878 1.83259739243e-38
0.00162489622317 -0.105618254506 0.878 1.89706216646e-38
0.00324979244634 -0.105618254506 0.878 1.85082113883e-38
0.00487468866951 -0.105618254506 0.878 2.07230827215e-38
0.00649958489268 -0.105618254506 0.878 6.90129404331e-39
0.00812448111586 -0.105618254506 0.878 2.24207754292e-44
0.00974937733903 -0.105618254506 0.878 2.19163486197e-38
0.0113742735622 -0.105618254506 0.878 1.45506390419e-38
0.0130287806505 -0.105858842785 0.88 1.92540258712e-38
0.0146573782318 -0.105858842785 0.88 1.92508197003e-38
0.0162859758131 -0.105858842785 0.88 1.86972745771e-38
0.0179145733944 -0.105858842785 0.88 1.81437308551e-38
0.0195875872734 -0.106099431064 0.882 1.80501073021e-38
0.0212198862128 -0.106099431064 0.882 1.91578869875e-38
0.0229299136732 -0.106460313483 0.885 1.54679318193e-38
0.0245677646499 -0.106460313483 0.885 2.01702368461e-38
0.0262648373568 -0.106700901762 0.887 3.86426548677e-39
0.0279063896916 -0.106700901762 0.887 1.09683904763e-38
0.0295479420264 -0.106700901762 0.887 1.05898843468e-38
0.0311894943612 -0.106700901762 0.887 1.17909260502e-38
0.0329050738588 -0.106941490041 0.889 1.20639186092e-38
0.0345503275517 -0.106941490041 0.889 1.47404056826e-38
0.0361955812446 -0.106941490041 0.889 1.86998137299e-38
0.0378408349376 -0.106941490041 0.889 1.92497070694e-38
0.0394860886305 -0.106941490041 0.889 1.78646454503e-38
0.0411313423234 -0.106941490041 0.889 1.82341538424e-38
0.042872831328 -0.10718207832 0.891 1.78657020294e-38
0.0445217863791 -0.10718207832 0.891 1.87869688892e-38
0.046326198472 -0.107542960739 0.894 1.92472043503e-38
0.0479807055603 -0.107542960739 0.894 1.97008663203e-38
0.0496352126486 -0.107542960739 0.894 1.88671736081e-38
-0.0424619805745 -0.113231948199 0.956 1.92352330575e-38
-0.0406927313839 -0.113231948199 0.956 1.90508431991e-38
-0.0388420523143 -0.112995061278 0.954 2.0343356061e-38
-0.0370765044818 -0.112995061278 0.954 1.2694121765e-38
-0.0351999159051 -0.112639730896 0.951 1.28886009724e-38
-0.0333344314029 -0.112284400515 0.948 1.37194336344e-38
-0.0314134265286 -0.111692183213 0.943 6.90023466167e-39
-0.0293536207241 -0.110507748608 0.933 1.24301647785e-38
-0.0275381045567 -0.110152418227 0.93 1.29825874617e-38
-0.0257614526498 -0.109915531306 0.928 1.27070823745e-38
-0.0239662939522 -0.109560200925 0.925 7.82399583273e-39
-0.0222544158128 -0.109560200925 0.925 9.85161165217e-39
-0.0204981213757 -0.109323314004 0.923 7.45843069455e-39
-0.0186881572455 -0.108731096701 0.918 1.33482128557e-38
-0.0166746184177 -0.106717557874 0.901 1.25219680447e-38
-0.0148405954597 -0.105533123269 0.891 1.22454203915e-38
-0.0131620295435 -0.105296236348 0.889 1.22457665122e-38
-0.0114908663436 -0.105059349427 0.887 1.21528646279e-38
-0.00982710585995 -0.104822462506 0.885 1.23375683772e-38
-0.00818925488329 -0.104822462506 0.885 1.15089077278e-38
-0.00651439032524 -0.104230245204 0.88 1.62069191761e-38
-0.00488579274393 -0.104230245204 0.88 1.83288451848e-38
-0.00324979244634 -0.103993358283 0.878 1.84178290386e-38
-0.00162489622317 -0.103993358283 0.878 1.84164095233e-38
0.0 -0.103993358283 0.878 1.86025650178e-38
0.00162489622317 -0.103993358283 0.878 1.82341510398e-38
0.00324979244634 -0.103993358283 0.878 1.82337726892e-38
0.00488579274393 -0.104230245204 0.88 2.0262432476e-38
0.00651439032524 -0.104230245204 0.88 1.1696170248e-38
0.00814298790655 -0.104230245204 0.88 2.94272677508e-44
0.00977158548786 -0.104230245204 0.88 1.91508692848e-38
0.0114001830692 -0.104230245204 0.88 1.88838532637e-38
0.0130287806505 -0.104230245204 0.88 1.84192779812e-38
0.0146573782318 -0.104230245204 0.88 1.84178136243e-38
0.0162859758131 -0.104230245204 0.88 1.8511088254e-38
0.0179552883339 -0.104467132125 0.882 1.82348671033e-38
0.0195875872734 -0.104467132125 0.882 1.86032838839e-38
0.0212198862128 -0.104467132125 0.882 1.77760623679e-38
0.0229299136732 -0.104822462506 0.885 1.41757860975e-38
0.024623285022 -0.105059349427 0.887 1.65761164799e-38
0.0262648373568 -0.105059349427 0.887 9.11408584962e-39
0.0279063896916 -0.105059349427 0.887 1.87019605191e-38
0.0295479420264 -0.105059349427 0.887 1.62069163735e-38
0.0311894943612 -0.105059349427 0.887 1.75019557766e-38
0.0329050738588 -0.105296236348 0.889 1.98036221354e-38
0.0345503275517 -0.105296236348 0.889 1.83270669371e-38
0.0361955812446 -0.105296236348 0.889 1.81430246007e-38
0.0378408349376 -0.105296236348 0.889 1.82348544916e-38
0.0394860886305 -0.105296236348 0.889 1.82341482372e-38
0.0412238762769 -0.105533123269 0.891 1.89706342763e-38
0.042872831328 -0.105533123269 0.891 1.86036342085e-38
0.0445217863791 -0.105533123269 0.891 1.83274200643e-38
0.046326198472 -0.10588845365 0.894 1.87862304049e-38
0.0479807055603 -0.10588845365 0.894 1.8500909222e-38
0.0496352126486 -0.10588845365 0.894 1.96973042196e-38
-0.0424619805745 -0.111462699008 0.956 1.95132492715e-38
-0.0406927313839 -0.111462699008 0.956 1.91452276572e-38
-0.0388420523143 -0.111229513445 0.954 2.21872700596e-38
-0.0370765044818 -0.111229513445 0.954 1.26012128742e-38
-0.0351999159051 -0.110879735101 0.951 1.30722817738e-38
-0.0333344314029 -0.110529956757 0.948 1.45495404239e-38
-0.0315133631984 -0.110296771194 0.946 6.9020353302e-39
-0.0295738515333 -0.109597214506 0.94 1.15136287023e-38
-0.0275381045567 -0.108431286692 0.93 9.66749784954e-39
-0.0257614526498 -0.108198101129 0.928 1.26145111966e-38
-0.0239662939522 -0.107848322785 0.925 1.30776417404e-38
-0.0222544158128 -0.107848322785 0.925 8.74663316241e-39
-0.0204981213757 -0.107615137222 0.923 9.48386329099e-39
-0.0186881572455 -0.107032173315 0.918 1.27056726682e-38
-0.0166746184177 -0.105050096032 0.901 1.24294136825e-38
-0.0148405954597 -0.103884168218 0.891 1.24297850266e-38
-0.0131916404086 -0.103884168218 0.891 1.24297850266e-38
-0.0114908663436 -0.103417797092 0.887 1.25212617903e-38
-0.00982710585995 -0.10318461153 0.885 1.26138091461e-38
-0.00816149469725 -0.102834833185 0.882 1.13227200034e-38
-0.00651439032524 -0.102601647623 0.88 1.62994679332e-38
-0.00488579274393 -0.102601647623 0.88 1.8512548407e-38
-0.00325719516262 -0.102601647623 0.88 1.87858744751e-38
-0.00162859758131 -0.102601647623 0.88 1.82330594283e-38
0.0 -0.102601647623 0.88 1.85103623814e-38
0.00162859758131 -0.102601647623 0.88 1.80508261682e-38
0.00325719516262 -0.102601647623 0.88 1.85107183112e-38
0.00488579274393 -0.102601647623 0.88 2.01706095915e-38
0.00651439032524 -0.102601647623 0.88 1.83670992316e-39
0.00814298790655 -0.102601647623 0.88 1.83670992316e-40
0.00977158548786 -0.102601647623 0.88 2.00792897732e-38
0.0114001830692 -0.102601647623 0.88 1.79615242197e-38
0.0130287806505 -0.102601647623 0.88 1.82352230331e-38
0.0146573782318 -0.102601647623 0.88 1.8510365184e-38
0.0163229893945 -0.102834833185 0.882 1.8510365184e-38
0.0179552883339 -0.102834833185 0.882 1.88784260347e-38
0.0196542117199 -0.10318461153 0.885 1.86936802465e-38
0.0212920626966 -0.10318461153 0.885 1.85121616486e-38
0.0229817326872 -0.103417797092 0.887 1.44531086688e-38
0.024623285022 -0.103417797092 0.887 1.82338175308e-38
0.0262648373568 -0.103417797092 0.887 1.83309933754e-38
0.0279063896916 -0.103417797092 0.887 1.82362936251e-38
0.0296145664729 -0.103650982655 0.889 1.88802210981e-38
0.0312598201658 -0.103650982655 0.889 1.87865765256e-38
0.0329050738588 -0.103650982655 0.889 1.88769798947e-38
0.0345503275517 -0.103650982655 0.889 1.86940333737e-38
0.0361955812446 -0.103650982655 0.889 1.84199660188e-38
0.0379259661748 -0.103884168218 0.891 1.86039873357e-38
0.0395749212258 -0.103884168218 0.891 1.81423057345e-38
0.0413626772071 -0.104233946562 0.894 1.84178136243e-38
0.0430171842954 -0.104233946562 0.894 1.86029111385e-38
0.0446716913837 -0.104233946562 0.894 1.86029335592e-38
0.046326198472 -0.104233946562 0.894 1.90617382946e-38
0.0479807055603 -0.104233946562 0.894 1.88682666209e-38
0.0497462533928 -0.104467132125 0.896 1.95125430171e-38
-0.0445088316256 -0.110381902431 0.962 1.87749779782e-38
-0.0425952294675 -0.110037676125 0.959 1.84998302221e-38
-0.0406927313839 -0.109693449818 0.956 1.88668134744e-38
-0.0388420523143 -0.109463965613 0.954 2.05284745947e-38
-0.0370765044818 -0.109463965613 0.954 1.28792206804e-38
-0.0353109566493 -0.109463965613 0.954 1.28886065775e-38
-0.0333344314029 -0.108775512999 0.948 1.4180041841e-38
-0.0315133631984 -0.108546028794 0.946 3.2178296896e-39
-0.0295738515333 -0.10785757618 0.94 1.06835597478e-38
-0.027626937152 -0.107054381464 0.933 1.00373691779e-38
-0.0257614526498 -0.106480670953 0.928 1.09507663455e-38
-0.0239662939522 -0.106136444646 0.925 1.14117094624e-38
-0.0222544158128 -0.106136444646 0.925 1.30780509195e-38
-0.0204981213757 -0.105906960441 0.923 9.48168006798e-39
-0.0186881572455 -0.105333249929 0.918 1.26123756178e-38
-0.0168966999061 -0.104759539418 0.913 1.25219680447e-38
-0.0148905637946 -0.102579439474 0.894 1.26145336174e-38
-0.0131916404086 -0.102235213167 0.891 1.23375739824e-38
-0.0114908663436 -0.101776244757 0.887 1.26138091461e-38
-0.00984931400879 -0.101776244757 0.887 1.25219652421e-38
-0.00816149469725 -0.101202534246 0.882 1.15993054917e-38
-0.0065291957578 -0.101202534246 0.882 1.64842109188e-38
-0.00488579274393 -0.100973050041 0.88 1.8237034912e-38
-0.00325719516262 -0.100973050041 0.88 1.79579116722e-38
-0.00162859758131 -0.100973050041 0.88 1.80493912386e-38
0.0 -0.100973050041 0.88 1.91564380449e-38
0.00162859758131 -0.100973050041 0.88 1.84178318412e-38
0.00325719516262 -0.100973050041 0.88 1.83238229311e-38
0.00488579274393 -0.100973050041 0.88 1.9246132357e-38
0.00651439032524 -0.100973050041 0.88 1.41789894658e-38
0.00814298790655 -0.100973050041 0.88 1.87923190467e-38
0.00977158548786 -0.100973050041 0.88 1.86065433041e-38
0.0114001830692 -0.100973050041 0.88 1.80512045188e-38
0.0130583915156 -0.101202534246 0.882 1.84199688214e-38
0.014690690455 -0.101202534246 0.882 1.86954823163e-38
0.0163229893945 -0.101202534246 0.882 1.84188856176e-38
0.0180163607432 -0.101546760553 0.885 1.88780701049e-38
0.0196542117199 -0.101546760553 0.885 1.8509308605e-38
0.0212920626966 -0.101546760553 0.885 1.84181695541e-38
0.0229817326872 -0.101776244757 0.887 1.89713433333e-38
0.024623285022 -0.101776244757 0.887 1.841779821e-38
0.0262648373568 -0.101776244757 0.887 1.85107155086e-38
0.0279063896916 -0.101776244757 0.887 1.84181821658e-38
0.0296145664729 -0.102005728962 0.889 1.8233419562e-38
0.0312598201658 -0.102005728962 0.889 1.95252401825e-38
0.0329791010215 -0.102235213167 0.891 1.90631732243e-38
0.0346280560726 -0.102235213167 0.891 1.84185324904e-38
0.0363991559423 -0.102579439474 0.894 1.84185380956e-38
0.0381387942678 -0.102808923678 0.896 1.93415649863e-38
0.0397970027142 -0.102808923678 0.896 1.83274172617e-38
0.0413626772071 -0.102579439474 0.894 1.85110854514e-38
0.0430171842954 -0.102579439474 0.894 1.85110714384e-38
0.0446716913837 -0.102579439474 0.894 1.86940333737e-38
0.0464298364999 -0.102808923678 0.896 1.87837122715e-38
0.0481953843324 -0.103038407883 0.898 1.8772108119e-38
0.0498572941369 -0.103038407883 0.898 1.96032911057e-38
-0.0445088316256 -0.108601549166 0.962 1.81281834486e-38
-0.0425952294675 -0.108262874897 0.959 1.62864512718e-38
-0.0406927313839 -0.107924200627 0.956 1.93281741782e-38
-0.0388420523143 -0.10769841778 0.954 1.99763728088e-38
-0.0370765044818 -0.10769841778 0.954 1.33412778296e-38
-0.0353109566493 -0.10769841778 0.954 1.27964039412e-38
-0.0334399201099 -0.107359743511 0.951 1.47335687474e-38
-0.0315133631984 -0.106795286394 0.946 2.47991712867e-39
-0.0296682361659 -0.106456612125 0.943 8.65558939989e-39
-0.027626937152 -0.105327697892 0.933 8.92998746128e-39
-0.0258169730219 -0.104989023622 0.93 6.34634201638e-39
-0.0239662939522 -0.104424566506 0.925 1.03100716681e-38
-0.0222544158128 -0.104424566506 0.925 9.48386329099e-39
-0.0204981213757 -0.10419878366 0.923 1.18841516344e-38
-0.0186881572455 -0.103634326543 0.918 1.2246122442e-38
-0.016841179534 -0.102731195157 0.91 1.22446692955e-38
-0.0150404687992 -0.101940955195 0.903 1.27063607058e-38
-0.0131916404086 -0.100586258116 0.891 1.24301199369e-38
-0.0114908663436 -0.100134692423 0.887 1.22464573524e-38
-0.00984931400879 -0.100134692423 0.887 1.23375557655e-38
-0.00816149469725 -0.0995702353064 0.882 1.18773441265e-38
-0.0065291957578 -0.0995702353064 0.882 1.67604404773e-38
-0.00488579274393 -0.0993444524599 0.88 1.93426664069e-38
-0.00325719516262 -0.0993444524599 0.88 1.80501073021e-38
-0.00162859758131 -0.0993444524599 0.88 1.86954795137e-38
0.0 -0.0993444524599 0.88 1.80497443658e-38
0.00162859758131 -0.0993444524599 0.88 1.86007629479e-38
0.00325719516262 -0.0993444524599 0.88 1.96141918064e-38
0.00489689681835 -0.0995702353064 0.882 1.86943808957e-38
0.0065291957578 -0.0995702353064 0.882 1.95262995641e-38
0.00816149469725 -0.0995702353064 0.882 1.85103623814e-38
0.0097937936367 -0.0995702353064 0.882 1.88784260347e-38
0.0114260925761 -0.0995702353064 0.882 1.8050473041e-38
0.0130583915156 -0.0995702353064 0.882 1.8787672341e-38
0.014690690455 -0.0995702353064 0.882 1.85114371773e-38
0.0163785097666 -0.0999089095762 0.885 1.8234504167e-38
0.0180163607432 -0.0999089095762 0.885 1.85110854514e-38
0.0196986280176 -0.100134692423 0.887 1.93390496555e-38
0.0213401803524 -0.100134692423 0.887 1.83252550582e-38
0.0229817326872 -0.100134692423 0.887 1.86025622152e-38
0.024623285022 -0.100134692423 0.887 1.9156457663e-38
0.0262648373568 -0.100134692423 0.887 1.87887471369e-38
0.0279693127799 -0.100360475269 0.889 1.9065341033e-38
0.0296145664729 -0.100360475269 0.889 1.90649612811e-38
0.0312598201658 -0.100360475269 0.889 1.84199688214e-38
0.0329791010215 -0.100586258116 0.891 1.86940333737e-38
0.034744648854 -0.100924932385 0.894 1.87858800803e-38
0.0363991559423 -0.100924932385 0.894 1.85096757451e-38
0.0381387942678 -0.101150715232 0.896 1.83274172617e-38
0.0397970027142 -0.101150715232 0.896 1.8418535293e-38
0.0414552111606 -0.101150715232 0.896 1.85100120568e-38
0.0431134196071 -0.101150715232 0.896 1.8418535293e-38
0.0447716280535 -0.101150715232 0.896 1.82327034985e-38
0.0464298364999 -0.101150715232 0.896 1.97052958248e-38
0.0481953843324 -0.101376498078 0.898 1.95157603984e-38
-0.0425952294675 -0.106488073669 0.959 1.6560881563e-38
-0.0406927313839 -0.106154951436 0.956 1.85906091393e-38
-0.0389234821933 -0.106154951436 0.956 1.97923542945e-38
-0.0370765044818 -0.105932869948 0.954 1.26962797646e-38
-0.0353109566493 -0.105932869948 0.954 1.2981180558e-38
-0.0334399201099 -0.105599747715 0.951 1.40871455619e-38
-0.0315799876449 -0.105266625483 0.948 6.16589260923e-39
-0.0296682361659 -0.104711421762 0.943 8.47514559794e-39
-0.027626937152 -0.10360101432 0.933 1.07760636634e-38
-0.0258169730219 -0.103267892088 0.93 1.1020259539e-39
-0.0240440224732 -0.103045810599 0.928 9.85378226349e-39
-0.0222544158128 -0.102712688367 0.925 9.94340370808e-39
-0.0204981213757 -0.102490606878 0.923 4.785501518e-39
-0.0186881572455 -0.101935403157 0.918 1.2798985133e-38
-0.016841179534 -0.101047077204 0.91 1.25230372355e-38
-0.0150404687992 -0.100269791995 0.903 1.22457482954e-38
-0.0131916404086 -0.0989373030646 0.891 1.26127315476e-38
-0.0115167758506 -0.0987152215763 0.889 1.25212617903e-38
-0.00984931400879 -0.0984931400879 0.887 1.22450252253e-38
-0.00818925488329 -0.0982710585995 0.885 1.20603032592e-38
-0.0065291957578 -0.097937936367 0.882 1.69459037304e-38
-0.00489689681835 -0.097937936367 0.882 1.83277886058e-38
-0.0032645978789 -0.097937936367 0.882 1.84185324904e-38
-0.00163229893945 -0.097937936367 0.882 1.85107351268e-38
0.0 -0.097937936367 0.882 1.82330692374e-38
0.00163229893945 -0.097937936367 0.882 1.86007657505e-38
0.0032645978789 -0.097937936367 0.882 1.87837220806e-38
0.00489689681835 -0.097937936367 0.882 1.85110854514e-38
0.00655140390664 -0.0982710585995 0.885 1.80501101047e-38
0.00818925488329 -0.0982710585995 0.885 1.80501101047e-38
0.00982710585995 -0.0982710585995 0.885 1.92486532929e-38
0.0114649568366 -0.0982710585995 0.885 1.84192653695e-38
0.0131028078133 -0.0982710585995 0.885 1.84181695541e-38
0.0147406587899 -0.0982710585995 0.885 1.94319459346e-38
0.0163785097666 -0.0982710585995 0.885 1.84188884202e-38
0.0180570756828 -0.0984931400879 0.887 1.93411964448e-38
0.0196986280176 -0.0984931400879 0.887 1.87883940097e-38
0.0213401803524 -0.0984931400879 0.887 2.01691648528e-38
0.0229817326872 -0.0984931400879 0.887 1.83299241846e-38
0.024623285022 -0.0984931400879 0.887 1.67650941895e-38
0.026324059087 -0.0987152215763 0.889 1.3902410984e-38
0.0279693127799 -0.0987152215763 0.889 1.2982279176e-38
0.0296145664729 -0.0987152215763 0.889 1.24273257478e-38
0.0313301459705 -0.0989373030646 0.891 1.77721359296e-38
0.0330901417657 -0.0992704252972 0.894 1.89738586641e-38
0.034744648854 -0.0992704252972 0.894 1.88784232321e-38
0.0364805858214 -0.0994925067855 0.896 1.8419981433e-38
0.0381387942678 -0.0994925067855 0.896 1.86047314252e-38
0.0398858353096 -0.0997145882739 0.898 1.85111078722e-38
0.0415477451141 -0.0997145882739 0.898 1.8785526953e-38
0.0431134196071 -0.0994925067855 0.896 1.88795176462e-38
0.0447716280535 -0.0994925067855 0.896 1.80497597801e-38
0.0464298364999 -0.0994925067855 0.896 2.16399971482e-38
-0.0427284783606 -0.105040842636 0.962 1.87746192458e-38
-0.0408204282397 -0.104713272441 0.959 1.88671722068e-38
-0.0389234821933 -0.104385702246 0.956 2.03437260038e-38
-0.0370765044818 -0.104167322116 0.954 1.26959266374e-38
-0.0353109566493 -0.104167322116 0.954 1.32577450268e-38
-0.0334399201099 -0.10383975192 0.951 1.3719436437e-38
-0.0315799876449 -0.103512181725 0.948 8.74338495257e-39
-0.0296682361659 -0.102966231399 0.943 7.82834406186e-39
-0.0276861588823 -0.102092710878 0.935 1.14249937718e-38
-0.02590025358 -0.101874330748 0.933 1.19717075651e-38
-0.0240958414871 -0.101546760553 0.93 9.75904467822e-39
-0.0223265922965 -0.101328380423 0.928 9.66755250018e-39
-0.0205425376733 -0.101000810227 0.925 7.45842789195e-39
-0.0187288721851 -0.100454859902 0.92 9.2051730524e-39
-0.016841179534 -0.0993629592506 0.91 1.17890693297e-38
-0.0150404687992 -0.0985986287949 0.903 1.34467984065e-38
-0.0132360567063 -0.0976159182089 0.894 1.27049271774e-38
-0.0115167758506 -0.0970699678833 0.889 1.27045740502e-38
-0.00984931400879 -0.0968515877531 0.887 1.26134616241e-38
-0.00818925488329 -0.0966332076229 0.885 1.05858962514e-38
-0.0065291957578 -0.0963056374275 0.882 1.72210514864e-38
-0.00489689681835 -0.0963056374275 0.882 1.85128861199e-38
-0.0032645978789 -0.0963056374275 0.882 1.83259683191e-38
-0.00163229893945 -0.0963056374275 0.882 1.85110854514e-38
0.0 -0.0963056374275 0.882 1.81433777279e-38
0.00163229893945 -0.0963056374275 0.882 1.86025622152e-38
0.00327570195332 -0.0966332076229 0.885 1.8510379197e-38
0.00491355292998 -0.0966332076229 0.885 1.84178136243e-38
0.00655140390664 -0.0966332076229 0.885 1.82341636515e-38
0.00818925488329 -0.0966332076229 0.885 1.83274172617e-38
0.00982710585995 -0.0966332076229 0.885 1.91575338603e-38
0.0114908663436 -0.0968515877531 0.887 1.68551598457e-38
0.0131324186784 -0.0968515877531 0.887 1.77800000166e-38
0.0147739710132 -0.0968515877531 0.887 1.6304138461e-38
0.016415523348 -0.0968515877531 0.887 1.63055958114e-38
0.0180570756828 -0.0968515877531 0.887 1.30794998621e-38
0.0196986280176 -0.0968515877531 0.887 1.26152889173e-38
0.0213401803524 -0.0968515877531 0.887 1.89695706908e-38
0.0229817326872 -0.0968515877531 0.887 8.64293987865e-39
0.0246788053941 -0.0970699678833 0.889 1.40893554096e-38
0.026324059087 -0.0970699678833 0.889 1.30686972523e-38
0.0279693127799 -0.0970699678833 0.889 1.65750374801e-38
0.0296811909194 -0.0972883480135 0.891 1.68576751765e-38
0.0314356346774 -0.0976159182089 0.894 1.69531386343e-38
0.0330901417657 -0.0976159182089 0.894 1.69516742775e-38
0.0348223773749 -0.0978342983391 0.896 1.62133847672e-38
0.0364805858214 -0.0978342983391 0.896 1.33585628461e-38
0.038223925505 -0.0980526784693 0.898 9.93914095815e-39
0.0398858353096 -0.0980526784693 0.898 1.90574475187e-38
0.0415477451141 -0.0980526784693 0.898 1.87851598128e-38
0.0432096549187 -0.0980526784693 0.898 1.90613907726e-38
0.0448715647232 -0.0980526784693 0.898 1.7404390371e-38
0.0465334745278 -0.0980526784693 0.898 2.26555755986e-38
0.0481953843324 -0.0980526784693 0.898 2.30250419517e-38
-0.0428173109559 -0.103475168143 0.964 1.85902532094e-38
-0.0410332563327 -0.103475168143 0.964 1.92352330575e-38
-0.0389234821933 -0.102616453055 0.956 2.06210205491e-38
-0.0371542330027 -0.102616453055 0.956 1.35253369816e-38
-0.0353109566493 -0.102401774283 0.954 1.29818868124e-38
-0.0334399201099 -0.102079756125 0.951 1.33495749178e-38
-0.0315799876449 -0.101757737967 0.948 1.39049024927e-38
-0.0297626207984 -0.101543059195 0.946 1.14181358171e-38
-0.0276861588823 -0.100362325948 0.935 1.12337599717e-38
-0.02590025358 -0.100147647176 0.933 1.47249885969e-38
-0.0240958414871 -0.0998256290181 0.93 1.02149459232e-38
-0.0223747099523 -0.0998256290181 0.93 9.6679028248e-39
-0.0205425376733 -0.0992889320879 0.925 8.28854168793e-39
-0.0187288721851 -0.0987522351576 0.92 1.0223245814e-38
-0.0168041659526 -0.0974641625252 0.908 7.18149768424e-39
-0.015007156576 -0.0967127868229 0.901 1.25244861781e-38
-0.0132360567063 -0.0959614111206 0.894 1.27049271774e-38
-0.0115167758506 -0.0954247141904 0.889 1.23361642762e-38
-0.00984931400879 -0.0952100354183 0.887 1.29815364878e-38
-0.00818925488329 -0.0949953566462 0.885 1.12301894632e-38
-0.0065291957578 -0.0946733384881 0.882 1.7312189136e-38
-0.00489689681835 -0.0946733384881 0.882 1.86043811006e-38
-0.0032645978789 -0.0946733384881 0.882 1.82345013644e-38
-0.00163229893945 -0.0946733384881 0.882 1.81426714734e-38
0.0 -0.0946733384881 0.882 1.8328489255e-38
0.00163229893945 -0.0946733384881 0.882 1.832595851e-38
0.00327570195332 -0.0949953566462 0.885 1.83256179945e-38
0.00492465700439 -0.0952100354183 0.887 1.84178136243e-38
0.00656620933919 -0.0952100354183 0.887 1.85100120568e-38
0.00820776167399 -0.0952100354183 0.887 1.86036342085e-38
0.00984931400879 -0.0952100354183 0.887 1.860472582e-38
0.0114908663436 -0.0952100354183 0.887 1.10429045221e-38
0.0131324186784 -0.0952100354183 0.887 1.2795675266e-38
0.0147739710132 -0.0952100354183 0.887 1.25188151232e-38
0.016415523348 -0.0952100354183 0.887 1.34428999942e-38
0.0180977906223 -0.0954247141904 0.889 1.43691792986e-38
0.0197430443153 -0.0954247141904 0.889 1.58474665018e-38
0.0213882980082 -0.0954247141904 0.889 2.03557267239e-38
0.0230335517011 -0.0954247141904 0.889 1.60283082726e-38
0.0246788053941 -0.0954247141904 0.889 1.60354927298e-38
0.026324059087 -0.0954247141904 0.889 1.5107408553e-38
0.0280322358683 -0.0956393929625 0.891 1.46410928578e-38
0.0297811275891 -0.0959614111206 0.894 8.46620110984e-39
0.0314356346774 -0.0959614111206 0.894 9.57359964205e-39
0.0331641689285 -0.0961760898927 0.896 1.4179023097e-38
0.0348223773749 -0.0961760898927 0.896 1.04912175206e-38
0.0365620157004 -0.0963907686647 0.898 1.46440033547e-38
0.038223925505 -0.0963907686647 0.898 1.78729019009e-38
0.0398858353096 -0.0963907686647 0.898 1.88806064551e-38
0.0415477451141 -0.0963907686647 0.898 1.95238080555e-38
0.0432096549187 -0.0963907686647 0.898 1.87858772777e-38
0.0448715647232 -0.0963907686647 0.898 1.69437779606e-38
0.0465334745278 -0.0963907686647 0.898 2.30257818373e-38
0.0481953843324 -0.0963907686647 0.898 2.32090800842e-38
-0.0390456270119 -0.101163669985 0.959 1.99753008155e-38
-0.0371542330027 -0.100847203865 0.956 1.33391408494e-38
-0.0353849838121 -0.100847203865 0.956 1.34424796047e-38
-0.0335454088169 -0.100636226451 0.954 1.33499462619e-38
-0.0316799243146 -0.10031976033 0.951 1.32581009566e-38
-0.0297626207984 -0.0997923167948 0.946 1.36257918646e-38
-0.0276861588823 -0.0986319410181 0.935 1.26131112995e-38
-0.0259557739521 -0.0986319410181 0.935 1.42704396049e-38
-0.024173570008 -0.0984209636042 0.933 9.84866051761e-39
-0.022446886436 -0.0984209636042 0.933 8.83673525237e-39
-0.0206091621199 -0.0978935200693 0.928 8.47328887747e-39
-0.0187288721851 -0.0970496104135 0.92 1.09625862981e-38
-0.0168041659526 -0.0957837459299 0.908 8.65482569222e-39
-0.015007156576 -0.0950453249811 0.901 1.31695024599e-38
-0.0132360567063 -0.0943069040323 0.894 1.27971270112e-38
-0.0115426853575 -0.0939904379114 0.891 1.24294164851e-38
-0.00987152215763 -0.0937794604974 0.889 1.25219624396e-38
-0.00820776167399 -0.0935684830835 0.887 1.13220221568e-38
-0.00655140390664 -0.0933575056696 0.885 1.77738665332e-38
-0.00491355292998 -0.0933575056696 0.885 1.84196311084e-38
-0.00327570195332 -0.0933575056696 0.885 1.84185226813e-38
-0.00163785097666 -0.0933575056696 0.885 1.82355761603e-38
0.0 -0.0933575056696 0.885 1.869584245e-38
0.00163785097666 -0.0933575056696 0.885 1.83281221148e-38
0.0032831046696 -0.0935684830835 0.887 1.86040251708e-38
0.00492465700439 -0.0935684830835 0.887 1.91578995992e-38
0.00656620933919 -0.0935684830835 0.887 1.94352123614e-38
0.00820776167399 -0.0935684830835 0.887 1.82377439691e-38
0.00984931400879 -0.0935684830835 0.887 1.81495112113e-38
0.0114908663436 -0.0935684830835 0.887 1.75044921268e-38
0.0131324186784 -0.0935684830835 0.887 1.75023439363e-38
0.0148072832364 -0.0937794604974 0.889 1.73211798669e-38
0.0164525369294 -0.0937794604974 0.889 1.22504342374e-38
0.0180977906223 -0.0937794604974 0.889 1.33514372434e-38
0.0197430443153 -0.0937794604974 0.889 1.11372875789e-38
0.0213882980082 -0.0937794604974 0.889 1.94345537511e-38
0.0230335517011 -0.0937794604974 0.889 9.30126849589e-39
0.0246788053941 -0.0937794604974 0.889 1.16944522561e-38
0.0263832808172 -0.0939904379114 0.891 1.55634247044e-38
0.0280322358683 -0.0939904379114 0.891 1.68598261696e-38
0.0297811275891 -0.0943069040323 0.894 1.22500839128e-38
0.0314356346774 -0.0943069040323 0.894 1.83328528984e-38
0.0331641689285 -0.0945178814462 0.896 1.90660542939e-38
0.0348223773749 -0.0945178814462 0.896 1.95259590486e-38
0.0365620157004 -0.0947288588602 0.898 1.85132364445e-38
0.0383516223608 -0.0950453249811 0.901 1.84192625669e-38
0.0400190842026 -0.0950453249811 0.901 1.86929585778e-38
0.0416865460443 -0.0950453249811 0.901 1.84185226813e-38
0.0432096549187 -0.0947288588602 0.898 1.84185324904e-38
0.0448715647232 -0.0947288588602 0.898 1.70366784436e-38
0.0465334745278 -0.0947288588602 0.898 2.34910857949e-38
0.0481953843324 -0.0947288588602 0.898 2.31168998686e-38
-0.0390456270119 -0.0993888687576 0.959 2.03430211507e-38
-0.0371542330027 -0.0990779546739 0.956 1.35235391156e-38
-0.0353849838121 -0.0990779546739 0.956 1.47328652955e-38
-0.0335454088169 -0.0988706786181 0.954 1.35346920501e-38
-0.0316799243146 -0.0985597645344 0.951 1.13237891941e-38
-0.0298255438868 -0.0982488504507 0.948 1.08628348669e-38
-0.0277749914776 -0.0972124701717 0.938 1.33528399432e-38
-0.0259557739521 -0.096901556088 0.935 1.39027514996e-38
-0.024173570008 -0.0966942800322 0.933 1.00334469435e-38
-0.022446886436 -0.0966942800322 0.933 8.37607379651e-39
-0.0206091621199 -0.0961760898927 0.928 8.56836837957e-39
-0.0187288721851 -0.0953469856695 0.92 8.56549852032e-39
-0.017026247441 -0.0953469856695 0.92 8.65234259135e-39
-0.0149571882411 -0.0930669490556 0.898 1.3170221326e-38
-0.0132360567063 -0.092652396944 0.894 1.26134588215e-38
-0.0115426853575 -0.0923414828603 0.891 1.32591813577e-38
-0.00987152215763 -0.0921342068045 0.889 1.3074067028e-38
-0.00820776167399 -0.0919269307487 0.887 1.12291202725e-38
-0.00655140390664 -0.0917196546929 0.885 1.7405812689e-38
-0.00491355292998 -0.0917196546929 0.885 1.85125301901e-38
-0.00327570195332 -0.0917196546929 0.885 1.83259739243e-38
-0.00163785097666 -0.0917196546929 0.885 1.8602918145e-38
0.0 -0.0917196546929 0.885 1.86951291891e-38
0.0016415523348 -0.0919269307487 0.887 1.90646081539e-38
0.0032831046696 -0.0919269307487 0.887 1.51038352419e-38
0.00493576107881 -0.0921342068045 0.889 1.27989949421e-38
0.00658101477175 -0.0921342068045 0.889 1.17841073319e-38
0.00822626846469 -0.0921342068045 0.889 8.64765805058e-39
0.00987152215763 -0.0921342068045 0.889 1.00367231793e-38
0.0115167758506 -0.0921342068045 0.889 1.36329763218e-38
0.0131620295435 -0.0921342068045 0.889 1.19645497325e-38
0.0148072832364 -0.0921342068045 0.889 1.47300528895e-38
0.0164525369294 -0.0921342068045 0.889 1.48294147597e-38
0.0180977906223 -0.0921342068045 0.889 1.52954095575e-38
0.0197430443153 -0.0921342068045 0.889 1.44710438879e-38
0.0213882980082 -0.0921342068045 0.889 1.88892286446e-38
0.0230335517011 -0.0921342068045 0.889 1.28014612273e-38
0.0247343257662 -0.0923414828603 0.891 1.50163269554e-38
0.0263832808172 -0.0923414828603 0.891 1.29826351058e-38
0.0281266205009 -0.092652396944 0.894 1.96199595509e-38
0.0298477520357 -0.0928596729998 0.896 1.88809567798e-38
0.0315059604821 -0.0928596729998 0.896 1.85121798655e-38
0.0332381960913 -0.0930669490556 0.898 1.89706244672e-38
0.0349001058959 -0.0930669490556 0.898 1.87876751436e-38
0.0365620157004 -0.0930669490556 0.898 1.88809301551e-38
0.0383516223608 -0.0933778631393 0.901 1.87887317226e-38
0.0400190842026 -0.0933778631393 0.901 1.8786226201e-38
0.0416865460443 -0.0933778631393 0.901 1.88802239007e-38
0.0432096549187 -0.0930669490556 0.898 1.80519079706e-38
0.0448715647232 -0.0930669490556 0.898 1.70370343734e-38
0.0465334745278 -0.0930669490556 0.898 2.34900222094e-38
0.0481953843324 -0.0930669490556 0.898 2.34864068594e-38
-0.0410332563327 -0.098123004274 0.964 1.9421055043e-38
-0.0391677718305 -0.0979194295763 0.962 2.02526514127e-38
-0.0373874185655 -0.0979194295763 0.962 1.31558313921e-38
-0.0353849838121 -0.0973087054833 0.956 1.34421460956e-38
-0.0336157346215 -0.0973087054833 0.956 1.35343417255e-38
-0.0317798609844 -0.0971051307856 0.954 1.2151737984e-38
-0.0298255438868 -0.0964944066926 0.948 9.56961434921e-39
-0.0277749914776 -0.0954765332043 0.938 1.06813218742e-38
-0.0259557739521 -0.0951711711578 0.935 1.30747858941e-38
-0.024173570008 -0.0949675964602 0.933 1.4273679407e-38
-0.022446886436 -0.0949675964602 0.933 9.20327989818e-39
-0.0206091621199 -0.094458659716 0.928 7.64034866248e-39
-0.0188917319432 -0.094458659716 0.928 8.10309104657e-39
-0.0171743017665 -0.094458659716 0.928 7.36586652319e-39
-0.0149238760178 -0.0912014645534 0.896 1.27095991065e-38
-0.0132360567063 -0.0909978898557 0.894 1.26127315476e-38
-0.0115426853575 -0.0906925278092 0.891 1.30729880282e-38
-0.00989373030646 -0.0906925278092 0.891 1.29818742007e-38
-0.00822626846469 -0.0904889531116 0.889 1.1597898588e-38
-0.00658101477175 -0.0904889531116 0.889 1.8051557646e-38
-0.00492465700439 -0.0902853784139 0.887 1.81441204161e-38
-0.0032831046696 -0.0902853784139 0.887 1.82348544916e-38
-0.0016415523348 -0.0902853784139 0.887 1.9063185836e-38
0.0 -0.0902853784139 0.887 1.78642923231e-38
0.0016415523348 -0.0902853784139 0.887 1.86951263865e-38
0.00329050738588 -0.0904889531116 0.889 1.40828659964e-38
0.00493576107881 -0.0904889531116 0.889 1.50120333769e-38
0.00658101477175 -0.0904889531116 0.889 1.64899968802e-38
0.00822626846469 -0.0904889531116 0.889 1.7871850927e-38
0.00987152215763 -0.0904889531116 0.889 1.75959716932e-38
0.0115167758506 -0.0904889531116 0.889 1.87923442701e-38
0.0131620295435 -0.0904889531116 0.889 2.03557421382e-38
0.0148072832364 -0.0904889531116 0.889 1.86032838839e-38
0.0164525369294 -0.0904889531116 0.889 1.85114343747e-38
0.0180977906223 -0.0904889531116 0.889 8.28281598241e-39
0.0197430443153 -0.0904889531116 0.889 1.11502593988e-38
0.021436415664 -0.0906925278092 0.891 1.72193362971e-38
0.0230853707151 -0.0906925278092 0.891 1.61150962917e-38
0.0247343257662 -0.0906925278092 0.891 1.3818487219e-38
0.0264721134126 -0.0909978898557 0.894 1.65825610516e-38
0.0281266205009 -0.0909978898557 0.894 1.96203098755e-38
0.0298477520357 -0.0912014645534 0.896 1.98014711423e-38
0.0315762862867 -0.0914050392511 0.898 1.82359404979e-38
0.0332381960913 -0.0914050392511 0.898 1.8696927055e-38
0.0349001058959 -0.0914050392511 0.898 1.74087035677e-38
0.0365620157004 -0.0914050392511 0.898 1.37251929711e-38
0.038436753598 -0.0919139759952 0.903 1.86043979161e-38
0.0400190842026 -0.0917104012975 0.901 1.88787763594e-38
0.0416865460443 -0.0917104012975 0.901 1.86029307567e-38
0.0432096549187 -0.0914050392511 0.898 1.86958298383e-38
0.0448715647232 -0.0914050392511 0.898 1.81426588618e-38
0.0465334745278 -0.0914050392511 0.898 2.34885536486e-38
0.0481953843324 -0.0914050392511 0.898 2.34885718655e-38
-0.0410332563327 -0.0963389496508 0.964 1.82236062689e-38
-0.0392492017096 -0.0963389496508 0.964 2.02522576479e-38
-0.0373874185655 -0.0961390763113 0.962 1.34334944789e-38
-0.0354960245563 -0.095839266302 0.959 1.344212928e-38
-0.0336157346215 -0.0955394562927 0.956 1.362544154e-38
-0.0317798609844 -0.0953395829532 0.954 1.32584540838e-38
-0.0299199285194 -0.0950397729439 0.951 1.31677003901e-38
-0.0277749914776 -0.093740596237 0.938 1.15114104468e-38
-0.0259557739521 -0.0934407862277 0.935 9.84366488858e-39
-0.024173570008 -0.0932409128882 0.933 1.37173036608e-38
-0.022446886436 -0.0932409128882 0.933 1.42740325342e-38
-0.0206091621199 -0.0927412295394 0.928 1.18776496095e-38
-0.0187288721851 -0.0919417361813 0.92 9.84981098365e-39
-0.017026247441 -0.0919417361813 0.92 7.92012911127e-39
-0.0149238760178 -0.089543256107 0.896 1.27113983737e-38
-0.0132360567063 -0.0893433827674 0.894 1.28893198385e-38
-0.0115426853575 -0.0890435727582 0.891 1.28889695139e-38
-0.00989373030646 -0.0890435727582 0.891 1.30737139008e-38
-0.00824477525538 -0.0890435727582 0.891 1.14131359842e-38
-0.00658101477175 -0.0888436994186 0.889 1.80518827472e-38
-0.00492465700439 -0.0886438260791 0.887 1.85132756809e-38
-0.0032831046696 -0.0886438260791 0.887 1.88802267033e-38
-0.0016415523348 -0.0886438260791 0.887 1.82338147282e-38
0.0 -0.0886438260791 0.887 1.85121644512e-38
0.00164525369294 -0.0888436994186 0.889 1.86036370111e-38
0.00329050738588 -0.0888436994186 0.889 1.92501008342e-38
0.00493576107881 -0.0888436994186 0.889 1.86036342085e-38
0.00658101477175 -0.0888436994186 0.889 1.8788381398e-38
0.00822626846469 -0.0888436994186 0.889 1.86947634502e-38
0.00987152215763 -0.0888436994186 0.889 1.91571835356e-38
0.0115167758506 -0.0888436994186 0.889 1.86940277685e-38
0.0131620295435 -0.0888436994186 0.889 1.8878779162e-38
0.0148405954597 -0.0890435727582 0.891 1.95266625004e-38
0.0164895505108 -0.0890435727582 0.891 1.70352743425e-38
0.0181385055618 -0.0890435727582 0.891 1.86090446219e-38
0.0197874606129 -0.0890435727582 0.891 1.7872536162e-38
0.021436415664 -0.0890435727582 0.891 2.00780762487e-38
0.0230853707151 -0.0890435727582 0.891 1.85128707056e-38
0.0248176063243 -0.0893433827674 0.894 1.62112169585e-38
0.0265313351428 -0.089543256107 0.896 1.82355705551e-38
0.0281895435892 -0.089543256107 0.896 1.32534710665e-38
0.0299143764822 -0.0897431294465 0.898 1.20556369353e-38
0.0315762862867 -0.0897431294465 0.898 1.2882119967e-38
0.0332381960913 -0.0897431294465 0.898 1.66614373395e-38
0.0349001058959 -0.0897431294465 0.898 1.38995299144e-38
0.0367655903981 -0.0902428127953 0.903 1.60243776304e-38
0.038436753598 -0.0902428127953 0.903 1.82384866572e-38
0.0401079167979 -0.0902428127953 0.903 1.87883757928e-38
0.0417790799978 -0.0902428127953 0.903 1.84174478854e-38
0.0432096549187 -0.0897431294465 0.898 1.86918641637e-38
0.0448715647232 -0.0897431294465 0.898 1.84163716882e-38
0.0465334745278 -0.0897431294465 0.898 2.34918130689e-38
0.0481953843324 -0.0897431294465 0.898 2.34867655918e-38
-0.0410332563327 -0.0945548950276 0.964 1.80388590793e-38
-0.0391677718305 -0.0943587230462 0.962 1.92370267195e-38
-0.0372708257841 -0.0940644650742 0.959 1.44461988661e-38
-0.0354960245563 -0.0940644650742 0.959 1.38105530671e-38
-0.0336157346215 -0.0937702071021 0.956 1.41786153191e-38
-0.0317798609844 -0.0935740351207 0.954 1.15993054917e-38
-0.0299199285194 -0.0932797771486 0.951 1.16958563572e-38
-0.0277749914776 -0.0920046592696 0.938 1.21600546904e-38
-0.0259557739521 -0.0917104012975 0.935 1.159824611e-38
-0.024173570008 -0.0915142293162 0.933 9.75327973634e-39
-0.0223747099523 -0.0912199713441 0.93 1.20649723857e-38
-0.0206091621199 -0.0910237993627 0.928 1.33542636624e-38
-0.0187288721851 -0.0902391114372 0.92 1.22443217735e-38
-0.017026247441 -0.0902391114372 0.92 7.36445681693e-39
-0.0149238760178 -0.0878850476605 0.896 1.27113983737e-38
-0.0132360567063 -0.0876888756792 0.894 1.3073719506e-38
-0.011581549618 -0.0876888756792 0.894 1.2982237137e-38
-0.00992704252972 -0.0876888756792 0.894 1.27971270112e-38
-0.00824477525538 -0.0873946177071 0.891 1.2796759871e-38
-0.00658101477175 -0.0871984457257 0.889 1.70377756603e-38
-0.00493576107881 -0.0871984457257 0.889 1.88795330605e-38
-0.0032831046696 -0.0870022737443 0.887 1.8140505066e-38
-0.0016415523348 -0.0870022737443 0.887 1.86018587633e-38
0.0 -0.0870022737443 0.887 1.93419181135e-38
0.00164525369294 -0.0871984457257 0.889 1.88809301551e-38
0.00329050738588 -0.0871984457257 0.889 1.8696180163e-38
0.00493576107881 -0.0871984457257 0.889 1.92490036175e-38
0.00658101477175 -0.0871984457257 0.889 1.93415649863e-38
0.00824477525538 -0.0873946177071 0.891 1.98029004667e-38
0.00989373030646 -0.0873946177071 0.891 1.87916183975e-38
0.0115426853575 -0.0873946177071 0.891 1.85136021834e-38
0.0131916404086 -0.0873946177071 0.891 1.77778364118e-38
0.0148905637946 -0.0876888756792 0.894 1.40013917011e-38
0.0165450708829 -0.0876888756792 0.894 1.31620069144e-38
0.0181995779711 -0.0876888756792 0.894 1.48189890992e-38
0.0198540850594 -0.0876888756792 0.894 1.29736695982e-38
0.0215567098035 -0.0878850476605 0.896 1.74011687859e-38
0.02321491825 -0.0878850476605 0.896 1.3433504288e-38
0.0248731266964 -0.0878850476605 0.896 1.39932095193e-38
0.0265313351428 -0.0878850476605 0.896 1.89724391487e-38
0.0282524666776 -0.0880812196419 0.898 1.72217759578e-38
0.0299143764822 -0.0880812196419 0.898 1.60282900557e-38
0.0316817749937 -0.088375477614 0.901 1.80569442373e-38
0.0333492368355 -0.088375477614 0.901 1.83320919934e-38
0.0350166986772 -0.088375477614 0.901 1.39945561671e-38
0.0368877352167 -0.0888659075675 0.906 1.26052149826e-38
0.0385644504538 -0.0888659075675 0.906 1.41732665629e-38
0.0402411656909 -0.0888659075675 0.906 1.92490008149e-38
0.041917880928 -0.0888659075675 0.906 1.95237926412e-38
0.0432096549187 -0.0880812196419 0.898 1.89695384609e-38
0.0448715647232 -0.0880812196419 0.898 1.82316076831e-38
0.0465334745278 -0.0880812196419 0.898 2.34864180698e-38
0.0481953843324 -0.0880812196419 0.898 2.34842418533e-38
-0.0410332563327 -0.0927708404045 0.964 1.78523182277e-38
-0.0391677718305 -0.0925783697812 0.962 2.04330517744e-38
-0.0372708257841 -0.0922896638464 0.959 1.43536683259e-38
-0.0354960245563 -0.0922896638464 0.959 1.39949443268e-38
-0.0336157346215 -0.0920009579115 0.956 1.3994949932e-38
-0.0317798609844 -0.0918084872882 0.954 1.32581009566e-38
-0.0299199285194 -0.0915197813534 0.951 8.28676624278e-39
-0.0278342132079 -0.0904611929255 0.94 1.05048325365e-38
-0.0260390545103 -0.0902687223023 0.938 1.40921622104e-38
-0.024173570008 -0.0897875457442 0.933 1.18765986357e-38
-0.0223265922965 -0.089306369186 0.928 9.84651933355e-39
-0.0205425376733 -0.0890176632512 0.925 1.21546512835e-38
-0.0187288721851 -0.0885364866931 0.92 1.40910860132e-38
-0.0169337134875 -0.0880553101349 0.915 1.11411958003e-38
-0.0152403421387 -0.0880553101349 0.915 1.2708173986e-38
-0.0132656675714 -0.0862268392141 0.896 1.39027669138e-38
-0.011607459125 -0.0862268392141 0.896 1.32573820905e-38
-0.00992704252972 -0.0860343685909 0.894 1.3349580523e-38
-0.00827253544143 -0.0860343685909 0.894 1.32588016059e-38
-0.00659582020431 -0.085745662656 0.891 1.71303440356e-38
-0.00493576107881 -0.0855531920328 0.889 1.93404985982e-38
-0.00329050738588 -0.0855531920328 0.889 1.91539367271e-38
-0.00164525369294 -0.0855531920328 0.889 1.97081895061e-38
0.0 -0.0855531920328 0.889 1.84163716882e-38
0.00164525369294 -0.0855531920328 0.889 1.9432694228e-38
0.00329050738588 -0.0855531920328 0.889 1.60229034644e-38
0.00493576107881 -0.0855531920328 0.889 1.48264650265e-38
0.00659582020431 -0.085745662656 0.891 1.36258465152e-38
0.00824477525538 -0.085745662656 0.891 1.29775932339e-38
0.00989373030646 -0.085745662656 0.891 1.08600196583e-38
0.0115426853575 -0.085745662656 0.891 1.26985008227e-38
