# .PCD v0.7 - Point Cloud Data file format
VERSION 0.7
FIELDS x y z rgb
SIZE 4 4 4 4
TYPE F F F F
COUNT 1 1 1 1
WIDTH 843
HEIGHT 1
VIEWPOINT 0 0 0 1 0 0 0
POINTS 843
DATA ascii
-0.00504124978578 -0.0436908314768 0.908 2.09938668341e-38
-0.00335343047424 -0.0435945961652 0.906 2.10871288521e-38
-0.00167671523712 -0.0435945961652 0.906 2.10882092532e-38
0.0 -0.0434502431977 0.903 1.70355700165e-38
0.00164895505108 -0.042872831328 0.891 1.63941788938e-38
0.00329050738588 -0.0427765960164 0.889 1.82290489121e-38
0.00492465700439 -0.0426803607048 0.887 2.0350309304e-38
0.00655140390664 -0.0425841253931 0.885 2.03510099532e-38
0.00816149469725 -0.0424397724257 0.882 2.00729839301e-38
0.00977158548786 -0.0423435371141 0.88 2.07194253325e-38
0.0113094997948 -0.0420067135234 0.873 1.98889808301e-38
0.0128955317575 -0.0419104782118 0.871 2.04410461822e-38
0.0144741610039 -0.0418142429001 0.869 2.25633631531e-38
0.015989867162 -0.0415736546211 0.864 1.43619514011e-38
0.0175481389386 -0.0414774193095 0.862 2.27508512825e-38
0.0190545917013 -0.0412849486862 0.858 2.93873587706e-39
0.0205943566873 -0.0411887133746 0.856 3.85709644383e-39
0.022126718957 -0.041092478063 0.854 1.38073763235e-38
0.0236239183244 -0.0409481250955 0.851 1.53696391398e-38
0.025021181022 -0.0406594191607 0.845 2.08138139945e-38
0.0263962355707 -0.0403707132258 0.839 2.0076218127e-38
0.0278823308637 -0.0402744779142 0.837 1.97055985052e-38
0.0293610234403 -0.0401782426026 0.835 1.92457638155e-38
0.0308323133007 -0.0400820072909 0.833 2.01655509041e-38
0.0322962004448 -0.0399857719793 0.831 2.01662487507e-38
0.0337526848727 -0.0398895366677 0.829 2.0997129057e-38
0.0352868978214 -0.0398895366677 0.829 8.82843676287e-39
0.0367322781748 -0.0397933013561 0.827 4.87486652496e-39
0.0382627897654 -0.0397933013561 0.827 5.35822481205e-39
0.0396970660444 -0.0396970660444 0.825 7.19744726336e-39
0.0412238762769 -0.0396970660444 0.825 8.39847635506e-39
0.0427506865094 -0.0396970660444 0.825 9.50412326418e-39
0.0442774967419 -0.0396970660444 0.825 1.06079428801e-38
0.0458043069744 -0.0396970660444 0.825 1.12515018115e-38
0.0473311172068 -0.0396970660444 0.825 1.26329845143e-38
0.0488579274393 -0.0396970660444 0.825 1.19890668504e-38
0.0503847376718 -0.0396970660444 0.825 1.36482000283e-38
0.0519115479043 -0.0396970660444 0.825 9.86785830657e-39
0.0534383581368 -0.0396970660444 0.825 4.15857179544e-39
0.0550984172622 -0.0397933013561 0.827 5.81559461782e-39
0.0566289288529 -0.0397933013561 0.827 8.20761389902e-39
0.0581594404435 -0.0397933013561 0.827 9.80908925027e-45
0.0598343050015 -0.0398895366677 0.829 1.78607218146e-38
0.0613685179503 -0.0398895366677 0.829 2.34961374759e-38
0.062902730899 -0.0398895366677 0.829 2.34878473942e-38
0.0647478579315 -0.0400820072909 0.833 2.34853012349e-38
0.0664486319965 -0.0401782426026 0.835 2.34964611759e-38
0.0681568087778 -0.0402744779142 0.837 2.57139389242e-39
0.0697058271592 -0.0402744779142 0.837 2.66755799954e-39
0.0714251080149 -0.0403707132258 0.839 2.34965186291e-38
0.0731517915869 -0.0404669485374 0.841 2.34914641455e-38
0.0750635430659 -0.0406594191607 0.845 2.34899549471e-38
0.0768087334286 -0.0407556544723 0.847 2.34881710941e-38
0.079023996275 -0.041092478063 0.854 2.3488175298e-38
0.0807932454656 -0.0411887133746 0.856 2.34906934314e-38
0.0823774267492 -0.0411887133746 0.856 2.34896060238e-38
0.0839616080328 -0.0411887133746 0.856 2.34871285281e-38
0.0855457893165 -0.0411887133746 0.856 2.35054631172e-38
-0.0136950251156 -0.0427969534861 0.925 2.34968367238e-38
-0.0119572374691 -0.0427044195327 0.923 2.35015086529e-38
-0.0102157484646 -0.0425656186024 0.92 1.88687332533e-38
-0.00849461692979 -0.042473084649 0.918 2.03484792082e-38
-0.00675867996244 -0.0422417497652 0.913 2.21906345772e-38
-0.00504124978578 -0.0420104148815 0.908 2.0807684715e-38
-0.00336083319052 -0.0420104148815 0.908 2.11786056159e-38
-0.00167671523712 -0.041917880928 0.906 1.61064797074e-38
0.0 -0.041917880928 0.906 1.67640376105e-38
0.00166746184177 -0.0416865460443 0.901 2.12765465695e-38
0.00329791010215 -0.0412238762769 0.891 2.01644789108e-38
0.00493576107881 -0.0411313423234 0.889 1.3715821087e-38
0.00656620933919 -0.04103880837 0.887 2.108359758e-38
0.00818925488329 -0.0409462744165 0.885 2.00751671531e-38
0.00982710585995 -0.0409462744165 0.885 2.04428426468e-38
0.0113742735622 -0.0406224055793 0.878 1.9337934222e-38
0.0129251426226 -0.0403910706956 0.873 2.09038193948e-38
0.0144741610039 -0.0402060027886 0.869 1.93361377573e-38
0.015989867162 -0.0399746679049 0.864 2.0810548969e-38
0.0175481389386 -0.0398821339514 0.862 2.12722305702e-38
0.019099007999 -0.0397895999979 0.86 1.39935023907e-38
0.0206424743431 -0.0396970660444 0.858 7.25500419648e-39
0.0221785379709 -0.039604532091 0.856 2.38776493906e-39
0.0237071988825 -0.0395119981375 0.854 1.72149992784e-38
0.0251988462126 -0.0393731972073 0.851 2.07241364979e-38
0.0264591586591 -0.0389105274398 0.841 1.90606242624e-38
0.0278823308637 -0.0387254595329 0.837 1.97041972068e-38
0.0293610234403 -0.0386329255794 0.835 1.93361377573e-38
0.0308323133007 -0.0385403916259 0.833 2.00751321207e-38
0.0322962004448 -0.0384478576724 0.831 1.92446651975e-38
0.0337526848727 -0.0383553237189 0.829 1.98900346065e-38
0.0352868978214 -0.0383553237189 0.829 2.1182578297e-38
0.0367322781748 -0.0382627897654 0.827 7.25859152055e-39
0.0382627897654 -0.0382627897654 0.827 4.77800316991e-39
0.0396970660444 -0.038170255812 0.825 5.35750594594e-39
0.0412238762769 -0.038170255812 0.825 8.02827992545e-39
0.0427506865094 -0.038170255812 0.825 1.01484192786e-38
0.0441701573558 -0.0380777218585 0.823 1.01455255973e-38
0.0456932662302 -0.0380777218585 0.823 1.22638558741e-38
0.0472163751045 -0.0380777218585 0.823 1.2632621578e-38
0.0487394839789 -0.0380777218585 0.823 1.30932409949e-38
0.0502625928532 -0.0380777218585 0.823 8.66968365984e-39
0.0519115479043 -0.038170255812 0.825 5.17162930984e-39
0.0534383581368 -0.038170255812 0.825 5.90851191639e-39
0.0550984172622 -0.0382627897654 0.827 7.83631745012e-39
0.0566289288529 -0.0382627897654 0.827 8.94156639049e-39
0.0581594404435 -0.0382627897654 0.827 0.0
0.0598343050015 -0.0383553237189 0.829 9.48642346328e-39
0.0615165722759 -0.0384478576724 0.831 2.35000499012e-38
0.0632062422665 -0.0385403916259 0.833 2.34903529159e-38
0.0649033149734 -0.0386329255794 0.835 2.34842236364e-38
0.0664486319965 -0.0386329255794 0.835 2.34989835131e-38
0.0681568087778 -0.0387254595329 0.837 1.83670992316e-39
0.0697058271592 -0.0387254595329 0.837 1.64771960187e-38
0.0714251080149 -0.0388179934863 0.839 2.34968353225e-38
0.0731517915869 -0.0389105274398 0.841 2.34910703807e-38
0.0750635430659 -0.0390955953468 0.845 2.34900025912e-38
0.0766273668797 -0.0390955953468 0.845 2.34885718655e-38
0.0795791999959 -0.0397895999979 0.86 2.3489236081e-38
0.0811707839958 -0.0397895999979 0.86 2.3491433317e-38
0.0827623679957 -0.0397895999979 0.86 2.34910703807e-38
0.0854328978932 -0.0402985367421 0.871 2.34881921136e-38
0.0870448393629 -0.0402985367421 0.871 2.35083764167e-38
-0.0137394414132 -0.0412183242397 0.928 2.34961444824e-38
-0.0119831469761 -0.0410850753467 0.925 2.35015142581e-38
-0.0102490606878 -0.0409962427514 0.923 1.93328979553e-38
-0.00854088390653 -0.0409962427514 0.923 2.07168889823e-38
-0.00679569354383 -0.040774161263 0.918 2.11789615457e-38
-0.0050523538602 -0.0404188308816 0.91 2.15470378107e-38
-0.00336083319052 -0.0403299982863 0.908 2.19161748587e-38
-0.00168041659526 -0.0403299982863 0.908 9.20077157393e-39
0.0 -0.0402411656909 0.906 1.22504972958e-38
0.00167116319991 -0.0401079167979 0.903 2.18262185038e-38
0.00330901417657 -0.0397081701189 0.894 1.62915884319e-38
0.00494686515323 -0.0395749212258 0.891 1.79575459333e-38
0.00658101477175 -0.0394860886305 0.889 1.90556650671e-38
0.00820776167399 -0.0393972560352 0.887 1.77753056667e-38
0.00984931400879 -0.0393972560352 0.887 2.01723696224e-38
0.0114260925761 -0.0391751745468 0.882 1.98914625297e-38
0.0129547534877 -0.0388642604631 0.875 1.97985578428e-38
0.0144741610039 -0.0385977626771 0.869 2.00729965418e-38
0.016045387534 -0.0385089300817 0.867 2.04424895196e-38
0.0175888538782 -0.0383756811887 0.864 2.01673501713e-38
0.019099007999 -0.038198015998 0.86 2.22838993978e-38
0.0206905919989 -0.038198015998 0.86 1.03928533749e-38
0.0222303569849 -0.0381091834027 0.858 5.60196526564e-39
0.0237627192546 -0.0380203508073 0.856 1.46936793853e-39
0.025287678808 -0.037931518212 0.854 2.02645946795e-38
0.0265220817475 -0.0374429389376 0.843 1.95226968258e-38
0.0279489553102 -0.0372652737469 0.839 1.97056307351e-38
0.029431349245 -0.0371764411516 0.837 1.97985452311e-38
0.0308323133007 -0.0369987759609 0.833 1.9521214252e-38
0.0322962004448 -0.0369099433655 0.831 1.94290662663e-38
0.0337526848727 -0.0368211107702 0.829 1.93357846301e-38
0.0352868978214 -0.0368211107702 0.829 2.13644444169e-38
0.0367322781748 -0.0367322781748 0.827 2.06280102259e-38
0.0382627897654 -0.0367322781748 0.827 6.61574304744e-39
0.0396970660444 -0.0366434455795 0.825 4.6958884812e-39
0.0411239396072 -0.0365546129841 0.823 8.02936593176e-39
0.0426470484815 -0.0365546129841 0.823 8.94844396335e-39
0.0441701573558 -0.0365546129841 0.823 1.152845444e-38
0.0456932662302 -0.0365546129841 0.823 1.16177605925e-38
0.0472163751045 -0.0365546129841 0.823 1.3553852004e-38
0.0487394839789 -0.0365546129841 0.823 8.11397633304e-39
0.0502625928532 -0.0365546129841 0.823 4.7095749633e-39
0.052037394081 -0.0367322781748 0.827 5.81521626724e-39
0.0535679056716 -0.0367322781748 0.827 8.39089392907e-39
0.0550984172622 -0.0367322781748 0.827 9.86135908429e-39
0.0566289288529 -0.0367322781748 0.827 1.05067312959e-38
0.0583000920528 -0.0368211107702 0.829 7.00649232162e-45
0.059978657969 -0.0369099433655 0.831 3.95331380029e-39
0.0616646266014 -0.0369987759609 0.833 2.3501452601e-38
0.0633579979502 -0.0370876085562 0.835 2.34950458644e-38
0.0650587720152 -0.0371764411516 0.837 2.34877983488e-38
0.0666077903965 -0.0371764411516 0.837 2.34982240093e-38
0.0681568087778 -0.0371764411516 0.837 8.64796213235e-39
0.0697058271592 -0.0371764411516 0.837 2.34908265547e-38
0.0712548455405 -0.0371764411516 0.837 2.34918046611e-38
0.0733257554194 -0.0374429389376 0.843 2.34903403042e-38
0.0750635430659 -0.0375317715329 0.845 2.0810548969e-38
0.0788037654657 -0.0385977626771 0.869 1.81379869327e-38
0.0797642679028 -0.0382868485934 0.862 2.34867978216e-38
0.0813595532609 -0.0382868485934 0.862 2.3491433317e-38
0.0838209564235 -0.0386865952724 0.871 2.34863942477e-38
0.0854328978932 -0.0386865952724 0.871 2.34867403684e-38
0.0870448393629 -0.0386865952724 0.871 2.35098001359e-38
-0.0137394414132 -0.0395008940631 0.928 2.34971884498e-38
-0.0120220112366 -0.0395008940631 0.928 2.34975513861e-38
-0.0102712688367 -0.0393731972073 0.925 1.86904124185e-38
-0.00854088390653 -0.03928806597 0.923 2.17299689174e-38
-0.00683270712523 -0.03928806597 0.923 2.07187036638e-38
-0.00508011404625 -0.0389475410212 0.915 2.11786112211e-38
-0.0033682359068 -0.0387347129282 0.91 2.20998402458e-38
-0.00168041659526 -0.038649581691 0.908 1.21506589842e-38
0.0 -0.0385644504538 0.906 1.3903120041e-38
0.00167116319991 -0.038436753598 0.903 2.19169539806e-38
0.00332381960913 -0.038223925505 0.898 1.9892947906e-38
0.00496352126486 -0.0380536630306 0.894 1.95226786089e-38
0.00659582020431 -0.0379259661748 0.891 2.19136721396e-38
0.00822626846469 -0.0378408349376 0.889 1.07595045194e-38
0.00987152215763 -0.0378408349376 0.889 2.00791174135e-38
0.0114649568366 -0.0376705724632 0.885 2.0628325518e-38
0.0131028078133 -0.0376705724632 0.885 1.98893507729e-38
0.0145407854504 -0.0371597850399 0.873 1.97045769587e-38
0.0160824011154 -0.0369895225655 0.869 1.95201632782e-38
0.0176499262875 -0.0369043913283 0.867 2.04428454494e-38
0.0191434242967 -0.0366915632353 0.862 1.97041944042e-38
0.0206905919989 -0.0366064319981 0.86 2.17317793951e-38
0.0222821759988 -0.0366064319981 0.86 1.14052676933e-38
0.0238182396267 -0.0365213007609 0.858 4.68361731055e-39
0.025287678808 -0.0363510382865 0.854 1.91424699018e-38
0.0265850048358 -0.0359679477191 0.845 1.95252149591e-38
0.0280155797567 -0.0357976852446 0.841 1.95212352715e-38
0.029431349245 -0.0356274227702 0.837 1.91524569559e-38
0.0309063404635 -0.035542291533 0.835 2.03498861119e-38
0.0323739289658 -0.0354571602958 0.833 1.94290970949e-38
0.0338341147517 -0.0353720290586 0.831 1.97038440796e-38
0.0352868978214 -0.0352868978214 0.829 1.99786387084e-38
0.0368211107702 -0.0352868978214 0.829 2.04424895196e-38
0.0382627897654 -0.0352017665842 0.827 2.05375872386e-38
0.0396970660444 -0.035116635347 0.825 5.14386398207e-39
0.0411239396072 -0.0350315041098 0.823 5.61284494691e-39
0.0426470484815 -0.0350315041098 0.823 8.39566815293e-39
0.0441701573558 -0.0350315041098 0.823 1.28191806464e-38
0.0456932662302 -0.0350315041098 0.823 1.22624237471e-38
0.0472163751045 -0.0350315041098 0.823 6.63994767582e-39
0.0487394839789 -0.0350315041098 0.823 6.18185620134e-39
0.0502625928532 -0.0350315041098 0.823 7.46897966939e-39
0.052037394081 -0.0352017665842 0.827 8.8483001686e-39
0.0535679056716 -0.0352017665842 0.827 9.21528622342e-39
0.0552316661553 -0.0352868978214 0.829 9.03124668961e-39
0.056765879104 -0.0352868978214 0.829 9.49222203633e-39
0.0583000920528 -0.0352868978214 0.829 4.59191493775e-40
0.0601230109364 -0.0354571602958 0.833 1.1020259539e-39
0.061812680927 -0.035542291533 0.835 2.34968801641e-38
0.0635097536339 -0.0356274227702 0.837 2.3492503909e-38
0.0650587720152 -0.0356274227702 0.837 2.34877969475e-38
0.0666077903965 -0.0356274227702 0.837 2.34917654247e-38
0.068319668536 -0.0357125540074 0.839 2.34867585853e-38
0.0697058271592 -0.0356274227702 0.837 2.34918032598e-38
0.0712548455405 -0.0356274227702 0.837 2.34907284638e-38
0.0749784118287 -0.0366915632353 0.862 2.20065712213e-38
0.0767513623774 -0.0367766944725 0.864 1.98908137285e-38
0.0788037654657 -0.0369895225655 0.869 2.32123773395e-38
0.0805970734842 -0.0370746538027 0.871 2.34924983038e-38
0.0822090149539 -0.0370746538027 0.871 2.34888843551e-38
0.0840134270468 -0.0371597850399 0.873 2.34871061073e-38
0.0856290698746 -0.0371597850399 0.873 2.34896158329e-38
0.0872447127024 -0.0371597850399 0.873 2.35098631944e-38
-0.0137690522784 -0.0378648937655 0.93 2.34975499848e-38
-0.0120479207436 -0.0378648937655 0.93 2.34997177935e-38
-0.0103045810599 -0.0377834638864 0.928 1.89698887855e-38
-0.00855939069723 -0.0376613190678 0.925 2.11760678644e-38
-0.00684751255778 -0.0376613190678 0.925 2.07158492188e-38
-0.00512453034392 -0.0375798891887 0.923 2.12693719213e-38
-0.0033867426975 -0.0372541696725 0.915 2.25626190637e-38
-0.0016841179534 -0.0370505949748 0.91 1.85078190247e-38
0.0 -0.0369691650957 0.908 1.98899771533e-38
0.00167671523712 -0.0368877352167 0.906 1.67568685675e-38
0.00333492368355 -0.036684160519 0.901 2.07212077841e-38
0.00497462533928 -0.0364805858214 0.896 1.40834881729e-38
0.00659582020431 -0.0362770111237 0.891 2.18218870902e-38
0.00824477525538 -0.0362770111237 0.891 1.24161559977e-38
0.00987152215763 -0.0361955812446 0.889 1.77706337377e-38
0.0114908663436 -0.0361141513656 0.887 1.69372381007e-38
0.0131028078133 -0.0360327214865 0.885 2.04400316421e-38
0.0146240660085 -0.0357477169098 0.878 2.04417622457e-38
0.0161564282782 -0.0355441422121 0.873 2.05336089522e-38
0.0177313561665 -0.035462712333 0.871 1.97049426976e-38
0.0192544650409 -0.0352998525749 0.867 1.97974732378e-38
0.0207868273105 -0.0351777077563 0.864 2.02584443806e-38
0.0223339950128 -0.0350962778772 0.862 2.16424522232e-38
0.0238737599988 -0.0350148479982 0.86 1.77728001451e-38
0.0254653439987 -0.0350148479982 0.86 1.94348171952e-38
0.0266479279242 -0.0344855537843 0.847 1.92471735217e-38
0.0280822042032 -0.0343226940261 0.843 2.01662515533e-38
0.0295016750496 -0.034159834268 0.839 1.9613081978e-38
0.0309063404635 -0.0339969745099 0.835 1.97049272833e-38
0.0323739289658 -0.0339155446308 0.833 1.92443148729e-38
0.0338341147517 -0.0338341147517 0.831 2.00722776757e-38
0.0353720290586 -0.0338341147517 0.831 2.02577311197e-38
0.0368211107702 -0.0337526848727 0.829 1.95187731901e-38
0.0382627897654 -0.0336712549936 0.827 1.99793659823e-38
0.0396970660444 -0.0335898251145 0.825 2.09964101909e-38
0.0412238762769 -0.0335898251145 0.825 5.78563625795e-39
0.0427506865094 -0.0335898251145 0.825 5.79828577919e-39
0.0442774967419 -0.0335898251145 0.825 1.02398736216e-38
0.0456932662302 -0.0335083952355 0.823 3.32273229394e-39
0.0472163751045 -0.0335083952355 0.823 5.43565496e-39
0.0487394839789 -0.0335083952355 0.823 9.30031281034e-39
0.0505068824904 -0.0336712549936 0.827 1.12338622665e-38
0.052037394081 -0.0336712549936 0.827 1.15078931877e-38
0.0536974532065 -0.0337526848727 0.829 1.36265948086e-38
0.0552316661553 -0.0337526848727 0.829 1.27056908851e-38
0.0569028293552 -0.0338341147517 0.831 1.27049846307e-38
0.0584407436621 -0.0338341147517 0.831 1.19642274339e-38
0.0602673639038 -0.0339969745099 0.835 1.46936793853e-39
0.0619607352526 -0.0340784043889 0.837 2.34939836802e-38
0.0635097536339 -0.0340784043889 0.837 2.34932381894e-38
0.0652142290571 -0.034159834268 0.839 2.34885340304e-38
0.0667669487965 -0.034159834268 0.839 2.34903473107e-38
0.0681568087778 -0.0340784043889 0.837 2.34892458901e-38
0.0697058271592 -0.0340784043889 0.837 2.34910493612e-38
0.0733831264706 -0.0350962778772 0.862 2.08062722061e-38
0.0749784118287 -0.0350962778772 0.862 2.20091622222e-38
0.0767513623774 -0.0351777077563 0.864 2.29353896785e-38
0.0789851320145 -0.035462712333 0.871 2.34925249285e-38
0.0805970734842 -0.035462712333 0.871 2.34906906288e-38
0.082397784219 -0.0355441422121 0.873 2.34906878262e-38
0.0840134270468 -0.0355441422121 0.873 2.34907200561e-38
0.0856290698746 -0.0355441422121 0.873 2.34892711134e-38
0.0872447127024 -0.0355441422121 0.873 2.35098435762e-38
-0.012086785004 -0.0362603550121 0.933 2.35025932579e-38
-0.0103267892088 -0.0361437622307 0.93 2.08170481913e-38
-0.00858715088327 -0.0360660337097 0.928 2.09913444969e-38
-0.00684751255778 -0.0359494409284 0.925 2.21924044172e-38
-0.00513563441834 -0.0359494409284 0.925 2.0441040577e-38
-0.00341635356261 -0.0358717124074 0.923 2.03491952717e-38
-0.00168966999061 -0.0354830698028 0.913 2.11793314885e-38
0.0 -0.0352887485005 0.908 2.22842343081e-38
0.00168041659526 -0.0352887485005 0.908 9.84544033374e-39
0.00334232639983 -0.0350944271982 0.903 1.86901489744e-38
0.00498572941369 -0.0349001058959 0.898 1.07626896708e-38
0.0066328337857 -0.0348223773749 0.896 2.07173598186e-38
0.00824477525538 -0.0346280560726 0.891 1.89752935937e-38
0.00987152215763 -0.0345503275517 0.889 1.62097722198e-38
0.0114908663436 -0.0344725990308 0.887 1.54643711199e-38
0.0131028078133 -0.0343948705098 0.885 1.9152414917e-38
0.014690690455 -0.0342782777284 0.882 1.88762189897e-38
0.0161934418596 -0.0340062279052 0.875 2.02584668014e-38
0.0177720711061 -0.0339284993843 0.873 1.9703841277e-38
0.0192988813385 -0.0337730423424 0.869 1.97974732378e-38
0.0208590037943 -0.0336953138215 0.867 1.93357818275e-38
0.0223339950128 -0.0335009925192 0.862 1.99811386249e-38
0.0239292803708 -0.0335009925192 0.862 2.01633943057e-38
0.0254653439987 -0.0334232639983 0.86 1.97052748053e-38
0.0269310818219 -0.0332678069564 0.856 1.94283333872e-38
0.0281488286497 -0.0328403000913 0.845 2.06258017795e-38
0.0295016750496 -0.0326071145285 0.839 1.93372167572e-38
0.0309803676263 -0.0325293860076 0.837 1.94297697181e-38
0.0324516574867 -0.0324516574867 0.835 1.961198336e-38
0.0339155446308 -0.0323739289658 0.833 1.93343623122e-38
0.0353720290586 -0.0322962004448 0.831 2.04424502832e-38
0.0368211107702 -0.0322184719239 0.829 1.96127316534e-38
0.0382627897654 -0.032140743403 0.827 1.94276173237e-38
0.0396970660444 -0.0320630148821 0.825 1.98889401924e-38
0.0412238762769 -0.0320630148821 0.825 2.10881882338e-38
0.0427506865094 -0.0320630148821 0.825 1.32509529332e-38
0.0442774967419 -0.0320630148821 0.825 1.19696098213e-38
0.0458043069744 -0.0320630148821 0.825 1.68534600707e-38
0.0473311172068 -0.0320630148821 0.825 1.96213398299e-38
0.0489763708998 -0.032140743403 0.827 2.06311897721e-38
0.0505068824904 -0.032140743403 0.827 2.19212153293e-38
0.0521632402577 -0.0322184719239 0.829 2.24740177643e-38
0.0536974532065 -0.0322184719239 0.829 2.32108527268e-38
0.0553649150483 -0.0322962004448 0.831 2.29324777803e-38
0.0570397796063 -0.0323739289658 0.833 2.21938687741e-38
0.05886269849 -0.0325293860076 0.837 2.25644295413e-38
0.0604117168713 -0.0325293860076 0.837 1.83670992316e-39
0.0621087895782 -0.0326071145285 0.839 2.32973730978e-38
0.0636615093176 -0.0326071145285 0.839 2.34979115198e-38
0.0650587720152 -0.0325293860076 0.837 2.34903627249e-38
0.0666077903965 -0.0325293860076 0.837 2.34899703614e-38
0.0681568087778 -0.0325293860076 0.837 2.34867655918e-38
0.0697058271592 -0.0325293860076 0.837 2.2834889954e-38
0.073553388945 -0.0335787210401 0.864 1.97021106734e-38
0.0751523756612 -0.0335787210401 0.864 2.21031599219e-38
0.0770178601634 -0.0336953138215 0.867 2.3493588514e-38
0.0789851320145 -0.0338507708634 0.871 2.34917626221e-38
0.0812448111586 -0.0341228206866 0.878 2.34852732089e-38
0.0828697073817 -0.0341228206866 0.878 2.34910619729e-38
0.08420589767 -0.0340062279052 0.875 2.34874970696e-38
0.085825241856 -0.0340062279052 0.875 2.34892963368e-38
0.087444586042 -0.0340062279052 0.875 2.35098225567e-38
-0.0121515587715 -0.034718739347 0.938 2.34989961248e-38
-0.010360101432 -0.0345336714401 0.933 2.27520451888e-38
-0.00860565767397 -0.0344226306959 0.93 2.00690182555e-38
-0.00686972070662 -0.0343486035331 0.928 2.05347005637e-38
-0.00513563441834 -0.0342375627889 0.925 2.08120133259e-38
-0.00341635356261 -0.0341635356261 0.923 2.09027445989e-38
-0.00169892338596 -0.0339784677192 0.918 1.97045895704e-38
0.0 -0.033682359068 0.91 2.09967352921e-38
0.00168041659526 -0.0336083319052 0.908 1.67640011767e-38
0.00335343047424 -0.0335343047424 0.906 2.15542250705e-38
0.00500238552532 -0.0333492368355 0.901 1.73092604222e-38
0.00664763921826 -0.0332381960913 0.898 1.47235718841e-38
0.00829104223213 -0.0331641689285 0.896 8.54321787474e-39
0.00989373030646 -0.0329791010215 0.891 2.00705933149e-38
0.0115167758506 -0.0329050738588 0.889 1.83252102166e-38
0.0131324186784 -0.032831046696 0.887 1.90570971941e-38
0.0147406587899 -0.0327570195332 0.885 1.50927579775e-38
0.0162489622317 -0.0324979244634 0.878 1.86979948445e-38
0.0178127860456 -0.0323868837192 0.875 2.03556846849e-38
0.0193432976362 -0.0322388293937 0.871 1.99832924206e-38
0.0209071214501 -0.0321648022309 0.869 1.99807854977e-38
0.0223858140267 -0.0319797343239 0.864 1.99800694342e-38
0.0239292803708 -0.0319057071611 0.862 2.05325131368e-38
0.0254653439987 -0.0318316799983 0.86 2.07190750079e-38
0.0269310818219 -0.0316836256728 0.856 1.96120436159e-38
0.0282820775427 -0.031424530603 0.849 2.01630285668e-38
0.0296423266589 -0.0312024491147 0.843 1.99804351731e-38
0.0310543947891 -0.0310543947891 0.839 1.95205290171e-38
0.0325293860076 -0.0309803676263 0.837 2.00737027962e-38
0.0339969745099 -0.0309063404635 0.835 1.97981949065e-38
0.0354571602958 -0.0308323133007 0.833 1.95194626289e-38
0.0368211107702 -0.0306842589751 0.829 2.02570416808e-38
0.0382627897654 -0.0306102318124 0.827 1.94283361898e-38
0.0397933013561 -0.0306102318124 0.827 2.03524196595e-38
0.0412238762769 -0.0305362046496 0.825 1.91521038287e-38
0.0427506865094 -0.0305362046496 0.825 2.2838519317e-38
0.0442774967419 -0.0305362046496 0.825 2.34917822403e-38
0.0458043069744 -0.0305362046496 0.825 2.34914094949e-38
0.0473311172068 -0.0305362046496 0.825 2.34870991008e-38
0.0489763708998 -0.0306102318124 0.827 2.33902441536e-38
0.050629027309 -0.0306842589751 0.829 2.34881584825e-38
0.0522890864345 -0.0307582861379 0.831 2.34848990622e-38
0.0539565482763 -0.0308323133007 0.833 2.34838677066e-38
0.0556314128343 -0.0309063404635 0.835 2.32043927408e-38
0.0571767298575 -0.0309063404635 0.835 2.34856361452e-38
0.05886269849 -0.0309803676263 0.837 2.29314212013e-38
0.0604117168713 -0.0309803676263 0.837 3.85709083864e-39
0.0619607352526 -0.0309803676263 0.837 1.68440895879e-38
0.0635097536339 -0.0309803676263 0.837 2.34975205575e-38
0.0650587720152 -0.0309803676263 0.837 2.34914179027e-38
0.0666077903965 -0.0309803676263 0.837 2.34928402206e-38
0.0681568087778 -0.0309803676263 0.837 2.33902693769e-38
0.0697058271592 -0.0309803676263 0.837 1.85045988408e-38
0.0738087826566 -0.0320907750681 0.867 2.21942219013e-38
0.07541332141 -0.0320907750681 0.867 2.34928920687e-38
0.0771955253541 -0.0321648022309 0.869 2.34910815911e-38
0.0791664985633 -0.0323128565565 0.873 2.33888064213e-38
0.0814298790655 -0.0325719516262 0.88 2.34849298908e-38
0.0830584766468 -0.0325719516262 0.88 2.34939514503e-38
0.0844946036049 -0.0324979244634 0.878 2.34888969667e-38
0.0861194998281 -0.0324979244634 0.878 2.34957535201e-38
0.0877443960512 -0.0324979244634 0.878 2.3509837971e-38
-0.0104156218041 -0.0329828023797 0.938 2.31212172692e-38
-0.00863341786002 -0.0328069878681 0.933 1.98860745371e-38
-0.00688452613918 -0.0327014991611 0.93 1.38072936469e-38
-0.00515229052996 -0.0326311733564 0.928 1.99829967466e-38
-0.00342375627889 -0.0325256846495 0.925 2.03560322069e-38
-0.00170817678131 -0.0324553588448 0.923 2.10889281194e-38
0.0 -0.0321740556262 0.915 1.85106776736e-38
0.00168966999061 -0.0321037298216 0.913 1.62965378181e-38
0.00336083319052 -0.03192791531 0.908 2.16417908103e-38
0.00501348959974 -0.0317521007983 0.903 2.01677453375e-38
0.00666984736709 -0.0316817749937 0.901 1.94255069682e-38
0.00830954902282 -0.0315762862867 0.898 1.03935596294e-38
0.00992704252972 -0.0314356346774 0.894 2.08045752337e-38
0.0115167758506 -0.0312598201658 0.889 1.7866052354e-38
0.0131324186784 -0.0311894943612 0.887 1.9060331391e-38
0.0147406587899 -0.0311191685565 0.885 1.66589346205e-38
0.0163229893945 -0.0310136798495 0.882 9.29121277811e-39
0.0178738584549 -0.0308730282403 0.878 1.62134029841e-38
0.0194321302315 -0.0307675395333 0.875 2.03539428709e-38
0.0210033567617 -0.0306972137286 0.873 1.98875178745e-38
0.0225153615616 -0.0305565621193 0.869 1.95198101509e-38
0.0239292803708 -0.0303104218031 0.862 1.98878261601e-38
0.0255245657289 -0.0303104218031 0.862 1.92450211273e-38
0.0270569279986 -0.0302400959984 0.86 1.94283207755e-38
0.0282820775427 -0.0298533040729 0.849 2.02552241967e-38
0.0296423266589 -0.0296423266589 0.843 1.97964222639e-38
0.0311284219519 -0.0295720008543 0.841 1.96127442651e-38
0.0326071145285 -0.0295016750496 0.839 1.97052930222e-38
0.0340784043889 -0.029431349245 0.837 1.91539339245e-38
0.035542291533 -0.0293610234403 0.835 1.9703493755e-38
0.0369099433655 -0.029220371831 0.831 1.93346972225e-38
0.0383553237189 -0.0291500460264 0.829 1.97967459639e-38
0.0397933013561 -0.0290797202217 0.827 1.92425043952e-38
0.0413238129467 -0.0290797202217 0.827 1.94269110693e-38
0.0428543245373 -0.0290797202217 0.827 2.16399368924e-38
0.0443848361279 -0.0290797202217 0.827 2.34903375016e-38
0.0459153477185 -0.0290797202217 0.827 2.34914347183e-38
0.0474458593092 -0.0290797202217 0.827 2.3485644553e-38
0.0490948143602 -0.0291500460264 0.829 2.34867333619e-38
0.0507511721276 -0.029220371831 0.831 2.34870976995e-38
0.0524149326112 -0.0292906976357 0.833 2.34856515595e-38
0.0540860958111 -0.0293610234403 0.835 2.34856655725e-38
0.0557646617273 -0.029431349245 0.837 2.34834851521e-38
0.0573136801086 -0.029431349245 0.837 2.34820404134e-38
0.05886269849 -0.029431349245 0.837 2.34874466228e-38
0.0604117168713 -0.029431349245 0.837 2.14584547283e-38
0.0619607352526 -0.029431349245 0.837 1.15967691415e-38
0.0635097536339 -0.029431349245 0.837 2.35025301995e-38
0.0650587720152 -0.029431349245 0.837 2.34932059595e-38
0.0666077903965 -0.029431349245 0.837 2.18200121529e-38
0.0681568087778 -0.029431349245 0.837 2.34871075086e-38
0.0697058271592 -0.029431349245 0.837 2.10871708911e-38
0.073979045131 -0.0305565621193 0.869 2.34964485642e-38
0.0755872852426 -0.0305565621193 0.869 2.34906934314e-38
0.0773731905448 -0.030626887924 0.871 2.33019959815e-38
0.0796199149354 -0.0308730282403 0.878 2.34892711134e-38
0.0816149469725 -0.0310136798495 0.882 2.34896340497e-38
0.0832472459119 -0.0310136798495 0.882 2.34910703807e-38
0.0846870742281 -0.0309433540449 0.88 2.3488527024e-38
0.0863156718095 -0.0309433540449 0.88 2.34968437303e-38
0.0879442693908 -0.0309433540449 0.88 2.3509851984e-38
-0.00869819162745 -0.0313134898588 0.94 2.08072895488e-38
-0.00690673428801 -0.0310803042961 0.933 1.98011180151e-38
-0.00516339460438 -0.0309803676263 0.93 5.60197787732e-39
-0.00344226306959 -0.0309803676263 0.93 1.90675214534e-38
-0.00171743017665 -0.0309137431798 0.928 2.12780291432e-38
0.0 -0.0307471820635 0.923 1.89691601103e-38
0.00169892338596 -0.0305806209472 0.918 2.03517708583e-38
0.00337933998122 -0.030414059831 0.913 1.81408189569e-38
0.00504124978578 -0.0302474987147 0.908 2.09956632988e-38
0.00668465279965 -0.0300809375984 0.903 1.70302128525e-38
0.00833730920887 -0.0300143131519 0.901 2.05393724928e-38
0.00997145882739 -0.0299143764822 0.898 1.39960009059e-38
0.011581549618 -0.0297811275891 0.894 1.04080042139e-38
0.0131620295435 -0.0296145664729 0.889 1.54772826839e-38
0.0147406587899 -0.0294813175799 0.885 1.99865238149e-38
0.0163229893945 -0.0293813809101 0.882 1.73103618428e-38
0.0178738584549 -0.0292481320171 0.878 8.83636530958e-39
0.0194321302315 -0.0291481953473 0.875 1.76845828016e-38
0.0210514744175 -0.0291481953473 0.875 1.99804323705e-38
0.0225671805756 -0.0290149464543 0.871 2.01651823626e-38
0.0241236016732 -0.0289483220078 0.869 1.99822498546e-38
0.0255837874591 -0.0287817608915 0.864 1.96155987101e-38
0.0271827741753 -0.0287817608915 0.864 1.8967712569e-38
0.028715136445 -0.028715136445 0.862 1.98885926704e-38
0.0301697701938 -0.028581887552 0.858 1.95198255652e-38
0.0312764762774 -0.0281488286497 0.845 2.07190750079e-38
0.0326848430495 -0.0280155797567 0.841 1.93372139546e-38
0.0340784043889 -0.0278823308637 0.837 1.94297655142e-38
0.035542291533 -0.0278157064172 0.835 1.94297655142e-38
0.0369987759609 -0.0277490819706 0.833 1.9429036839e-38
0.0383553237189 -0.0276158330776 0.829 2.00729390886e-38
0.0398895366677 -0.0276158330776 0.829 1.95205290171e-38
0.0414237496164 -0.0276158330776 0.829 1.89677279833e-38
0.0428543245373 -0.0275492086311 0.827 2.11789587431e-38
0.0443848361279 -0.0275492086311 0.827 2.34888927629e-38
0.0460263884627 -0.0276158330776 0.829 2.34881837058e-38
0.0475606014115 -0.0276158330776 0.829 2.34899619536e-38
0.0493317012812 -0.0277490819706 0.833 2.34853040375e-38
0.0509954617648 -0.0278157064172 0.835 2.34831446366e-38
0.052540778788 -0.0278157064172 0.835 2.34906836223e-38
0.054215643346 -0.0278823308637 0.837 2.34871201203e-38
0.0561644084064 -0.0280822042032 0.843 2.34831376301e-38
0.0577245308621 -0.0280822042032 0.843 2.34845753623e-38
0.0591440017085 -0.0280155797567 0.841 2.34910703807e-38
0.0605560698387 -0.0279489553102 0.839 2.34874704449e-38
0.0621087895782 -0.0279489553102 0.839 1.55504332664e-38
0.0636615093176 -0.0279489553102 0.839 1.61010468733e-38
0.0650587720152 -0.0278823308637 0.837 2.34938897932e-38
0.0666077903965 -0.0278823308637 0.837 2.06179292847e-38
0.0709254246661 -0.0290149464543 0.871 2.34860845607e-38
0.0725373661358 -0.0290149464543 0.871 2.34921213545e-38
0.0741493076054 -0.0290149464543 0.871 2.34831572482e-38
0.0757612490751 -0.0290149464543 0.871 2.05365208504e-38
0.0779950187122 -0.0292481320171 0.878 2.34899941834e-38
0.0796199149354 -0.0292481320171 0.878 2.34878263747e-38
0.0818925488329 -0.0294813175799 0.885 2.2746675413e-38
0.0835303998096 -0.0294813175799 0.885 2.34932283803e-38
0.0846870742281 -0.0293147564636 0.88 2.34899605523e-38
0.0863156718095 -0.0293147564636 0.88 2.35007883855e-38
-0.00875371199954 -0.0297626207984 0.946 1.96999428646e-38
-0.00700296959964 -0.0297626207984 0.946 2.26562734452e-38
-0.00521891497647 -0.0295738515333 0.94 6.62112403355e-39
-0.00346076986028 -0.0294165438124 0.935 1.02167984398e-38
-0.001726683572 -0.0293536207241 0.933 1.79653525671e-38
0.0 -0.0292592360915 0.93 2.10936392848e-38
0.00171187813945 -0.0291019283706 0.925 1.87807933668e-38
0.00340524948819 -0.0289446206497 0.92 1.8782287151e-38
0.00508011404625 -0.0287873129287 0.915 1.94290634637e-38
0.0067364718136 -0.0286300052078 0.91 1.99836553569e-38
0.00840208297631 -0.0285670821194 0.908 2.27509731954e-38
0.0100824995716 -0.0285670821194 0.908 1.10468197501e-38
0.0116981423994 -0.0284097743985 0.903 1.12381208125e-38
0.0132952784365 -0.0282524666776 0.898 8.84250159555e-39
0.0148405954597 -0.0280322358683 0.891 2.11855210238e-38
0.016415523348 -0.0279063896916 0.887 2.11821803283e-38
0.0178738584549 -0.0276232357939 0.878 1.00287946326e-38
0.0194987546781 -0.0276232357939 0.878 2.0634086256e-38
0.0210514744175 -0.0275288511614 0.875 1.9244686217e-38
0.0226189995895 -0.027465928073 0.873 2.01633844967e-38
0.0241791220453 -0.0274030049846 0.871 1.99811512366e-38
0.0256726200545 -0.0272771588079 0.867 1.94297697181e-38
0.0271827741753 -0.0271827741753 0.864 1.91524569559e-38
0.028715136445 -0.027119851087 0.862 2.12704102835e-38
0.0302400959984 -0.0270569279986 0.86 1.94272768082e-38
0.0314985577658 -0.0267737741009 0.851 2.0070818924e-38
0.0329180286122 -0.0266479279242 0.847 1.95201660808e-38
0.034159834268 -0.0263962355707 0.839 2.06272114858e-38
0.035542291533 -0.026270389394 0.835 1.9060627065e-38
0.0369987759609 -0.0262074663056 0.833 2.02577283171e-38
0.0385403916259 -0.0262074663056 0.833 1.97970962885e-38
0.0399857719793 -0.0261445432172 0.831 1.89691755246e-38
0.0415236862862 -0.0261445432172 0.831 1.87847786597e-38
0.0430616005931 -0.0261445432172 0.831 2.04403399277e-38
0.0445995149 -0.0261445432172 0.831 2.34852858206e-38
0.0461374292069 -0.0261445432172 0.831 2.34903473107e-38
0.0477900856161 -0.0262074663056 0.833 2.34889095784e-38
0.0494501447416 -0.026270389394 0.835 2.34853152479e-38
0.0509954617648 -0.026270389394 0.835 2.34892641069e-38
0.0526666249647 -0.0263333124823 0.837 2.34878053552e-38
0.0544747384158 -0.0264591586591 0.841 2.34845501389e-38
0.0561644084064 -0.0265220817475 0.843 2.34852914258e-38
0.0577245308621 -0.0265220817475 0.843 2.34878109604e-38
0.0592846533178 -0.0265220817475 0.843 2.34881949162e-38
0.0608447757736 -0.0265220817475 0.843 1.08366530064e-38
0.0624048982293 -0.0265220817475 0.843 2.34537215727e-38
0.063965020685 -0.0265220817475 0.843 2.34903178834e-38
0.067390627643 -0.0272771588079 0.867 2.34960744175e-38
0.0689951663964 -0.0272771588079 0.867 2.26504986942e-38
0.0709254246661 -0.0274030049846 0.871 2.34932479985e-38
0.0725373661358 -0.0274030049846 0.871 2.09924417136e-38
0.0743195700798 -0.027465928073 0.873 2.16428333763e-38
0.0759352129077 -0.027465928073 0.873 2.34939528516e-38
0.0783503490936 -0.0277490819706 0.882 2.34928766544e-38
0.0802546978563 -0.0278434666032 0.885 2.20998836861e-38
0.0818925488329 -0.0278434666032 0.885 2.34939262269e-38
0.0835303998096 -0.0278434666032 0.885 2.34925011064e-38
0.0851682507863 -0.0278434666032 0.885 2.34860271075e-38
-0.00877221879024 -0.0280711001288 0.948 1.80393046922e-38
-0.00701777503219 -0.0280711001288 0.948 2.25633631531e-38
-0.00525222719973 -0.0280118783985 0.946 1.12326291238e-38
-0.0034718739347 -0.0277749914776 0.938 1.05784161202e-38
-0.00173038493014 -0.0276861588823 0.935 1.1601142594e-38
0.0 -0.027626937152 0.933 1.5932522516e-38
0.00171743017665 -0.0274788828265 0.928 2.21996351172e-38
0.00341635356261 -0.0273308285009 0.923 1.63862321302e-38
0.00509677015787 -0.0271827741753 0.918 1.95241583801e-38
0.006773485395 -0.02709394158 0.915 1.55600826076e-38
0.00844834995305 -0.0270347198498 0.913 1.94298257701e-38
0.0100824995716 -0.0268866655242 0.908 1.86954374748e-38
0.0117370066599 -0.026827443794 0.906 1.51931189735e-38
0.0133693055993 -0.0267386111986 0.903 1.52810322353e-38
0.0149238760178 -0.0265313351428 0.896 2.12687161136e-38
0.0165450708829 -0.0264721134126 0.894 2.05389815305e-38
0.0180570756828 -0.0262648373568 0.887 1.4369096622e-38
0.0195875872734 -0.0261167830312 0.882 1.61243911044e-38
0.021171768557 -0.026057561301 0.88 2.03524799153e-38
0.0227485471244 -0.0259983395707 0.878 2.09041669168e-38
0.0242901627894 -0.0259095069754 0.875 1.93372139546e-38
0.0257910635149 -0.0257910635149 0.871 1.97974760404e-38
0.0273400818963 -0.0257318417847 0.869 1.97971201105e-38
0.0288816975613 -0.0256726200545 0.867 1.9886440276e-38
0.0303104218031 -0.0255245657289 0.862 2.0070832937e-38
0.0318316799983 -0.0254653439987 0.86 2.11792572197e-38
0.0332678069564 -0.0253469005382 0.856 1.96105582395e-38
0.0346484135424 -0.0251988462126 0.851 1.99782827786e-38
0.0358828164819 -0.0249619592917 0.843 1.95191235147e-38
0.0372652737469 -0.0248435158313 0.839 1.97031224109e-38
0.0387254595329 -0.024784294101 0.837 1.97038440796e-38
0.0401782426026 -0.0247250723708 0.835 1.93354315029e-38
0.0417235596257 -0.0247250723708 0.835 1.91521066313e-38
0.043165238621 -0.0246658506406 0.833 2.02577479352e-38
0.044706854286 -0.0246658506406 0.833 2.34874438202e-38
0.0462484699511 -0.0246658506406 0.833 2.34928528323e-38
0.0479048277184 -0.0247250723708 0.835 2.34896074251e-38
0.0495685882021 -0.024784294101 0.837 2.34853138466e-38
0.0511176065834 -0.024784294101 0.837 2.34892655082e-38
0.0529183173182 -0.0249027375615 0.841 2.34856795855e-38
0.0546042859506 -0.0249619592917 0.843 2.34874620371e-38
0.0561644084064 -0.0249619592917 0.843 2.34903445081e-38
0.0578614811133 -0.025021181022 0.845 2.3115436913e-38
0.0594253049271 -0.025021181022 0.845 1.82229602703e-38
0.0608447757736 -0.0249619592917 0.843 1.40508925693e-38
0.0624048982293 -0.0249619592917 0.843 2.34922264519e-38
0.0657860888896 -0.0256726200545 0.867 2.34921507818e-38
0.067390627643 -0.0256726200545 0.867 2.34925291324e-38
0.0689951663964 -0.0256726200545 0.867 2.34914179027e-38
0.0709254246661 -0.0257910635149 0.871 2.32047823018e-38
0.072703927252 -0.0258502852452 0.873 2.20995305588e-38
0.0743195700798 -0.0258502852452 0.873 2.34957310994e-38
0.0759352129077 -0.0258502852452 0.873 2.34874466228e-38
0.0783503490936 -0.0261167830312 0.882 2.34831446366e-38
0.0802546978563 -0.0262056156265 0.885 2.34881823045e-38
0.0818925488329 -0.0262056156265 0.885 2.34932185712e-38
0.0835303998096 -0.0262056156265 0.885 2.34914347183e-38
0.0851682507863 -0.0262056156265 0.885 2.34907214573e-38
-0.00887400613907 -0.0266220184172 0.959 1.95162368399e-38
-0.00703998318103 -0.0263999369289 0.951 2.19165279859e-38
-0.00526333127414 -0.0263166563707 0.948 1.95248464176e-38
-0.00347927665098 -0.0260945748824 0.94 6.71155262605e-39
-0.00173593696735 -0.0260390545103 0.938 1.69474381522e-38
0.0 -0.0259557739521 0.935 6.25168290382e-39
0.00172113153479 -0.0258169730219 0.93 1.30752357109e-38
0.00342375627889 -0.0256781720917 0.925 2.17351214919e-38
0.00512453034392 -0.0256226517196 0.923 1.78660943929e-38
0.00679569354383 -0.0254838507894 0.918 1.83309905728e-38
0.00846685674374 -0.0254005702312 0.915 1.80490535256e-38
0.0101047077204 -0.025261769301 0.91 1.80497387606e-38
0.0117629161668 -0.0252062489289 0.908 2.01677004959e-38
0.0133693055993 -0.0250674479987 0.903 1.87804500487e-38
0.015007156576 -0.0250119276266 0.901 2.08034766157e-38
0.0165820844643 -0.0248731266964 0.896 1.91571807331e-38
0.0181995779711 -0.0248176063243 0.894 1.4998714035e-38
0.0196986280176 -0.024623285022 0.887 1.4374509838e-38
0.0212198862128 -0.0244844840917 0.882 1.94380640037e-38
0.0228003661383 -0.0244289637197 0.88 1.99818546884e-38
0.0243734433476 -0.0243734433476 0.878 2.01662515533e-38
0.0259095069754 -0.0242901627894 0.875 1.92453742545e-38
0.0274030049846 -0.0241791220453 0.871 1.95198101509e-38
0.0290149464543 -0.0241791220453 0.871 2.09034704715e-38
0.0305565621193 -0.0241236016732 0.869 2.00729839301e-38
0.0319057071611 -0.0239292803708 0.862 1.97967852002e-38
0.0332678069564 -0.0237627192546 0.856 1.97960411107e-38
0.0346484135424 -0.0236239183244 0.851 1.94294165909e-38
0.0360530789563 -0.0235128775802 0.847 1.93365105027e-38
0.0371764411516 -0.0232352757197 0.837 2.08098455172e-38
0.0387254595329 -0.0232352757197 0.837 1.97042210289e-38
0.0402744779142 -0.0232352757197 0.837 1.95191066991e-38
0.0417235596257 -0.0231797553476 0.835 1.90599236131e-38
0.0432688766489 -0.0231797553476 0.835 1.97049272833e-38
0.0448141936721 -0.0231797553476 0.835 2.30239853726e-38
0.0463595106953 -0.0231797553476 0.835 2.34896242407e-38
0.0481343119231 -0.0232907960918 0.839 2.34903318964e-38
0.0496870316625 -0.0232907960918 0.839 2.34871229229e-38
0.051239751402 -0.0232907960918 0.839 2.34881809032e-38
0.0530441634949 -0.023401836836 0.843 2.34942807554e-38
0.0547338334855 -0.0234573572081 0.845 2.15481770664e-38
0.0562976572994 -0.0234573572081 0.845 2.01616370775e-38
0.0579984313644 -0.0235128775802 0.847 4.95911679253e-39
0.0595659565364 -0.0235128775802 0.847 2.05081025176e-38
0.0616387170945 -0.0237071988825 0.854 2.34942611373e-38
0.06321919702 -0.0237071988825 0.854 2.34910885975e-38
0.0657860888896 -0.0240680813011 0.867 2.34906976353e-38
0.067390627643 -0.0240680813011 0.867 2.34899885783e-38
0.0691543247964 -0.0241236016732 0.869 2.08087511031e-38
0.0712511441823 -0.0242901627894 0.875 2.26487512751e-38
0.073286891159 -0.0244289637197 0.88 2.34889362031e-38
0.0747452262659 -0.0243734433476 0.878 2.34878347825e-38
0.076370122489 -0.0243734433476 0.878 2.22856958624e-38
0.0783503490936 -0.0244844840917 0.882 2.34903683301e-38
0.0804360644051 -0.024623285022 0.887 2.3492128361e-38
0.0820776167399 -0.024623285022 0.887 2.34914291131e-38
0.0837191690747 -0.024623285022 0.887 2.34921479792e-38
-0.00887400613907 -0.0248472171894 0.959 1.92432176562e-38
-0.00707699676242 -0.0247694886685 0.956 2.13651478688e-38
-0.0052966434974 -0.0247176696545 0.954 2.28402947621e-38
-0.0034903807254 -0.0244326650778 0.943 5.69595315624e-39
-0.00173963832549 -0.0243549365569 0.94 1.42791668917e-38
0.0 -0.0243031175429 0.938 1.0497684513e-38
0.001726683572 -0.024173570008 0.933 5.05887102631e-39
0.00342375627889 -0.0239662939522 0.925 1.53703453942e-38
0.00512453034392 -0.0239144749383 0.923 2.15474483912e-38
0.00681049897639 -0.0238367464174 0.92 1.95270002134e-38
0.00846685674374 -0.0237071988825 0.915 1.78674956914e-38
0.0101380199437 -0.0236553798685 0.913 1.74050882177e-38
0.0117629161668 -0.0235258323337 0.908 1.86897117692e-38
0.013413721897 -0.0234740133197 0.906 2.12719348962e-38
0.0150404687992 -0.0233962847988 0.903 1.42682717962e-38
0.0166746184177 -0.0233444657848 0.901 2.13669303204e-38
0.0182402929107 -0.02321491825 0.896 1.73965150737e-38
0.0198985013571 -0.02321491825 0.896 1.39963932694e-38
0.0213401803524 -0.0229817326872 0.887 1.53778983929e-38
0.0228521851523 -0.0228521851523 0.882 2.03514261389e-38
0.0244289637197 -0.0228003661383 0.88 1.99818546884e-38
0.0259983395707 -0.0227485471244 0.878 1.97056461494e-38
0.0275288511614 -0.0226708186035 0.875 1.98907408609e-38
0.0290149464543 -0.0225671805756 0.871 1.9797826365e-38
0.0305565621193 -0.0225153615616 0.869 1.98885898678e-38
0.0319057071611 -0.0223339950128 0.862 2.02569996419e-38
0.0334232639983 -0.0222821759988 0.86 1.95198101509e-38
0.03485198824 -0.0221785379709 0.856 2.00743908338e-38
0.0362233414307 -0.0220489904361 0.851 1.97056405442e-38
0.0371764411516 -0.0216862573384 0.837 1.93361349547e-38
0.0387254595329 -0.0216862573384 0.837 1.96127260482e-38
0.0403707132258 -0.0217380763524 0.839 2.02580954573e-38
0.0418234962955 -0.0216862573384 0.837 1.85996489156e-38
0.0433725146768 -0.0216862573384 0.837 1.99804379756e-38
0.0449215330581 -0.0216862573384 0.837 2.34878109604e-38
0.0464705514394 -0.0216862573384 0.837 2.34896242407e-38
0.0481343119231 -0.0217380763524 0.839 2.34878305786e-38
0.0496870316625 -0.0217380763524 0.839 2.34849439038e-38
0.051239751402 -0.0217380763524 0.839 2.34878123617e-38
0.0530441634949 -0.0218417143803 0.843 2.34899829731e-38
0.0547338334855 -0.0218935333942 0.845 9.47197047092e-39
0.0564309061924 -0.0219453524082 0.847 1.10263790094e-38
0.0581353816156 -0.0219971714221 0.849 1.94348592341e-38
0.0601988887783 -0.0221785379709 0.856 2.34939430425e-38
0.0620717759968 -0.0222821759988 0.86 2.3493964062e-38
0.0643296044618 -0.0225153615616 0.869 2.34957353033e-38
0.0657860888896 -0.0224635425477 0.867 2.34903711327e-38
0.067390627643 -0.0224635425477 0.867 2.14512646659e-38
0.0693134831964 -0.0225671805756 0.871 2.34881879097e-38
0.0716582935777 -0.0228003661383 0.88 2.09939242874e-38
0.0734534522752 -0.0228521851523 0.882 2.34860130945e-38
0.0753411449263 -0.0229299136732 0.885 2.1916190273e-38
0.076978995903 -0.0229299136732 0.885 2.3485700605e-38
0.0787945120703 -0.0229817326872 0.887 2.34917654247e-38
0.0812522138748 -0.02321491825 0.896 2.34917990559e-38
0.0829104223213 -0.02321491825 0.896 2.34914291131e-38
0.0863619387862 -0.0237071988825 0.915 2.34896298458e-38
-0.0125661108831 -0.0233370630686 0.97 2.34892711134e-38
-0.0107376399622 -0.0232648865848 0.967 2.34924884947e-38
-0.00890176632512 -0.0231445924453 0.962 1.94276299354e-38
-0.00707699676242 -0.0230002394779 0.956 2.14569721545e-38
-0.0052966434974 -0.0229521218221 0.954 2.10903406282e-38
-0.0034903807254 -0.0226874747151 0.943 9.47878638665e-39
-0.00173963832549 -0.0226152982314 0.94 9.20770940262e-39
0.0 -0.0225671805756 0.938 1.11470392149e-38
0.001726683572 -0.022446886436 0.933 1.13249312524e-38
0.00343486035331 -0.0223265922965 0.928 1.74923274549e-38
0.00513563441834 -0.0222544158128 0.925 1.10393368163e-38
0.00681049897639 -0.0221341216733 0.92 2.0356793112e-38
0.00846685674374 -0.0220138275337 0.915 1.92526189676e-38
0.0101380199437 -0.0219657098779 0.913 1.72213863968e-38
0.0117629161668 -0.0218454157384 0.908 2.01680690374e-38
0.013413721897 -0.0217972980826 0.906 1.71277782581e-38
0.0150904371341 -0.0217972980826 0.906 1.98014571293e-38
0.0167116319991 -0.0217251215989 0.903 1.68472088782e-38
0.0183420802595 -0.0216770039431 0.901 1.06687718452e-38
0.0198985013571 -0.0215567098035 0.896 2.15588913944e-38
0.0213882980082 -0.0213882980082 0.889 1.11386412332e-38
0.0228521851523 -0.0212198862128 0.882 2.13627292276e-38
0.0244289637197 -0.021171768557 0.88 1.89688069831e-38
0.0259983395707 -0.0211236509012 0.878 2.02584668014e-38
0.0275288511614 -0.0210514744175 0.875 1.97063467986e-38
0.0290149464543 -0.0209552391059 0.871 1.96138008441e-38
0.0305565621193 -0.0209071214501 0.869 1.97974760404e-38
0.0319797343239 -0.0207868273105 0.864 2.01662515533e-38
0.0334232639983 -0.0206905919989 0.86 1.9056702028e-38
0.0349334181191 -0.0206424743431 0.858 2.00711860642e-38
0.0365213007609 -0.0206424743431 0.858 1.9703841277e-38
0.0374429389376 -0.0202815919245 0.843 1.98882367406e-38
0.0390030613933 -0.0202815919245 0.843 1.97041972068e-38
0.0404669485374 -0.0202334742687 0.841 1.9978989033e-38
0.0419234329653 -0.0201853566129 0.839 1.95198129535e-38
0.0434761527047 -0.0201853566129 0.839 1.95194374056e-38
0.0450288724442 -0.0201853566129 0.839 2.34874480241e-38
0.0465815921836 -0.0201853566129 0.839 2.34856907959e-38
0.0482490540254 -0.0202334742687 0.841 2.34860285088e-38
0.0499239185834 -0.0202815919245 0.843 2.34871131138e-38
0.0514840410392 -0.0202815919245 0.843 2.34863914451e-38
0.0530441634949 -0.0202815919245 0.843 2.34910843937e-38
0.0549929285553 -0.020425944892 0.849 1.62000416033e-38
0.056897277318 -0.0205462390315 0.854 5.51012976948e-39
0.0584777572435 -0.0205462390315 0.854 2.34982954755e-38
0.0603395403876 -0.0206424743431 0.858 2.34917794377e-38
0.0623604819316 -0.0207868273105 0.864 2.34931975517e-38
0.0641815501362 -0.0208590037943 0.867 2.34860509296e-38
0.0659378445733 -0.0209071214501 0.869 1.99804197588e-38
0.0677015417267 -0.0209552391059 0.871 2.34799734981e-38
0.0696317999964 -0.0210514744175 0.875 2.34849509103e-38
0.0716582935777 -0.021171768557 0.88 2.32966121928e-38
0.0734534522752 -0.0212198862128 0.882 2.34867473749e-38
0.0755114074007 -0.0213401803524 0.887 2.34856557634e-38
0.0771529597355 -0.0213401803524 0.887 2.21027129077e-38
0.0795940054284 -0.0215567098035 0.896 2.34924983038e-38
0.0812522138748 -0.0215567098035 0.896 2.34932508011e-38
0.0840208297631 -0.0218454157384 0.908 2.34939388386e-38
0.0863619387862 -0.0220138275337 0.915 2.34921395714e-38
