# .PCD v0.7 - Point Cloud Data file format
VERSION 0.7
FIELDS x y z rgb
SIZE 4 4 4 4
TYPE F F F F
COUNT 1 1 1 1
WIDTH 853
HEIGHT 1
VIEWPOINT 0 0 0 1 0 0 0
POINTS 853
DATA ascii
0.0149571882411 -0.0199429176548 0.898 2.03535140736e-38
0.0166190980456 -0.0199429176548 0.898 1.55614895113e-38
0.0181385055618 -0.0197874606129 0.891 1.82341538424e-38
0.0197430443153 -0.0197430443153 0.889 1.88769588752e-38
0.0213882980082 -0.0197430443153 0.889 1.98871703525e-38
0.0230335517011 -0.0197430443153 0.889 1.97038440796e-38
0.0246788053941 -0.0197430443153 0.889 1.89684286325e-38
0.0265313351428 -0.0198985013571 0.896 1.98903877337e-38
0.0267108510126 -0.0188547183618 0.849 1.88766085506e-38
0.0281488286497 -0.0187658857665 0.845 1.93365161079e-38
0.0297126524636 -0.0187658857665 0.845 1.82305384924e-38
0.0310543947891 -0.0186326368734 0.839 2.25622659364e-38
0.0326071145285 -0.0186326368734 0.839 2.34871117125e-38
0.034159834268 -0.0186326368734 0.839 2.34835019677e-38
0.0357125540074 -0.0186326368734 0.839 2.34867319606e-38
0.0374429389376 -0.0187214694688 0.843 2.34845809675e-38
0.0390030613933 -0.0187214694688 0.843 2.34831376301e-38
0.0406594191607 -0.0187658857665 0.845 2.3489250094e-38
0.0422232429745 -0.0187658857665 0.845 2.21971309969e-38
0.0438907048163 -0.0188103020641 0.847 6.24486418549e-39
0.0454582299883 -0.0188103020641 0.847 2.34945778307e-38
0.0470257551603 -0.0188103020641 0.847 8.54070114269e-39
0.0485932803324 -0.0188103020641 0.847 2.09940013588e-38
0.0502792489648 -0.0188547183618 0.849 9.0131811498e-39
0.051850475495 -0.0188547183618 0.849 2.34827957132e-38
0.0534217020251 -0.0188547183618 0.849 2.3498987717e-38
0.0553167973925 -0.018965759106 0.854 2.34870991008e-38
0.056897277318 -0.018965759106 0.854 2.34888913616e-38
0.0584777572435 -0.018965759106 0.854 2.25637302933e-38
0.0604801919968 -0.019099007999 0.86 2.34892809225e-38
0.0622161289642 -0.0191434242967 0.862 2.34906724119e-38
0.0643296044618 -0.0192988813385 0.869 2.19193950426e-38
0.0659378445733 -0.0192988813385 0.869 2.09023970769e-38
0.0677015417267 -0.0193432976362 0.871 2.02574326431e-38
0.0693134831964 -0.0193432976362 0.871 2.14599162826e-38
0.0710882844242 -0.0193877139339 0.873 2.34863942477e-38
0.072703927252 -0.0193877139339 0.873 2.34928570362e-38
0.0744898325543 -0.0194321302315 0.875 2.30217769263e-38
0.076370122489 -0.0194987546781 0.878 2.34892767186e-38
0.0779950187122 -0.0194987546781 0.878 2.34881809032e-38
0.0796199149354 -0.0194987546781 0.878 2.3484240452e-38
0.0197874606129 -0.0181385055618 0.891 1.97085104035e-38
0.0213882980082 -0.0180977906223 0.889 1.95205318197e-38
0.0230335517011 -0.0180977906223 0.889 1.87815570745e-38
0.0247343257662 -0.0181385055618 0.891 1.99796714654e-38
0.0265313351428 -0.0182402929107 0.896 1.95205164054e-38
0.0267737741009 -0.0173242067712 0.851 1.90595312496e-38
0.0282154530962 -0.0172427768921 0.847 1.93361349547e-38
0.0297126524636 -0.0172020619526 0.845 1.78620684625e-38
0.0312024491147 -0.0171613470131 0.843 2.26537707262e-38
0.0327625715704 -0.0171613470131 0.843 2.34845977831e-38
0.0343226940261 -0.0171613470131 0.843 2.34867585853e-38
0.0358828164819 -0.0171613470131 0.843 2.34838494897e-38
0.0375317715329 -0.0172020619526 0.845 2.34842180312e-38
0.0390955953468 -0.0172020619526 0.845 2.34842180312e-38
0.0407556544723 -0.0172427768921 0.847 2.34889067758e-38
0.0424231163141 -0.0172834918317 0.849 1.66667650763e-38
0.0439943428442 -0.0172834918317 0.849 4.68362011315e-39
0.0455655693744 -0.0172834918317 0.849 1.94241449061e-38
0.0471367959045 -0.0172834918317 0.849 1.05676289246e-38
0.0487080224347 -0.0172834918317 0.849 2.0333205055e-38
0.0503976924253 -0.0173242067712 0.851 2.34946759216e-38
0.0519726203136 -0.0173242067712 0.851 2.3488550846e-38
0.053736317467 -0.0173852791805 0.854 2.34842166299e-38
0.0553167973925 -0.0173852791805 0.854 2.3489635451e-38
0.057030526211 -0.01742599412 0.856 2.34888787499e-38
0.0590255582481 -0.0175481389386 0.862 2.3487118719e-38
0.0607614952154 -0.0175888538782 0.864 2.34889039732e-38
0.0625770113828 -0.0176499262875 0.867 1.69376290629e-38
0.0643296044618 -0.017690641227 0.869 2.06277201571e-38
0.0662413559407 -0.0177720711061 0.873 2.04439538765e-38
0.0680124558104 -0.0178127860456 0.875 2.3482804121e-38
0.0696317999964 -0.0178127860456 0.875 2.34921227558e-38
0.0714954338195 -0.0178738584549 0.878 2.34821034718e-38
0.0731203300427 -0.0178738584549 0.878 2.09921040007e-38
0.0747452262659 -0.0178738584549 0.878 2.26497924398e-38
0.0765440863216 -0.0179145733944 0.88 2.34910661768e-38
0.0783503490936 -0.0179552883339 0.882 2.34914207053e-38
0.079982648033 -0.0179552883339 0.882 2.34860257062e-38
0.0197874606129 -0.0164895505108 0.891 2.04460628307e-38
0.021436415664 -0.0164895505108 0.891 1.90581243459e-38
0.0230853707151 -0.0164895505108 0.891 2.06254514549e-38
0.0247343257662 -0.0164895505108 0.891 1.91496039123e-38
0.0265313351428 -0.0165820844643 0.896 1.91510500523e-38
0.0281895435892 -0.0165820844643 0.896 1.87815388576e-38
0.0283487019892 -0.0157492788829 0.851 1.95205290171e-38
0.0298533040729 -0.0157122653015 0.849 1.74933209755e-38
0.0312764762774 -0.0156382381387 0.845 2.23775411677e-38
0.0328403000913 -0.0156382381387 0.845 2.34878319799e-38
0.0344041239052 -0.0156382381387 0.845 2.34827676873e-38
0.0359679477191 -0.0156382381387 0.845 2.3482043216e-38
0.0376206041283 -0.0156752517201 0.847 2.34838621014e-38
0.0392806632538 -0.0157122653015 0.849 2.34874648397e-38
0.0408518897839 -0.0157122653015 0.849 2.34867235528e-38
0.0425230529838 -0.0157492788829 0.851 2.34892767186e-38
0.0440979808721 -0.0157492788829 0.851 4.04079686341e-39
0.0456729087604 -0.0157492788829 0.851 2.39462009115e-39
0.0472478366487 -0.0157492788829 0.851 2.35047456524e-38
0.048822764537 -0.0157492788829 0.851 2.34928752531e-38
0.050575357616 -0.015804799255 0.854 2.34878263747e-38
0.0521558375415 -0.015804799255 0.854 2.34881879097e-38
0.0538621636437 -0.0158418128364 0.856 2.34885396356e-38
0.0555758924622 -0.0158788264178 0.858 2.34863830373e-38
0.057297023997 -0.0159158399992 0.86 2.24711647207e-38
0.059367933876 -0.016045387534 0.867 2.15491860013e-38
0.0611131242387 -0.0160824011154 0.869 2.13627082081e-38
0.0628657173177 -0.0161194146968 0.871 1.9524148571e-38
0.0644776587873 -0.0161194146968 0.871 2.3488592885e-38
0.0663931116244 -0.0161934418596 0.875 2.34950388579e-38
0.0682456413732 -0.0162489622317 0.878 2.34871299294e-38
0.0698705375964 -0.0162489622317 0.878 2.17310815484e-38
0.0716582935777 -0.0162859758131 0.88 2.08991895047e-38
0.073286891159 -0.0162859758131 0.88 2.34849382986e-38
0.0749154887403 -0.0162859758131 0.88 2.34907018392e-38
0.076978995903 -0.0163785097666 0.885 2.34914038897e-38
0.0786168468796 -0.0163785097666 0.885 2.34863942477e-38
0.0806174309539 -0.0164525369294 0.889 2.34824355795e-38
0.0822626846469 -0.0164525369294 0.889 2.34925109155e-38
0.0198540850594 -0.0148905637946 0.894 2.00776558592e-38
0.021436415664 -0.0148405954597 0.891 1.91528072805e-38
0.0230853707151 -0.0148405954597 0.891 1.96134477169e-38
0.0247343257662 -0.0148405954597 0.891 1.91521164404e-38
0.0265313351428 -0.0149238760178 0.896 1.86000202597e-38
0.0281895435892 -0.0149238760178 0.896 1.90602767403e-38
0.0283487019892 -0.0141743509946 0.851 1.91528254974e-38
0.0299236298775 -0.0141743509946 0.851 1.8876258226e-38
0.0313505034402 -0.0141077265481 0.847 2.17332465546e-38
0.0329180286122 -0.0141077265481 0.847 2.34892711134e-38
0.0344855537843 -0.0141077265481 0.847 2.34899605523e-38
0.0361382101935 -0.0141410387714 0.849 2.34831390314e-38
0.0377094367236 -0.0141410387714 0.849 2.34878123617e-38
0.0393731972073 -0.0141743509946 0.851 2.34838564962e-38
0.0409481250955 -0.0141743509946 0.851 2.34860285088e-38
0.0425230529838 -0.0141743509946 0.851 2.34943045775e-38
0.044253437914 -0.0142243193295 0.854 2.57139389242e-39
0.0458339178395 -0.0142243193295 0.854 1.99727042094e-38
0.047414397765 -0.0142243193295 0.854 2.3491818674e-38
0.0489948776905 -0.0142243193295 0.854 2.34892556992e-38
0.0506938010764 -0.0142576315527 0.856 2.34871061073e-38
0.0525222719973 -0.0143242559993 0.86 2.34881795019e-38
0.0541138559972 -0.0143242559993 0.86 2.29306574936e-38
0.0561588563692 -0.0144408487806 0.867 1.90562942501e-38
0.0578966440156 -0.0144741610039 0.869 1.93401272541e-38
0.0595048841271 -0.0144741610039 0.869 2.34943269983e-38
0.0611131242387 -0.0144741610039 0.869 1.94280096873e-38
0.0628657173177 -0.0145074732272 0.871 2.13673535125e-38
0.0644776587873 -0.0145074732272 0.871 2.34817433381e-38
0.0663931116244 -0.0145740976737 0.875 1.99786653331e-38
0.0682456413732 -0.0146240660085 0.878 2.17314486886e-38
0.0700296959964 -0.0146573782318 0.88 2.21009556794e-38
0.0716582935777 -0.0146573782318 0.88 2.34885354317e-38
0.073286891159 -0.0146573782318 0.88 2.34906878262e-38
0.0750857512147 -0.014690690455 0.882 2.34896046225e-38
0.0771529597355 -0.0147739710132 0.887 2.34888941642e-38
0.078972177261 -0.0148072832364 0.889 2.34860635413e-38
0.0806174309539 -0.0148072832364 0.889 2.34867179476e-38
0.0822626846469 -0.0148072832364 0.889 2.34979241315e-38
0.0182402929107 -0.0132656675714 0.896 1.57444906829e-38
0.0198540850594 -0.0132360567063 0.894 1.90613711544e-38
0.021436415664 -0.0131916404086 0.891 1.97985424285e-38
0.0230853707151 -0.0131916404086 0.891 1.91514185938e-38
0.0247343257662 -0.0131916404086 0.891 1.9152119243e-38
0.0263832808172 -0.0131916404086 0.891 1.87844129208e-38
0.027119851087 -0.0127622828645 0.862 1.86914942209e-38
0.028581887552 -0.0127030611342 0.858 1.90595704859e-38
0.0301697701938 -0.0127030611342 0.858 1.86907907691e-38
0.0316836256728 -0.0126734502691 0.856 2.27470285403e-38
0.0329957571332 -0.0125698122412 0.849 2.34878403877e-38
0.0345669836633 -0.0125698122412 0.849 2.34899661575e-38
0.0362233414307 -0.0125994231063 0.851 2.34831390314e-38
0.037798269319 -0.0125994231063 0.851 2.34842082221e-38
0.0395119981375 -0.012643839404 0.854 2.34870892917e-38
0.041092478063 -0.012643839404 0.854 2.34856375465e-38
0.0426729579885 -0.012643839404 0.854 2.34917626221e-38
0.0443570759419 -0.0126734502691 0.856 2.12779941108e-38
0.0460485966116 -0.0127030611342 0.858 2.34935857114e-38
0.0477475199975 -0.0127326719993 0.86 2.34892991394e-38
0.0493391039974 -0.0127326719993 0.86 2.34885200175e-38
0.0510491314578 -0.0127622828645 0.862 2.0443543296e-38
0.0527665616345 -0.0127918937296 0.864 2.01630285668e-38
0.0545543176158 -0.0128363100272 0.867 2.06254962964e-38
0.056288403904 -0.0128659208924 0.869 2.14548421809e-38
0.0580298929086 -0.0128955317575 0.871 1.98907955116e-38
0.0596418343783 -0.0128955317575 0.871 2.34892977381e-38
0.061253775848 -0.0128955317575 0.871 2.2012664067e-38
0.0631544232525 -0.0129547534877 0.875 2.19158553626e-38
0.0647737674385 -0.0129547534877 0.875 2.33923797324e-38
0.06662074515 -0.0129991697854 0.878 2.182473593e-38
0.068401098415 -0.0130287806505 0.88 2.32080291104e-38
0.0700296959964 -0.0130287806505 0.88 2.33023519113e-38
0.0716582935777 -0.0130287806505 0.88 2.34867277567e-38
0.0738698550659 -0.0131324186784 0.887 2.3490710247e-38
0.0756816698751 -0.0131620295435 0.889 2.34874606358e-38
0.0775008874006 -0.0131916404086 0.891 2.34881851071e-38
0.0791498424517 -0.0131916404086 0.891 2.34881907123e-38
0.0807987975028 -0.0131916404086 0.891 2.3484949509e-38
0.0827253544143 -0.0132360567063 0.894 2.35029660033e-38
0.0843798615026 -0.0132360567063 0.894 2.35098533853e-38
0.0182402929107 -0.011607459125 0.896 1.89691573077e-38
0.0198540850594 -0.011581549618 0.894 1.89680586897e-38
0.021436415664 -0.0115426853575 0.891 1.90602711352e-38
0.0230853707151 -0.0115426853575 0.891 1.90599236131e-38
0.0247343257662 -0.0115426853575 0.891 1.85985923366e-38
0.0263832808172 -0.0115426853575 0.891 1.91528381091e-38
0.027119851087 -0.0111669975064 0.862 1.92460721011e-38
0.0286485119985 -0.0111410879994 0.86 1.91535443635e-38
0.0302400959984 -0.0111410879994 0.86 1.76766388406e-38
0.0318316799983 -0.0111410879994 0.86 2.34838144572e-38
0.0333455354773 -0.0111151784924 0.858 2.3488536833e-38
0.034770558361 -0.0110633594785 0.854 2.34881556799e-38
0.0363510382865 -0.0110633594785 0.854 2.34824397834e-38
0.0380203508073 -0.0110892689855 0.856 2.34838733118e-38
0.039604532091 -0.0110892689855 0.856 2.34871019034e-38
0.0412849486862 -0.0111151784924 0.858 2.34849326934e-38
0.042872831328 -0.0111151784924 0.858 2.34867445723e-38
0.0444607139698 -0.0111151784924 0.858 2.3488912381e-38
0.0461559359976 -0.0111410879994 0.86 2.34903080743e-38
0.0478585607417 -0.0111669975064 0.862 2.34867305593e-38
0.0495685882021 -0.0111929070134 0.864 2.07168861797e-38
0.051345240109 -0.0112317712738 0.867 2.08138462243e-38
0.053071923681 -0.0112576807808 0.869 2.06294227347e-38
0.0546801637925 -0.0112576807808 0.869 2.32959031357e-38
0.0564179514389 -0.0112835902878 0.871 2.2744506203e-38
0.0582963906946 -0.0113354093017 0.875 2.20112627686e-38
0.0599157348806 -0.0113354093017 0.875 2.3394941306e-38
0.0615350790666 -0.0113354093017 0.875 2.09045368596e-38
0.0633709527037 -0.0113742735622 0.878 2.34857188218e-38
0.0649958489268 -0.0113742735622 0.878 2.24718681725e-38
0.0667725008337 -0.0114001830692 0.88 2.1544574328e-38
0.0685565554569 -0.0114260925761 0.882 2.28374235016e-38
0.0701888543963 -0.0114260925761 0.882 2.09034830832e-38
0.0722283027311 -0.0114908663436 0.887 2.34863886425e-38
0.0744528189729 -0.011581549618 0.894 2.34903543172e-38
0.0761073260612 -0.011581549618 0.894 2.34888871577e-38
0.0777618331494 -0.011581549618 0.894 2.34888857564e-38
0.0794163402377 -0.011581549618 0.894 2.34907060431e-38
0.081070847326 -0.011581549618 0.894 2.34849481077e-38
0.0827253544143 -0.011581549618 0.894 2.3505847073e-38
0.0843798615026 -0.011581549618 0.894 2.35098631944e-38
0.0182402929107 -0.00994925067855 0.896 1.90592019444e-38
0.0197874606129 -0.00989373030646 0.891 1.94276145211e-38
0.0213882980082 -0.00987152215763 0.889 1.91521066313e-38
0.0230335517011 -0.00987152215763 0.889 1.91528353065e-38
0.0246788053941 -0.00987152215763 0.889 1.88759079014e-38
0.026324059087 -0.00987152215763 0.889 1.88762554234e-38
0.027119851087 -0.00957171214834 0.862 1.87836912521e-38
0.028715136445 -0.00957171214834 0.862 1.8323437574e-38
0.0303104218031 -0.00957171214834 0.862 1.77706365403e-38
0.0318316799983 -0.0095495039995 0.86 2.26529944068e-38
0.0334232639983 -0.0095495039995 0.86 2.34863746295e-38
0.0350148479982 -0.0095495039995 0.86 2.34860130945e-38
0.0365213007609 -0.00952729585067 0.858 2.34842306429e-38
0.0381091834027 -0.00952729585067 0.858 2.34860523309e-38
0.0396970660444 -0.00952729585067 0.858 2.34860116932e-38
0.0413811839978 -0.0095495039995 0.86 2.34863662217e-38
0.0429727679978 -0.0095495039995 0.86 2.34870808839e-38
0.0445643519977 -0.0095495039995 0.86 2.34849425025e-38
0.0462632753836 -0.00957171214834 0.862 2.34827732925e-38
0.0481361626021 -0.00962723252043 0.867 2.10864296042e-38
0.0498554434579 -0.00964944066926 0.869 2.23757292888e-38
0.0514636835694 -0.00964944066926 0.869 2.3489208055e-38
0.0531940684996 -0.0096716488181 0.871 2.34874270047e-38
0.0548060099692 -0.0096716488181 0.871 2.32065605496e-38
0.0565474989738 -0.00969385696694 0.873 2.23735782956e-38
0.0582963906946 -0.00971606511577 0.875 2.34827831015e-38
0.0599157348806 -0.00971606511577 0.875 2.20977509098e-38
0.0617460564805 -0.00974937733903 0.878 2.26544615663e-38
0.0635153056711 -0.00977158548786 0.88 2.15467267225e-38
0.0651439032524 -0.00977158548786 0.88 2.15485245884e-38
0.0669242565174 -0.0097937936367 0.882 2.27445216173e-38
0.0689451980615 -0.00984931400879 0.887 2.34867473749e-38
0.0707459087963 -0.00987152215763 0.889 2.3489987177e-38
0.0727983118846 -0.00992704252972 0.894 2.34896410562e-38
0.0746193800891 -0.00994925067855 0.896 2.3488550846e-38
0.0762775885356 -0.00994925067855 0.896 2.34899843744e-38
0.077935796982 -0.00994925067855 0.896 2.34910507625e-38
0.0795940054284 -0.00994925067855 0.896 2.34881781006e-38
0.081070847326 -0.00992704252972 0.894 2.34878221708e-38
0.0827253544143 -0.00992704252972 0.894 2.35098337671e-38
0.0843798615026 -0.00992704252972 0.894 2.35098687996e-38
0.0197874606129 -0.00824477525538 0.891 1.93354315029e-38
0.0213882980082 -0.00822626846469 0.889 1.8598242012e-38
0.0230335517011 -0.00822626846469 0.889 1.9336488082e-38
0.0246788053941 -0.00822626846469 0.889 1.85996643299e-38
0.026324059087 -0.00822626846469 0.889 1.95226842141e-38
0.0271827741753 -0.00799493358098 0.864 1.86003523675e-38
0.028715136445 -0.00797642679028 0.862 1.96130945897e-38
0.0303104218031 -0.00797642679028 0.862 1.73085765885e-38
0.0319057071611 -0.00797642679028 0.862 2.34856123231e-38
0.0335009925192 -0.00797642679028 0.862 2.3489649464e-38
0.0350962778772 -0.00797642679028 0.862 2.34831390314e-38
0.0366064319981 -0.00795791999959 0.86 2.34849481077e-38
0.038198015998 -0.00795791999959 0.86 2.34878221708e-38
0.0398821339514 -0.00797642679028 0.862 2.34874410176e-38
0.0414774193095 -0.00797642679028 0.862 2.34863648204e-38
0.0430727046675 -0.00797642679028 0.862 2.34841998143e-38
0.0447716280535 -0.00799493358098 0.864 2.03445737894e-38
0.0465316238487 -0.00802269376702 0.867 2.2281012723e-38
0.0483582440905 -0.00805970734842 0.871 2.3489635451e-38
0.0500849276625 -0.00807821413911 0.873 2.34899899796e-38
0.0517005704903 -0.00807821413911 0.873 2.34849172791e-38
0.0533162133182 -0.00807821413911 0.873 2.10881882338e-38
0.054931856146 -0.00807821413911 0.873 2.09957039364e-38
0.056871367811 -0.00812448111586 0.878 2.14527290228e-38
0.0584962640342 -0.00812448111586 0.878 2.34874270047e-38
0.0602581105085 -0.00814298790655 0.88 2.22799309205e-38
0.062238337113 -0.00818925488329 0.885 2.34859934763e-38
0.0638761880897 -0.00818925488329 0.885 2.17328962299e-38
0.0656620933919 -0.00820776167399 0.887 2.29335848061e-38
0.0674554014104 -0.00822626846469 0.889 2.34925081129e-38
0.0692561121452 -0.00824477525538 0.891 2.33880637332e-38
0.0711438047963 -0.00827253544143 0.894 2.34867782035e-38
0.0729611716427 -0.00829104223213 0.896 2.34878375851e-38
0.0746193800891 -0.00829104223213 0.896 2.34881921136e-38
0.0762775885356 -0.00829104223213 0.896 2.34896186355e-38
0.077935796982 -0.00829104223213 0.896 2.34910507625e-38
0.0795940054284 -0.00829104223213 0.896 2.34896158329e-38
0.0812522138748 -0.00829104223213 0.896 2.3486743171e-38
0.0829104223213 -0.00829104223213 0.896 2.35098057411e-38
0.0845686307677 -0.00829104223213 0.896 2.35098758061e-38
0.0213882980082 -0.00658101477175 0.889 1.89688041805e-38
0.0230335517011 -0.00658101477175 0.889 1.89688041805e-38
0.024623285022 -0.00656620933919 0.887 1.8876258226e-38
0.0262648373568 -0.00656620933919 0.887 1.96127288508e-38
0.0279063896916 -0.00656620933919 0.887 1.89673174028e-38
0.028715136445 -0.00638114143223 0.862 1.98896842819e-38
0.0303104218031 -0.00638114143223 0.862 1.71216615903e-38
0.0319057071611 -0.00638114143223 0.862 2.34838621014e-38
0.0335009925192 -0.00638114143223 0.862 2.34845753623e-38
0.0350962778772 -0.00638114143223 0.862 2.34849439038e-38
0.0366915632353 -0.00638114143223 0.862 2.34849200817e-38
0.0382868485934 -0.00638114143223 0.862 2.34885312278e-38
0.0399746679049 -0.00639594686478 0.864 2.34856403491e-38
0.0417180075885 -0.00641815501362 0.867 2.29278184629e-38
0.0433225463419 -0.00641815501362 0.867 2.33901895029e-38
0.0450307231232 -0.00643296044618 0.869 2.34928149973e-38
0.0467463026208 -0.00644776587873 0.871 2.34903459094e-38
0.0484692848347 -0.00646257131129 0.873 2.26533657509e-38
0.0501996697648 -0.00647737674385 0.875 2.03445709868e-38
0.0518190139508 -0.00647737674385 0.875 2.20080355782e-38
0.0536215753646 -0.00649958489268 0.878 2.21949085375e-38
0.0552464715878 -0.00649958489268 0.878 2.21938687741e-38
0.0570009153459 -0.00651439032524 0.88 2.14573981493e-38
0.0587627618202 -0.0065291957578 0.882 2.34845347246e-38
0.0606004861364 -0.00655140390664 0.885 2.09906984983e-38
0.0623789887223 -0.00656620933919 0.887 2.34881809032e-38
0.0641648940246 -0.00658101477175 0.889 2.24686634029e-38
0.0659582020431 -0.00659582020431 0.891 2.22849559768e-38
0.0678347906197 -0.00661802835314 0.894 2.2190628972e-38
0.069489297708 -0.00661802835314 0.894 2.34874774514e-38
0.0713029631963 -0.0066328337857 0.896 2.3491071782e-38
0.0731240314008 -0.00664763921826 0.898 2.34899885783e-38
0.0747859412054 -0.00664763921826 0.898 2.34900039925e-38
0.07644785101 -0.00664763921826 0.898 2.3490682221e-38
0.0781097608145 -0.00664763921826 0.898 2.34892627056e-38
0.0800381684051 -0.00666984736709 0.901 2.3489273916e-38
0.0817056302469 -0.00666984736709 0.901 2.34863872412e-38
0.0833730920887 -0.00666984736709 0.901 2.35098127476e-38
0.0850405539305 -0.00666984736709 0.901 2.35098687996e-38
0.0213882980082 -0.00493576107881 0.889 1.87844157234e-38
0.0230335517011 -0.00493576107881 0.889 1.88766085506e-38
0.024623285022 -0.00492465700439 0.887 1.93354315029e-38
0.0262056156265 -0.00491355292998 0.885 1.90592019444e-38
0.0277490819706 -0.00489689681835 0.882 1.90606242624e-38
0.0292481320171 -0.00487468866951 0.878 1.87829639782e-38
0.0303807476077 -0.00479696014859 0.864 1.77680889797e-38
0.0319797343239 -0.00479696014859 0.864 2.33884294721e-38
0.0335787210401 -0.00479696014859 0.864 2.34871243242e-38
0.0351777077563 -0.00479696014859 0.864 2.34871299294e-38
0.0367766944725 -0.00479696014859 0.864 2.34842208338e-38
0.0385089300817 -0.00481361626021 0.867 2.3482790108e-38
0.0401134688351 -0.00481361626021 0.867 2.34863858399e-38
0.0417180075885 -0.00481361626021 0.867 2.3488165489e-38
0.0434224830117 -0.00482472033463 0.869 2.3484935496e-38
0.0451343611511 -0.00483582440905 0.871 2.17317793951e-38
0.0468536420069 -0.00484692848347 0.873 2.14526953916e-38
0.0485803255789 -0.00485803255789 0.875 2.00737448352e-38
0.0501996697648 -0.00485803255789 0.875 2.34867669931e-38
0.0519966791415 -0.00487468866951 0.878 2.17339317895e-38
0.0536215753646 -0.00487468866951 0.878 2.14548842198e-38
0.0553723177646 -0.00488579274393 0.88 2.20080355782e-38
0.0571304628807 -0.00489689681835 0.882 2.22911286966e-38
0.0590958840527 -0.00492465700439 0.887 2.24736646371e-38
0.0607374363875 -0.00492465700439 0.887 2.2191380068e-38
0.0625196403316 -0.00493576107881 0.889 2.34852816167e-38
0.0645257764432 -0.00496352126486 0.894 2.34799328605e-38
0.066328337857 -0.00497462533928 0.896 2.19165616171e-38
0.0679865463034 -0.00497462533928 0.896 2.34918144702e-38
0.0696447547499 -0.00497462533928 0.896 2.34881851071e-38
0.0714621215963 -0.00498572941369 0.898 2.34903669288e-38
0.0731240314008 -0.00498572941369 0.898 2.3488912381e-38
0.0750357828798 -0.00500238552532 0.901 2.34881865084e-38
0.0767032447216 -0.00500238552532 0.901 2.34885480434e-38
0.0783707065634 -0.00500238552532 0.901 2.34899885783e-38
0.0802158335958 -0.00501348959974 0.903 2.34885522473e-38
0.0818869967957 -0.00501348959974 0.903 2.34874704449e-38
0.0835581599956 -0.00501348959974 0.903 2.35098449775e-38
0.0852293231956 -0.00501348959974 0.903 2.35098702009e-38
0.0213882980082 -0.00329050738588 0.889 1.93368412092e-38
0.0229817326872 -0.0032831046696 0.887 1.97059936714e-38
0.024623285022 -0.0032831046696 0.887 1.93347154394e-38
0.0262056156265 -0.00327570195332 0.885 1.97967725885e-38
0.0277490819706 -0.0032645978789 0.882 1.83241564402e-38
0.0292481320171 -0.00324979244634 0.878 2.02591898714e-38
0.0306972137286 -0.00323128565565 0.873 1.86914689975e-38
0.0320907750681 -0.00320907750681 0.867 2.34838719105e-38
0.0336953138215 -0.00320907750681 0.867 2.34860215023e-38
0.0352998525749 -0.00320907750681 0.867 2.34856347439e-38
0.0369043913283 -0.00320907750681 0.867 2.34888647369e-38
0.0385089300817 -0.00320907750681 0.867 2.34856627699e-38
0.0402060027886 -0.00321648022309 0.869 2.34849453051e-38
0.0418142429001 -0.00321648022309 0.869 2.34820600315e-38
0.0435224196815 -0.00322388293937 0.871 2.03481442979e-38
0.045237999179 -0.00323128565565 0.873 2.12719180806e-38
0.0469609813929 -0.00323868837192 0.875 2.22838839835e-38
0.0485803255789 -0.00323868837192 0.875 2.20998430484e-38
0.0503717829183 -0.00324979244634 0.878 2.10857121394e-38
0.0521151226019 -0.00325719516262 0.88 2.34827746938e-38
0.0538658650018 -0.0032645978789 0.882 2.09020635678e-38
0.0556869332064 -0.00327570195332 0.885 2.32991247209e-38
0.0574543317179 -0.0032831046696 0.887 2.24733297268e-38
0.0592291329458 -0.00329050738588 0.889 2.12750850152e-38
0.0608743866387 -0.00329050738588 0.889 2.24676292447e-38
0.0630119209642 -0.00331641689285 0.896 2.12726215325e-38
0.0646701294106 -0.00331641689285 0.896 2.32969737278e-38
0.066328337857 -0.00331641689285 0.896 2.14531241889e-38
0.0681383019871 -0.00332381960913 0.898 2.15480943898e-38
0.0698002117917 -0.00332381960913 0.898 2.34921353675e-38
0.0717008591963 -0.00333492368355 0.901 2.33009295933e-38
0.073368321038 -0.00333492368355 0.901 2.34798431774e-38
0.0752023439961 -0.00334232639983 0.903 2.34925067116e-38
0.0771289009076 -0.00335343047424 0.906 2.34896130303e-38
0.0789795799773 -0.00336083319052 0.908 2.34899675588e-38
0.0808376617632 -0.0033682359068 0.91 2.3488189311e-38
0.0825217797166 -0.0033682359068 0.91 2.34925109155e-38
0.08420589767 -0.0033682359068 0.91 2.35098477801e-38
0.0858900156234 -0.0033682359068 0.91 2.35098842138e-38
0.0213882980082 -0.00164525369294 0.889 1.81361750538e-38
0.0229817326872 -0.0016415523348 0.887 1.93371915338e-38
0.024623285022 -0.0016415523348 0.887 1.94272613939e-38
0.0262056156265 -0.00163785097666 0.885 2.02581164767e-38
0.0277490819706 -0.00163229893945 0.882 1.86003705844e-38
0.0293147564636 -0.00162859758131 0.88 1.85060085471e-38
0.0308730282403 -0.00162489622317 0.878 1.94264752654e-38
0.0322388293937 -0.00161194146968 0.871 2.26559133115e-38
0.0337730423424 -0.00160824011154 0.869 2.34896298458e-38
0.035381282454 -0.00160824011154 0.869 2.34874396163e-38
0.0369895225655 -0.00160824011154 0.869 2.34874396163e-38
0.0385977626771 -0.00160824011154 0.869 2.3487813763e-38
0.0402985367421 -0.00161194146968 0.871 2.34817069043e-38
0.0419104782118 -0.00161194146968 0.871 2.14490590221e-38
0.0436223563512 -0.00161564282782 0.873 2.34806279045e-38
0.0453416372069 -0.00161934418596 0.875 2.34932031569e-38
0.047121990472 -0.00162489622317 0.878 2.34924814882e-38
0.0487468866951 -0.00162489622317 0.878 1.97057036026e-38
0.0504865250206 -0.00162859758131 0.88 2.19162084898e-38
0.0524112312531 -0.00163785097666 0.885 2.24697550144e-38
0.0541712270483 -0.0016415523348 0.887 2.21956540283e-38
0.0559386255599 -0.00164525369294 0.889 2.03484946225e-38
0.0575838792528 -0.00164525369294 0.889 2.30200617369e-38
0.0593623818388 -0.00164895505108 0.891 2.24715178479e-38
0.0610113368898 -0.00164895505108 0.891 2.15481364287e-38
0.0630119209642 -0.00165820844643 0.896 2.21012331365e-38
0.0646701294106 -0.00165820844643 0.896 2.23771684223e-38
0.0664763921826 -0.00166190980456 0.898 2.20973795657e-38
0.0681383019871 -0.00166190980456 0.898 2.02574102223e-38
0.0701888543963 -0.00167116319991 0.903 2.347601483e-38
0.0718600175963 -0.00167116319991 0.903 2.34856795855e-38
0.0737754704334 -0.00167671523712 0.906 2.34899983873e-38
0.0756187467868 -0.00168041659526 0.908 2.34907130496e-38
0.0774694258564 -0.0016841179534 0.91 2.34914249092e-38
0.0794144895587 -0.00168966999061 0.913 2.34899941834e-38
0.0811041595493 -0.00168966999061 0.913 2.34928598388e-38
0.0827938295399 -0.00168966999061 0.913 2.34939458451e-38
0.0844834995305 -0.00168966999061 0.913 2.35098393723e-38
0.0861731695211 -0.00168966999061 0.913 2.350988001e-38
0.020720202864 0.0 0.933 1.74929678483e-38
0.022446886436 0.0 0.933 1.75840844783e-38
0.0230335517011 0.0 0.889 1.81390407091e-38
0.0246788053941 0.0 0.889 1.979714113e-38
0.0262648373568 0.0 0.887 1.878334373e-38
0.0278434666032 0.0 0.885 1.96127288508e-38
0.0294813175799 0.0 0.885 1.94283333872e-38
0.0309433540449 0.0 0.88 1.85989076288e-38
0.0325719516262 0.0 0.88 2.32072696066e-38
0.0341228206866 0.0 0.878 2.34907088457e-38
0.0357477169098 0.0 0.878 2.34852732089e-38
0.0373726131329 0.0 0.878 2.34838466871e-38
0.0389975093561 0.0 0.878 2.34863732282e-38
0.0406224055793 0.0 0.878 2.34874256034e-38
0.0423435371141 0.0 0.88 2.34881598838e-38
0.0438721980256 0.0 0.878 2.34878235721e-38
0.0454970942488 0.0 0.878 2.28362968576e-38
0.047121990472 0.0 0.878 2.1913617489e-38
0.0488579274393 0.0 0.88 2.34903361003e-38
0.0506012671229 0.0 0.882 2.34935941192e-38
0.0525296747135 0.0 0.887 2.15488496896e-38
0.0542933718669 0.0 0.889 2.22835911121e-38
0.0560644717366 0.0 0.891 2.2193107869e-38
0.0577134267877 0.0 0.891 2.10857513757e-38
0.0595622551783 0.0 0.894 2.27495284567e-38
0.0612167622666 0.0 0.894 2.25615624846e-38
0.0631525725735 0.0 0.898 2.34853446751e-38
0.064814482378 0.0 0.898 2.13658877543e-38
0.0666984736709 0.0 0.901 2.2284642086e-38
0.0685176911964 0.0 0.903 2.13655402323e-38
0.0704220399591 0.0 0.906 2.34864194711e-38
0.0722579135962 0.0 0.908 2.34946997437e-38
0.0739383301915 0.0 0.908 2.34924814882e-38
0.0762017106937 0.0 0.915 2.3490682221e-38
0.0778950820425 0.0 0.915 2.34914165014e-38
0.07984939914 0.0 0.918 2.34921507818e-38
0.08128182474 0.0 0.915 2.34889067758e-38
0.0827938295399 0.0 0.913 2.34943157879e-38
0.0844834995305 0.0 0.913 2.3509837971e-38
0.0861731695211 0.0 0.913 2.350988001e-38
0.020720202864 0.001726683572 0.933 1.65720877468e-38
0.0223747099523 0.00172113153479 0.93 1.77684631263e-38
0.0240958414871 0.00172113153479 0.93 1.80461248119e-38
0.0246788053941 0.00164525369294 0.889 1.83227088988e-38
0.0262648373568 0.0016415523348 0.887 1.92446834144e-38
0.0279063896916 0.0016415523348 0.887 1.94290662663e-38
0.0295479420264 0.0016415523348 0.887 1.86904390432e-38
0.0311191685565 0.00163785097666 0.885 1.87844129208e-38
0.032645978789 0.00163229893945 0.882 2.34838284702e-38
0.0342005492075 0.00162859758131 0.88 2.34845823688e-38
0.0358291467888 0.00162859758131 0.88 2.34853012349e-38
0.0374577443701 0.00162859758131 0.88 2.3486743171e-38
0.0390863419515 0.00162859758131 0.88 2.34871019034e-38
0.0407149395328 0.00162859758131 0.88 2.34867165463e-38
0.0424397724257 0.00163229893945 0.882 2.34870991008e-38
0.0442219763698 0.00163785097666 0.885 2.34852984323e-38
0.0459634653743 0.0016415523348 0.887 2.34903262912e-38
0.0477123570952 0.00164525369294 0.889 2.34924492584e-38
0.0496352126486 0.00165450708829 0.894 2.16377830967e-38
0.0512897197369 0.00165450708829 0.894 2.34849116739e-38
0.0530626702856 0.00165820844643 0.896 2.08098651354e-38
0.054720878732 0.00165820844643 0.896 2.09006538616e-38
0.0563790871785 0.00165820844643 0.896 2.26505533449e-38
0.0581668431598 0.00166190980456 0.898 2.32998491922e-38
0.0601618751969 0.00167116319991 0.903 2.13648185636e-38
0.0618330383968 0.00167116319991 0.903 2.34928808583e-38
0.0637151790106 0.00167671523712 0.906 2.17293061033e-38
0.0655362472152 0.00168041659526 0.908 2.11829286216e-38
0.067364718136 0.0016841179534 0.91 2.24668487214e-38
0.0690488360894 0.0016841179534 0.91 2.34878151643e-38
0.0709661396056 0.00168966999061 0.913 2.34906808197e-38
0.0726558095962 0.00168966999061 0.913 2.34914277118e-38
0.074508339345 0.00169337134875 0.915 2.34924814882e-38
0.0762017106937 0.00169337134875 0.915 2.34910521638e-38
0.0781504757541 0.00169892338596 0.918 2.34899703614e-38
0.07984939914 0.00169892338596 0.918 2.34889095784e-38
0.08128182474 0.00169337134875 0.915 2.34928682466e-38
0.0829751960887 0.00169337134875 0.915 2.34975471822e-38
0.0846685674374 0.00169337134875 0.915 2.35098828126e-38
0.0863619387862 0.00169337134875 0.915 2.35098842138e-38
0.020720202864 0.00345336714401 0.933 1.78620964884e-38
0.0223265922965 0.00343486035331 0.928 1.74936741027e-38
0.0240440224732 0.00343486035331 0.928 1.7216729882e-38
0.0257614526498 0.00343486035331 0.928 1.73060192188e-38
0.0263832808172 0.00329791010215 0.891 1.85071155729e-38
0.0280322358683 0.00329791010215 0.891 1.86922144883e-38
0.0296145664729 0.00329050738588 0.889 1.99826057844e-38
0.0311894943612 0.0032831046696 0.887 1.78613804249e-38
0.0327570195332 0.00327570195332 0.885 2.34834823495e-38
0.0343948705098 0.00327570195332 0.885 2.34845795662e-38
0.0360327214865 0.00327570195332 0.885 2.34845893753e-38
0.0375428756073 0.0032645978789 0.882 2.34878291773e-38
0.0391751745468 0.0032645978789 0.882 2.34863886425e-38
0.0409462744165 0.00327570195332 0.885 2.34867445723e-38
0.0425841253931 0.00327570195332 0.885 2.34874592345e-38
0.0443219130396 0.0032831046696 0.887 2.34874620371e-38
0.0460671034023 0.00329050738588 0.889 2.34874984709e-38
0.0479807055603 0.00330901417657 0.894 2.34892416862e-38
0.0497462533928 0.00331641689285 0.896 2.34853026362e-38
0.0514044618392 0.00331641689285 0.896 2.34910885975e-38
0.0530626702856 0.00331641689285 0.896 1.97974914546e-38
0.054720878732 0.00331641689285 0.896 2.34853152479e-38
0.0565049333552 0.00332381960913 0.898 2.34853446751e-38
0.0581668431598 0.00332381960913 0.898 2.1363022099e-38
0.0601618751969 0.00334232639983 0.903 2.32058570977e-38
0.0620384637735 0.00335343047424 0.906 2.12715691573e-38
0.0637151790106 0.00335343047424 0.906 2.2186703935e-38
0.0658971296338 0.00337933998122 0.913 2.34896186355e-38
0.0675867996244 0.00337933998122 0.913 2.34928738518e-38
0.069276469615 0.00337933998122 0.913 2.34921409727e-38
0.0711215966475 0.0033867426975 0.915 2.34932367881e-38
0.0730537055962 0.00339784677192 0.918 2.34910591703e-38
0.0747526289822 0.00339784677192 0.918 2.34907116483e-38
0.0766181134844 0.00340524948819 0.92 2.34914151001e-38
0.0785761319401 0.00341635356261 0.923 2.34939290295e-38
0.0802843087214 0.00341635356261 0.923 2.34942919658e-38
0.0817259877167 0.00340524948819 0.92 2.34910535651e-38
0.0832472459119 0.00339784677192 0.918 2.34982310158e-38
0.0849461692979 0.00339784677192 0.918 2.35098603918e-38
0.0206091621199 0.00515229052996 0.928 1.80461416274e-38
0.0223265922965 0.00515229052996 0.928 1.78610272977e-38
0.0240440224732 0.00515229052996 0.928 1.77688316678e-38
0.0256781720917 0.00513563441834 0.925 1.76780653624e-38
0.0266793894684 0.00500238552532 0.901 1.67572034779e-38
0.0281895435892 0.00497462533928 0.896 1.8598965082e-38
0.0296811909194 0.00494686515323 0.891 1.84159989428e-38
0.0312598201658 0.00493576107881 0.889 1.82301601418e-38
0.032831046696 0.00492465700439 0.887 2.34835103755e-38
0.0344725990308 0.00492465700439 0.887 2.34895920108e-38
0.0360327214865 0.00491355292998 0.885 2.34878151643e-38
0.0376705724632 0.00491355292998 0.885 2.34892486927e-38
0.0393084234398 0.00491355292998 0.885 2.34842488597e-38
0.04103880837 0.00492465700439 0.887 2.3487466241e-38
0.0427765960164 0.00493576107881 0.889 2.34860215023e-38
0.0445217863791 0.00494686515323 0.891 2.34853082414e-38
0.0464298364999 0.00497462533928 0.896 2.34881907123e-38
0.0481953843324 0.00498572941369 0.898 2.34910493612e-38
0.0498572941369 0.00498572941369 0.898 2.34889235914e-38
0.0515192039415 0.00498572941369 0.898 2.30181994113e-38
0.0531811137461 0.00498572941369 0.898 2.25601163446e-38
0.0548430235506 0.00498572941369 0.898 2.08973313829e-38
0.0565049333552 0.00498572941369 0.898 2.34803168163e-38
0.0583611644621 0.00500238552532 0.901 2.25637134778e-38
0.0608281196619 0.00506900997183 0.913 2.30225602521e-38
0.0625177896526 0.00506900997183 0.913 2.32991247209e-38
0.0642074596432 0.00506900997183 0.913 2.34896340497e-38
0.0660414826012 0.00508011404625 0.915 2.34917864442e-38
0.06773485395 0.00508011404625 0.915 2.34910787885e-38
0.0694282252987 0.00508011404625 0.915 2.34896242407e-38
0.0713547822102 0.00509677015787 0.918 2.32043661162e-38
0.0732128639962 0.00510787423229 0.92 2.34938925958e-38
0.0751597783775 0.00512453034392 0.923 2.34914305144e-38
0.0772843579495 0.00515229052996 0.928 2.34914249092e-38
0.0791720506005 0.00516339460438 0.93 2.34935773036e-38
0.0808931821353 0.00516339460438 0.93 2.34914319157e-38
0.0826143136701 0.00516339460438 0.93 2.34914347183e-38
0.0843354452049 0.00516339460438 0.93 2.35061609638e-38
0.0206091621199 0.00686972070662 0.928 1.86922172909e-38
0.0223265922965 0.00686972070662 0.928 1.78617335521e-38
0.0240440224732 0.00686972070662 0.928 1.76773675158e-38
0.0256781720917 0.00684751255778 0.925 1.66635561028e-38
0.0266793894684 0.00666984736709 0.901 1.73100115182e-38
0.0282524666776 0.00664763921826 0.898 1.67557685482e-38
0.0297811275891 0.00661802835314 0.894 1.93375698844e-38
0.0314356346774 0.00661802835314 0.894 1.66624869121e-38
0.0329050738588 0.00658101477175 0.889 2.23746320721e-38
0.0344725990308 0.00656620933919 0.887 2.3487118719e-38
0.0361141513656 0.00656620933919 0.887 2.34882061266e-38
0.0377557037004 0.00656620933919 0.887 2.34896046225e-38
0.0393972560352 0.00656620933919 0.887 2.34863830373e-38
0.0411313423234 0.00658101477175 0.889 2.34878151643e-38
0.042872831328 0.00659582020431 0.891 2.34867417697e-38
0.0446716913837 0.00661802835314 0.894 2.34896200368e-38
0.0465334745278 0.00664763921826 0.898 2.3484226439e-38
0.0481953843324 0.00664763921826 0.898 2.34885396356e-38
0.0500238552532 0.00666984736709 0.901 2.09906018087e-38
0.051691317095 0.00666984736709 0.901 2.23735965125e-38
0.0533587789368 0.00666984736709 0.901 2.17275082373e-38
0.0550262407785 0.00666984736709 0.901 2.32025962762e-38
0.0566937026203 0.00666984736709 0.901 2.24639942764e-38
0.0592679972062 0.006773485395 0.915 2.34853068401e-38
0.060961368555 0.006773485395 0.915 2.12697670875e-38
0.0626547399037 0.006773485395 0.915 2.34817573511e-38
0.0643481112525 0.006773485395 0.915 2.34863732282e-38
0.0662580120524 0.00679569354383 0.918 2.34903809418e-38
0.0679569354383 0.00679569354383 0.918 2.3296979333e-38
0.0696558588243 0.00679569354383 0.918 2.34849677259e-38
0.0715102392521 0.00681049897639 0.92 2.34838873247e-38
0.0732128639962 0.00681049897639 0.92 2.34914613429e-38
0.0753226381356 0.00684751255778 0.925 2.34932059595e-38
0.0774509190657 0.00688452613918 0.93 2.34935618893e-38
0.0794274443121 0.00690673428801 0.933 2.34917766351e-38
0.0811541278841 0.00690673428801 0.933 2.34914417248e-38
0.0828808114561 0.00690673428801 0.933 2.34918004572e-38
0.0206091621199 0.00858715088327 0.928 1.73089283144e-38
0.0223265922965 0.00858715088327 0.928 1.77724063802e-38
0.0239662939522 0.00855939069723 0.925 1.77731350554e-38
0.0256781720917 0.00855939069723 0.925 1.73110807089e-38
0.0273308285009 0.00854088390653 0.923 1.73114338361e-38
0.0282524666776 0.00830954902282 0.898 1.74954285284e-38
0.0298477520357 0.00829104223213 0.896 1.74933237781e-38
0.0315059604821 0.00829104223213 0.896 1.80457885002e-38
0.0330901417657 0.00827253544143 0.894 2.26537553119e-38
0.034744648854 0.00827253544143 0.894 2.34888955655e-38
0.0362770111237 0.00824477525538 0.891 2.34845865727e-38
0.0378408349376 0.00822626846469 0.889 2.34888955655e-38
0.0394860886305 0.00822626846469 0.889 2.34863438009e-38
0.0412238762769 0.00824477525538 0.891 2.34881612851e-38
0.0430171842954 0.00827253544143 0.894 2.34892416862e-38
0.0450214697279 0.00833730920887 0.901 2.34885438395e-38
0.0466889315697 0.00833730920887 0.901 2.34899647562e-38
0.0483563934114 0.00833730920887 0.901 2.34877969475e-38
0.0501348959974 0.00835581599956 0.903 2.09963695532e-38
0.0518060591973 0.00835581599956 0.903 2.17328485858e-38
0.0534772223972 0.00835581599956 0.903 2.28353005344e-38
0.0551483855971 0.00835581599956 0.903 2.34921213545e-38
0.0571341642389 0.00840208297631 0.908 2.34849425025e-38
0.0592679972062 0.00846685674374 0.915 2.34870962982e-38
0.060961368555 0.00846685674374 0.915 1.91496585629e-38
0.0628601652804 0.00849461692979 0.918 2.3491471152e-38
0.0645590886664 0.00849461692979 0.918 2.34899927821e-38
0.0664023650198 0.00851312372049 0.92 2.34878375851e-38
0.0681049897639 0.00851312372049 0.92 2.34801780877e-38
0.069807614508 0.00851312372049 0.92 2.3486743171e-38
0.0717434248149 0.00854088390653 0.923 2.34849411012e-38
0.0736107599962 0.00855939069723 0.925 2.34878614072e-38
0.0757297875309 0.00860565767397 0.93 2.3496095437e-38
0.0778673218564 0.00865192465071 0.935 2.34950010229e-38
0.0795977067866 0.00865192465071 0.935 2.34906948327e-38
0.0813280917167 0.00865192465071 0.935 2.34939598581e-38
0.0833249744329 0.00867968483676 0.938 2.34921353675e-38
0.0206091621199 0.0103045810599 0.928 1.77699302858e-38
0.0223265922965 0.0103045810599 0.928 1.76798436102e-38
0.0239662939522 0.0102712688367 0.925 1.82334041477e-38
0.0256781720917 0.0102712688367 0.925 1.81416050853e-38
0.0273308285009 0.0102490606878 0.923 1.79539417937e-38
0.0287873129287 0.0101602280925 0.915 1.82312419442e-38
0.0300143131519 0.0100047710506 0.901 1.69412219922e-38
0.0316817749937 0.0100047710506 0.901 1.59273979676e-38
0.0332381960913 0.00997145882739 0.898 2.05339424613e-38
0.0348223773749 0.00994925067855 0.896 2.34878347825e-38
0.0364805858214 0.00994925067855 0.896 2.34874676423e-38
0.038223925505 0.00997145882739 0.898 2.34878081578e-38
0.0398858353096 0.00997145882739 0.898 2.348707668e-38
0.0416865460443 0.0100047710506 0.901 2.34892528966e-38
0.0433540078861 0.0100047710506 0.901 2.3487438215e-38
0.0451214063976 0.0100269791995 0.903 2.34842054195e-38
0.0467925695976 0.0100269791995 0.903 2.34802635669e-38
0.0486247418765 0.0100602914227 0.906 2.34856277374e-38
0.0503014571137 0.0100602914227 0.906 2.06237096409e-38
0.0519781723508 0.0100602914227 0.906 2.3487813763e-38
0.0537733310484 0.0100824995716 0.908 2.3492503909e-38
0.0557591096901 0.0101380199437 0.913 2.33898587965e-38
0.0577633951226 0.0101935403157 0.918 2.34889362031e-38
0.0594623185085 0.0101935403157 0.918 2.34860299101e-38
0.0611612418945 0.0101935403157 0.918 2.18261610505e-38
0.0628601652804 0.0101935403157 0.918 2.13622766082e-38
0.0646997402757 0.0102157484646 0.92 2.34874900631e-38
0.0664023650198 0.0102157484646 0.92 2.34914445274e-38
0.0683270712523 0.0102490606878 0.923 2.34881696928e-38
0.0700352480336 0.0102490606878 0.923 2.34867333619e-38
0.0721320674195 0.0103045810599 0.928 2.34917570169e-38
0.0740086559961 0.0103267892088 0.93 2.34863970503e-38
0.0761369369263 0.0103823095809 0.935 2.34982520353e-38
0.0778673218564 0.0103823095809 0.935 2.34914080936e-38
0.0798531004982 0.0104156218041 0.938 2.34989709014e-38
0.0815890374655 0.0104156218041 0.938 2.34889165849e-38
0.0833249744329 0.0104156218041 0.938 2.34935955205e-38
0.0239662939522 0.0119831469761 0.925 1.81397651804e-38
0.0256781720917 0.0119831469761 0.925 1.87865765256e-38
0.0273900502311 0.0119831469761 0.925 1.93382887505e-38
0.0287873129287 0.0118535994412 0.915 1.83220026444e-38
0.0300809375984 0.0116981423994 0.903 1.78617489664e-38
0.0317521007983 0.0116981423994 0.903 1.60192853118e-38
0.0334232639983 0.0116981423994 0.903 2.06258017795e-38
0.0350166986772 0.0116722328924 0.901 2.34907186548e-38
0.036684160519 0.0116722328924 0.901 2.34892655082e-38
0.038436753598 0.0116981423994 0.903 2.34870752787e-38
0.0401079167979 0.0116981423994 0.903 2.34877815332e-38
0.0417790799978 0.0116981423994 0.903 2.34899563484e-38
0.0434502431977 0.0116981423994 0.903 2.34863634191e-38
0.0452713114023 0.0117370066599 0.906 2.34860285088e-38
0.0469480266394 0.0117370066599 0.906 2.34881823045e-38
0.0486247418765 0.0117370066599 0.906 2.34892472914e-38
0.0504124978578 0.0117629161668 0.908 2.34899773679e-38
0.0520929144531 0.0117629161668 0.908 2.3490710247e-38
0.0538917745088 0.0117888256738 0.91 2.34896396549e-38
0.0558812545087 0.0118535994412 0.915 2.34928388193e-38
0.0577633951226 0.0118924637017 0.918 1.99818995299e-38
0.0594623185085 0.0118924637017 0.918 1.97010022463e-38
0.0611612418945 0.0118924637017 0.918 2.0346036745e-38
0.0629971155316 0.0119183732087 0.92 2.3489973164e-38
0.0646997402757 0.0119183732087 0.92 2.34870878904e-38
0.0667632474384 0.0119831469761 0.925 2.34856613686e-38
0.0688452613918 0.0120479207436 0.93 2.34838635027e-38
0.0705663929266 0.0120479207436 0.93 2.09913655164e-38
0.072676167066 0.012112694511 0.935 2.34885774707e-38
0.0744065519961 0.012112694511 0.935 2.34935618893e-38
0.0763812265635 0.0121515587715 0.938 2.34975499848e-38
0.0781171635308 0.0121515587715 0.938 2.34978975068e-38
0.0800233629726 0.0121774682784 0.94 2.34845781649e-38
0.0817630012981 0.0121774682784 0.94 2.16356461165e-38
0.0835026396236 0.0121774682784 0.94 2.34968535394e-38
0.0240440224732 0.0137394414132 0.928 1.87854821115e-38
0.0256781720917 0.0136950251156 0.925 1.79546774754e-38
0.0273900502311 0.0136950251156 0.925 1.92460749037e-38
0.0290390052822 0.0136654142505 0.923 1.91546219621e-38
0.0302474987147 0.0134433327621 0.908 1.98921898036e-38
0.0318575895053 0.013413721897 0.906 1.67547147718e-38
0.0335343047424 0.013413721897 0.906 2.05286147245e-38
0.0350944271982 0.0133693055993 0.903 2.34928472271e-38
0.0367655903981 0.0133693055993 0.903 2.34874844579e-38
0.0385644504538 0.013413721897 0.906 2.34878151643e-38
0.0402411656909 0.013413721897 0.906 2.34885382343e-38
0.041917880928 0.013413721897 0.906 2.34881612851e-38
0.0435945961652 0.013413721897 0.906 2.3486743171e-38
0.0453712480721 0.0134433327621 0.908 2.34878067565e-38
0.0470516646673 0.0134433327621 0.908 2.34874676423e-38
0.0488394206486 0.0134729436272 0.91 2.34914221066e-38
0.0506900997183 0.0135173599249 0.913 2.34910465586e-38
0.0524945118112 0.01354697079 0.915 2.34910493612e-38
0.05418788316 0.01354697079 0.915 2.18189401595e-38
0.0560644717366 0.0135913870877 0.918 2.34885704642e-38
0.0578892412993 0.0136209979528 0.92 1.81361722512e-38
0.0595918660434 0.0136209979528 0.92 2.33005918804e-38
0.0612944907875 0.0136209979528 0.92 2.34899675588e-38
0.0632025409083 0.0136654142505 0.923 2.34878263747e-38
0.0652623467129 0.0137394414132 0.928 2.21938561624e-38
0.067124129857 0.0137690522784 0.93 2.23750552642e-38
0.0690673428801 0.013813468576 0.933 2.24669005694e-38
0.0707940264521 0.013813468576 0.933 2.34820866562e-38
0.072676167066 0.0138430794411 0.935 2.3491433317e-38
0.0746452895961 0.0138874957388 0.938 2.34989610923e-38
0.0765440863216 0.0139171066039 0.94 2.34892486927e-38
0.0782837246471 0.0139171066039 0.94 1.87818919848e-38
0.0800233629726 0.0139171066039 0.94 2.05314831825e-38
0.0820239470469 0.0139615229016 0.943 2.34885228201e-38
0.0240440224732 0.0154568715899 0.928 1.89677251807e-38
0.0257614526498 0.0154568715899 0.928 1.795358166e-38
0.0273900502311 0.015406903255 0.925 1.86907907691e-38
0.0290390052822 0.0153735910318 0.923 1.95226786089e-38
0.0302474987147 0.0151237493574 0.908 1.93368804455e-38
0.03192791531 0.0151237493574 0.908 1.81386903845e-38
0.0336083319052 0.0151237493574 0.908 2.29270575579e-38
0.0352110199796 0.0150904371341 0.906 2.34892767186e-38
0.0368877352167 0.0150904371341 0.906 2.34899843744e-38
0.0385644504538 0.0150904371341 0.906 2.34853068401e-38
0.0402411656909 0.0150904371341 0.906 2.34842222351e-38
0.0420104148815 0.0151237493574 0.908 2.34914249092e-38
0.0436908314768 0.0151237493574 0.908 2.34881977188e-38
0.0454711847418 0.0151570615806 0.91 2.34896242407e-38
0.0471553026952 0.0151570615806 0.91 2.3487146745e-38
0.0491077691137 0.0152403421387 0.915 2.3490306673e-38
0.0509677015787 0.0152903104736 0.918 1.64741145634e-38
0.052781367067 0.0153236226969 0.92 2.34975149523e-38
0.0544839918111 0.0153236226969 0.92 2.18218114201e-38
0.0563698337831 0.0153735910318 0.923 2.34824145601e-38
0.0580780105644 0.0153735910318 0.923 2.34870976995e-38
0.0597861873457 0.0153735910318 0.923 2.34932325842e-38
0.0618274863596 0.0154568715899 0.928 2.34907368716e-38
0.0636818667874 0.0154901838131 0.93 2.18214610955e-38
0.0656139757361 0.015540152148 0.933 2.20984389473e-38
0.0673406593081 0.015540152148 0.933 2.26512539941e-38
0.0692153972057 0.0155734643713 0.935 2.34878628085e-38
0.0709457821358 0.0155734643713 0.935 2.35011274997e-38
0.0729093526288 0.0156234327062 0.938 2.34978919016e-38
0.0748044479961 0.0156567449294 0.94 2.05318363097e-38
0.077032665596 0.0157566815992 0.946 1.78542506183e-38
0.0787834079959 0.0157566815992 0.946 1.63873994118e-38
0.0805341503958 0.0157566815992 0.946 2.01652524275e-38
0.0822848927957 0.0157566815992 0.946 2.34853180505e-38
0.0240440224732 0.0171743017665 0.928 1.82301601418e-38
0.0257614526498 0.0171743017665 0.928 1.84145514015e-38
0.0274788828265 0.0171743017665 0.928 1.93365161079e-38
0.0291019283706 0.0171187813945 0.925 1.88773148051e-38
0.0306472453938 0.017026247441 0.92 1.95219807623e-38
0.0319982411146 0.016841179534 0.91 1.86922004753e-38
