# .PCD v0.7 - Point Cloud Data file format
VERSION 0.7
FIELDS x y z rgb
SIZE 4 4 4 4
TYPE F F F F
COUNT 1 1 1 1
WIDTH 841
HEIGHT 1
VIEWPOINT 0 0 0 1 0 0 0
POINTS 841
DATA ascii
0.0132582648551 -0.100173556683 0.796 1.65941399808e-38
0.0147314053946 -0.100173556683 0.796 1.54870875693e-38
0.016204545934 -0.100173556683 0.796 1.66852636173e-38
0.0176776864735 -0.100173556683 0.796 1.26304537693e-38
0.0191989446688 -0.100425249037 0.798 6.0255833966e-44
0.0206757865664 -0.100425249037 0.798 2.16685093681e-38
0.022152628464 -0.100425249037 0.798 2.02819819909e-38
0.0236294703616 -0.100425249037 0.798 1.95447728818e-38
0.0251063122592 -0.100425249037 0.798 1.80703630714e-38
0.0265831541568 -0.100425249037 0.798 2.10202532842e-38
0.028130321859 -0.10067694139 0.8 1.54021352512e-38
0.0297219058589 -0.10105447992 0.803 1.82587452291e-38
0.0312080011519 -0.10105447992 0.803 1.8346226891e-38
0.0327755263239 -0.101306172274 0.805 1.93600256923e-38
0.0343504542122 -0.101557864627 0.807 1.86213872587e-38
0.0359327848167 -0.101809556981 0.809 1.8161482504e-38
0.0374299841841 -0.101809556981 0.809 1.91749113625e-38
0.0390234188631 -0.102061249334 0.811 1.89919494272e-38
0.0406242562583 -0.102312941688 0.813 1.80710819375e-38
0.042128858342 -0.102312941688 0.813 1.83465926299e-38
0.0437407998117 -0.102564634041 0.815 1.84380721962e-38
0.0453601439976 -0.102816326395 0.817 1.8806133047e-38
0.0468721487976 -0.102816326395 0.817 1.88061302444e-38
0.0485025970579 -0.103068018748 0.819 1.91745582353e-38
0.050018303216 -0.103068018748 0.819 1.88064987859e-38
0.0515340093741 -0.103068018748 0.819 2.10177365522e-38
-0.0426803607048 -0.109984006431 0.887 1.9908863854e-38
-0.0409462744165 -0.109736015436 0.885 2.00939781837e-38
-0.0391751745468 -0.109364028943 0.882 2.14769126317e-38
-0.0374577443701 -0.109116037948 0.88 1.2903444927e-38
-0.0357477169098 -0.108868046952 0.878 1.42878044955e-38
-0.0339284993843 -0.108248069464 0.873 1.32733036437e-38
-0.0322388293937 -0.108000078469 0.871 1.41952557384e-38
-0.0305565621193 -0.107752087473 0.869 1.39193737019e-38
-0.0288816975613 -0.107504096478 0.867 7.378171325e-39
-0.027119851087 -0.10688411899 0.862 1.39215457146e-38
-0.0254061222684 -0.106388136999 0.858 1.52972620741e-38
-0.0237627192546 -0.106140146004 0.856 8.65961533038e-39
-0.0220489904361 -0.105520168515 0.851 1.29974706526e-38
-0.0203297095803 -0.104776195529 0.845 1.36428008253e-38
-0.0187214694688 -0.104528204534 0.843 1.40087190907e-38
-0.0171206320735 -0.104280213539 0.841 1.36420819592e-38
-0.0154901838131 -0.103784231548 0.837 1.38253816074e-38
-0.0138745409853 -0.103288249557 0.833 1.39172269127e-38
-0.0123329253203 -0.103288249557 0.833 1.35477381388e-38
-0.0107654001483 -0.103040258562 0.831 1.37350006591e-38
-0.00900540435302 -0.100560348609 0.811 1.33669370057e-38
-0.00746749004612 -0.100064366618 0.807 1.36431539525e-38
-0.00594438117178 -0.0995683846274 0.803 1.32736539683e-38
-0.00445273384163 -0.0994443891297 0.802 1.34580382215e-38
-0.00294628107892 -0.0987004161437 0.796 1.36406372205e-38
-0.00146943918132 -0.0984524251484 0.794 1.27186809219e-38
0.0 -0.098204434153 0.792 1.58544309552e-38
0.00146573782318 -0.098204434153 0.792 1.92667566678e-38
0.00293147564636 -0.098204434153 0.792 1.84384225208e-38
0.00440831754396 -0.0984524251484 0.794 1.80692840716e-38
0.00587775672528 -0.0984524251484 0.794 1.83462240884e-38
0.00736570269729 -0.0987004161437 0.796 1.78863403532e-38
0.00883884323675 -0.0987004161437 0.796 1.77019532973e-38
0.0103119837762 -0.0987004161437 0.796 1.78856186845e-38
0.0118147351808 -0.098948407139 0.798 1.71476865053e-38
0.0132915770784 -0.098948407139 0.798 1.71473109574e-38
0.014768418976 -0.098948407139 0.798 1.59477139927e-38
0.0162452608736 -0.098948407139 0.798 1.61310108383e-38
0.0177221027712 -0.098948407139 0.798 1.46587590275e-38
0.0191989446688 -0.098948407139 0.798 1.16307772539e-43
0.0206757865664 -0.098948407139 0.798 2.24993112016e-38
0.022152628464 -0.098948407139 0.798 2.00043259106e-38
0.0236294703616 -0.098948407139 0.798 1.97288110143e-38
0.0251692353475 -0.0991963981344 0.8 1.85320628894e-38
0.0266497786033 -0.0991963981344 0.8 1.86235368506e-38
0.0282006476636 -0.0994443891297 0.802 1.8438442139e-38
0.0297219058589 -0.0995683846274 0.803 1.87143003534e-38
0.0312857296728 -0.0998163756227 0.805 1.87139360158e-38
0.0328569562029 -0.100064366618 0.807 1.83458765664e-38
0.0344355854494 -0.100312357613 0.809 1.86213844561e-38
0.0359327848167 -0.100312357613 0.809 1.83455080249e-38
0.0375225181376 -0.100560348609 0.811 1.88068519131e-38
0.0391196541747 -0.100808339604 0.813 1.85306209533e-38
0.0407241929281 -0.101056330599 0.815 1.89915963e-38
0.0422324963699 -0.101056330599 0.815 1.88994006702e-38
0.0438481391977 -0.101304321595 0.817 1.9175641439e-38
0.0453601439976 -0.101304321595 0.817 1.98202807716e-38
0.0469868908999 -0.10155231259 0.819 1.91749113625e-38
0.0485025970579 -0.10155231259 0.819 1.88994034727e-38
0.0501404480346 -0.101800303585 0.821 1.84384253234e-38
0.0516598555508 -0.101800303585 0.821 2.04649159002e-38
-0.0427765960164 -0.108586743734 0.889 2.03687672074e-38
-0.04103880837 -0.108342454097 0.887 1.94479025203e-38
-0.0393084234398 -0.108098164459 0.885 2.13836436072e-38
-0.0374577443701 -0.107487440366 0.88 1.52083160554e-38
-0.0357477169098 -0.107243150729 0.878 1.34587696993e-38
-0.0339284993843 -0.106632426636 0.873 1.37349838435e-38
-0.0322388293937 -0.106388136999 0.871 1.44721999591e-38
-0.0305565621193 -0.106143847362 0.869 1.0139721419e-38
-0.0288816975613 -0.105899557725 0.867 1.20780436977e-38
-0.0271827741753 -0.105533123269 0.864 1.31818100643e-38
-0.0254653439987 -0.105044543995 0.86 1.39147199897e-38
-0.0237627192546 -0.10455596472 0.856 1.21680056579e-38
-0.0221785379709 -0.10455596472 0.856 8.48276165509e-39
-0.0203778272361 -0.103456661353 0.847 1.27269429776e-38
-0.0187658857665 -0.103212371716 0.845 1.34602088328e-38
-0.0171613470131 -0.102968082078 0.843 1.32733036437e-38
-0.0156012245573 -0.102968082078 0.843 1.38246781556e-38
-0.0139744776551 -0.102479502804 0.839 1.37317734687e-38
-0.0123625361854 -0.10199092353 0.835 1.33633468791e-38
-0.0107654001483 -0.101502344255 0.831 1.38250284802e-38
-0.00907202879953 -0.0997923167948 0.817 1.38260822567e-38
-0.00750450362752 -0.0990594478832 0.811 1.35480856608e-38
-0.00595918660434 -0.0983265789716 0.805 1.40094253451e-38
-0.00446938995326 -0.0983265789716 0.805 1.39183199255e-38
-0.00297219058589 -0.0980822893344 0.803 1.38253816074e-38
-0.0014768418976 -0.0974715652414 0.798 1.28123212904e-38
0.0 -0.0974715652414 0.798 1.57629373759e-38
0.00146943918132 -0.096982985967 0.794 1.85295419535e-38
0.00293887836264 -0.096982985967 0.794 1.91753009235e-38
0.00440831754396 -0.096982985967 0.794 1.84384253234e-38
0.00589256215783 -0.0972272756042 0.796 1.85306181507e-38
0.00736570269729 -0.0972272756042 0.796 1.81629328479e-38
0.00883884323675 -0.0972272756042 0.796 1.78863375506e-38
0.0103378932832 -0.0974715652414 0.798 1.77934230546e-38
0.0118147351808 -0.0974715652414 0.798 1.73324477079e-38
0.0132915770784 -0.0974715652414 0.798 1.68711192339e-38
0.014768418976 -0.0974715652414 0.798 1.62243050862e-38
0.0162859758131 -0.0977158548786 0.8 1.65927274719e-38
0.0177665190688 -0.0977158548786 0.8 1.63182607469e-38
0.0192470623246 -0.0977158548786 0.8 1.0369608636e-43
0.0207276055803 -0.0977158548786 0.8 2.04714151225e-38
0.0222081488361 -0.0977158548786 0.8 2.02823225064e-38
0.0236886920918 -0.0977158548786 0.8 2.00057482285e-38
0.0252321584359 -0.0979601445158 0.802 1.78852683598e-38
0.026749715273 -0.0980822893344 0.803 1.77012498455e-38
0.0283061363706 -0.0983265789716 0.805 1.8715735283e-38
0.0297959330217 -0.0983265789716 0.805 1.90837947325e-38
0.0313634581937 -0.0985708686088 0.807 1.89912459754e-38
0.0328569562029 -0.0985708686088 0.807 1.97291641415e-38
0.0344355854494 -0.098815158246 0.809 1.91742051081e-38
0.0359327848167 -0.098815158246 0.809 1.89905299119e-38
0.0376150520911 -0.0993037375204 0.813 1.88990503455e-38
0.0392158894863 -0.0995480271576 0.815 1.88983314794e-38
0.0408241295979 -0.0997923167948 0.817 1.87153821558e-38
0.0423361343978 -0.0997923167948 0.817 1.87160884102e-38
0.0438481391977 -0.0997923167948 0.817 1.92689062596e-38
0.0453601439976 -0.0997923167948 0.817 1.85306237559e-38
0.0469868908999 -0.100036606432 0.819 1.87135870925e-38
0.0485025970579 -0.100036606432 0.819 1.9175641439e-38
0.0501404480346 -0.100280896069 0.821 1.83465982351e-38
0.0516598555508 -0.100280896069 0.821 2.17553015911e-38
-0.0427765960164 -0.106941490041 0.889 2.00939613681e-38
-0.04103880837 -0.106700901762 0.887 1.97251984669e-38
-0.0393972560352 -0.106700901762 0.887 2.03694958826e-38
-0.0376705724632 -0.106460313483 0.885 1.55763755048e-38
-0.0358291467888 -0.105858842785 0.88 1.31811080138e-38
-0.0340062279052 -0.105257372088 0.875 1.47484239124e-38
-0.0322388293937 -0.104776195529 0.871 1.42878199098e-38
-0.0305565621193 -0.10453560725 0.869 1.13382828241e-38
-0.0288816975613 -0.104295018971 0.867 1.32701002754e-38
-0.0271827741753 -0.103934136553 0.864 1.4560776035e-38
-0.0255245657289 -0.103693548274 0.862 1.41026747515e-38
-0.0238182396267 -0.103212371716 0.858 1.04177404357e-38
-0.0221785379709 -0.102971783436 0.856 8.11971885415e-39
-0.0203778272361 -0.101889136181 0.847 5.35495978663e-39
-0.0187658857665 -0.101648547902 0.845 1.39237233324e-38
-0.0172020619526 -0.101648547902 0.845 1.39193765045e-38
-0.0156012245573 -0.101407959623 0.843 1.37324769206e-38
-0.0140077898783 -0.101167371344 0.841 1.3824675353e-38
-0.0123921470505 -0.100686194785 0.837 1.35498835268e-38
-0.0107913096553 -0.100205018227 0.833 1.36402812907e-38
-0.00907202879953 -0.0982803119949 0.817 1.43782022594e-38
-0.00752301041821 -0.0977991354368 0.813 1.35484345841e-38
-0.00595918660434 -0.0968367823205 0.805 1.42845422726e-38
-0.00446938995326 -0.0968367823205 0.805 1.41008894972e-38
-0.00297959330217 -0.0968367823205 0.805 1.38250312828e-38
-0.00148609529295 -0.0965961940415 0.803 1.32733218605e-38
0.0 -0.096475899902 0.802 1.5579639129e-38
0.00148054325574 -0.0962353116229 0.8 1.93603760169e-38
0.00295368379519 -0.0959947233438 0.798 1.82540284585e-38
0.00443052569279 -0.0959947233438 0.798 1.84387784506e-38
0.00592217302295 -0.0962353116229 0.8 1.85306237559e-38
0.00740271627868 -0.0962353116229 0.8 1.76083115274e-38
0.00888325953442 -0.0962353116229 0.8 1.82536809365e-38
0.0103638027902 -0.0962353116229 0.8 1.82536781339e-38
0.011873956911 -0.096475899902 0.802 1.82540340637e-38
0.0133582015249 -0.096475899902 0.802 1.69625861886e-38
0.0148424461388 -0.096475899902 0.802 1.75164662222e-38
0.0163266907526 -0.096475899902 0.802 1.75164634196e-38
0.0178109353665 -0.096475899902 0.802 1.80692840716e-38
0.0193192388083 -0.0965961940415 0.803 8.11183094509e-39
0.0208053341012 -0.0965961940415 0.803 2.11092287302e-38
0.0222636692081 -0.096475899902 0.802 1.8161858052e-38
0.023747913822 -0.096475899902 0.802 1.77962774996e-38
0.0252636199801 -0.0965961940415 0.803 1.90834444079e-38
0.026882964166 -0.0970773705996 0.807 1.85291916289e-38
0.0284467879799 -0.0973179588787 0.809 1.85302692274e-38
0.0299439873473 -0.0973179588787 0.809 1.81625615038e-38
0.0314411867146 -0.0973179588787 0.809 1.96376817726e-38
0.032938386082 -0.0973179588787 0.809 1.81629118285e-38
0.0345207166866 -0.0975585471577 0.811 2.0557477269e-38
0.0361104500074 -0.0977991354368 0.813 1.87142835378e-38
0.0377075860445 -0.0980397237158 0.815 1.33713006492e-38
0.039312124798 -0.0982803119949 0.817 1.91752911144e-38
0.0408241295979 -0.0982803119949 0.817 1.98199276444e-38
0.0424397724257 -0.0985209002739 0.819 1.86238927804e-38
0.0439554785838 -0.0985209002739 0.819 1.89011985361e-38
0.0454711847418 -0.0985209002739 0.819 1.87146534806e-38
0.0471016330022 -0.098761488553 0.821 1.88068547157e-38
0.0486210405184 -0.098761488553 0.821 1.88986944157e-38
0.0501404480346 -0.098761488553 0.821 1.9637331448e-38
0.0516598555508 -0.098761488553 0.821 2.01879744821e-38
0.053179263067 -0.098761488553 0.821 2.05538801358e-38
-0.042872831328 -0.105533123269 0.891 1.96315482892e-38
-0.0412238762769 -0.105533123269 0.891 1.94486087747e-38
-0.0393972560352 -0.105059349427 0.887 2.14772629563e-38
-0.0376705724632 -0.104822462506 0.885 1.74213965292e-38
-0.0359105766679 -0.104467132125 0.882 1.308963125e-38
-0.0341228206866 -0.103993358283 0.878 1.36417316346e-38
-0.0323128565565 -0.103401140981 0.873 1.38271766708e-38
-0.030626887924 -0.10316425406 0.871 1.32740197072e-38
-0.0289483220078 -0.102927367139 0.869 1.31753851109e-38
-0.0272771588079 -0.102690480218 0.867 1.43732080317e-38
-0.0255245657289 -0.102098262916 0.862 1.55778244474e-38
-0.0238737599988 -0.101861375995 0.86 1.13360996011e-38
-0.0222303569849 -0.101624489074 0.858 8.20832015345e-39
-0.0203778272361 -0.100321611009 0.847 7.56406197409e-39
-0.0187658857665 -0.100084724088 0.845 8.75829476823e-39
-0.0172020619526 -0.100084724088 0.845 1.25393665665e-38
-0.0156012245573 -0.0998478371669 0.843 1.35505869786e-38
-0.0140077898783 -0.099610950246 0.841 1.39172269127e-38
-0.0123921470505 -0.0991371764041 0.837 1.32733008411e-38
-0.0107913096553 -0.0986634025623 0.833 1.34573347697e-38
-0.00904982065069 -0.096531420274 0.815 1.32733036437e-38
-0.00752301041821 -0.0962945333531 0.813 1.30892641098e-38
-0.00598879746946 -0.0958207595113 0.809 1.52079657308e-38
-0.00448049402767 -0.0955838725904 0.807 1.37324797232e-38
-0.00297959330217 -0.0953469856695 0.805 1.38257711684e-38
-0.00148609529295 -0.0951100987485 0.803 1.27204956034e-38
0.0 -0.0949916552881 0.802 1.54877924224e-38
0.00148424461388 -0.0949916552881 0.802 1.87150066078e-38
0.00296108651147 -0.0947547683672 0.8 1.78848998183e-38
0.00444162976721 -0.0947547683672 0.8 1.81614853066e-38
0.0059369784555 -0.0949916552881 0.802 1.74228426692e-38
0.00742122306938 -0.0949916552881 0.802 1.88979517275e-38
0.00890546768326 -0.0949916552881 0.802 1.77927027872e-38
0.0103897122971 -0.0949916552881 0.802 1.779234966e-38
0.0118887623436 -0.0951100987485 0.803 1.77930755326e-38
0.0133748576365 -0.0951100987485 0.803 1.74242902105e-38
0.0148609529295 -0.0951100987485 0.803 1.73324505105e-38
0.0163470482224 -0.0951100987485 0.803 1.7793420252e-38
0.0178331435154 -0.0951100987485 0.803 1.80692868742e-38
0.0193192388083 -0.0951100987485 0.803 1.99117603379e-38
0.0208053341012 -0.0951100987485 0.803 1.37349978565e-38
0.0223469497663 -0.0953469856695 0.805 2.27010351221e-43
0.0238367464174 -0.0953469856695 0.805 1.74261427271e-38
0.0253894661568 -0.0955838725904 0.807 1.88090029062e-38
0.0269495886125 -0.0958207595113 0.809 1.85306237559e-38
0.0285171137846 -0.0960576464322 0.811 1.87146562832e-38
0.0300180145101 -0.0960576464322 0.811 1.91759931649e-38
0.0315966437565 -0.0962945333531 0.813 2.00050391715e-38
0.0331012458401 -0.0962945333531 0.813 1.87150038052e-38
0.034690979161 -0.096531420274 0.815 1.37401153985e-38
0.0362881151981 -0.096768307195 0.817 9.3165020115e-39
0.0378926539515 -0.0970051941159 0.819 1.14381183332e-38
0.0394083601096 -0.0970051941159 0.819 1.84409560685e-38
0.0409240662676 -0.0970051941159 0.819 1.17107395482e-38
0.0425434104536 -0.0972420810368 0.821 1.92700272984e-38
0.0440628179698 -0.0972420810368 0.821 1.91770791712e-38
0.045582225486 -0.0972420810368 0.821 1.88994006702e-38
0.0472163751045 -0.0974789679577 0.823 1.88990475429e-38
0.0486210405184 -0.0972420810368 0.821 1.94525996727e-38
0.0501404480346 -0.0972420810368 0.821 1.91759903623e-38
0.0516598555508 -0.0972420810368 0.821 2.02801673094e-38
-0.0430171842954 -0.104233946562 0.894 1.97251984669e-38
-0.0413626772071 -0.104233946562 0.894 1.95411799525e-38
-0.0394860886305 -0.103650982655 0.889 2.00028615537e-38
-0.0377557037004 -0.103417797092 0.887 1.79749234356e-38
-0.0361141513656 -0.103417797092 0.887 1.3274375637e-38
-0.0341228206866 -0.10236846206 0.878 1.39186856644e-38
-0.0323868837192 -0.102018683716 0.875 1.38264774228e-38
-0.0306972137286 -0.101785498153 0.873 1.41041391084e-38
-0.0290149464543 -0.10155231259 0.871 1.07858671474e-38
-0.0272771588079 -0.101085941465 0.867 1.21680631111e-38
-0.0255837874591 -0.10073616312 0.864 1.54848679125e-38
-0.0239292803708 -0.100502977558 0.862 1.15236900253e-38
-0.0222821759988 -0.100269791995 0.86 1.29999341353e-38
-0.020425944892 -0.0989872713995 0.849 8.84865049321e-39
-0.0188103020641 -0.0987540858367 0.847 1.2723057177e-38
-0.0172020619526 -0.0985209002739 0.845 7.56188155368e-39
-0.0156012245573 -0.0982877147112 0.843 1.30017488169e-38
-0.0140077898783 -0.0980545291484 0.841 1.33672929356e-38
-0.0123921470505 -0.0975881580228 0.837 1.35495360047e-38
-0.0108172191622 -0.09735497246 0.835 1.4194549484e-38
-0.00904982065069 -0.0950231168323 0.815 1.3824675353e-38
-0.00752301041821 -0.0947899312695 0.813 1.35498863294e-38
-0.00598879746946 -0.0943235601439 0.809 1.35495303995e-38
-0.00448049402767 -0.0940903745811 0.807 1.39186702501e-38
-0.00297959330217 -0.0938571890184 0.805 1.42852975725e-38
-0.00148979665109 -0.0938571890184 0.805 1.27201452788e-38
0.0 -0.0936240034556 0.803 1.52101433486e-38
0.00148424461388 -0.0935074106742 0.802 1.88068364988e-38
0.00296848922775 -0.0935074106742 0.802 1.81611293768e-38
0.00445273384163 -0.0935074106742 0.802 1.7885621487e-38
0.0059369784555 -0.0935074106742 0.802 1.80692868742e-38
0.00743047646473 -0.0936240034556 0.803 1.79763681743e-38
0.00891657175768 -0.0936240034556 0.803 1.84380693936e-38
0.0104026670506 -0.0936240034556 0.803 1.80710875427e-38
0.0118887623436 -0.0936240034556 0.803 1.74253650064e-38
0.0133748576365 -0.0936240034556 0.803 1.78852557481e-38
0.0148979665109 -0.0938571890184 0.805 1.7793058717e-38
0.0163877631619 -0.0938571890184 0.805 1.81611293768e-38
0.017877559813 -0.0938571890184 0.805 1.82529746821e-38
0.0193673564641 -0.0938571890184 0.805 2.0189438839e-38
0.0208571531152 -0.0938571890184 0.805 1.23549584912e-38
0.0224024701384 -0.0940903745811 0.807 1.63951920326e-43
0.0239551898778 -0.0943235601439 0.809 1.36461793559e-38
0.0254523892452 -0.0943235601439 0.809 2.01008347371e-38
0.0270162130591 -0.0945567457067 0.811 1.88993978676e-38
0.0285874395892 -0.0947899312695 0.813 1.93596753676e-38
0.0300920416729 -0.0947899312695 0.813 1.91767134323e-38
0.0316743722774 -0.0950231168323 0.815 1.54899994675e-38
0.0331826757192 -0.0950231168323 0.815 9.8703806438e-39
0.0347761103982 -0.095256302395 0.817 1.28217590356e-38
0.0363769477935 -0.0954894879578 0.819 1.78888416709e-38
0.0378926539515 -0.0954894879578 0.819 1.2726634692e-38
0.0395045954212 -0.0957226735206 0.821 1.54935727786e-38
0.0410240029374 -0.0957226735206 0.821 8.484573534e-39
0.0426470484815 -0.0959558590834 0.823 1.95462512517e-38
0.0441701573558 -0.0959558590834 0.823 1.9084510796e-38
0.0456932662302 -0.0959558590834 0.823 1.95440484105e-38
0.0472163751045 -0.0959558590834 0.823 1.88072022377e-38
0.0489763708998 -0.0964222302089 0.827 1.8806133047e-38
0.0505068824904 -0.0964222302089 0.827 1.99131798533e-38
0.052037394081 -0.0964222302089 0.827 2.09255367184e-38
-0.0397081701189 -0.102579439474 0.894 2.01872500108e-38
-0.0378408349376 -0.102005728962 0.889 1.84359057888e-38
-0.0361141513656 -0.101776244757 0.887 1.25364574709e-38
-0.0343948705098 -0.101546760553 0.885 1.38268459643e-38
-0.0324979244634 -0.100743565837 0.878 1.42874513683e-38
-0.0307675395333 -0.10039933953 0.875 1.55785433136e-38
-0.0290149464543 -0.0999403711204 0.871 1.66392001342e-39
-0.0273400818963 -0.0997108869157 0.869 7.93496045422e-39
-0.0256726200545 -0.0994814027111 0.867 1.59469376733e-38
-0.0239848007429 -0.0991371764041 0.864 1.84756998626e-39
-0.0223339950128 -0.0989076921995 0.862 1.26394136716e-38
-0.020425944892 -0.0974160448693 0.849 1.17099394067e-38
-0.0188103020641 -0.0971865606647 0.847 1.18003371707e-38
-0.0172020619526 -0.0969570764601 0.845 6.17825906818e-39
-0.0156012245573 -0.0967275922554 0.843 5.9971090118e-39
-0.0140077898783 -0.0964981080508 0.841 1.37386104039e-38
-0.0123921470505 -0.0960391396415 0.837 1.29981376707e-38
-0.0108172191622 -0.0958096554369 0.835 1.35498835268e-38
-0.00916086139487 -0.0946622344137 0.825 1.30896116319e-38
-0.00752301041821 -0.0932853291858 0.813 1.34576878969e-38
-0.00598879746946 -0.0928263607766 0.809 1.34576906995e-38
-0.00448049402767 -0.0925968765719 0.807 1.36420791566e-38
-0.00297959330217 -0.0923673923673 0.805 1.38246781556e-38
-0.00148979665109 -0.0923673923673 0.805 1.24428395231e-38
0.0 -0.0921379081626 0.803 1.53026977109e-38
0.00148609529295 -0.0921379081626 0.803 1.87150038052e-38
0.00296848922775 -0.0920231660603 0.802 1.81611293768e-38
0.00445273384163 -0.0920231660603 0.802 1.78845494937e-38
0.00594438117178 -0.0921379081626 0.803 1.81614853066e-38
0.00743047646473 -0.0921379081626 0.803 1.81611139625e-38
0.00893877990651 -0.0923673923673 0.805 1.78852487417e-38
0.0104285765576 -0.0923673923673 0.805 1.81636334972e-38
0.0119183732087 -0.0923673923673 0.805 1.91760043753e-38
0.0134081698598 -0.0923673923673 0.805 1.8347673031e-38
0.0148979665109 -0.0923673923673 0.805 1.91774294959e-38
0.0163877631619 -0.0923673923673 0.805 2.02805344496e-38
0.0179219761107 -0.0925968765719 0.807 1.96351678431e-38
0.0194154741199 -0.0925968765719 0.807 1.13397317668e-38
0.0209089721291 -0.0925968765719 0.807 1.92645454188e-38
0.0224579905105 -0.0928263607766 0.809 9.18489486232e-40
0.0239551898778 -0.0928263607766 0.809 1.06166841799e-38
0.0255153123336 -0.0930558449812 0.811 1.98242310319e-38
0.0270828375056 -0.0932853291858 0.813 1.88072022377e-38
0.0286577653939 -0.0935148133905 0.815 1.64140843385e-38
0.0301660688356 -0.0935148133905 0.815 1.18997382772e-38
0.0317521007983 -0.0937442975951 0.817 1.39273961356e-38
0.0332641055983 -0.0937442975951 0.817 1.46656492121e-38
0.0348612416354 -0.0939737817998 0.819 1.59563656094e-38
0.0364657803888 -0.0942032660044 0.821 1.82543815857e-38
0.0380777218585 -0.094432750209 0.823 1.12522430984e-38
0.0396970660444 -0.0946622344137 0.825 8.86382795688e-39
0.0412238762769 -0.0946622344137 0.825 1.86256598177e-38
0.0427506865094 -0.0946622344137 0.825 1.9911770147e-38
0.0442774967419 -0.0946622344137 0.825 1.88082868427e-38
0.0458043069744 -0.0946622344137 0.825 1.84380749988e-38
0.0473311172068 -0.0946622344137 0.825 1.89912459754e-38
0.0489763708998 -0.0948917186183 0.827 1.87146562832e-38
0.0505068824904 -0.0948917186183 0.827 1.8715735283e-38
0.052037394081 -0.0948917186183 0.827 2.10184526157e-38
-0.0397081701189 -0.100924932385 0.894 1.97270005367e-38
-0.0379259661748 -0.100586258116 0.891 2.00957760497e-38
-0.0361955812446 -0.100360475269 0.889 1.29970810917e-38
-0.0344725990308 -0.100134692423 0.887 1.41970578082e-38
-0.0327570195332 -0.0999089095762 0.885 1.37346503345e-38
-0.0308730282403 -0.0991186696134 0.878 1.52094118708e-38
-0.0290815709008 -0.0985542124972 0.873 7.28564078481e-39
-0.0274030049846 -0.0983284296507 0.871 5.45114070933e-39
-0.0257318417847 -0.0981026468042 0.869 8.66539568654e-39
-0.0240680813011 -0.0978768639577 0.867 8.57138537517e-39
-0.0224635425477 -0.0978768639577 0.867 2.86894140444e-39
-0.0204740625478 -0.0960706011857 0.851 1.43851218712e-38
-0.0188103020641 -0.0956190354927 0.847 1.17971141842e-38
-0.0172427768921 -0.0956190354927 0.847 1.45636893345e-38
-0.0156382381387 -0.0953932526462 0.845 7.83523424641e-39
-0.0140077898783 -0.0949416869532 0.841 1.42910807313e-38
-0.0123921470505 -0.0944901212602 0.837 1.32747385733e-38
-0.0107913096553 -0.0940385555672 0.833 1.33665684643e-38
-0.00916086139487 -0.0931354241812 0.825 1.35502338514e-38
-0.00752301041821 -0.0917807271022 0.813 1.39186702501e-38
-0.00600360290201 -0.0915549442557 0.811 1.37342803917e-38
-0.00448049402767 -0.0911033785627 0.807 1.400941974e-38
-0.00297959330217 -0.0908775957162 0.805 1.34573347697e-38
-0.00148979665109 -0.0908775957162 0.805 1.34569872477e-38
0.0 -0.0908775957162 0.805 1.48417209628e-38
0.00148609529295 -0.0906518128697 0.803 1.91756372351e-38
0.00297219058589 -0.0906518128697 0.803 1.88072050403e-38
0.00445828587884 -0.0906518128697 0.803 1.82536781339e-38
0.00595918660434 -0.0908775957162 0.805 1.8161482504e-38
0.00744898325543 -0.0908775957162 0.805 1.80692840716e-38
0.00893877990651 -0.0908775957162 0.805 1.84384253234e-38
0.0104285765576 -0.0908775957162 0.805 1.87164541491e-38
0.0119183732087 -0.0908775957162 0.805 1.77964904969e-43
0.0134081698598 -0.0908775957162 0.805 1.27518160254e-43
0.0149349800922 -0.0911033785627 0.807 2.22194971217e-38
0.0164284781015 -0.0911033785627 0.807 6.2693953164e-39
0.0179219761107 -0.0911033785627 0.807 3.58359941735e-39
0.0194635917757 -0.0913291614092 0.809 1.1350517561e-43
0.0209607911431 -0.0913291614092 0.809 1.3000819756e-38
0.0225135108825 -0.0915549442557 0.811 8.82818032525e-44
0.0240144116081 -0.0915549442557 0.811 1.33123354111e-43
0.0255782354219 -0.0917807271022 0.813 2.14837271461e-38
0.0270828375056 -0.0917807271022 0.813 1.3003604136e-38
0.0287280911985 -0.0922322927952 0.817 1.06176734967e-38
0.0302400959984 -0.0922322927952 0.817 1.75236787054e-38
0.0318298293193 -0.0924580756417 0.819 1.52162796346e-38
0.0333455354773 -0.0924580756417 0.819 5.44973100307e-39
0.0349463728726 -0.0926838584882 0.821 7.57421578276e-39
0.0365546129841 -0.0929096413347 0.823 1.31984644966e-38
0.0380777218585 -0.0929096413347 0.823 1.3005402002e-38
0.0396970660444 -0.0931354241812 0.825 1.84431084629e-38
0.0413238129467 -0.0933612070277 0.827 1.93621738828e-38
0.0427506865094 -0.0931354241812 0.825 1.94514996534e-38
0.0442774967419 -0.0931354241812 0.825 1.98199276444e-38
0.0458043069744 -0.0931354241812 0.825 1.91749113625e-38
0.0473311172068 -0.0931354241812 0.825 1.93600228897e-38
0.0489763708998 -0.0933612070277 0.827 1.88072022377e-38
0.0505068824904 -0.0933612070277 0.827 1.99146414076e-38
-0.0397081701189 -0.0992704252972 0.894 1.97255487915e-38
-0.0379259661748 -0.0989373030646 0.891 2.01883248067e-38
-0.0362770111237 -0.0989373030646 0.891 1.25357512164e-38
-0.0345503275517 -0.0987152215763 0.889 1.34598416926e-38
-0.0327570195332 -0.0982710585995 0.885 1.38268431617e-38
-0.0308730282403 -0.0974937733903 0.878 1.46573072823e-38
-0.0291481953473 -0.0971606511577 0.875 1.06950461914e-38
-0.027465928073 -0.0969385696694 0.873 5.44896028891e-39
-0.0257910635149 -0.096716488181 0.871 1.47545475867e-38
-0.0241236016732 -0.0964944066926 0.869 8.11247414108e-39
-0.0224635425477 -0.0962723252043 0.867 4.34046454001e-39
-0.0206424743431 -0.0952729585067 0.858 1.21688072006e-38
-0.0188547183618 -0.094273591809 0.849 1.26286502981e-38
-0.0172834918317 -0.094273591809 0.849 1.50242723177e-38
-0.0156382381387 -0.0938294288323 0.845 7.28384712277e-39
-0.0140411021016 -0.093607347344 0.843 1.26344488712e-38
-0.0123921470505 -0.0929411028789 0.837 1.39179303645e-38
-0.0107913096553 -0.0924969399022 0.833 1.35480828582e-38
-0.00918306954371 -0.0918306954371 0.827 1.36409875451e-38
-0.0076155443717 -0.0913865324604 0.823 1.35502338514e-38
-0.00601840833457 -0.0902761250186 0.813 1.33651041074e-38
-0.00449159810209 -0.0898319620418 0.809 1.37324769206e-38
-0.00297959330217 -0.0893877990651 0.805 1.38264956397e-38
-0.00148979665109 -0.0893877990651 0.805 1.28137534175e-38
0.0 -0.0893877990651 0.805 1.50261150252e-38
0.00148979665109 -0.0893877990651 0.805 1.84380721962e-38
0.00297219058589 -0.0891657175768 0.803 1.80692868742e-38
0.00445828587884 -0.0891657175768 0.803 1.88993978676e-38
0.00595918660434 -0.0893877990651 0.805 1.68707436859e-38
0.00744898325543 -0.0893877990651 0.805 1.81600573835e-38
0.00896098805535 -0.0896098805535 0.807 1.8346226891e-38
0.0104544860646 -0.0896098805535 0.807 1.91759903623e-38
0.0119479840738 -0.0896098805535 0.807 0.0
0.013441482083 -0.0896098805535 0.807 8.94964487613e-39
0.0149349800922 -0.0896098805535 0.807 1.7516113095e-38
0.0164284781015 -0.0896098805535 0.807 1.23314264861e-43
0.0179663924084 -0.0898319620418 0.809 1.9262114166e-38
0.0195117094315 -0.0900540435302 0.811 5.5109285096e-40
0.021012610157 -0.0900540435302 0.811 9.2322727634e-40
0.0225690312546 -0.0902761250186 0.813 1.26348019984e-38
0.0240736333383 -0.0902761250186 0.813 1.97298830076e-38
0.0255782354219 -0.0902761250186 0.813 2.01904898129e-38
0.0271494619521 -0.0904982065069 0.815 1.46612911739e-38
0.0287280911985 -0.0907202879953 0.817 1.35629113986e-38
0.0303141231612 -0.0909423694836 0.819 1.93654361056e-38
0.0319075578402 -0.091164450972 0.821 4.43484339288e-39
0.0334269653564 -0.091164450972 0.821 1.45788037398e-38
0.0350315041098 -0.0913865324604 0.823 1.23582403322e-38
0.0366434455795 -0.0916086139487 0.825 1.74311481652e-38
0.038170255812 -0.0916086139487 0.825 1.94558212579e-38
0.0397933013561 -0.0918306954371 0.827 1.93585837561e-38
0.0413238129467 -0.0918306954371 0.827 1.88068491105e-38
0.0428543245373 -0.0918306954371 0.827 1.88983286768e-38
0.0443848361279 -0.0918306954371 0.827 1.91745554327e-38
0.0459153477185 -0.0918306954371 0.827 1.88994034727e-38
0.0474458593092 -0.0918306954371 0.827 1.91767078272e-38
0.0489763708998 -0.0918306954371 0.827 1.87161038245e-38
0.0508733169462 -0.0924969399022 0.833 1.95444197546e-38
-0.0397970027142 -0.0978342983391 0.896 1.95404484747e-38
-0.0380536630306 -0.0976159182089 0.894 2.11088489783e-38
-0.0363991559423 -0.0976159182089 0.894 1.23513627593e-38
-0.0346280560726 -0.0972883480135 0.891 1.37360796589e-38
-0.0329050738588 -0.0970699678833 0.889 1.4103804198e-38
-0.0311191685565 -0.0966332076229 0.885 1.40115875487e-38
-0.0292481320171 -0.0958688771671 0.878 1.50235716685e-38
-0.0275288511614 -0.0955413069718 0.875 1.23531157837e-38
-0.0258502852452 -0.0953229268415 0.873 1.53034011627e-38
-0.0241236016732 -0.0948861665811 0.869 5.71899330559e-39
-0.0224635425477 -0.0946677864509 0.867 5.26208312571e-39
-0.0206905919989 -0.0939034559951 0.86 1.24454137083e-38
-0.0188991346595 -0.0929207454091 0.851 8.57390070591e-39
-0.0172834918317 -0.0927023652789 0.849 1.53030298186e-38
-0.0156752517201 -0.0924839851487 0.847 1.04134342455e-38
-0.0140411021016 -0.0920472248882 0.843 1.38261397099e-38
-0.0123921470505 -0.0913920844976 0.837 1.39175772373e-38
-0.0107913096553 -0.0909553242371 0.833 1.37331859776e-38
-0.00918306954371 -0.0903001838465 0.827 1.32736539683e-38
-0.0076155443717 -0.089863423586 0.823 1.32733008411e-38
-0.00604801919968 -0.0892082831954 0.817 1.36402840933e-38
-0.00450270217651 -0.0885531428047 0.811 1.35477325336e-38
-0.00298699601845 -0.0881163825442 0.807 1.39183199255e-38
-0.00149349800922 -0.0881163825442 0.807 1.32733008411e-38
0.0 -0.087898002414 0.805 1.4656972372e-38
0.00148979665109 -0.087898002414 0.805 1.8623186526e-38
0.00297959330217 -0.087898002414 0.805 1.82536781339e-38
0.00446938995326 -0.087898002414 0.805 1.8068933747e-38
0.0059739920369 -0.0881163825442 0.807 1.8437719069e-38
0.00746749004612 -0.0881163825442 0.807 1.82529774847e-38
0.00896098805535 -0.0881163825442 0.807 1.80703686766e-38
0.0104544860646 -0.0881163825442 0.807 2.01894332338e-38
0.0119479840738 -0.0881163825442 0.807 3.86719420056e-39
0.013441482083 -0.0881163825442 0.807 1.5554412954e-43
0.0149719936736 -0.0883347626745 0.809 1.3370314135e-38
0.016469193041 -0.0883347626745 0.809 1.80767501898e-43
0.018010808706 -0.0885531428047 0.811 1.98984381934e-43
0.0195117094315 -0.0885531428047 0.811 8.94049719976e-39
0.021064429171 -0.0887715229349 0.813 1.98228269309e-38
0.0225690312546 -0.0887715229349 0.813 2.03741832259e-38
0.0240736333383 -0.0887715229349 0.813 1.88064861742e-38
0.0256411585103 -0.0889899030651 0.815 2.00979438584e-38
0.0272160863986 -0.0892082831954 0.817 1.58573148275e-38
0.0287984170032 -0.0894266633256 0.819 9.50378555125e-39
0.0303141231612 -0.0894266633256 0.819 1.54053848623e-38
0.0319075578402 -0.0896450434558 0.821 1.11583350818e-38
0.0335083952355 -0.089863423586 0.823 2.000683984e-38
0.035116635347 -0.0900818037162 0.825 1.96351706457e-38
0.0366434455795 -0.0900818037162 0.825 1.9266400738e-38
0.0382627897654 -0.0903001838465 0.827 1.87157324804e-38
0.0398895366677 -0.0905185639767 0.829 1.88068519131e-38
0.0414237496164 -0.0905185639767 0.829 1.88986944157e-38
0.0429579625652 -0.0905185639767 0.829 1.85306377689e-38
0.044492175514 -0.0905185639767 0.829 1.93607291441e-38
0.0460263884627 -0.0905185639767 0.829 1.92685531324e-38
0.0475606014115 -0.0905185639767 0.829 1.94533031245e-38
0.0493317012812 -0.0909553242371 0.833 1.91759903623e-38
0.0508733169462 -0.0909553242371 0.833 2.00050391715e-38
-0.0417790799978 -0.096927465595 0.903 1.92642203175e-38
-0.0397970027142 -0.0961760898927 0.896 1.92642231201e-38
-0.0380536630306 -0.0959614111206 0.894 2.07404265926e-38
-0.0363991559423 -0.0959614111206 0.894 1.18907349346e-38
-0.034744648854 -0.0959614111206 0.894 1.46587169886e-38
-0.0329050738588 -0.0954247141904 0.889 1.36420945709e-38
-0.0311894943612 -0.0952100354183 0.887 1.42874541709e-38
-0.0293813809101 -0.0946733384881 0.882 1.36417316346e-38
-0.0276232357939 -0.0942439809439 0.878 1.39193737019e-38
-0.0259095069754 -0.0939219627858 0.875 1.52101279343e-38
-0.0242346424173 -0.0937072840137 0.873 6.45621222377e-39
-0.0224635425477 -0.0930632476975 0.867 1.46609380467e-38
-0.0206905919989 -0.0923118719952 0.86 9.86311491127e-39
-0.0190101754037 -0.091882514451 0.856 1.0693293167e-38
-0.0173242067712 -0.0913458175208 0.851 1.49321201281e-38
-0.0157122653015 -0.0911311387487 0.849 1.07851118476e-38
-0.0140744143248 -0.0907017812046 0.845 1.24468023951e-38
-0.0123921470505 -0.0898430661163 0.837 1.32729561216e-38
-0.0108172191622 -0.0896283873442 0.835 1.30892613073e-38
-0.00918306954371 -0.0887696722558 0.827 1.37346335189e-38
-0.00763405116239 -0.0885549934838 0.825 1.37324797232e-38
-0.0060776300648 -0.0881256359396 0.821 1.41009133193e-38
-0.00451380625093 -0.0872669208513 0.813 1.39190261799e-38
-0.00300180145101 -0.0870522420792 0.811 1.38253816074e-38
-0.00149719936736 -0.0868375633071 0.809 1.36402840933e-38
0.0 -0.086622884535 0.807 1.37353734045e-38
0.00149349800922 -0.086622884535 0.807 1.8255829127e-38
0.00298699601845 -0.086622884535 0.807 1.81629300453e-38
0.00448049402767 -0.086622884535 0.807 1.78863403532e-38
0.0059739920369 -0.086622884535 0.807 1.81614853066e-38
0.00748599683682 -0.0868375633071 0.809 1.8068933747e-38
0.00898319620418 -0.0868375633071 0.809 1.79778143143e-38
0.0104803955715 -0.0868375633071 0.809 2.00053951013e-38
0.0119775949389 -0.0868375633071 0.809 1.30910731862e-38
0.0134747943063 -0.0868375633071 0.809 1.5554412954e-43
0.0149719936736 -0.0868375633071 0.809 1.52999357516e-38
0.0165099079805 -0.0870522420792 0.811 1.52097958266e-38
0.018010808706 -0.0870522420792 0.811 1.9179876163e-38
0.0195598270874 -0.0872669208513 0.813 2.02830511816e-38
0.021064429171 -0.0872669208513 0.813 1.95440512131e-38
0.0226245516267 -0.0874815996233 0.815 1.88064987859e-38
0.0241328550685 -0.0874815996233 0.815 1.85306237559e-38
0.0257040815987 -0.0876962783954 0.817 1.9176340687e-38
0.0272827108451 -0.0879109571675 0.819 1.6687431426e-38
0.0287984170032 -0.0879109571675 0.819 1.51229951958e-38
0.030388150324 -0.0881256359396 0.821 2.00060761324e-38
0.0319852863611 -0.0883403147117 0.823 1.99124764014e-38
0.0335898251145 -0.0885549934838 0.825 1.8714289143e-38
0.0352017665842 -0.0887696722558 0.827 1.94518555832e-38
0.0367322781748 -0.0887696722558 0.827 1.88986944157e-38
0.0382627897654 -0.0887696722558 0.827 1.93603788195e-38
0.0398895366677 -0.0889843510279 0.829 1.91749113625e-38
0.0414237496164 -0.0889843510279 0.829 1.94518555832e-38
0.0429579625652 -0.0889843510279 0.829 1.88086469764e-38
0.0445995149 -0.0891990298 0.831 1.89011985361e-38
0.0461374292069 -0.0891990298 0.831 1.87157380856e-38
0.0477900856161 -0.0894137085721 0.833 1.9451502456e-38
0.0493317012812 -0.0894137085721 0.833 1.91749113625e-38
0.0508733169462 -0.0894137085721 0.833 1.95437008885e-38
-0.0417790799978 -0.095256302395 0.903 2.0187603138e-38
-0.0397970027142 -0.0945178814462 0.896 1.95411575318e-38
-0.0380536630306 -0.0943069040323 0.894 2.06485812873e-38
-0.0363991559423 -0.0943069040323 0.894 1.32740379241e-38
-0.034744648854 -0.0943069040323 0.894 1.37364327861e-38
-0.0329050738588 -0.0937794604974 0.889 1.49328207773e-38
-0.0312598201658 -0.0937794604974 0.889 1.39193919188e-38
-0.0295479420264 -0.0935684830835 0.887 1.38253788048e-38
-0.0276861588823 -0.0928300621347 0.88 9.40221663596e-39
-0.0259983395707 -0.0926190847208 0.878 1.3737188086e-38
-0.0242346424173 -0.0920916411859 0.873 1.29073881809e-38
-0.0224635425477 -0.0914587089441 0.867 1.5027875056e-38
-0.0207387096547 -0.0909312654092 0.862 7.55787384007e-39
-0.019099007999 -0.0907202879953 0.86 1.12479299018e-38
-0.01742599412 -0.0902983331674 0.856 1.50239654333e-38
-0.0157492788829 -0.0897708896325 0.851 1.93897668509e-39
-0.0141410387714 -0.0895599122186 0.849 1.26384019341e-38
-0.0123921470505 -0.0882940477349 0.837 1.36427882136e-38
-0.0108172191622 -0.088083070321 0.835 1.36406372205e-38
-0.00918306954371 -0.0872391606652 0.827 1.36402812907e-38
-0.00763405116239 -0.0870281832513 0.825 1.34569844451e-38
-0.00610724092991 -0.0870281832513 0.825 1.38250284802e-38
-0.00451380625093 -0.0857623187676 0.813 1.34569844451e-38
-0.00300180145101 -0.0855513413537 0.811 1.37342803917e-38
-0.0015009007255 -0.0855513413537 0.811 1.29963622256e-38
0.0 -0.0853403639397 0.809 1.47498714537e-38
0.00149719936736 -0.0853403639397 0.809 1.83472988843e-38
0.00298699601845 -0.0851293865258 0.807 1.8531356635e-38
0.00448049402767 -0.0851293865258 0.807 1.82536781339e-38
0.00598879746946 -0.0853403639397 0.809 1.81629174337e-38
0.00748599683682 -0.0853403639397 0.809 1.85306349663e-38
0.00898319620418 -0.0853403639397 0.809 1.80700127468e-38
0.0104803955715 -0.0853403639397 0.809 1.87143003534e-38
0.012007205804 -0.0855513413537 0.811 1.96369685117e-38
0.0135081065295 -0.0855513413537 0.811 1.21912966396e-43
0.015009007255 -0.0855513413537 0.811 1.75298654381e-39
0.0165099079805 -0.0855513413537 0.811 2.10231399591e-38
0.0180552250037 -0.0857623187676 0.813 1.85313412207e-38
0.0196079447432 -0.0859732961816 0.815 1.86235396532e-38
0.0211162481849 -0.0859732961816 0.815 1.88068491105e-38
0.0226800719988 -0.0861842735955 0.817 1.86235396532e-38
0.0241920767987 -0.0861842735955 0.817 1.90834388027e-38
0.0257040815987 -0.0861842735955 0.817 1.87157324804e-38
0.0272827108451 -0.0863952510095 0.819 1.96376845752e-38
0.0288687428078 -0.0866062284234 0.821 1.83465926299e-38
0.030388150324 -0.0866062284234 0.821 1.93607515649e-38
0.0320630148821 -0.0870281832513 0.825 1.93603732143e-38
0.0336712549936 -0.0872391606652 0.827 1.94518555832e-38
0.0352017665842 -0.0872391606652 0.827 1.96351678431e-38
0.0367322781748 -0.0872391606652 0.827 1.9358949495e-38
0.0382627897654 -0.0872391606652 0.827 1.89916117143e-38
0.0399857719793 -0.0876611154931 0.831 1.93593026222e-38
0.0415236862862 -0.0876611154931 0.831 2.00050223559e-38
0.0430616005931 -0.0876611154931 0.831 1.96376845752e-38
0.044706854286 -0.0878720929071 0.833 1.64130081413e-38
0.0462484699511 -0.0878720929071 0.833 1.96373342506e-38
0.0479048277184 -0.088083070321 0.835 1.9542994634e-38
0.0494501447416 -0.088083070321 0.835 1.89901515613e-38
0.0509954617648 -0.088083070321 0.835 2.01890702975e-38
-0.0398858353096 -0.0930669490556 0.898 1.98181129628e-38
-0.038223925505 -0.0930669490556 0.898 2.09255367184e-38
-0.0364805858214 -0.0928596729998 0.896 1.32743602227e-38
-0.034744648854 -0.092652396944 0.894 1.34584137695e-38
-0.0329791010215 -0.0923414828603 0.891 1.45625935191e-38
-0.0312598201658 -0.0921342068045 0.889 1.42881702344e-38
-0.0295479420264 -0.0919269307487 0.887 1.43796469981e-38
-0.0277490819706 -0.0914087406092 0.882 1.06003898814e-38
-0.0259983395707 -0.0909941884976 0.878 1.13354101623e-38
-0.0242346424173 -0.0904759983581 0.873 1.43792966735e-38
-0.0224635425477 -0.0898541701907 0.867 1.49335396434e-38
-0.0207387096547 -0.0893359800512 0.862 8.94260335135e-39
-0.019099007999 -0.0891287039954 0.86 7.65733940636e-39
-0.01742599412 -0.0887141518838 0.856 1.41971110576e-38
-0.0157492788829 -0.0881959617442 0.851 7.28560435105e-39
-0.0141410387714 -0.0879886856884 0.849 1.01444662156e-38
-0.0125698122412 -0.0879886856884 0.849 1.33662181396e-38
-0.0109985857111 -0.0879886856884 0.849 1.43782022594e-38
-0.00918306954371 -0.0857086490746 0.827 1.46558485306e-38
-0.00763405116239 -0.0855013730188 0.825 1.37349782383e-38
-0.00609243549736 -0.085294096963 0.823 1.38250312828e-38
-0.0045582225486 -0.0850868209072 0.821 1.35480828582e-38
-0.00300920416729 -0.084257716684 0.813 1.36409847425e-38
-0.00150460208364 -0.084257716684 0.813 1.31807548866e-38
0.0 -0.0840504406282 0.811 1.43800169409e-38
0.0015009007255 -0.0840504406282 0.811 1.86246060413e-38
0.00299439873473 -0.0838431645724 0.809 1.80700127468e-38
0.00449159810209 -0.0838431645724 0.809 1.75168417702e-38
0.00600360290201 -0.0840504406282 0.811 1.86238871752e-38
0.00750450362752 -0.0840504406282 0.811 1.78859718117e-38
0.00900540435302 -0.0840504406282 0.811 1.8438775648e-38
0.0105063050785 -0.0840504406282 0.811 1.88994006702e-38
0.0120368166691 -0.084257716684 0.813 1.88994034727e-38
0.0135414187528 -0.084257716684 0.813 1.40129846432e-43
0.0150460208364 -0.084257716684 0.813 9.22085638481e-39
0.0165506229201 -0.084257716684 0.813 2.03748838752e-38
0.0180552250037 -0.084257716684 0.813 1.84391441895e-38
0.019656062399 -0.0846722687956 0.817 1.89923445934e-38
0.0211680671989 -0.0846722687956 0.817 1.853027203e-38
0.0227355923709 -0.0848795448514 0.819 1.84380693936e-38
0.024251298529 -0.0848795448514 0.819 1.95440638248e-38
0.025767004687 -0.0848795448514 0.819 1.88061302444e-38
0.0273493352916 -0.0850868209072 0.821 1.9359672565e-38
0.0288687428078 -0.0850868209072 0.821 1.96366125818e-38
0.0304621774868 -0.085294096963 0.823 1.93603732143e-38
0.0320630148821 -0.0855013730188 0.825 1.78881382191e-38
0.0336712549936 -0.0857086490746 0.827 1.63240439057e-38
0.0352017665842 -0.0857086490746 0.827 1.22649671038e-38
0.0368211107702 -0.0859159251304 0.829 1.50265200004e-38
0.0383553237189 -0.0859159251304 0.829 2.07422440767e-38
0.0399857719793 -0.0861232011862 0.831 1.82558319296e-38
0.041623622956 -0.086330477242 0.833 1.27281144631e-38
0.043165238621 -0.086330477242 0.833 1.06047254988e-38
0.0448141936721 -0.0865377532978 0.835 1.76087165027e-38
0.0463595106953 -0.0865377532978 0.835 1.89919620389e-38
0.0479048277184 -0.0865377532978 0.835 1.97288138169e-38
0.0494501447416 -0.0865377532978 0.835 1.93603732143e-38
-0.0381387942678 -0.0912014645534 0.896 2.04645599704e-38
-0.0364805858214 -0.0912014645534 0.896 1.29970656774e-38
-0.0348223773749 -0.0912014645534 0.896 1.41020007269e-38
-0.0330901417657 -0.0909978898557 0.894 1.47469917854e-38
-0.0313301459705 -0.0906925278092 0.891 1.42881674318e-38
-0.0295479420264 -0.0902853784139 0.887 1.3920082759e-38
-0.0278434666032 -0.0900818037162 0.885 1.37346307163e-38
-0.026057561301 -0.0895728669721 0.88 1.35469744311e-38
-0.0243734433476 -0.0893692922744 0.878 1.24428353192e-38
-0.0227485471244 -0.0893692922744 0.878 1.23549556886e-38
-0.0207387096547 -0.0877406946931 0.862 1.36471014103e-38
-0.019099007999 -0.0875371199954 0.86 5.81086523551e-39
-0.01742599412 -0.0871299706001 0.856 1.21738406647e-38
-0.0157492788829 -0.086621033856 0.851 7.01046500277e-39
-0.0141410387714 -0.0864174591583 0.849 1.3186846331e-38
-0.0125698122412 -0.0864174591583 0.849 1.25332513e-38
-0.0109985857111 -0.0864174591583 0.849 1.41026747515e-38
-0.00918306954371 -0.084178137484 0.827 1.32743602227e-38
-0.00763405116239 -0.0839745627863 0.825 1.35502338514e-38
-0.00609243549736 -0.0837709880887 0.823 1.37346307163e-38
-0.0045582225486 -0.083567413391 0.821 1.34576906995e-38
-0.00300920416729 -0.0827531146003 0.813 1.35498863294e-38
-0.00150460208364 -0.0827531146003 0.813 1.38268459643e-38
0.0 -0.0827531146003 0.813 1.44729188252e-38
0.0015009007255 -0.0825495399027 0.811 1.88064833716e-38
0.00300180145101 -0.0825495399027 0.811 1.84387952662e-38
0.00450270217651 -0.0825495399027 0.811 1.79778143143e-38
0.00600360290201 -0.0825495399027 0.811 1.79781674415e-38
0.00750450362752 -0.0825495399027 0.811 1.88990475429e-38
0.00900540435302 -0.0825495399027 0.811 1.84384253234e-38
0.0105063050785 -0.0825495399027 0.811 1.89919620389e-38
0.0120368166691 -0.0827531146003 0.813 1.84387952662e-38
0.0135414187528 -0.0827531146003 0.813 5.59097067789e-40
0.0150460208364 -0.0827531146003 0.813 2.00986991582e-38
0.0165913378596 -0.082956689298 0.815 1.8991248778e-38
0.0181440575991 -0.0831602639957 0.817 1.88068519131e-38
0.019656062399 -0.0831602639957 0.817 1.88075777857e-38
0.0212198862128 -0.0833638386933 0.819 1.88068519131e-38
0.0227355923709 -0.0833638386933 0.819 1.9267109795e-38
0.024251298529 -0.0833638386933 0.819 1.88983468937e-38
0.0258299277754 -0.083567413391 0.821 1.9358949495e-38
0.0274159597381 -0.0837709880887 0.823 1.98202807716e-38
0.0289390686124 -0.0837709880887 0.823 1.59509608012e-38
0.0305362046496 -0.0839745627863 0.825 1.50297598025e-38
0.032140743403 -0.084178137484 0.827 1.0980309921e-38
0.0336712549936 -0.084178137484 0.827 1.17229070227e-38
0.0352017665842 -0.084178137484 0.827 1.67864794054e-38
0.0368211107702 -0.0843817121817 0.829 1.6875457654e-38
0.0383553237189 -0.0843817121817 0.829 9.95796740302e-39
0.0400820072909 -0.084788861577 0.833 1.17114584143e-38
0.041623622956 -0.084788861577 0.833 1.76122898138e-38
0.0432688766489 -0.0849924362746 0.835 1.90856122166e-38
0.0449215330581 -0.0851960109723 0.837 1.97291613389e-38
0.0464705514394 -0.0851960109723 0.837 1.91749113625e-38
0.0480195698208 -0.0851960109723 0.837 1.93607515649e-38
0.049805475123 -0.0856031603676 0.841 1.83476758336e-38
0.0513618962206 -0.0856031603676 0.841 1.99117729496e-38
-0.0381387942678 -0.089543256107 0.896 2.02808903794e-38
-0.0364805858214 -0.089543256107 0.896 1.36424350864e-38
-0.0348223773749 -0.089543256107 0.896 1.39183255307e-38
-0.0330901417657 -0.0893433827674 0.894 1.51157701009e-38
-0.0313301459705 -0.0890435727582 0.891 1.43800197435e-38
-0.0295479420264 -0.0886438260791 0.887 1.50239191905e-38
-0.0278434666032 -0.0884439527396 0.885 1.05985920155e-38
-0.0261167830312 -0.0881441427303 0.882 1.40130392939e-38
-0.0244289637197 -0.0879442693908 0.88 1.36431539525e-38
-0.0227485471244 -0.0877443960512 0.878 8.94088816203e-39
-0.0207868273105 -0.0863452826746 0.864 1.3553852004e-38
-0.0191434242967 -0.086145409335 0.862 1.47516314846e-38
-0.01742599412 -0.0855457893165 0.856 9.68270474048e-39
-0.0158418128364 -0.0855457893165 0.856 8.12046294363e-39
-0.0141743509946 -0.0850461059677 0.851 1.37385977922e-38
-0.0125994231063 -0.0850461059677 0.851 1.33622706819e-38
-0.011024495218 -0.0850461059677 0.851 1.4101287466e-38
-0.00918306954371 -0.0826476258934 0.827 1.37331803724e-38
-0.00765255795309 -0.0826476258934 0.827 1.38253816074e-38
-0.00610724092991 -0.0824477525538 0.825 1.41956088656e-38
-0.00456932662302 -0.0822478792143 0.823 1.35491828775e-38
-0.00301660688356 -0.0814483858562 0.815 1.3824675353e-38
-0.00150460208364 -0.0812485125167 0.813 1.29041665957e-38
0.0 -0.0812485125167 0.813 1.5026818477e-38
0.00150460208364 -0.0812485125167 0.813 1.8622087908e-38
0.00300920416729 -0.0812485125167 0.813 1.89919676441e-38
0.00451380625093 -0.0812485125167 0.813 1.78852515443e-38
0.00601840833457 -0.0812485125167 0.813 1.80703434532e-38
0.00752301041821 -0.0812485125167 0.813 1.82536809365e-38
0.00902761250186 -0.0812485125167 0.813 1.85299217054e-38
0.0105322145855 -0.0812485125167 0.813 1.8347673031e-38
0.0120664275343 -0.0814483858562 0.815 1.90834388027e-38
0.0136080431993 -0.0816482591957 0.817 2.06507645103e-38
0.0151200479992 -0.0816482591957 0.817 1.85313440233e-38
0.0166320527991 -0.0816482591957 0.817 1.92689062596e-38
0.0181884738967 -0.0818481325353 0.819 1.81614853066e-38
0.0197041800548 -0.0818481325353 0.819 1.99135750194e-38
0.0212198862128 -0.0818481325353 0.819 1.89908774339e-38
0.022791112743 -0.0820480058748 0.821 1.98202807716e-38
0.0243105202592 -0.0820480058748 0.821 1.77959243723e-38
0.0258299277754 -0.0820480058748 0.821 1.56783185668e-38
0.0274159597381 -0.0822478792143 0.823 1.89922997518e-38
0.0289390686124 -0.0822478792143 0.823 1.26251260325e-38
0.0305362046496 -0.0824477525538 0.825 1.90844981843e-38
