# .PCD v0.7 - Point Cloud Data file format
VERSION 0.7
FIELDS x y z rgb
SIZE 4 4 4 4
TYPE F F F F
COUNT 1 1 1 1
WIDTH 838
HEIGHT 1
VIEWPOINT 0 0 0 1 0 0 0
POINTS 838
DATA ascii
0.00463595106953 -0.0819018022283 0.835 1.47495085174e-38
0.00615165722759 -0.0815094582655 0.831 1.45647739395e-38
0.00768957153448 -0.0815094582655 0.831 1.47469889828e-38
0.00920527769254 -0.0813132862841 0.829 1.47495057148e-38
0.0107135811343 -0.0811171143028 0.827 1.45647613279e-38
0.0121848709947 -0.08072477034 0.823 1.45640550734e-38
0.0136746676458 -0.0805285983586 0.821 1.50250192098e-38
0.0151570615806 -0.0803324263772 0.819 1.45640396592e-38
0.0166320527991 -0.0801362543958 0.817 1.45640396592e-38
0.0181440575991 -0.0801362543958 0.817 1.47480735878e-38
0.0195598270874 -0.0797439104331 0.813 1.48406223448e-38
0.021064429171 -0.0797439104331 0.813 1.50257366746e-38
0.0225135108825 -0.0795477384517 0.811 1.4196704681e-38
0.0240144116081 -0.0795477384517 0.811 1.70562363663e-38
0.0255153123336 -0.0795477384517 0.811 1.8808649779e-38
0.0270828375056 -0.0797439104331 0.813 1.9729880205e-38
0.0285874395892 -0.0797439104331 0.813 1.96362440403e-38
0.0301660688356 -0.0799400824144 0.815 1.95440540157e-38
0.0317521007983 -0.0801362543958 0.817 1.97295172687e-38
0.0335083952355 -0.08072477034 0.823 2.02819693792e-38
0.0350315041098 -0.08072477034 0.823 1.86253094931e-38
0.0367322781748 -0.0811171143028 0.827 1.07001861541e-38
0.0384478576724 -0.0815094582655 0.831 1.8810095919e-38
0.0401782426026 -0.0819018022283 0.835 2.07443894646e-38
0.0417235596257 -0.0819018022283 0.835 1.93603760169e-38
0.0433725146768 -0.0820979742097 0.837 1.5857721204e-38
0.0450288724442 -0.0822941461911 0.839 1.88093532308e-38
0.0466926329278 -0.0824903181724 0.841 1.35525025536e-38
0.0483637961277 -0.0826864901538 0.843 2.11120705635e-38
0.0501608055044 -0.0830788341166 0.847 1.44733238005e-38
0.0519726203136 -0.0834711780794 0.851 1.53031321134e-38
0.053736317467 -0.0837654360515 0.854 2.0098641705e-38
0.0553167973925 -0.0837654360515 0.854 2.0466731983e-38
0.057163775104 -0.0841577800142 0.858 1.93611046921e-38
0.0588886079969 -0.0843539519956 0.86 1.99139225414e-38
0.0606208436061 -0.084550123977 0.862 2.10181022911e-38
-0.0459634653743 -0.0853607214095 0.887 1.92660349991e-38
-0.0442219763698 -0.0851682507863 0.885 2.07393419876e-38
-0.0423435371141 -0.0846870742281 0.88 1.52086845969e-38
-0.0406224055793 -0.0844946036049 0.878 1.5579639129e-38
-0.0388642604631 -0.08420589767 0.875 1.51182854317e-38
-0.0372449162771 -0.08420589767 0.875 1.51182882343e-38
-0.0355441422121 -0.0840134270468 0.873 1.51179154889e-38
-0.0338507708634 -0.0838209564235 0.871 1.54877896198e-38
-0.0321648022309 -0.0836284858003 0.869 1.4934988586e-38
-0.0305565621193 -0.0836284858003 0.869 1.56711018797e-38
-0.0288816975613 -0.083436015177 0.867 1.50271814133e-38
-0.0272771588079 -0.083436015177 0.867 1.65033708727e-38
-0.0255837874591 -0.0831473092422 0.864 9.49687574853e-39
-0.0239848007429 -0.0831473092422 0.864 1.43854301569e-38
-0.0223858140267 -0.0831473092422 0.864 1.54877896198e-38
-0.0207868273105 -0.0831473092422 0.864 1.28144666784e-38
-0.0191434242967 -0.0829548386189 0.862 7.01675403028e-39
-0.0175074239991 -0.0827623679957 0.86 1.60434843349e-38
-0.0158788264178 -0.0825698973724 0.858 1.50253835474e-38
-0.0142576315527 -0.0823774267492 0.856 1.27194992802e-38
-0.012643839404 -0.082184956126 0.854 1.48272791809e-39
-0.0110633594785 -0.082184956126 0.854 1.14394831979e-38
-0.00944956732974 -0.0818962501911 0.851 1.38262223865e-38
-0.00787463944145 -0.0818962501911 0.851 1.71466047029e-38
-0.0062849061206 -0.0817037795678 0.849 8.63900503256e-42
-0.00470257551603 -0.0815113089446 0.847 1.52198767677e-38
-0.00312764762774 -0.0813188383213 0.845 9.49255694666e-39
-0.00155642109759 -0.0809338970749 0.841 7.27554162677e-42
0.0 -0.0807414264516 0.839 1.38366494484e-38
0.00154901838131 -0.0805489558284 0.837 1.22634635105e-38
0.00309803676263 -0.0805489558284 0.837 1.42028311579e-38
0.00463595106953 -0.0803564852051 0.835 1.45651144551e-38
0.0061812680927 -0.0803564852051 0.835 1.45647613279e-38
0.00772658511588 -0.0803564852051 0.835 1.49328235799e-38
0.00924969399022 -0.0801640145819 0.833 1.4011602963e-38
0.0107654001483 -0.0799715439586 0.831 1.4472565698e-38
0.0122737035901 -0.0797790733354 0.829 1.42892212082e-38
0.0137079798691 -0.0792016614656 0.823 1.45647585253e-38
0.015194075162 -0.0790091908424 0.821 1.49331865162e-38
0.0166727677387 -0.0788167202191 0.819 1.48406223448e-38
0.0181440575991 -0.0786242495959 0.817 1.43796498007e-38
0.0196079447432 -0.0784317789727 0.815 1.47491329694e-38
0.0211162481849 -0.0784317789727 0.815 1.46569569577e-38
0.0225690312546 -0.0782393083494 0.813 1.41045076498e-38
0.0240144116081 -0.0780468377262 0.811 1.71480536455e-38
0.0255153123336 -0.0780468377262 0.811 2.00068272283e-38
0.0270828375056 -0.0782393083494 0.813 1.97302361348e-38
0.0286577653939 -0.0784317789727 0.815 2.02823351181e-38
0.0302400959984 -0.0786242495959 0.817 1.95440638248e-38
0.0318298293193 -0.0788167202191 0.819 2.02816134494e-38
0.0335898251145 -0.0793941320889 0.825 1.91777798205e-38
0.0352017665842 -0.0795866027121 0.827 9.50269954494e-39
0.0369099433655 -0.0799715439586 0.831 1.89044649628e-38
0.0385403916259 -0.0801640145819 0.833 2.074403914e-38
0.0401782426026 -0.0803564852051 0.835 1.9729532683e-38
0.0417235596257 -0.0803564852051 0.835 1.12472236473e-38
0.0433725146768 -0.0805489558284 0.837 1.97323829241e-38
0.0450288724442 -0.0807414264516 0.839 1.39240792622e-38
0.0466926329278 -0.0809338970749 0.841 2.0003985395e-38
0.04847853823 -0.0813188383213 0.845 1.45637201631e-38
0.0502792489648 -0.0817037795678 0.849 1.78845494937e-38
0.0521558375415 -0.082184956126 0.854 1.75175424194e-38
0.0539880098204 -0.0825698973724 0.858 2.06511428609e-38
0.0557054399971 -0.0827623679957 0.86 2.08348026429e-38
0.057297023997 -0.0827623679957 0.86 1.97291613389e-38
0.0588886079969 -0.0827623679957 0.86 1.98213569688e-38
0.0606208436061 -0.0829548386189 0.862 2.09258898456e-38
0.0622161289642 -0.0829548386189 0.862 2.10170092783e-38
-0.0476050177091 -0.0837191690747 0.887 1.97255614032e-38
-0.0459634653743 -0.0837191690747 0.887 1.94496877745e-38
-0.0442219763698 -0.0835303998096 0.885 2.02780163162e-38
-0.0425841253931 -0.0835303998096 0.885 1.50239191905e-38
-0.0408074734862 -0.0832472459119 0.882 1.52097776097e-38
-0.0390863419515 -0.0830584766468 0.88 1.52104992784e-38
-0.0374577443701 -0.0830584766468 0.88 1.53948779264e-38
-0.0357477169098 -0.0828697073817 0.878 1.52094244825e-38
-0.0340062279052 -0.0825865534841 0.875 1.5393796124e-38
-0.0323128565565 -0.082397784219 0.873 1.52101181252e-38
-0.030626887924 -0.0822090149539 0.871 1.52101279343e-38
-0.0289483220078 -0.0820202456888 0.869 1.5393796124e-38
-0.0272771588079 -0.0818314764236 0.867 1.60398717875e-38
-0.0256726200545 -0.0818314764236 0.867 1.4843496408e-38
-0.0239848007429 -0.081548322526 0.864 1.57661981974e-38
-0.0223858140267 -0.081548322526 0.864 1.52097804123e-38
-0.0207868273105 -0.081548322526 0.864 1.54870735563e-38
-0.0191878405943 -0.081548322526 0.864 5.16231207635e-39
-0.0175481389386 -0.0813595532609 0.862 1.58569476873e-38
-0.0158788264178 -0.0809820147307 0.858 1.60398717875e-38
-0.0142576315527 -0.0807932454656 0.856 2.31471945401e-39
-0.0126734502691 -0.0807932454656 0.856 3.05618290525e-39
-0.0110633594785 -0.0806044762005 0.854 1.55771756463e-38
-0.00944956732974 -0.0803213223028 0.851 9.39900906378e-39
-0.00787463944145 -0.0803213223028 0.851 1.69657965634e-38
-0.0062849061206 -0.0801325530377 0.849 1.89445743287e-40
-0.00470257551603 -0.0799437837726 0.847 1.2919384697e-38
-0.00312764762774 -0.0797550145075 0.845 1.6962193825e-38
-0.00155642109759 -0.0793774759773 0.841 6.17854913696e-39
0.0 -0.0793774759773 0.841 1.62247156666e-38
0.00155271973945 -0.0791887067122 0.839 9.37889062173e-42
0.00310543947891 -0.0791887067122 0.839 1.25545033925e-38
0.00464705514394 -0.078999937447 0.837 1.40122910005e-38
0.0061812680927 -0.0788111681819 0.835 1.47484239124e-38
0.00772658511588 -0.0788111681819 0.835 1.46573128875e-38
0.00927190213905 -0.0788111681819 0.835 1.46566038305e-38
0.0107913096553 -0.0786223989168 0.833 1.44714937047e-38
0.0123033144552 -0.0784336296517 0.831 1.49331739045e-38
0.0138079165388 -0.0782448603866 0.829 1.45647585253e-38
0.015194075162 -0.0774897833262 0.821 1.47502245809e-38
0.0167134826782 -0.0774897833262 0.821 1.46573072823e-38
0.0181884738967 -0.0773010140611 0.819 1.47491581928e-38
0.019656062399 -0.077112244796 0.817 1.49331893188e-38
0.0211680671989 -0.077112244796 0.817 1.45644236149e-38
0.0226245516267 -0.0769234755309 0.815 1.45651144551e-38
0.0241328550685 -0.0769234755309 0.815 1.65019667717e-38
0.0256411585103 -0.0769234755309 0.815 1.97288082117e-38
0.0271494619521 -0.0769234755309 0.815 1.93603788195e-38
0.0287280911985 -0.077112244796 0.817 1.98202807716e-38
0.0303141231612 -0.0773010140611 0.819 2.06511176376e-38
0.0319075578402 -0.0774897833262 0.821 1.51226588842e-38
0.0336712549936 -0.0780560911215 0.827 1.18065154956e-38
0.0352868978214 -0.0782448603866 0.829 2.11124657297e-38
0.0369099433655 -0.0784336296517 0.831 2.08340627573e-38
0.0385403916259 -0.0786223989168 0.833 1.93614550167e-38
0.0401782426026 -0.0788111681819 0.835 1.65016108419e-38
0.0418234962955 -0.078999937447 0.837 1.93621612711e-38
0.0433725146768 -0.078999937447 0.837 1.55822007026e-38
0.0450288724442 -0.0791887067122 0.839 2.12032180221e-38
0.046803673672 -0.0795662452424 0.843 1.43789603619e-38
0.0485932803324 -0.0799437837726 0.847 1.73299842252e-38
0.0503976924253 -0.0803213223028 0.851 1.84434447745e-38
0.0521558375415 -0.0806044762005 0.854 2.05600010075e-38
0.0541138559972 -0.0811707839958 0.86 2.0557477269e-38
0.0557054399971 -0.0811707839958 0.86 1.96362496455e-38
0.05743027289 -0.0813595532609 0.862 2.02816134494e-38
0.0590255582481 -0.0813595532609 0.862 2.0281616252e-38
0.0606208436061 -0.0813595532609 0.862 2.09255367184e-38
-0.0476050177091 -0.0820776167399 0.887 1.93571362148e-38
-0.0459634653743 -0.0820776167399 0.887 1.96340566134e-38
-0.0442219763698 -0.0818925488329 0.885 2.00028559485e-38
-0.0425841253931 -0.0818925488329 0.885 1.58533323372e-38
-0.0409462744165 -0.0818925488329 0.885 1.47473701359e-38
-0.0391751745468 -0.0816149469725 0.882 1.47495211291e-38
-0.0375428756073 -0.0816149469725 0.882 1.52101335395e-38
-0.0357477169098 -0.0812448111586 0.878 1.51175791772e-38
-0.0341228206866 -0.0812448111586 0.878 1.54856442319e-38
-0.0323868837192 -0.0809672092981 0.875 1.5025761898e-38
-0.0307675395333 -0.0809672092981 0.875 1.53033955575e-38
-0.0290815709008 -0.0807821413911 0.873 1.47505777081e-38
-0.0274030049846 -0.0805970734842 0.871 1.60369949217e-38
-0.0257318417847 -0.0804120055772 0.869 8.11363161362e-39
-0.0240680813011 -0.0802269376702 0.867 1.10736321949e-38
-0.0224635425477 -0.0802269376702 0.867 1.49385885218e-38
-0.0208590037943 -0.0802269376702 0.867 1.56707389434e-38
-0.0192544650409 -0.0802269376702 0.867 1.65005010135e-38
-0.0175888538782 -0.0799493358098 0.864 1.54859945565e-38
-0.0159528535806 -0.0797642679028 0.862 1.69625469522e-38
-0.0143242559993 -0.0795791999959 0.86 2.21564204739e-39
-0.0127030611342 -0.0793941320889 0.858 9.31650481409e-39
-0.0110892689855 -0.0792090641819 0.856 1.53892222858e-38
-0.00950508770183 -0.0792090641819 0.856 2.30823004082e-39
-0.0079023996275 -0.079023996275 0.854 1.72434750645e-38
-0.006321919702 -0.079023996275 0.854 8.3876737452e-39
-0.00472478366487 -0.0787463944145 0.851 1.50254424019e-38
-0.00312764762774 -0.0781911906936 0.845 1.44754593793e-38
-0.00156382381387 -0.0781911906936 0.845 1.08790787187e-38
0.0 -0.0780061227866 0.843 1.46559760488e-38
0.00155642109759 -0.0778210548797 0.841 3.4144753044e-39
0.00311284219519 -0.0778210548797 0.841 1.46631661112e-38
0.00465815921836 -0.0776359869727 0.839 1.43803644629e-38
0.00619607352526 -0.0774509190657 0.837 1.49324704527e-38
0.00774509190657 -0.0774509190657 0.837 1.44718440293e-38
0.00927190213905 -0.0772658511588 0.835 1.50250136046e-38
0.0107913096553 -0.0770807832518 0.833 1.49331739045e-38
0.0123033144552 -0.0768957153448 0.831 1.49328179747e-38
0.0138412287621 -0.0768957153448 0.831 1.45644082006e-38
0.0153051159062 -0.0765255795309 0.827 1.47502273835e-38
0.0167541976177 -0.076155443717 0.823 1.47495085174e-38
0.0182328901944 -0.07597037581 0.821 1.4656972372e-38
0.0197041800548 -0.075785307903 0.819 1.50253835474e-38
0.0212198862128 -0.075785307903 0.819 1.53930926722e-38
0.0226800719988 -0.0756002399961 0.817 1.43800169409e-38
0.0241920767987 -0.0756002399961 0.817 1.677782919e-38
0.0257040815987 -0.0756002399961 0.817 1.94518681949e-38
0.0272827108451 -0.075785307903 0.819 2.00053922987e-38
0.0287984170032 -0.075785307903 0.819 1.91759875597e-38
0.030388150324 -0.07597037581 0.821 2.01901394882e-38
0.0319852863611 -0.076155443717 0.823 1.35542205455e-38
0.0336712549936 -0.0765255795309 0.827 2.00065049297e-38
0.0352868978214 -0.0767106474379 0.829 2.1755319808e-38
0.0369987759609 -0.0770807832518 0.833 1.82554759998e-38
0.0386329255794 -0.0772658511588 0.835 1.28159730742e-38
0.0402744779142 -0.0774509190657 0.837 1.98217297142e-38
0.0418234962955 -0.0774509190657 0.837 1.31829381096e-38
0.0434761527047 -0.0776359869727 0.839 2.09259346872e-38
0.0451362118302 -0.0778210548797 0.841 1.51182854317e-38
0.046803673672 -0.0780061227866 0.843 1.84348548149e-38
0.0485932803324 -0.0783762586006 0.847 1.81611139625e-38
0.0503976924253 -0.0787463944145 0.851 2.09291646801e-38
0.0521558375415 -0.079023996275 0.854 1.9821362574e-38
0.0541138559972 -0.0795791999959 0.86 2.00965187378e-38
0.055834987532 -0.0797642679028 0.862 2.00043189041e-38
0.05743027289 -0.0797642679028 0.862 2.0189786361e-38
0.0590255582481 -0.0797642679028 0.862 1.97291641415e-38
0.0606208436061 -0.0797642679028 0.862 2.12943192379e-38
-0.0476050177091 -0.0804360644051 0.887 1.94496877745e-38
-0.0459634653743 -0.0804360644051 0.887 1.88954321929e-38
-0.0443219130396 -0.0804360644051 0.887 2.01865269408e-38
-0.0426803607048 -0.0804360644051 0.887 1.71444396968e-38
-0.0409462744165 -0.0802546978563 0.885 1.52090615462e-38
-0.0393084234398 -0.0802546978563 0.885 1.50253891526e-38
-0.0375428756073 -0.079982648033 0.882 1.55803425808e-38
-0.0359105766679 -0.079982648033 0.882 1.50278904703e-38
-0.0341228206866 -0.0796199149354 0.878 1.51168659163e-38
-0.0324979244634 -0.0796199149354 0.878 1.51175847824e-38
-0.0307675395333 -0.0793478651121 0.875 1.51186385589e-38
-0.0291481953473 -0.0793478651121 0.875 1.63175544925e-38
-0.027465928073 -0.0791664985633 0.873 9.95361496999e-39
-0.0257910635149 -0.0789851320145 0.871 1.14301281294e-38
-0.0241236016732 -0.0788037654657 0.869 8.39850718362e-39
-0.0225153615616 -0.0788037654657 0.869 7.56875632394e-39
-0.0209071214501 -0.0788037654657 0.869 1.42002878012e-38
-0.0192544650409 -0.0786223989168 0.867 1.38318654154e-38
-0.0176499262875 -0.0786223989168 0.867 1.25425909542e-38
-0.0159528535806 -0.0781689825448 0.862 1.55807055171e-38
-0.0143242559993 -0.0779876159959 0.86 1.61320674174e-38
-0.0127326719993 -0.0779876159959 0.86 1.50264415277e-38
-0.0111151784924 -0.0778062494471 0.858 1.59469376733e-38
-0.00950508770183 -0.0776248828983 0.856 2.67328370506e-39
-0.0079023996275 -0.0774435163495 0.854 8.57927048163e-39
-0.006321919702 -0.0774435163495 0.854 1.26329873169e-38
-0.00472478366487 -0.0771714665262 0.851 1.0976384884e-38
-0.0031424530603 -0.0769900999774 0.849 9.86781626762e-39
-0.00156752517201 -0.0768087334286 0.847 1.52980131701e-38
0.0 -0.0766273668797 0.845 4.13884011177e-39
0.00156382381387 -0.0766273668797 0.845 5.53761623886e-39
0.00312024491147 -0.0764460003309 0.843 1.43833184001e-38
0.00466926329278 -0.0762646337821 0.841 1.51168603111e-38
0.00621087895782 -0.0760832672332 0.839 1.48399216956e-38
0.00776359869727 -0.0760832672332 0.839 1.48402692176e-38
0.00927190213905 -0.0757205341356 0.835 1.44729188252e-38
0.0108172191622 -0.0757205341356 0.835 1.45654647797e-38
0.0123329253203 -0.0755391675868 0.833 1.46573100849e-38
0.0138412287621 -0.0753578010379 0.831 1.44721957552e-38
0.0153421294876 -0.0751764344891 0.829 1.521011252e-38
0.0167949125573 -0.0748137013915 0.825 1.44721999591e-38
0.0182773064921 -0.0746323348426 0.823 1.47484239124e-38
0.0197522977106 -0.0744509682938 0.821 1.47480735878e-38
0.0212717052268 -0.0744509682938 0.821 1.49331893188e-38
0.0227355923709 -0.074269601745 0.819 1.44722153734e-38
0.024251298529 -0.074269601745 0.819 1.73335197012e-38
0.0258299277754 -0.0744509682938 0.821 1.92689062596e-38
0.0273493352916 -0.0744509682938 0.821 1.99142784713e-38
0.0288687428078 -0.0744509682938 0.821 1.94536534491e-38
0.0304621774868 -0.0746323348426 0.823 2.01894234247e-38
0.0320630148821 -0.0748137013915 0.825 2.05581989377e-38
0.0336712549936 -0.0749950679403 0.827 2.09258926482e-38
0.0353720290586 -0.0753578010379 0.831 1.74249964649e-38
0.0369987759609 -0.0755391675868 0.833 1.3372351623e-38
0.0386329255794 -0.0757205341356 0.835 1.76133884318e-38
0.0402744779142 -0.0759019006844 0.837 1.57658058338e-38
0.0418234962955 -0.0759019006844 0.837 1.97306284984e-38
0.0434761527047 -0.0760832672332 0.839 1.63175727094e-38
0.0451362118302 -0.0762646337821 0.841 1.58541114592e-38
0.0469147144162 -0.0766273668797 0.845 2.06503763507e-38
0.0485932803324 -0.0768087334286 0.847 1.7606548694e-38
0.050575357616 -0.0774435163495 0.854 1.84391413869e-38
0.0525222719973 -0.0779876159959 0.86 2.00067669725e-38
0.0542397021739 -0.0781689825448 0.862 2.07429629428e-38
0.055834987532 -0.0781689825448 0.862 2.0465647378e-38
0.05743027289 -0.0781689825448 0.862 2.00057482285e-38
0.0590255582481 -0.0781689825448 0.862 2.02826882453e-38
0.0606208436061 -0.0781689825448 0.862 2.10177365522e-38
-0.0459634653743 -0.0787945120703 0.887 1.96333531616e-38
-0.0443219130396 -0.0787945120703 0.887 1.99081421853e-38
-0.0426803607048 -0.0787945120703 0.887 1.79742017669e-38
-0.04103880837 -0.0787945120703 0.887 1.40108840969e-38
-0.0393972560352 -0.0787945120703 0.887 1.50264653498e-38
-0.0376705724632 -0.0786168468796 0.885 1.47495057148e-38
-0.0360327214865 -0.0786168468796 0.885 1.52108524056e-38
-0.0342782777284 -0.0783503490936 0.882 1.58558504706e-38
-0.0325719516262 -0.0781726839029 0.88 1.54856414293e-38
-0.0308730282403 -0.0779950187122 0.878 1.53952310537e-38
-0.0291481953473 -0.0777285209262 0.875 1.54870735563e-38
-0.0275288511614 -0.0777285209262 0.875 1.30021047467e-38
-0.0258502852452 -0.0775508557355 0.873 1.56747018155e-38
-0.0241236016732 -0.0771955253541 0.869 1.57636548407e-38
-0.0225153615616 -0.0771955253541 0.869 1.24453380382e-38
-0.0209071214501 -0.0771955253541 0.869 1.39230044663e-38
-0.0192988813385 -0.0771955253541 0.869 9.41152966556e-39
-0.0176499262875 -0.0770178601634 0.867 3.69832932782e-39
-0.015989867162 -0.0767513623774 0.864 1.49392471321e-38
-0.0143575682225 -0.0765736971867 0.862 1.36474517349e-38
-0.0127326719993 -0.076396031996 0.86 1.55814117715e-38
-0.0111151784924 -0.0762183668053 0.858 1.57618793955e-38
-0.00950508770183 -0.0760407016146 0.856 1.65908973761e-38
-0.00792090641819 -0.0760407016146 0.856 1.39208394601e-38
-0.006321919702 -0.075863036424 0.854 9.77599898834e-39
-0.00472478366487 -0.0755965386379 0.851 6.92012749467e-39
-0.00314985577658 -0.0755965386379 0.851 7.65444572504e-39
-0.00156752517201 -0.0752412082565 0.847 1.49271791497e-38
0.0 -0.0752412082565 0.847 3.9680820848e-39
0.00156382381387 -0.0750635430659 0.845 9.50448900308e-39
0.00312764762774 -0.0750635430659 0.845 1.18929854199e-38
0.0046803673672 -0.0748858778752 0.843 1.539559399e-38
0.00622568439037 -0.0747082126845 0.841 1.47495085174e-38
0.00776359869727 -0.0745305474938 0.839 1.46573226966e-38
0.00929411028789 -0.0743528823031 0.837 1.51175679668e-38
0.0108172191622 -0.0741752171124 0.835 1.47484295176e-38
0.0123625361854 -0.0741752171124 0.835 1.46573254992e-38
0.0138745409853 -0.0739975519217 0.833 1.4656972372e-38
0.0153421294876 -0.0736422215403 0.829 1.48406251474e-38
0.0168356274968 -0.0734645563497 0.827 1.56700523072e-38
0.0183217227897 -0.073286891159 0.825 1.52104838641e-38
0.0198004153664 -0.0731092259683 0.823 1.47495057148e-38
0.0213235242407 -0.0731092259683 0.823 1.51179323044e-38
0.0228466331151 -0.0731092259683 0.823 1.46573254992e-38
0.0243697419894 -0.0731092259683 0.823 1.74260684583e-38
0.0258928508638 -0.0731092259683 0.823 1.91774266933e-38
0.0274159597381 -0.0731092259683 0.823 1.91763434896e-38
0.0289390686124 -0.0731092259683 0.823 2.02823351181e-38
0.0305362046496 -0.073286891159 0.825 1.9821710096e-38
0.032140743403 -0.0734645563497 0.827 1.98220772362e-38
0.0338341147517 -0.073819886731 0.831 1.47521023209e-38
0.0354571602958 -0.0739975519217 0.833 1.71502074413e-38
0.0370876085562 -0.0741752171124 0.835 1.28192380997e-38
0.0387254595329 -0.0743528823031 0.837 1.8718603741e-38
0.0403707132258 -0.0745305474938 0.839 1.61357346154e-38
0.0419234329653 -0.0745305474938 0.839 1.7055859417e-38
0.0436834287605 -0.0748858778752 0.843 1.70548000353e-38
0.0453508906023 -0.0750635430659 0.845 1.93618109465e-38
0.0471367959045 -0.0754188734472 0.849 1.73332058103e-38
0.048822764537 -0.0755965386379 0.851 1.79806841736e-38
0.0508122445369 -0.0762183668053 0.858 1.32798056685e-38
0.0526444168159 -0.0765736971867 0.862 2.06497121352e-38
0.0543655483507 -0.0767513623774 0.864 1.98199248418e-38
0.0559645350669 -0.0767513623774 0.864 2.00050279611e-38
0.057563521783 -0.0767513623774 0.864 2.00979438584e-38
0.0591625084992 -0.0767513623774 0.864 1.98213597714e-38
0.0607614952154 -0.0767513623774 0.864 2.17546009419e-38
-0.0460671034023 -0.0773269235681 0.889 1.90794787332e-38
-0.0444218497093 -0.0773269235681 0.889 1.93553397502e-38
-0.0427765960164 -0.0773269235681 0.889 1.92645902603e-38
-0.04103880837 -0.0771529597355 0.887 1.41030825293e-38
-0.0393972560352 -0.0771529597355 0.887 1.57622353254e-38
-0.0377557037004 -0.0771529597355 0.887 1.51172344578e-38
-0.0360327214865 -0.076978995903 0.885 1.53026921057e-38
-0.0343948705098 -0.076978995903 0.885 1.52094146734e-38
-0.032645978789 -0.0767180501541 0.882 1.5393796124e-38
-0.0308730282403 -0.076370122489 0.878 1.52104810615e-38
-0.0292481320171 -0.076370122489 0.878 1.64990674852e-38
-0.0275288511614 -0.0761091767402 0.875 7.01081812998e-39
-0.0258502852452 -0.0759352129077 0.873 1.26394585132e-38
-0.0241791220453 -0.0757612490751 0.871 1.30028278167e-38
-0.0225671805756 -0.0757612490751 0.871 1.50278904703e-38
-0.0209552391059 -0.0757612490751 0.871 1.70547299704e-38
-0.0192988813385 -0.0755872852426 0.869 1.35520793615e-38
-0.017690641227 -0.0755872852426 0.869 1.18943685015e-38
-0.016045387534 -0.07541332141 0.867 9.86534017323e-39
-0.0143908804458 -0.0751523756612 0.864 1.02438715261e-38
-0.0127622828645 -0.0749784118287 0.862 7.01986351157e-39
-0.0111410879994 -0.0748044479961 0.86 1.33669215915e-38
-0.00952729585067 -0.0746304841636 0.858 1.4565480194e-38
-0.00792090641819 -0.074456520331 0.856 1.56725354081e-38
-0.00633672513455 -0.074456520331 0.856 1.63154077032e-38
-0.0047414397765 -0.0742825564985 0.854 1.62239127226e-38
-0.00314985577658 -0.0740216107496 0.851 9.58552889587e-39
-0.00157122653015 -0.0738476469171 0.849 1.54856386267e-38
0.0 -0.0738476469171 0.849 5.0867134255e-42
0.00156752517201 -0.0736736830845 0.847 1.55843054528e-38
0.00312764762774 -0.073499719252 0.845 6.54593175925e-39
0.0046803673672 -0.0733257554194 0.843 1.46605695052e-38
0.00624048982293 -0.0733257554194 0.843 1.502538635e-38
0.00776359869727 -0.0729778277543 0.839 1.43800169409e-38
0.00929411028789 -0.0728038639218 0.837 1.50250164072e-38
0.0108431286692 -0.0728038639218 0.837 1.43796469981e-38
0.0123625361854 -0.0726299000892 0.835 1.43796469981e-38
0.0138745409853 -0.0724559362567 0.833 1.43800169409e-38
0.015379143069 -0.0722819724241 0.831 1.52090587436e-38
0.0168763424363 -0.0721080085916 0.829 1.5025719859e-38
0.0183661390874 -0.071934044759 0.827 1.45647585253e-38
0.0198485330222 -0.0717600809265 0.825 1.48409782747e-38
0.0213753432547 -0.0717600809265 0.825 1.49331865162e-38
0.0229021534872 -0.0717600809265 0.825 1.41963543564e-38
0.0244289637197 -0.0717600809265 0.825 1.77012232208e-38
0.0259557739521 -0.0717600809265 0.825 2.000683984e-38
0.0274825841846 -0.0717600809265 0.825 1.9821710096e-38
0.0290093944171 -0.0717600809265 0.825 2.00057426233e-38
0.0306102318124 -0.071934044759 0.827 2.10202560868e-38
0.0322184719239 -0.0721080085916 0.829 1.42910667183e-38
0.0339155446308 -0.0724559362567 0.833 1.77987956329e-38
0.035542291533 -0.0726299000892 0.835 1.25358394982e-38
0.0370876085562 -0.0726299000892 0.835 2.10166253225e-38
0.0387254595329 -0.0728038639218 0.837 1.78870690284e-38
0.0403707132258 -0.0729778277543 0.839 1.62278377596e-38
0.042023369635 -0.0731517915869 0.841 1.88972931173e-38
0.0436834287605 -0.0733257554194 0.843 1.98220772362e-38
0.0453508906023 -0.073499719252 0.845 1.35560996867e-38
0.0472478366487 -0.0740216107496 0.851 1.93618207556e-38
0.0489948776905 -0.0742825564985 0.854 1.43815219355e-38
0.0508122445369 -0.0746304841636 0.858 2.19382789407e-38
0.0526444168159 -0.0749784118287 0.862 2.10180896794e-38
0.0545543176158 -0.07541332141 0.867 2.02819693792e-38
0.056288403904 -0.0755872852426 0.869 2.07433132674e-38
0.0580298929086 -0.0757612490751 0.871 1.98213569688e-38
0.0596418343783 -0.0757612490751 0.871 2.04652788365e-38
0.061253775848 -0.0757612490751 0.871 2.03723643405e-38
-0.0460671034023 -0.0756816698751 0.889 1.92645762474e-38
-0.0444218497093 -0.0756816698751 0.889 2.01865269408e-38
-0.0427765960164 -0.0756816698751 0.889 1.94493318447e-38
-0.0411313423234 -0.0756816698751 0.889 1.44722125708e-38
-0.0393972560352 -0.0755114074007 0.887 1.53941744746e-38
-0.0377557037004 -0.0755114074007 0.887 1.52094146734e-38
-0.0361141513656 -0.0755114074007 0.887 1.56711046823e-38
-0.0343948705098 -0.0753411449263 0.885 1.54859917539e-38
-0.0327570195332 -0.0753411449263 0.885 1.50257324707e-38
-0.0310136798495 -0.0750857512147 0.882 1.51179154889e-38
-0.0292481320171 -0.0747452262659 0.878 1.58540540059e-38
-0.0275288511614 -0.0744898325543 0.875 1.41048551719e-38
-0.0259095069754 -0.0744898325543 0.875 1.07901761402e-38
-0.0242346424173 -0.0743195700798 0.873 1.10710734239e-38
-0.0226189995895 -0.0743195700798 0.873 7.4754466618e-39
-0.0209552391059 -0.0741493076054 0.871 1.15205230907e-38
-0.0193432976362 -0.0741493076054 0.871 1.59455307697e-38
-0.017690641227 -0.073979045131 0.869 1.4289966699e-38
-0.0160824011154 -0.073979045131 0.869 1.58580014637e-38
-0.0144408487806 -0.0738087826566 0.867 1.41073733052e-38
-0.0127918937296 -0.073553388945 0.864 1.34645080165e-38
-0.0111669975064 -0.0733831264706 0.862 1.24464100315e-38
-0.0095495039995 -0.0732128639962 0.86 1.08798228082e-38
-0.00793941320889 -0.0730426015218 0.858 9.3161348713e-39
-0.00633672513455 -0.0728723390474 0.856 1.14373602308e-38
-0.00475254385092 -0.0728723390474 0.856 1.54885098872e-38
-0.003160959851 -0.072702076573 0.854 1.49346172419e-38
-0.00157492788829 -0.0724466828613 0.851 1.66856139419e-38
0.0 -0.0724466828613 0.851 1.30935787078e-38
0.00157122653015 -0.0722764203869 0.849 1.46605470844e-38
0.00312764762774 -0.0719358954381 0.845 1.66106276585e-39
0.00469147144162 -0.0719358954381 0.845 1.53066577803e-38
0.00624048982293 -0.0717656329637 0.843 1.45640424617e-38
0.00778210548797 -0.0715953704893 0.841 1.50253891526e-38
0.00931631843672 -0.0714251080149 0.839 1.49328389942e-38
0.0108431286692 -0.0712548455405 0.837 1.51168631137e-38
0.0123625361854 -0.0710845830661 0.835 1.47480735878e-38
0.0139078532086 -0.0710845830661 0.835 1.4933542446e-38
0.0154161566504 -0.0709143205917 0.833 1.48420712875e-38
0.0168763424363 -0.0705737956428 0.829 1.46573072823e-38
0.0184105553851 -0.0705737956428 0.829 1.5209764998e-38
0.019896650678 -0.0704035331684 0.827 1.56685851477e-38
0.0214271622687 -0.0704035331684 0.827 1.53008802268e-38
0.0229576738593 -0.0704035331684 0.827 1.48427929562e-38
0.0244881854499 -0.0704035331684 0.827 1.70572901427e-38
0.0260186970405 -0.0704035331684 0.827 2.0282700857e-38
0.0275492086311 -0.0704035331684 0.827 1.89912459754e-38
0.0290797202217 -0.0704035331684 0.827 1.95437008885e-38
0.0306842589751 -0.0705737956428 0.829 2.0281616252e-38
0.0322184719239 -0.0705737956428 0.829 1.88090197218e-38
0.0339969745099 -0.0710845830661 0.835 1.18000022603e-38
0.035542291533 -0.0710845830661 0.835 2.19382789407e-38
0.0371764411516 -0.0712548455405 0.837 1.31833318745e-38
0.0388179934863 -0.0714251080149 0.839 1.47535064219e-38
0.0404669485374 -0.0715953704893 0.841 1.55793462576e-38
0.0421233063048 -0.0717656329637 0.843 2.01894360364e-38
0.0440979808721 -0.0724466828613 0.851 1.46602416013e-38
0.0456729087604 -0.0724466828613 0.851 1.88082560141e-38
0.047414397765 -0.072702076573 0.854 1.74253467896e-38
0.0489948776905 -0.072702076573 0.854 1.79731634047e-38
0.0508122445369 -0.0730426015218 0.858 2.00979438584e-38
0.0527665616345 -0.073553388945 0.864 1.98220772362e-38
0.0546801637925 -0.073979045131 0.869 2.0372732882e-38
0.0565474989738 -0.0743195700798 0.873 1.99124764014e-38
0.0581631418016 -0.0743195700798 0.873 2.01901394882e-38
0.0599157348806 -0.0744898325543 0.875 2.00057482285e-38
0.0615350790666 -0.0744898325543 0.875 2.10177365522e-38
-0.0460671034023 -0.0740364161822 0.889 1.91720218851e-38
-0.0444218497093 -0.0740364161822 0.889 1.93578578835e-38
-0.0427765960164 -0.0740364161822 0.889 1.96344447731e-38
-0.0411313423234 -0.0740364161822 0.889 1.42871010436e-38
-0.0394860886305 -0.0740364161822 0.889 1.50264681524e-38
-0.0377557037004 -0.0738698550659 0.887 1.54870707537e-38
-0.0361141513656 -0.0738698550659 0.887 1.60402445329e-38
-0.0344725990308 -0.0738698550659 0.887 1.65012226822e-38
-0.0327570195332 -0.0737032939496 0.885 1.59480517056e-38
-0.0311191685565 -0.0737032939496 0.885 1.56710920706e-38
-0.0293147564636 -0.073286891159 0.88 1.57629317707e-38
-0.0276232357939 -0.0731203300427 0.878 1.54867232317e-38
-0.0259983395707 -0.0731203300427 0.878 1.61313611629e-38
-0.0242346424173 -0.072703927252 0.873 1.465984083e-38
-0.0226189995895 -0.072703927252 0.873 1.50278904703e-38
-0.0210033567617 -0.072703927252 0.873 1.22569614857e-38
-0.0193432976362 -0.0725373661358 0.871 9.76847821948e-39
-0.0177313561665 -0.0725373661358 0.871 1.11614697865e-38
-0.0160824011154 -0.0723708050195 0.869 1.01480437306e-38
-0.0144741610039 -0.0723708050195 0.869 1.50282379923e-38
-0.0128659208924 -0.0723708050195 0.869 1.43825210613e-38
-0.0111669975064 -0.0717878411125 0.862 1.49371367766e-38
-0.0095495039995 -0.0716212799963 0.86 1.58565721393e-38
-0.00795791999959 -0.0716212799963 0.86 1.24449652928e-38
-0.00635153056711 -0.07145471888 0.858 9.04098991783e-39
-0.00476364792533 -0.07145471888 0.858 7.93462554389e-39
-0.00316836256728 -0.0712881577637 0.856 7.93465216856e-39
-0.0015804799255 -0.0711215966475 0.854 1.39223192313e-38
0.0 -0.0708717549731 0.851 1.53944869642e-38
0.00157492788829 -0.0708717549731 0.851 1.61317170927e-38
0.00313505034402 -0.0705386327405 0.847 1.40159091531e-38
0.00469147144162 -0.0703720716242 0.845 1.44765313726e-38
0.00624048982293 -0.070205510508 0.843 1.46573128875e-38
0.00780061227866 -0.070205510508 0.843 1.49342697199e-38
0.00931631843672 -0.0698723882754 0.839 1.44722153734e-38
0.0108431286692 -0.0697058271592 0.837 1.47480735878e-38
0.0123625361854 -0.0695392660429 0.835 1.47484295176e-38
0.0139078532086 -0.0695392660429 0.835 1.45647459136e-38
0.0154161566504 -0.0693727049266 0.833 1.46580317536e-38
0.0168763424363 -0.0690395826941 0.829 1.47495057148e-38
0.0184105553851 -0.0690395826941 0.829 1.49335396434e-38
0.019896650678 -0.0688730215778 0.827 1.52083286671e-38
0.0214271622687 -0.0688730215778 0.827 1.51164861644e-38
0.0229576738593 -0.0688730215778 0.827 1.47502273835e-38
0.0244881854499 -0.0688730215778 0.827 1.73349658412e-38
0.0260186970405 -0.0688730215778 0.827 2.02823477298e-38
0.0275492086311 -0.0688730215778 0.827 2.04667263778e-38
0.0291500460264 -0.0690395826941 0.829 2.01894332338e-38
0.0306842589751 -0.0690395826941 0.829 1.74231957964e-38
0.0322962004448 -0.0692061438103 0.831 1.53923738061e-38
0.0339969745099 -0.0695392660429 0.835 2.13865484989e-38
0.035542291533 -0.0695392660429 0.835 2.04652788365e-38
0.0371764411516 -0.0697058271592 0.837 1.74289369162e-38
0.0388179934863 -0.0698723882754 0.839 1.30029062894e-38
0.040563183849 -0.070205510508 0.843 2.14790482105e-38
0.0424231163141 -0.0707051938568 0.849 1.31815340085e-38
0.0440979808721 -0.0708717549731 0.851 1.92707097307e-38
0.0456729087604 -0.0708717549731 0.851 1.54914091738e-38
0.047414397765 -0.0711215966475 0.854 1.59470371655e-38
0.0491096197928 -0.0712881577637 0.856 1.78888388683e-38
0.0509306879973 -0.0716212799963 0.86 1.62318454732e-38
0.053071923681 -0.0723708050195 0.869 2.03748992895e-38
0.0548060099692 -0.0725373661358 0.871 2.00039531652e-38
0.0565474989738 -0.072703927252 0.873 2.06503973701e-38
0.0582963906946 -0.0728704883683 0.875 2.03741776208e-38
0.0599157348806 -0.0728704883683 0.875 2.03748866778e-38
0.0615350790666 -0.0728704883683 0.875 2.04645599704e-38
-0.0444218497093 -0.0723911624893 0.889 1.96330000344e-38
-0.0427765960164 -0.0723911624893 0.889 2.08318963498e-38
-0.0411313423234 -0.0723911624893 0.889 1.40094365555e-38
-0.0394860886305 -0.0723911624893 0.889 1.56725410132e-38
-0.0378408349376 -0.0723911624893 0.889 1.34587851136e-38
-0.0361955812446 -0.0723911624893 0.889 6.62533913933e-42
-0.0344725990308 -0.0722283027311 0.887 1.04232433347e-38
-0.032831046696 -0.0722283027311 0.887 1.38322031284e-38
-0.0311191685565 -0.072065442973 0.885 1.53981121233e-38
-0.0293813809101 -0.0718211533358 0.882 1.62257119898e-38
-0.0276861588823 -0.0716582935777 0.88 1.60391655331e-38
-0.0259983395707 -0.0714954338195 0.878 1.622390992e-38
-0.0242901627894 -0.0712511441823 0.875 1.53941744746e-38
-0.0226708186035 -0.0712511441823 0.875 1.57629345733e-38
-0.0210033567617 -0.0710882844242 0.873 1.64083207979e-38
-0.0193432976362 -0.0709254246661 0.871 1.55803425808e-38
-0.0177313561665 -0.0709254246661 0.871 1.24478617768e-38
-0.0160824011154 -0.0707625649079 0.869 1.23556787586e-38
-0.0144741610039 -0.0707625649079 0.869 8.94446567701e-39
-0.0128659208924 -0.0707625649079 0.869 6.45988502705e-39
-0.0111929070134 -0.0703554155126 0.864 9.41046047483e-39
-0.00957171214834 -0.0701925557545 0.862 1.38297424483e-38
-0.00795791999959 -0.0700296959964 0.86 1.61320520031e-38
-0.00636633599967 -0.0700296959964 0.86 1.47498560394e-38
-0.00476364792533 -0.0698668362382 0.858 1.41995689351e-38
-0.00316836256728 -0.0697039764801 0.856 1.08812717508e-38
-0.0015804799255 -0.069541116722 0.854 9.5934448309e-39
0.0 -0.069541116722 0.854 9.86102417396e-39
0.00157492788829 -0.0692968270848 0.851 1.48388651166e-38
0.0031424530603 -0.0691339673266 0.849 1.53948779264e-38
0.00470257551603 -0.0689711075685 0.847 1.50271716042e-38
0.00625529525549 -0.0688082478104 0.845 1.49349731717e-38
0.00780061227866 -0.0686453880522 0.843 1.45654829966e-38
0.00931631843672 -0.068319668536 0.839 1.50253835474e-38
0.0108690381762 -0.068319668536 0.839 1.50257366746e-38
0.0123921470505 -0.0681568087778 0.837 1.55781929889e-38
0.0139078532086 -0.0679939490197 0.835 1.4748426715e-38
0.0154161566504 -0.0678310892616 0.833 1.45647585253e-38
0.0169577723154 -0.0678310892616 0.833 1.45651116525e-38
0.0184105553851 -0.0675053697453 0.829 1.50257394772e-38
0.0199447683338 -0.0675053697453 0.829 1.50246828981e-38
0.0214789812826 -0.0675053697453 0.829 1.58540512033e-38
0.0230131942314 -0.0675053697453 0.829 1.50268156744e-38
0.0245474071801 -0.0675053697453 0.829 1.76101234064e-38
0.0260816201289 -0.0675053697453 0.829 1.91763603051e-38
0.0276158330776 -0.0675053697453 0.829 2.00979438584e-38
0.029220371831 -0.0676682295035 0.831 1.90837947325e-38
0.0308323133007 -0.0678310892616 0.833 1.99128295286e-38
0.0324516574867 -0.0679939490197 0.835 2.04652844417e-38
0.0340784043889 -0.0681568087778 0.837 2.01886905456e-38
0.0356274227702 -0.0681568087778 0.837 1.78877724802e-38
0.0374429389376 -0.0686453880522 0.843 1.33723544256e-38
0.0390955953468 -0.0688082478104 0.845 2.01004423735e-38
0.0407556544723 -0.0689711075685 0.847 1.3274079963e-38
0.0424231163141 -0.0691339673266 0.849 1.79789311492e-38
0.0440979808721 -0.0692968270848 0.851 1.54910686582e-38
0.0456729087604 -0.0692968270848 0.851 1.78813405202e-38
0.047414397765 -0.069541116722 0.854 1.89001013194e-38
0.0491096197928 -0.0697039764801 0.856 1.42921751454e-38
0.0511675749183 -0.0703554155126 0.864 1.93618627945e-38
0.0531940684996 -0.0709254246661 0.871 2.03756055439e-38
0.054931856146 -0.0710882844242 0.873 2.01897709467e-38
0.0565474989738 -0.0710882844242 0.873 2.03752341998e-38
0.0582963906946 -0.0712511441823 0.875 2.00050391715e-38
0.0599157348806 -0.0712511441823 0.875 1.96358965183e-38
0.0617460564805 -0.0714954338195 0.878 2.08329879613e-38
-0.0445217863791 -0.0709050671963 0.891 1.97251984669e-38
-0.042872831328 -0.0709050671963 0.891 2.00925516619e-38
-0.0412238762769 -0.0709050671963 0.891 1.47466358555e-38
-0.0395749212258 -0.0709050671963 0.891 1.54877924224e-38
-0.0379259661748 -0.0709050671963 0.891 1.69611386473e-38
-0.0362770111237 -0.0709050671963 0.891 1.02294787896e-43
-0.0345503275517 -0.0707459087963 0.889 9.14487377818e-42
-0.032831046696 -0.0705867503963 0.887 9.85673339806e-42
-0.0311894943612 -0.0705867503963 0.887 1.70285789385e-41
-0.0293813809101 -0.0701888543963 0.882 1.85807972474e-39
-0.0277490819706 -0.0701888543963 0.882 9.49985771166e-39
-0.0259983395707 -0.0698705375964 0.878 1.35549239973e-38
-0.0243734433476 -0.0698705375964 0.878 1.44768788947e-38
-0.0227485471244 -0.0698705375964 0.878 1.61335149587e-38
-0.0210514744175 -0.0696317999964 0.875 1.61327904874e-38
-0.0193877139339 -0.0694726415964 0.873 1.5580695708e-38
-0.0177720711061 -0.0694726415964 0.873 1.57622087007e-38
-0.0161194146968 -0.0693134831964 0.871 1.64065215307e-38
-0.0145074732272 -0.0693134831964 0.871 1.09688192736e-38
-0.0128659208924 -0.0691543247964 0.869 1.32762281536e-38
-0.0112576807808 -0.0691543247964 0.869 1.19854669147e-38
-0.00959392029717 -0.0687564287964 0.864 9.4047347693e-39
-0.00797642679028 -0.0685972703964 0.862 1.16167040134e-38
-0.00638114143223 -0.0685972703964 0.862 1.17992427566e-38
-0.00477475199975 -0.0684381119964 0.86 1.63150111358e-38
-0.00317576528356 -0.0682789535964 0.858 1.63150111358e-38
-0.00158418128364 -0.0681197951965 0.856 1.36467679013e-38
0.0 -0.0681197951965 0.856 1.53923345697e-38
0.0015804799255 -0.0679606367965 0.854 1.6497240192e-38
0.00314985577658 -0.0677218991965 0.851 7.18778671174e-39
0.00471367959045 -0.0675627407965 0.849 8.29839001354e-39
0.00625529525549 -0.0672444239965 0.845 1.4752431626e-38
0.00781911906936 -0.0672444239965 0.845 1.50261150252e-38
0.00933852658556 -0.0669261071965 0.841 1.52094118708e-38
0.0108949476832 -0.0669261071965 0.841 1.4932833389e-38
0.0123921470505 -0.0666077903965 0.837 1.45647641305e-38
0.0139078532086 -0.0664486319965 0.835 1.45654647797e-38
0.0154531702318 -0.0664486319965 0.835 1.49335368408e-38
0.0169984872549 -0.0664486319965 0.835 1.49338927706e-38
0.0184993879804 -0.0662894735965 0.833 1.5302679494e-38
0.0199928859897 -0.0661303151966 0.831 1.49328179747e-38
0.0214789812826 -0.0659711567966 0.829 1.55778370591e-38
0.0230131942314 -0.0659711567966 0.829 1.5117935107e-38
0.0245474071801 -0.0659711567966 0.829 1.74257153311e-38
0.0261445432172 -0.0661303151966 0.831 2.00975907312e-38
0.0276824575241 -0.0661303151966 0.831 2.00046720313e-38
0.0292906976357 -0.0662894735965 0.833 1.99135750194e-38
0.0309063404635 -0.0664486319965 0.835 1.98210066442e-38
0.0325293860076 -0.0666077903965 0.837 1.96358965183e-38
0.034159834268 -0.0667669487965 0.839 2.0465647378e-38
0.0357125540074 -0.0667669487965 0.839 1.31843884535e-38
0.0374429389376 -0.0670852655965 0.843 2.13876246961e-38
0.0390955953468 -0.0672444239965 0.845 1.85295237366e-38
0.0408518897839 -0.0675627407965 0.849 1.89012181543e-38
0.0425230529838 -0.0677218991965 0.851 1.66895824192e-38
0.044253437914 -0.0679606367965 0.854 1.69597597696e-38
0.0458339178395 -0.0679606367965 0.854 1.96373160337e-38
0.0475254385092 -0.0681197951965 0.856 1.48414280915e-38
0.0493391039974 -0.0684381119964 0.86 1.9540491915e-38
0.0511675749183 -0.0687564287964 0.864 1.77937565636e-38
0.0531940684996 -0.0693134831964 0.871 1.43822225847e-38
0.0550577023227 -0.0696317999964 0.875 2.04656824105e-38
0.0566770465087 -0.0696317999964 0.875 2.04667263778e-38
0.0582963906946 -0.0696317999964 0.875 2.08340837767e-38
0.0601211602573 -0.0698705375964 0.878 2.08337068275e-38
0.0617460564805 -0.0698705375964 0.878 2.04638354991e-38
0.0633709527037 -0.0698705375964 0.878 2.0464562773e-38
-0.0431134196071 -0.0696447547499 0.896 2.02780163162e-38
-0.0413626772071 -0.069489297708 0.894 1.45632997736e-38
-0.0397081701189 -0.069489297708 0.894 1.502538635e-38
-0.0380536630306 -0.069489297708 0.894 1.74228286562e-38
-0.0363991559423 -0.069489297708 0.894 8.31578152878e-40
-0.0346280560726 -0.0692561121452 0.891 1.99274450716e-40
-0.0329050738588 -0.0691006551034 0.889 1.04333270785e-38
-0.0311894943612 -0.0689451980615 0.887 1.32776504715e-38
-0.0294813175799 -0.0687897410197 0.885 3.71418361865e-40
-0.0277490819706 -0.0685565554569 0.882 3.82592315819e-40
-0.026057561301 -0.068401098415 0.88 6.25119244935e-42
-0.0243734433476 -0.0682456413732 0.878 1.23930836185e-41
-0.0227485471244 -0.0682456413732 0.878 1.57465169605e-39
-0.0210514744175 -0.0680124558104 0.875 6.09471785763e-39
-0.0193877139339 -0.0678569987686 0.873 1.245185828e-38
-0.0177720711061 -0.0678569987686 0.873 1.44772474362e-38
-0.0161564282782 -0.0678569987686 0.873 1.65941343756e-38
-0.0145074732272 -0.0677015417267 0.871 1.67763620305e-38
-0.0128955317575 -0.0677015417267 0.871 1.65001534915e-38
-0.0112576807808 -0.0675460846849 0.869 1.61313485512e-38
-0.00962723252043 -0.067390627643 0.867 1.49345934199e-38
-0.00799493358098 -0.0671574420802 0.864 1.45661836458e-38
-0.00638114143223 -0.0670019850384 0.862 7.92851588258e-39
-0.00478585607417 -0.0670019850384 0.862 1.17053151218e-38
-0.00318316799983 -0.0668465279965 0.86 9.12525700098e-39
-0.00158788264178 -0.0666910709547 0.858 1.3185104517e-38
0.0 -0.0665356139128 0.856 1.5302679494e-38
0.0015804799255 -0.066380156871 0.854 1.5023203127e-38
0.00314985577658 -0.0661469713082 0.851 1.04135197247e-38
0.00472478366487 -0.0661469713082 0.851 1.20754793215e-38
0.0062849061206 -0.0659915142663 0.849 1.46587870535e-38
0.00781911906936 -0.0656806001826 0.845 1.38289913523e-38
0.0093607347344 -0.0655251431408 0.843 1.41977738717e-38
0.0109208571901 -0.0655251431408 0.843 1.47491525876e-38
0.0124513687807 -0.0653696860989 0.841 1.50260884005e-38
0.0139744776551 -0.0652142290571 0.839 1.54877924224e-38
0.0154901838131 -0.0650587720152 0.837 1.47495057148e-38
0.0169984872549 -0.0649033149734 0.835 1.51179323044e-38
0.0185438042781 -0.0649033149734 0.835 1.58551470187e-38
0.0200410036455 -0.0647478579315 0.833 1.54863448811e-38
0.0215308002966 -0.0645924008897 0.831 1.53948751238e-38
0.0230687146034 -0.0645924008897 0.831 1.44722125708e-38
0.0246066289103 -0.0645924008897 0.831 1.81614642872e-38
0.0261445432172 -0.0645924008897 0.831 2.00064712985e-38
0.0277490819706 -0.0647478579315 0.833 2.00975907312e-38
0.0292906976357 -0.0647478579315 0.833 2.00975879286e-38
0.0309803676263 -0.0650587720152 0.837 1.98213597714e-38
0.0325293860076 -0.0650587720152 0.837 1.95447728818e-38
0.034159834268 -0.0652142290571 0.839 2.00053922987e-38
0.0357976852446 -0.0653696860989 0.841 2.11113727169e-38
0.0375317715329 -0.0656806001826 0.845 2.0465299856e-38
0.0391881293003 -0.0658360572245 0.847 1.62246554108e-38
0.0409481250955 -0.0661469713082 0.851 1.64129899244e-38
0.0425230529838 -0.0661469713082 0.851 1.54874841368e-38
0.044253437914 -0.066380156871 0.854 1.87131891237e-38
0.0459412572255 -0.0665356139128 0.856 1.585659456e-38
0.0476364792533 -0.0666910709547 0.858 2.0465299856e-38
0.0494538460997 -0.0670019850384 0.862 1.51197778145e-38
0.051345240109 -0.067390627643 0.867 1.58544912111e-38
0.0531940684996 -0.0677015417267 0.871 2.13854554861e-38
0.0550577023227 -0.0680124558104 0.875 2.01894234247e-38
0.0566770465087 -0.0680124558104 0.875 2.12950479131e-38
0.0582963906946 -0.0680124558104 0.875 2.01901422908e-38
0.0601211602573 -0.0682456413732 0.878 2.06496728988e-38
0.0617460564805 -0.0682456413732 0.878 2.06489470262e-38
-0.0431134196071 -0.0679865463034 0.896 2.08318963498e-38
-0.0414552111606 -0.0679865463034 0.896 1.38257445437e-38
-0.0397081701189 -0.0678347906197 0.894 1.50257366746e-38
-0.0380536630306 -0.0678347906197 0.894 1.65919693695e-38
-0.0363991559423 -0.0678347906197 0.894 8.85150353689e-39
-0.034744648854 -0.0678347906197 0.894 1.98575202783e-40
-0.0329791010215 -0.0676071570942 0.891 8.75671410357e-42
-0.0312598201658 -0.0674554014104 0.889 1.45630461385e-38
-0.0295479420264 -0.0673036457267 0.887 3.40879444042e-39
-0.0278434666032 -0.067151890043 0.885 2.50271905728e-39
-0.0261167830312 -0.0669242565174 0.882 1.45104455981e-41
-0.0244289637197 -0.0667725008337 0.88 1.12551718122e-38
-0.0228003661383 -0.0667725008337 0.88 1.09763540555e-38
-0.0211236509012 -0.06662074515 0.878 7.47833333664e-39
-0.0194321302315 -0.0663931116244 0.875 5.16939003489e-42
-0.0178127860456 -0.0663931116244 0.875 1.13014721148e-41
-0.0161564282782 -0.0662413559407 0.873 6.63094433319e-42
-0.0145407854504 -0.0662413559407 0.873 7.19789848146e-39
-0.0128955317575 -0.066089600257 0.871 1.35549450168e-38
-0.0112835902878 -0.066089600257 0.871 1.54903077532e-38
-0.00964944066926 -0.0659378445733 0.869 1.50278848651e-38
-0.00799493358098 -0.065558455364 0.864 1.51182854317e-38
-0.00639594686478 -0.065558455364 0.864 1.55781873838e-38
-0.00478585607417 -0.0654066996803 0.862 1.53948779264e-38
-0.00318316799983 -0.0652549439966 0.86 1.13386751877e-38
-0.00159158399992 -0.0652549439966 0.86 6.5513617908e-39
0.0 -0.0651031883129 0.858 1.12475767745e-38
0.00158418128364 -0.0649514326292 0.856 1.50217962233e-38
0.003160959851 -0.0647996769455 0.854 1.59480461004e-38
0.00472478366487 -0.0645720434199 0.851 1.53019760421e-38
0.0062849061206 -0.0644202877362 0.849 1.50253695344e-38
0.00783762586006 -0.0642685320525 0.847 1.3921542912e-38
0.00938294288323 -0.0641167763688 0.845 1.40140888664e-38
0.0109208571901 -0.063965020685 0.843 1.45647585253e-38
0.0124513687807 -0.0638132650013 0.841 1.53023263668e-38
0.0139744776551 -0.0636615093176 0.839 1.50253891526e-38
0.0154901838131 -0.0635097536339 0.837 1.49328179747e-38
0.0170392021945 -0.0635097536339 0.837 1.47477232632e-38
0.0185438042781 -0.0633579979502 0.835 1.50232185412e-38
0.0200891213013 -0.0633579979502 0.835 1.52094146734e-38
0.0215826193105 -0.0632062422665 0.833 1.55781901863e-38
0.0231242349755 -0.0632062422665 0.833 1.4286750719e-38
0.0246658506406 -0.0632062422665 0.833 1.81614670897e-38
0.0262074663056 -0.0632062422665 0.833 2.00993913997e-38
0.0278157064172 -0.0633579979502 0.835 1.98220800388e-38
0.0293610234403 -0.0633579979502 0.835 1.98220772362e-38
0.0309803676263 -0.0635097536339 0.837 1.96369657091e-38
0.0326848430495 -0.0638132650013 0.841 1.95436980859e-38
0.0343226940261 -0.063965020685 0.843 1.9912479204e-38
0.0358828164819 -0.063965020685 0.843 2.02823351181e-38
0.0376206041283 -0.0642685320525 0.847 1.35524843367e-38
0.0392806632538 -0.0644202877362 0.849 1.88122693329e-38
0.0409481250955 -0.0645720434199 0.851 1.31844010652e-38
0.0426729579885 -0.0647996769455 0.854 1.81597224732e-38
0.0443570759419 -0.0649514326292 0.856 1.7793058717e-38
0.0460485966116 -0.0651031883129 0.858 1.78827628382e-38
0.0477475199975 -0.0652549439966 0.86 1.58565539224e-38
0.0494538460997 -0.0654066996803 0.862 1.59455910255e-38
0.0514636835694 -0.0659378445733 0.869 1.92653371524e-38
0.0533162133182 -0.0662413559407 0.873 2.14808755037e-38
0.0552464715878 -0.06662074515 0.878 2.10184554183e-38
0.056871367811 -0.06662074515 0.878 2.05571241418e-38
0.0584962640342 -0.06662074515 0.878 2.05578486131e-38
0.0601211602573 -0.06662074515 0.878 2.06496757014e-38
