# .PCD v0.7 - Point Cloud Data file format
VERSION 0.7
FIELDS x y z rgb
SIZE 4 4 4 4
TYPE F F F F
COUNT 1 1 1 1
WIDTH 854
HEIGHT 1
VIEWPOINT 0 0 0 1 0 0 0
POINTS 854
DATA ascii
0.0408629938583 -0.148128352736 0.92 2.0076246153e-38
0.0427044195327 -0.148611379974 0.923 1.96163413983e-38
0.0445088316256 -0.148933398132 0.925 1.94323382982e-38
0.046220709765 -0.148933398132 0.925 1.91557317904e-38
0.0480880449463 -0.149416425369 0.928 1.8968839213e-38
0.049912814509 -0.149738443527 0.93 2.09908820684e-38
0.0516339460438 -0.149738443527 0.93 2.16315949627e-38
0.0533550775786 -0.149738443527 0.93 2.22758923784e-38
-0.0442219763698 -0.140855183993 0.885 2.05291794478e-38
-0.0425841253931 -0.140855183993 0.885 1.96998475763e-38
-0.0408074734862 -0.140377708793 0.882 1.38058166783e-38
-0.0391751745468 -0.140377708793 0.882 1.57477430966e-38
-0.0375428756073 -0.140377708793 0.882 1.54718918887e-38
-0.0358291467888 -0.140059391993 0.88 1.48272259315e-38
-0.0342005492075 -0.140059391993 0.88 1.52856859475e-38
-0.0324979244634 -0.139741075193 0.878 1.54700828124e-38
-0.0307675395333 -0.139263599993 0.875 1.57484591602e-38
-0.0291481953473 -0.139263599993 0.875 1.62080570305e-38
-0.0275288511614 -0.139263599993 0.875 3.85817404235e-39
-0.0258502852452 -0.138945283193 0.873 7.14662216806e-44
-0.0242346424173 -0.138945283193 0.873 1.19824751425e-39
-0.0226189995895 -0.138945283193 0.873 1.12944656225e-42
-0.0209552391059 -0.138626966393 0.871 1.01957775615e-39
-0.0193432976362 -0.138626966393 0.871 4.62428493227e-44
-0.0177313561665 -0.138626966393 0.871 1.50131600209e-38
-0.0160824011154 -0.138308649593 0.869 1.5843175726e-38
-0.0144741610039 -0.138308649593 0.869 1.49176236955e-38
-0.0128659208924 -0.138308649593 0.869 1.51927686489e-38
-0.0112576807808 -0.138308649593 0.869 1.63916621618e-38
-0.00959392029717 -0.137512857593 0.864 7.45374194989e-39
-0.00799493358098 -0.137512857593 0.864 4.59220921042e-40
-0.00638114143223 -0.137194540793 0.862 1.11216574958e-39
-0.00478585607417 -0.137194540793 0.862 8.37010987024e-40
-0.00319057071611 -0.137194540793 0.862 1.5731438989e-39
-0.00159528535806 -0.137194540793 0.862 2.03052631636e-39
0.0 -0.136876223993 0.86 2.4933051342e-39
0.00159158399992 -0.136876223993 0.86 6.16571324303e-44
0.00318316799983 -0.136876223993 0.86 1.01272540666e-39
0.00477475199975 -0.136876223993 0.86 1.4276999083e-38
0.00636633599967 -0.136876223993 0.86 1.464213122e-38
0.00795791999959 -0.136876223993 0.86 1.41796915164e-38
0.00957171214834 -0.137194540793 0.862 1.98043283898e-38
0.0111669975064 -0.137194540793 0.862 1.952448208e-38
0.0127622828645 -0.137194540793 0.862 1.90624445491e-38
0.0143575682225 -0.137194540793 0.862 1.90624389439e-38
0.015989867162 -0.137512857593 0.864 1.85089176427e-38
0.017690641227 -0.138308649593 0.869 1.87840752078e-38
0.0194321302315 -0.139263599993 0.875 1.86007629479e-38
0.0212198862128 -0.140377708793 0.882 1.95234451192e-38
0.0229817326872 -0.141173500793 0.887 2.09985527762e-38
0.0246788053941 -0.141491817593 0.889 1.59318008473e-38
0.0265313351428 -0.142605926393 0.896 4.60074311807e-39
0.0282524666776 -0.142924243193 0.898 2.52233723578e-44
0.0300809375984 -0.143720035193 0.903 3.64337600724e-44
0.0318575895053 -0.144197510392 0.906 2.14582417309e-38
0.0337933998122 -0.145311619192 0.913 1.92500980316e-38
0.0355607983237 -0.145629935992 0.915 1.91535807973e-38
0.0373763144911 -0.146107411192 0.918 2.02592108908e-38
0.039075237877 -0.146107411192 0.918 1.93390468529e-38
0.040774161263 -0.146107411192 0.918 2.00758930257e-38
0.0427044195327 -0.146903203192 0.923 1.98932772112e-38
0.0445088316256 -0.147221519992 0.925 1.93411964448e-38
0.046220709765 -0.147221519992 0.925 1.95248674371e-38
0.0479325879045 -0.147221519992 0.925 1.9245794644e-38
0.049912814509 -0.148017311992 0.93 2.30181027217e-38
-0.0442219763698 -0.139217333016 0.885 1.89586503718e-38
-0.0425841253931 -0.139217333016 0.885 1.96040197809e-38
-0.0409462744165 -0.139217333016 0.885 1.46326948761e-38
-0.0391751745468 -0.138745409853 0.882 1.50090962553e-38
-0.0375428756073 -0.138745409853 0.882 1.60214685348e-38
-0.0358291467888 -0.138430794411 0.88 1.54700828124e-38
-0.0342005492075 -0.138430794411 0.88 1.57466640968e-38
-0.0324979244634 -0.13811617897 0.878 1.52857013618e-38
-0.0307675395333 -0.137644255807 0.875 1.54704051111e-38
-0.0291481953473 -0.137644255807 0.875 1.63008902511e-38
-0.0275288511614 -0.137644255807 0.875 1.51045414963e-38
-0.0258502852452 -0.137329640365 0.873 7.34683969264e-40
-0.0242346424173 -0.137329640365 0.873 1.38805899643e-39
-0.0226189995895 -0.137329640365 0.873 2.12126599712e-39
-0.0209552391059 -0.137015024923 0.871 1.29474653169e-39
-0.0193432976362 -0.137015024923 0.871 3.50324616081e-44
-0.0177313561665 -0.137015024923 0.871 1.51082241087e-38
-0.0161194146968 -0.137015024923 0.871 1.59335734899e-38
-0.0145074732272 -0.137015024923 0.871 1.44566091124e-38
-0.0128659208924 -0.136700409481 0.869 1.53757305842e-38
-0.0112576807808 -0.136700409481 0.869 1.62098156601e-38
-0.00959392029717 -0.135913870877 0.864 6.34920486914e-39
-0.00799493358098 -0.135913870877 0.864 6.42915735432e-40
-0.00638114143223 -0.135599255435 0.862 9.29206616888e-40
-0.00478585607417 -0.135599255435 0.862 1.29798353115e-39
-0.00319057071611 -0.135599255435 0.862 2.21527350589e-39
-0.00159528535806 -0.135599255435 0.862 1.75572187841e-39
0.0 -0.135284639993 0.86 5.04467447157e-44
0.00159158399992 -0.135284639993 0.86 6.07629498672e-39
0.00318316799983 -0.135284639993 0.86 1.44567268215e-38
0.00477475199975 -0.135284639993 0.86 1.46417388564e-38
0.00636633599967 -0.135284639993 0.86 1.34417761528e-38
0.00795791999959 -0.135284639993 0.86 1.62065632463e-38
0.00957171214834 -0.135599255435 0.862 1.90660542939e-38
0.0111669975064 -0.135599255435 0.862 1.91542898543e-38
0.0127622828645 -0.135599255435 0.862 1.86936620296e-38
0.0143575682225 -0.135599255435 0.862 1.86007475336e-38
0.015989867162 -0.135913870877 0.864 1.86003944064e-38
0.017690641227 -0.136700409481 0.869 1.92464826816e-38
0.0196542117199 -0.139217333016 0.885 1.88769798947e-38
0.0213401803524 -0.139531948458 0.887 2.11818902595e-38
0.0230335517011 -0.1398465639 0.889 1.16911900333e-38
0.0247343257662 -0.140161179342 0.891 4.60257601646e-39
0.0265313351428 -0.140947717946 0.896 9.49030365873e-39
0.0283468513102 -0.141734256551 0.901 9.18397000534e-41
0.0300809375984 -0.142048871993 0.903 4.90454462514e-44
0.0318575895053 -0.142520795155 0.906 2.17358473645e-38
0.033682359068 -0.143150026039 0.91 1.92483029683e-38
0.0355607983237 -0.143936564644 0.915 1.91557542112e-38
0.0373763144911 -0.144408487806 0.918 2.01688145282e-38
0.039075237877 -0.144408487806 0.918 1.95238136607e-38
0.040774161263 -0.144408487806 0.918 1.97996564608e-38
0.0427044195327 -0.145195026411 0.923 1.97996536582e-38
0.0445088316256 -0.145509641853 0.925 1.96163442009e-38
0.046220709765 -0.145509641853 0.925 1.90617410972e-38
0.0479325879045 -0.145509641853 0.925 1.94287103365e-38
-0.0443219130396 -0.137890396123 0.887 1.81289051173e-38
-0.0426803607048 -0.137890396123 0.887 2.00653608665e-38
-0.04103880837 -0.137890396123 0.887 1.4355753458e-38
-0.0393084234398 -0.137579482039 0.885 1.58370576569e-38
-0.0375428756073 -0.137113110914 0.882 1.51931371904e-38
-0.0359105766679 -0.137113110914 0.882 1.53775284502e-38
-0.0342005492075 -0.13680219683 0.88 1.54700772072e-38
-0.0324979244634 -0.136491282746 0.878 1.58385065995e-38
-0.0308730282403 -0.136491282746 0.878 1.58424302352e-38
-0.0291481953473 -0.136024911621 0.875 1.5195285381e-38
-0.0275288511614 -0.136024911621 0.875 1.67600901527e-38
-0.0258502852452 -0.135713997537 0.873 9.94269745365e-39
-0.0242346424173 -0.135713997537 0.873 6.30584308946e-44
-0.0226189995895 -0.135713997537 0.873 1.47807420589e-39
-0.0210033567617 -0.135713997537 0.873 8.33761375886e-40
-0.0193432976362 -0.135403083453 0.871 4.34402523941e-44
-0.0177313561665 -0.135403083453 0.871 1.51092834903e-38
-0.0161194146968 -0.135403083453 0.871 1.58406744082e-38
-0.0145074732272 -0.135403083453 0.871 1.46406668631e-38
-0.0128659208924 -0.13509216937 0.869 1.51012946878e-38
-0.0112576807808 -0.13509216937 0.869 1.584137786e-38
-0.00962723252043 -0.134781255286 0.867 2.75506488474e-39
-0.00799493358098 -0.13431488416 0.864 1.38012624583e-39
-0.00639594686478 -0.13431488416 0.864 1.01997011972e-39
-0.00478585607417 -0.134003970077 0.862 1.84756718366e-39
-0.00319057071611 -0.134003970077 0.862 4.64279608499e-40
-0.00159528535806 -0.134003970077 0.862 1.96181785005e-44
0.0 -0.134003970077 0.862 8.75245836013e-39
0.00159528535806 -0.134003970077 0.862 1.54740751117e-38
0.00318316799983 -0.133693055993 0.86 1.46406696657e-38
0.00477475199975 -0.133693055993 0.86 1.45488397747e-38
0.00636633599967 -0.133693055993 0.86 1.35343417255e-38
0.00795791999959 -0.133693055993 0.86 1.72196291685e-38
0.00957171214834 -0.134003970077 0.862 1.93419209161e-38
0.0111669975064 -0.134003970077 0.862 1.92457820324e-38
0.0127622828645 -0.134003970077 0.862 1.89706216646e-38
0.0143575682225 -0.134003970077 0.862 1.75905710889e-38
0.015989867162 -0.13431488416 0.864 1.85139819353e-38
0.017690641227 -0.13509216937 0.869 1.81423239514e-38
0.0196986280176 -0.137890396123 0.887 2.07226875553e-38
0.0213882980082 -0.138201310207 0.889 1.78696845196e-38
0.0230853707151 -0.13851222429 0.891 1.56120343469e-39
0.0248176063243 -0.138978595416 0.894 4.70278286965e-39
0.0265313351428 -0.1392895095 0.896 1.11476627927e-38
0.0283468513102 -0.140066794709 0.901 3.03057137321e-39
0.0301808742682 -0.140844079918 0.906 1.81527902497e-38
0.0318575895053 -0.140844079918 0.906 1.93462761517e-38
0.033682359068 -0.141465908086 0.91 1.96170476527e-38
0.0355607983237 -0.142243193295 0.915 1.96156379464e-38
0.0373763144911 -0.14270956442 0.918 1.96163568125e-38
0.039075237877 -0.14270956442 0.918 1.943159561e-38
0.0408629938583 -0.143020478504 0.92 1.97074440153e-38
0.0427969534861 -0.143797763713 0.925 1.96163442009e-38
0.0445088316256 -0.143797763713 0.925 1.9523425501e-38
0.046220709765 -0.143797763713 0.925 1.94312466867e-38
0.0479325879045 -0.143797763713 0.925 1.87819340238e-38
-0.0443219130396 -0.136248843788 0.887 1.82225328742e-38
-0.0426803607048 -0.136248843788 0.887 1.92345141914e-38
-0.04103880837 -0.136248843788 0.887 1.49996809309e-38
-0.0393084234398 -0.135941631063 0.885 1.54686324685e-38
-0.0376705724632 -0.135941631063 0.885 1.59299609424e-38
-0.0360327214865 -0.135941631063 0.885 1.50094465799e-38
-0.0342005492075 -0.135173599249 0.88 1.55601022258e-38
-0.0324979244634 -0.134866386523 0.878 1.59307022293e-38
-0.0308730282403 -0.134866386523 0.878 1.53800465835e-38
-0.0292481320171 -0.134866386523 0.878 1.54725953406e-38
-0.0275288511614 -0.134405567435 0.875 1.53768025775e-38
-0.0259095069754 -0.134405567435 0.875 1.74069085044e-38
-0.0242901627894 -0.134405567435 0.875 9.1835496158e-40
-0.0226708186035 -0.134405567435 0.875 1.47520995183e-39
-0.0210514744175 -0.134405567435 0.875 3.74603513274e-40
-0.0193877139339 -0.134098354709 0.873 4.34402523941e-44
-0.0177313561665 -0.133791141984 0.871 1.52014763176e-38
-0.0161194146968 -0.133791141984 0.871 1.51045414963e-38
-0.0145074732272 -0.133791141984 0.871 1.44577231447e-38
-0.0128955317575 -0.133791141984 0.871 1.50087403255e-38
-0.0112576807808 -0.133483929258 0.869 1.55644406458e-38
-0.00964944066926 -0.133483929258 0.869 1.56120343469e-39
-0.00802269376702 -0.133176716533 0.867 2.4882828805e-39
-0.00641815501362 -0.133176716533 0.867 1.93903974352e-39
-0.00479696014859 -0.132715897444 0.864 7.00649232162e-44
-0.00319057071611 -0.132408684719 0.862 5.46506401087e-44
-0.00159528535806 -0.132408684719 0.862 1.33585628461e-38
0.0 -0.132408684719 0.862 1.49223138414e-38
0.00159528535806 -0.132408684719 0.862 1.44577203421e-38
0.00319057071611 -0.132408684719 0.862 1.42729787577e-38
0.00478585607417 -0.132408684719 0.862 1.47321646463e-38
0.00638114143223 -0.132408684719 0.862 1.3624019222e-38
0.00797642679028 -0.132408684719 0.862 1.75876998283e-38
0.00957171214834 -0.132408684719 0.862 1.89727866707e-38
0.0111669975064 -0.132408684719 0.862 2.0721615562e-38
0.0127622828645 -0.132408684719 0.862 1.20628620302e-38
0.0143575682225 -0.132408684719 0.862 0.0
0.015989867162 -0.132715897444 0.864 2.01770541632e-38
0.0177720711061 -0.134098354709 0.873 2.05379403658e-38
0.0196986280176 -0.136248843788 0.887 1.72247032702e-38
0.0213882980082 -0.136556056514 0.889 1.37753244237e-39
0.0230853707151 -0.136863269239 0.891 3.92363570011e-44
0.0248176063243 -0.137324088328 0.894 1.7499849625e-39
0.026590556873 -0.137938513779 0.898 1.56616487203e-38
0.0283468513102 -0.138399332867 0.901 1.85182138567e-38
0.0301808742682 -0.139167364681 0.906 4.20389539297e-45
0.03192791531 -0.139474577407 0.908 1.13322460304e-38
0.0337933998122 -0.140242609221 0.913 1.97142963648e-38
0.0356773911051 -0.141010641035 0.918 1.98004005503e-38
0.0373763144911 -0.141010641035 0.918 2.00744608987e-38
0.039075237877 -0.141010641035 0.918 1.97989375947e-38
0.0409962427514 -0.141778672848 0.923 1.97067405635e-38
0.0427969534861 -0.142085885574 0.925 1.95237926412e-38
0.0445088316256 -0.142085885574 0.925 1.95234226984e-38
0.0463706147697 -0.142546704662 0.928 1.92465008985e-38
0.0480880449463 -0.142546704662 0.928 1.9056716041e-38
-0.0444218497093 -0.134910802821 0.889 1.92356072042e-38
-0.0426803607048 -0.134607291453 0.887 2.0063570007e-38
-0.04103880837 -0.134607291453 0.887 1.48156624166e-38
-0.0393972560352 -0.134607291453 0.887 1.51023736876e-38
-0.0376705724632 -0.134303780086 0.885 1.54693513346e-38
-0.0360327214865 -0.134303780086 0.885 1.53767871633e-38
-0.0342782777284 -0.133848513035 0.882 1.52856859475e-38
-0.0324979244634 -0.1332414903 0.878 1.61150962917e-38
-0.0308730282403 -0.1332414903 0.878 1.52856859475e-38
-0.0292481320171 -0.1332414903 0.878 1.56533950723e-38
-0.0276232357939 -0.1332414903 0.878 1.61140046802e-38
-0.0259095069754 -0.132786223249 0.875 1.62998350734e-38
-0.0242901627894 -0.132786223249 0.875 1.39078256013e-38
-0.0227485471244 -0.1332414903 0.878 6.42848473106e-40
-0.0210514744175 -0.132786223249 0.875 9.07621015343e-42
-0.0193877139339 -0.132482711881 0.873 4.34402523941e-44
-0.0177720711061 -0.132482711881 0.873 1.5110690394e-38
-0.0161194146968 -0.132179200514 0.871 1.61158165591e-38
-0.0145074732272 -0.132179200514 0.871 1.54700940228e-38
-0.0128955317575 -0.132179200514 0.871 1.44552190243e-38
-0.0112576807808 -0.131875689147 0.869 1.51041855665e-38
-0.00964944066926 -0.131875689147 0.869 1.01019045774e-39
-0.00804120055772 -0.131875689147 0.869 3.68401366271e-42
-0.00643296044618 -0.131875689147 0.869 3.92363570011e-44
-0.00482472033463 -0.131875689147 0.869 3.77324134243e-39
-0.00320907750681 -0.131572177779 0.867 1.56577699261e-38
-0.0016045387534 -0.131572177779 0.867 1.50126933885e-38
0.0 -0.131116910728 0.864 1.53789507681e-38
0.0015989867162 -0.131116910728 0.864 1.44577231447e-38
0.00319057071611 -0.130813399361 0.862 1.46403193411e-38
0.00478585607417 -0.130813399361 0.862 1.47328793085e-38
0.00638114143223 -0.130813399361 0.862 1.43644527189e-38
0.00797642679028 -0.130813399361 0.862 1.80501227164e-38
0.00957171214834 -0.130813399361 0.862 1.98961708925e-38
0.0111669975064 -0.130813399361 0.862 2.04486258056e-38
0.0127622828645 -0.130813399361 0.862 1.56120343469e-39
0.0143575682225 -0.130813399361 0.862 3.78350585368e-44
0.0161194146968 -0.132179200514 0.871 2.18362616099e-38
0.0180977906223 -0.134910802821 0.889 2.02617262216e-38
0.0197874606129 -0.135214314188 0.891 1.56120343469e-39
0.021436415664 -0.135214314188 0.891 5.46506401087e-44
0.023163099236 -0.135669581239 0.894 9.18406809623e-40
0.0248731266964 -0.135973092607 0.896 3.78350585368e-44
0.026590556873 -0.136276603974 0.898 2.34968731576e-38
0.0284097743985 -0.137035382393 0.903 1.46936793853e-39
0.0302474987147 -0.137794160811 0.908 5.04467447157e-44
0.0321037298216 -0.13855293923 0.913 1.93581255315e-39
0.033867426975 -0.138856450597 0.915 2.03632797226e-38
0.0356773911051 -0.139311717649 0.918 1.94323411008e-38
0.0374577443701 -0.139615229016 0.92 1.95216458519e-38
0.0391603691142 -0.139615229016 0.92 2.01666467195e-38
0.0409962427514 -0.140070496067 0.923 1.98907562752e-38
0.0429357544164 -0.140829274486 0.928 1.94312466867e-38
0.044653184593 -0.140829274486 0.928 2.00769650191e-38
0.0463706147697 -0.140829274486 0.928 2.03535336918e-38
0.0480880449463 -0.140829274486 0.928 1.98875360914e-38
-0.0427765960164 -0.133265549128 0.889 2.13550304938e-38
-0.04103880837 -0.132965739119 0.887 1.47245303723e-38
-0.0393972560352 -0.132965739119 0.887 1.56541153397e-38
-0.0376705724632 -0.132665929109 0.885 1.53782543228e-38
-0.0360327214865 -0.132665929109 0.885 1.56529985049e-38
-0.0342782777284 -0.132216214095 0.882 1.52856859475e-38
-0.0325719516262 -0.131916404086 0.88 1.56515972064e-38
-0.0308730282403 -0.131616594077 0.878 1.57437928363e-38
-0.0292481320171 -0.131616594077 0.878 1.58370604595e-38
-0.0276232357939 -0.131616594077 0.878 1.58370604595e-38
-0.0259983395707 -0.131616594077 0.878 1.53778815774e-38
-0.0243734433476 -0.131616594077 0.878 1.71321138755e-38
-0.0227485471244 -0.131616594077 0.878 8.46722686031e-39
-0.0210514744175 -0.131166879063 0.875 7.84727140022e-44
-0.0194321302315 -0.131166879063 0.875 4.06376554654e-44
-0.0177720711061 -0.130867069054 0.873 1.42830723106e-38
-0.0161564282782 -0.130867069054 0.873 1.57488122874e-38
-0.0145074732272 -0.130567259044 0.871 1.47300136532e-38
-0.0128955317575 -0.130567259044 0.871 1.47303765895e-38
-0.0112835902878 -0.130567259044 0.871 1.14145807229e-38
-0.0096716488181 -0.130567259044 0.871 1.03114785718e-38
-0.00804120055772 -0.130267449035 0.869 4.7644147787e-44
-0.00643296044618 -0.130267449035 0.869 9.39749285884e-39
-0.00482472033463 -0.130267449035 0.869 1.54737275897e-38
-0.00320907750681 -0.129967639026 0.867 1.51934903176e-38
-0.0016045387534 -0.129967639026 0.867 1.48254140526e-38
0.0 -0.129967639026 0.867 1.46403165385e-38
0.0015989867162 -0.129517924012 0.864 1.46410382072e-38
0.00319797343239 -0.129517924012 0.864 1.51931371904e-38
0.00478585607417 -0.129218114003 0.862 1.47335813591e-38
0.00638114143223 -0.129218114003 0.862 1.39956533838e-38
0.00797642679028 -0.129218114003 0.862 1.92504665731e-38
0.00957171214834 -0.129218114003 0.862 1.98047207534e-38
0.0112317712738 -0.129967639026 0.867 1.14170470082e-38
0.0128659208924 -0.130267449035 0.869 1.28569694621e-39
0.0145074732272 -0.130567259044 0.871 8.26519465422e-40
0.0161564282782 -0.130867069054 0.873 2.29418832956e-38
0.0180977906223 -0.133265549128 0.889 4.59428593475e-39
0.0197874606129 -0.133565359137 0.891 1.26116861789e-44
0.0215085921477 -0.134015074151 0.894 5.23544304061e-39
0.02321491825 -0.13431488416 0.896 2.75512934447e-39
0.0249286470685 -0.13461469417 0.898 2.10194769649e-44
0.0266793894684 -0.135064409184 0.901 2.09153941201e-38
0.0285041590311 -0.135813934207 0.906 4.13259732711e-39
0.0303141231612 -0.136413554225 0.91 7.98740124665e-44
0.0321037298216 -0.136863269239 0.913 1.05009915774e-38
0.033867426975 -0.137163079249 0.915 2.01763927503e-38
0.035755119626 -0.137912604272 0.92 1.95237954438e-38
0.0374577443701 -0.137912604272 0.92 1.95230751764e-38
0.03928806597 -0.138362319286 0.923 1.98918548932e-38
0.0412183242397 -0.139111844309 0.928 1.97071105063e-38
0.0429357544164 -0.139111844309 0.928 1.94308963621e-38
0.0447494199046 -0.139411654318 0.93 1.90624641673e-38
0.0466204564441 -0.139861369332 0.933 1.92457666181e-38
0.0483471400161 -0.139861369332 0.933 2.01623125033e-38
-0.0446716913837 -0.132360567063 0.894 1.92370421338e-38
-0.042872831328 -0.131916404086 0.891 2.05274180156e-38
-0.0411313423234 -0.131620295435 0.889 1.55536030035e-38
-0.0394860886305 -0.131620295435 0.889 1.50076599244e-38
-0.0377557037004 -0.131324186784 0.887 1.51002198919e-38
-0.0360327214865 -0.131028078133 0.885 1.54686478828e-38
-0.0343948705098 -0.131028078133 0.885 1.54693807619e-38
-0.032645978789 -0.130583915156 0.882 1.57455921035e-38
-0.0309433540449 -0.130287806505 0.88 1.54682793413e-38
-0.0293147564636 -0.130287806505 0.88 1.54686296659e-38
-0.0276232357939 -0.129991697854 0.878 1.52853356229e-38
-0.0259983395707 -0.129991697854 0.878 1.54725953406e-38
-0.0243734433476 -0.129991697854 0.878 1.61176172276e-38
-0.0227485471244 -0.129991697854 0.878 1.6394226538e-38
-0.0211236509012 -0.129991697854 0.878 9.1835496158e-40
-0.0194321302315 -0.129547534877 0.875 0.0
-0.0177720711061 -0.129251426226 0.873 1.43759769974e-38
-0.0161564282782 -0.129251426226 0.873 1.52885389912e-38
-0.0145407854504 -0.129251426226 0.873 1.42704550192e-38
-0.0128955317575 -0.128955317575 0.871 1.57470116188e-38
-0.0112835902878 -0.128955317575 0.871 8.55864617083e-39
-0.0096716488181 -0.128955317575 0.871 1.17909232476e-38
-0.00805970734842 -0.128955317575 0.871 1.17937959094e-38
-0.00644776587873 -0.128955317575 0.871 1.538471571e-38
-0.00482472033463 -0.128659208924 0.869 1.4919076842e-38
-0.00321648022309 -0.128659208924 0.869 1.48265028615e-38
-0.00160824011154 -0.128659208924 0.869 1.49179768227e-38
0.0 -0.128363100272 0.867 1.54689982074e-38
0.0016045387534 -0.128363100272 0.867 1.44548532854e-38
0.00320907750681 -0.128363100272 0.867 1.50087403255e-38
0.00479696014859 -0.127918937296 0.864 1.48268209563e-38
0.00639594686478 -0.127918937296 0.864 1.43640575527e-38
0.00799493358098 -0.127918937296 0.864 1.89735335628e-38
0.00959392029717 -0.127918937296 0.864 2.12794710793e-38
0.0112317712738 -0.128363100272 0.867 1.83670992316e-39
0.0128659208924 -0.128659208924 0.869 1.96181785005e-44
0.0145407854504 -0.129251426226 0.873 1.63884980298e-38
0.0161934418596 -0.129547534877 0.875 2.18340966037e-38
0.0181385055618 -0.131916404086 0.891 1.92854541932e-39
0.0197874606129 -0.131916404086 0.891 5.8062171285e-39
0.0215085921477 -0.132360567063 0.894 1.81491973204e-38
0.02321491825 -0.132656675714 0.896 3.58158995536e-39
0.0249286470685 -0.132952784365 0.898 1.82168800362e-44
0.0267386111986 -0.133693055993 0.903 1.53851318956e-38
0.0285670821194 -0.134433327621 0.908 2.38773691309e-39
0.030414059831 -0.135173599249 0.913 2.66246708222e-44
0.0321740556262 -0.1354697079 0.915 2.10841062513e-38
0.033867426975 -0.1354697079 0.915 1.93430167315e-38
0.035755119626 -0.136209979528 0.92 1.95238136607e-38
0.0375798891887 -0.136654142505 0.923 1.9523439514e-38
0.0393731972073 -0.136950251156 0.925 1.94308795465e-38
0.0413071568351 -0.137690522784 0.93 1.98915045686e-38
0.0430282883699 -0.137690522784 0.93 1.98936555618e-38
0.0448937728721 -0.13813468576 0.933 1.86947606476e-38
0.0466204564441 -0.13813468576 0.933 2.05368557608e-38
0.0483471400161 -0.13813468576 0.933 1.94250935851e-38
-0.0446716913837 -0.130706059975 0.894 1.96976951819e-38
-0.042872831328 -0.130267449035 0.891 2.03437554311e-38
-0.0412238762769 -0.130267449035 0.891 1.46316214815e-38
-0.0395749212258 -0.130267449035 0.891 1.55600994232e-38
-0.0377557037004 -0.129682634449 0.887 1.55611938373e-38
-0.0361141513656 -0.129682634449 0.887 1.51005758217e-38
-0.0343948705098 -0.129390227156 0.885 1.51009415606e-38
-0.0327570195332 -0.129390227156 0.885 1.62987588762e-38
-0.0310136798495 -0.128951616217 0.882 1.56533950723e-38
-0.0293147564636 -0.128659208924 0.88 1.54700772072e-38
-0.0276232357939 -0.128366801631 0.878 1.53796990615e-38
-0.0259983395707 -0.128366801631 0.878 1.49183453642e-38
-0.0243734433476 -0.128366801631 0.878 1.53803997107e-38
-0.0228003661383 -0.128659208924 0.88 1.63016357419e-38
-0.0211236509012 -0.128366801631 0.878 1.33542608598e-38
-0.0194321302315 -0.127928190691 0.875 0.0
-0.0178127860456 -0.127928190691 0.875 1.47440504599e-38
-0.0161564282782 -0.127635783398 0.873 1.47343268498e-38
-0.0145407854504 -0.127635783398 0.873 1.408644211e-38
-0.0129251426226 -0.127635783398 0.873 1.51934749034e-38
-0.0112835902878 -0.127343376105 0.871 7.54560126812e-39
-0.0096716488181 -0.127343376105 0.871 5.88545355016e-44
-0.00805970734842 -0.127343376105 0.871 1.55691420022e-38
-0.00644776587873 -0.127343376105 0.871 1.4734679977e-38
-0.00483582440905 -0.127343376105 0.871 1.4917992237e-38
-0.00321648022309 -0.127050968812 0.869 1.5010540994e-38
-0.00160824011154 -0.127050968812 0.869 1.464068508e-38
0.0 -0.127050968812 0.869 1.49176293007e-38
0.0016045387534 -0.126758561519 0.867 1.59310525539e-38
0.00320907750681 -0.126758561519 0.867 1.51012946878e-38
0.00481361626021 -0.126758561519 0.867 1.53764494503e-38
0.00639594686478 -0.126319950579 0.864 1.47328849137e-38
0.00799493358098 -0.126319950579 0.864 1.89738446511e-38
0.00959392029717 -0.126319950579 0.864 2.03564399848e-38
0.0112576807808 -0.127050968812 0.869 1.19386145005e-39
0.0128955317575 -0.127343376105 0.871 3.22298646795e-44
0.0145407854504 -0.127635783398 0.873 2.04512742597e-38
0.0162489622317 -0.128366801631 0.878 1.75948870882e-38
0.0181995779711 -0.130706059975 0.894 1.744874427e-39
0.0198540850594 -0.130706059975 0.894 2.2100367134e-38
0.0215567098035 -0.130998467268 0.896 2.09125284648e-38
0.02321491825 -0.130998467268 0.896 4.13262535308e-39
0.0250119276266 -0.1317294855 0.901 3.78350585368e-44
0.026827443794 -0.132460503733 0.906 1.34504698085e-38
0.0286300052078 -0.133045318319 0.91 7.34683969264e-40
0.030414059831 -0.133483929258 0.913 4.90454462514e-44
0.0321740556262 -0.133776336551 0.915 2.07263617599e-38
0.0339784677192 -0.134214947491 0.918 1.94334102915e-38
0.035755119626 -0.134507354784 0.92 1.94315984126e-38
0.0375798891887 -0.134945965723 0.923 1.92468540257e-38
0.0395008940631 -0.135676983956 0.928 2.01677187128e-38
0.0413071568351 -0.135969391249 0.93 1.97081867035e-38
0.0431670893001 -0.136408002188 0.933 1.92479316242e-38
0.0448937728721 -0.136408002188 0.933 1.95227234505e-38
0.0466204564441 -0.136408002188 0.933 1.98914989634e-38
0.0483471400161 -0.136408002188 0.933 1.63826574178e-38
-0.0447716280535 -0.129340258821 0.896 1.90529955935e-38
-0.0430171842954 -0.129051552886 0.894 1.96987363467e-38
-0.0412238762769 -0.128618493984 0.891 1.55543036527e-38
-0.0395749212258 -0.128618493984 0.891 1.56508755377e-38
-0.0378408349376 -0.128329788049 0.889 1.51917120699e-38
-0.0361955812446 -0.128329788049 0.889 1.51924211269e-38
-0.0344725990308 -0.128041082114 0.887 1.53764494503e-38
-0.0327570195332 -0.127752376179 0.885 1.53757305842e-38
-0.0311191685565 -0.127752376179 0.885 1.58385065995e-38
-0.0293813809101 -0.127319317277 0.882 1.53768025775e-38
-0.0277490819706 -0.127319317277 0.882 1.53775312527e-38
-0.026057561301 -0.127030611342 0.88 1.51952881836e-38
-0.0244289637197 -0.127030611342 0.88 1.51034582926e-38
-0.0228003661383 -0.127030611342 0.88 1.66689763253e-38
-0.0211236509012 -0.126741905407 0.878 1.62069191761e-38
-0.0194987546781 -0.126741905407 0.878 6.80415883636e-39
-0.0178127860456 -0.126308846505 0.875 1.60275838013e-38
-0.0161934418596 -0.126308846505 0.875 1.30751390213e-38
-0.0145407854504 -0.12602014057 0.873 1.40857134348e-38
-0.0129251426226 -0.12602014057 0.873 1.54725953406e-38
-0.0113094997948 -0.12602014057 0.873 1.19386145005e-39
-0.00969385696694 -0.12602014057 0.873 1.68155815719e-44
-0.00805970734842 -0.125731434635 0.871 1.55720132627e-38
-0.00644776587873 -0.125731434635 0.871 1.46424661303e-38
-0.00483582440905 -0.125731434635 0.871 1.51027422291e-38
-0.00322388293937 -0.125731434635 0.871 1.50091340904e-38
-0.00160824011154 -0.1254427287 0.869 1.55637147732e-38
0.0 -0.1254427287 0.869 1.5010540994e-38
0.0016045387534 -0.125154022766 0.867 1.58388569241e-38
0.00320907750681 -0.125154022766 0.867 1.53778815774e-38
0.00481361626021 -0.125154022766 0.867 1.54700772072e-38
0.00641815501362 -0.125154022766 0.867 1.51913351206e-38
0.00802269376702 -0.125154022766 0.867 1.96181714941e-38
0.00962723252043 -0.125154022766 0.867 2.05415585184e-38
0.0112576807808 -0.1254427287 0.869 1.744874427e-39
0.0128955317575 -0.125731434635 0.871 1.25220381097e-38
0.0145407854504 -0.12602014057 0.873 1.22426037816e-38
0.0163785097666 -0.127752376179 0.885 1.17912371384e-38
0.0182402929107 -0.129340258821 0.896 0.0
0.0198985013571 -0.129340258821 0.896 2.2839378313e-38
0.0216048274593 -0.129628964756 0.898 2.06355660272e-38
0.0232667372639 -0.129628964756 0.898 3.67345347748e-39
0.0250674479987 -0.130350729593 0.903 1.26116861789e-44
0.0268866655242 -0.13107249443 0.908 1.96207148508e-38
0.0287243898404 -0.131794259268 0.913 5.69382458387e-39
0.0304806842775 -0.132082965202 0.915 2.0444068783e-38
0.0321740556262 -0.132082965202 0.915 1.92511966496e-38
0.0339784677192 -0.132516024105 0.918 1.91553842684e-38
0.0358717124074 -0.133237788942 0.923 1.99847567775e-38
0.0376613190678 -0.133526494877 0.925 1.90646375812e-38
0.0395008940631 -0.133959553779 0.928 2.01680956621e-38
0.0414404057281 -0.134681318616 0.933 1.94305432349e-38
0.0431670893001 -0.134681318616 0.933 1.97067545765e-38
0.0448937728721 -0.134681318616 0.933 1.94312466867e-38
0.0467203931138 -0.134970024551 0.935 2.03535589151e-38
0.048450778044 -0.134970024551 0.935 1.88701401569e-38
-0.0464298364999 -0.127682050375 0.896 1.90540801985e-38
-0.0447716280535 -0.127682050375 0.896 1.88686197481e-38
-0.0430171842954 -0.127397045798 0.894 1.9976430262e-38
-0.0413626772071 -0.127397045798 0.894 1.45412265202e-38
-0.0395749212258 -0.126969538933 0.891 1.51909861973e-38
-0.0379259661748 -0.126969538933 0.891 1.58367115361e-38
-0.0361955812446 -0.126684534356 0.889 1.55611938373e-38
-0.0344725990308 -0.126399529779 0.887 1.57452417789e-38
-0.032831046696 -0.126399529779 0.887 1.58367073322e-38
-0.0311191685565 -0.126114525203 0.885 1.53771781255e-38
-0.0294813175799 -0.126114525203 0.885 1.59307022293e-38
-0.0277490819706 -0.125687018338 0.882 1.53775452657e-38
-0.026057561301 -0.125402013761 0.88 1.5010540994e-38
-0.0244289637197 -0.125402013761 0.88 1.50108969238e-38
-0.0228003661383 -0.125402013761 0.88 1.55611994425e-38
-0.021171768557 -0.125402013761 0.88 1.58370604595e-38
-0.0194987546781 -0.125117009184 0.878 1.54733043976e-38
-0.0178738584549 -0.125117009184 0.878 1.27060075786e-38
-0.0162489622317 -0.125117009184 0.878 1.48257643772e-38
-0.0145740976737 -0.124689502319 0.875 1.37183602398e-38
-0.0129547534877 -0.124689502319 0.875 1.55655126391e-38
-0.0113094997948 -0.124404497742 0.873 1.56120343469e-39
-0.00969385696694 -0.124404497742 0.873 4.70168425165e-39
-0.00807821413911 -0.124404497742 0.873 1.58460848216e-38
-0.00646257131129 -0.124404497742 0.873 1.51012890826e-38
-0.00483582440905 -0.124119493166 0.871 1.51934903176e-38
-0.00322388293937 -0.124119493166 0.871 1.51952881836e-38
-0.00160824011154 -0.123834488589 0.869 1.53778409397e-38
0.0 -0.123834488589 0.869 1.54697282839e-38
0.00160824011154 -0.123834488589 0.869 1.54700828124e-38
0.00321648022309 -0.123834488589 0.869 1.54700828124e-38
0.00481361626021 -0.123549484012 0.867 1.54700828124e-38
0.00641815501362 -0.123549484012 0.867 1.67586678348e-38
0.00804120055772 -0.123834488589 0.869 1.9067857765e-38
0.00964944066926 -0.123834488589 0.869 1.99879881718e-38
0.0112835902878 -0.124119493166 0.871 1.92540412855e-38
0.0128955317575 -0.124119493166 0.871 7.35982832811e-39
0.0145407854504 -0.124404497742 0.873 1.25108725635e-38
0.0165820844643 -0.127682050375 0.896 5.24897257728e-39
0.0182810078502 -0.127967054951 0.898 0.0
0.0199429176548 -0.127967054951 0.898 2.34882733889e-38
0.0216770039431 -0.128394561817 0.901 1.8972802085e-38
0.0233444657848 -0.128394561817 0.901 2.84692280167e-39
0.0251507285568 -0.129107073258 0.906 0.0
0.0268866655242 -0.129392077835 0.908 2.20152985082e-38
0.0287243898404 -0.130104589277 0.913 2.02638968329e-38
0.0304806842775 -0.130389593854 0.915 1.97107048368e-38
0.0322795443332 -0.130817100719 0.918 1.95241429658e-38
0.0339784677192 -0.130817100719 0.918 1.94308767439e-38
0.0358717124074 -0.131529612161 0.923 1.98922052178e-38
0.0376613190678 -0.131814616737 0.925 1.94315984126e-38
0.0395008940631 -0.132242123602 0.928 1.95234423166e-38
0.0414404057281 -0.132954635044 0.933 1.97078335763e-38
0.0431670893001 -0.132954635044 0.933 1.94312466867e-38
0.0449900081837 -0.133239639621 0.935 1.97081867035e-38
0.0468702981185 -0.133667146486 0.938 1.92468484205e-38
0.0486062350858 -0.133667146486 0.938 1.95150989855e-38
0.0503421720532 -0.133667146486 0.938 2.00642622485e-38
-0.0464298364999 -0.126023841928 0.896 1.84051248667e-38
-0.0447716280535 -0.126023841928 0.896 1.80359892201e-38
-0.0430171842954 -0.12574253871 0.894 1.95132688897e-38
-0.0413626772071 -0.12574253871 0.894 1.49089188294e-38
-0.0397081701189 -0.12574253871 0.894 1.50098249305e-38
-0.0379259661748 -0.125320583882 0.891 1.55604805764e-38
-0.0361955812446 -0.125039280663 0.889 1.52853328203e-38
-0.0345503275517 -0.125039280663 0.889 1.63909615125e-38
-0.032831046696 -0.124757977445 0.887 1.38156173597e-38
-0.0311894943612 -0.124757977445 0.887 8.10806986001e-39
-0.0294813175799 -0.124476674226 0.885 1.53854948319e-38
-0.0278434666032 -0.124476674226 0.885 1.55633490343e-38
-0.026057561301 -0.12377341618 0.88 1.56555446642e-38
-0.0244289637197 -0.12377341618 0.88 1.56541097345e-38
-0.0228521851523 -0.124054719398 0.882 1.55647965756e-38
-0.021171768557 -0.12377341618 0.88 1.6117614425e-38
-0.0195431709757 -0.12377341618 0.88 1.55651440976e-38
-0.0179145733944 -0.12377341618 0.88 1.26131239111e-38
-0.0162859758131 -0.12377341618 0.88 6.61610177985e-39
-0.0146240660085 -0.123492112961 0.878 1.23343117596e-38
-0.0129991697854 -0.123492112961 0.878 1.27996885848e-38
-0.0113354093017 -0.123070158133 0.875 1.01019045774e-39
-0.00969385696694 -0.122788854915 0.873 8.38517382873e-39
-0.00807821413911 -0.122788854915 0.873 1.58449904075e-38
-0.00646257131129 -0.122788854915 0.873 1.51023484642e-38
-0.00483582440905 -0.122507551696 0.871 1.54700828124e-38
-0.00322388293937 -0.122507551696 0.871 1.54700828124e-38
-0.00161194146968 -0.122507551696 0.871 1.55615469645e-38
0.0 -0.122226248477 0.869 1.54689982074e-38
0.00160824011154 -0.122226248477 0.869 1.56533894671e-38
0.00321648022309 -0.122226248477 0.869 1.58377877334e-38
0.00482472033463 -0.122226248477 0.869 1.54700772072e-38
0.00643296044618 -0.122226248477 0.869 1.5928184096e-38
0.00804120055772 -0.122226248477 0.869 1.99880161977e-38
0.00964944066926 -0.122226248477 0.869 1.99865560447e-38
0.0112835902878 -0.122507551696 0.871 1.56594711025e-38
0.0128955317575 -0.122507551696 0.871 1.744874427e-39
0.0145407854504 -0.122788854915 0.873 1.06886366522e-38
0.0165820844643 -0.126023841928 0.896 3.03631109172e-39
0.0182810078502 -0.126305145147 0.898 0.0
0.0199429176548 -0.126305145147 0.898 2.34900432289e-38
0.0216048274593 -0.126305145147 0.898 7.3604715241e-39
0.0233444657848 -0.126727099975 0.901 3.78350585368e-44
0.0251507285568 -0.127430358021 0.906 5.04467447157e-44
0.0268866655242 -0.12771166124 0.908 2.09082545045e-38
0.0287243898404 -0.128414919286 0.913 1.83277858032e-38
0.0304806842775 -0.128696222505 0.915 1.9523425501e-38
0.0322795443332 -0.129118177333 0.918 2.01702186293e-38
0.0340524948819 -0.129399480551 0.92 1.99840477205e-38
0.0358717124074 -0.129821435379 0.923 2.0630123384e-38
0.0376613190678 -0.130102738598 0.925 1.98922206321e-38
0.0395860253003 -0.130805996644 0.93 2.00777077073e-38
0.0414404057281 -0.131227951472 0.933 1.98014543267e-38
0.0432596232536 -0.131509254691 0.935 1.95248674371e-38
0.0449900081837 -0.131509254691 0.935 1.95230891894e-38
0.0468702981185 -0.131931209519 0.938 1.95230751764e-38
0.0486062350858 -0.131931209519 0.938 1.87789800866e-38
0.0503421720532 -0.131931209519 0.938 1.94192613809e-38
-0.0464298364999 -0.124365633482 0.896 1.97909081545e-38
-0.0447716280535 -0.124365633482 0.896 1.95150429336e-38
-0.0430171842954 -0.124088031621 0.894 2.11734726596e-38
-0.0413626772071 -0.124088031621 0.894 1.43568324578e-38
-0.0397081701189 -0.124088031621 0.894 1.50101780577e-38
-0.0379259661748 -0.123671628831 0.891 1.60218034451e-38
-0.0362770111237 -0.123671628831 0.891 1.51920679997e-38
-0.0345503275517 -0.12339402697 0.889 1.63906055827e-38
-0.032831046696 -0.12311642511 0.887 9.48097521485e-39
-0.0311894943612 -0.12311642511 0.887 3.22298646795e-44
-0.0294813175799 -0.122838823249 0.885 1.71346334102e-38
-0.0278434666032 -0.122838823249 0.885 1.5009484415e-38
-0.0261167830312 -0.122422420459 0.882 1.53775312527e-38
-0.0244844840917 -0.122422420459 0.882 1.76827499032e-38
-0.0229299136732 -0.122838823249 0.885 2.20405190779e-39
-0.0212198862128 -0.122422420459 0.882 4.04441781865e-39
-0.0195431709757 -0.122144818598 0.88 1.63055958114e-38
-0.0179145733944 -0.122144818598 0.88 1.5931423898e-38
-0.0162859758131 -0.122144818598 0.88 1.65767933071e-38
-0.0146573782318 -0.122144818598 0.88 1.45524397105e-38
-0.0129991697854 -0.121867216738 0.878 1.41847305856e-38
-0.0113354093017 -0.121450813947 0.875 5.60919036052e-39
-0.00971606511577 -0.121450813947 0.875 1.43577180785e-38
-0.00809672092981 -0.121450813947 0.875 1.55651637158e-38
-0.00646257131129 -0.121173212087 0.873 1.54725953406e-38
-0.00483582440905 -0.120895610226 0.871 1.5470433137e-38
-0.00322388293937 -0.120895610226 0.871 1.54700828124e-38
-0.00161194146968 -0.120895610226 0.871 1.61143676165e-38
0.0 -0.120895610226 0.871 1.56544656644e-38
0.00160824011154 -0.120618008366 0.869 1.58385065995e-38
0.00321648022309 -0.120618008366 0.869 1.60214657322e-38
0.00482472033463 -0.120618008366 0.869 1.62069163735e-38
0.00643296044618 -0.120618008366 0.869 1.65746240971e-38
0.00804120055772 -0.120618008366 0.869 1.9802568359e-38
0.00964944066926 -0.120618008366 0.869 2.14602666072e-38
0.0112835902878 -0.120895610226 0.871 1.46936793853e-39
0.0128955317575 -0.120895610226 0.871 2.52233723578e-44
0.0145407854504 -0.121173212087 0.873 1.11420547963e-38
0.0165450708829 -0.124088031621 0.894 3.40508800598e-39
0.0182402929107 -0.124365633482 0.896 2.80259692865e-45
0.0199429176548 -0.124643235342 0.898 1.28810633879e-38
0.0216048274593 -0.124643235342 0.898 1.92854541932e-39
0.0233444657848 -0.125059638133 0.901 3.50324616081e-44
0.0251507285568 -0.125753642784 0.906 2.1187320291e-38
0.0268866655242 -0.126031244645 0.908 1.9526707342e-38
0.0287243898404 -0.126725249296 0.913 1.92482833501e-38
0.0304806842775 -0.127002851156 0.915 1.95230751764e-38
0.0322795443332 -0.127419253947 0.918 1.97996564608e-38
0.0341635356261 -0.128113258598 0.923 2.01684585984e-38
0.0359494409284 -0.128390860458 0.925 1.98007130398e-38
0.0377834638864 -0.128807263249 0.928 1.98922178295e-38
0.0395860253003 -0.12908486511 0.93 1.96159938762e-38
0.0415292383234 -0.129778869761 0.935 1.97989502063e-38
0.0432596232536 -0.129778869761 0.935 1.95234226984e-38
0.0451343611511 -0.130195272551 0.938 2.05372214997e-38
0.0468702981185 -0.130195272551 0.938 1.91553842684e-38
0.0486062350858 -0.130195272551 0.938 1.69340291272e-38
-0.0464298364999 -0.122707425035 0.896 1.95136514442e-38
-0.0447716280535 -0.122707425035 0.896 1.98813577664e-38
-0.0431134196071 -0.122707425035 0.896 2.05270270533e-38
-0.0413626772071 -0.122433524533 0.894 1.53695578645e-38
-0.0397081701189 -0.122433524533 0.894 1.50098221279e-38
-0.0380536630306 -0.122433524533 0.894 1.55604749712e-38
-0.0362770111237 -0.12202267378 0.891 1.51927714515e-38
-0.0345503275517 -0.121748773277 0.889 1.58370576569e-38
-0.032831046696 -0.121474872775 0.887 1.69445010306e-38
-0.0311894943612 -0.121474872775 0.887 2.38772290011e-39
-0.0295479420264 -0.121474872775 0.887 1.75020734857e-38
-0.0278434666032 -0.121200972273 0.885 1.14173973328e-38
-0.0262056156265 -0.121200972273 0.885 1.400287988e-38
-0.0245677646499 -0.121200972273 0.885 1.57545898409e-38
-0.0229299136732 -0.121200972273 0.885 4.5917748079e-40
-0.0212920626966 -0.121200972273 0.885 0.0
-0.0195875872734 -0.120790121519 0.882 1.57560387835e-38
-0.0179552883339 -0.120790121519 0.882 1.51005702165e-38
-0.0163229893945 -0.120790121519 0.882 1.56526762062e-38
-0.0146573782318 -0.120516221017 0.88 1.55615497671e-38
-0.0130287806505 -0.120516221017 0.88 1.58406575926e-38
-0.0113742735622 -0.120242320515 0.878 1.63927621811e-38
-0.00974937733903 -0.120242320515 0.878 1.62984085516e-38
-0.00812448111586 -0.120242320515 0.878 1.60228978592e-38
-0.00647737674385 -0.119831469761 0.875 1.5655191537e-38
-0.00484692848347 -0.119557569259 0.873 1.57477178733e-38
-0.00323128565565 -0.119557569259 0.873 1.58385037969e-38
-0.00161194146968 -0.119283668757 0.871 1.61143704191e-38
0.0 -0.119283668757 0.871 1.56544656644e-38
0.00161194146968 -0.119283668757 0.871 1.5746308167e-38
0.00321648022309 -0.119009768254 0.869 1.60218188594e-38
0.00482472033463 -0.119009768254 0.869 1.58359856635e-38
0.00643296044618 -0.119009768254 0.869 1.68515697191e-38
0.00805970734842 -0.119283668757 0.871 1.99865868733e-38
0.0096716488181 -0.119283668757 0.871 2.12755320294e-38
0.0112835902878 -0.119283668757 0.871 3.94892633479e-39
0.0128955317575 -0.119283668757 0.871 9.80908925027e-45
0.0145407854504 -0.119557569259 0.873 9.02695451241e-39
0.0165450708829 -0.122433524533 0.894 3.95932957459e-39
0.0182402929107 -0.122707425035 0.896 1.65524037073e-39
0.0199429176548 -0.122981325538 0.898 4.7644147787e-44
0.0216770039431 -0.123392176291 0.901 3.85782091514e-39
0.0233444657848 -0.123392176291 0.901 1.98986469869e-38
0.0251507285568 -0.124076927547 0.906 1.95270702783e-38
0.0269458872544 -0.124624728552 0.91 1.99840659374e-38
0.0287873129287 -0.125309479807 0.915 1.95241583801e-38
0.0305806209472 -0.125720330561 0.918 2.06305157475e-38
0.0324553588448 -0.126405081817 0.923 1.98929268866e-38
0.0342375627889 -0.126678982319 0.925 1.96163442009e-38
0.0360660337097 -0.127089833072 0.928 1.93411992474e-38
0.0378648937655 -0.127363733575 0.93 1.94315984126e-38
0.0395860253003 -0.127363733575 0.93 1.96163596151e-38
0.0415292383234 -0.128048484831 0.935 1.99854994657e-38
0.0433984241838 -0.128459335584 0.938 1.95230891894e-38
0.0451343611511 -0.128459335584 0.938 2.04443196154e-38
0.0468702981185 -0.128459335584 0.938 1.9247578497e-38
0.0486062350858 -0.128459335584 0.938 1.85963866928e-38
-0.0465334745278 -0.121319415733 0.898 1.8775347921e-38
-0.0447716280535 -0.121049216589 0.896 1.86809900876e-38
-0.0431134196071 -0.121049216589 0.896 2.07114183131e-38
-0.0414552111606 -0.121049216589 0.896 1.47234723919e-38
-0.0397081701189 -0.120779017445 0.894 1.52863865967e-38
-0.0380536630306 -0.120779017445 0.894 1.50083787905e-38
-0.0362770111237 -0.120373718729 0.891 1.50083759879e-38
-0.0346280560726 -0.120373718729 0.891 1.58377456944e-38
-0.0329050738588 -0.120103519584 0.889 1.64856738744e-38
-0.0311894943612 -0.11983332044 0.887 1.83670992316e-39
-0.0295479420264 -0.11983332044 0.887 1.54615601152e-38
-0.0278434666032 -0.119563121296 0.885 3.21424236553e-39
-0.0262056156265 -0.119563121296 0.885 6.79696877394e-39
-0.0245677646499 -0.119563121296 0.885 9.1835496158e-40
-0.0229299136732 -0.119563121296 0.885 3.78145014883e-39
-0.0212920626966 -0.119563121296 0.885 3.64337600724e-44
-0.0195875872734 -0.11915782258 0.882 1.68609402019e-38
-0.0179552883339 -0.11915782258 0.882 1.51931343878e-38
-0.0163229893945 -0.11915782258 0.882 1.62065534372e-38
-0.014690690455 -0.11915782258 0.882 1.56533894671e-38
-0.0130287806505 -0.118887623436 0.88 1.60254159925e-38
-0.0114001830692 -0.118887623436 0.88 1.56541153397e-38
-0.00974937733903 -0.118617424291 0.878 1.58381562749e-38
-0.00812448111586 -0.118617424291 0.878 1.59307022293e-38
-0.00649958489268 -0.118617424291 0.878 1.6023253789e-38
-0.00485803255789 -0.118212125575 0.875 1.62991344242e-38
-0.00323128565565 -0.117941926431 0.873 1.6023253789e-38
-0.00161194146968 -0.117671727287 0.871 1.6023253789e-38
0.0 -0.117671727287 0.871 1.64845822629e-38
0.00161194146968 -0.117671727287 0.871 1.5838138058e-38
0.00322388293937 -0.117671727287 0.871 1.62058471828e-38
0.00483582440905 -0.117671727287 0.871 1.63891622453e-38
0.00644776587873 -0.117671727287 0.871 1.68515851333e-38
0.00805970734842 -0.117671727287 0.871 1.91557373956e-38
0.0096716488181 -0.117671727287 0.871 2.18261638531e-38
0.0112835902878 -0.117671727287 0.871 4.59428593475e-39
0.0128955317575 -0.117671727287 0.871 2.10194769649e-44
0.0147739710132 -0.11983332044 0.887 7.37209809746e-39
0.0165450708829 -0.120779017445 0.894 6.72481591601e-39
0.0182402929107 -0.121049216589 0.896 8.26546090093e-40
0.0199429176548 -0.121319415733 0.898 4.20389539297e-44
0.0216770039431 -0.121724714449 0.901 2.10844201422e-38
0.0233444657848 -0.121724714449 0.901 1.99865840707e-38
0.0252062489289 -0.122670411454 0.908 1.99851491411e-38
0.0270347198498 -0.123345909315 0.913 1.94312438841e-38
0.0287873129287 -0.123616108459 0.915 1.94305236167e-38
0.0306472453938 -0.124291606319 0.92 1.97989347921e-38
0.0324553588448 -0.124696905035 0.923 2.016879491e-38
0.0342375627889 -0.12496710418 0.925 1.94315773931e-38
0.0360660337097 -0.125372402896 0.928 1.96167127424e-38
0.0378648937655 -0.12564260204 0.93 1.95241583801e-38
0.0395860253003 -0.12564260204 0.93 1.98925709567e-38
0.0415292383234 -0.1263180999 0.935 2.03539092398e-38
0.0432596232536 -0.1263180999 0.935 1.93394027828e-38
0.0451343611511 -0.126723398617 0.938 1.96141918064e-38
0.0468702981185 -0.126723398617 0.938 1.94305236167e-38
0.0486062350858 -0.126723398617 0.938 1.81346532436e-38
-0.0479807055603 -0.119124510357 0.894 1.90515606639e-38
-0.046326198472 -0.119124510357 0.894 1.88675309392e-38
-0.0446716913837 -0.119124510357 0.894 1.92345141914e-38
-0.0431134196071 -0.119391008143 0.896 2.0894383051e-38
-0.0413626772071 -0.119124510357 0.894 1.5459958431e-38
-0.0397081701189 -0.119124510357 0.894 1.57462955553e-38
-0.0380536630306 -0.119124510357 0.894 1.51934903176e-38
-0.0363991559423 -0.119124510357 0.894 1.52853328203e-38
-0.0346280560726 -0.118724763678 0.891 1.51924155217e-38
-0.0329050738588 -0.118458265892 0.889 1.75012677391e-38
-0.0311894943612 -0.118191768105 0.887 1.28569834751e-39
-0.0295479420264 -0.118191768105 0.887 1.21529487059e-38
-0.0278434666032 -0.117925270319 0.885 2.66322938858e-39
-0.0262056156265 -0.117925270319 0.885 1.19624239627e-38
-0.0245677646499 -0.117925270319 0.885 4.40810381558e-39
-0.0229817326872 -0.118191768105 0.887 1.29916202316e-38
-0.0212920626966 -0.117925270319 0.885 1.744874427e-39
-0.0196542117199 -0.117925270319 0.885 1.63992207657e-38
-0.0180163607432 -0.117925270319 0.885 1.52853328203e-38
-0.0163229893945 -0.11752552364 0.882 1.56533950723e-38
-0.014690690455 -0.11752552364 0.882 1.59292574906e-38
-0.0130287806505 -0.117259025854 0.88 1.5560830901e-38
-0.0114001830692 -0.117259025854 0.88 1.62980049776e-38
-0.00974937733903 -0.116992528068 0.878 1.62065632463e-38
-0.00812448111586 -0.116992528068 0.878 1.61143704191e-38
-0.00649958489268 -0.116992528068 0.878 1.60232509864e-38
-0.00485803255789 -0.116592781389 0.875 1.6023253789e-38
-0.00323128565565 -0.116326283603 0.873 1.63916803786e-38
-0.00161564282782 -0.116326283603 0.873 1.63934600277e-38
0.0 -0.116059785817 0.871 1.57480962238e-38
0.00161194146968 -0.116059785817 0.871 1.64831543398e-38
0.00322388293937 -0.116059785817 0.871 1.620620031e-38
0.00483582440905 -0.116059785817 0.871 1.62058597945e-38
0.00644776587873 -0.116059785817 0.871 1.75891641852e-38
0.00805970734842 -0.116059785817 0.871 1.99858469877e-38
0.00969385696694 -0.116326283603 0.873 2.13655556466e-38
0.0113094997948 -0.116326283603 0.873 6.34525881267e-39
0.0129991697854 -0.116992528068 0.878 9.1835496158e-41
0.0147406587899 -0.117925270319 0.885 4.14740344668e-39
0.0165450708829 -0.119124510357 0.894 1.45549704555e-38
0.0182402929107 -0.119391008143 0.896 1.37755486315e-39
0.0199429176548 -0.119657505929 0.898 2.75622235727e-39
0.0216770039431 -0.120057252608 0.901 2.11837427761e-38
0.0233962847988 -0.120323750394 0.903 1.93386937257e-38
0.0252062489289 -0.120989994859 0.908 1.92457792298e-38
0.0270347198498 -0.121656239324 0.913 1.94305292219e-38
0.0288816975613 -0.122322483789 0.918 2.00762629685e-38
0.0307471820635 -0.122988728254 0.923 2.01684417828e-38
0.0325256846495 -0.12325522604 0.925 1.97071077037e-38
0.0343486035331 -0.123654972719 0.928 2.00737476378e-38
0.0360660337097 -0.123654972719 0.928 1.99840631348e-38
0.0378648937655 -0.123921470505 0.93 1.99847665866e-38
0.0395860253003 -0.123921470505 0.93 1.97074608309e-38
0.0415292383234 -0.12458771497 0.935 1.94305264193e-38
0.0432596232536 -0.12458771497 0.935 1.97081895061e-38
