# .PCD v0.7 - Point Cloud Data file format
VERSION 0.7
FIELDS x y z rgb
SIZE 4 4 4 4
TYPE F F F F
COUNT 1 1 1 1
WIDTH 852
HEIGHT 1
VIEWPOINT 0 0 0 1 0 0 0
POINTS 852
DATA ascii
-0.00658101477175 -0.0230335517011 0.889 2.32958653007e-38
-0.00493576107881 -0.0230335517011 0.889 2.32083191791e-38
-0.00329050738588 -0.0230335517011 0.889 2.28388304053e-38
-0.00164895505108 -0.0230853707151 0.891 2.33902147263e-38
0.0 -0.0230853707151 0.891 2.33891721602e-38
0.00164895505108 -0.0230853707151 0.891 2.34827690886e-38
0.00329791010215 -0.0230853707151 0.891 2.34849396999e-38
0.00493576107881 -0.0230335517011 0.889 2.18254393818e-38
0.00658101477175 -0.0230335517011 0.889 1.16014060381e-38
0.00822626846469 -0.0230335517011 0.889 2.34978862964e-38
0.00987152215763 -0.0230335517011 0.889 1.34435305785e-38
0.0115167758506 -0.0230335517011 0.889 1.8151073659e-38
0.0131620295435 -0.0230335517011 0.889 2.24801470438e-38
0.0148072832364 -0.0230335517011 0.889 1.68518752021e-38
0.0164525369294 -0.0230335517011 0.889 2.34803140137e-38
0.0180977906223 -0.0230335517011 0.889 2.34896522666e-38
0.0197430443153 -0.0230335517011 0.889 1.32541170651e-38
0.0213882980082 -0.0230335517011 0.889 2.34921619922e-38
0.0230335517011 -0.0230335517011 0.889 1.39827376159e-38
0.024623285022 -0.0229817326872 0.887 2.3490977895e-38
0.0262648373568 -0.0229817326872 0.887 2.08104943184e-38
0.0279063896916 -0.0229817326872 0.887 2.01584168936e-38
0.0296145664729 -0.0230335517011 0.889 2.05408396523e-38
0.0311894943612 -0.0229817326872 0.887 2.33019819685e-38
0.032831046696 -0.0229817326872 0.887 1.95194598263e-38
0.0343948705098 -0.0229299136732 0.885 2.34928402206e-38
0.0360327214865 -0.0229299136732 0.885 2.34867375658e-38
0.0376705724632 -0.0229299136732 0.885 2.04468209331e-38
0.0393084234398 -0.0229299136732 0.885 1.60333823743e-38
0.0409462744165 -0.0229299136732 0.885 1.99045268352e-38
0.0425841253931 -0.0229299136732 0.885 2.06380519307e-38
0.0442219763698 -0.0229299136732 0.885 2.04507459701e-38
0.0458598273464 -0.0229299136732 0.885 2.34885578525e-38
0.0474976783231 -0.0229299136732 0.885 1.52817230754e-38
0.0491355292998 -0.0229299136732 0.885 2.34910914001e-38
0.0506012671229 -0.0228521851523 0.882 2.34827845028e-38
0.0522335660624 -0.0228521851523 0.882 2.27441390628e-38
0.0538658650018 -0.0228521851523 0.882 2.3486006088e-38
0.0554981639413 -0.0228521851523 0.882 2.34824103562e-38
0.0570009153459 -0.0228003661383 0.88 2.34824131588e-38
0.0586295129272 -0.0228003661383 0.88 2.34845725597e-38
0.0603950607596 -0.0228521851523 0.882 2.34817012991e-38
0.0618867080898 -0.0228003661383 0.88 2.32040424162e-38
0.0635153056711 -0.0228003661383 0.88 2.34820754458e-38
0.0651439032524 -0.0228003661383 0.88 2.34838677066e-38
0.0667725008337 -0.0228003661383 0.88 2.34838564962e-38
0.068401098415 -0.0228003661383 0.88 2.34831306236e-38
0.0700296959964 -0.0228003661383 0.88 2.34820572289e-38
0.0718211533358 -0.0228521851523 0.882 2.34867305593e-38
0.0737032939496 -0.0229299136732 0.885 2.34856501582e-38
0.0753411449263 -0.0229299136732 0.885 2.34863704256e-38
0.076978995903 -0.0229299136732 0.885 2.34824201652e-38
0.0786168468796 -0.0229299136732 0.885 2.35069190663e-38
-0.00994925067855 -0.0215567098035 0.896 2.34979101185e-38
-0.00829104223213 -0.0215567098035 0.896 1.93426243679e-38
-0.0066328337857 -0.0215567098035 0.896 2.34801991072e-38
-0.00496352126486 -0.0215085921477 0.894 2.27441138395e-38
-0.00330901417657 -0.0215085921477 0.894 2.34849270882e-38
-0.00165450708829 -0.0215085921477 0.894 2.31121732889e-38
0.0 -0.0215085921477 0.894 2.34813313563e-38
0.00164895505108 -0.021436415664 0.891 2.34816368394e-38
0.00329791010215 -0.021436415664 0.891 2.34824159614e-38
0.00494686515323 -0.021436415664 0.891 2.34889179862e-38
0.00659582020431 -0.021436415664 0.891 1.80507715176e-38
0.00824477525538 -0.021436415664 0.891 2.11908375502e-38
0.00989373030646 -0.021436415664 0.891 2.29400742193e-38
0.0115426853575 -0.021436415664 0.891 1.59392991954e-38
0.0131916404086 -0.021436415664 0.891 2.1467106345e-38
0.0148405954597 -0.021436415664 0.891 2.34874592345e-38
0.0164895505108 -0.021436415664 0.891 2.34870710748e-38
0.0181385055618 -0.021436415664 0.891 1.98954674407e-38
0.0197874606129 -0.021436415664 0.891 1.69491519402e-38
0.021436415664 -0.021436415664 0.891 2.34954073994e-38
0.0230853707151 -0.021436415664 0.891 1.73132260968e-38
0.0246788053941 -0.0213882980082 0.889 1.44595252145e-38
0.026324059087 -0.0213882980082 0.889 2.34968591446e-38
0.0279693127799 -0.0213882980082 0.889 1.04835958583e-38
0.0296145664729 -0.0213882980082 0.889 2.34863718269e-38
0.0312598201658 -0.0213882980082 0.889 7.98968816575e-39
0.0329050738588 -0.0213882980082 0.889 2.34908097392e-38
0.0345503275517 -0.0213882980082 0.889 2.34856599673e-38
0.0361955812446 -0.0213882980082 0.889 1.7862437004e-38
0.0377557037004 -0.0213401803524 0.887 1.28863855195e-38
0.0393972560352 -0.0213401803524 0.887 1.74155587198e-38
0.04103880837 -0.0213401803524 0.887 1.73964842451e-38
0.0426803607048 -0.0213401803524 0.887 1.93401300567e-38
0.0443219130396 -0.0213401803524 0.887 6.70399121953e-39
0.0459634653743 -0.0213401803524 0.887 2.35040001616e-38
0.0476050177091 -0.0213401803524 0.887 3.12241527716e-39
0.0492465700439 -0.0213401803524 0.887 2.33997225364e-38
0.0508881223787 -0.0213401803524 0.887 2.34831348275e-38
0.0525296747135 -0.0213401803524 0.887 2.34842096234e-38
0.0540490822297 -0.0212920626966 0.885 2.34810048538e-38
0.0556869332064 -0.0212920626966 0.885 2.34817209173e-38
0.0573247841831 -0.0212920626966 0.885 2.32040452188e-38
0.0589626351597 -0.0212920626966 0.885 2.34841956104e-38
0.0606004861364 -0.0212920626966 0.885 2.34834907573e-38
0.062238337113 -0.0212920626966 0.885 2.34845767636e-38
0.0638761880897 -0.0212920626966 0.885 2.34849172791e-38
0.0655140390664 -0.0212920626966 0.885 2.34845767636e-38
0.067151890043 -0.0212920626966 0.885 2.34809852356e-38
0.0689451980615 -0.0213401803524 0.887 2.34881598838e-38
0.0705867503963 -0.0213401803524 0.887 2.34863942477e-38
0.0722283027311 -0.0213401803524 0.887 2.34874368137e-38
0.0738698550659 -0.0213401803524 0.887 2.34831292223e-38
0.0755114074007 -0.0213401803524 0.887 2.34834809482e-38
0.0771529597355 -0.0213401803524 0.887 2.34816858849e-38
0.0787945120703 -0.0213401803524 0.887 2.35076645571e-38
-0.00997145882739 -0.0199429176548 0.898 2.34953905838e-38
-0.00830954902282 -0.0199429176548 0.898 2.16453697266e-38
-0.00664763921826 -0.0199429176548 0.898 2.30181867996e-38
-0.00498572941369 -0.0199429176548 0.898 2.34835159806e-38
-0.00332381960913 -0.0199429176548 0.898 2.34809782291e-38
-0.00165820844643 -0.0198985013571 0.896 2.34813411654e-38
0.0 -0.0198985013571 0.896 2.31129033654e-38
0.00165450708829 -0.0198540850594 0.894 2.34831208145e-38
0.00330901417657 -0.0198540850594 0.894 2.32036668682e-38
0.00494686515323 -0.0197874606129 0.891 2.33884112552e-38
0.00659582020431 -0.0197874606129 0.891 2.34892528966e-38
0.00824477525538 -0.0197874606129 0.891 3.58158435016e-39
0.00989373030646 -0.0197874606129 0.891 2.34986275833e-38
0.0115426853575 -0.0197874606129 0.891 9.11180313443e-39
0.0131916404086 -0.0197874606129 0.891 2.2936147781e-38
0.0148905637946 -0.0198540850594 0.894 2.34859906737e-38
0.0165450708829 -0.0198540850594 0.894 2.34899675588e-38
0.0181995779711 -0.0198540850594 0.894 1.78657020294e-38
0.0198540850594 -0.0198540850594 0.894 7.89787929426e-39
0.0215085921477 -0.0198540850594 0.894 1.75963248204e-38
0.023163099236 -0.0198540850594 0.894 3.86249284422e-39
0.0248176063243 -0.0198540850594 0.894 9.57831080748e-39
0.0263832808172 -0.0197874606129 0.891 2.34861504218e-38
0.0280322358683 -0.0197874606129 0.891 9.65958751971e-39
0.0297811275891 -0.0198540850594 0.894 2.34800757929e-38
0.0314356346774 -0.0198540850594 0.894 3.30607786169e-39
0.0329791010215 -0.0197874606129 0.891 2.34826107418e-38
0.0346280560726 -0.0197874606129 0.891 2.34892683108e-38
0.0362770111237 -0.0197874606129 0.891 2.11814978959e-38
0.0378408349376 -0.0197430443153 0.889 8.63328072834e-39
0.0394860886305 -0.0197430443153 0.889 2.34982422262e-38
0.0411313423234 -0.0197430443153 0.889 2.34878501968e-38
0.0427765960164 -0.0197430443153 0.889 2.33963622227e-38
0.0444218497093 -0.0197430443153 0.889 1.83672253485e-39
0.0460671034023 -0.0197430443153 0.889 2.00802720834e-38
0.0477123570952 -0.0197430443153 0.889 5.97038344749e-39
0.0493576107881 -0.0197430443153 0.889 2.18204829892e-38
0.0510028644811 -0.0197430443153 0.889 2.3489987177e-38
0.052648118174 -0.0197430443153 0.889 2.34813383628e-38
0.0542933718669 -0.0197430443153 0.889 2.34831558469e-38
0.0559386255599 -0.0197430443153 0.889 2.34856473556e-38
0.0575838792528 -0.0197430443153 0.889 2.34878053552e-38
0.0592291329458 -0.0197430443153 0.889 2.34827718912e-38
0.0608743866387 -0.0197430443153 0.889 2.34834963625e-38
0.0623789887223 -0.0196986280176 0.887 2.34817012991e-38
0.0640205410571 -0.0196986280176 0.887 2.34849172791e-38
0.0656620933919 -0.0196986280176 0.887 2.34863718269e-38
0.0673036457267 -0.0196986280176 0.887 2.34849593181e-38
0.0689451980615 -0.0196986280176 0.887 2.34878179669e-38
0.0705867503963 -0.0196986280176 0.887 2.34827817003e-38
0.0722283027311 -0.0196986280176 0.887 2.34867025334e-38
0.0738698550659 -0.0196986280176 0.887 2.34863774321e-38
0.0755114074007 -0.0196986280176 0.887 2.34852928271e-38
0.0771529597355 -0.0196986280176 0.887 2.34831292223e-38
0.0787945120703 -0.0196986280176 0.887 2.35090714607e-38
-0.0100269791995 -0.018382795199 0.903 2.34914585403e-38
-0.00835581599956 -0.018382795199 0.903 2.32079408285e-38
-0.00666984736709 -0.0183420802595 0.901 2.33887769941e-38
-0.00500238552532 -0.0183420802595 0.901 2.32065395301e-38
-0.00333492368355 -0.0183420802595 0.901 2.34820558276e-38
-0.00166190980456 -0.0182810078502 0.898 2.33898587965e-38
0.0 -0.0182810078502 0.898 2.27470103234e-38
0.00166190980456 -0.0182810078502 0.898 2.34845767636e-38
0.00331641689285 -0.0182402929107 0.896 2.33891329239e-38
0.00497462533928 -0.0182402929107 0.896 2.34831166106e-38
0.0066328337857 -0.0182402929107 0.896 2.34900039925e-38
0.00829104223213 -0.0182402929107 0.896 2.75506488474e-39
0.00994925067855 -0.0182402929107 0.896 2.14674566696e-38
0.011607459125 -0.0182402929107 0.896 1.30812276632e-38
0.0132656675714 -0.0182402929107 0.896 1.39918250364e-38
0.0149238760178 -0.0182402929107 0.896 1.70313268848e-38
0.0165820844643 -0.0182402929107 0.896 1.75672212526e-38
0.0182402929107 -0.0182402929107 0.896 2.34831432353e-38
0.0198985013571 -0.0182402929107 0.896 3.03061621476e-39
0.0215567098035 -0.0182402929107 0.896 1.94463386712e-38
0.02321491825 -0.0182402929107 0.896 1.21511144062e-38
0.0248731266964 -0.0182402929107 0.896 2.34903529159e-38
0.0265313351428 -0.0182402929107 0.896 1.04704012319e-38
0.0281266205009 -0.0181995779711 0.894 2.34864208724e-38
0.0297811275891 -0.0181995779711 0.894 1.33319802143e-38
0.0315059604821 -0.0182402929107 0.896 1.84253540114e-38
0.0330901417657 -0.0181995779711 0.894 1.86779576777e-38
0.034744648854 -0.0181995779711 0.894 2.34950262462e-38
0.0363991559423 -0.0181995779711 0.894 2.34910928014e-38
0.0380536630306 -0.0181995779711 0.894 8.54755349218e-39
0.0397081701189 -0.0181995779711 0.894 2.34957745396e-38
0.0412238762769 -0.0181385055618 0.891 1.38162913843e-38
0.042872831328 -0.0181385055618 0.891 1.87823207822e-38
0.0445217863791 -0.0181385055618 0.891 6.35208313619e-39
0.0461707414302 -0.0181385055618 0.891 2.18316513379e-38
0.0478196964812 -0.0181385055618 0.891 2.32137814405e-38
0.0494686515323 -0.0181385055618 0.891 8.08619979488e-39
0.0511176065834 -0.0181385055618 0.891 2.34928738518e-38
0.0527665616345 -0.0181385055618 0.891 2.34860215023e-38
0.0544155166855 -0.0181385055618 0.891 2.3482428573e-38
0.0560644717366 -0.0181385055618 0.891 2.34827774964e-38
0.0577134267877 -0.0181385055618 0.891 2.34867319606e-38
0.0593623818388 -0.0181385055618 0.891 2.34827831015e-38
0.0610113368898 -0.0181385055618 0.891 2.34871061073e-38
0.0626602919409 -0.0181385055618 0.891 2.34838677066e-38
0.064309246992 -0.0181385055618 0.891 2.34838621014e-38
0.0658101477175 -0.0180977906223 0.889 2.34863690243e-38
0.0674554014104 -0.0180977906223 0.889 2.34874634384e-38
0.0691006551034 -0.0180977906223 0.889 2.34849088713e-38
0.0707459087963 -0.0180977906223 0.889 2.34842096234e-38
0.0723911624893 -0.0180977906223 0.889 2.34863732282e-38
0.0740364161822 -0.0180977906223 0.889 2.34863648204e-38
0.0756816698751 -0.0180977906223 0.889 2.34863802347e-38
0.0773269235681 -0.0180977906223 0.889 2.34888913616e-38
-0.0152903104736 -0.0169892338596 0.918 2.3488912381e-38
-0.01354697079 -0.0169337134875 0.915 2.34874326099e-38
-0.0118535994412 -0.0169337134875 0.915 2.34860046867e-38
-0.0101602280925 -0.0169337134875 0.915 2.34878193682e-38
-0.00844834995305 -0.0168966999061 0.913 2.17335576428e-38
-0.00672166638105 -0.0168041659526 0.908 2.34827690886e-38
-0.00504124978578 -0.0168041659526 0.908 2.34827578782e-38
-0.00335343047424 -0.0167671523712 0.906 2.34820446173e-38
-0.00167116319991 -0.0167116319991 0.903 2.27437481006e-38
0.0 -0.0166746184177 0.901 2.34831432353e-38
0.00166190980456 -0.0166190980456 0.898 2.33895224849e-38
0.00332381960913 -0.0166190980456 0.898 2.34816858849e-38
0.00498572941369 -0.0166190980456 0.898 2.33926908207e-38
0.00664763921826 -0.0166190980456 0.898 2.34910381508e-38
0.00829104223213 -0.0165820844643 0.896 1.74962076503e-38
0.00994925067855 -0.0165820844643 0.896 8.47008410788e-39
0.011607459125 -0.0165820844643 0.896 2.35000400921e-38
0.0132656675714 -0.0165820844643 0.896 5.15354975705e-39
0.0149238760178 -0.0165820844643 0.896 2.29422812644e-38
0.0166190980456 -0.0166190980456 0.898 2.34906934314e-38
0.0182810078502 -0.0166190980456 0.898 2.34950010229e-38
0.0199429176548 -0.0166190980456 0.898 2.93873587706e-39
0.0216048274593 -0.0166190980456 0.898 2.34889978602e-38
0.0232667372639 -0.0166190980456 0.898 2.34903599223e-38
0.0249286470685 -0.0166190980456 0.898 2.34881935149e-38
0.026590556873 -0.0166190980456 0.898 7.62235178631e-39
0.0282524666776 -0.0166190980456 0.898 2.34874914644e-38
0.0299143764822 -0.0166190980456 0.898 7.8060395942e-39
0.0315762862867 -0.0166190980456 0.898 2.34935324621e-38
0.0332381960913 -0.0166190980456 0.898 1.40799330787e-38
0.0349001058959 -0.0166190980456 0.898 1.69362389749e-38
0.0365620157004 -0.0166190980456 0.898 1.87693895999e-38
0.0381387942678 -0.0165820844643 0.896 2.32104421463e-38
0.0397970027142 -0.0165820844643 0.896 1.66653161337e-38
0.0414552111606 -0.0165820844643 0.896 1.83230872494e-38
0.0431134196071 -0.0165820844643 0.896 2.14602946332e-38
0.0446716913837 -0.0165450708829 0.894 2.2570522387e-38
0.046326198472 -0.0165450708829 0.894 2.28438498564e-38
0.0479807055603 -0.0165450708829 0.894 2.34914501326e-38
0.0496352126486 -0.0165450708829 0.894 2.12765619837e-38
0.0512897197369 -0.0165450708829 0.894 2.34907004379e-38
0.0529442268251 -0.0165450708829 0.894 2.34831488404e-38
0.0545987339134 -0.0165450708829 0.894 2.34831670573e-38
0.0562532410017 -0.0165450708829 0.894 2.34845711584e-38
0.05790774809 -0.0165450708829 0.894 2.34852872219e-38
0.0595622551783 -0.0165450708829 0.894 2.34831460379e-38
0.0612167622666 -0.0165450708829 0.894 2.34842194325e-38
0.0628712693549 -0.0165450708829 0.894 2.34849312921e-38
0.0645257764432 -0.0165450708829 0.894 2.34845655532e-38
0.0661802835314 -0.0165450708829 0.894 2.34874129917e-38
0.0676071570942 -0.0164895505108 0.891 2.3488898368e-38
0.0692561121452 -0.0164895505108 0.891 2.34849565155e-38
0.0709050671963 -0.0164895505108 0.891 2.34867445723e-38
0.0725540222474 -0.0164895505108 0.891 2.34845977831e-38
0.0742029772985 -0.0164895505108 0.891 2.34867305593e-38
0.0758519323495 -0.0164895505108 0.891 2.34813355602e-38
0.0775008874006 -0.0164895505108 0.891 2.34838466871e-38
-0.0152903104736 -0.0152903104736 0.918 2.34831474391e-38
-0.01354697079 -0.0152403421387 0.915 2.34827985158e-38
-0.0118535994412 -0.0152403421387 0.915 2.34823963432e-38
-0.0101602280925 -0.0152403421387 0.915 2.34838719105e-38
-0.00844834995305 -0.0152070299155 0.913 2.08116083507e-38
-0.0067364718136 -0.0151570615806 0.91 2.30196511565e-38
-0.00504124978578 -0.0151237493574 0.908 2.34831544456e-38
-0.00336083319052 -0.0151237493574 0.908 2.3483141834e-38
-0.00167671523712 -0.0150904371341 0.906 2.32998337779e-38
0.0 -0.0150904371341 0.906 2.34867277567e-38
0.00167116319991 -0.0150404687992 0.903 2.32050961927e-38
0.00333492368355 -0.015007156576 0.901 2.34856347439e-38
0.00500238552532 -0.015007156576 0.901 2.32072219624e-38
0.00666984736709 -0.015007156576 0.901 2.34849130752e-38
0.00833730920887 -0.015007156576 0.901 2.3488898368e-38
0.00997145882739 -0.0149571882411 0.898 1.6572806613e-38
0.011633368632 -0.0149571882411 0.898 2.3495048667e-38
0.0132952784365 -0.0149571882411 0.898 1.85124881512e-38
0.0149571882411 -0.0149571882411 0.898 2.34914165014e-38
0.0166190980456 -0.0149571882411 0.898 2.34871019034e-38
0.0182810078502 -0.0149571882411 0.898 2.34888647369e-38
0.0199429176548 -0.0149571882411 0.898 2.20134109591e-38
0.0216048274593 -0.0149571882411 0.898 2.31215507782e-38
0.0233444657848 -0.015007156576 0.901 2.34867417697e-38
0.0250119276266 -0.015007156576 0.901 2.34899997886e-38
0.0266793894684 -0.015007156576 0.901 2.28413765646e-38
0.0283468513102 -0.015007156576 0.901 2.34899745653e-38
0.0300143131519 -0.015007156576 0.901 2.34889067758e-38
0.0316817749937 -0.015007156576 0.901 2.26602026861e-38
0.0333492368355 -0.015007156576 0.901 2.34878319799e-38
0.0350166986772 -0.015007156576 0.901 2.34917780364e-38
0.036684160519 -0.015007156576 0.901 2.33037518084e-38
0.038223925505 -0.0149571882411 0.898 2.17375219162e-38
0.0398858353096 -0.0149571882411 0.898 2.33956391526e-38
0.0415477451141 -0.0149571882411 0.898 2.20137220474e-38
0.0431134196071 -0.0149238760178 0.896 2.19208776163e-38
0.0447716280535 -0.0149238760178 0.896 2.20133829332e-38
0.0464298364999 -0.0149238760178 0.896 1.86028915203e-38
0.0480880449463 -0.0149238760178 0.896 2.20098348454e-38
0.0497462533928 -0.0149238760178 0.896 1.97956879835e-38
0.0514044618392 -0.0149238760178 0.896 2.0620785131e-38
0.0530626702856 -0.0149238760178 0.896 2.32922779766e-38
0.054720878732 -0.0149238760178 0.896 2.3486367623e-38
0.0563790871785 -0.0149238760178 0.896 2.14526589579e-38
0.0580372956249 -0.0149238760178 0.896 2.25547255494e-38
0.0596955040713 -0.0149238760178 0.896 2.34845613493e-38
0.0613537125177 -0.0149238760178 0.896 2.34842054195e-38
0.0628712693549 -0.0148905637946 0.894 2.34845837701e-38
0.0645257764432 -0.0148905637946 0.894 2.34860172984e-38
0.066328337857 -0.0149238760178 0.896 2.3482081051e-38
0.0679865463034 -0.0149238760178 0.896 2.34856907959e-38
0.069489297708 -0.0148905637946 0.894 2.34870948969e-38
0.0711438047963 -0.0148905637946 0.894 2.34892290745e-38
0.0727983118846 -0.0148905637946 0.894 2.34834935599e-38
0.0744528189729 -0.0148905637946 0.894 2.34842026169e-38
0.07644785101 -0.0149571882411 0.898 2.34838564962e-38
0.0781097608145 -0.0149571882411 0.898 2.34874185969e-38
-0.0152903104736 -0.0135913870877 0.918 2.28367074381e-38
-0.0135913870877 -0.0135913870877 0.918 2.32998281727e-38
-0.0118535994412 -0.01354697079 0.915 2.19168937248e-38
-0.0101602280925 -0.01354697079 0.915 2.02573499665e-38
-0.00846685674374 -0.01354697079 0.915 2.11779217822e-38
-0.00675867996244 -0.0135173599249 0.913 2.25601401667e-38
-0.00506900997183 -0.0135173599249 0.913 2.32072640014e-38
-0.0033682359068 -0.0134729436272 0.91 2.31121999136e-38
-0.0016841179534 -0.0134729436272 0.91 2.34806194967e-38
0.0 -0.0134433327621 0.908 2.34816998978e-38
0.00168041659526 -0.0134433327621 0.908 2.34849270882e-38
0.00335343047424 -0.013413721897 0.906 2.34856193296e-38
0.00503014571137 -0.013413721897 0.906 2.34848836479e-38
0.00670686094849 -0.013413721897 0.906 2.34842054195e-38
0.00838357618561 -0.013413721897 0.906 2.34853082414e-38
0.0100269791995 -0.0133693055993 0.903 2.26583725903e-38
0.0116981423994 -0.0133693055993 0.903 2.17403917754e-38
0.0133693055993 -0.0133693055993 0.903 1.79550432143e-38
0.0150404687992 -0.0133693055993 0.903 1.8227349137e-38
0.0167116319991 -0.0133693055993 0.903 2.2834246758e-38
0.0183420802595 -0.0133396947342 0.901 2.18179060013e-38
0.0200095421013 -0.0133396947342 0.901 2.05361649206e-38
0.0216770039431 -0.0133396947342 0.901 1.71313936081e-38
0.0233444657848 -0.0133396947342 0.901 1.62036933871e-38
0.0250674479987 -0.0133693055993 0.903 2.08159397642e-38
0.0267386111986 -0.0133693055993 0.903 1.85092679673e-38
0.0285041590311 -0.013413721897 0.906 1.9703517577e-38
0.0301808742682 -0.013413721897 0.906 2.17331891013e-38
0.0318575895053 -0.013413721897 0.906 2.01705703552e-38
0.0334232639983 -0.0133693055993 0.903 2.21016184936e-38
0.0350944271982 -0.0133693055993 0.903 2.08991320515e-38
0.0367655903981 -0.0133693055993 0.903 1.96102079149e-38
0.0383516223608 -0.0133396947342 0.901 2.0996777331e-38
0.0400190842026 -0.0133396947342 0.901 2.27516542265e-38
0.0416865460443 -0.0133396947342 0.901 2.01709080681e-38
0.0432096549187 -0.0132952784365 0.898 2.12722684052e-38
0.0448715647232 -0.0132952784365 0.898 2.23782207974e-38
0.0465334745278 -0.0132952784365 0.898 2.04475271876e-38
0.0483563934114 -0.0133396947342 0.901 2.19212125267e-38
0.0500238552532 -0.0133396947342 0.901 2.21916883537e-38
0.051691317095 -0.0133396947342 0.901 2.34888661382e-38
0.0533587789368 -0.0133396947342 0.901 2.34813467706e-38
0.0550262407785 -0.0133396947342 0.901 2.34871103112e-38
0.0565049333552 -0.0132952784365 0.898 2.3487813763e-38
0.0581668431598 -0.0132952784365 0.898 2.3487438215e-38
0.0598287529643 -0.0132952784365 0.898 2.34888731447e-38
0.0613537125177 -0.0132656675714 0.896 2.34834977638e-38
0.0630119209642 -0.0132656675714 0.896 2.34824551977e-38
0.0646701294106 -0.0132656675714 0.896 2.34860032854e-38
0.066328337857 -0.0132656675714 0.896 2.34874592345e-38
0.0681383019871 -0.0132952784365 0.898 2.34838943312e-38
0.0698002117917 -0.0132952784365 0.898 2.34860411205e-38
0.0714621215963 -0.0132952784365 0.898 2.34816970952e-38
0.0731240314008 -0.0132952784365 0.898 2.34809852356e-38
0.0747859412054 -0.0132952784365 0.898 2.34867501775e-38
0.076873507196 -0.0133693055993 0.903 2.25593974785e-38
0.0788056161447 -0.013413721897 0.906 2.34910745846e-38
-0.0152903104736 -0.0118924637017 0.918 2.24686423834e-38
-0.0135913870877 -0.0118924637017 0.918 2.2470067504e-38
-0.0118535994412 -0.0118535994412 0.915 2.09960290377e-38
-0.0101602280925 -0.0118535994412 0.915 2.10882148584e-38
-0.00846685674374 -0.0118535994412 0.915 1.97967697859e-38
-0.006773485395 -0.0118535994412 0.915 2.2837073177e-38
-0.00508011404625 -0.0118535994412 0.915 2.33898784147e-38
-0.0033867426975 -0.0118535994412 0.915 2.34809936434e-38
-0.00168966999061 -0.0118276899343 0.913 2.3481329955e-38
0.0 -0.0118276899343 0.913 2.34809852356e-38
0.0016841179534 -0.0117888256738 0.91 2.3388058128e-38
0.0033682359068 -0.0117888256738 0.91 2.34820558276e-38
0.0050523538602 -0.0117888256738 0.91 2.34834879547e-38
0.00672166638105 -0.0117629161668 0.908 2.34845613493e-38
0.00840208297631 -0.0117629161668 0.908 2.34838480884e-38
0.0100824995716 -0.0117629161668 0.908 2.09056158595e-38
0.0117629161668 -0.0117629161668 0.908 1.95226940232e-38
0.013413721897 -0.0117370066599 0.906 2.22878272374e-38
0.0150904371341 -0.0117370066599 0.906 2.22906788798e-38
0.0167671523712 -0.0117370066599 0.906 2.34863550113e-38
0.0184438676083 -0.0117370066599 0.906 2.348707668e-38
0.0201205828455 -0.0117370066599 0.906 2.0909266242e-38
0.0217972980826 -0.0117370066599 0.906 1.96260481927e-38
0.0234740133197 -0.0117370066599 0.906 2.16524995331e-38
0.0251507285568 -0.0117370066599 0.906 2.14667560204e-38
0.026827443794 -0.0117370066599 0.906 2.30318564661e-38
0.0285670821194 -0.0117629161668 0.908 2.05422619702e-38
0.0302474987147 -0.0117629161668 0.908 2.2203207027e-38
0.0318575895053 -0.0117370066599 0.906 1.99915909101e-38
0.0335343047424 -0.0117370066599 0.906 2.24725870386e-38
0.0352110199796 -0.0117370066599 0.906 2.34849411012e-38
0.0368877352167 -0.0117370066599 0.906 2.09052403115e-38
0.0385644504538 -0.0117370066599 0.906 1.92443779313e-38
0.0402411656909 -0.0117370066599 0.906 2.00737840716e-38
0.0417790799978 -0.0116981423994 0.903 2.05329055004e-38
0.0434502431977 -0.0116981423994 0.903 1.87812095525e-38
0.0452713114023 -0.0117370066599 0.906 2.28327824011e-38
0.0467925695976 -0.0116981423994 0.903 1.77627612429e-38
0.0484637327975 -0.0116981423994 0.903 2.34906794184e-38
0.0501348959974 -0.0116981423994 0.903 2.34838438845e-38
0.0518060591973 -0.0116981423994 0.903 2.34860186997e-38
0.0534772223972 -0.0116981423994 0.903 2.34817139108e-38
0.0551483855971 -0.0116981423994 0.903 2.34852998336e-38
0.056819548797 -0.0116981423994 0.903 2.34885480434e-38
0.0583611644621 -0.0116722328924 0.901 2.3483864904e-38
0.0600286263038 -0.0116722328924 0.901 2.3484212426e-38
0.0614906627689 -0.011633368632 0.898 2.34863578139e-38
0.0631525725735 -0.011633368632 0.898 2.34860130945e-38
0.064814482378 -0.011633368632 0.898 2.34881724954e-38
0.0664763921826 -0.011633368632 0.898 2.32051172121e-38
0.0683659355127 -0.0116722328924 0.901 2.34806138915e-38
0.0701888543963 -0.0116981423994 0.903 2.34845865727e-38
0.0720987551962 -0.0117370066599 0.906 2.34845781649e-38
0.0737754704334 -0.0117370066599 0.906 2.34856417504e-38
0.0754521856705 -0.0117370066599 0.906 2.22853063015e-38
0.0771289009076 -0.0117370066599 0.906 2.13629772574e-38
0.0788056161447 -0.0117370066599 0.906 2.34932241764e-38
0.0804823313819 -0.0117370066599 0.906 2.35098505827e-38
-0.0153735910318 -0.0102490606878 0.923 2.2561559682e-38
-0.0135913870877 -0.0101935403157 0.918 2.1916190273e-38
-0.0118924637017 -0.0101935403157 0.918 2.0718761117e-38
-0.0101935403157 -0.0101935403157 0.918 1.97971229131e-38
-0.00849461692979 -0.0101935403157 0.918 1.89663056653e-38
-0.00679569354383 -0.0101935403157 0.918 2.21920765133e-38
-0.00509677015787 -0.0101935403157 0.918 2.3482780299e-38
-0.00339784677192 -0.0101935403157 0.918 2.348169149e-38
-0.00169337134875 -0.0101602280925 0.915 2.3482029203e-38
0.0 -0.0101602280925 0.915 2.34816788784e-38
0.00169337134875 -0.0101602280925 0.915 2.34831166106e-38
0.0033867426975 -0.0101602280925 0.915 2.34827718912e-38
0.00508011404625 -0.0101602280925 0.915 2.32069290911e-38
0.00675867996244 -0.0101380199437 0.913 2.34870612658e-38
0.00844834995305 -0.0101380199437 0.913 2.34860032854e-38
0.0101380199437 -0.0101380199437 0.913 2.34885438395e-38
0.0118276899343 -0.0101380199437 0.913 1.69369059929e-38
0.0134729436272 -0.0101047077204 0.91 2.0538641015e-38
0.0151570615806 -0.0101047077204 0.91 1.91535289493e-38
0.016841179534 -0.0101047077204 0.91 2.11757567761e-38
0.0185252974874 -0.0101047077204 0.91 1.7853474299e-38
0.0201649991431 -0.0100824995716 0.908 1.87714999554e-38
0.0218454157384 -0.0100824995716 0.908 1.94204973262e-38
0.0235258323337 -0.0100824995716 0.908 2.04388895838e-38
0.0252062489289 -0.0100824995716 0.908 1.98853808943e-38
0.0268866655242 -0.0100824995716 0.908 1.55521540609e-38
0.0286300052078 -0.0101047077204 0.91 1.70342205661e-38
0.0302474987147 -0.0100824995716 0.908 2.05336636029e-38
0.03192791531 -0.0100824995716 0.908 1.75873523063e-38
0.0336083319052 -0.0100824995716 0.908 2.00719721926e-38
0.0352887485005 -0.0100824995716 0.908 2.34806433188e-38
0.0369691650957 -0.0100824995716 0.908 1.95169739229e-38
0.038649581691 -0.0100824995716 0.908 2.22892887917e-38
0.0403299982863 -0.0100824995716 0.908 2.15516915229e-38
0.0420104148815 -0.0100824995716 0.908 2.23807207139e-38
0.0435945961652 -0.0100602914227 0.906 2.19204698385e-38
0.0452713114023 -0.0100602914227 0.906 2.34895850043e-38
0.0469480266394 -0.0100602914227 0.906 2.34856291387e-38
0.0486247418765 -0.0100602914227 0.906 2.34874466228e-38
0.0503014571137 -0.0100602914227 0.906 2.34856389478e-38
0.0519781723508 -0.0100602914227 0.906 2.34863858399e-38
0.0536548875879 -0.0100602914227 0.906 2.34813663888e-38
0.055331602825 -0.0100602914227 0.906 2.34856557634e-38
0.0570083180621 -0.0100602914227 0.906 2.34856613686e-38
0.0586850332993 -0.0100602914227 0.906 2.34881598838e-38
0.0603617485364 -0.0100602914227 0.906 2.34838522923e-38
0.0618330383968 -0.0100269791995 0.903 2.34870738774e-38
0.0635042015967 -0.0100269791995 0.903 2.34838270689e-38
0.0651753647966 -0.0100269791995 0.903 2.3483151643e-38
0.0670686094849 -0.0100602914227 0.906 2.34827971145e-38
0.068745324722 -0.0100602914227 0.906 2.29270855838e-38
0.070577497001 -0.0100824995716 0.908 2.26519574459e-38
0.0722579135962 -0.0100824995716 0.908 2.18239974457e-38
0.0741011899496 -0.0101047077204 0.91 2.21009402651e-38
0.0756187467868 -0.0100824995716 0.908 2.18236415159e-38
0.077299163382 -0.0100824995716 0.908 2.12711767937e-38
0.0789795799773 -0.0100824995716 0.908 2.34983122911e-38
0.0806599965725 -0.0100824995716 0.908 2.35098463788e-38
-0.0119183732087 -0.00851312372049 0.92 1.97056461494e-38
-0.0101935403157 -0.00849461692979 0.918 2.01655452989e-38
-0.00849461692979 -0.00849461692979 0.918 1.82280371746e-38
-0.00679569354383 -0.00849461692979 0.918 2.17296536253e-38
-0.00509677015787 -0.00849461692979 0.918 2.34827999171e-38
-0.00339784677192 -0.00849461692979 0.918 2.30207483732e-38
-0.00169892338596 -0.00849461692979 0.918 2.34827648847e-38
0.0 -0.00849461692979 0.918 2.33905622483e-38
0.00169892338596 -0.00849461692979 0.918 2.3483822865e-38
0.00339784677192 -0.00849461692979 0.918 2.2743407585e-38
0.00509677015787 -0.00849461692979 0.918 2.34860144958e-38
0.00679569354383 -0.00849461692979 0.918 2.32047192434e-38
0.00846685674374 -0.00846685674374 0.915 2.34845963818e-38
0.0101602280925 -0.00846685674374 0.915 2.34841731896e-38
0.0118535994412 -0.00846685674374 0.915 2.31175724919e-38
0.01354697079 -0.00846685674374 0.915 2.23861353312e-38
0.0152070299155 -0.00844834995305 0.913 2.25676805537e-38
0.0168966999061 -0.00844834995305 0.913 2.34903318964e-38
0.0185863698967 -0.00844834995305 0.913 2.3487813763e-38
0.020320456185 -0.00846685674374 0.915 2.34878151643e-38
0.0219657098779 -0.00844834995305 0.913 2.34935773036e-38
0.0236553798685 -0.00844834995305 0.913 2.34925151194e-38
0.0253450498591 -0.00844834995305 0.913 2.34932508011e-38
0.0270347198498 -0.00844834995305 0.913 2.30283139836e-38
0.0287243898404 -0.00844834995305 0.913 2.34957493162e-38
0.030414059831 -0.00844834995305 0.913 2.34885704642e-38
0.0321037298216 -0.00844834995305 0.913 2.34921437753e-38
0.0337933998122 -0.00844834995305 0.913 2.34910549664e-38
0.0353664770214 -0.008420589767 0.91 2.34867333619e-38
0.0370505949748 -0.008420589767 0.91 2.34853138466e-38
0.0387347129282 -0.008420589767 0.91 2.34874634384e-38
0.0404188308816 -0.008420589767 0.91 2.3484226439e-38
0.042102948835 -0.008420589767 0.91 2.34831488404e-38
0.0437870667884 -0.008420589767 0.91 2.34849425025e-38
0.0454711847418 -0.008420589767 0.91 2.34885284253e-38
0.0471553026952 -0.008420589767 0.91 2.34852732089e-38
0.0487320812626 -0.00840208297631 0.908 2.3487480254e-38
0.0504124978578 -0.00840208297631 0.908 2.34849284895e-38
0.0520929144531 -0.00840208297631 0.908 2.34874410176e-38
0.0537733310484 -0.00840208297631 0.908 2.34845515402e-38
0.0554537476436 -0.00840208297631 0.908 2.34867025334e-38
0.0571341642389 -0.00840208297631 0.908 2.34834683365e-38
0.0588145808341 -0.00840208297631 0.908 2.3482752273e-38
0.0604949974294 -0.00840208297631 0.908 2.34834851521e-38
0.0621754140247 -0.00840208297631 0.908 2.22838811809e-38
0.0639964822292 -0.008420589767 0.91 2.24675493706e-38
0.0656806001826 -0.008420589767 0.91 2.14541233147e-38
0.0675867996244 -0.00844834995305 0.913 2.19147707576e-38
0.0690488360894 -0.008420589767 0.91 2.26537553119e-38
0.0707329540428 -0.008420589767 0.91 2.24693500392e-38
0.0724170719962 -0.008420589767 0.91 2.14559337924e-38
0.0741011899496 -0.008420589767 0.91 2.228493776e-38
0.0760351495774 -0.00844834995305 0.913 2.20984207305e-38
0.0774694258564 -0.008420589767 0.91 2.33887797967e-38
0.0791535438098 -0.008420589767 0.91 2.35004744947e-38
0.0808376617632 -0.008420589767 0.91 2.350988001e-38
-0.0119183732087 -0.00681049897639 0.92 1.96141791947e-38
-0.0102157484646 -0.00681049897639 0.92 1.95201660808e-38
-0.00849461692979 -0.00679569354383 0.918 1.78606797757e-38
-0.00679569354383 -0.00679569354383 0.918 2.1638883116e-38
-0.00509677015787 -0.00679569354383 0.918 2.34878403877e-38
-0.00339784677192 -0.00679569354383 0.918 2.3202966219e-38
-0.0017026247441 -0.00681049897639 0.92 2.34896158329e-38
0.0 -0.00681049897639 0.92 2.34842544649e-38
0.0017026247441 -0.00681049897639 0.92 2.3487466241e-38
0.00340524948819 -0.00681049897639 0.92 2.34881907123e-38
0.00510787423229 -0.00681049897639 0.92 2.34863872412e-38
0.00681049897639 -0.00681049897639 0.92 2.34853082414e-38
0.00849461692979 -0.00679569354383 0.918 2.34888773486e-38
0.0101935403157 -0.00679569354383 0.918 2.2658051693e-38
0.0118924637017 -0.00679569354383 0.918 2.32126730135e-38
0.0135913870877 -0.00679569354383 0.918 2.16475165158e-38
0.0152903104736 -0.00679569354383 0.918 2.03596503596e-38
0.0169892338596 -0.00679569354383 0.918 1.98997428023e-38
0.0186881572455 -0.00679569354383 0.918 1.85186090229e-38
0.0203870806315 -0.00679569354383 0.918 1.75952233998e-38
0.0220860040175 -0.00679569354383 0.918 1.63002260357e-38
0.0237849274034 -0.00679569354383 0.918 1.39031592774e-38
0.0254005702312 -0.006773485395 0.915 1.13141440568e-38
0.02709394158 -0.006773485395 0.915 1.42565205073e-38
0.0287873129287 -0.006773485395 0.915 1.08542252891e-38
0.0304806842775 -0.006773485395 0.915 7.53349404939e-39
0.0321740556262 -0.006773485395 0.915 6.52046315966e-39
0.033867426975 -0.006773485395 0.915 2.34908335612e-38
0.0354830698028 -0.00675867996244 0.913 2.3485297031e-38
0.0371727397934 -0.00675867996244 0.913 2.34817321277e-38
0.038862409784 -0.00675867996244 0.913 2.34842152286e-38
0.04064091237 -0.006773485395 0.915 2.34835061716e-38
0.0423342837187 -0.006773485395 0.915 2.34871075086e-38
0.0440276550675 -0.006773485395 0.915 2.34888801512e-38
0.0457210264162 -0.006773485395 0.915 2.34820796497e-38
0.047414397765 -0.006773485395 0.915 2.34834725404e-38
0.0491077691137 -0.006773485395 0.915 2.34849382986e-38
0.0506900997183 -0.00675867996244 0.913 2.34820586302e-38
0.0523797697089 -0.00675867996244 0.913 2.34795404969e-38
0.0540694396995 -0.00675867996244 0.913 2.34831376301e-38
0.0557591096901 -0.00675867996244 0.913 2.2744506203e-38
0.0574487796807 -0.00675867996244 0.913 2.22838867861e-38
0.0591384496713 -0.00675867996244 0.913 2.16385145745e-38
0.0608281196619 -0.00675867996244 0.913 2.18232729744e-38
0.0625177896526 -0.00675867996244 0.913 2.1454486251e-38
0.0642074596432 -0.00675867996244 0.913 2.22845580081e-38
0.0660414826012 -0.006773485395 0.915 2.2193483417e-38
0.06773485395 -0.006773485395 0.915 2.20090921573e-38
0.0694282252987 -0.006773485395 0.915 2.23764355432e-38
0.0709661396056 -0.00675867996244 0.913 2.24685877328e-38
0.0726558095962 -0.00675867996244 0.913 2.21931330924e-38
0.074508339345 -0.006773485395 0.915 2.34859752595e-38
0.0760351495774 -0.00675867996244 0.913 2.3486771197e-38
0.077724819568 -0.00675867996244 0.913 2.34874536293e-38
0.0794144895587 -0.00675867996244 0.913 2.35069555001e-38
0.0811041595493 -0.00675867996244 0.913 2.35098716022e-38
-0.0102157484646 -0.00510787423229 0.92 1.86003944064e-38
-0.00851312372049 -0.00510787423229 0.92 1.81383372573e-38
-0.00681049897639 -0.00510787423229 0.92 2.07187218807e-38
-0.00510787423229 -0.00510787423229 0.92 2.33019987841e-38
-0.00340524948819 -0.00510787423229 0.92 2.32976813835e-38
-0.0017026247441 -0.00510787423229 0.92 2.34892416862e-38
0.0 -0.00512453034392 0.923 8.64688593513e-39
0.00170817678131 -0.00512453034392 0.923 1.08521107297e-38
0.00341635356261 -0.00512453034392 0.923 1.07638989914e-38
0.00512453034392 -0.00512453034392 0.923 1.36140321679e-38
0.00683270712523 -0.00512453034392 0.923 1.68400762691e-38
0.00854088390653 -0.00512453034392 0.923 8.72764416692e-39
0.0102490606878 -0.00512453034392 0.923 7.53780023957e-39
0.0119572374691 -0.00512453034392 0.923 7.26587827256e-39
0.0136654142505 -0.00512453034392 0.923 2.4796144482e-39
0.0153236226969 -0.00510787423229 0.92 1.64850909343e-38
0.017026247441 -0.00510787423229 0.92 1.15211564776e-38
0.0187899445944 -0.00512453034392 0.923 9.77600179093e-39
0.0204981213757 -0.00512453034392 0.923 9.18404007026e-40
0.022206298157 -0.00512453034392 0.923 8.19865119404e-39
0.0238367464174 -0.00510787423229 0.92 1.4466429412e-38
0.0255393711615 -0.00510787423229 0.92 1.72264759128e-38
0.0272419959056 -0.00510787423229 0.92 1.78775710274e-38
0.0289446206497 -0.00510787423229 0.92 4.14376147197e-39
0.0305806209472 -0.00509677015787 0.918 6.44941312362e-39
0.0322795443332 -0.00509677015787 0.918 4.2459343469e-43
0.033867426975 -0.00508011404625 0.915 2.04455919944e-38
0.0355607983237 -0.00508011404625 0.915 2.34914235079e-38
0.0372541696725 -0.00508011404625 0.915 2.3484935496e-38
0.0389475410212 -0.00508011404625 0.915 2.34817111082e-38
0.04064091237 -0.00508011404625 0.915 2.34813691914e-38
0.0423342837187 -0.00508011404625 0.915 2.34802761786e-38
0.0440276550675 -0.00508011404625 0.915 2.32040171928e-38
0.0457210264162 -0.00508011404625 0.915 2.34828083249e-38
0.047414397765 -0.00508011404625 0.915 2.34824299743e-38
0.0491077691137 -0.00508011404625 0.915 2.34831852742e-38
0.0508011404625 -0.00508011404625 0.915 2.34838873247e-38
0.0524945118112 -0.00508011404625 0.915 2.34878389864e-38
0.05418788316 -0.00508011404625 0.915 2.15463315563e-38
0.0558812545087 -0.00508011404625 0.915 2.20091075715e-38
0.0575746258575 -0.00508011404625 0.915 2.17335520376e-38
0.0592679972062 -0.00508011404625 0.915 2.13647947415e-38
0.060961368555 -0.00508011404625 0.915 2.19168937248e-38
0.0626547399037 -0.00508011404625 0.915 2.22842371107e-38
0.0643481112525 -0.00508011404625 0.915 2.25604638666e-38
0.0660414826012 -0.00508011404625 0.915 2.15481168105e-38
0.0679569354383 -0.00509677015787 0.918 2.3022883952e-38
0.0696558588243 -0.00509677015787 0.918 2.27459159093e-38
0.0711215966475 -0.00508011404625 0.915 2.3484601987e-38
0.0728149679962 -0.00508011404625 0.915 2.34914136988e-38
0.074508339345 -0.00508011404625 0.915 2.34906878262e-38
0.0762017106937 -0.00508011404625 0.915 2.34856655725e-38
0.077724819568 -0.00506900997183 0.913 2.3485658566e-38
0.0794144895587 -0.00506900997183 0.913 2.3509795932e-38
0.0811041595493 -0.00506900997183 0.913 2.35098702009e-38
-0.0102157484646 -0.00340524948819 0.92 1.87858632647e-38
-0.00851312372049 -0.00340524948819 0.92 1.81397651804e-38
-0.00683270712523 -0.00341635356261 0.923 1.98885926704e-38
-0.00512453034392 -0.00341635356261 0.923 2.34853362674e-38
-0.00341635356261 -0.00341635356261 0.923 2.34849256869e-38
-0.00170817678131 -0.00341635356261 0.923 2.34888843551e-38
0.0 -0.00342375627889 0.925 1.99872552927e-38
0.00171187813945 -0.00342375627889 0.925 2.66326862494e-39
0.00342375627889 -0.00342375627889 0.925 4.6094760101e-39
0.00513563441834 -0.00342375627889 0.925 1.06835597478e-38
0.00684751255778 -0.00342375627889 0.925 1.86094173672e-38
0.00854088390653 -0.00341635356261 0.923 7.82973695253e-39
0.0102490606878 -0.00341635356261 0.923 7.09443501065e-39
0.0119572374691 -0.00341635356261 0.923 6.54663801368e-39
0.0136950251156 -0.00342375627889 0.925 7.46574266993e-39
0.0153735910318 -0.00341635356261 0.923 1.05899375961e-38
0.0170817678131 -0.00341635356261 0.923 1.18013755328e-38
0.0188306595339 -0.00342375627889 0.925 9.50372529542e-39
0.0205425376733 -0.00342375627889 0.925 1.4382505647e-38
0.0222544158128 -0.00342375627889 0.925 4.05518119215e-39
0.0239144749383 -0.00341635356261 0.923 1.12331616172e-38
0.0256226517196 -0.00341635356261 0.923 1.98111807393e-38
0.0273308285009 -0.00341635356261 0.923 1.64028150962e-38
0.0290390052822 -0.00341635356261 0.923 1.59444139348e-38
0.0306472453938 -0.00340524948819 0.92 1.28064232252e-38
0.0323498701378 -0.00340524948819 0.92 8.0106277687e-39
0.0339784677192 -0.00339784677192 0.918 1.84180504438e-39
0.0356773911051 -0.00339784677192 0.918 2.3495410202e-38
0.0373763144911 -0.00339784677192 0.918 2.3484921483e-38
0.039075237877 -0.00339784677192 0.918 2.34870808839e-38
0.040774161263 -0.00339784677192 0.918 2.34852998336e-38
0.042473084649 -0.00339784677192 0.918 2.34849396999e-38
0.0441720080349 -0.00339784677192 0.918 2.34845963818e-38
0.0458709314209 -0.00339784677192 0.918 2.34845809675e-38
0.0475698548068 -0.00339784677192 0.918 2.34874340112e-38
0.0492687781928 -0.00339784677192 0.918 2.29270855838e-38
0.0509677015787 -0.00339784677192 0.918 2.34860271075e-38
0.0526666249647 -0.00339784677192 0.918 2.30210706718e-38
0.0543655483507 -0.00339784677192 0.918 2.14559183781e-38
0.0560644717366 -0.00339784677192 0.918 2.19172622663e-38
0.0577633951226 -0.00339784677192 0.918 2.19165307885e-38
0.0594623185085 -0.00339784677192 0.918 2.15481140079e-38
0.0611612418945 -0.00339784677192 0.918 2.20090893547e-38
0.0628601652804 -0.00339784677192 0.918 2.3206168186e-38
0.0645590886664 -0.00339784677192 0.918 2.154596862e-38
0.0662580120524 -0.00339784677192 0.918 2.2561559682e-38
0.0681049897639 -0.00340524948819 0.92 2.34828153314e-38
0.0696558588243 -0.00339784677192 0.918 2.34874718462e-38
0.0713547822102 -0.00339784677192 0.918 2.3488898368e-38
0.0730537055962 -0.00339784677192 0.918 2.34860243049e-38
0.0747526289822 -0.00339784677192 0.918 2.34892528966e-38
0.0764515523681 -0.00339784677192 0.918 2.34842250377e-38
0.0781504757541 -0.00339784677192 0.918 2.34899773679e-38
0.07984939914 -0.00339784677192 0.918 2.35098225567e-38
-0.00686972070662 -0.00171743017665 0.928 1.81375917665e-38
-0.00515229052996 -0.00171743017665 0.928 2.34885564512e-38
-0.00343486035331 -0.00171743017665 0.928 2.34860439231e-38
-0.00172113153479 -0.00172113153479 0.93 2.27470075208e-38
0.0 -0.00172113153479 0.93 2.34953849786e-38
0.001726683572 -0.001726683572 0.933 6.98918348299e-39
0.00345336714401 -0.001726683572 0.933 7.27380541798e-39
0.00516339460438 -0.00172113153479 0.93 6.08348224655e-39
0.00688452613918 -0.00172113153479 0.93 1.16069860086e-38
0.00860565767397 -0.00172113153479 0.93 1.64028767534e-38
0.0103267892088 -0.00172113153479 0.93 1.17005282863e-38
0.0120479207436 -0.00172113153479 0.93 7.28128975308e-39
0.0137690522784 -0.00172113153479 0.93 1.71372790617e-38
0.015540152148 -0.001726683572 0.933 7.18546335889e-39
0.0171743017665 -0.00171743017665 0.928 1.12529493529e-38
0.0188917319432 -0.00171743017665 0.928 1.18057069464e-38
0.0206091621199 -0.00171743017665 0.928 9.86638133799e-39
0.0222544158128 -0.00171187813945 0.925 6.3593698882e-39
0.0239662939522 -0.00171187813945 0.925 1.00450651091e-38
0.0256226517196 -0.00170817678131 0.923 8.01349622665e-39
0.0273308285009 -0.00170817678131 0.923 7.7282955554e-39
0.0290390052822 -0.00170817678131 0.923 1.04998943607e-38
0.0307471820635 -0.00170817678131 0.923 1.11438120246e-38
0.0323498701378 -0.0017026247441 0.92 8.93220851934e-39
0.0340524948819 -0.0017026247441 0.92 2.58042105713e-39
0.0356773911051 -0.00169892338596 0.918 1.90676223469e-38
0.0373763144911 -0.00169892338596 0.918 2.34924702778e-38
0.039075237877 -0.00169892338596 0.918 2.34842012156e-38
0.040774161263 -0.00169892338596 0.918 2.34853082414e-38
0.042473084649 -0.00169892338596 0.918 2.34849270882e-38
0.0441720080349 -0.00169892338596 0.918 2.34892374823e-38
0.0458709314209 -0.00169892338596 0.918 2.34867361645e-38
0.0475698548068 -0.00169892338596 0.918 2.3205820664e-38
0.0492687781928 -0.00169892338596 0.918 2.34870976995e-38
0.0509677015787 -0.00169892338596 0.918 2.28388696416e-38
0.052781367067 -0.0017026247441 0.92 2.12711866028e-38
0.0544839918111 -0.0017026247441 0.92 2.14569749571e-38
0.0561866165552 -0.0017026247441 0.92 2.18247008975e-38
0.0578892412993 -0.0017026247441 0.92 2.24697171794e-38
0.0595918660434 -0.0017026247441 0.92 2.25604904913e-38
0.0612944907875 -0.0017026247441 0.92 2.17317850003e-38
0.0629971155316 -0.0017026247441 0.92 2.23770913509e-38
0.0646997402757 -0.0017026247441 0.92 2.3390950408e-38
0.0664023650198 -0.0017026247441 0.92 2.34864026555e-38
0.0683270712523 -0.00170817678131 0.923 2.34889095784e-38
0.0700352480336 -0.00170817678131 0.923 2.34878572033e-38
0.0717434248149 -0.00170817678131 0.923 2.34892655082e-38
0.0734516015962 -0.00170817678131 0.923 2.3489273916e-38
0.0751597783775 -0.00170817678131 0.923 2.34860285088e-38
0.0768679551588 -0.00170817678131 0.923 2.34842236364e-38
0.0785761319401 -0.00170817678131 0.923 2.34871103112e-38
-0.00519115479043 0.0 0.935 2.34864180698e-38
-0.00346076986028 0.0 0.935 2.2101991239e-38
-0.00173038493014 0.0 0.935 2.29299274171e-38
0.0 0.0 0.935 2.20994871186e-38
0.00173038493014 0.0 0.935 2.25640834205e-38
0.00346076986028 0.0 0.935 2.20405190779e-39
0.00519115479043 0.0 0.935 5.81053032517e-39
0.00692153972057 0.0 0.935 1.06846513594e-38
0.00865192465071 0.0 0.935 1.02182627967e-38
0.0104156218041 0.0 0.938 9.5786639347e-39
0.012112694511 0.0 0.935 3.68604974938e-39
0.0138430794411 0.0 0.935 1.77790359233e-38
0.0155734643713 0.0 0.935 1.31727618801e-38
0.01726683572 0.0 0.933 6.91219334277e-39
0.018993519292 0.0 0.933 1.05077836711e-38
0.0206535784175 0.0 0.93 1.0224733993e-38
0.0223747099523 0.0 0.93 1.46472501633e-38
0.0240958414871 0.0 0.93 1.28079828704e-38
0.0257614526498 0.0 0.928 1.21644281429e-38
0.0273900502311 0.0 0.925 8.01349622665e-39
0.0291019283706 0.0 0.925 7.65010870629e-39
0.03081380651 0.0 0.925 7.37246383636e-39
0.0326311733564 0.0 0.928 7.46536011545e-39
0.0343486035331 0.0 0.928 6.45011937805e-39
0.0360660337097 0.0 0.928 4.06376554654e-44
0.0377834638864 0.0 0.928 2.3493278827e-38
0.0395860253003 0.0 0.93 2.34853306622e-38
0.0414404057281 0.0 0.933 2.34863788334e-38
0.0431670893001 0.0 0.933 2.34856249348e-38
0.0448937728721 0.0 0.933 2.34881556799e-38
0.0466204564441 0.0 0.933 2.29299722587e-38
0.0476734928347 0.0 0.92 2.34845767636e-38
0.0493761175788 0.0 0.92 2.29299568444e-38
0.0510787423229 0.0 0.92 2.23778522559e-38
0.052781367067 0.0 0.92 2.20091047689e-38
0.0546616570018 0.0 0.923 2.24704178286e-38
0.0563698337831 0.0 0.923 2.27462816482e-38
0.0580780105644 0.0 0.923 2.2745928521e-38
0.0597861873457 0.0 0.923 2.20083859028e-38
0.0612944907875 0.0 0.92 2.31136614679e-38
0.0629971155316 0.0 0.92 2.34874676423e-38
0.0646997402757 0.0 0.92 2.3490668208e-38
0.0664023650198 0.0 0.92 2.34892571005e-38
0.0683270712523 0.0 0.923 2.34881556799e-38
0.0700352480336 0.0 0.923 2.34885003993e-38
0.0717434248149 0.0 0.923 2.34892444888e-38
0.0734516015962 0.0 0.923 2.34834837508e-38
0.0753226381356 0.0 0.925 2.34878011513e-38
0.0770345162751 0.0 0.925 2.34834823495e-38
0.0790017881261 0.0 0.928 2.34867025334e-38
-0.00525222719973 0.00175074239991 0.946 2.34889277953e-38
-0.0034903807254 0.0017451903627 0.943 2.34860285088e-38
-0.00173963832549 0.00173963832549 0.94 2.34860102919e-38
0.0 0.00173963832549 0.94 2.34849677259e-38
0.00173963832549 0.00173963832549 0.94 2.34939402399e-38
0.00347927665098 0.00173963832549 0.94 1.1690399701e-38
0.00521891497647 0.00173963832549 0.94 5.69928824658e-39
0.00695855330196 0.00173963832549 0.94 7.19020535289e-39
0.00869819162745 0.00173963832549 0.94 6.36009155691e-39
0.0104711421762 0.0017451903627 0.943 7.00583931654e-39
0.0121774682784 0.00173963832549 0.94 4.70022269735e-39
0.0139171066039 0.00173963832549 0.94 1.17899269244e-38
0.0156567449294 0.00173963832549 0.94 9.85382430245e-39
0.0173963832549 0.00173963832549 0.94 9.21489385985e-39
0.0190953066409 0.00173593696735 0.938 1.30889109826e-38
0.0208312436082 0.00173593696735 0.938 1.17019632159e-38
0.0224950040919 0.00173038493014 0.935 1.32646141919e-38
0.024225389022 0.00173038493014 0.935 4.87557277939e-39
0.0258169730219 0.00172113153479 0.93 1.31727843009e-38
0.0275381045567 0.00172113153479 0.93 8.55659887377e-39
0.0292592360915 0.00172113153479 0.93 1.10465787267e-38
0.0309803676263 0.00172113153479 0.93 1.06734858132e-38
0.0328069878681 0.001726683572 0.933 1.34400735752e-38
0.0345336714401 0.001726683572 0.933 1.51881569757e-38
0.0362603550121 0.001726683572 0.933 1.27042503503e-38
0.0379870385841 0.001726683572 0.933 2.27435533201e-38
