# .PCD v0.7 - Point Cloud Data file format
VERSION 0.7
FIELDS x y z rgb
SIZE 4 4 4 4
TYPE F F F F
COUNT 1 1 1 1
WIDTH 837
HEIGHT 1
VIEWPOINT 0 0 0 1 0 0 0
POINTS 837
DATA ascii
-0.0312024491147 -0.0951674697997 0.843 1.66845321395e-38
-0.0296423266589 -0.0951674697997 0.843 1.61335149587e-38
-0.0280822042032 -0.0951674697997 0.843 1.64093605614e-38
-0.0265220817475 -0.0951674697997 0.843 1.73298917395e-38
-0.0249619592917 -0.0951674697997 0.843 1.77894377618e-38
-0.023401836836 -0.0951674697997 0.843 1.66838188786e-38
-0.0218417143803 -0.0951674697997 0.843 1.53030480355e-38
-0.0202334742687 -0.0949416869532 0.841 1.60395410811e-38
-0.0186770531711 -0.0949416869532 0.841 1.56703830136e-38
-0.017079917134 -0.0947159041067 0.839 1.57640079679e-38
-0.0155271973945 -0.0947159041067 0.839 1.50271842159e-38
-0.0139411654318 -0.0944901212602 0.837 1.57629513889e-38
-0.0123921470505 -0.0944901212602 0.837 1.5579639129e-38
-0.0108431286692 -0.0944901212602 0.837 1.54870707537e-38
-0.00929411028789 -0.0944901212602 0.837 1.57614996437e-38
-0.00772658511588 -0.0942643384137 0.835 1.58544043305e-38
-0.0061812680927 -0.0942643384137 0.835 1.53026921057e-38
-0.00463595106953 -0.0942643384137 0.835 1.5855134407e-38
-0.00309063404635 -0.0942643384137 0.835 1.56703998292e-38
-0.00154161566504 -0.0940385555672 0.833 1.56703858162e-38
0.0 -0.0940385555672 0.833 1.60391655331e-38
0.00154161566504 -0.0940385555672 0.833 1.56725382107e-38
0.00307582861379 -0.0938127727207 0.831 1.51175819798e-38
0.00460263884627 -0.0935869898742 0.829 1.58547840824e-38
0.00612204636247 -0.0933612070277 0.827 1.5393796124e-38
0.00765255795309 -0.0933612070277 0.827 1.52094090682e-38
0.00918306954371 -0.0933612070277 0.827 1.54856442319e-38
0.0106876716274 -0.0931354241812 0.825 1.50257366746e-38
0.0121848709947 -0.0929096413347 0.823 1.50264653498e-38
0.0137079798691 -0.0929096413347 0.823 1.52094146734e-38
0.015194075162 -0.0926838584882 0.821 1.52097776097e-38
0.0166727677387 -0.0924580756417 0.819 1.56711285044e-38
0.0181440575991 -0.0922322927952 0.817 1.502466328e-38
0.019656062399 -0.0922322927952 0.817 1.53001613606e-38
0.0211680671989 -0.0922322927952 0.817 1.502466328e-38
0.0226245516267 -0.0920065099487 0.815 1.52094118708e-38
0.0241328550685 -0.0920065099487 0.815 1.5393796124e-38
0.0255782354219 -0.0917807271022 0.813 1.53005285008e-38
0.0270828375056 -0.0917807271022 0.813 1.53920052646e-38
0.0285874395892 -0.0917807271022 0.813 1.51179323044e-38
0.0300920416729 -0.0917807271022 0.813 1.52112027302e-38
0.0315189152356 -0.0915549442557 0.811 1.53941492512e-38
0.0330198159611 -0.0915549442557 0.811 1.56693320398e-38
0.0345207166866 -0.0915549442557 0.811 1.52090587436e-38
0.0360216174121 -0.0915549442557 0.811 1.52086635774e-38
0.0375225181376 -0.0915549442557 0.811 1.55799922562e-38
0.0390234188631 -0.0915549442557 0.811 1.94540388062e-38
0.0406242562583 -0.0917807271022 0.813 1.97291613389e-38
0.0422324963699 -0.0920065099487 0.815 2.12950451105e-38
0.0438481391977 -0.0922322927952 0.817 1.92671041898e-38
0.0454711847418 -0.0924580756417 0.819 1.96372585804e-38
0.0469868908999 -0.0924580756417 0.819 2.1941130583e-38
-0.0455655693744 -0.094273591809 0.849 1.9449347259e-38
-0.0439943428442 -0.094273591809 0.849 1.88039624356e-38
-0.0424231163141 -0.094273591809 0.849 2.08308215539e-38
-0.0408518897839 -0.094273591809 0.849 1.45625907165e-38
-0.0392806632538 -0.094273591809 0.849 1.56703858162e-38
-0.0377094367236 -0.094273591809 0.849 1.53945276018e-38
-0.0360530789563 -0.0940515103207 0.847 1.62235595954e-38
-0.0344855537843 -0.0940515103207 0.847 1.65001478863e-38
-0.0328403000913 -0.0938294288323 0.845 1.5764045803e-38
-0.0312764762774 -0.0938294288323 0.845 1.55792831992e-38
-0.0297126524636 -0.0938294288323 0.845 1.65941371782e-38
-0.0280822042032 -0.093607347344 0.843 1.62231882513e-38
-0.0265220817475 -0.093607347344 0.843 1.6684872655e-38
-0.0249619592917 -0.093607347344 0.843 1.57625814461e-38
-0.023401836836 -0.093607347344 0.843 1.56718375614e-38
-0.0218417143803 -0.093607347344 0.843 1.57625982617e-38
-0.0202815919245 -0.093607347344 0.843 1.64072488046e-38
-0.0186770531711 -0.0933852658556 0.841 1.60395186603e-38
-0.0171206320735 -0.0933852658556 0.841 1.59487677691e-38
-0.0155271973945 -0.0931631843672 0.839 1.57643989302e-38
-0.0139744776551 -0.0931631843672 0.839 1.55796363264e-38
-0.0124217579156 -0.0931631843672 0.839 1.56711046823e-38
-0.0108690381762 -0.0931631843672 0.839 1.56703858162e-38
-0.00929411028789 -0.0929411028789 0.837 1.54859917539e-38
-0.00774509190657 -0.0929411028789 0.837 1.58558532732e-38
-0.0061812680927 -0.0927190213905 0.835 1.53023291694e-38
-0.00463595106953 -0.0927190213905 0.835 1.55781901863e-38
-0.00309063404635 -0.0927190213905 0.835 1.53023291694e-38
-0.00154531702318 -0.0927190213905 0.835 1.56711046823e-38
0.0 -0.0927190213905 0.835 1.57636576433e-38
0.00154161566504 -0.0924969399022 0.833 1.51182882343e-38
0.00308323133007 -0.0924969399022 0.833 1.53026822966e-38
0.00461374292069 -0.0922748584138 0.831 1.56703858162e-38
0.00613685179503 -0.0920527769254 0.829 1.45633123852e-38
0.00767106474379 -0.0920527769254 0.829 1.54845848502e-38
0.00918306954371 -0.0918306954371 0.827 1.56703858162e-38
0.0107135811343 -0.0918306954371 0.827 1.54859945565e-38
0.0122144818598 -0.0916086139487 0.825 1.52097776097e-38
0.0137079798691 -0.0913865324604 0.823 1.5209764998e-38
0.015194075162 -0.091164450972 0.821 1.53934457994e-38
0.0166727677387 -0.0909423694836 0.819 1.51168659163e-38
0.0181884738967 -0.0909423694836 0.819 1.55771209956e-38
0.0197041800548 -0.0909423694836 0.819 1.53005256982e-38
0.0211680671989 -0.0907202879953 0.817 1.60384438644e-38
0.0226800719988 -0.0907202879953 0.817 1.50260884005e-38
0.0241328550685 -0.0904982065069 0.815 1.5393796124e-38
0.0256411585103 -0.0904982065069 0.815 1.50257366746e-38
0.0271494619521 -0.0904982065069 0.815 1.53023291694e-38
0.0285874395892 -0.0902761250186 0.813 1.50278904703e-38
0.0300920416729 -0.0902761250186 0.813 1.54874406965e-38
0.0315966437565 -0.0902761250186 0.813 1.52101335395e-38
0.0331012458401 -0.0902761250186 0.813 1.54849225632e-38
0.0346058479238 -0.0902761250186 0.813 1.53019732396e-38
0.0360216174121 -0.0900540435302 0.811 1.52094090682e-38
0.0375225181376 -0.0900540435302 0.811 1.69625707743e-38
0.0391196541747 -0.0902761250186 0.813 1.97306256958e-38
0.0406242562583 -0.0902761250186 0.813 1.9544416952e-38
0.0422324963699 -0.0904982065069 0.815 1.98202807716e-38
0.0438481391977 -0.0907202879953 0.817 2.00046748339e-38
0.0454711847418 -0.0909423694836 0.819 2.12032152195e-38
-0.0439943428442 -0.0927023652789 0.849 1.94496877745e-38
-0.0424231163141 -0.0927023652789 0.849 2.03705804876e-38
-0.0408518897839 -0.0927023652789 0.849 1.42874387566e-38
-0.0392806632538 -0.0927023652789 0.849 1.65005164278e-38
-0.0377094367236 -0.0927023652789 0.849 1.58547938915e-38
-0.0361382101935 -0.0927023652789 0.849 1.64083207979e-38
-0.0345669836633 -0.0927023652789 0.849 1.52108468004e-38
-0.0329180286122 -0.0924839851487 0.847 1.53037486847e-38
-0.0313505034402 -0.0924839851487 0.847 1.61338792963e-38
-0.0297829782682 -0.0924839851487 0.847 1.67788815651e-38
-0.0281488286497 -0.0922656050184 0.845 9.04314511487e-39
-0.0265850048358 -0.0922656050184 0.845 1.20877462883e-38
-0.025021181022 -0.0922656050184 0.845 1.46616288868e-38
-0.0234573572081 -0.0922656050184 0.845 1.41970578082e-38
-0.0218935333942 -0.0922656050184 0.845 1.55781901863e-38
-0.0203297095803 -0.0922656050184 0.845 1.52111999276e-38
-0.0187214694688 -0.0920472248882 0.843 1.48456572102e-38
-0.0171613470131 -0.0920472248882 0.843 1.65952133754e-38
-0.0155642109759 -0.091828844758 0.841 1.64079508551e-38
-0.0140077898783 -0.091828844758 0.841 1.65934183121e-38
-0.0124513687807 -0.091828844758 0.841 1.66845349421e-38
-0.0108690381762 -0.0916104646278 0.839 1.57633017135e-38
-0.00929411028789 -0.0913920844976 0.837 1.61313611629e-38
-0.00774509190657 -0.0913920844976 0.837 1.54863448811e-38
-0.00619607352526 -0.0913920844976 0.837 1.62235595954e-38
-0.00464705514394 -0.0913920844976 0.837 1.66845167252e-38
-0.00309803676263 -0.0913920844976 0.837 1.57614996437e-38
-0.00154531702318 -0.0911737043673 0.835 1.58540540059e-38
0.0 -0.0911737043673 0.835 1.5209764998e-38
0.00154531702318 -0.0911737043673 0.835 1.55781901863e-38
0.00308323133007 -0.0909553242371 0.833 1.54856442319e-38
0.00461374292069 -0.0907369441069 0.831 1.56693292372e-38
0.00615165722759 -0.0907369441069 0.831 1.55778370591e-38
0.00767106474379 -0.0905185639767 0.829 1.53934457994e-38
0.00920527769254 -0.0905185639767 0.829 1.52104838641e-38
0.0107135811343 -0.0903001838465 0.827 1.50253835474e-38
0.0122440927249 -0.0903001838465 0.827 1.5948048903e-38
0.0137412920923 -0.0900818037162 0.825 1.51168603111e-38
0.0152310887434 -0.089863423586 0.823 1.53930800605e-38
0.0167134826782 -0.0896450434558 0.821 1.63157552253e-38
0.0182328901944 -0.0896450434558 0.821 1.50253835474e-38
0.0197041800548 -0.0894266633256 0.819 1.5209764998e-38
0.0212198862128 -0.0894266633256 0.819 1.50257366746e-38
0.0226800719988 -0.0892082831954 0.817 1.52094244825e-38
0.0241920767987 -0.0892082831954 0.817 1.53934457994e-38
0.0257040815987 -0.0892082831954 0.817 1.52104964758e-38
0.0271494619521 -0.0889899030651 0.815 1.51175791772e-38
0.0286577653939 -0.0889899030651 0.815 1.51179323044e-38
0.0300920416729 -0.0887715229349 0.813 1.50253891526e-38
0.0315966437565 -0.0887715229349 0.813 1.539382415e-38
0.0331012458401 -0.0887715229349 0.813 1.55774460969e-38
0.0346058479238 -0.0887715229349 0.813 1.49328179747e-38
0.0361104500074 -0.0887715229349 0.813 1.42874513683e-38
0.0376150520911 -0.0887715229349 0.813 1.65934337263e-38
0.0391196541747 -0.0887715229349 0.813 1.97291613389e-38
0.0407241929281 -0.0889899030651 0.815 1.98220800388e-38
0.0423361343978 -0.0892082831954 0.817 1.98210066442e-38
0.0439554785838 -0.0894266633256 0.819 2.07429573376e-38
0.045582225486 -0.0896450434558 0.821 2.06511176376e-38
-0.0440979808721 -0.0913458175208 0.851 1.9173096681e-38
-0.0425230529838 -0.0913458175208 0.851 2.03716398692e-38
-0.0409481250955 -0.0913458175208 0.851 1.6223562398e-38
-0.0393731972073 -0.0913458175208 0.851 1.48417181602e-38
-0.0377094367236 -0.0911311387487 0.849 1.5670032689e-38
-0.0361382101935 -0.0911311387487 0.849 1.59476985784e-38
-0.0345669836633 -0.0911311387487 0.849 1.57654555092e-38
-0.0329957571332 -0.0911311387487 0.849 1.56711018797e-38
-0.031424530603 -0.0911311387487 0.849 1.59480615147e-38
-0.0297829782682 -0.0909164599767 0.847 1.71473109574e-38
-0.0282154530962 -0.0909164599767 0.847 2.89788522422e-42
-0.0266479279242 -0.0909164599767 0.847 9.25098990699e-39
-0.0250804027522 -0.0909164599767 0.847 1.30013984922e-38
-0.0235128775802 -0.0909164599767 0.847 1.26237135236e-38
-0.0219453524082 -0.0909164599767 0.847 1.5210849603e-38
-0.0203778272361 -0.0909164599767 0.847 1.13386331488e-38
-0.0187658857665 -0.0907017812046 0.845 5.86163147627e-42
-0.0172020619526 -0.0907017812046 0.845 1.41988136352e-38
-0.0156382381387 -0.0907017812046 0.845 3.31396997464e-39
-0.0140411021016 -0.0904871024325 0.843 7.73665990594e-39
-0.0124809796459 -0.0904871024325 0.843 1.26286951397e-38
-0.0109208571901 -0.0904871024325 0.843 8.11110927638e-39
-0.00933852658556 -0.0902724236604 0.841 1.77879958256e-38
-0.00776359869727 -0.0900577448883 0.839 1.16159304967e-38
-0.00621087895782 -0.0900577448883 0.839 1.26401773793e-38
-0.00465815921836 -0.0900577448883 0.839 1.65019415483e-38
-0.00310543947891 -0.0900577448883 0.839 1.49331865162e-38
-0.00154901838131 -0.0898430661163 0.837 1.64101186638e-38
0.0 -0.0898430661163 0.837 1.61309982266e-38
0.00154531702318 -0.0896283873442 0.835 1.66838132734e-38
0.00309063404635 -0.0896283873442 0.835 1.61313611629e-38
0.00462484699511 -0.0894137085721 0.833 1.51179323044e-38
0.00616646266014 -0.0894137085721 0.833 1.50264681524e-38
0.00768957153448 -0.0891990298 0.831 1.50271842159e-38
0.00920527769254 -0.0889843510279 0.829 1.51200861002e-38
0.0107394906413 -0.0889843510279 0.829 1.52115754756e-38
0.0122440927249 -0.0887696722558 0.827 1.57636548407e-38
0.0137746043156 -0.0887696722558 0.827 1.53934457994e-38
0.0152681023248 -0.0885549934838 0.825 1.53930800605e-38
0.0167541976177 -0.0883403147117 0.823 1.52104838641e-38
0.0182328901944 -0.0881256359396 0.821 1.51179323044e-38
0.0197522977106 -0.0881256359396 0.821 1.51172134383e-38
0.0212198862128 -0.0879109571675 0.819 1.52101279343e-38
0.0227355923709 -0.0879109571675 0.819 1.51175791772e-38
0.024251298529 -0.0879109571675 0.819 1.57636548407e-38
0.025767004687 -0.0879109571675 0.819 1.5209764998e-38
0.0272160863986 -0.0876962783954 0.817 1.50257366746e-38
0.0286577653939 -0.0874815996233 0.815 1.53023291694e-38
0.0301660688356 -0.0874815996233 0.815 1.52097776097e-38
0.0315966437565 -0.0872669208513 0.813 1.54856414293e-38
0.0331012458401 -0.0872669208513 0.813 1.56703830136e-38
0.0346058479238 -0.0872669208513 0.813 1.57625814461e-38
0.0361104500074 -0.0872669208513 0.813 1.49328361916e-38
0.0376150520911 -0.0872669208513 0.813 1.76079457886e-38
0.0391196541747 -0.0872669208513 0.813 2.03748992895e-38
0.0407241929281 -0.0874815996233 0.815 1.99146259933e-38
0.0424397724257 -0.0879109571675 0.819 1.99146315985e-38
0.0439554785838 -0.0879109571675 0.819 1.97291613389e-38
-0.0440979808721 -0.0897708896325 0.851 1.9910309994e-38
-0.0425230529838 -0.0897708896325 0.851 1.99099400512e-38
-0.0409481250955 -0.0897708896325 0.851 1.70536930096e-38
-0.0393731972073 -0.0897708896325 0.851 1.48417181602e-38
-0.037798269319 -0.0897708896325 0.851 1.59459007125e-38
-0.0362233414307 -0.0897708896325 0.851 1.62232064682e-38
-0.0345669836633 -0.0895599122186 0.849 1.59484020302e-38
-0.0329957571332 -0.0895599122186 0.849 1.63161223655e-38
-0.031424530603 -0.0895599122186 0.849 1.61321066537e-38
-0.0298533040729 -0.0895599122186 0.849 1.67770836992e-38
-0.0282154530962 -0.0893489348046 0.847 9.22030847712e-39
-0.0266479279242 -0.0893489348046 0.847 5.9910007518e-39
-0.0250804027522 -0.0893489348046 0.847 1.88035728747e-38
-0.0235128775802 -0.0893489348046 0.847 1.09301280217e-43
-0.0219453524082 -0.0893489348046 0.847 1.62264126391e-38
-0.0203778272361 -0.0893489348046 0.847 1.79724024996e-38
-0.0188103020641 -0.0893489348046 0.847 1.65750907295e-39
-0.0172427768921 -0.0893489348046 0.847 1.65970308595e-38
-0.0156382381387 -0.0891379573907 0.845 1.44721999591e-38
-0.0140744143248 -0.0891379573907 0.845 1.50272444717e-38
-0.012510590511 -0.0891379573907 0.845 1.49349731717e-38
-0.0109208571901 -0.0889269799768 0.843 1.10484943017e-38
-0.00933852658556 -0.0887160025628 0.841 1.89807544538e-38
-0.00778210548797 -0.0887160025628 0.841 3.41457479659e-39
-0.00622568439037 -0.0887160025628 0.841 9.51351897039e-39
-0.00465815921836 -0.0885050251489 0.839 1.37400032946e-38
-0.00310543947891 -0.0885050251489 0.839 1.10001929449e-42
-0.00154901838131 -0.0882940477349 0.837 1.59498789988e-38
0.0 -0.0882940477349 0.837 5.06612835106e-39
0.00154901838131 -0.0882940477349 0.837 1.06079456827e-38
0.00309063404635 -0.088083070321 0.835 9.77747875952e-39
0.00463595106953 -0.088083070321 0.835 1.54896519455e-38
0.0061812680927 -0.088083070321 0.835 1.56718109367e-38
0.00770807832518 -0.0878720929071 0.833 1.52115754756e-38
0.00924969399022 -0.0878720929071 0.833 1.55796363264e-38
0.0107394906413 -0.0874501380792 0.829 1.49332159435e-38
0.0122737035901 -0.0874501380792 0.829 1.55774839319e-38
0.0137746043156 -0.0872391606652 0.827 1.53934457994e-38
0.0153051159062 -0.0872391606652 0.827 1.53941744746e-38
0.0167949125573 -0.0870281832513 0.825 1.50253835474e-38
0.0182773064921 -0.0868172058373 0.823 1.53937933214e-38
0.0197522977106 -0.0866062284234 0.821 1.53937989266e-38
0.0212717052268 -0.0866062284234 0.821 1.52097804123e-38
0.022791112743 -0.0866062284234 0.821 1.51168631137e-38
0.024251298529 -0.0863952510095 0.819 1.502466328e-38
0.025767004687 -0.0863952510095 0.819 1.55781873838e-38
0.0272827108451 -0.0863952510095 0.819 1.53019788447e-38
0.0287280911985 -0.0861842735955 0.817 1.5577118193e-38
0.0302400959984 -0.0861842735955 0.817 1.53001781762e-38
0.0317521007983 -0.0861842735955 0.817 1.53930954748e-38
0.0331826757192 -0.0859732961816 0.815 1.56700382942e-38
0.034690979161 -0.0859732961816 0.815 1.53941870863e-38
0.0361104500074 -0.0857623187676 0.813 1.49324830644e-38
0.0376150520911 -0.0857623187676 0.813 1.7516113095e-38
0.039312124798 -0.0861842735955 0.817 2.00068426426e-38
0.0409240662676 -0.0863952510095 0.819 2.00057482285e-38
0.0424397724257 -0.0863952510095 0.819 1.9821710096e-38
0.0439554785838 -0.0863952510095 0.819 2.02823351181e-38
-0.044253437914 -0.0885068758279 0.854 1.88958105435e-38
-0.0426729579885 -0.0885068758279 0.854 2.04634823719e-38
-0.041092478063 -0.0885068758279 0.854 1.78834536783e-38
-0.0395119981375 -0.0885068758279 0.854 1.43796638137e-38
-0.037798269319 -0.0881959617442 0.851 1.64076019318e-38
-0.0362233414307 -0.0881959617442 0.851 1.57629373759e-38
-0.0346484135424 -0.0881959617442 0.851 1.67774620498e-38
-0.0330734856541 -0.0881959617442 0.851 1.53941744746e-38
-0.0314985577658 -0.0881959617442 0.851 1.64076201487e-38
-0.0299236298775 -0.0881959617442 0.851 1.62239127226e-38
-0.0282820775427 -0.0879886856884 0.849 1.48424244147e-38
-0.0267108510126 -0.0879886856884 0.849 1.25368484331e-38
-0.0251396244824 -0.0879886856884 0.849 1.87124730602e-38
-0.0235683979523 -0.0879886856884 0.849 9.28866101361e-40
-0.0219971714221 -0.0879886856884 0.849 1.45756031741e-38
-0.020425944892 -0.0879886856884 0.849 1.82518508407e-38
-0.0188547183618 -0.0879886856884 0.849 1.01668968002e-39
-0.0172834918317 -0.0879886856884 0.849 1.51280721001e-38
-0.0156752517201 -0.0877814096326 0.847 1.63179104223e-38
-0.0140744143248 -0.0875741335768 0.845 7.46757276573e-39
-0.012510590511 -0.0875741335768 0.845 1.42921345077e-38
-0.0109467666971 -0.0875741335768 0.845 1.00404436267e-38
-0.0093607347344 -0.087366857521 0.843 1.4008776544e-38
-0.00780061227866 -0.087366857521 0.843 2.22386766938e-39
-0.00624048982293 -0.087366857521 0.843 5.72452282933e-39
-0.00466926329278 -0.0871595814652 0.841 1.53942291253e-38
-0.00311284219519 -0.0871595814652 0.841 2.4075330565e-39
-0.00155271973945 -0.0869523054094 0.839 5.73245978383e-39
0.0 -0.0869523054094 0.839 5.3528914701e-39
0.00154901838131 -0.0867450293536 0.837 1.33705145207e-38
0.00309803676263 -0.0867450293536 0.837 1.20845415187e-38
0.00464705514394 -0.0867450293536 0.837 1.46630932437e-38
0.0061812680927 -0.0865377532978 0.835 1.539559399e-38
0.00772658511588 -0.0865377532978 0.835 1.45651298694e-38
0.00924969399022 -0.086330477242 0.833 1.52101335395e-38
0.0107654001483 -0.0861232011862 0.831 1.56703858162e-38
0.0122737035901 -0.0859159251304 0.829 1.54852756904e-38
0.0138079165388 -0.0859159251304 0.829 1.54859945565e-38
0.0153421294876 -0.0859159251304 0.829 1.53945276018e-38
0.0168356274968 -0.0857086490746 0.827 1.54856414293e-38
0.0183217227897 -0.0855013730188 0.825 1.52101279343e-38
0.0198004153664 -0.085294096963 0.823 1.54870707537e-38
0.0213235242407 -0.085294096963 0.823 1.61310108383e-38
0.022791112743 -0.0850868209072 0.821 1.49321173255e-38
0.0243105202592 -0.0850868209072 0.821 1.65008723576e-38
0.0258299277754 -0.0850868209072 0.821 1.64079284343e-38
0.0272827108451 -0.0848795448514 0.819 1.52094146734e-38
0.0287984170032 -0.0848795448514 0.819 1.58540540059e-38
0.0302400959984 -0.0846722687956 0.817 1.51161624645e-38
0.0317521007983 -0.0846722687956 0.817 1.50246800955e-38
0.0332641055983 -0.0846722687956 0.817 1.5578540511e-38
0.0347761103982 -0.0846722687956 0.817 1.53937989266e-38
0.0362881151981 -0.0846722687956 0.817 1.46562563085e-38
0.037800119998 -0.0846722687956 0.817 1.75164634196e-38
0.0394083601096 -0.0848795448514 0.819 1.97298830076e-38
0.0409240662676 -0.0848795448514 0.819 2.12042956206e-38
0.0424397724257 -0.0848795448514 0.819 1.98202625547e-38
0.0441701573558 -0.085294096963 0.823 2.11106510482e-38
-0.0427728946582 -0.0871299706001 0.856 1.98181101602e-38
-0.0411887133746 -0.0871299706001 0.856 1.86206403666e-38
-0.039604532091 -0.0871299706001 0.856 1.39183255307e-38
-0.037931518212 -0.0869263959024 0.854 1.65008821667e-38
-0.0363510382865 -0.0869263959024 0.854 1.57636576433e-38
-0.034770558361 -0.0869263959024 0.854 1.56707529564e-38
-0.0330734856541 -0.086621033856 0.851 1.58547994967e-38
-0.0314985577658 -0.086621033856 0.851 1.57618793955e-38
-0.0299236298775 -0.086621033856 0.851 1.58544281526e-38
-0.0283487019892 -0.086621033856 0.851 1.63168510407e-38
-0.0267737741009 -0.086621033856 0.851 1.1889328031e-38
-0.0251988462126 -0.086621033856 0.851 1.73302350576e-38
-0.0236239183244 -0.086621033856 0.851 8.67037169739e-39
-0.0220489904361 -0.086621033856 0.851 4.52518090098e-39
-0.0204740625478 -0.086621033856 0.851 1.67778095718e-38
-0.0188991346595 -0.086621033856 0.851 1.15233775357e-38
-0.0173242067712 -0.086621033856 0.851 1.50297023492e-38
-0.0157122653015 -0.0864174591583 0.849 1.64093745744e-38
-0.0141410387714 -0.0864174591583 0.849 6.9172730497e-39
-0.0125402013761 -0.0862138844606 0.847 1.40184272865e-38
-0.0109726762041 -0.0862138844606 0.847 1.27259858908e-38
-0.00938294288323 -0.086010309763 0.845 6.1821672896e-39
-0.00781911906936 -0.086010309763 0.845 5.35715281873e-39
-0.00624048982293 -0.0858067350653 0.843 1.57647940963e-38
-0.0046803673672 -0.0858067350653 0.843 1.43793134891e-38
-0.00311284219519 -0.0856031603676 0.841 2.86707207229e-39
-0.00155271973945 -0.08539958567 0.839 1.18126223543e-38
0.0 -0.08539958567 0.839 1.43810693161e-38
0.00155271973945 -0.08539958567 0.839 1.44668231769e-38
0.00310543947891 -0.08539958567 0.839 7.46288682366e-39
0.00464705514394 -0.0851960109723 0.837 1.61342001936e-38
0.00619607352526 -0.0851960109723 0.837 1.53026921057e-38
0.00772658511588 -0.0849924362746 0.835 1.5670755759e-38
0.00927190213905 -0.0849924362746 0.835 1.50257366746e-38
0.0108172191622 -0.0849924362746 0.835 1.60398717875e-38
0.0123329253203 -0.084788861577 0.833 1.50257366746e-38
0.0138079165388 -0.0843817121817 0.829 1.53948751238e-38
0.0153421294876 -0.0843817121817 0.829 1.50264653498e-38
0.0168763424363 -0.0843817121817 0.829 1.54856414293e-38
0.0183661390874 -0.084178137484 0.827 1.55778370591e-38
0.019896650678 -0.084178137484 0.827 1.53955967926e-38
0.0213753432547 -0.0839745627863 0.825 1.51168813306e-38
0.0229021534872 -0.0839745627863 0.825 1.5392739545e-38
0.0243697419894 -0.0837709880887 0.823 1.53930954748e-38
0.0258928508638 -0.0837709880887 0.823 1.53923710035e-38
0.0273493352916 -0.083567413391 0.821 1.52094146734e-38
0.0288687428078 -0.083567413391 0.821 1.48406223448e-38
0.0303141231612 -0.0833638386933 0.819 1.57622325228e-38
0.0318298293193 -0.0833638386933 0.819 1.54859917539e-38
0.0333455354773 -0.0833638386933 0.819 1.54870707537e-38
0.0347761103982 -0.0831602639957 0.817 1.5855134407e-38
0.0362881151981 -0.0831602639957 0.817 1.5393796124e-38
0.0378926539515 -0.0833638386933 0.819 1.77930531118e-38
0.0394083601096 -0.0833638386933 0.819 2.07429601402e-38
0.0409240662676 -0.0833638386933 0.819 2.0650391765e-38
0.0425434104536 -0.083567413391 0.821 2.00975935338e-38
0.0442774967419 -0.0839745627863 0.825 1.77023190362e-38
0.0461374292069 -0.0845852868793 0.831 1.87179030918e-38
-0.0413811839978 -0.0859455359955 0.86 1.93582054056e-38
-0.0396970660444 -0.085745662656 0.858 1.51168659163e-38
-0.0381091834027 -0.085745662656 0.858 1.57633017135e-38
-0.0364361695237 -0.0855457893165 0.856 1.53955911874e-38
-0.034770558361 -0.0853459159769 0.854 1.59487705717e-38
-0.0331900784355 -0.0853459159769 0.854 1.5302679494e-38
-0.03160959851 -0.0853459159769 0.854 1.64090270523e-38
-0.0300291185845 -0.0853459159769 0.854 1.61317170927e-38
-0.0283487019892 -0.0850461059677 0.851 1.65005038161e-38
-0.0267737741009 -0.0850461059677 0.851 1.42892688524e-38
-0.0251988462126 -0.0850461059677 0.851 1.19004445317e-38
-0.0236239183244 -0.0850461059677 0.851 1.78859549961e-38
-0.022126718957 -0.0853459159769 0.854 1.39237107207e-38
-0.0205462390315 -0.0853459159769 0.854 1.47567111915e-38
-0.0188991346595 -0.0850461059677 0.851 1.66834783631e-38
-0.0173242067712 -0.0850461059677 0.851 1.60388152085e-38
-0.0157492788829 -0.0850461059677 0.851 1.56754080699e-38
-0.0141743509946 -0.0850461059677 0.851 1.39280295226e-38
-0.0125698122412 -0.0848462326281 0.849 1.65977343113e-38
-0.0109985857111 -0.0848462326281 0.849 1.59491180938e-38
-0.00940515103207 -0.0846463592886 0.847 1.60424123416e-38
-0.00781911906936 -0.0844464859491 0.845 1.38275269954e-38
-0.00625529525549 -0.0844464859491 0.845 1.84340518709e-38
-0.00469147144162 -0.0844464859491 0.845 7.46538674012e-39
-0.00312024491147 -0.0842466126096 0.843 9.13174361157e-39
-0.00155642109759 -0.08404673927 0.841 1.63179776846e-38
0.0 -0.08404673927 0.841 1.71447900214e-38
0.00155642109759 -0.08404673927 0.841 8.11292255659e-39
0.00310543947891 -0.0838468659305 0.839 6.83153880705e-39
0.00465815921836 -0.0838468659305 0.839 1.47570587135e-38
0.00619607352526 -0.083646992591 0.837 1.53959471172e-38
0.00774509190657 -0.083646992591 0.837 1.54859945565e-38
0.00927190213905 -0.0834471192515 0.835 1.55781873838e-38
0.0108172191622 -0.0834471192515 0.835 1.53941744746e-38
0.0123625361854 -0.0834471192515 0.835 1.54874434991e-38
0.0138745409853 -0.0832472459119 0.833 1.63168510407e-38
0.015379143069 -0.0830473725724 0.831 1.52094146734e-38
0.0169170573759 -0.0830473725724 0.831 1.56714578095e-38
0.0184105553851 -0.0828474992329 0.829 1.55778370591e-38
0.0199447683338 -0.0828474992329 0.829 1.54859945565e-38
0.0214271622687 -0.0826476258934 0.827 1.56707361408e-38
0.0229576738593 -0.0826476258934 0.827 1.54859945565e-38
0.0244289637197 -0.0824477525538 0.825 1.54849225632e-38
0.0259557739521 -0.0824477525538 0.825 1.55771209956e-38
0.0273493352916 -0.0820480058748 0.821 1.58554973433e-38
0.0288687428078 -0.0820480058748 0.821 1.5116878528e-38
0.030388150324 -0.0820480058748 0.821 1.56703858162e-38
0.0319075578402 -0.0820480058748 0.821 1.50260855979e-38
0.0333455354773 -0.0818481325353 0.819 1.50264681524e-38
0.0348612416354 -0.0818481325353 0.819 1.56707529564e-38
0.0363769477935 -0.0818481325353 0.819 1.53952436653e-38
0.0378926539515 -0.0818481325353 0.819 1.72413240713e-38
0.0395045954212 -0.0820480058748 0.821 2.05578458105e-38
0.0410240029374 -0.0820480058748 0.821 2.05578430079e-38
0.0425434104536 -0.0820480058748 0.821 2.02823351181e-38
0.044492175514 -0.0828474992329 0.829 1.51226616868e-38
0.0461374292069 -0.0830473725724 0.831 2.22184307335e-38
-0.0433225463419 -0.0850405539305 0.867 1.88965167979e-38
-0.0414774193095 -0.084550123977 0.862 2.03727202703e-38
-0.0397895999979 -0.0843539519956 0.86 1.45633362073e-38
-0.038198015998 -0.0843539519956 0.86 1.63157692382e-38
-0.0366064319981 -0.0843539519956 0.86 1.59480671199e-38
-0.0349334181191 -0.0841577800142 0.858 1.56725410132e-38
-0.0332678069564 -0.0839616080328 0.856 1.59480517056e-38
-0.0316836256728 -0.0839616080328 0.856 1.53952436653e-38
-0.0300994443891 -0.0839616080328 0.856 1.622535606e-38
-0.028448638659 -0.0837654360515 0.854 1.60398970109e-38
-0.0268681587335 -0.0837654360515 0.854 1.5212295743e-38
-0.025287678808 -0.0837654360515 0.854 1.56945428004e-43
-0.0237071988825 -0.0837654360515 0.854 1.84434475771e-38
-0.0221785379709 -0.0839616080328 0.856 7.67631298757e-42
-0.0205462390315 -0.0837654360515 0.854 1.44887983394e-38
-0.018965759106 -0.0837654360515 0.854 1.59473426486e-38
-0.0173852791805 -0.0837654360515 0.854 1.71462417666e-38
-0.0157492788829 -0.0834711780794 0.851 1.09301280217e-42
-0.0141743509946 -0.0834711780794 0.851 3.87598594713e-39
-0.0125994231063 -0.0834711780794 0.851 1.91752434703e-38
-0.0109985857111 -0.083275006098 0.849 4.1470264974e-39
-0.0094273591809 -0.083275006098 0.849 1.15335817911e-38
-0.00785613265075 -0.083275006098 0.849 1.54877924224e-38
-0.00627010068805 -0.0830788341166 0.847 1.52101307369e-38
-0.00469147144162 -0.0828826621352 0.845 1.50322190813e-38
-0.00312764762774 -0.0828826621352 0.845 1.59509355779e-38
-0.00156382381387 -0.0828826621352 0.845 1.63164712888e-38
0.0 -0.0826864901538 0.843 1.66870390625e-38
0.00155642109759 -0.0824903181724 0.841 1.54910168102e-38
0.00311284219519 -0.0824903181724 0.841 1.06990286816e-38
0.00466926329278 -0.0824903181724 0.841 7.19599832075e-39
0.00621087895782 -0.0822941461911 0.839 1.70543964614e-38
0.00774509190657 -0.0820979742097 0.837 1.58551049798e-38
0.00929411028789 -0.0820979742097 0.837 1.66848852667e-38
0.0108172191622 -0.0819018022283 0.835 1.49335634655e-38
0.0123625361854 -0.0819018022283 0.835 1.52097804123e-38
0.0139078532086 -0.0819018022283 0.835 1.5670032689e-38
0.0154161566504 -0.0817056302469 0.833 1.57611521216e-38
0.0169170573759 -0.0815094582655 0.831 1.55778370591e-38
0.0184105553851 -0.0813132862841 0.829 1.58533449489e-38
0.0199447683338 -0.0813132862841 0.829 1.55778398617e-38
0.0214271622687 -0.0811171143028 0.827 1.5302341781e-38
0.0229576738593 -0.0811171143028 0.827 1.53930954748e-38
0.0244881854499 -0.0811171143028 0.827 1.61310136409e-38
0.0259557739521 -0.0809209423214 0.825 1.54863701045e-38
0.0274159597381 -0.08072477034 0.823 1.53033983601e-38
0.0289390686124 -0.08072477034 0.823 1.54859791422e-38
0.030388150324 -0.0805285983586 0.821 1.57618555735e-38
0.0319075578402 -0.0805285983586 0.821 1.55781901863e-38
0.0334269653564 -0.0805285983586 0.821 1.56714844342e-38
0.0349463728726 -0.0805285983586 0.821 1.58554973433e-38
0.0364657803888 -0.0805285983586 0.821 1.47502245809e-38
0.037985187905 -0.0805285983586 0.821 1.78852655572e-38
0.0395045954212 -0.0805285983586 0.821 2.05578458105e-38
0.0411239396072 -0.08072477034 0.823 2.00972221897e-38
0.0426470484815 -0.08072477034 0.823 1.65937868536e-38
0.044492175514 -0.0813132862841 0.829 2.09262948209e-38
0.0460263884627 -0.0813132862841 0.829 1.89915808857e-38
-0.0433225463419 -0.083436015177 0.867 1.94496877745e-38
-0.0415736546211 -0.0831473092422 0.864 2.02801673094e-38
-0.0398821339514 -0.0829548386189 0.862 1.47473701359e-38
-0.038198015998 -0.0827623679957 0.86 1.59473454512e-38
-0.0366064319981 -0.0827623679957 0.86 1.58547784772e-38
-0.0350148479982 -0.0827623679957 0.86 1.58554847317e-38
-0.0333455354773 -0.0825698973724 0.858 1.61313639655e-38
-0.0317576528356 -0.0825698973724 0.858 1.56711046823e-38
-0.0301697701938 -0.0825698973724 0.858 1.55792439628e-38
-0.0285152631055 -0.0823774267492 0.856 1.55796363264e-38
-0.0269310818219 -0.0823774267492 0.856 1.83447793497e-38
-0.0253469005382 -0.0823774267492 0.856 4.47294469812e-42
-0.0237627192546 -0.0823774267492 0.856 1.91809845901e-38
-0.0222303569849 -0.0825698973724 0.858 9.5782953932e-41
-0.0206424743431 -0.0825698973724 0.858 1.47604022117e-38
-0.0190101754037 -0.0823774267492 0.856 1.66856167445e-38
-0.0173852791805 -0.082184956126 0.854 1.76997630678e-38
-0.015804799255 -0.082184956126 0.854 5.44098690065e-39
-0.0141743509946 -0.0818962501911 0.851 6.61833264701e-42
-0.0125994231063 -0.0818962501911 0.851 1.83429464513e-38
-0.011024495218 -0.0818962501911 0.851 2.80940723919e-40
-0.00944956732974 -0.0818962501911 0.851 2.45493477965e-41
-0.00785613265075 -0.0817037795678 0.849 1.72420275232e-38
-0.0062849061206 -0.0817037795678 0.849 2.86644148798e-39
-0.00470257551603 -0.0815113089446 0.847 6.09573660162e-39
-0.00312764762774 -0.0813188383213 0.845 1.13501938611e-38
-0.00156382381387 -0.0813188383213 0.845 1.58576511391e-38
0.0 -0.0813188383213 0.845 1.7053676194e-38
0.00156012245573 -0.0811263676981 0.843 1.20402787041e-39
0.00312024491147 -0.0811263676981 0.843 8.7575927177e-39
0.00466926329278 -0.0809338970749 0.841 1.38297732768e-38
0.00622568439037 -0.0809338970749 0.841 1.66899075204e-38
0.00778210548797 -0.0809338970749 0.841 1.36442343537e-38
0.00931631843672 -0.0807414264516 0.839 1.57676079037e-38
0.0108431286692 -0.0805489558284 0.837 1.54867204291e-38
0.0123921470505 -0.0805489558284 0.837 1.5302679494e-38
0.0139411654318 -0.0805489558284 0.837 1.5302679494e-38
0.0154531702318 -0.0803564852051 0.835 1.5855162433e-38
0.0169577723154 -0.0801640145819 0.833 1.52101335395e-38
0.0184549716828 -0.0799715439586 0.831 1.61306422968e-38
0.0199447683338 -0.0797790733354 0.829 1.61309926214e-38
0.0214789812826 -0.0797790733354 0.829 1.55781901863e-38
0.0229576738593 -0.0795866027121 0.827 1.58547840824e-38
0.0244881854499 -0.0795866027121 0.827 1.57625814461e-38
0.0260186970405 -0.0795866027121 0.827 1.53941492512e-38
0.0274825841846 -0.0793941320889 0.825 1.54859945565e-38
0.0290093944171 -0.0793941320889 0.825 1.57633017135e-38
0.0304621774868 -0.0792016614656 0.823 1.57622297202e-38
0.0319852863611 -0.0792016614656 0.823 1.54859917539e-38
0.0334269653564 -0.0790091908424 0.821 1.55781901863e-38
0.0349463728726 -0.0790091908424 0.821 1.61317170927e-38
0.0364657803888 -0.0790091908424 0.821 1.4748426715e-38
0.037985187905 -0.0790091908424 0.821 1.81607762496e-38
0.0395045954212 -0.0790091908424 0.821 2.09270010753e-38
0.0411239396072 -0.0792016614656 0.823 2.04663508298e-38
0.0426470484815 -0.0792016614656 0.823 2.11113671117e-38
0.044492175514 -0.0797790733354 0.829 2.00979410558e-38
0.0461374292069 -0.0799715439586 0.831 1.77923272392e-38
0.04847853823 -0.0813188383213 0.845 1.76075926613e-38
0.050575357616 -0.082184956126 0.854 1.72377465563e-38
-0.0449270850953 -0.0818314764236 0.867 1.95425896588e-38
-0.0433225463419 -0.0818314764236 0.867 2.00032118783e-38
-0.0417180075885 -0.0818314764236 0.867 1.9910309994e-38
-0.0401134688351 -0.0818314764236 0.867 1.49313984594e-38
-0.0385089300817 -0.0818314764236 0.867 1.63154245188e-38
-0.0369043913283 -0.0818314764236 0.867 1.5854077828e-38
-0.0351777077563 -0.081548322526 0.864 1.61310136409e-38
-0.0335787210401 -0.081548322526 0.864 1.61303045839e-38
-0.0318316799983 -0.0811707839958 0.86 1.61317367109e-38
-0.0301697701938 -0.0809820147307 0.858 1.58554973433e-38
-0.028581887552 -0.0809820147307 0.858 1.57633017135e-38
-0.0269940049102 -0.0809820147307 0.858 1.78841599327e-38
-0.0253469005382 -0.0807932454656 0.856 1.85251656984e-42
-0.0237627192546 -0.0807932454656 0.856 9.88127994326e-39
-0.0222303569849 -0.0809820147307 0.858 2.03303043671e-39
-0.0206424743431 -0.0809820147307 0.858 1.13552763706e-38
-0.0190101754037 -0.0807932454656 0.856 5.53609442872e-39
-0.01742599412 -0.0807932454656 0.856 9.3197852538e-39
-0.015804799255 -0.0806044762005 0.854 1.06958225107e-38
-0.0142243193295 -0.0806044762005 0.854 1.37300638846e-38
-0.0125994231063 -0.0803213223028 0.851 6.2682112192e-39
-0.011024495218 -0.0803213223028 0.851 8.46827082767e-40
-0.00944956732974 -0.0803213223028 0.851 1.44642027488e-41
-0.00787463944145 -0.0803213223028 0.851 1.90834037702e-38
-0.00629971155316 -0.0803213223028 0.851 1.20651797778e-42
-0.00471367959045 -0.0801325530377 0.849 1.59548984499e-38
-0.00313505034402 -0.0799437837726 0.847 3.3234946003e-39
-0.00156752517201 -0.0799437837726 0.847 1.61374946463e-38
0.0 -0.0797550145075 0.845 1.77898063033e-38
0.00156012245573 -0.0795662452424 0.843 7.62586624286e-42
0.00312024491147 -0.0795662452424 0.843 1.51298923868e-38
0.0046803673672 -0.0795662452424 0.843 4.65231090156e-43
0.00624048982293 -0.0795662452424 0.843 1.52194816016e-38
0.00780061227866 -0.0795662452424 0.843 3.68681625964e-42
0.00933852658556 -0.0793774759773 0.841 1.70587096581e-38
0.0108949476832 -0.0793774759773 0.841 4.05807207088e-39
0.0124217579156 -0.0791887067122 0.839 1.54021198369e-38
0.0139744776551 -0.0791887067122 0.839 1.60387969916e-38
0.0154901838131 -0.078999937447 0.837 1.5855134407e-38
0.0169577723154 -0.0786223989168 0.833 1.50264625472e-38
0.0184993879804 -0.0786223989168 0.833 1.52097804123e-38
0.0199928859897 -0.0784336296517 0.831 1.51172134383e-38
0.0214789812826 -0.0782448603866 0.829 1.53934457994e-38
0.0230131942314 -0.0782448603866 0.829 1.62235595954e-38
0.0245474071801 -0.0782448603866 0.829 1.52101433486e-38
0.0260186970405 -0.0780560911215 0.827 1.58536980761e-38
0.0275492086311 -0.0780560911215 0.827 1.52104964758e-38
0.0290797202217 -0.0780560911215 0.827 1.53019732396e-38
0.0305362046496 -0.0778673218564 0.825 1.58551470187e-38
0.0319852863611 -0.0776785525913 0.823 1.62239127226e-38
0.0335083952355 -0.0776785525913 0.823 1.56703830136e-38
0.0349463728726 -0.0774897833262 0.821 1.62228379267e-38
0.0364657803888 -0.0774897833262 0.821 1.57625814461e-38
0.037985187905 -0.0774897833262 0.821 1.81611293768e-38
0.0395045954212 -0.0774897833262 0.821 2.01894206221e-38
0.0411239396072 -0.0776785525913 0.823 2.0374530748e-38
0.0426470484815 -0.0776785525913 0.823 2.04674354349e-38
0.0445995149 -0.0784336296517 0.831 1.52090923747e-38
0.0461374292069 -0.0784336296517 0.831 1.61303494254e-38
0.04847853823 -0.0797550145075 0.845 1.83448073756e-38
0.0502792489648 -0.0801325530377 0.849 2.00975879286e-38
0.051850475495 -0.0801325530377 0.849 1.74242677897e-38
-0.0449270850953 -0.0802269376702 0.867 1.89879837526e-38
-0.0433225463419 -0.0802269376702 0.867 2.00950571835e-38
-0.0417180075885 -0.0802269376702 0.867 2.04634851745e-38
-0.0401134688351 -0.0802269376702 0.867 1.38264774228e-38
-0.0385089300817 -0.0802269376702 0.867 1.65920086058e-38
-0.0369043913283 -0.0802269376702 0.867 1.68682283552e-38
-0.0352998525749 -0.0802269376702 0.867 1.54867232317e-38
-0.0335787210401 -0.0799493358098 0.864 1.57629541915e-38
-0.0319057071611 -0.0797642679028 0.862 1.58555029485e-38
-0.0303104218031 -0.0797642679028 0.862 1.59487705717e-38
-0.0286485119985 -0.0795791999959 0.86 1.59476985784e-38
-0.0270569279986 -0.0795791999959 0.86 1.76064940433e-38
-0.0254653439987 -0.0795791999959 0.86 5.07255470582e-39
-0.0238737599988 -0.0795791999959 0.86 9.7890815108e-39
-0.0222821759988 -0.0795791999959 0.86 1.51222539089e-38
-0.0206905919989 -0.0795791999959 0.86 2.03414727159e-39
-0.019099007999 -0.0795791999959 0.86 1.57730057054e-38
-0.0174667090596 -0.0793941320889 0.858 1.37418151735e-38
-0.0158788264178 -0.0793941320889 0.858 1.53959443146e-38
-0.0142576315527 -0.0792090641819 0.856 1.57822360583e-39
-0.0126734502691 -0.0792090641819 0.856 1.23628940444e-38
-0.0110892689855 -0.0792090641819 0.856 6.0929199917e-39
-0.00948287955299 -0.079023996275 0.854 8.02644982966e-39
-0.0079023996275 -0.079023996275 0.854 1.68708011392e-38
-0.006321919702 -0.079023996275 0.854 2.87686574726e-42
-0.00472478366487 -0.0787463944145 0.851 1.85302692274e-38
-0.0031424530603 -0.0785613265075 0.849 1.28919458718e-43
-0.00156752517201 -0.0783762586006 0.847 1.56819114961e-38
0.0 -0.0781911906936 0.845 1.78834536783e-38
0.00156382381387 -0.0781911906936 0.845 7.26993643292e-42
0.00312764762774 -0.0781911906936 0.845 1.53167793591e-38
0.0046803673672 -0.0780061227866 0.843 1.53051976273e-38
0.00624048982293 -0.0780061227866 0.843 1.7424620917e-38
0.00780061227866 -0.0780061227866 0.843 3.00298260905e-42
0.0093607347344 -0.0780061227866 0.843 1.90884386356e-38
0.0109208571901 -0.0780061227866 0.843 7.63147143671e-42
0.0124513687807 -0.0778210548797 0.841 1.29254579246e-38
0.0139744776551 -0.0776359869727 0.839 1.54845722385e-38
0.0155271973945 -0.0776359869727 0.839 1.53923710035e-38
0.0169984872549 -0.0772658511588 0.835 1.54856442319e-38
0.0185438042781 -0.0772658511588 0.835 1.54860169773e-38
0.0200410036455 -0.0770807832518 0.833 1.57625814461e-38
0.0215308002966 -0.0768957153448 0.831 1.59476985784e-38
0.0230687146034 -0.0768957153448 0.831 1.55778370591e-38
0.0245474071801 -0.0767106474379 0.829 1.54852911047e-38
0.0260816201289 -0.0767106474379 0.829 1.57622325228e-38
0.0275492086311 -0.0765255795309 0.827 1.55792860017e-38
0.0290797202217 -0.0765255795309 0.827 1.54874406965e-38
0.0306102318124 -0.0765255795309 0.827 1.53948779264e-38
0.0320630148821 -0.0763405116239 0.825 1.55778398617e-38
0.0335083952355 -0.076155443717 0.823 1.57622353254e-38
0.0350315041098 -0.076155443717 0.823 1.64068718553e-38
0.0365546129841 -0.076155443717 0.823 1.52097804123e-38
0.0380777218585 -0.076155443717 0.823 1.8898681804e-38
0.0396008307328 -0.076155443717 0.823 2.0466731983e-38
0.0411239396072 -0.076155443717 0.823 2.1387976422e-38
0.0427506865094 -0.0763405116239 0.825 1.98206310962e-38
0.0445995149 -0.0768957153448 0.831 1.73324449053e-38
0.0461374292069 -0.0768957153448 0.831 1.89019188035e-38
0.04847853823 -0.0781911906936 0.845 1.72409359117e-38
0.0501608055044 -0.0783762586006 0.847 1.91759903623e-38
0.0517283306764 -0.0783762586006 0.847 1.7793406239e-38
-0.0450307231232 -0.0788037654657 0.869 1.89872774981e-38
-0.0434224830117 -0.0788037654657 0.869 1.89879837526e-38
-0.0418142429001 -0.0788037654657 0.869 2.04627635058e-38
-0.0402060027886 -0.0788037654657 0.869 1.40094393581e-38
-0.0385977626771 -0.0788037654657 0.869 1.57622353254e-38
-0.0369043913283 -0.0786223989168 0.867 1.64079676707e-38
-0.0352998525749 -0.0786223989168 0.867 1.60402473355e-38
-0.0336953138215 -0.0786223989168 0.867 1.63161223655e-38
-0.0319797343239 -0.0783503490936 0.864 1.64997737396e-38
-0.0303807476077 -0.0783503490936 0.864 1.6316824416e-38
-0.028715136445 -0.0781689825448 0.862 1.59480615147e-38
-0.027119851087 -0.0781689825448 0.862 1.66845349421e-38
-0.0254653439987 -0.0779876159959 0.86 1.44728964044e-38
-0.0238737599988 -0.0779876159959 0.86 3.87481446161e-39
-0.0222821759988 -0.0779876159959 0.86 1.88983048548e-38
-0.0206905919989 -0.0779876159959 0.86 4.4463200273e-42
-0.019099007999 -0.0779876159959 0.86 1.56844282281e-38
-0.0175074239991 -0.0779876159959 0.86 1.57633017135e-38
-0.0158788264178 -0.0778062494471 0.858 1.79752765628e-38
-0.014290943776 -0.0778062494471 0.858 8.00421682822e-42
-0.0126734502691 -0.0776248828983 0.856 1.6419824057e-38
-0.0110892689855 -0.0776248828983 0.856 1.71462543783e-38
-0.00950508770183 -0.0776248828983 0.856 1.53952310537e-38
-0.00792090641819 -0.0776248828983 0.856 7.84432446955e-39
-0.006321919702 -0.0774435163495 0.854 6.82788422066e-39
-0.00472478366487 -0.0771714665262 0.851 1.65942366704e-38
-0.00314985577658 -0.0771714665262 0.851 5.39499908765e-42
-0.00157122653015 -0.0769900999774 0.849 1.51316650294e-38
0.0 -0.0769900999774 0.849 1.77916055705e-38
0.00156752517201 -0.0768087334286 0.847 1.80767501898e-42
0.00312764762774 -0.0766273668797 0.845 1.33850221637e-38
0.00469147144162 -0.0766273668797 0.845 1.6316125168e-38
0.00625529525549 -0.0766273668797 0.845 1.73299043512e-38
0.00781911906936 -0.0766273668797 0.845 1.11403227914e-42
0.00938294288323 -0.0766273668797 0.845 1.72449758551e-38
0.0109208571901 -0.0764460003309 0.843 2.21378672822e-39
0.0124809796459 -0.0764460003309 0.843 1.4204005446e-38
0.0140077898783 -0.0762646337821 0.841 1.60391683357e-38
0.0155642109759 -0.0762646337821 0.841 1.57622297202e-38
0.017079917134 -0.0760832672332 0.839 1.56703830136e-38
0.0185882205758 -0.0759019006844 0.837 1.54856414293e-38
0.0200891213013 -0.0757205341356 0.835 1.52094090682e-38
0.0215308002966 -0.0753578010379 0.831 1.55781873838e-38
0.0230687146034 -0.0753578010379 0.831 1.52083286671e-38
0.0245474071801 -0.0751764344891 0.829 1.61302947748e-38
0.0260816201289 -0.0751764344891 0.829 1.55781901863e-38
0.0276158330776 -0.0751764344891 0.829 1.57636548407e-38
0.0291500460264 -0.0751764344891 0.829 1.57636576433e-38
0.0306102318124 -0.0749950679403 0.827 1.56718375614e-38
0.032140743403 -0.0749950679403 0.827 1.63157524227e-38
0.0335898251145 -0.0748137013915 0.825 1.59473454512e-38
0.035116635347 -0.0748137013915 0.825 1.57622297202e-38
0.0366434455795 -0.0748137013915 0.825 1.53952464679e-38
0.038170255812 -0.0748137013915 0.825 1.8161482504e-38
0.0396970660444 -0.0748137013915 0.825 2.01897709467e-38
0.0412238762769 -0.0748137013915 0.825 2.07429475285e-38
0.0428543245373 -0.0749950679403 0.827 1.94540065764e-38
0.044492175514 -0.0751764344891 0.829 1.76104569154e-38
0.0463595106953 -0.0757205341356 0.835 1.65948798664e-38
0.04847853823 -0.0766273668797 0.845 1.8343747994e-38
0.0501608055044 -0.0768087334286 0.847 1.75118377334e-38
0.0517283306764 -0.0768087334286 0.847 1.81557567985e-38
-0.0434224830117 -0.0771955253541 0.869 1.99099456564e-38
-0.0418142429001 -0.0771955253541 0.869 2.12006816719e-38
-0.0402060027886 -0.0771955253541 0.869 1.40108448605e-38
-0.0385977626771 -0.0771955253541 0.869 1.60395438837e-38
-0.0369895225655 -0.0771955253541 0.869 1.64083207979e-38
-0.035381282454 -0.0771955253541 0.869 1.64079508551e-38
-0.0336953138215 -0.0770178601634 0.867 1.64079508551e-38
-0.0320907750681 -0.0770178601634 0.867 1.63154049006e-38
-0.0303807476077 -0.0767513623774 0.864 1.60384648838e-38
-0.028715136445 -0.0765736971867 0.862 1.60395410811e-38
-0.027119851087 -0.0765736971867 0.862 1.58562218147e-38
-0.0254653439987 -0.076396031996 0.86 1.58554875343e-38
-0.0238737599988 -0.076396031996 0.86 1.28127262657e-38
-0.0223339950128 -0.0765736971867 0.862 1.82532885729e-38
-0.0207387096547 -0.0765736971867 0.862 5.99779845065e-39
-0.019099007999 -0.076396031996 0.86 1.4758567912e-38
-0.0175074239991 -0.076396031996 0.86 1.57625814461e-38
-0.0159158399992 -0.076396031996 0.86 1.82514977135e-38
-0.0143242559993 -0.076396031996 0.86 8.82818032525e-44
-0.0127030611342 -0.0762183668053 0.858 1.53124255248e-38
-0.0111151784924 -0.0762183668053 0.858 1.54870875693e-38
-0.00950508770183 -0.0760407016146 0.856 1.76072129095e-38
-0.00792090641819 -0.0760407016146 0.856 3.38833968674e-42
-0.00633672513455 -0.0760407016146 0.856 1.24547141262e-38
-0.0047414397765 -0.075863036424 0.854 9.04071386203e-39
-0.003160959851 -0.075863036424 0.854 1.94331090124e-39
-0.00157492788829 -0.0755965386379 0.851 1.45738613601e-38
0.0 -0.0755965386379 0.851 1.76997630678e-38
0.00157122653015 -0.0754188734472 0.849 1.04159509775e-38
0.00313505034402 -0.0752412082565 0.847 1.15282036076e-38
0.00470257551603 -0.0752412082565 0.847 1.77923244366e-38
0.00625529525549 -0.0750635430659 0.845 3.32095544748e-39
0.00781911906936 -0.0750635430659 0.845 4.06567271375e-39
0.00938294288323 -0.0750635430659 0.845 6.26475701849e-39
0.0109467666971 -0.0750635430659 0.845 7.34726008218e-40
0.0124809796459 -0.0748858778752 0.843 1.05244843462e-38
0.0140411021016 -0.0748858778752 0.843 1.56743528922e-38
0.0156012245573 -0.0748858778752 0.843 1.56696823644e-38
0.017079917134 -0.0745305474938 0.839 1.54859917539e-38
0.0186326368734 -0.0745305474938 0.839 1.5855134407e-38
0.0201372389571 -0.0743528823031 0.837 1.56704054344e-38
0.0216344383245 -0.0741752171124 0.835 1.57633017135e-38
0.0231797553476 -0.0741752171124 0.835 1.51168603111e-38
0.0246658506406 -0.0739975519217 0.833 1.58529820126e-38
0.0261445432172 -0.073819886731 0.831 1.54859945565e-38
0.0276158330776 -0.0736422215403 0.829 1.53934457994e-38
0.0291500460264 -0.0736422215403 0.829 1.58551470187e-38
0.0306842589751 -0.0736422215403 0.829 1.53952464679e-38
0.032140743403 -0.0734645563497 0.827 1.61310108383e-38
0.0336712549936 -0.0734645563497 0.827 1.6038108954e-38
0.0352017665842 -0.0734645563497 0.827 1.6040615877e-38
0.0367322781748 -0.0734645563497 0.827 1.58569448847e-38
0.0382627897654 -0.0734645563497 0.827 1.91767288466e-38
0.0397933013561 -0.0734645563497 0.827 1.96366153844e-38
0.0413238129467 -0.0734645563497 0.827 2.12046515504e-38
0.0429579625652 -0.0736422215403 0.829 1.41059565925e-38
0.044492175514 -0.0736422215403 0.829 2.12972241296e-38
0.0461374292069 -0.073819886731 0.831 1.68718226858e-38
0.04847853823 -0.0750635430659 0.845 1.89012153517e-38
0.0502792489648 -0.0754188734472 0.849 1.74249712416e-38
-0.0453416372069 -0.0761091767402 0.875 1.90798290578e-38
-0.0435224196815 -0.0757612490751 0.871 1.89872648865e-38
-0.0419104782118 -0.0757612490751 0.871 2.13861491288e-38
-0.0402985367421 -0.0757612490751 0.871 1.34580634449e-38
-0.0386865952724 -0.0757612490751 0.871 1.59480671199e-38
-0.0370746538027 -0.0757612490751 0.871 1.54870875693e-38
-0.035381282454 -0.0755872852426 0.869 1.59473580629e-38
-0.0337730423424 -0.0755872852426 0.869 1.6038446667e-38
-0.0321648022309 -0.0755872852426 0.869 1.63157552253e-38
-0.0304862363147 -0.07541332141 0.867 1.6315402098e-38
-0.0287817608915 -0.0751523756612 0.864 1.59473454512e-38
-0.0271827741753 -0.0751523756612 0.864 1.65012352939e-38
-0.0255245657289 -0.0749784118287 0.862 1.60402473355e-38
