# .PCD v0.7 - Point Cloud Data file format
VERSION 0.7
FIELDS x y z rgb
SIZE 4 4 4 4
TYPE F F F F
COUNT 1 1 1 1
WIDTH 853
HEIGHT 1
VIEWPOINT 0 0 0 1 0 0 0
POINTS 853
DATA ascii
0.0553963765925 -0.0194635917757 0.809 2.34921689987e-38
0.0568935759598 -0.0194635917757 0.809 2.20051867384e-38
0.0583907753272 -0.0194635917757 0.809 2.34971478121e-38
0.0598879746946 -0.0194635917757 0.809 2.34968465329e-38
-0.00795791999959 -0.019099007999 0.86 2.34881710941e-38
-0.00636633599967 -0.019099007999 0.86 2.34924884947e-38
-0.00478585607417 -0.0191434242967 0.862 1.94269110693e-38
-0.00319057071611 -0.0191434242967 0.862 2.23749823967e-38
-0.00159528535806 -0.0191434242967 0.862 2.19157979094e-38
0.0 -0.019099007999 0.86 2.19143783941e-38
0.00159158399992 -0.019099007999 0.86 2.23760571926e-38
0.00317576528356 -0.0190545917013 0.858 2.16385145745e-38
0.00475254385092 -0.0190101754037 0.856 2.2560113542e-38
0.006321919702 -0.018965759106 0.854 1.77738567241e-38
0.00787463944145 -0.0188991346595 0.851 1.9285594323e-39
0.0094273591809 -0.0188547183618 0.849 1.74070037927e-38
0.0109726762041 -0.0188103020641 0.847 6.24947726003e-39
0.0125402013761 -0.0188103020641 0.847 1.58493484457e-38
0.0140744143248 -0.0187658857665 0.845 3.32664331795e-39
0.0156382381387 -0.0187658857665 0.845 1.36404620582e-38
0.0172020619526 -0.0187658857665 0.845 1.37753804756e-39
0.0187658857665 -0.0187658857665 0.845 2.28414438269e-38
0.0203778272361 -0.0188103020641 0.847 2.18236471211e-38
0.0218935333942 -0.0187658857665 0.845 2.2560113542e-38
0.0234573572081 -0.0187658857665 0.845 2.17299843317e-38
0.0249619592917 -0.0187214694688 0.843 2.3114366321e-38
0.0265220817475 -0.0187214694688 0.843 2.16395865678e-38
0.0280822042032 -0.0187214694688 0.843 2.20987668512e-38
0.0295720008543 -0.0186770531711 0.841 2.20065712213e-38
0.0310543947891 -0.0186326368734 0.839 2.31150697728e-38
0.0326071145285 -0.0186326368734 0.839 2.1363022099e-38
0.0340784043889 -0.0185882205758 0.837 2.1639939695e-38
0.0356274227702 -0.0185882205758 0.837 2.23778522559e-38
0.0371764411516 -0.0185882205758 0.837 2.1731431873e-38
0.0387254595329 -0.0185882205758 0.837 2.27456034197e-38
0.0401782426026 -0.0185438042781 0.835 2.14534044486e-38
0.0417235596257 -0.0185438042781 0.835 2.3205482951e-38
0.0432688766489 -0.0185438042781 0.835 2.29295742899e-38
0.044706854286 -0.0184993879804 0.833 2.19161356223e-38
0.0461374292069 -0.0184549716828 0.831 2.14544540212e-38
0.0476753435138 -0.0184549716828 0.831 2.34917780364e-38
0.0492132578207 -0.0184549716828 0.831 2.34968157044e-38
0.0553963765925 -0.0179663924084 0.809 1.92422241356e-38
0.0568935759598 -0.0179663924084 0.809 2.34939472464e-38
0.0583907753272 -0.0179663924084 0.809 2.34957353033e-38
-0.00639594686478 -0.0175888538782 0.864 2.3488189311e-38
-0.00479696014859 -0.0175888538782 0.864 2.00726308029e-38
-0.00319797343239 -0.0175888538782 0.864 2.22817301878e-38
-0.0015989867162 -0.0175888538782 0.864 2.15484671352e-38
0.0 -0.0175481389386 0.862 2.18236443185e-38
0.00159528535806 -0.0175481389386 0.862 2.18239806301e-38
0.00319057071611 -0.0175481389386 0.862 2.19147413304e-38
0.00477475199975 -0.0175074239991 0.86 2.27448719419e-38
0.00633672513455 -0.01742599412 0.856 1.99815071664e-38
0.0079023996275 -0.0173852791805 0.854 7.16320513408e-39
0.00944956732974 -0.0173242067712 0.851 2.34613922805e-38
0.011024495218 -0.0173242067712 0.851 2.16453697266e-38
0.0125698122412 -0.0172834918317 0.849 1.84223846599e-38
0.0141410387714 -0.0172834918317 0.849 1.28893254437e-38
0.0157122653015 -0.0172834918317 0.849 1.96098758071e-38
0.0172834918317 -0.0172834918317 0.849 5.87747175411e-39
0.0188991346595 -0.0173242067712 0.851 1.79424399359e-38
0.0204740625478 -0.0173242067712 0.851 2.24729667905e-38
0.0219971714221 -0.0172834918317 0.849 2.31133265575e-38
0.0235683979523 -0.0172834918317 0.849 2.23764481549e-38
0.0250804027522 -0.0172427768921 0.847 2.28381549794e-38
0.0265850048358 -0.0172020619526 0.845 2.21009122391e-38
0.0281488286497 -0.0172020619526 0.845 2.28381143417e-38
0.0296423266589 -0.0171613470131 0.843 2.21012653663e-38
0.0312024491147 -0.0171613470131 0.843 2.23778704728e-38
0.0327625715704 -0.0171613470131 0.843 2.18243449677e-38
0.0342412641471 -0.0171206320735 0.841 2.17317793951e-38
0.0357976852446 -0.0171206320735 0.841 2.16385173771e-38
0.0373541063422 -0.0171206320735 0.841 2.17317850003e-38
0.0388179934863 -0.017079917134 0.839 2.17321143054e-38
0.0402744779142 -0.0170392021945 0.837 2.26526622991e-38
0.0418234962955 -0.0170392021945 0.837 2.18239778275e-38
0.0433725146768 -0.0170392021945 0.837 2.22831553083e-38
0.0448141936721 -0.0169984872549 0.835 2.20987668512e-38
0.0462484699511 -0.0169577723154 0.833 2.25611673184e-38
0.0477900856161 -0.0169577723154 0.833 2.34892585018e-38
0.0494501447416 -0.0169984872549 0.835 2.34982632457e-38
0.0555333268436 -0.0165099079805 0.811 2.34925669674e-38
0.0570342275691 -0.0165099079805 0.811 2.3490358521e-38
0.0585351282946 -0.0165099079805 0.811 2.34936179413e-38
-0.00649958489268 -0.0162489622317 0.878 2.34856487569e-38
-0.00487468866951 -0.0162489622317 0.878 2.20091103741e-38
-0.00322388293937 -0.0161194146968 0.871 2.14530513214e-38
-0.00161194146968 -0.0161194146968 0.871 2.1640287217e-38
0.0 -0.0160824011154 0.869 2.17339500064e-38
0.00160824011154 -0.0160824011154 0.869 2.1456993174e-38
0.00321648022309 -0.0160824011154 0.869 2.15484671352e-38
0.00479696014859 -0.015989867162 0.864 2.14551925055e-38
0.00636633599967 -0.0159158399992 0.86 2.32072429819e-38
0.00793941320889 -0.0158788264178 0.858 2.23789662882e-38
0.00952729585067 -0.0158788264178 0.858 2.23782474221e-38
0.0111151784924 -0.0158788264178 0.858 2.26526594965e-38
0.0126734502691 -0.0158418128364 0.856 2.17343031336e-38
0.0142243193295 -0.015804799255 0.854 2.30239671558e-38
0.015804799255 -0.015804799255 0.854 2.29317743285e-38
0.0173852791805 -0.015804799255 0.854 2.33956139293e-38
0.018965759106 -0.015804799255 0.854 2.06319226512e-38
0.0205462390315 -0.015804799255 0.854 2.17342975284e-38
0.0220489904361 -0.0157492788829 0.851 1.86864887828e-38
0.0236239183244 -0.0157492788829 0.851 1.97949845317e-38
0.0251396244824 -0.0157122653015 0.849 2.09059844009e-38
0.0267108510126 -0.0157122653015 0.849 2.04478803148e-38
0.0282154530962 -0.0156752517201 0.847 2.06319198486e-38
0.0297126524636 -0.0156382381387 0.845 2.20141116084e-38
0.0312764762774 -0.0156382381387 0.845 2.21041562451e-38
0.0328403000913 -0.0156382381387 0.845 2.18264959609e-38
0.0343226940261 -0.0156012245573 0.843 2.21001905704e-38
0.0358828164819 -0.0156012245573 0.843 2.26519574459e-38
0.0374429389376 -0.0156012245573 0.843 2.21009374625e-38
0.0389105274398 -0.0155642109759 0.841 2.21002312081e-38
0.0404669485374 -0.0155642109759 0.841 2.20991395966e-38
0.0419234329653 -0.0155271973945 0.839 2.22838839835e-38
0.0434761527047 -0.0155271973945 0.839 2.19158217315e-38
0.0449215330581 -0.0154901838131 0.837 2.24675493706e-38
0.0463595106953 -0.0154531702318 0.835 2.23775047339e-38
0.0479048277184 -0.0154531702318 0.835 2.349144733e-38
0.0494501447416 -0.0154531702318 0.835 2.34975738068e-38
-0.00820776167399 -0.0147739710132 0.887 2.28388584312e-38
-0.00649958489268 -0.0146240660085 0.878 2.34863746295e-38
-0.00487468866951 -0.0146240660085 0.878 2.19173015027e-38
-0.00324979244634 -0.0146240660085 0.878 2.1543813423e-38
-0.00161934418596 -0.0145740976737 0.875 2.14551925055e-38
0.0 -0.0145407854504 0.873 2.17325248858e-38
0.00161564282782 -0.0145407854504 0.873 2.11786084185e-38
0.00322388293937 -0.0145074732272 0.871 2.18243309547e-38
0.00482472033463 -0.0144741610039 0.869 2.1916190273e-38
0.00638114143223 -0.0143575682225 0.862 2.15477258483e-38
0.00795791999959 -0.0143242559993 0.86 2.21927547418e-38
0.0095495039995 -0.0143242559993 0.86 2.20072900874e-38
0.0111410879994 -0.0143242559993 0.86 2.17310759432e-38
0.0127030611342 -0.014290943776 0.858 2.23778676702e-38
0.014290943776 -0.014290943776 0.858 2.29313763597e-38
0.0158418128364 -0.0142576315527 0.856 2.200729289e-38
0.01742599412 -0.0142576315527 0.856 2.1915091655e-38
0.0190101754037 -0.0142576315527 0.856 2.20998430484e-38
0.0205943566873 -0.0142576315527 0.856 2.33909349937e-38
0.022126718957 -0.0142243193295 0.854 1.75880557581e-38
0.0237071988825 -0.0142243193295 0.854 1.65796841858e-38
0.0251988462126 -0.0141743509946 0.851 1.90642816514e-38
0.0267737741009 -0.0141743509946 0.851 1.7128529354e-38
0.0283487019892 -0.0141743509946 0.851 1.65760562241e-38
0.0298533040729 -0.0141410387714 0.849 1.70334372403e-38
0.0313505034402 -0.0141077265481 0.847 1.65692375058e-38
0.0329180286122 -0.0141077265481 0.847 1.80469053351e-38
0.0344041239052 -0.0140744143248 0.845 2.27470285403e-38
0.0359679477191 -0.0140744143248 0.845 2.20091369988e-38
0.0374429389376 -0.0140411021016 0.843 2.23778704728e-38
0.0390030613933 -0.0140411021016 0.843 2.18250344066e-38
0.0404669485374 -0.0140077898783 0.841 2.18236247003e-38
0.042023369635 -0.0140077898783 0.841 2.26512119552e-38
0.0435797907326 -0.0140077898783 0.841 2.19169091391e-38
0.0450288724442 -0.0139744776551 0.839 2.22846056522e-38
0.0464705514394 -0.0139411654318 0.837 2.16385145745e-38
0.0479048277184 -0.0139078532086 0.835 2.34932493998e-38
0.0494501447416 -0.0139078532086 0.835 2.34986345898e-38
-0.00820776167399 -0.0131324186784 0.887 2.34849382986e-38
-0.00656620933919 -0.0131324186784 0.887 2.21002059847e-38
-0.00489689681835 -0.0130583915156 0.882 2.21928023859e-38
-0.00324979244634 -0.0129991697854 0.878 2.09909969749e-38
-0.00162489622317 -0.0129991697854 0.878 2.2007640412e-38
0.0 -0.0129991697854 0.878 2.17314164588e-38
0.00161934418596 -0.0129547534877 0.875 2.21920358757e-38
0.00323868837192 -0.0129547534877 0.875 2.05321417927e-38
0.00483582440905 -0.0128955317575 0.871 1.75790327973e-38
0.00639594686478 -0.0127918937296 0.864 2.03492373107e-38
0.00797642679028 -0.0127622828645 0.862 2.06311925747e-38
0.0095495039995 -0.0127326719993 0.86 2.18286483553e-38
0.0111410879994 -0.0127326719993 0.86 2.10874819793e-38
0.0127326719993 -0.0127326719993 0.86 2.10878617312e-38
0.014290943776 -0.0127030611342 0.858 2.23800228673e-38
0.0158788264178 -0.0127030611342 0.858 2.28367200498e-38
0.0174667090596 -0.0127030611342 0.858 2.23757012628e-38
0.0190545917013 -0.0127030611342 0.858 2.25604638666e-38
0.0206424743431 -0.0127030611342 0.858 2.27452530951e-38
0.0222303569849 -0.0127030611342 0.858 1.87840780104e-38
0.0237627192546 -0.0126734502691 0.856 1.40792268243e-38
0.0253469005382 -0.0126734502691 0.856 2.24636383466e-38
0.0268681587335 -0.012643839404 0.854 1.27870236493e-38
0.028448638659 -0.012643839404 0.854 1.59228311359e-38
0.0299236298775 -0.0125994231063 0.851 1.70331065338e-38
0.0314985577658 -0.0125994231063 0.851 2.05415823405e-38
0.0330734856541 -0.0125994231063 0.851 1.5382917844e-38
0.0345669836633 -0.0125698122412 0.849 1.94337606161e-38
0.0360530789563 -0.0125402013761 0.847 2.14594930905e-38
0.0375317715329 -0.012510590511 0.845 2.20105439025e-38
0.0390955953468 -0.012510590511 0.845 2.25615470703e-38
0.040563183849 -0.0124809796459 0.843 2.2470053491e-38
0.0421233063048 -0.0124809796459 0.843 2.25619001975e-38
0.0436834287605 -0.0124809796459 0.843 2.23796543258e-38
0.0450288724442 -0.0124217579156 0.839 2.25608141912e-38
0.0465815921836 -0.0124217579156 0.839 2.23750230343e-38
0.0480195698208 -0.0123921470505 0.837 2.34914179027e-38
0.0495685882021 -0.0123921470505 0.837 2.34943185905e-38
-0.00656620933919 -0.0114908663436 0.887 2.34845781649e-38
-0.00491355292998 -0.0114649568366 0.885 2.19176378143e-38
-0.00327570195332 -0.0114649568366 0.885 2.13605039656e-38
-0.00163785097666 -0.0114649568366 0.885 2.14551602756e-38
0.0 -0.0114001830692 0.88 2.19157979094e-38
0.00162859758131 -0.0114001830692 0.88 2.15473881353e-38
0.00324979244634 -0.0113742735622 0.878 2.30228685378e-38
0.00485803255789 -0.0113354093017 0.875 2.20076460172e-38
0.00647737674385 -0.0113354093017 0.875 2.04439118375e-38
0.00799493358098 -0.0111929070134 0.864 1.75844782432e-38
0.00957171214834 -0.0111669975064 0.862 1.83195419643e-38
0.0111669975064 -0.0111669975064 0.862 2.00748420519e-38
0.0127622828645 -0.0111669975064 0.862 1.71238728392e-38
0.0143242559993 -0.0111410879994 0.86 1.66610421734e-38
0.0159158399992 -0.0111410879994 0.86 1.97949873343e-38
0.0175074239991 -0.0111410879994 0.86 1.97085398307e-38
0.019099007999 -0.0111410879994 0.86 2.09081522097e-38
0.0206905919989 -0.0111410879994 0.86 2.25637106752e-38
0.0222821759988 -0.0111410879994 0.86 2.24707737584e-38
0.0238737599988 -0.0111410879994 0.86 2.17317821977e-38
0.0254653439987 -0.0111410879994 0.86 2.34827578782e-38
0.0270569279986 -0.0111410879994 0.86 2.06290121543e-38
0.0286485119985 -0.0111410879994 0.86 2.22903383642e-38
0.0301697701938 -0.0111151784924 0.858 1.72188066063e-38
0.0316836256728 -0.0110892689855 0.856 1.7861751769e-38
0.0331900784355 -0.0110633594785 0.854 1.70356274698e-38
0.0346484135424 -0.011024495218 0.851 1.78689782652e-38
0.0361382101935 -0.0109985857111 0.849 1.69445444709e-38
0.0376206041283 -0.0109726762041 0.847 1.98925135035e-38
0.0391881293003 -0.0109726762041 0.847 2.20098558649e-38
0.0407556544723 -0.0109726762041 0.847 2.28370703744e-38
0.0422232429745 -0.0109467666971 0.845 2.25619100066e-38
0.0437870667884 -0.0109467666971 0.845 2.27448747445e-38
0.0453508906023 -0.0109467666971 0.845 2.24657501034e-38
0.046803673672 -0.0109208571901 0.843 2.14523212449e-38
0.0483637961277 -0.0109208571901 0.843 2.34946927372e-38
-0.00658101477175 -0.00987152215763 0.889 2.30221678885e-38
-0.00492465700439 -0.00984931400879 0.887 2.20094424819e-38
-0.0032831046696 -0.00984931400879 0.887 2.03496058522e-38
-0.0016415523348 -0.00984931400879 0.887 2.1363369621e-38
0.0 -0.00984931400879 0.887 2.20072900874e-38
0.00163785097666 -0.00982710585995 0.885 2.17324856495e-38
0.0032645978789 -0.0097937936367 0.882 2.15481196131e-38
0.00489689681835 -0.0097937936367 0.882 2.09927920382e-38
0.00651439032524 -0.00977158548786 0.88 2.09030977261e-38
0.00807821413911 -0.00969385696694 0.873 2.2194539996e-38
0.00959392029717 -0.00959392029717 0.864 2.21031052712e-38
0.0111929070134 -0.00959392029717 0.864 2.15531138409e-38
0.0127918937296 -0.00959392029717 0.864 1.86028550865e-38
0.0143575682225 -0.00957171214834 0.862 1.94269236809e-38
0.0159528535806 -0.00957171214834 0.862 1.82327189128e-38
0.0175481389386 -0.00957171214834 0.862 1.47393491035e-38
0.0191434242967 -0.00957171214834 0.862 1.62083681187e-38
0.0207387096547 -0.00957171214834 0.862 1.84120500837e-38
0.0223339950128 -0.00957171214834 0.862 2.33898615991e-38
0.0239292803708 -0.00957171214834 0.862 1.97077943399e-38
0.0255245657289 -0.00957171214834 0.862 2.13705722951e-38
0.027119851087 -0.00957171214834 0.862 2.20098110234e-38
0.028715136445 -0.00957171214834 0.862 2.2838477278e-38
0.0303104218031 -0.00957171214834 0.862 2.33923797324e-38
0.0319057071611 -0.00957171214834 0.862 2.19183580817e-38
0.0335009925192 -0.00957171214834 0.862 2.21948931232e-38
0.03485198824 -0.00950508770183 0.856 2.10906881502e-38
0.0363510382865 -0.00948287955299 0.854 1.98957757263e-38
0.037798269319 -0.00944956732974 0.851 1.99883441016e-38
0.0393731972073 -0.00944956732974 0.851 2.32090828868e-38
0.0408518897839 -0.0094273591809 0.849 2.17317667834e-38
0.0423231796443 -0.00940515103207 0.847 2.26541112417e-38
0.0438907048163 -0.00940515103207 0.847 2.23750034162e-38
0.0454582299883 -0.00940515103207 0.847 2.24664353384e-38
0.0470257551603 -0.00940515103207 0.847 2.274449219e-38
-0.00658101477175 -0.00822626846469 0.889 2.1270107603e-38
-0.00493576107881 -0.00822626846469 0.889 2.25594100902e-38
-0.00329050738588 -0.00822626846469 0.889 1.91524695676e-38
-0.0016415523348 -0.00820776167399 0.887 2.17328752105e-38
0.0 -0.00820776167399 0.887 2.22838811809e-38
0.0016415523348 -0.00820776167399 0.887 2.16395655483e-38
0.00327570195332 -0.00818925488329 0.885 2.15481196131e-38
0.00491355292998 -0.00818925488329 0.885 1.85949671775e-38
0.0065291957578 -0.00816149469725 0.882 1.86904600626e-38
0.00816149469725 -0.00816149469725 0.882 1.66614331356e-38
0.00977158548786 -0.00814298790655 0.88 1.95151592413e-38
0.0114001830692 -0.00814298790655 0.88 2.12736781115e-38
0.0128955317575 -0.00805970734842 0.871 2.15520446501e-38
0.0145074732272 -0.00805970734842 0.871 2.30264460527e-38
0.0161194146968 -0.00805970734842 0.871 2.05382752761e-38
0.017690641227 -0.00804120055772 0.869 1.94341137434e-38
0.0191878405943 -0.00799493358098 0.864 1.68505103374e-38
0.0207868273105 -0.00799493358098 0.864 1.74032735361e-38
0.0223858140267 -0.00799493358098 0.864 2.30232819208e-38
0.0239848007429 -0.00799493358098 0.864 1.51055952728e-38
0.0255837874591 -0.00799493358098 0.864 1.86980004497e-38
0.0271827741753 -0.00799493358098 0.864 1.61053474582e-38
0.0288816975613 -0.00802269376702 0.867 1.97950125577e-38
0.0303807476077 -0.00799493358098 0.864 2.07248371472e-38
0.0319797343239 -0.00799493358098 0.864 2.07251874718e-38
0.0335009925192 -0.00797642679028 0.862 2.23782179948e-38
0.0350962778772 -0.00797642679028 0.862 2.21916883537e-38
0.0365213007609 -0.00793941320889 0.858 2.2193107869e-38
0.0380203508073 -0.00792090641819 0.856 2.32072640014e-38
0.039604532091 -0.00792090641819 0.856 2.12697544758e-38
0.0411887133746 -0.00792090641819 0.856 2.26526594965e-38
0.0426729579885 -0.0079023996275 0.854 2.29306757105e-38
0.044253437914 -0.0079023996275 0.854 2.21913324238e-38
0.0458339178395 -0.0079023996275 0.854 2.34820558276e-38
0.047414397765 -0.0079023996275 0.854 2.18203806944e-38
0.0493391039974 -0.00795791999959 0.86 2.34932451959e-38
-0.00659582020431 -0.00659582020431 0.891 2.19169091391e-38
-0.00493576107881 -0.00658101477175 0.889 2.17318018158e-38
-0.00329050738588 -0.00658101477175 0.889 1.83219928353e-38
-0.00164525369294 -0.00658101477175 0.889 2.29302623275e-38
0.0 -0.00656620933919 0.887 2.11771762915e-38
0.0016415523348 -0.00656620933919 0.887 2.18243449677e-38
0.0032831046696 -0.00656620933919 0.887 2.21927547418e-38
0.00491355292998 -0.00655140390664 0.885 2.11786280367e-38
0.00655140390664 -0.00655140390664 0.885 2.17328513884e-38
0.00818925488329 -0.00655140390664 0.885 2.02562989926e-38
0.0097937936367 -0.0065291957578 0.882 1.89638001437e-38
0.0114001830692 -0.00651439032524 0.88 1.77717407634e-38
0.0130287806505 -0.00651439032524 0.88 1.77659477956e-38
0.0146240660085 -0.00649958489268 0.878 1.90545384231e-38
0.0161934418596 -0.00647737674385 0.875 2.15499062687e-38
0.0177720711061 -0.00646257131129 0.873 1.96159910736e-38
0.0193877139339 -0.00646257131129 0.873 1.73078983601e-38
0.0209552391059 -0.00644776587873 0.871 1.86922144883e-38
0.0224635425477 -0.00641815501362 0.867 2.15520964982e-38
0.0240680813011 -0.00641815501362 0.867 1.28989873966e-38
0.0256726200545 -0.00641815501362 0.867 1.83306430508e-38
0.0272771588079 -0.00641815501362 0.867 1.88747910665e-38
0.0288816975613 -0.00641815501362 0.867 1.92483001657e-38
0.0304862363147 -0.00641815501362 0.867 1.60272194637e-38
0.0319797343239 -0.00639594686478 0.864 1.76835164134e-38
0.0335787210401 -0.00639594686478 0.864 2.21945582129e-38
0.0350962778772 -0.00638114143223 0.862 2.28349053683e-38
0.0366915632353 -0.00638114143223 0.862 2.33898784147e-38
0.038198015998 -0.00636633599967 0.86 2.28384646664e-38
0.0396970660444 -0.00635153056711 0.858 2.34845571454e-38
0.0412849486862 -0.00635153056711 0.858 2.22856440144e-38
0.042872831328 -0.00635153056711 0.858 2.22838867861e-38
0.0444607139698 -0.00635153056711 0.858 2.2560113542e-38
0.0460485966116 -0.00635153056711 0.858 2.22838839835e-38
0.0476364792533 -0.00635153056711 0.858 2.24646781101e-38
0.0493391039974 -0.00636633599967 0.86 2.34921479792e-38
-0.00494686515323 -0.00494686515323 0.891 2.26555125401e-38
-0.00329791010215 -0.00494686515323 0.891 1.93354160886e-38
-0.00164895505108 -0.00494686515323 0.891 2.23753761615e-38
0.0 -0.00493576107881 0.889 2.15481168105e-38
0.00164525369294 -0.00493576107881 0.889 2.16392726769e-38
0.00329050738588 -0.00493576107881 0.889 2.21934862196e-38
0.00492465700439 -0.00492465700439 0.887 2.17317962106e-38
0.00655140390664 -0.00491355292998 0.885 2.19179503038e-38
0.00818925488329 -0.00491355292998 0.885 2.20101431311e-38
0.00982710585995 -0.00491355292998 0.885 2.20105116726e-38
0.0114649568366 -0.00491355292998 0.885 1.92489839993e-38
0.0131028078133 -0.00491355292998 0.885 2.00726728419e-38
0.014690690455 -0.00489689681835 0.882 1.83176544153e-38
0.0162489622317 -0.00487468866951 0.878 1.97978389767e-38
0.0178738584549 -0.00487468866951 0.878 1.84214289744e-38
0.0194987546781 -0.00487468866951 0.878 1.80450752393e-38
0.0210514744175 -0.00485803255789 0.875 2.05303691502e-38
0.0226189995895 -0.00484692848347 0.873 2.03546673422e-38
0.0241791220453 -0.00483582440905 0.871 1.7506990642e-38
0.0257910635149 -0.00483582440905 0.871 1.70370343734e-38
0.0274030049846 -0.00483582440905 0.871 1.95162424451e-38
0.0290149464543 -0.00483582440905 0.871 2.2471124083e-38
0.0305565621193 -0.00482472033463 0.869 2.00790627629e-38
0.0320907750681 -0.00481361626021 0.867 1.82298350405e-38
0.0336953138215 -0.00481361626021 0.867 1.93293456637e-38
0.0351777077563 -0.00479696014859 0.864 1.93278939185e-38
0.0367766944725 -0.00479696014859 0.864 1.9426599981e-38
0.0382868485934 -0.00478585607417 0.862 1.97110551615e-38
0.0397895999979 -0.00477475199975 0.86 2.09992548267e-38
0.0413811839978 -0.00477475199975 0.86 2.25611673184e-38
0.0429727679978 -0.00477475199975 0.86 2.32051592511e-38
0.0445643519977 -0.00477475199975 0.86 2.23782236e-38
0.0461559359976 -0.00477475199975 0.86 2.24686423834e-38
0.0477475199975 -0.00477475199975 0.86 2.2650145567e-38
0.0494538460997 -0.00478585607417 0.862 2.34899829731e-38
-0.00498572941369 -0.00332381960913 0.898 2.09038193948e-38
-0.00331641689285 -0.00331641689285 0.896 1.92421666823e-38
-0.00165450708829 -0.00330901417657 0.894 2.22831987486e-38
0.0 -0.00329791010215 0.891 2.15470378107e-38
0.00164895505108 -0.00329791010215 0.891 2.19147469356e-38
0.00329050738588 -0.00329050738588 0.889 2.17307130069e-38
0.00493576107881 -0.00329050738588 0.889 2.15481168105e-38
0.00656620933919 -0.0032831046696 0.887 2.18254015468e-38
0.00820776167399 -0.0032831046696 0.887 2.21949057349e-38
0.00984931400879 -0.0032831046696 0.887 1.83205438927e-38
0.0114649568366 -0.00327570195332 0.885 1.8507510739e-38
0.0131028078133 -0.00327570195332 0.885 1.84171297907e-38
0.014690690455 -0.0032645978789 0.882 1.94301508713e-38
0.0162859758131 -0.00325719516262 0.88 2.01705703552e-38
0.0178738584549 -0.00324979244634 0.878 1.75909494395e-38
0.0194987546781 -0.00324979244634 0.878 1.73993260784e-38
0.0211236509012 -0.00324979244634 0.878 1.97913551687e-38
0.0226708186035 -0.00323868837192 0.875 2.09020789821e-38
0.0242901627894 -0.00323868837192 0.875 1.81401547414e-38
0.0258502852452 -0.00323128565565 0.873 1.89684566585e-38
0.027465928073 -0.00323128565565 0.873 1.95165899671e-38
0.0290149464543 -0.00322388293937 0.871 2.14580413453e-38
0.030626887924 -0.00322388293937 0.871 2.22903285552e-38
0.0321648022309 -0.00321648022309 0.869 2.26569628841e-38
0.0337730423424 -0.00321648022309 0.869 2.33949006684e-38
0.035381282454 -0.00321648022309 0.869 2.21055687539e-38
0.0367766944725 -0.00319797343239 0.864 2.13698169952e-38
0.0382868485934 -0.00319057071611 0.862 1.94344542589e-38
0.0398821339514 -0.00319057071611 0.862 1.86908075846e-38
0.0414774193095 -0.00319057071611 0.862 2.22820987293e-38
0.0429727679978 -0.00318316799983 0.86 2.338952809e-38
0.0445643519977 -0.00318316799983 0.86 2.21938365442e-38
0.0461559359976 -0.00318316799983 0.86 2.21920358757e-38
0.0478585607417 -0.00319057071611 0.862 2.24682374082e-38
0.0495685882021 -0.00319797343239 0.864 2.34953807747e-38
-0.00503014571137 -0.00167671523712 0.906 2.21019884364e-38
-0.00335343047424 -0.00167671523712 0.906 1.91524877845e-38
-0.00167116319991 -0.00167116319991 0.903 2.21016563286e-38
0.0 -0.00166746184177 0.901 2.20998262328e-38
0.00166746184177 -0.00166746184177 0.901 2.20994506848e-38
0.00332381960913 -0.00166190980456 0.898 2.27452250691e-38
0.00497462533928 -0.00165820844643 0.896 2.15477636833e-38
0.00661802835314 -0.00165450708829 0.894 2.17310661341e-38
0.00827253544143 -0.00165450708829 0.894 2.17307102043e-38
0.00989373030646 -0.00164895505108 0.891 2.21009500742e-38
0.0115426853575 -0.00164895505108 0.891 2.15491677844e-38
0.0131620295435 -0.00164525369294 0.889 1.84174058465e-38
0.0148072832364 -0.00164525369294 0.889 1.72174571559e-38
0.0163785097666 -0.00163785097666 0.885 2.16414432883e-38
0.0179145733944 -0.00162859758131 0.88 1.80486877867e-38
0.0195431709757 -0.00162859758131 0.88 1.84134822108e-38
0.0211236509012 -0.00162489622317 0.878 2.08087539057e-38
0.0227485471244 -0.00162489622317 0.878 2.29335721944e-38
0.0242901627894 -0.00161934418596 0.875 1.95187703875e-38
0.0258502852452 -0.00161564282782 0.873 1.72142103473e-38
0.027465928073 -0.00161564282782 0.873 2.20994450796e-38
0.0290815709008 -0.00161564282782 0.873 1.96181140408e-38
0.0306972137286 -0.00161564282782 0.873 1.62980147867e-38
0.0322388293937 -0.00161194146968 0.871 1.73971820917e-38
0.0338507708634 -0.00161194146968 0.871 1.98846466139e-38
0.035462712333 -0.00161194146968 0.871 2.18247008975e-38
0.0369895225655 -0.00160824011154 0.869 2.15495391285e-38
0.0383756811887 -0.0015989867162 0.864 2.20134109591e-38
0.0398821339514 -0.00159528535806 0.862 2.34859836672e-38
0.0414774193095 -0.00159528535806 0.862 2.32987197457e-38
0.0430727046675 -0.00159528535806 0.862 2.23771488041e-38
0.0446679900256 -0.00159528535806 0.862 2.24693472366e-38
0.0462632753836 -0.00159528535806 0.862 2.2745928521e-38
0.0479696014859 -0.0015989867162 0.864 2.2561170121e-38
0.0495685882021 -0.0015989867162 0.864 2.34921591896e-38
0.0521151226019 -0.00162859758131 0.88 2.34953737683e-38
-0.0050523538602 0.0 0.91 2.09016684017e-38
-0.00336083319052 0.0 0.908 1.8965557372e-38
-0.00168041659526 0.0 0.908 2.20998234302e-38
0.0 0.0 0.903 2.25604484523e-38
0.00167116319991 0.0 0.903 2.27466347754e-38
0.00334232639983 0.0 0.903 2.1363369621e-38
0.00500238552532 0.0 0.901 2.15467071043e-38
0.00666984736709 0.0 0.901 2.22849531742e-38
0.00830954902282 0.0 0.898 2.16399340898e-38
0.00997145882739 0.0 0.898 2.17317850003e-38
0.011607459125 0.0 0.896 2.21001905704e-38
0.0131916404086 0.0 0.891 2.21927449327e-38
0.0148405954597 0.0 0.891 2.16410509247e-38
0.0164525369294 0.0 0.889 2.0168419362e-38
0.0180977906223 0.0 0.889 1.93401426683e-38
0.0196986280176 0.0 0.887 2.09985205463e-38
0.0213401803524 0.0 0.887 1.96134729403e-38
0.0229299136732 0.0 0.885 2.0168808923e-38
0.0244844840917 0.0 0.882 1.93379748596e-38
0.026057561301 0.0 0.88 1.96127316534e-38
0.0276232357939 0.0 0.878 1.99790282694e-38
0.0291481953473 0.0 0.875 2.13666346464e-38
0.0307675395333 0.0 0.875 1.97132215689e-38
0.0323868837192 0.0 0.875 1.97071049011e-38
0.0340062279052 0.0 0.875 1.99786232941e-38
0.0356255720912 0.0 0.875 2.02559430628e-38
0.0371597850399 0.0 0.873 1.97071077037e-38
0.0387754278677 0.0 0.873 1.7680293427e-38
0.0403910706956 0.0 0.873 2.06254122185e-38
0.0420067135234 0.0 0.873 2.27448719419e-38
0.0431726413373 0.0 0.864 2.32068898547e-38
0.0447716280535 0.0 0.864 2.33902315419e-38
0.0463706147697 0.0 0.864 2.23768152951e-38
0.0479696014859 0.0 0.864 2.27452124574e-38
0.0497407013555 0.0 0.867 2.34939570555e-38
0.0521151226019 0.0 0.88 2.3495382176e-38
-0.00506900997183 0.00168966999061 0.913 2.11768259668e-38
-0.0033682359068 0.0016841179534 0.91 2.04410433796e-38
-0.0016841179534 0.0016841179534 0.91 2.16395865678e-38
0.0 0.00168041659526 0.908 2.19147469356e-38
0.00167671523712 0.00167671523712 0.906 2.15481140079e-38
0.00334232639983 0.00167116319991 0.903 2.21942022831e-38
0.00501348959974 0.00167116319991 0.903 2.22853034989e-38
0.00668465279965 0.00167116319991 0.903 2.2747360648e-38
0.00835581599956 0.00167116319991 0.903 2.1824684082e-38
0.0100047710506 0.00166746184177 0.901 2.24700703066e-38
0.011633368632 0.00166190980456 0.898 2.20097984117e-38
0.0132656675714 0.00165820844643 0.896 1.89630812776e-38
0.0149238760178 0.00165820844643 0.896 1.99765129387e-38
0.0165450708829 0.00165450708829 0.894 1.99840533257e-38
0.0181995779711 0.00165450708829 0.894 1.86972941952e-38
0.0197874606129 0.00164895505108 0.891 1.81372442445e-38
0.0213882980082 0.00164525369294 0.889 2.04432111883e-38
0.0229817326872 0.0016415523348 0.887 2.00762629685e-38
0.024623285022 0.0016415523348 0.887 1.90653564473e-38
0.0262056156265 0.00163785097666 0.885 2.04428454494e-38
0.0277490819706 0.00163229893945 0.882 1.93328979553e-38
0.0293147564636 0.00162859758131 0.88 1.90585167095e-38
0.0309433540449 0.00162859758131 0.88 1.84217989172e-38
0.0325719516262 0.00162859758131 0.88 1.82319187713e-38
0.0341228206866 0.00162489622317 0.878 1.99789862304e-38
0.0357477169098 0.00162489622317 0.878 2.32076325429e-38
0.0373726131329 0.00162489622317 0.878 2.25661895721e-38
0.0388642604631 0.00161934418596 0.875 2.10896315712e-38
0.0404836046491 0.00161934418596 0.875 1.95179926668e-38
0.042102948835 0.00161934418596 0.875 2.34816998978e-38
0.043722293021 0.00161934418596 0.875 2.34816760758e-38
0.0454970942488 0.00162489622317 0.878 2.34831306236e-38
0.047121990472 0.00162489622317 0.878 2.23764047146e-38
0.0487468866951 0.00162489622317 0.878 2.23757012628e-38
0.0503717829183 0.00162489622317 0.878 2.34910773872e-38
0.0521151226019 0.00162859758131 0.88 2.3494659106e-38
-0.00506900997183 0.00337933998122 0.913 2.00730287717e-38
-0.00337933998122 0.00337933998122 0.913 2.08101608094e-38
-0.00168966999061 0.00337933998122 0.913 2.11793258833e-38
0.0 0.0033682359068 0.91 2.10864155912e-38
0.00168041659526 0.00336083319052 0.908 2.30225056015e-38
0.00336083319052 0.00336083319052 0.908 2.15491677844e-38
0.00503014571137 0.00335343047424 0.906 2.18232309354e-38
0.00670686094849 0.00335343047424 0.906 2.24697396001e-38
0.00835581599956 0.00334232639983 0.903 2.13640758754e-38
0.0100269791995 0.00334232639983 0.903 2.33913007326e-38
0.0116722328924 0.00333492368355 0.901 2.2471499631e-38
0.0132952784365 0.00332381960913 0.898 2.03538700034e-38
0.0149571882411 0.00332381960913 0.898 2.21063100408e-38
0.0166190980456 0.00332381960913 0.898 1.67560922482e-38
0.0182402929107 0.00331641689285 0.896 1.99847988165e-38
0.0198540850594 0.00330901417657 0.894 1.86908103872e-38
0.0215085921477 0.00330901417657 0.894 1.99818967274e-38
0.0230853707151 0.00329791010215 0.891 1.99844190646e-38
0.0247343257662 0.00329791010215 0.891 1.87858772777e-38
0.026324059087 0.00329050738588 0.889 2.17325010638e-38
0.0279693127799 0.00329050738588 0.889 2.05314831825e-38
0.0295479420264 0.0032831046696 0.887 2.09982220698e-38
0.0311894943612 0.0032831046696 0.887 1.96199343275e-38
0.0327570195332 0.00327570195332 0.885 2.01626936565e-38
0.0342782777284 0.0032645978789 0.882 1.86839762546e-38
0.0359105766679 0.0032645978789 0.882 2.04374154179e-38
0.0374577443701 0.00325719516262 0.88 2.22828456214e-38
0.0390863419515 0.00325719516262 0.88 2.33019791659e-38
0.0406224055793 0.00324979244634 0.878 2.34806222993e-38
0.0422473018025 0.00324979244634 0.878 2.34795657203e-38
0.0438721980256 0.00324979244634 0.878 2.34824201652e-38
0.0456007322767 0.00325719516262 0.88 2.34827873054e-38
0.047229329858 0.00325719516262 0.88 2.22856566261e-38
0.0488579274393 0.00325719516262 0.88 2.26523091719e-38
0.0504865250206 0.00325719516262 0.88 2.34928850622e-38
0.0521151226019 0.00325719516262 0.88 2.34932185712e-38
-0.00508011404625 0.00508011404625 0.915 2.04442831816e-38
-0.0033867426975 0.00508011404625 0.915 1.942798026e-38
-0.00169337134875 0.00508011404625 0.915 2.19158245341e-38
0.0 0.0050523538602 0.91 2.19183034311e-38
0.0016841179534 0.0050523538602 0.91 2.22856594287e-38
0.00336083319052 0.00504124978578 0.908 2.17314164588e-38
0.00504124978578 0.00504124978578 0.908 2.21005465002e-38
0.00670686094849 0.00503014571137 0.906 2.21009122391e-38
0.00838357618561 0.00503014571137 0.906 2.1641733357e-38
0.0100602914227 0.00503014571137 0.906 2.07187064664e-38
0.0116981423994 0.00501348959974 0.903 2.34852704063e-38
0.0133396947342 0.00500238552532 0.901 1.74064951213e-38
0.0149571882411 0.00498572941369 0.898 2.12744544308e-38
0.0166190980456 0.00498572941369 0.898 1.79499508956e-38
0.0182810078502 0.00498572941369 0.898 1.92425604472e-38
0.0198985013571 0.00497462533928 0.896 1.92436590652e-38
0.0215567098035 0.00497462533928 0.896 1.85038785734e-38
0.02321491825 0.00497462533928 0.896 2.00758678024e-38
0.0248176063243 0.00496352126486 0.894 1.92468806504e-38
0.0264721134126 0.00496352126486 0.894 1.89673748561e-38
0.0280322358683 0.00494686515323 0.891 2.14541205121e-38
0.0296811909194 0.00494686515323 0.891 1.82341132047e-38
0.0312598201658 0.00493576107881 0.889 2.23825788357e-38
0.0327570195332 0.00491355292998 0.885 2.20112571634e-38
0.0343948705098 0.00491355292998 0.885 2.34856375465e-38
0.0360327214865 0.00491355292998 0.885 2.23785585104e-38
0.0375428756073 0.00489689681835 0.882 2.24729219489e-38
0.0391751745468 0.00489689681835 0.882 2.21934890222e-38
0.0408074734862 0.00489689681835 0.882 2.3111849589e-38
0.0424397724257 0.00489689681835 0.882 2.33887769941e-38
0.0439721346954 0.00488579274393 0.88 2.28359619473e-38
0.0456007322767 0.00488579274393 0.88 2.32958624981e-38
0.047336669244 0.00489689681835 0.882 2.22845874353e-38
0.0488579274393 0.00488579274393 0.88 2.34838677066e-38
0.0504865250206 0.00488579274393 0.88 2.34914445274e-38
0.0521151226019 0.00488579274393 0.88 2.3497180042e-38
-0.0033867426975 0.006773485395 0.915 1.97049272833e-38
-0.00169337134875 0.006773485395 0.915 1.99782673643e-38
0.0 0.006773485395 0.915 2.20097984117e-38
0.00168966999061 0.00675867996244 0.913 2.256121216e-38
0.00337933998122 0.00675867996244 0.913 2.20076460172e-38
0.0050523538602 0.0067364718136 0.91 2.20998430484e-38
0.00672166638105 0.00672166638105 0.908 2.20090949599e-38
0.00840208297631 0.00672166638105 0.908 2.21952756777e-38
0.0100602914227 0.00670686094849 0.906 1.77656297008e-38
0.0117370066599 0.00670686094849 0.906 2.05275301195e-38
0.0133693055993 0.00668465279965 0.903 1.85064177262e-38
0.015007156576 0.00666984736709 0.901 1.81376520223e-38
0.0166746184177 0.00666984736709 0.901 1.88733267096e-38
0.0182810078502 0.00664763921826 0.898 1.97082203347e-38
0.0199429176548 0.00664763921826 0.898 2.02624899293e-38
0.0216048274593 0.00664763921826 0.898 1.98882395432e-38
0.0232667372639 0.00664763921826 0.898 1.95183654122e-38
0.0248731266964 0.0066328337857 0.896 1.9152119243e-38
0.0265313351428 0.0066328337857 0.896 1.79535928704e-38
0.0281895435892 0.0066328337857 0.896 1.88704932841e-38
0.0298477520357 0.0066328337857 0.896 2.32072640014e-38
0.0314356346774 0.00661802835314 0.894 1.91517815301e-38
0.0329050738588 0.00658101477175 0.889 1.88741072329e-38
0.0345503275517 0.00658101477175 0.889 1.89615916973e-38
0.0361141513656 0.00656620933919 0.887 2.34841437624e-38
0.0376705724632 0.00655140390664 0.885 2.32058024471e-38
0.0393084234398 0.00655140390664 0.885 2.26526622991e-38
0.0409462744165 0.00655140390664 0.885 2.27441558784e-38
0.0425841253931 0.00655140390664 0.885 2.31125530408e-38
0.0442219763698 0.00655140390664 0.885 2.34842180312e-38
0.0458598273464 0.00655140390664 0.885 2.28359437304e-38
0.047336669244 0.0065291957578 0.882 2.28359619473e-38
0.0489689681835 0.0065291957578 0.882 2.26505141085e-38
0.0504865250206 0.00651439032524 0.88 2.34942849593e-38
0.0521151226019 0.00651439032524 0.88 2.34964793927e-38
-0.0017026247441 0.00851312372049 0.92 2.0720155409e-38
0.0 0.00849461692979 0.918 2.21027073025e-38
0.00169892338596 0.00849461692979 0.918 2.17299815291e-38
0.0033867426975 0.00846685674374 0.915 2.21916883537e-38
0.00506900997183 0.00844834995305 0.913 2.21002059847e-38
0.0067364718136 0.008420589767 0.91 2.17325248858e-38
0.00840208297631 0.00840208297631 0.908 2.21942050857e-38
0.0100824995716 0.00840208297631 0.908 2.27473634506e-38
0.0117629161668 0.00840208297631 0.908 2.31136222315e-38
0.013413721897 0.00838357618561 0.906 1.96148770414e-38
0.0150404687992 0.00835581599956 0.903 1.89681329585e-38
0.0166746184177 0.00833730920887 0.901 1.7678068165e-38
0.0183420802595 0.00833730920887 0.901 1.86058272406e-38
0.0200095421013 0.00833730920887 0.901 1.90639439384e-38
0.0216770039431 0.00833730920887 0.901 1.89680783079e-38
0.0233444657848 0.00833730920887 0.901 2.12708054496e-38
0.0249286470685 0.00830954902282 0.898 2.12737355647e-38
0.026590556873 0.00830954902282 0.898 1.79607787289e-38
0.0282524666776 0.00830954902282 0.898 1.94297795272e-38
0.0299143764822 0.00830954902282 0.898 2.00661890339e-38
0.0315059604821 0.00829104223213 0.896 2.09913907398e-38
0.0330901417657 0.00827253544143 0.894 2.22921432367e-38
0.0345503275517 0.00822626846469 0.889 2.24729219489e-38
0.0361955812446 0.00822626846469 0.889 2.302398257e-38
0.0377557037004 0.00820776167399 0.887 2.34823991458e-38
0.0393972560352 0.00820776167399 0.887 2.2653000012e-38
0.04103880837 0.00820776167399 0.887 2.34845767636e-38
0.0426803607048 0.00820776167399 0.887 2.34830983937e-38
0.0443219130396 0.00820776167399 0.887 2.32036948942e-38
0.0459634653743 0.00820776167399 0.887 2.3481329955e-38
0.0476050177091 0.00820776167399 0.887 2.32976631666e-38
0.0491355292998 0.00818925488329 0.885 2.27448565276e-38
0.0507733802764 0.00818925488329 0.885 2.3496095437e-38
-0.00171187813945 0.0102712688367 0.925 1.85982041769e-38
0.0 0.0102490606878 0.923 2.23771684223e-38
0.0017026247441 0.0102157484646 0.92 2.32058304731e-38
0.00339784677192 0.0101935403157 0.918 2.19158371458e-38
0.00509677015787 0.0101935403157 0.918 2.23764355432e-38
0.00675867996244 0.0101380199437 0.913 2.16388677017e-38
0.00844834995305 0.0101380199437 0.913 2.21930924547e-38
0.0101047077204 0.0101047077204 0.91 2.21924492587e-38
0.0117629161668 0.0100824995716 0.908 2.302036722e-38
0.0134433327621 0.0100824995716 0.908 2.0994622134e-38
0.0150904371341 0.0100602914227 0.906 2.19179629155e-38
0.0167116319991 0.0100269791995 0.903 1.88747966717e-38
0.018382795199 0.0100269791995 0.903 2.10892840492e-38
0.020053958399 0.0100269791995 0.903 1.90649458668e-38
0.0217251215989 0.0100269791995 0.903 1.94315829983e-38
0.0233962847988 0.0100269791995 0.903 1.97964194613e-38
0.0250119276266 0.0100047710506 0.901 1.95223465012e-38
0.0266793894684 0.0100047710506 0.901 1.77781727234e-38
0.0284097743985 0.0100269791995 0.903 2.01694955593e-38
0.0300809375984 0.0100269791995 0.903 1.95172695968e-38
0.0315762862867 0.00997145882739 0.898 2.09023970769e-38
0.0331641689285 0.00994925067855 0.896 1.80530220029e-38
0.034744648854 0.00992704252972 0.894 2.26577209865e-38
0.0363991559423 0.00992704252972 0.894 2.32076353455e-38
0.0379259661748 0.00989373030646 0.891 2.2651567885e-38
0.0395749212258 0.00989373030646 0.891 2.34813285537e-38
0.0411313423234 0.00987152215763 0.889 2.34845725597e-38
0.0427765960164 0.00987152215763 0.889 2.27462844508e-38
0.0444218497093 0.00987152215763 0.889 2.3481329955e-38
0.0460671034023 0.00987152215763 0.889 2.31125264161e-38
0.0476050177091 0.00984931400879 0.887 2.29303099716e-38
0.0492465700439 0.00984931400879 0.887 2.29281547746e-38
0.0508881223787 0.00984931400879 0.887 2.34954017942e-38
-0.00171743017665 0.0120220112366 0.928 1.89691545051e-38
0.0 0.0119831469761 0.925 2.15495363259e-38
0.00171187813945 0.0119831469761 0.925 2.19157951068e-38
0.00342375627889 0.0119831469761 0.925 2.23782025806e-38
0.00512453034392 0.0119572374691 0.923 2.23771361924e-38
0.00683270712523 0.0119572374691 0.923 2.20079963419e-38
0.00846685674374 0.0118535994412 0.915 2.22846028496e-38
0.0101602280925 0.0118535994412 0.915 2.25608141912e-38
0.0117888256738 0.0117888256738 0.91 2.26530126237e-38
0.0134729436272 0.0117888256738 0.91 2.2561170121e-38
0.0151237493574 0.0117629161668 0.908 2.29284952901e-38
0.0168041659526 0.0117629161668 0.908 2.34845641519e-38
0.0184845825479 0.0117629161668 0.908 2.22878524608e-38
0.0201649991431 0.0117629161668 0.908 2.08152208981e-38
0.0217972980826 0.0117370066599 0.906 1.95234283036e-38
0.0234740133197 0.0117370066599 0.906 2.08101608094e-38
0.0251507285568 0.0117370066599 0.906 1.91524723702e-38
0.026827443794 0.0117370066599 0.906 1.95241836035e-38
0.0285041590311 0.0117370066599 0.906 1.68487152741e-38
0.0301808742682 0.0117370066599 0.906 1.82280371746e-38
0.0317521007983 0.0116981423994 0.903 1.97046316093e-38
0.0332381960913 0.011633368632 0.898 1.9065392881e-38
0.0348223773749 0.011607459125 0.896 2.05365054362e-38
0.0364805858214 0.011607459125 0.896 2.34835187832e-38
0.0380536630306 0.011581549618 0.894 2.34831432353e-38
0.0397081701189 0.011581549618 0.894 2.32050961927e-38
0.0412238762769 0.0115426853575 0.891 2.3484935496e-38
0.0427765960164 0.0115167758506 0.889 2.30221819015e-38
0.0444218497093 0.0115167758506 0.889 2.34806222993e-38
0.0460671034023 0.0115167758506 0.889 2.34849411012e-38
0.0477123570952 0.0115167758506 0.889 2.31132719069e-38
0.0493576107881 0.0115167758506 0.889 2.31125502382e-38
-0.001726683572 0.013813468576 0.933 1.82319397908e-38
0.0 0.0137690522784 0.93 2.24725870386e-38
0.00171743017665 0.0137394414132 0.928 2.15491888039e-38
0.00343486035331 0.0137394414132 0.928 2.1825031604e-38
0.00515229052996 0.0137394414132 0.928 2.17324674326e-38
0.00684751255778 0.0136950251156 0.925 2.29306729079e-38
0.00855939069723 0.0136950251156 0.925 2.154773846e-38
0.0102490606878 0.0136654142505 0.923 2.17317667834e-38
0.0118924637017 0.0135913870877 0.918 2.24697003638e-38
0.01354697079 0.01354697079 0.915 1.60152747955e-38
0.0152070299155 0.0135173599249 0.913 2.34770966324e-38
0.0168966999061 0.0135173599249 0.913 2.2193135895e-38
0.0185863698967 0.0135173599249 0.913 2.20098110234e-38
0.0202760398873 0.0135173599249 0.913 2.21016437169e-38
0.0218935333942 0.0134729436272 0.91 2.03528302399e-38
0.0235776513476 0.0134729436272 0.91 1.80425823293e-38
0.0252062489289 0.0134433327621 0.908 1.90574026772e-38
0.0268866655242 0.0134433327621 0.908 2.13676631995e-38
0.0285670821194 0.0134433327621 0.908 2.0629024766e-38
0.0302474987147 0.0134433327621 0.908 2.04424923222e-38
0.03192791531 0.0134433327621 0.908 1.97031224109e-38
0.0336083319052 0.0134433327621 0.908 1.91524905871e-38
0.0349001058959 0.0132952784365 0.898 1.85085673181e-38
0.0365620157004 0.0132952784365 0.898 2.17332311403e-38
0.038223925505 0.0132952784365 0.898 1.93292405663e-38
0.0397970027142 0.0132656675714 0.896 2.3481386007e-38
0.0413626772071 0.0132360567063 0.894 2.29285050992e-38
0.042872831328 0.0131916404086 0.891 2.24693500392e-38
0.0444218497093 0.0131620295435 0.889 2.33894860511e-38
0.0460671034023 0.0131620295435 0.889 2.34849439038e-38
0.0478196964812 0.0131916404086 0.891 2.29285247174e-38
0.0496352126486 0.0132360567063 0.894 2.33905818665e-38
-0.00173038493014 0.0155734643713 0.935 1.69401499989e-38
0.0 0.015540152148 0.933 2.21005997496e-38
0.001726683572 0.015540152148 0.933 2.18250344066e-38
0.00344226306959 0.0154901838131 0.93 2.17317667834e-38
0.00515229052996 0.0154568715899 0.928 2.23767858678e-38
0.00686972070662 0.0154568715899 0.928 2.17310633315e-38
0.00855939069723 0.015406903255 0.925 2.17310661341e-38
0.0102712688367 0.015406903255 0.925 2.27451676159e-38
0.0119572374691 0.0153735910318 0.923 2.26544797832e-38
0.0136209979528 0.0153236226969 0.92 1.63826181815e-38
0.0152903104736 0.0152903104736 0.918 2.34777272167e-38
0.0169892338596 0.0152903104736 0.918 2.33005764661e-38
0.0186270848362 0.0152403421387 0.915 1.80421773541e-38
0.020320456185 0.0152403421387 0.915 2.33923797324e-38
0.0220138275337 0.0152403421387 0.915 1.98896436443e-38
0.0236553798685 0.0152070299155 0.913 1.97989375947e-38
0.025261769301 0.0151570615806 0.91 1.73075228121e-38
0.0269458872544 0.0151570615806 0.91 1.94294292026e-38
0.0286300052078 0.0151570615806 0.91 2.20994759082e-38
0.0303141231612 0.0151570615806 0.91 2.33898615991e-38
0.03192791531 0.0151237493574 0.908 2.28392031506e-38
0.0336083319052 0.0151237493574 0.908 2.21938337416e-38
0.0352887485005 0.0151237493574 0.908 2.0997476579e-38
0.036684160519 0.015007156576 0.901 2.3488527024e-38
0.0383516223608 0.015007156576 0.901 2.30210608627e-38
0.0398858353096 0.0149571882411 0.898 2.34827494704e-38
0.0414552111606 0.0149238760178 0.896 2.32980134912e-38
0.0430171842954 0.0148905637946 0.894 2.32994806507e-38
0.0446716913837 0.0148905637946 0.894 2.34835341975e-38
0.046326198472 0.0148905637946 0.894 2.34849509103e-38
0.0479807055603 0.0148905637946 0.894 2.34824117575e-38
0.0496352126486 0.0148905637946 0.894 2.29299568444e-38
-0.00173038493014 0.0173038493014 0.935 1.75858851468e-38
0.0 0.0173038493014 0.935 2.20084041197e-38
0.00173038493014 0.0173038493014 0.935 2.19157979094e-38
0.00345336714401 0.01726683572 0.933 2.28377584119e-38
0.00516339460438 0.0172113153479 0.93 2.33891329239e-38
0.00688452613918 0.0172113153479 0.93 2.25604512549e-38
0.00858715088327 0.0171743017665 0.928 2.17318018158e-38
0.0103045810599 0.0171743017665 0.928 2.21913352264e-38
0.0119831469761 0.0171187813945 0.925 1.58352275611e-38
0.0136654142505 0.0170817678131 0.923 2.15506321413e-38
0.0153735910318 0.0170817678131 0.923 2.22845874353e-38
0.017026247441 0.017026247441 0.92 2.18254421844e-38
0.0186881572455 0.0169892338596 0.918 1.80454283665e-38
0.0203870806315 0.0169892338596 0.918 2.00751489363e-38
0.0220860040175 0.0169892338596 0.918 1.84956515501e-38
0.0237071988825 0.0169337134875 0.915 2.12682648955e-38
0.0254005702312 0.0169337134875 0.915 1.85096617322e-38
0.0270347198498 0.0168966999061 0.913 2.18307713225e-38
0.0287243898404 0.0168966999061 0.913 2.25607987769e-38
0.030414059831 0.0168966999061 0.913 2.34831250184e-38
0.0319982411146 0.016841179534 0.91 2.3392354509e-38
0.033682359068 0.016841179534 0.91 2.3022874143e-38
0.0353664770214 0.016841179534 0.91 2.34838592988e-38
0.0369691650957 0.0168041659526 0.908 2.34816886874e-38
0.038436753598 0.0167116319991 0.903 2.32047823018e-38
0.0400190842026 0.0166746184177 0.901 2.34827606808e-38
0.0415477451141 0.0166190980456 0.898 2.3483113808e-38
0.0432096549187 0.0166190980456 0.898 2.27437635148e-38
0.0448715647232 0.0166190980456 0.898 2.34817223186e-38
0.0465334745278 0.0166190980456 0.898 2.33877078033e-38
0.0481953843324 0.0166190980456 0.898 2.34816858849e-38
0.0 0.0190953066409 0.938 2.17317990132e-38
0.00173593696735 0.0190953066409 0.938 2.04414105198e-38
0.00346076986028 0.0190342342316 0.935 2.05372060854e-38
0.00519115479043 0.0190342342316 0.935 2.14573280843e-38
0.00692153972057 0.0190342342316 0.935 2.2007640412e-38
0.00863341786002 0.018993519292 0.933 2.25636700375e-38
0.010360101432 0.018993519292 0.933 2.33008847518e-38
0.0120220112366 0.0188917319432 0.928 1.40860357335e-38
0.0137394414132 0.0188917319432 0.928 2.19244495261e-38
0.015406903255 0.0188306595339 0.925 1.47249885969e-38
0.0171187813945 0.0188306595339 0.925 1.99811568418e-38
0.0187899445944 0.0187899445944 0.923 1.84160059493e-38
0.0204314969292 0.0187288721851 0.92 2.11811868077e-38
0.0220860040175 0.0186881572455 0.918 2.17328513884e-38
0.0237849274034 0.0186881572455 0.918 1.98885450263e-38
0.0254838507894 0.0186881572455 0.918 1.69408296286e-38
0.02709394158 0.0186270848362 0.915 1.82265097593e-38
0.0287873129287 0.0186270848362 0.915 2.27369868355e-38
0.0304806842775 0.0186270848362 0.915 2.33912811144e-38
0.0321037298216 0.0185863698967 0.913 1.96052066807e-38
0.0337933998122 0.0185863698967 0.913 2.34781209816e-38
0.0354830698028 0.0185863698967 0.913 2.2743407585e-38
0.0370505949748 0.0185252974874 0.91 2.33894860511e-38
0.038649581691 0.0184845825479 0.908 2.34856571647e-38
0.0403299982863 0.0184845825479 0.908 2.33887797967e-38
0.041917880928 0.0184438676083 0.906 2.34813257511e-38
0.0433540078861 0.0183420802595 0.901 2.34816886874e-38
0.0450214697279 0.0183420802595 0.901 2.34809754265e-38
0.047414397765 0.0186270848362 0.915 2.34820502225e-38
0.0 0.0208756599059 0.94 2.07176653016e-38
0.00173963832549 0.0208756599059 0.94 2.10907315905e-38
0.00350148479982 0.0210089087989 0.946 2.0352520553e-38
0.00521891497647 0.0208756599059 0.94 1.97049006586e-38
0.00694374786941 0.0208312436082 0.938 2.08083839629e-38
