# .PCD v0.7 - Point Cloud Data file format
VERSION 0.7
FIELDS x y z rgb
SIZE 4 4 4 4
TYPE F F F F
COUNT 1 1 1 1
WIDTH 856
HEIGHT 1
VIEWPOINT 0 0 0 1 0 0 0
POINTS 856
DATA ascii
0.00508011404625 -0.179497362967 0.915 2.21009556794e-38
0.006773485395 -0.179497362967 0.915 2.20080355782e-38
0.00846685674374 -0.179497362967 0.915 2.19179937441e-38
0.0101602280925 -0.179497362967 0.915 2.22867552441e-38
0.0118535994412 -0.179497362967 0.915 2.22860517922e-38
0.01354697079 -0.179497362967 0.915 2.2654474178e-38
0.0152070299155 -0.179105019005 0.913 2.29321400674e-38
0.0168966999061 -0.179105019005 0.913 2.26548273052e-38
0.0185863698967 -0.179105019005 0.913 2.24707989818e-38
0.0202760398873 -0.179105019005 0.913 2.23789690908e-38
0.0219657098779 -0.179105019005 0.913 2.30232637039e-38
0.0236553798685 -0.179105019005 0.913 2.26555601843e-38
0.0253450498591 -0.179105019005 0.913 2.32087325622e-38
0.0270347198498 -0.179105019005 0.913 2.34835215858e-38
-0.0287873129287 -0.177803991619 0.915 1.79600626654e-38
-0.02709394158 -0.177803991619 0.915 9.1118255552e-39
-0.0253450498591 -0.177415349014 0.913 1.04976270598e-38
-0.0236553798685 -0.177415349014 0.913 0.0
-0.0219657098779 -0.177415349014 0.913 1.09568872172e-38
-0.020320456185 -0.177803991619 0.915 1.99897706234e-38
-0.0185863698967 -0.177415349014 0.913 2.14638693456e-38
-0.0168966999061 -0.177415349014 0.913 2.0632306607e-38
-0.0152070299155 -0.177415349014 0.913 2.09106731456e-38
-0.0134729436272 -0.176832385107 0.91 2.21981875759e-38
-0.0117888256738 -0.176832385107 0.91 1.93408615345e-38
-0.0101047077204 -0.176832385107 0.91 1.65304453604e-39
-0.008420589767 -0.176832385107 0.91 4.24896535548e-39
-0.00672166638105 -0.176443742502 0.908 3.50324616081e-44
-0.00504124978578 -0.176443742502 0.908 1.72172273429e-38
-0.00336083319052 -0.176443742502 0.908 2.34936277504e-38
-0.00168041659526 -0.176443742502 0.908 1.64784305627e-38
0.0 -0.176443742502 0.908 1.9337544661e-38
0.0016841179534 -0.176832385107 0.91 1.67557741534e-38
0.0033682359068 -0.176832385107 0.91 2.33977523107e-38
0.00506900997183 -0.177415349014 0.913 2.24700899248e-38
0.006773485395 -0.177803991619 0.915 2.24700927274e-38
0.00846685674374 -0.177803991619 0.915 2.21945722259e-38
0.0101602280925 -0.177803991619 0.915 2.21942219013e-38
0.0118535994412 -0.177803991619 0.915 2.26545064079e-38
0.01354697079 -0.177803991619 0.915 2.2380768358e-38
0.0152403421387 -0.177803991619 0.915 2.2471180135e-38
0.0168966999061 -0.177415349014 0.913 2.25633631531e-38
0.0185863698967 -0.177415349014 0.913 2.15495811674e-38
0.0202760398873 -0.177415349014 0.913 2.18258079233e-38
0.0219657098779 -0.177415349014 0.913 2.26566125594e-38
0.0235776513476 -0.176832385107 0.91 2.18275945789e-38
0.025261769301 -0.176832385107 0.91 2.25637274907e-38
0.0270347198498 -0.177415349014 0.913 2.33020141984e-38
-0.0321740556262 -0.17611062027 0.915 1.62072666981e-38
-0.0304806842775 -0.17611062027 0.915 1.61154494189e-38
-0.0287873129287 -0.17611062027 0.915 1.81444735433e-38
-0.0270347198498 -0.175725679023 0.913 8.18914338396e-39
-0.0253450498591 -0.175725679023 0.913 1.28903918318e-38
-0.0236553798685 -0.175725679023 0.913 2.75506488474e-40
-0.0219657098779 -0.175725679023 0.913 1.08642838095e-38
-0.0202760398873 -0.175725679023 0.913 2.04486258056e-38
-0.0185252974874 -0.175148267154 0.91 1.63924216655e-38
-0.016841179534 -0.175148267154 0.91 1.71307321952e-38
-0.0151570615806 -0.175148267154 0.91 1.96189001693e-38
-0.0134729436272 -0.175148267154 0.91 2.11833392021e-38
-0.0117629161668 -0.174763325907 0.908 2.34892725147e-38
-0.0100824995716 -0.174763325907 0.908 1.12280819103e-38
-0.00840208297631 -0.174763325907 0.908 4.13304153872e-39
-0.00670686094849 -0.174378384661 0.906 3.64337600724e-44
-0.00503014571137 -0.174378384661 0.906 1.63889058077e-38
-0.00335343047424 -0.174378384661 0.906 2.34911208274e-38
-0.00167671523712 -0.174378384661 0.906 2.34882047253e-38
0.0 -0.174378384661 0.906 2.04500873599e-38
0.00168041659526 -0.174763325907 0.908 1.89788781152e-38
0.00336083319052 -0.174763325907 0.908 2.34896662796e-38
0.0050523538602 -0.175148267154 0.91 2.27463096741e-38
0.00675867996244 -0.175725679023 0.913 2.19179881389e-38
0.00844834995305 -0.175725679023 0.913 2.1825792509e-38
0.0101380199437 -0.175725679023 0.913 2.21034555958e-38
0.0118276899343 -0.175725679023 0.913 2.13669821684e-38
0.0135173599249 -0.175725679023 0.913 2.11807790298e-38
0.0152070299155 -0.175725679023 0.913 2.25633743635e-38
0.0168966999061 -0.175725679023 0.913 2.1825444987e-38
0.0185863698967 -0.175725679023 0.913 2.24722311088e-38
0.0202760398873 -0.175725679023 0.913 2.22885713269e-38
0.0219657098779 -0.175725679023 0.913 2.29353840733e-38
0.0235776513476 -0.175148267154 0.91 2.16432019178e-38
0.025261769301 -0.175148267154 0.91 2.11800923936e-38
-0.0321740556262 -0.174417248921 0.915 1.62061694814e-38
-0.0304806842775 -0.174417248921 0.915 1.62069191761e-38
-0.0287243898404 -0.174036009033 0.913 1.73136366773e-38
-0.0270347198498 -0.174036009033 0.913 9.01853270864e-39
-0.025261769301 -0.1734641492 0.91 1.17844002032e-38
-0.0235776513476 -0.1734641492 0.91 5.33723476235e-39
-0.0218935333942 -0.1734641492 0.91 5.184804318e-44
-0.0202094154408 -0.1734641492 0.91 2.1140759347e-39
-0.0184845825479 -0.173082909312 0.908 1.75988976044e-38
-0.0167671523712 -0.172701669424 0.906 1.77785805013e-38
-0.0150904371341 -0.172701669424 0.906 2.2935692359e-38
-0.013413721897 -0.172701669424 0.906 2.14566372442e-38
-0.0117370066599 -0.172701669424 0.906 1.95248898579e-38
-0.0100602914227 -0.172701669424 0.906 2.11855028069e-38
-0.00838357618561 -0.172701669424 0.906 6.89703970117e-39
-0.00670686094849 -0.172701669424 0.906 1.96181785005e-44
-0.00503014571137 -0.172701669424 0.906 1.68155815719e-44
-0.00335343047424 -0.172701669424 0.906 2.3307426013e-38
-0.00167671523712 -0.172701669424 0.906 2.25655407709e-38
0.0 -0.172701669424 0.906 2.12729914752e-38
0.00167671523712 -0.172701669424 0.906 2.11894278439e-38
0.00336083319052 -0.173082909312 0.908 2.34892711134e-38
0.00504124978578 -0.173082909312 0.908 2.24736800514e-38
0.0067364718136 -0.1734641492 0.91 2.3117606123e-38
0.00844834995305 -0.174036009033 0.913 2.33959922799e-38
0.0101380199437 -0.174036009033 0.913 2.00769524074e-38
0.0118276899343 -0.174036009033 0.913 2.19205272917e-38
0.0135173599249 -0.174036009033 0.913 2.26562762478e-38
0.0152070299155 -0.174036009033 0.913 2.20109068388e-38
0.0168966999061 -0.174036009033 0.913 2.33005764661e-38
0.0185863698967 -0.174036009033 0.913 2.20098404506e-38
0.0202760398873 -0.174036009033 0.913 2.24708242051e-38
0.0219657098779 -0.174036009033 0.913 2.24708298103e-38
0.0235776513476 -0.1734641492 0.91 2.27470257377e-38
0.025261769301 -0.1734641492 0.91 2.19176378143e-38
0.0273900502311 -0.176323448363 0.925 2.19186915907e-38
0.0291019283706 -0.176323448363 0.925 2.07205337596e-38
-0.0287243898404 -0.172346339042 0.913 1.74050910203e-38
-0.0269458872544 -0.171780031247 0.91 9.38626145165e-39
-0.0251507285568 -0.171024954186 0.906 1.13219927295e-38
-0.0233962847988 -0.170458646391 0.903 1.1692944459e-38
-0.0216770039431 -0.170081107861 0.901 3.95359686258e-39
-0.0200095421013 -0.170081107861 0.901 4.7293823171e-42
-0.0183420802595 -0.170081107861 0.901 2.94272677508e-44
-0.0166746184177 -0.170081107861 0.901 1.98100933317e-38
-0.015007156576 -0.170081107861 0.901 2.11922794863e-38
-0.0133396947342 -0.170081107861 0.901 2.17451001383e-38
-0.0116722328924 -0.170081107861 0.901 1.74072616316e-38
-0.0100269791995 -0.170458646391 0.903 2.04429155143e-38
-0.00835581599956 -0.170458646391 0.903 2.34911054131e-38
-0.00668465279965 -0.170458646391 0.903 1.19386145005e-39
-0.00501348959974 -0.170458646391 0.903 6.0255833966e-44
-0.00334232639983 -0.170458646391 0.903 1.83388995013e-38
-0.00167116319991 -0.170458646391 0.903 2.34950640813e-38
0.0 -0.170458646391 0.903 2.18275707568e-38
0.00167116319991 -0.170458646391 0.903 1.63897662049e-38
0.00335343047424 -0.171024954186 0.906 1.93371733169e-38
0.00503014571137 -0.171024954186 0.906 2.34910591703e-38
0.00672166638105 -0.171402492717 0.908 1.42675739495e-38
0.008420589767 -0.171780031247 0.91 1.02978439378e-38
0.0101047077204 -0.171780031247 0.91 2.34814476641e-38
0.0111669975064 -0.162719106522 0.862 2.19205244891e-38
0.0127622828645 -0.162719106522 0.862 2.32094458231e-38
0.0143575682225 -0.162719106522 0.862 2.1272624335e-38
0.0159528535806 -0.162719106522 0.862 2.24708087909e-38
0.0185863698967 -0.172346339042 0.913 2.20109096414e-38
0.0202760398873 -0.172346339042 0.913 2.23786159636e-38
0.0222544158128 -0.174611570223 0.925 2.18261610505e-38
0.0237849274034 -0.173290185368 0.918 2.20109250556e-38
0.0254838507894 -0.173290185368 0.918 2.12729914752e-38
0.0273900502311 -0.174611570223 0.925 2.1274436214e-38
0.0291019283706 -0.174611570223 0.925 2.07219658866e-38
0.03081380651 -0.174611570223 0.925 2.13651899077e-38
-0.0287243898404 -0.170656669052 0.913 1.93426439861e-38
-0.0269458872544 -0.170095913293 0.91 7.91220196586e-39
-0.0251507285568 -0.169348238949 0.906 1.04947305759e-38
-0.0232667372639 -0.167852890261 0.898 1.27992752017e-38
-0.0216048274593 -0.167852890261 0.898 4.60110185048e-39
-0.0199429176548 -0.167852890261 0.898 2.6755299865e-39
-0.0182810078502 -0.167852890261 0.898 1.20291664073e-39
-0.0165450708829 -0.167105215917 0.894 7.14662216806e-44
-0.0148905637946 -0.167105215917 0.894 2.39571730785e-39
-0.0132360567063 -0.167105215917 0.894 3.96195420662e-39
-0.011607459125 -0.167479053089 0.896 9.4789251152e-39
-0.00994925067855 -0.167479053089 0.896 1.48219290233e-38
-0.00829104223213 -0.167479053089 0.896 1.93426636043e-38
-0.0066328337857 -0.167479053089 0.896 1.40993873053e-38
-0.00497462533928 -0.167479053089 0.896 4.06376554654e-44
-0.00331641689285 -0.167479053089 0.896 1.73108452907e-38
-0.00165820844643 -0.167479053089 0.896 2.34975429783e-38
0.0 -0.167479053089 0.896 1.80471785883e-38
0.00165820844643 -0.167479053089 0.896 1.79531710795e-38
0.00330901417657 -0.167105215917 0.894 1.90551942308e-38
0.00496352126486 -0.167105215917 0.894 2.34939556542e-38
0.00670686094849 -0.169348238949 0.906 2.33023869437e-38
0.00804120055772 -0.162432251266 0.869 1.16915837982e-38
0.00962723252043 -0.162058414094 0.867 1.80539734846e-38
0.0111669975064 -0.161123821164 0.862 2.22013895429e-38
0.0127622828645 -0.161123821164 0.862 2.25651722295e-38
0.0143575682225 -0.161123821164 0.862 2.12719180806e-38
0.0159528535806 -0.161123821164 0.862 2.072126804e-38
0.0177313561665 -0.162806088438 0.871 2.12758557293e-38
0.0192988813385 -0.162432251266 0.869 2.21027493414e-38
0.0209071214501 -0.162432251266 0.869 2.0630123384e-38
0.0225153615616 -0.162432251266 0.869 2.11825754944e-38
0.0254838507894 -0.171591261982 0.918 2.13659059712e-38
0.0271827741753 -0.171591261982 0.918 2.12747893412e-38
0.0290390052822 -0.172525854912 0.923 2.04453761944e-38
0.03081380651 -0.172899692084 0.925 2.04439566791e-38
-0.0287243898404 -0.168966999061 0.913 1.75895004969e-38
-0.0270347198498 -0.168966999061 0.913 8.46646595525e-39
-0.0246788053941 -0.164525369294 0.889 1.14184665236e-38
-0.0230335517011 -0.164525369294 0.889 1.21546695004e-38
-0.021436415664 -0.164895505108 0.891 6.62867422967e-39
-0.0198540850594 -0.165450708829 0.894 4.60587607435e-39
-0.0181995779711 -0.165450708829 0.894 3.59748208124e-39
-0.0164525369294 -0.164525369294 0.889 3.41345095522e-39
-0.0148072832364 -0.164525369294 0.889 5.62758380416e-39
-0.0131916404086 -0.164895505108 0.891 4.43228322059e-39
-0.0115426853575 -0.164895505108 0.891 4.51980832267e-39
-0.00992704252972 -0.165450708829 0.894 2.40181295617e-39
-0.00827253544143 -0.165450708829 0.894 1.94013135502e-39
-0.00661802835314 -0.165450708829 0.894 1.29620808599e-39
-0.00496352126486 -0.165450708829 0.894 4.7644147787e-44
-0.00330901417657 -0.165450708829 0.894 1.592537169e-38
-0.00165820844643 -0.165820844643 0.896 2.3489236081e-38
0.0 -0.165450708829 0.894 1.83231166767e-38
0.00164895505108 -0.164895505108 0.891 2.09042243701e-38
0.00329791010215 -0.164895505108 0.891 2.20090949599e-38
0.00494686515323 -0.164895505108 0.891 2.34885998915e-38
0.00644776587873 -0.161194146968 0.871 1.4634225094e-38
0.00804120055772 -0.160824011154 0.869 1.17808268922e-38
0.00962723252043 -0.16045387534 0.867 8.19380690525e-39
0.0112317712738 -0.16045387534 0.867 1.3903120041e-38
0.0128363100272 -0.16045387534 0.867 2.19237460743e-38
0.0144408487806 -0.16045387534 0.867 2.21077870094e-38
0.016045387534 -0.16045387534 0.867 2.23829319629e-38
0.0176499262875 -0.16045387534 0.867 2.19208776163e-38
0.0192544650409 -0.16045387534 0.867 2.20098502597e-38
0.0208590037943 -0.16045387534 0.867 2.13651744934e-38
0.0224635425477 -0.16045387534 0.867 2.16410705429e-38
0.0240680813011 -0.16045387534 0.867 2.13644654364e-38
0.0256726200545 -0.16045387534 0.867 2.07190960274e-38
0.0272771588079 -0.16045387534 0.867 2.16432019178e-38
0.03081380651 -0.171187813945 0.925 2.33942070256e-38
0.0326311733564 -0.171743017665 0.928 2.34871299294e-38
-0.0246788053941 -0.162880115601 0.889 1.07631198695e-38
-0.0229817326872 -0.162513681145 0.887 1.11426461442e-38
-0.0213401803524 -0.162513681145 0.887 1.16943723821e-38
-0.0197874606129 -0.163246550057 0.891 5.70572020653e-39
-0.0180977906223 -0.162880115601 0.889 3.23085756142e-39
-0.0164525369294 -0.162880115601 0.889 4.79890213521e-39
-0.0148072832364 -0.162880115601 0.889 6.8261115781e-39
-0.0131620295435 -0.162880115601 0.889 6.08929062868e-39
-0.0115167758506 -0.162880115601 0.889 5.99600058472e-39
-0.00989373030646 -0.163246550057 0.891 5.5350196328e-39
-0.00824477525538 -0.163246550057 0.891 4.98256471974e-39
-0.00659582020431 -0.163246550057 0.891 5.53287424485e-39
-0.00494686515323 -0.163246550057 0.891 4.33433105663e-39
-0.00329791010215 -0.163246550057 0.891 3.36311631438e-44
-0.00164895505108 -0.163246550057 0.891 1.95281086405e-38
0.0 -0.163246550057 0.891 2.28432066604e-38
0.00164525369294 -0.162880115601 0.889 2.27474181012e-38
0.0032831046696 -0.162513681145 0.887 2.21063450733e-38
0.00489689681835 -0.161597595006 0.882 9.6614218194e-39
0.00644776587873 -0.159582205499 0.871 2.07236656617e-38
0.00804120055772 -0.159215771043 0.869 1.14166588485e-38
0.00964944066926 -0.159215771043 0.869 1.25216569565e-38
0.0112317712738 -0.158849336587 0.867 1.41829705548e-38
0.0128363100272 -0.158849336587 0.867 1.2243953232e-38
0.0144408487806 -0.158849336587 0.867 1.41772028103e-38
0.015989867162 -0.158299684903 0.864 1.76759746251e-38
0.0175888538782 -0.158299684903 0.864 2.13691107408e-38
0.0191878405943 -0.158299684903 0.864 2.22918321484e-38
0.0207868273105 -0.158299684903 0.864 2.11847559148e-38
0.0223858140267 -0.158299684903 0.864 2.1279108143e-38
0.0240680813011 -0.158849336587 0.867 2.21077870094e-38
0.0255837874591 -0.158299684903 0.864 2.24772954015e-38
0.0271827741753 -0.158299684903 0.864 2.0080918082e-38
0.0288816975613 -0.158849336587 0.867 1.92504091199e-38
0.0304862363147 -0.158849336587 0.867 1.93382733362e-38
-0.0228521851523 -0.159965296066 0.882 1.17894378712e-38
-0.0212198862128 -0.159965296066 0.882 1.24305277148e-38
-0.0196986280176 -0.16087212881 0.887 7.34683969264e-40
-0.0180977906223 -0.161234861908 0.889 1.93862636047e-39
-0.016415523348 -0.16087212881 0.887 3.04574323169e-39
-0.0147739710132 -0.16087212881 0.887 6.45660598864e-39
-0.0131324186784 -0.16087212881 0.887 8.11289733322e-39
-0.0114908663436 -0.16087212881 0.887 7.18984942308e-39
-0.00984931400879 -0.16087212881 0.887 6.17894430313e-39
-0.00822626846469 -0.161234861908 0.889 5.16696298595e-39
-0.00658101477175 -0.161234861908 0.889 4.89001596266e-39
-0.00493576107881 -0.161234861908 0.889 5.81053032517e-39
-0.00329050738588 -0.161234861908 0.889 5.04467447157e-44
-0.00164525369294 -0.161234861908 0.889 1.30823388928e-38
0.0 -0.16087212881 0.887 2.34925235272e-38
0.0016415523348 -0.16087212881 0.887 2.15506531608e-38
0.0032645978789 -0.159965296066 0.882 1.89731552122e-38
0.00488579274393 -0.159602562968 0.88 1.0680968747e-38
0.00647737674385 -0.158695730224 0.875 1.9343718782e-38
0.00805970734842 -0.157970264029 0.871 1.473357155e-38
0.00964944066926 -0.157607530931 0.869 1.36275911318e-38
0.0112576807808 -0.157607530931 0.869 1.37212511186e-38
0.0128363100272 -0.157244797834 0.867 1.51013297202e-38
0.0143908804458 -0.156700698187 0.864 1.40896791095e-38
0.015989867162 -0.156700698187 0.864 1.4827594473e-38
0.0175888538782 -0.156700698187 0.864 1.29825874617e-38
0.0191434242967 -0.15633796509 0.862 1.51927686489e-38
0.0207387096547 -0.15633796509 0.862 1.43626548529e-38
0.0223858140267 -0.156700698187 0.864 1.52864076162e-38
0.0239848007429 -0.156700698187 0.864 1.5283871266e-38
0.0255837874591 -0.156700698187 0.864 1.76798982608e-38
0.0271827741753 -0.156700698187 0.864 1.39953128683e-38
0.0287817608915 -0.156700698187 0.864 1.59325071018e-38
0.0304862363147 -0.157244797834 0.867 1.89728048876e-38
-0.0228521851523 -0.158332997127 0.882 1.16983352542e-38
-0.0212198862128 -0.158332997127 0.882 1.3076935486e-38
-0.0195875872734 -0.158332997127 0.882 6.99780567244e-39
-0.0180163607432 -0.158871544736 0.885 3.50206206361e-39
-0.0163785097666 -0.158871544736 0.885 4.15175027452e-39
-0.014690690455 -0.158332997127 0.882 3.78332228358e-39
-0.0130287806505 -0.157973965387 0.88 7.92922213701e-39
-0.0114001830692 -0.157973965387 0.88 7.46609019195e-39
-0.00982710585995 -0.158871544736 0.885 6.54592895665e-39
-0.00818925488329 -0.158871544736 0.885 5.99384538768e-39
-0.00655140390664 -0.158871544736 0.885 4.7978203328e-39
-0.00492465700439 -0.159230576475 0.887 5.4406744111e-39
-0.0032831046696 -0.159230576475 0.887 2.38220738935e-44
-0.0016415523348 -0.159230576475 0.887 1.41798638761e-38
0.0 -0.158871544736 0.885 2.34932143673e-38
0.00163785097666 -0.158871544736 0.885 2.21985196837e-38
0.00325719516262 -0.157973965387 0.88 1.2058527814e-38
0.00487468866951 -0.157614933648 0.878 1.12308354618e-38
0.00647737674385 -0.157076386038 0.875 1.34421404904e-38
0.00805970734842 -0.156358322559 0.871 1.40885678798e-38
0.00964944066926 -0.15599929082 0.869 1.28925428249e-38
0.0112317712738 -0.15564025908 0.867 1.48265280849e-38
0.0128363100272 -0.15564025908 0.867 1.47346771744e-38
0.0143908804458 -0.155101711471 0.864 1.43669736548e-38
0.0159528535806 -0.154742679731 0.862 1.56552069512e-38
0.0175481389386 -0.154742679731 0.862 1.52889201444e-38
0.0191434242967 -0.154742679731 0.862 1.56577152755e-38
0.0207387096547 -0.154742679731 0.862 1.53800493861e-38
0.0223339950128 -0.154742679731 0.862 1.53800465835e-38
0.0239292803708 -0.154742679731 0.862 1.62994497163e-38
0.0255245657289 -0.154742679731 0.862 1.72217969772e-38
0.027119851087 -0.154742679731 0.862 1.59310679682e-38
0.028715136445 -0.154742679731 0.862 1.59335861016e-38
0.0303807476077 -0.155101711471 0.864 1.80512045188e-38
-0.0228003661383 -0.156345367806 0.88 1.09622023423e-38
-0.021171768557 -0.156345367806 0.88 1.29840518185e-38
-0.0195431709757 -0.156345367806 0.88 5.89291966838e-39
-0.0179145733944 -0.156345367806 0.88 2.12344361493e-39
-0.0162489622317 -0.155990037424 0.878 2.49762113347e-39
-0.0146240660085 -0.155990037424 0.878 3.60324982572e-39
-0.0129547534877 -0.155457041852 0.875 7.2863806704e-39
-0.0113354093017 -0.155457041852 0.875 8.20580202011e-39
-0.00974937733903 -0.155990037424 0.878 6.36153629563e-39
-0.00816149469725 -0.156700698187 0.882 5.99384819028e-39
-0.0065291957578 -0.156700698187 0.882 5.44102473571e-39
-0.00489689681835 -0.156700698187 0.882 4.79782593799e-39
-0.0032645978789 -0.156700698187 0.882 4.20389539297e-44
-0.00163229893945 -0.156700698187 0.882 1.51943521162e-38
0.0 -0.156700698187 0.882 2.23836536316e-38
0.00163229893945 -0.156700698187 0.882 2.081560065e-38
0.00325719516262 -0.156345367806 0.88 1.51913617453e-38
0.00487468866951 -0.155990037424 0.878 1.22442545112e-38
0.00647737674385 -0.155457041852 0.875 1.29783106987e-38
0.00805970734842 -0.15474638109 0.871 1.05841039906e-38
0.00964944066926 -0.154391050708 0.869 1.22446973215e-38
0.0112317712738 -0.154035720327 0.867 1.29811833606e-38
0.0128363100272 -0.154035720327 0.867 1.4090756708e-38
0.0143908804458 -0.153502724755 0.864 1.46432060159e-38
0.0159528535806 -0.153147394373 0.862 1.57481228485e-38
0.0175481389386 -0.153147394373 0.862 1.51956553238e-38
0.0191434242967 -0.153147394373 0.862 1.62098156601e-38
0.0207387096547 -0.153147394373 0.862 1.52878691705e-38
0.0223339950128 -0.153147394373 0.862 1.62076590617e-38
0.0239292803708 -0.153147394373 0.862 1.6576074441e-38
0.0255245657289 -0.153147394373 0.862 1.75923563431e-38
0.027119851087 -0.153147394373 0.862 1.61150962917e-38
0.028715136445 -0.153147394373 0.862 1.62998322708e-38
0.0303807476077 -0.153502724755 0.864 1.60203839298e-38
-0.0228003661383 -0.154716770224 0.88 1.09625652786e-38
-0.0211236509012 -0.154365141201 0.878 1.24301353512e-38
-0.0194987546781 -0.154365141201 0.878 5.1560608839e-39
-0.0178127860456 -0.153837697666 0.875 2.58585108868e-39
-0.0161934418596 -0.153837697666 0.875 2.86568058292e-39
-0.0145407854504 -0.153486068643 0.873 4.05955464466e-39
-0.0129251426226 -0.153486068643 0.873 5.81451281541e-39
-0.0113094997948 -0.153486068643 0.873 8.02320582371e-39
-0.00969385696694 -0.153486068643 0.873 7.9288690098e-39
-0.00809672092981 -0.153837697666 0.875 5.71546343476e-39
-0.00647737674385 -0.153837697666 0.875 5.71546623735e-39
-0.00487468866951 -0.154365141201 0.878 5.34847878123e-39
-0.00325719516262 -0.154716770224 0.88 1.66317172004e-39
-0.00162859758131 -0.154716770224 0.88 9.11664462062e-39
0.0 -0.154716770224 0.88 2.25680897329e-38
0.00162859758131 -0.154716770224 0.88 2.13680541618e-38
0.00324979244634 -0.154365141201 0.878 1.79571928061e-38
0.00485803255789 -0.153837697666 0.875 1.22403210664e-38
0.00646257131129 -0.153486068643 0.873 1.44508862095e-38
0.00805970734842 -0.15313443962 0.871 1.03082387698e-38
0.00964944066926 -0.152782810597 0.869 1.10478861382e-38
0.0112317712738 -0.152431181573 0.867 1.30755285823e-38
0.0127918937296 -0.151903738039 0.864 1.41818747394e-38
0.0143908804458 -0.151903738039 0.864 1.41818719368e-38
0.0159528535806 -0.151552109015 0.862 1.51953021966e-38
0.0175481389386 -0.151552109015 0.862 1.51027422291e-38
0.0191434242967 -0.151552109015 0.862 1.66689917395e-38
0.0207387096547 -0.151552109015 0.862 1.61161668837e-38
0.0223339950128 -0.151552109015 0.862 1.66682700708e-38
0.0239292803708 -0.151552109015 0.862 1.61150962917e-38
0.0255245657289 -0.151552109015 0.862 1.67622551588e-38
0.027119851087 -0.151552109015 0.862 1.74061854344e-38
0.0287817608915 -0.151903738039 0.864 1.7312898193e-38
0.0303807476077 -0.151903738039 0.864 1.93393999802e-38
0.0321648022309 -0.152782810597 0.869 2.34864320827e-38
0.0337730423424 -0.152782810597 0.869 2.32087465752e-38
-0.0210033567617 -0.151870425815 0.873 1.24312311666e-38
-0.0193877139339 -0.151870425815 0.873 3.12850532029e-39
-0.0177720711061 -0.151870425815 0.873 3.41452014595e-39
-0.0161564282782 -0.151870425815 0.873 3.69183150684e-39
-0.0145407854504 -0.151870425815 0.873 3.97202253608e-39
-0.0128955317575 -0.15152249815 0.871 5.44284221982e-39
-0.0112835902878 -0.15152249815 0.871 6.91687788353e-39
-0.00969385696694 -0.151870425815 0.873 7.4693327966e-39
-0.00807821413911 -0.151870425815 0.873 8.11181553081e-39
-0.00646257131129 -0.151870425815 0.873 6.91326533609e-39
-0.00485803255789 -0.15221835348 0.875 5.80836391775e-39
-0.00324979244634 -0.152740244978 0.878 4.15245372635e-39
-0.00162489622317 -0.152740244978 0.878 2.94272677508e-44
0.0 -0.152740244978 0.878 1.94359704638e-38
0.00162489622317 -0.152740244978 0.878 1.98936555618e-38
0.00324979244634 -0.152740244978 0.878 1.81408581932e-38
0.00485803255789 -0.15221835348 0.875 1.63902160218e-38
0.00644776587873 -0.15152249815 0.871 1.49129181352e-38
0.00804120055772 -0.151174570485 0.869 1.24279717464e-38
0.00962723252043 -0.15082664282 0.867 1.11369344517e-38
0.0112317712738 -0.15082664282 0.867 1.27049846307e-38
0.0127918937296 -0.150304751322 0.864 1.36290554887e-38
0.0143908804458 -0.150304751322 0.864 1.39049193083e-38
0.0159528535806 -0.149956823657 0.862 1.51945889356e-38
0.0175481389386 -0.149956823657 0.862 1.52871348901e-38
0.0191434242967 -0.149956823657 0.862 1.6023267802e-38
0.0207387096547 -0.149956823657 0.862 1.64835256839e-38
0.0223339950128 -0.149956823657 0.862 1.6668623198e-38
0.0239292803708 -0.149956823657 0.862 1.77735428333e-38
0.0255245657289 -0.149956823657 0.862 1.79593620161e-38
0.027119851087 -0.149956823657 0.862 1.77753154758e-38
0.0287817608915 -0.150304751322 0.864 2.00765964776e-38
0.0304862363147 -0.15082664282 0.867 2.33931406375e-38
0.0321648022309 -0.151174570485 0.869 2.34881795019e-38
0.0337730423424 -0.151174570485 0.869 2.31168872569e-38
0.035381282454 -0.151174570485 0.869 2.24704584662e-38
-0.0209552391059 -0.149910556681 0.871 1.27077956354e-38
-0.0193432976362 -0.149910556681 0.871 3.67987702964e-39
-0.0177313561665 -0.149910556681 0.871 3.87262703471e-39
-0.0161194146968 -0.149910556681 0.871 3.69219584444e-39
-0.0145074732272 -0.149910556681 0.871 3.41920748931e-39
-0.0128955317575 -0.149910556681 0.871 4.1564222036e-39
-0.0112835902878 -0.149910556681 0.871 5.62686493805e-39
-0.0096716488181 -0.149910556681 0.871 6.63994207062e-39
-0.00805970734842 -0.149910556681 0.871 8.38984015262e-39
-0.00644776587873 -0.149910556681 0.871 8.11290013582e-39
-0.00484692848347 -0.150254782988 0.873 5.16444485261e-39
-0.00323128565565 -0.150254782988 0.873 4.97969766308e-39
-0.00161934418596 -0.150599009294 0.875 3.36311631438e-44
0.0 -0.150599009294 0.875 1.49177021682e-38
0.00161934418596 -0.150599009294 0.875 2.19237488769e-38
0.00323868837192 -0.150599009294 0.875 2.02620218956e-38
0.00483582440905 -0.149910556681 0.871 1.67582754712e-38
0.00643296044618 -0.149566330374 0.869 1.3988813646e-38
0.00802269376702 -0.149222104067 0.867 1.52856985592e-38
0.00959392029717 -0.148705764606 0.864 1.50090612229e-38
0.0111929070134 -0.148705764606 0.864 1.26109112609e-38
0.0127918937296 -0.148705764606 0.864 1.29804252581e-38
0.0143908804458 -0.148705764606 0.864 1.38101999399e-38
0.0159528535806 -0.148361538299 0.862 1.46396313035e-38
0.0175481389386 -0.148361538299 0.862 1.54701094371e-38
0.0191434242967 -0.148361538299 0.862 1.63938481874e-38
0.0207387096547 -0.148361538299 0.862 1.68533844006e-38
0.0223858140267 -0.148705764606 0.864 1.74958797465e-38
0.0239848007429 -0.148705764606 0.864 1.78650153931e-38
0.0255837874591 -0.148705764606 0.864 1.80487060036e-38
0.0271827741753 -0.148705764606 0.864 2.01684642036e-38
0.0288816975613 -0.149222104067 0.867 2.29343078761e-38
0.0305565621193 -0.149566330374 0.869 2.29343330995e-38
0.0322388293937 -0.149910556681 0.871 2.14580861868e-38
0.0337730423424 -0.149566330374 0.869 2.20101879727e-38
0.035381282454 -0.149566330374 0.869 2.17335996818e-38
-0.0209071214501 -0.147958090262 0.869 1.1974899723e-38
-0.0192988813385 -0.147958090262 0.869 4.51034255154e-39
-0.017690641227 -0.147958090262 0.869 3.87442209804e-39
-0.0160824011154 -0.147958090262 0.869 4.05990496927e-39
-0.0144741610039 -0.147958090262 0.869 3.97167221147e-39
-0.0128659208924 -0.147958090262 0.869 4.34081206203e-39
-0.0112576807808 -0.147958090262 0.869 4.34116518924e-39
-0.00964944066926 -0.147958090262 0.869 4.79782593799e-39
-0.00804120055772 -0.147958090262 0.869 6.18038904185e-39
-0.00643296044618 -0.147958090262 0.869 7.65514357167e-39
-0.00483582440905 -0.148298615211 0.871 8.20902080268e-39
-0.00322388293937 -0.148298615211 0.871 7.46893763043e-39
-0.00161194146968 -0.148298615211 0.871 4.7644147787e-44
0.0 -0.14863914016 0.873 1.38095819673e-38
0.00161564282782 -0.14863914016 0.873 2.34939276282e-38
0.00322388293937 -0.148298615211 0.871 2.17346506556e-38
0.00482472033463 -0.147958090262 0.869 2.0626545869e-38
0.00641815501362 -0.147617565313 0.867 1.80468478819e-38
0.00799493358098 -0.14710677789 0.864 1.70334372403e-38
0.00959392029717 -0.14710677789 0.864 1.80479450986e-38
0.0111929070134 -0.14710677789 0.864 1.73125422632e-38
0.0127918937296 -0.14710677789 0.864 1.72214284357e-38
0.0143908804458 -0.14710677789 0.864 1.71284999268e-38
0.0159528535806 -0.146766252941 0.862 1.60207048271e-38
0.0175481389386 -0.146766252941 0.862 1.51888183886e-38
0.0191434242967 -0.146766252941 0.862 1.70313058653e-38
0.0207868273105 -0.14710677789 0.864 1.72174753728e-38
0.0223858140267 -0.14710677789 0.864 1.85990183313e-38
0.0239848007429 -0.14710677789 0.864 2.02595612155e-38
0.0255837874591 -0.14710677789 0.864 2.04457321242e-38
0.0271827741753 -0.14710677789 0.864 2.07233882046e-38
0.0288816975613 -0.147617565313 0.867 2.0445726519e-38
0.0305565621193 -0.147958090262 0.869 2.13680541618e-38
0.0322388293937 -0.148298615211 0.871 2.06297702567e-38
0.0337730423424 -0.147958090262 0.869 2.33012953322e-38
0.035381282454 -0.147958090262 0.869 2.12704705393e-38
-0.0209071214501 -0.146349850151 0.869 1.27107523752e-38
-0.0192988813385 -0.146349850151 0.869 5.89110919077e-39
-0.017690641227 -0.146349850151 0.869 4.42507774388e-39
-0.0160824011154 -0.146349850151 0.869 3.97202253608e-39
-0.0144408487806 -0.14601302656 0.867 4.24897096068e-39
-0.0128363100272 -0.14601302656 0.867 3.78800962694e-39
-0.0112317712738 -0.14601302656 0.867 4.15677252822e-39
-0.00962723252043 -0.14601302656 0.867 4.15712005024e-39
-0.00804120055772 -0.146349850151 0.869 4.15677252822e-39
-0.00643296044618 -0.146349850151 0.869 4.43300769189e-39
-0.00482472033463 -0.146349850151 0.869 6.18039184444e-39
-0.00321648022309 -0.146349850151 0.869 8.02320582371e-39
-0.00160824011154 -0.146349850151 0.869 5.80871704496e-39
0.0 -0.14601302656 0.867 9.48361245856e-39
0.0016045387534 -0.14601302656 0.867 2.34982604431e-38
0.00319797343239 -0.145507791174 0.864 2.3393509179e-38
0.00479696014859 -0.145507791174 0.864 2.32058781172e-38
0.00639594686478 -0.145507791174 0.864 2.0625085716e-38
0.00799493358098 -0.145507791174 0.864 2.26548273052e-38
0.00959392029717 -0.145507791174 0.864 2.08134328413e-38
0.0111929070134 -0.145507791174 0.864 1.74958250958e-38
0.0127918937296 -0.145507791174 0.864 1.81364833394e-38
0.0143908804458 -0.145507791174 0.864 2.0997073005e-38
0.0159528535806 -0.145170967583 0.862 2.21063646915e-38
0.0175481389386 -0.145170967583 0.862 2.00791356304e-38
0.0191878405943 -0.145507791174 0.864 2.0538669041e-38
0.0207868273105 -0.145507791174 0.864 2.05393696902e-38
0.0223858140267 -0.145507791174 0.864 2.05383201177e-38
0.0239848007429 -0.145507791174 0.864 2.17372318474e-38
0.0255837874591 -0.145507791174 0.864 2.08174041211e-38
0.0272771588079 -0.14601302656 0.867 1.89767159116e-38
0.0288816975613 -0.14601302656 0.867 1.8145542734e-38
0.0304862363147 -0.14601302656 0.867 2.07284272738e-38
0.0320907750681 -0.14601302656 0.867 2.10068316475e-38
0.0335787210401 -0.145507791174 0.864 2.16522038592e-38
0.0351777077563 -0.145507791174 0.864 2.09142828905e-38
0.0367766944725 -0.145507791174 0.864 2.14674398541e-38
0.038198015998 -0.144834143992 0.86 1.87004961622e-38
0.0397895999979 -0.144834143992 0.86 1.89695384609e-38
-0.0176499262875 -0.144408487806 0.867 5.15832958612e-39
-0.016045387534 -0.144408487806 0.867 4.71029663201e-39
-0.0144408487806 -0.144408487806 0.867 4.25112055252e-39
-0.0127918937296 -0.143908804458 0.864 3.97417913442e-39
-0.0111929070134 -0.143908804458 0.864 4.25112055252e-39
-0.00962723252043 -0.144408487806 0.867 3.60539521367e-39
-0.00802269376702 -0.144408487806 0.867 3.78799421266e-39
-0.00641815501362 -0.144408487806 0.867 5.07800015165e-39
-0.00479696014859 -0.143908804458 0.864 5.44354286905e-39
-0.00319797343239 -0.143908804458 0.864 3.97202533868e-39
-0.0015989867162 -0.143908804458 0.864 4.70852118686e-39
0.0 -0.143575682225 0.862 3.77935941152e-39
0.00159528535806 -0.143575682225 0.862 2.28518414615e-38
0.00319057071611 -0.143575682225 0.862 2.29346862267e-38
0.00478585607417 -0.143575682225 0.862 2.33931378349e-38
0.00638114143223 -0.143575682225 0.862 2.13677066397e-38
0.00797642679028 -0.143575682225 0.862 2.27509928136e-38
0.00957171214834 -0.143575682225 0.862 2.34907144509e-38
0.0111669975064 -0.143575682225 0.862 1.42730011785e-38
0.0127622828645 -0.143575682225 0.862 1.58439394336e-38
0.0143908804458 -0.143908804458 0.864 1.43684562286e-38
0.0159528535806 -0.143575682225 0.862 1.39071277547e-38
0.0175481389386 -0.143575682225 0.862 1.36287458017e-38
0.0191878405943 -0.143908804458 0.864 1.20618082537e-38
0.0207868273105 -0.143908804458 0.864 1.25249542118e-38
0.0223858140267 -0.143908804458 0.864 1.09572823834e-38
0.0239292803708 -0.143575682225 0.862 9.85167190801e-39
0.0255245657289 -0.143575682225 0.862 1.06825031688e-38
0.0272771588079 -0.144408487806 0.867 9.48395998058e-39
0.0288816975613 -0.144408487806 0.867 8.83860598582e-39
0.0303807476077 -0.143908804458 0.864 7.36562970375e-39
0.0319797343239 -0.143908804458 0.864 5.89192895037e-39
0.0335009925192 -0.143575682225 0.862 5.06290536459e-39
0.0350962778772 -0.143575682225 0.862 3.12861322027e-39
0.0366915632353 -0.143575682225 0.862 8.12753109308e-44
0.038198015998 -0.143242559993 0.86 1.65723063494e-38
0.0397895999979 -0.143242559993 0.86 1.8325249453e-38
-0.0175481389386 -0.141980396867 0.862 2.11221641163e-39
-0.0159528535806 -0.141980396867 0.862 2.67269515971e-39
-0.0143575682225 -0.141980396867 0.862 3.32665592964e-39
-0.0127622828645 -0.141980396867 0.862 3.05042356856e-39
-0.0111669975064 -0.141980396867 0.862 3.32700905685e-39
-0.00957171214834 -0.141980396867 0.862 3.32700625425e-39
-0.00799493358098 -0.142309817741 0.864 4.15280685356e-39
-0.00639594686478 -0.142309817741 0.864 3.78402573541e-39
-0.00478585607417 -0.141980396867 0.862 3.78367260819e-39
-0.00319057071611 -0.141980396867 0.862 3.50673119009e-39
-0.00159528535806 -0.141980396867 0.862 3.69147557703e-39
0.0 -0.141980396867 0.862 4.34402523941e-44
0.00159528535806 -0.141980396867 0.862 1.83367891458e-38
0.00319057071611 -0.141980396867 0.862 1.89749376639e-38
0.00478585607417 -0.141980396867 0.862 1.88762554234e-38
0.00638114143223 -0.141980396867 0.862 1.73118261997e-38
0.00797642679028 -0.141980396867 0.862 1.77731476671e-38
0.00957171214834 -0.141980396867 0.862 2.03546463228e-38
0.0111669975064 -0.141980396867 0.862 1.37753244237e-39
0.0127622828645 -0.141980396867 0.862 6.0255833966e-44
0.0143575682225 -0.141980396867 0.862 8.12753109308e-44
0.0159528535806 -0.141980396867 0.862 4.40007717798e-43
0.0175481389386 -0.141980396867 0.862 2.23787364753e-42
0.0191878405943 -0.142309817741 0.864 2.96795014744e-42
0.0207868273105 -0.142309817741 0.864 2.95814105819e-42
0.0223858140267 -0.142309817741 0.864 5.84061199931e-42
0.0239292803708 -0.141980396867 0.862 9.4349425603e-42
0.0255245657289 -0.141980396867 0.862 9.06780236265e-42
0.0271827741753 -0.142309817741 0.864 9.7922736687e-42
0.0287817608915 -0.142309817741 0.864 9.43213996337e-42
0.0303104218031 -0.141980396867 0.862 9.26717910815e-40
0.0319057071611 -0.141980396867 0.862 1.38697439142e-39
0.0335009925192 -0.141980396867 0.862 1.57172158096e-39
0.0350962778772 -0.141980396867 0.862 1.85952306216e-42
0.0366915632353 -0.141980396867 0.862 4.34402523941e-44
0.0381091834027 -0.141321555118 0.858 1.86037322994e-38
0.0396970660444 -0.141321555118 0.858 1.90584592562e-38
0.0412849486862 -0.141321555118 0.858 1.92345562304e-38
0.042872831328 -0.141321555118 0.858 1.92327541605e-38
-0.019099007999 -0.140059391993 0.86 1.75002153639e-38
-0.0175074239991 -0.140059391993 0.86 1.69484919286e-38
-0.0159158399992 -0.140059391993 0.86 9.1835496158e-40
-0.0143242559993 -0.140059391993 0.86 2.21240504794e-39
-0.0127622828645 -0.140385111509 0.862 1.39234977233e-39
-0.0111669975064 -0.140385111509 0.862 1.94013415762e-39
-0.00957171214834 -0.140385111509 0.862 2.21672244851e-39
-0.00797642679028 -0.140385111509 0.862 1.84793852775e-39
-0.00638114143223 -0.140385111509 0.862 1.208331258e-39
-0.00478585607417 -0.140385111509 0.862 2.03197385767e-39
-0.00319057071611 -0.140385111509 0.862 2.03197385767e-39
-0.00159528535806 -0.140385111509 0.862 1.84758540054e-39
0.0 -0.140059391993 0.86 4.90454462514e-44
0.00159158399992 -0.140059391993 0.86 1.80602218744e-38
0.00318316799983 -0.140059391993 0.86 1.78693313924e-38
0.00477475199975 -0.140059391993 0.86 1.88773694557e-38
0.00638114143223 -0.140385111509 0.862 1.685228298e-38
0.00797642679028 -0.140385111509 0.862 1.72224822122e-38
0.00957171214834 -0.140385111509 0.862 2.00805789678e-38
0.0111669975064 -0.140385111509 0.862 7.34683969264e-40
0.0127622828645 -0.140385111509 0.862 2.30893909785e-39
0.0143575682225 -0.140385111509 0.862 3.13615360731e-39
0.0159528535806 -0.140385111509 0.862 2.67840264835e-39
0.0175481389386 -0.140385111509 0.862 2.58477909535e-39
0.0191434242967 -0.140385111509 0.862 2.58585389128e-39
0.0207387096547 -0.140385111509 0.862 3.13795287453e-39
0.0223339950128 -0.140385111509 0.862 2.76916895378e-39
0.0239292803708 -0.140385111509 0.862 2.95356301611e-39
0.0255245657289 -0.140385111509 0.862 1.66929259173e-39
0.027119851087 -0.140385111509 0.862 2.12991761384e-39
0.028715136445 -0.140385111509 0.862 2.58585389128e-39
0.0303104218031 -0.140385111509 0.862 2.58620701849e-39
0.0319057071611 -0.140385111509 0.862 3.04574323169e-39
0.0335009925192 -0.140385111509 0.862 1.873353878e-40
0.0350148479982 -0.140059391993 0.86 1.47015546826e-39
0.0366064319981 -0.140059391993 0.86 1.58439548479e-38
0.0381091834027 -0.139733672476 0.858 2.0815290963e-38
0.0396970660444 -0.139733672476 0.858 2.09933988005e-38
0.0412849486862 -0.139733672476 0.858 1.99749504909e-38
0.042872831328 -0.139733672476 0.858 2.13560702573e-38
-0.019099007999 -0.138467807993 0.86 1.56573593457e-38
-0.0175074239991 -0.138467807993 0.86 1.8330658465e-38
-0.0159158399992 -0.138467807993 0.86 1.71300063226e-38
-0.0143242559993 -0.138467807993 0.86 1.744874427e-39
-0.0127326719993 -0.138467807993 0.86 2.48717445342e-39
-0.0111410879994 -0.138467807993 0.86 1.39234977233e-39
-0.0095495039995 -0.138467807993 0.86 1.48454540219e-39
-0.00797642679028 -0.138789826151 0.862 1.02535811232e-39
-0.00638114143223 -0.138789826151 0.862 1.57674103206e-39
-0.00478585607417 -0.138789826151 0.862 1.39199664512e-39
-0.00319057071611 -0.138789826151 0.862 1.30123314229e-39
-0.00159158399992 -0.138467807993 0.86 2.21707557572e-39
0.0 -0.138467807993 0.86 4.7644147787e-44
0.00159158399992 -0.138467807993 0.86 1.84232856948e-38
0.00318316799983 -0.138467807993 0.86 1.76842198653e-38
0.00477475199975 -0.138467807993 0.86 1.80493940412e-38
0.00638114143223 -0.138789826151 0.862 1.7497652389e-38
0.00797642679028 -0.138789826151 0.862 1.71288950929e-38
0.00957171214834 -0.138789826151 0.862 2.10940078263e-38
0.0111669975064 -0.138789826151 0.862 9.1835496158e-40
0.0127622828645 -0.138789826151 0.862 2.58516585373e-39
0.0143575682225 -0.138789826151 0.862 2.67840264835e-39
0.0159528535806 -0.138789826151 0.862 2.58585389128e-39
0.0175481389386 -0.138789826151 0.862 2.49365545882e-39
0.0191434242967 -0.138789826151 0.862 2.67840264835e-39
0.0207387096547 -0.138789826151 0.862 2.58585389128e-39
0.0223339950128 -0.138789826151 0.862 1.48526426831e-39
0.0239292803708 -0.138789826151 0.862 1.30015274117e-39
0.0255245657289 -0.138789826151 0.862 1.02535811232e-39
0.027119851087 -0.138789826151 0.862 1.57674103206e-39
0.028715136445 -0.138789826151 0.862 1.85296778794e-39
0.0303104218031 -0.138789826151 0.862 2.86244218217e-39
0.0319057071611 -0.138789826151 0.862 1.873353878e-40
0.0335009925192 -0.138789826151 0.862 4.04836527642e-39
0.0350148479982 -0.138467807993 0.86 1.82385272949e-38
0.0366064319981 -0.138467807993 0.86 1.64878444858e-38
0.0381091834027 -0.138145789835 0.858 2.00733790963e-38
0.0396970660444 -0.138145789835 0.858 1.94225348142e-38
0.0412849486862 -0.138145789835 0.858 1.79387727378e-38
0.042872831328 -0.138145789835 0.858 2.12556321899e-38
-0.019099007999 -0.136876223993 0.86 1.57492046509e-38
-0.0175074239991 -0.136876223993 0.86 1.71314160289e-38
-0.0159158399992 -0.136876223993 0.86 1.75902011461e-38
-0.0143242559993 -0.136876223993 0.86 1.76849387314e-38
-0.0127326719993 -0.136876223993 0.86 2.57139389242e-39
-0.0111410879994 -0.136876223993 0.86 2.11839333526e-39
-0.0095495039995 -0.136876223993 0.86 2.77095140543e-39
-0.00795791999959 -0.136876223993 0.86 2.49365545882e-39
-0.00636633599967 -0.136876223993 0.86 1.48489852941e-39
-0.00477475199975 -0.136876223993 0.86 1.57745989817e-39
-0.00318316799983 -0.136876223993 0.86 1.39234977233e-39
-0.00159158399992 -0.136876223993 0.86 2.40145982895e-39
0.0 -0.136876223993 0.86 4.06376554654e-44
0.00159158399992 -0.136876223993 0.86 1.906937397e-38
0.00318316799983 -0.136876223993 0.86 1.823668739e-38
0.00477475199975 -0.136876223993 0.86 1.84199660188e-38
0.00636633599967 -0.136876223993 0.86 1.72217969772e-38
0.00795791999959 -0.136876223993 0.86 1.75898676371e-38
0.0095495039995 -0.136876223993 0.86 2.02649884444e-38
0.0111410879994 -0.136876223993 0.86 9.1835496158e-40
0.0127326719993 -0.136876223993 0.86 2.40220391844e-39
0.0143575682225 -0.137194540793 0.862 2.58691047032e-39
0.0159528535806 -0.137194540793 0.862 1.66928978913e-39
0.0175481389386 -0.137194540793 0.862 2.67840264835e-39
0.0191434242967 -0.137194540793 0.862 2.77059827822e-39
0.0207387096547 -0.137194540793 0.862 2.86100865384e-39
0.0223339950128 -0.137194540793 0.862 2.58550076406e-39
0.0239292803708 -0.137194540793 0.862 1.94445015689e-39
0.0255245657289 -0.137194540793 0.862 1.57709696187e-39
0.027119851087 -0.137194540793 0.862 1.66964291635e-39
0.028715136445 -0.137194540793 0.862 2.40288915339e-39
0.0303104218031 -0.137194540793 0.862 5.09792381321e-42
0.0319057071611 -0.137194540793 0.862 3.22292481081e-39
0.0335009925192 -0.137194540793 0.862 1.77778896611e-38
0.0350148479982 -0.136876223993 0.86 1.76831604836e-38
0.0366064319981 -0.136876223993 0.86 1.59307022293e-38
0.0381091834027 -0.136557907193 0.858 2.12729886727e-38
0.0396970660444 -0.136557907193 0.858 2.32961707838e-38
0.0412849486862 -0.136557907193 0.858 2.34783788205e-38
-0.019099007999 -0.135284639993 0.86 1.48268910212e-38
-0.0175074239991 -0.135284639993 0.86 1.76860345468e-38
-0.0159158399992 -0.135284639993 0.86 1.71295831305e-38
-0.0143242559993 -0.135284639993 0.86 1.72217969772e-38
-0.0127326719993 -0.135284639993 0.86 1.76831604836e-38
-0.0111410879994 -0.135284639993 0.86 2.8469003809e-39
-0.0095495039995 -0.135284639993 0.86 2.29990632795e-39
-0.00795791999959 -0.135284639993 0.86 2.86279110548e-39
-0.00636633599967 -0.135284639993 0.86 1.85367404237e-39
-0.00477475199975 -0.135284639993 0.86 1.66964291635e-39
-0.00318316799983 -0.135284639993 0.86 1.66928978913e-39
-0.00159158399992 -0.135284639993 0.86 1.48347340887e-39
0.0 -0.135284639993 0.86 4.48415508584e-44
0.00159158399992 -0.135284639993 0.86 1.86101614567e-38
0.00318316799983 -0.135284639993 0.86 1.77760623679e-38
0.00477475199975 -0.135284639993 0.86 1.86047440369e-38
0.00636633599967 -0.135284639993 0.86 1.6944498228e-38
0.00795791999959 -0.135284639993 0.86 1.75895032995e-38
0.0095495039995 -0.135284639993 0.86 2.05429892442e-38
0.0111410879994 -0.135284639993 0.86 2.75506488474e-40
0.0127326719993 -0.135284639993 0.86 2.67950126635e-39
0.0143575682225 -0.135599255435 0.862 1.57709415927e-39
0.0159528535806 -0.135599255435 0.862 1.39486370178e-39
0.0175481389386 -0.135599255435 0.862 1.66928978913e-39
0.0191434242967 -0.135599255435 0.862 2.58478189795e-39
0.0207387096547 -0.135599255435 0.862 2.58585389128e-39
0.0223339950128 -0.135599255435 0.862 2.40110670174e-39
0.0239292803708 -0.135599255435 0.862 2.40110950434e-39
0.0255245657289 -0.135599255435 0.862 2.40110389914e-39
0.027119851087 -0.135599255435 0.862 2.67805232374e-39
0.028715136445 -0.135599255435 0.862 3.65178379803e-42
0.0303104218031 -0.135599255435 0.862 5.24798045797e-39
0.0319057071611 -0.135599255435 0.862 1.80556003921e-38
0.0335009925192 -0.135599255435 0.862 1.76842170627e-38
0.0350962778772 -0.135599255435 0.862 1.7497304867e-38
0.0366064319981 -0.135284639993 0.86 1.64831571424e-38
0.0381091834027 -0.134970024551 0.858 2.08109203131e-38
0.0396970660444 -0.134970024551 0.858 2.13575346142e-38
0.0412849486862 -0.134970024551 0.858 2.20925352769e-38
-0.019099007999 -0.133693055993 0.86 1.35361522031e-38
-0.0175074239991 -0.133693055993 0.86 1.77778588325e-38
-0.0159158399992 -0.133693055993 0.86 1.74983586434e-38
-0.0143242559993 -0.133693055993 0.86 1.67604628981e-38
-0.0127326719993 -0.133693055993 0.86 1.73139926071e-38
-0.0111410879994 -0.133693055993 0.86 1.81441386329e-38
-0.0095495039995 -0.133693055993 0.86 5.05310468313e-39
-0.00795791999959 -0.133693055993 0.86 2.02040894145e-39
-0.00636633599967 -0.133693055993 0.86 2.67805232374e-39
-0.00477475199975 -0.133693055993 0.86 2.49365545882e-39
-0.00318316799983 -0.133693055993 0.86 1.30015274117e-39
-0.00159158399992 -0.133693055993 0.86 1.20868438521e-39
0.0 -0.133693055993 0.86 4.7644147787e-44
0.00159158399992 -0.133693055993 0.86 1.90700648101e-38
0.00318316799983 -0.133693055993 0.86 1.76835136108e-38
0.00477475199975 -0.133693055993 0.86 1.82348671033e-38
0.00636633599967 -0.133693055993 0.86 1.72196459841e-38
0.00795791999959 -0.133693055993 0.86 1.87876751436e-38
0.0095495039995 -0.133693055993 0.86 2.04497132132e-38
0.0111410879994 -0.133693055993 0.86 2.75506488474e-40
0.0127326719993 -0.133693055993 0.86 1.6689548788e-39
0.0143575682225 -0.134003970077 0.862 1.57674103206e-39
0.0159158399992 -0.133693055993 0.86 1.48599014091e-39
0.0175074239991 -0.133693055993 0.86 1.48454820479e-39
0.0191434242967 -0.134003970077 0.862 2.76881302397e-39
0.0207387096547 -0.134003970077 0.862 2.40110389914e-39
0.0223339950128 -0.134003970077 0.862 1.11683767866e-39
0.0239292803708 -0.134003970077 0.862 1.94552215021e-39
0.0255245657289 -0.134003970077 0.862 2.67804671854e-39
0.027119851087 -0.134003970077 0.862 7.98740124665e-42
0.028715136445 -0.134003970077 0.862 6.26461408604e-39
0.0303104218031 -0.134003970077 0.862 1.82388972377e-38
0.0319057071611 -0.134003970077 0.862 1.7129951672e-38
0.0335009925192 -0.134003970077 0.862 1.7406188237e-38
0.0350962778772 -0.134003970077 0.862 1.74054595618e-38
0.0366915632353 -0.134003970077 0.862 1.69433869983e-38
0.0381091834027 -0.133382141909 0.858 1.96123785262e-38
0.0396970660444 -0.133382141909 0.858 2.08951271404e-38
-0.0191434242967 -0.132408684719 0.862 1.3445387299e-38
-0.0175481389386 -0.132408684719 0.862 1.80537226521e-38
-0.0159528535806 -0.132408684719 0.862 1.71292454176e-38
-0.0143575682225 -0.132408684719 0.862 1.78657538774e-38
-0.0127622828645 -0.132408684719 0.862 1.70370497877e-38
-0.0111669975064 -0.132408684719 0.862 1.7129242615e-38
-0.00957171214834 -0.132408684719 0.862 1.83270851539e-38
-0.00795791999959 -0.132101471993 0.86 5.97432950397e-39
-0.00636633599967 -0.132101471993 0.86 2.02040894145e-39
-0.00477475199975 -0.132101471993 0.86 3.04647891338e-39
-0.00318316799983 -0.132101471993 0.86 2.67804952114e-39
-0.00159158399992 -0.132101471993 0.86 2.12522886917e-39
0.0 -0.132101471993 0.86 3.92363570011e-44
0.00159158399992 -0.132101471993 0.86 1.90707710645e-38
0.00318316799983 -0.132101471993 0.86 1.78682593991e-38
0.00477475199975 -0.132101471993 0.86 1.92490414526e-38
0.00636633599967 -0.132101471993 0.86 1.70359749918e-38
0.00795791999959 -0.132101471993 0.86 1.78649929724e-38
0.0095495039995 -0.132101471993 0.86 2.03567959146e-38
0.0111410879994 -0.132101471993 0.86 3.67341984632e-40
0.0127326719993 -0.132101471993 0.86 1.48528949168e-39
0.0143575682225 -0.132408684719 0.862 1.48454820479e-39
0.0159158399992 -0.132101471993 0.86 1.66893666192e-39
0.0175074239991 -0.132101471993 0.86 1.66893946452e-39
0.019099007999 -0.132101471993 0.86 3.13759974732e-39
0.0206905919989 -0.132101471993 0.86 2.58585389128e-39
0.0223339950128 -0.132408684719 0.862 1.94409702967e-39
0.0239292803708 -0.132408684719 0.862 2.86100865384e-39
0.0255245657289 -0.132408684719 0.862 5.74532370373e-44
0.027119851087 -0.132408684719 0.862 7.27376618162e-39
0.0287817608915 -0.132715897444 0.864 1.83303445742e-38
0.0303807476077 -0.132715897444 0.864 1.76831450693e-38
0.0319797343239 -0.132715897444 0.864 1.72228871874e-38
0.0335009925192 -0.132408684719 0.862 1.72203690541e-38
0.0350962778772 -0.132408684719 0.862 1.73118388114e-38
