# .PCD v0.7 - Point Cloud Data file format
VERSION 0.7
FIELDS x y z rgb
SIZE 4 4 4 4
TYPE F F F F
COUNT 1 1 1 1
WIDTH 845
HEIGHT 1
VIEWPOINT 0 0 0 1 0 0 0
POINTS 845
DATA ascii
0.053736317467 -0.0363510382865 0.854 1.46223687077e-38
0.0553167973925 -0.0363510382865 0.854 2.34911320378e-38
0.057030526211 -0.0364361695237 0.856 2.34835327962e-38
0.0587516577458 -0.0365213007609 0.858 2.34870710748e-38
0.0606208436061 -0.0366915632353 0.862 2.34834907573e-38
0.0623604819316 -0.0367766944725 0.864 2.34845627506e-38
0.0641815501362 -0.0369043913283 0.867 2.34845837701e-38
0.0657860888896 -0.0369043913283 0.867 2.34835201845e-38
0.067390627643 -0.0369043913283 0.867 2.34860158971e-38
0.0689951663964 -0.0369043913283 0.867 2.3485254992e-38
0.0709254246661 -0.0370746538027 0.871 2.34863788334e-38
0.072703927252 -0.0371597850399 0.873 2.34835313949e-38
0.0744898325543 -0.0372449162771 0.875 2.34849607194e-38
0.0765440863216 -0.0374577443701 0.88 2.34867445723e-38
0.0781726839029 -0.0374577443701 0.88 2.34831642547e-38
0.079982648033 -0.0375428756073 0.882 2.3482095064e-38
0.0818925488329 -0.0376705724632 0.885 2.34935759023e-38
0.0835303998096 -0.0376705724632 0.885 2.35098365697e-38
-0.00774509190657 -0.0340784043889 0.837 1.99833064336e-38
-0.0061812680927 -0.0339969745099 0.835 2.00755048661e-38
-0.00463595106953 -0.0339969745099 0.835 2.00733524716e-38
-0.00308323133007 -0.0339155446308 0.833 2.09059717893e-38
-0.0015379143069 -0.0338341147517 0.831 1.76820086163e-38
0.0 -0.0337526848727 0.829 1.362688768e-38
0.00153421294876 -0.0337526848727 0.829 2.29588740395e-39
0.00306842589751 -0.0337526848727 0.829 2.34979493548e-38
0.00459153477185 -0.0336712549936 0.827 2.35098085437e-38
0.00612204636247 -0.0336712549936 0.827 2.35039959577e-38
0.00765255795309 -0.0336712549936 0.827 2.34971772394e-38
0.00918306954371 -0.0336712549936 0.827 2.34910185326e-38
0.0107135811343 -0.0336712549936 0.827 2.23713558363e-38
0.0122440927249 -0.0336712549936 0.827 2.31107355567e-38
0.0137746043156 -0.0336712549936 0.827 2.29299274171e-38
0.0153421294876 -0.0337526848727 0.829 2.33916538598e-38
0.0168763424363 -0.0337526848727 0.829 2.31125502382e-38
0.0184105553851 -0.0337526848727 0.829 2.34813131395e-38
0.0199928859897 -0.0338341147517 0.831 2.34820600315e-38
0.0215308002966 -0.0338341147517 0.831 2.34820614328e-38
0.0231242349755 -0.0339155446308 0.833 2.30218021496e-38
0.0246658506406 -0.0339155446308 0.833 2.34823921393e-38
0.026270389394 -0.0339969745099 0.835 2.33894832485e-38
0.0278157064172 -0.0339969745099 0.835 2.34831292223e-38
0.029431349245 -0.0340784043889 0.837 2.34842362481e-38
0.0310543947891 -0.034159834268 0.839 2.34885438395e-38
0.0326071145285 -0.034159834268 0.839 2.34917794377e-38
0.0342412641471 -0.0342412641471 0.841 1.76787744194e-38
0.0357976852446 -0.0342412641471 0.841 5.6938007618e-39
0.0374429389376 -0.0343226940261 0.843 8.08950966185e-39
0.0390955953468 -0.0344041239052 0.845 7.26982573034e-39
0.0406594191607 -0.0344041239052 0.845 8.28214476044e-39
0.0423231796443 -0.0344855537843 0.847 1.83671833095e-39
0.0438907048163 -0.0344855537843 0.847 2.28403956556e-38
0.0455655693744 -0.0345669836633 0.849 2.34899997886e-38
0.0471367959045 -0.0345669836633 0.849 4.86728129637e-39
0.048822764537 -0.0346484135424 0.851 3.94899639972e-39
0.0503976924253 -0.0346484135424 0.851 5.14285364588e-39
0.0521558375415 -0.034770558361 0.854 1.83202762447e-38
0.053736317467 -0.034770558361 0.854 2.34928948713e-38
0.0554463449273 -0.03485198824 0.856 2.3487480254e-38
0.057297023997 -0.0350148479982 0.86 2.34842236364e-38
0.059367933876 -0.0352998525749 0.867 2.34834809482e-38
0.0611131242387 -0.035381282454 0.869 2.34874886618e-38
0.0627213643502 -0.035381282454 0.869 2.34852998336e-38
0.0643296044618 -0.035381282454 0.869 2.34842334455e-38
0.0659378445733 -0.035381282454 0.869 2.34845767636e-38
0.0675460846849 -0.035381282454 0.869 2.34852998336e-38
0.0691543247964 -0.035381282454 0.869 2.34849775349e-38
0.0710882844242 -0.0355441422121 0.873 2.34820684393e-38
0.0731203300427 -0.0357477169098 0.878 2.3489273916e-38
0.0750857512147 -0.0359105766679 0.882 2.34831362288e-38
0.0767180501541 -0.0359105766679 0.882 2.34867123424e-38
0.0786168468796 -0.0360327214865 0.885 2.34888941642e-38
0.0802546978563 -0.0360327214865 0.885 2.34849144765e-38
0.0820776167399 -0.0361141513656 0.887 2.34990031313e-38
0.0837191690747 -0.0361141513656 0.887 2.35098421749e-38
-0.00774509190657 -0.0325293860076 0.837 1.93375866999e-38
-0.00619607352526 -0.0325293860076 0.837 2.03528134244e-38
-0.00464705514394 -0.0325293860076 0.837 2.06275772247e-38
-0.00309063404635 -0.0324516574867 0.835 1.9613795239e-38
-0.0015379143069 -0.0322962004448 0.831 1.93379174064e-38
0.0 -0.0322962004448 0.831 1.85067652482e-38
0.00153421294876 -0.0322184719239 0.829 1.59299581398e-38
0.00306842589751 -0.0322184719239 0.829 1.18679442164e-38
0.00460263884627 -0.0322184719239 0.829 2.34949631878e-38
0.00612204636247 -0.032140743403 0.827 2.34809782291e-38
0.00765255795309 -0.032140743403 0.827 2.17303318538e-38
0.00918306954371 -0.032140743403 0.827 2.34831376301e-38
0.0107135811343 -0.032140743403 0.827 2.32072822183e-38
0.0122440927249 -0.032140743403 0.827 2.34827788977e-38
0.0138079165388 -0.0322184719239 0.829 2.33888036187e-38
0.0153421294876 -0.0322184719239 0.829 2.34842152286e-38
0.0168763424363 -0.0322184719239 0.829 2.34824117575e-38
0.0184549716828 -0.0322962004448 0.831 2.34824117575e-38
0.0199928859897 -0.0322962004448 0.831 2.34817279238e-38
0.0215308002966 -0.0322962004448 0.831 2.34831390314e-38
0.0231797553476 -0.0324516574867 0.835 2.34806222993e-38
0.0247250723708 -0.0324516574867 0.835 2.34828069236e-38
0.0263333124823 -0.0325293860076 0.837 2.34820502225e-38
0.0278823308637 -0.0325293860076 0.837 2.34892655082e-38
0.029431349245 -0.0325293860076 0.837 2.34874438202e-38
0.0310543947891 -0.0326071145285 0.839 1.42679593066e-38
0.0326848430495 -0.0326848430495 0.841 8.35713524776e-39
0.0342412641471 -0.0326848430495 0.841 6.42849033625e-39
0.0358828164819 -0.0327625715704 0.843 8.08272457469e-39
0.0375317715329 -0.0328403000913 0.845 8.55696461267e-39
0.0390955953468 -0.0328403000913 0.845 8.10066259633e-39
0.0407556544723 -0.0329180286122 0.847 8.83785068595e-39
0.0424231163141 -0.0329957571332 0.849 5.887241607e-39
0.0440979808721 -0.0330734856541 0.851 1.18673724866e-38
0.0456729087604 -0.0330734856541 0.851 2.34939276282e-38
0.047414397765 -0.0331900784355 0.854 1.28714448753e-38
0.0489948776905 -0.0331900784355 0.854 1.85010843843e-38
0.050575357616 -0.0331900784355 0.854 2.34914094949e-38
0.0521558375415 -0.0331900784355 0.854 2.3488564859e-38
0.0539880098204 -0.0333455354773 0.858 2.34845767636e-38
0.055834987532 -0.0335009925192 0.862 2.34856641712e-38
0.05743027289 -0.0335009925192 0.862 2.34860158971e-38
0.0595048841271 -0.0337730423424 0.869 2.3484601987e-38
0.061253775848 -0.0338507708634 0.871 2.34827746938e-38
0.0628657173177 -0.0338507708634 0.871 2.34888913616e-38
0.0644776587873 -0.0338507708634 0.871 2.3484212426e-38
0.066089600257 -0.0338507708634 0.871 2.34838550949e-38
0.0677015417267 -0.0338507708634 0.871 2.34870626671e-38
0.0693134831964 -0.0338507708634 0.871 2.34885438395e-38
0.0714954338195 -0.0341228206866 0.878 2.34874536293e-38
0.0734534522752 -0.0342782777284 0.882 2.34888955655e-38
0.0750857512147 -0.0342782777284 0.882 2.34871131138e-38
0.076978995903 -0.0343948705098 0.885 2.34835005664e-38
0.0787945120703 -0.0344725990308 0.887 2.34867179476e-38
0.0804360644051 -0.0344725990308 0.887 2.34838158585e-38
0.0820776167399 -0.0344725990308 0.887 2.350044787e-38
0.0837191690747 -0.0344725990308 0.887 2.35098491814e-38
-0.00464705514394 -0.0309803676263 0.837 2.06243584421e-38
-0.00309063404635 -0.0309063404635 0.835 2.00736999936e-38
-0.00154161566504 -0.0308323133007 0.833 1.87854694998e-38
0.0 -0.0307582861379 0.831 1.91514003769e-38
0.00153421294876 -0.0306842589751 0.829 1.93361349547e-38
0.00306842589751 -0.0306842589751 0.829 1.73074625562e-38
0.00460263884627 -0.0306842589751 0.829 2.32090366439e-38
0.00612204636247 -0.0306102318124 0.827 2.29303197807e-38
0.00765255795309 -0.0306102318124 0.827 2.31157900402e-38
0.00918306954371 -0.0306102318124 0.827 2.34845669545e-38
0.0107135811343 -0.0306102318124 0.827 2.25622505222e-38
0.0122440927249 -0.0306102318124 0.827 2.34813355602e-38
0.0138079165388 -0.0306842589751 0.829 2.34813383628e-38
0.0153421294876 -0.0306842589751 0.829 2.34903473107e-38
0.0169170573759 -0.0307582861379 0.831 2.34878193682e-38
0.0184549716828 -0.0307582861379 0.831 2.34878389864e-38
0.0199928859897 -0.0307582861379 0.831 2.34849607194e-38
0.0216344383245 -0.0309063404635 0.835 2.34820572289e-38
0.0232352757197 -0.0309803676263 0.837 2.34845795662e-38
0.024784294101 -0.0309803676263 0.837 2.3488888559e-38
0.0263333124823 -0.0309803676263 0.837 2.34925067116e-38
0.0279489553102 -0.0310543947891 0.839 1.786214133e-38
0.0295720008543 -0.0311284219519 0.841 4.13259732711e-39
0.0312024491147 -0.0312024491147 0.843 5.51012976948e-40
0.0327625715704 -0.0312024491147 0.843 1.45395841984e-38
0.0343226940261 -0.0312024491147 0.843 2.34902702392e-38
0.0359679477191 -0.0312764762774 0.845 2.10017099016e-38
0.0376206041283 -0.0313505034402 0.847 4.86907495841e-39
0.0393731972073 -0.0314985577658 0.851 8.46546963204e-39
0.0409481250955 -0.0314985577658 0.851 7.73078846537e-39
0.0426729579885 -0.03160959851 0.854 6.62224787492e-39
0.044253437914 -0.03160959851 0.854 1.19386145005e-39
0.0458339178395 -0.03160959851 0.854 2.34964863992e-38
0.0475254385092 -0.0316836256728 0.856 2.34871299294e-38
0.0492243618951 -0.0317576528356 0.858 2.34928668453e-38
0.0508122445369 -0.0317576528356 0.858 2.34853040375e-38
0.0525222719973 -0.0318316799983 0.86 2.34863732282e-38
0.0542397021739 -0.0319057071611 0.862 2.34878081578e-38
0.0559645350669 -0.0319797343239 0.864 2.34845963818e-38
0.0578966440156 -0.0321648022309 0.869 2.34874732475e-38
0.0595048841271 -0.0321648022309 0.869 2.34813818031e-38
0.061253775848 -0.0322388293937 0.871 2.34871061073e-38
0.0628657173177 -0.0322388293937 0.871 2.34827929106e-38
0.0644776587873 -0.0322388293937 0.871 2.3486743171e-38
0.066089600257 -0.0322388293937 0.871 2.34846103947e-38
0.0677015417267 -0.0322388293937 0.871 2.34860158971e-38
0.0694726415964 -0.0323128565565 0.873 2.34845781649e-38
0.0716582935777 -0.0325719516262 0.88 2.34820656367e-38
0.0737032939496 -0.0327570195332 0.885 2.34817027004e-38
0.0755114074007 -0.032831046696 0.887 2.34827985158e-38
0.0773269235681 -0.0329050738588 0.889 2.3487452228e-38
0.078972177261 -0.0329050738588 0.889 2.34856641712e-38
0.0806174309539 -0.0329050738588 0.889 2.34831334262e-38
0.0822626846469 -0.0329050738588 0.889 2.35036834681e-38
-0.00466926329278 -0.0295720008543 0.841 2.19158217315e-38
-0.00309803676263 -0.029431349245 0.837 1.97978417793e-38
-0.00154531702318 -0.0293610234403 0.835 1.97989081674e-38
0.0 -0.0292906976357 0.833 1.91524695676e-38
0.0015379143069 -0.029220371831 0.831 1.88744589588e-38
0.00306842589751 -0.0291500460264 0.829 1.86886033422e-38
0.00460263884627 -0.0291500460264 0.829 2.34874648397e-38
0.00613685179503 -0.0291500460264 0.829 2.30218371821e-38
0.00767106474379 -0.0291500460264 0.829 2.29303225833e-38
0.00920527769254 -0.0291500460264 0.829 2.34817209173e-38
0.0107394906413 -0.0291500460264 0.829 2.34834879547e-38
0.0122737035901 -0.0291500460264 0.829 2.34856641712e-38
0.0138079165388 -0.0291500460264 0.829 2.34881907123e-38
0.015379143069 -0.029220371831 0.831 1.62976644621e-38
0.0169170573759 -0.029220371831 0.831 8.17348667622e-39
0.0185438042781 -0.0293610234403 0.835 6.52035666098e-39
0.0201372389571 -0.029431349245 0.837 2.34679139235e-38
0.0216862573384 -0.029431349245 0.837 2.34853124453e-38
0.0232907960918 -0.0295016750496 0.839 2.34867333619e-38
0.0249027375615 -0.0295720008543 0.841 2.34900081964e-38
0.0264591586591 -0.0295720008543 0.841 1.15881343403e-38
0.0280155797567 -0.0295720008543 0.841 4.95911819383e-39
0.0296423266589 -0.0296423266589 0.843 3.03063303035e-39
0.0312024491147 -0.0296423266589 0.843 1.97082049204e-38
0.0328403000913 -0.0297126524636 0.845 2.34953849786e-38
0.0344041239052 -0.0297126524636 0.845 2.3488926394e-38
0.0360530789563 -0.0297829782682 0.847 2.34961206603e-38
0.037798269319 -0.0299236298775 0.851 4.95911679253e-39
0.0395119981375 -0.0300291185845 0.854 8.459027863e-39
0.041092478063 -0.0300291185845 0.854 5.23469895112e-39
0.0427728946582 -0.0300994443891 0.856 9.92299519724e-39
0.0443570759419 -0.0300994443891 0.856 2.05383229203e-38
0.0459412572255 -0.0300994443891 0.856 2.34875503189e-38
0.0476364792533 -0.0301697701938 0.858 2.34863788334e-38
0.0493391039974 -0.0302400959984 0.86 2.34845711584e-38
0.0509306879973 -0.0302400959984 0.86 2.3484573961e-38
0.0526444168159 -0.0303104218031 0.862 2.3484212426e-38
0.0545543176158 -0.0304862363147 0.867 2.34842208338e-38
0.0561588563692 -0.0304862363147 0.867 2.3483151643e-38
0.0578966440156 -0.0305565621193 0.869 2.34831488404e-38
0.0595048841271 -0.0305565621193 0.869 2.34827817003e-38
0.0613944274573 -0.0306972137286 0.873 2.34842278403e-38
0.0630100702851 -0.0306972137286 0.873 2.3484573961e-38
0.0646257131129 -0.0306972137286 0.873 2.34845823688e-38
0.0662413559407 -0.0306972137286 0.873 2.34849396999e-38
0.0682456413732 -0.0308730282403 0.878 2.34849368973e-38
0.0701888543963 -0.0310136798495 0.882 2.34863774321e-38
0.072065442973 -0.0311191685565 0.885 2.34910535651e-38
0.0737032939496 -0.0311191685565 0.885 2.34860172984e-38
0.0756816698751 -0.0312598201658 0.889 2.34856641712e-38
0.0775008874006 -0.0313301459705 0.891 2.34856641712e-38
0.0791498424517 -0.0313301459705 0.891 2.34849481077e-38
0.0818869967957 -0.0317521007983 0.903 2.34859976802e-38
0.0835581599956 -0.0317521007983 0.903 2.35051352134e-38
0.0852293231956 -0.0317521007983 0.903 2.35098337671e-38
-0.00309803676263 -0.0278823308637 0.837 1.99833022297e-38
-0.00154901838131 -0.0278823308637 0.837 1.99811512366e-38
0.0 -0.0278157064172 0.835 2.00755020635e-38
0.00154161566504 -0.0277490819706 0.833 1.98900500208e-38
0.00308323133007 -0.0277490819706 0.833 1.85052854771e-38
0.00461374292069 -0.0276824575241 0.831 2.34874704449e-38
0.00613685179503 -0.0276158330776 0.829 2.25611673184e-38
0.00767106474379 -0.0276158330776 0.829 2.30235775948e-38
0.00920527769254 -0.0276158330776 0.829 2.34856571647e-38
0.0107654001483 -0.0276824575241 0.831 2.34896648783e-38
0.0123033144552 -0.0276824575241 0.831 1.85074981273e-38
0.0138412287621 -0.0276824575241 0.831 4.68361030406e-39
0.0154161566504 -0.0277490819706 0.833 3.67341984632e-39
0.0169984872549 -0.0278157064172 0.835 7.81469541482e-39
0.0185882205758 -0.0278823308637 0.837 2.47955839627e-39
0.0201853566129 -0.0279489553102 0.839 2.34897615679e-38
0.0217898953663 -0.0280155797567 0.841 2.32097961477e-38
0.0233463164639 -0.0280155797567 0.841 2.34914291131e-38
0.0249619592917 -0.0280822042032 0.843 1.03928533749e-38
0.0265220817475 -0.0280822042032 0.843 5.6938007618e-39
0.0280822042032 -0.0280822042032 0.843 8.19105615637e-39
0.0296423266589 -0.0280822042032 0.843 4.68365094171e-39
0.0312764762774 -0.0281488286497 0.845 2.34933558985e-38
0.0328403000913 -0.0281488286497 0.845 2.34899885783e-38
0.0344855537843 -0.0282154530962 0.847 2.34932297816e-38
0.0362233414307 -0.0283487019892 0.851 1.44515350106e-38
0.037931518212 -0.028448638659 0.854 5.96930725027e-39
0.039604532091 -0.0285152631055 0.856 5.87753341124e-39
0.0411887133746 -0.0285152631055 0.856 1.80433306227e-38
0.042872831328 -0.028581887552 0.858 2.34893355732e-38
0.0445643519977 -0.0286485119985 0.86 2.34910661768e-38
0.0461559359976 -0.0286485119985 0.86 2.34842152286e-38
0.0478585607417 -0.028715136445 0.862 2.34835089742e-38
0.0494538460997 -0.028715136445 0.862 2.34838635027e-38
0.0511675749183 -0.0287817608915 0.864 2.34842292416e-38
0.0529497788624 -0.0288816975613 0.867 2.34842236364e-38
0.0546801637925 -0.0289483220078 0.869 2.34856515595e-38
0.056288403904 -0.0289483220078 0.869 2.34856641712e-38
0.0580298929086 -0.0290149464543 0.871 2.34863830373e-38
0.0596418343783 -0.0290149464543 0.871 2.34856641712e-38
0.0615350790666 -0.0291481953473 0.875 2.34867221515e-38
0.0631544232525 -0.0291481953473 0.875 2.34841844e-38
0.0647737674385 -0.0291481953473 0.875 2.34849537129e-38
0.0667725008337 -0.0293147564636 0.88 2.3485644553e-38
0.0687897410197 -0.0294813175799 0.885 2.34852942284e-38
0.0705867503963 -0.0295479420264 0.887 2.34867221515e-38
0.0722283027311 -0.0295479420264 0.887 2.34860383179e-38
0.0740364161822 -0.0296145664729 0.889 2.34834991651e-38
0.0758519323495 -0.0296811909194 0.891 2.34889249927e-38
0.0775008874006 -0.0296811909194 0.891 2.34842208338e-38
0.0800381684051 -0.0300143131519 0.901 2.3484949509e-38
0.0818869967957 -0.0300809375984 0.903 2.34842292416e-38
0.0835581599956 -0.0300809375984 0.903 2.35069470923e-38
0.0852293231956 -0.0300809375984 0.903 2.35098281619e-38
-0.00155271973945 -0.0263962355707 0.839 1.94294165909e-38
0.0 -0.0263333124823 0.837 2.03509973416e-38
0.00154901838131 -0.0263333124823 0.837 1.94297655142e-38
0.00309063404635 -0.026270389394 0.835 1.85978314315e-38
0.00463595106953 -0.026270389394 0.835 2.34878305786e-38
0.0061812680927 -0.026270389394 0.835 2.32058150588e-38
0.00772658511588 -0.026270389394 0.835 2.34827746938e-38
0.00927190213905 -0.026270389394 0.835 2.34896242407e-38
0.0108431286692 -0.0263333124823 0.837 1.36214996874e-38
0.0124513687807 -0.0264591586591 0.841 4.86728129637e-39
0.0140077898783 -0.0264591586591 0.841 7.0854470823e-39
0.0155642109759 -0.0264591586591 0.841 6.06839166338e-39
0.0171206320735 -0.0264591586591 0.841 1.09374932465e-38
0.0186770531711 -0.0264591586591 0.841 2.22972047267e-38
0.0202334742687 -0.0264591586591 0.841 1.54776358111e-38
0.0218417143803 -0.0265220817475 0.843 2.34943508204e-38
0.023401836836 -0.0265220817475 0.843 2.34874760501e-38
0.0249619592917 -0.0265220817475 0.843 3.85711045681e-39
0.0265850048358 -0.0265850048358 0.845 7.73116681596e-39
0.0281488286497 -0.0265850048358 0.845 8.65166296159e-39
0.0297126524636 -0.0265850048358 0.845 5.0538641869e-39
0.0313505034402 -0.0266479279242 0.847 1.76819637747e-38
0.0330734856541 -0.0267737741009 0.851 2.04435769272e-38
0.034770558361 -0.0268681587335 0.854 6.79619245459e-39
0.0363510382865 -0.0268681587335 0.854 3.39791335785e-39
0.038198015998 -0.0270569279986 0.86 1.71270649971e-38
0.0396970660444 -0.0269940049102 0.858 2.34906892275e-38
0.0412849486862 -0.0269940049102 0.858 2.34917612208e-38
0.0430727046675 -0.027119851087 0.862 2.3485686592e-38
0.0446679900256 -0.027119851087 0.862 2.34845963818e-38
0.0462632753836 -0.027119851087 0.862 2.3484587974e-38
0.0479696014859 -0.0271827741753 0.864 2.34878249734e-38
0.0497407013555 -0.0272771588079 0.867 2.34849481077e-38
0.051345240109 -0.0272771588079 0.867 2.34831712612e-38
0.053071923681 -0.0273400818963 0.869 2.34892458901e-38
0.0548060099692 -0.0274030049846 0.871 2.34831320249e-38
0.0566770465087 -0.0275288511614 0.875 2.34824243691e-38
0.0582963906946 -0.0275288511614 0.875 2.34871117125e-38
0.0601211602573 -0.0276232357939 0.878 2.34838621014e-38
0.0617460564805 -0.0276232357939 0.878 2.34863620178e-38
0.0635153056711 -0.0276861588823 0.88 2.34834963625e-38
0.0651439032524 -0.0276861588823 0.88 2.3485297031e-38
0.0669242565174 -0.0277490819706 0.882 2.34874648397e-38
0.0689451980615 -0.0279063896916 0.887 2.34856515595e-38
0.0707459087963 -0.0279693127799 0.889 2.34888843551e-38
0.0723911624893 -0.0279693127799 0.889 2.34849284895e-38
0.0742029772985 -0.0280322358683 0.891 2.34913870741e-38
0.07644785101 -0.0282524666776 0.898 2.34877969475e-38
0.0781097608145 -0.0282524666776 0.898 2.34888955655e-38
0.0802158335958 -0.0284097743985 0.903 2.34849411012e-38
0.082159046619 -0.0285041590311 0.906 2.3480982433e-38
0.0838357618561 -0.0285041590311 0.906 2.35098015372e-38
0.0855124770932 -0.0285041590311 0.906 2.35098449775e-38
0.0 -0.0248435158313 0.839 2.09038193948e-38
0.00154901838131 -0.024784294101 0.837 1.84159611078e-38
0.00309803676263 -0.024784294101 0.837 1.90599236131e-38
0.00464705514394 -0.024784294101 0.837 2.34863522087e-38
0.00619607352526 -0.024784294101 0.837 2.34806222993e-38
0.00774509190657 -0.024784294101 0.837 2.34871229229e-38
0.00931631843672 -0.0248435158313 0.839 2.34871145151e-38
0.0108949476832 -0.0249027375615 0.841 3.489748854e-39
0.0124809796459 -0.0249619592917 0.843 2.38778455724e-39
0.0140411021016 -0.0249619592917 0.843 1.20410087806e-38
0.0156382381387 -0.025021181022 0.845 1.91471964815e-38
0.0172020619526 -0.025021181022 0.845 1.94320089931e-38
0.0187658857665 -0.025021181022 0.845 7.26829691371e-39
0.0203297095803 -0.025021181022 0.845 1.46936793853e-39
0.0219453524082 -0.0250804027522 0.847 2.34940313243e-38
0.0235128775802 -0.0250804027522 0.847 1.9891501766e-38
0.0250804027522 -0.0250804027522 0.847 6.70399121953e-39
0.0266479279242 -0.0250804027522 0.847 8.28357969007e-39
0.0282820775427 -0.0251396244824 0.849 7.91589578861e-39
0.0300291185845 -0.025287678808 0.854 8.19030926429e-39
0.03160959851 -0.025287678808 0.854 5.05531312951e-39
0.0332678069564 -0.0253469005382 0.856 3.30609047337e-39
0.0350148479982 -0.0254653439987 0.86 5.05203268981e-39
0.0366915632353 -0.0255245657289 0.862 2.34921339662e-38
0.0382868485934 -0.0255245657289 0.862 2.34946773229e-38
0.0398821339514 -0.0255245657289 0.862 2.34870948969e-38
0.0415736546211 -0.0255837874591 0.864 2.34874578332e-38
0.0433225463419 -0.0256726200545 0.867 2.34835047703e-38
0.0450307231232 -0.0257318417847 0.869 2.34835285923e-38
0.0466389632348 -0.0257318417847 0.869 2.34856655725e-38
0.0483582440905 -0.0257910635149 0.871 2.34849326934e-38
0.0500849276625 -0.0258502852452 0.873 2.34838480884e-38
0.0517005704903 -0.0258502852452 0.873 2.34838522923e-38
0.0534383581368 -0.0259095069754 0.875 2.34831320249e-38
0.0552464715878 -0.0259983395707 0.878 2.34842222351e-38
0.056871367811 -0.0259983395707 0.878 2.34863522087e-38
0.0584962640342 -0.0259983395707 0.878 2.34871075086e-38
0.0601211602573 -0.0259983395707 0.878 2.34856599673e-38
0.0618867080898 -0.026057561301 0.88 2.34842208338e-38
0.0635153056711 -0.026057561301 0.88 2.34878263747e-38
0.065291957578 -0.0261167830312 0.882 2.3489973164e-38
0.0673036457267 -0.0262648373568 0.887 2.34817545485e-38
0.0691006551034 -0.026324059087 0.889 2.3485686592e-38
0.0709050671963 -0.0263832808172 0.891 2.34835117768e-38
0.0725540222474 -0.0263832808172 0.891 2.34842278403e-38
0.0744528189729 -0.0264721134126 0.894 2.34863802347e-38
0.0767032447216 -0.0266793894684 0.901 2.34892444888e-38
0.0783707065634 -0.0266793894684 0.901 2.3488898368e-38
0.0802158335958 -0.0267386111986 0.903 2.3483864904e-38
0.082159046619 -0.026827443794 0.906 2.26486938218e-38
0.0840208297631 -0.0268866655242 0.908 2.35098225567e-38
0.0857012463583 -0.0268866655242 0.908 2.35098772074e-38
0.0 -0.0232907960918 0.839 2.02598989284e-38
0.00155271973945 -0.0232907960918 0.839 1.94305011959e-38
0.00310543947891 -0.0232907960918 0.839 1.87837066663e-38
0.00465815921836 -0.0232907960918 0.839 2.33905944782e-38
0.00621087895782 -0.0232907960918 0.839 2.34849565155e-38
0.00776359869727 -0.0232907960918 0.839 2.31121999136e-38
0.00933852658556 -0.0233463164639 0.841 2.34870976995e-38
0.0109208571901 -0.023401836836 0.843 2.06287136777e-38
0.012510590511 -0.0234573572081 0.845 2.22003385691e-38
0.0140744143248 -0.0234573572081 0.845 1.90679292313e-38
0.0156382381387 -0.0234573572081 0.845 1.13123868285e-38
0.0172427768921 -0.0235128775802 0.847 7.43873264203e-39
0.0188103020641 -0.0235128775802 0.847 8.37472154349e-39
0.020425944892 -0.0235683979523 0.849 3.95365151322e-39
0.0219971714221 -0.0235683979523 0.849 1.39868055853e-38
0.0235683979523 -0.0235683979523 0.849 2.34975920237e-38
0.0251988462126 -0.0236239183244 0.851 3.489748854e-39
0.0267737741009 -0.0236239183244 0.851 5.88001651212e-39
0.028448638659 -0.0237071988825 0.854 7.07426331925e-39
0.0301697701938 -0.0238182396267 0.858 5.14281861341e-39
0.0318316799983 -0.0238737599988 0.86 7.71421951233e-39
0.0334232639983 -0.0238737599988 0.86 1.70252732754e-38
0.0350962778772 -0.0239292803708 0.862 2.34903613236e-38
0.0366915632353 -0.0239292803708 0.862 2.34853432738e-38
0.0383756811887 -0.0239848007429 0.864 2.34838775156e-38
0.0399746679049 -0.0239848007429 0.864 2.34827859041e-38
0.0415736546211 -0.0239848007429 0.864 2.34817209173e-38
0.0433225463419 -0.0240680813011 0.867 2.34871033047e-38
0.0450307231232 -0.0241236016732 0.869 2.3484226439e-38
0.0467463026208 -0.0241791220453 0.871 2.34842208338e-38
0.0485803255789 -0.0242901627894 0.875 2.30243356973e-38
0.0501996697648 -0.0242901627894 0.875 2.16431991152e-38
0.0519966791415 -0.0243734433476 0.878 2.34892753173e-38
0.0536215753646 -0.0243734433476 0.878 2.34853012349e-38
0.0553723177646 -0.0244289637197 0.88 2.34900222094e-38
0.0570009153459 -0.0244289637197 0.88 2.34838691079e-38
0.0587627618202 -0.0244844840917 0.882 2.34878473942e-38
0.0606004861364 -0.0245677646499 0.885 2.3487104706e-38
0.0623789887223 -0.024623285022 0.887 2.34860130945e-38
0.0640205410571 -0.024623285022 0.887 2.34863381958e-38
0.0658101477175 -0.0246788053941 0.889 2.3485658566e-38
0.0674554014104 -0.0246788053941 0.889 2.34831586495e-38
0.0696447547499 -0.0248731266964 0.896 2.34849509103e-38
0.0714621215963 -0.0249286470685 0.898 2.34853236557e-38
0.073368321038 -0.0250119276266 0.901 2.34892683108e-38
0.0754521856705 -0.0251507285568 0.906 2.34878235721e-38
0.0771289009076 -0.0251507285568 0.906 2.34867445723e-38
0.0788056161447 -0.0251507285568 0.906 2.3483513178e-38
0.0804823313819 -0.0251507285568 0.906 2.34831488404e-38
0.0823404131678 -0.0252062489289 0.908 2.19154293679e-38
0.08420589767 -0.025261769301 0.91 2.35098505827e-38
0.0858900156234 -0.025261769301 0.91 2.35098505827e-38
0.0 -0.0217898953663 0.841 2.1271915278e-38
0.00155642109759 -0.0217898953663 0.841 1.9523091992e-38
0.00312024491147 -0.0218417143803 0.843 1.97981766896e-38
0.0046803673672 -0.0218417143803 0.843 2.34856529608e-38
0.00624048982293 -0.0218417143803 0.843 2.34860158971e-38
0.00780061227866 -0.0218417143803 0.843 2.34870920943e-38
0.0093607347344 -0.0218417143803 0.843 2.34834851521e-38
0.0109467666971 -0.0218935333942 0.845 2.34899647562e-38
0.012510590511 -0.0218935333942 0.845 1.21438094373e-38
0.0140744143248 -0.0218935333942 0.845 3.94892633479e-39
0.0156752517201 -0.0219453524082 0.847 8.28357969007e-39
0.0172427768921 -0.0219453524082 0.847 8.19283160152e-39
0.0188547183618 -0.0219971714221 0.849 8.37757738976e-39
0.0204740625478 -0.0220489904361 0.851 6.90211660551e-39
0.0220489904361 -0.0220489904361 0.851 1.83673794913e-39
0.0237071988825 -0.022126718957 0.854 2.34979535587e-38
0.0253469005382 -0.0221785379709 0.856 2.34892795212e-38
0.0269310818219 -0.0221785379709 0.856 1.71288194228e-38
0.0285152631055 -0.0221785379709 0.856 1.72164187937e-38
0.0302400959984 -0.0222821759988 0.86 2.07208518543e-38
0.0318316799983 -0.0222821759988 0.86 2.34953527488e-38
0.0335009925192 -0.0223339950128 0.862 2.34914221066e-38
0.0350962778772 -0.0223339950128 0.862 2.3487841789e-38
0.0367766944725 -0.0223858140267 0.864 2.3489611629e-38
0.0383756811887 -0.0223858140267 0.864 2.34846033883e-38
0.0399746679049 -0.0223858140267 0.864 2.34845865727e-38
0.0418142429001 -0.0225153615616 0.869 2.3485297031e-38
0.0435224196815 -0.0225671805756 0.871 2.34877941449e-38
0.045237999179 -0.0226189995895 0.873 2.3484601987e-38
0.0469609813929 -0.0226708186035 0.875 2.34882061266e-38
0.0487468866951 -0.0227485471244 0.878 1.43615043869e-38
0.0503717829183 -0.0227485471244 0.878 2.27539229287e-38
0.0519966791415 -0.0227485471244 0.878 2.3491433317e-38
0.0537437201832 -0.0228003661383 0.88 2.34888969667e-38
0.0553723177646 -0.0228003661383 0.88 2.34867739996e-38
0.0571304628807 -0.0228521851523 0.882 1.14041032143e-38
0.0589626351597 -0.0229299136732 0.885 2.34907719041e-38
0.0607374363875 -0.0229817326872 0.887 2.34892627056e-38
0.0625196403316 -0.0230335517011 0.889 2.34853096427e-38
0.0641648940246 -0.0230335517011 0.889 2.34871033047e-38
0.0659582020431 -0.0230853707151 0.891 2.34914361196e-38
0.0678347906197 -0.023163099236 0.894 2.34849425025e-38
0.0696447547499 -0.02321491825 0.896 2.34874746488e-38
0.0714621215963 -0.0232667372639 0.898 2.34874690436e-38
0.0735311807962 -0.0233962847988 0.903 2.34845781649e-38
0.0754521856705 -0.0234740133197 0.906 2.34874620371e-38
0.0771289009076 -0.0234740133197 0.906 2.34831474391e-38
0.0789795799773 -0.0235258323337 0.908 2.34821076757e-38
0.0806599965725 -0.0235258323337 0.908 2.26504510501e-38
0.0825217797166 -0.0235776513476 0.91 2.32043731227e-38
0.0844834995305 -0.0236553798685 0.913 2.35098617931e-38
0.0861731695211 -0.0236553798685 0.913 2.35098449775e-38
0.0 -0.0201853566129 0.839 2.12690636357e-38
0.00155271973945 -0.0201853566129 0.839 2.00755020635e-38
0.00312024491147 -0.0202815919245 0.843 1.90599264157e-38
0.0046803673672 -0.0202815919245 0.843 2.29307149469e-38
0.00624048982293 -0.0202815919245 0.843 2.34860172984e-38
0.00780061227866 -0.0202815919245 0.843 2.3296979333e-38
0.0093607347344 -0.0202815919245 0.843 2.34831292223e-38
0.0109467666971 -0.0203297095803 0.845 2.34870612658e-38
0.012510590511 -0.0203297095803 0.845 2.34903318964e-38
0.0141077265481 -0.0203778272361 0.847 3.67341984632e-39
0.0157122653015 -0.020425944892 0.849 8.3707852961e-39
0.0172834918317 -0.020425944892 0.849 8.74313552145e-39
0.0188991346595 -0.0204740625478 0.851 8.28325599013e-39
0.0205462390315 -0.0205462390315 0.854 8.19176241079e-39
0.022126718957 -0.0205462390315 0.854 4.41138986048e-39
0.0238182396267 -0.0206424743431 0.858 1.51803867757e-38
0.0254061222684 -0.0206424743431 0.858 2.34960982396e-38
0.0269940049102 -0.0206424743431 0.858 2.34871089099e-38
0.028581887552 -0.0206424743431 0.858 2.3491766826e-38
0.0303104218031 -0.0207387096547 0.862 2.34874774514e-38
0.0319057071611 -0.0207387096547 0.862 2.34863788334e-38
0.0335787210401 -0.0207868273105 0.864 2.34838466871e-38
0.0351777077563 -0.0207868273105 0.864 2.34817041017e-38
0.0369043913283 -0.0208590037943 0.867 2.34831460379e-38
0.0385089300817 -0.0208590037943 0.867 2.34849368973e-38
0.0402060027886 -0.0209071214501 0.869 2.27455599795e-38
0.0418142429001 -0.0209071214501 0.869 2.34874410176e-38
0.0436223563512 -0.0210033567617 0.873 2.3487789941e-38
0.0453416372069 -0.0210514744175 0.875 1.58377302801e-38
0.047121990472 -0.0211236509012 0.878 1.86918669663e-38
0.0488579274393 -0.021171768557 0.88 1.38177809646e-38
0.0504865250206 -0.021171768557 0.88 1.85161903817e-38
0.0521151226019 -0.021171768557 0.88 2.34957296981e-38
0.0538658650018 -0.0212198862128 0.882 1.33420569515e-38
0.0556869332064 -0.0212920626966 0.885 2.3494729171e-38
0.0574543317179 -0.0213401803524 0.887 1.21485178001e-38
0.0592291329458 -0.0213882980082 0.889 2.15552760444e-38
0.0610113368898 -0.021436415664 0.891 2.3492531935e-38
0.0626602919409 -0.021436415664 0.891 2.34860186997e-38
0.064309246992 -0.021436415664 0.891 2.34878109604e-38
0.066328337857 -0.0215567098035 0.896 2.34827929106e-38
0.0679865463034 -0.0215567098035 0.896 2.3485658566e-38
0.0698002117917 -0.0216048274593 0.898 2.34878095591e-38
0.0718600175963 -0.0217251215989 0.903 2.34896550692e-38
0.0737754704334 -0.0217972980826 0.906 2.34917584182e-38
0.0756187467868 -0.0218454157384 0.908 2.3484573961e-38
0.077299163382 -0.0218454157384 0.908 2.33877288228e-38
0.0789795799773 -0.0218454157384 0.908 2.32043731227e-38
0.0808376617632 -0.0218935333942 0.91 2.20994759082e-38
0.0827938295399 -0.0219657098779 0.913 2.34875068787e-38
0.0844834995305 -0.0219657098779 0.913 2.3509851984e-38
0.0861731695211 -0.0219657098779 0.913 2.35098491814e-38
0.0 -0.0186326368734 0.839 2.01673053298e-38
0.00155271973945 -0.0186326368734 0.839 2.00758579933e-38
0.00312024491147 -0.0187214694688 0.843 1.92446708027e-38
0.0046803673672 -0.0187214694688 0.843 2.12704705393e-38
0.00624048982293 -0.0187214694688 0.843 2.34859990815e-38
0.00780061227866 -0.0187214694688 0.843 2.34824103562e-38
0.00938294288323 -0.0187658857665 0.845 2.34838775156e-38
0.0109726762041 -0.0188103020641 0.847 2.34827873054e-38
0.0125402013761 -0.0188103020641 0.847 2.34928766544e-38
0.0141077265481 -0.0188103020641 0.847 1.04893355768e-38
0.0157492788829 -0.0188991346595 0.851 7.8060451994e-39
0.0173242067712 -0.0188991346595 0.851 8.46795833811e-39
0.018965759106 -0.018965759106 0.854 8.56053652246e-39
0.0205943566873 -0.0190101754037 0.856 7.73078286018e-39
0.0222303569849 -0.0190545917013 0.858 7.36309195223e-39
0.0238737599988 -0.019099007999 0.86 2.11222201683e-39
0.0254653439987 -0.019099007999 0.86 2.34939990945e-38
0.027119851087 -0.0191434242967 0.862 2.34860355153e-38
0.028715136445 -0.0191434242967 0.862 2.34838480884e-38
0.0303807476077 -0.0191878405943 0.864 2.33909321911e-38
0.0319797343239 -0.0191878405943 0.864 2.3484559948e-38
0.0336953138215 -0.0192544650409 0.867 2.34816886874e-38
0.0352998525749 -0.0192544650409 0.867 2.34853054388e-38
0.0369895225655 -0.0192988813385 0.869 2.34842096234e-38
0.0386865952724 -0.0193432976362 0.871 2.34888955655e-38
0.0402985367421 -0.0193432976362 0.871 2.33026994333e-38
0.0420067135234 -0.0193877139339 0.873 2.24700927274e-38
0.0438721980256 -0.0194987546781 0.878 1.19579860505e-38
0.0454970942488 -0.0194987546781 0.878 1.82330944608e-38
0.047121990472 -0.0194987546781 0.878 1.57456467541e-38
0.0488579274393 -0.0195431709757 0.88 1.99934055916e-38
0.0504865250206 -0.0195431709757 0.88 1.61165802667e-38
0.0524112312531 -0.0196542117199 0.885 2.34964051239e-38
0.0541712270483 -0.0196986280176 0.887 1.20621011251e-38
0.0558127793831 -0.0196986280176 0.887 1.91653797304e-38
0.0577134267877 -0.0197874606129 0.891 2.00787096357e-38
0.0593623818388 -0.0197874606129 0.891 1.15041895558e-38
0.0612167622666 -0.0198540850594 0.894 2.34953989916e-38
0.0628712693549 -0.0198540850594 0.894 2.34899843744e-38
0.0646701294106 -0.0198985013571 0.896 2.34831376301e-38
0.0664763921826 -0.0199429176548 0.898 2.34827957132e-38
0.0683659355127 -0.0200095421013 0.901 2.34896172342e-38
0.0701888543963 -0.020053958399 0.903 2.34892388836e-38
0.0720987551962 -0.0201205828455 0.906 2.34899815718e-38
0.0737754704334 -0.0201205828455 0.906 2.34813691914e-38
0.0756187467868 -0.0201649991431 0.908 2.34820628341e-38
0.077299163382 -0.0201649991431 0.908 2.1823275777e-38
0.0791535438098 -0.0202094154408 0.91 2.25611939431e-38
0.0811041595493 -0.0202760398873 0.913 2.34831684586e-38
0.0829751960887 -0.020320456185 0.915 2.34932367881e-38
0.0846685674374 -0.020320456185 0.915 2.35098407736e-38
0.00156382381387 -0.0172020619526 0.845 2.0258817126e-38
0.00312764762774 -0.0172020619526 0.845 2.01662333364e-38
0.00470257551603 -0.0172427768921 0.847 2.17321745612e-38
0.00625529525549 -0.0172020619526 0.845 2.34856529608e-38
0.00781911906936 -0.0172020619526 0.845 2.34816858849e-38
0.00940515103207 -0.0172427768921 0.847 2.34831362288e-38
0.0109985857111 -0.0172834918317 0.849 2.34824257704e-38
0.0125698122412 -0.0172834918317 0.849 2.34846174012e-38
0.0141743509946 -0.0173242067712 0.851 2.34921760052e-38
0.015804799255 -0.0173852791805 0.854 4.5917748079e-39
0.01742599412 -0.01742599412 0.856 9.38383160011e-39
0.0190545917013 -0.0174667090596 0.858 8.37650819903e-39
0.0206905919989 -0.0175074239991 0.86 8.56126519766e-39
0.0222821759988 -0.0175074239991 0.86 8.19248127691e-39
0.0239292803708 -0.0175481389386 0.862 1.83671692965e-39
0.0255245657289 -0.0175481389386 0.862 1.96953760329e-38
0.027119851087 -0.0175481389386 0.862 2.34932522024e-38
0.0287817608915 -0.0175888538782 0.864 2.34842082221e-38
0.0303807476077 -0.0175888538782 0.864 2.3483850891e-38
0.0320907750681 -0.0176499262875 0.867 2.34874508267e-38
0.0337730423424 -0.017690641227 0.869 2.34831376301e-38
0.035381282454 -0.017690641227 0.869 2.3486048127e-38
0.0370746538027 -0.0177313561665 0.871 2.34874354125e-38
0.0386865952724 -0.0177313561665 0.871 2.07187218807e-38
0.0404836046491 -0.0178127860456 0.875 1.38144640911e-38
0.0422473018025 -0.0178738584549 0.878 2.34878375851e-38
0.0439721346954 -0.0179145733944 0.88 1.2696276962e-38
0.0456007322767 -0.0179145733944 0.88 2.34979143224e-38
0.047229329858 -0.0179145733944 0.88 2.34863928464e-38
0.0489689681835 -0.0179552883339 0.882 1.83177118685e-38
0.0507733802764 -0.0180163607432 0.885 2.19172622663e-38
0.052648118174 -0.0180977906223 0.889 2.32151911468e-38
0.0542933718669 -0.0180977906223 0.889 1.65789400963e-38
0.0560644717366 -0.0181385055618 0.891 1.43616557271e-38
0.05790774809 -0.0181995779711 0.894 2.34993562585e-38
0.0596955040713 -0.0182402929107 0.896 2.34874424189e-38
0.0613537125177 -0.0182402929107 0.896 1.97096272383e-38
0.0631525725735 -0.0182810078502 0.898 2.34827999171e-38
0.0650310118292 -0.0183420802595 0.901 2.34881907123e-38
0.0668465279965 -0.018382795199 0.903 2.34874900631e-38
0.068745324722 -0.0184438676083 0.906 2.34856641712e-38
0.0704220399591 -0.0184438676083 0.906 2.34849551142e-38
0.0722579135962 -0.0184845825479 0.908 2.34849565155e-38
0.0739383301915 -0.0184845825479 0.908 2.32026158944e-38
0.075785307903 -0.0185252974874 0.91 2.27448747445e-38
0.0774694258564 -0.0185252974874 0.91 2.17335996818e-38
0.0791535438098 -0.0185252974874 0.91 2.34870920943e-38
0.08128182474 -0.0186270848362 0.915 2.34892444888e-38
0.0838820288328 -0.0188306595339 0.925 2.34896088264e-38
0.0855939069723 -0.0188306595339 0.925 2.35098141489e-38
0.00156382381387 -0.0156382381387 0.845 1.97060357104e-38
0.00312764762774 -0.0156382381387 0.845 1.99804225614e-38
0.00470257551603 -0.0156752517201 0.847 2.10845995084e-38
0.00627010068805 -0.0156752517201 0.847 2.34888871577e-38
0.00783762586006 -0.0156752517201 0.847 2.3481681681e-38
0.0094273591809 -0.0157122653015 0.849 2.34845809675e-38
0.011024495218 -0.0157492788829 0.851 2.34838550949e-38
0.0125994231063 -0.0157492788829 0.851 2.34842138273e-38
0.0142243193295 -0.015804799255 0.854 2.34925235272e-38
0.0158418128364 -0.0158418128364 0.856 9.2882994786e-39
0.0174667090596 -0.0158788264178 0.858 8.63369130879e-39
0.019099007999 -0.0159158399992 0.86 9.01686796606e-39
0.0206905919989 -0.0159158399992 0.86 8.19105335377e-39
0.0223339950128 -0.0159528535806 0.862 7.54784194436e-39
0.0239292803708 -0.0159528535806 0.862 2.38775933387e-39
0.0255245657289 -0.0159528535806 0.862 2.18141407123e-38
0.0271827741753 -0.015989867162 0.864 2.34914207053e-38
0.0288816975613 -0.016045387534 0.867 2.3486020101e-38
0.0305565621193 -0.0160824011154 0.869 2.34838733118e-38
0.0321648022309 -0.0160824011154 0.869 2.34860243049e-38
0.0338507708634 -0.0161194146968 0.871 2.34863732282e-38
0.0356255720912 -0.0161934418596 0.875 1.9243263899e-38
0.0373726131329 -0.0162489622317 0.878 2.34939598581e-38
0.0389975093561 -0.0162489622317 0.878 1.27020601208e-38
0.0406224055793 -0.0162489622317 0.878 1.81451741925e-38
0.0423435371141 -0.0162859758131 0.88 2.26516099239e-38
0.0439721346954 -0.0162859758131 0.88 2.24729639879e-38
0.0457043703046 -0.0163229893945 0.882 2.34957114812e-38
0.047336669244 -0.0163229893945 0.882 1.7861014686e-38
0.0491355292998 -0.0163785097666 0.885 1.9786746298e-38
0.0508881223787 -0.016415523348 0.887 2.34975738068e-38
0.0527665616345 -0.0164895505108 0.891 1.2612672693e-38
0.0545987339134 -0.0165450708829 0.894 2.34918789299e-38
0.0562532410017 -0.0165450708829 0.894 2.11825362581e-38
0.0580372956249 -0.0165820844643 0.896 2.34922054324e-38
0.0596955040713 -0.0165820844643 0.896 2.11789615457e-38
0.0614906627689 -0.0166190980456 0.898 2.34867683944e-38
0.0633635499874 -0.0166746184177 0.901 2.34892332784e-38
0.0651753647966 -0.0167116319991 0.903 2.34856641712e-38
0.0670686094849 -0.0167671523712 0.906 2.34881851071e-38
0.0688970804057 -0.0168041659526 0.908 2.34914151001e-38
0.070577497001 -0.0168041659526 0.908 2.34839041403e-38
0.0724170719962 -0.016841179534 0.91 2.24668066825e-38
0.0741011899496 -0.016841179534 0.91 2.15459658174e-38
0.0764515523681 -0.0169892338596 0.918 2.21927855703e-38
0.0781504757541 -0.0169892338596 0.918 2.34852886232e-38
0.0800233629726 -0.017026247441 0.92 2.34907592924e-38
0.0817259877167 -0.017026247441 0.92 2.34842306429e-38
0.0838820288328 -0.0171187813945 0.925 2.34910395521e-38
0.0855939069723 -0.0171187813945 0.925 2.35098127476e-38
0.00160824011154 -0.0144741610039 0.869 1.98907380584e-38
0.00314985577658 -0.0141743509946 0.851 2.08094671666e-38
0.00472478366487 -0.0141743509946 0.851 2.0806933619e-38
0.00629971155316 -0.0141743509946 0.851 2.34888941642e-38
0.00787463944145 -0.0141743509946 0.851 2.34888899603e-38
0.00944956732974 -0.0141743509946 0.851 2.34824453886e-38
0.0110633594785 -0.0142243193295 0.854 2.34827957132e-38
0.012643839404 -0.0142243193295 0.854 2.34845767636e-38
0.014290943776 -0.014290943776 0.858 2.34870920943e-38
0.0158788264178 -0.014290943776 0.858 2.34961164564e-38
0.0175074239991 -0.0143242559993 0.86 4.13259732711e-39
0.0191434242967 -0.0143575682225 0.862 9.01611266619e-39
0.0207387096547 -0.0143575682225 0.862 9.02009375513e-39
0.0223339950128 -0.0143575682225 0.862 5.33371750321e-39
0.0239848007429 -0.0143908804458 0.864 5.87755723332e-39
0.0255837874591 -0.0143908804458 0.864 2.34914963754e-38
0.0272771588079 -0.0144408487806 0.867 2.3486395649e-38
0.0289483220078 -0.0144741610039 0.869 2.34824103562e-38
0.030626887924 -0.0145074732272 0.871 2.3487452228e-38
0.0323868837192 -0.0145740976737 0.875 2.19194104568e-38
0.0341228206866 -0.0146240660085 0.878 2.3486743171e-38
0.0357477169098 -0.0146240660085 0.878 1.73042984243e-38
0.0373726131329 -0.0146240660085 0.878 1.66700427134e-38
0.0390863419515 -0.0146573782318 0.88 1.73096920221e-38
0.0407149395328 -0.0146573782318 0.88 2.34892332784e-38
0.0423435371141 -0.0146573782318 0.88 1.32537667405e-38
0.0440720713651 -0.014690690455 0.882 2.34907466807e-38
0.0458598273464 -0.0147406587899 0.885 2.34921493805e-38
0.0474976783231 -0.0147406587899 0.885 2.3485297031e-38
0.0492465700439 -0.0147739710132 0.887 1.51938280306e-38
0.0512897197369 -0.0148905637946 0.894 1.93516094937e-38
0.0529442268251 -0.0148905637946 0.894 1.82341258164e-38
0.0545987339134 -0.0148905637946 0.894 2.34868272489e-38
0.0563790871785 -0.0149238760178 0.896 1.97059936714e-38
0.0581668431598 -0.0149571882411 0.898 2.3481775568e-38
0.0598287529643 -0.0149571882411 0.898 2.21001765574e-38
0.0616960881456 -0.015007156576 0.901 2.34925487505e-38
0.0635042015967 -0.0150404687992 0.903 2.34888731447e-38
0.0653918942478 -0.0150904371341 0.906 2.3488912381e-38
0.0672166638105 -0.0151237493574 0.908 2.34834991651e-38
0.0688970804057 -0.0151237493574 0.908 2.34845893753e-38
0.0707329540428 -0.0151570615806 0.91 2.20069271511e-38
0.0728149679962 -0.0152403421387 0.915 2.31143256833e-38
0.0747526289822 -0.0152903104736 0.918 2.1916190273e-38
0.0766181134844 -0.0153236226969 0.92 2.28360137953e-38
0.0785761319401 -0.0153735910318 0.923 2.34914249092e-38
0.0804582725539 -0.015406903255 0.925 2.34921437753e-38
0.0821701506934 -0.015406903255 0.925 2.34896186355e-38
0.0841540786561 -0.0154568715899 0.928 2.34863760308e-38
0.0858715088327 -0.0154568715899 0.928 2.3509837971e-38
0.00321648022309 -0.0128659208924 0.869 2.025629619e-38
0.00476364792533 -0.0127030611342 0.858 2.09934982926e-38
0.006321919702 -0.012643839404 0.854 2.34867725983e-38
0.0079023996275 -0.012643839404 0.854 2.34809600122e-38
0.00948287955299 -0.012643839404 0.854 2.34841773935e-38
0.0110892689855 -0.0126734502691 0.856 2.34827606808e-38
0.0127030611342 -0.0127030611342 0.858 2.34871089099e-38
0.0143242559993 -0.0127326719993 0.86 2.34924674752e-38
0.0159528535806 -0.0127622828645 0.862 1.98943730266e-38
0.0175481389386 -0.0127622828645 0.862 3.489748854e-39
0.0191434242967 -0.0127622828645 0.862 8.09489765445e-39
0.0207387096547 -0.0127622828645 0.862 5.05460967768e-39
0.0223858140267 -0.0127918937296 0.864 5.69382598517e-39
0.0240680813011 -0.0128363100272 0.867 2.34922124389e-38
0.0257318417847 -0.0128659208924 0.869 2.34928668453e-38
0.0273400818963 -0.0128659208924 0.869 2.34860186997e-38
0.0291481953473 -0.0129547534877 0.875 2.29331910412e-38
0.0308730282403 -0.0129991697854 0.878 1.92414183889e-38
0.0324979244634 -0.0129991697854 0.878 1.4629469087e-38
0.0342005492075 -0.0130287806505 0.88 2.34943241957e-38
0.0358291467888 -0.0130287806505 0.88 1.8871957641e-38
0.0374577443701 -0.0130287806505 0.88 2.24815917825e-38
0.0391751745468 -0.0130583915156 0.882 2.21041590477e-38
0.0408074734862 -0.0130583915156 0.882 2.00740797455e-38
0.0424397724257 -0.0130583915156 0.882 1.68584066543e-38
0.0442219763698 -0.0131028078133 0.885 1.73032894894e-38
0.0459634653743 -0.0131324186784 0.887 2.34982394236e-38
0.0477123570952 -0.0131620295435 0.889 2.22888754086e-38
0.0493576107881 -0.0131620295435 0.889 2.10954567689e-38
0.0512897197369 -0.0132360567063 0.894 2.14670460892e-38
0.0530626702856 -0.0132656675714 0.896 2.31233682623e-38
0.054720878732 -0.0132656675714 0.896 1.99840631348e-38
0.0565049333552 -0.0132952784365 0.898 2.23814648034e-38
0.0581668431598 -0.0132952784365 0.898 2.34900194068e-38
0.0603617485364 -0.013413721897 0.906 2.34881921136e-38
0.0620384637735 -0.013413721897 0.906 2.34871005021e-38
0.0637151790106 -0.013413721897 0.906 2.34888843551e-38
0.0655362472152 -0.0134433327621 0.908 2.3488165489e-38
0.067364718136 -0.0134729436272 0.91 2.34834725404e-38
0.069276469615 -0.0135173599249 0.913 2.25608436185e-38
0.0711215966475 -0.01354697079 0.915 2.30221847041e-38
0.0730537055962 -0.0135913870877 0.918 2.27470103234e-38
0.0749154887403 -0.0136209979528 0.92 2.25615624846e-38
0.0770345162751 -0.0136950251156 0.925 2.34885746681e-38
0.0787463944145 -0.0136950251156 0.925 2.34910521638e-38
0.0807192183028 -0.0137394414132 0.928 2.34899633549e-38
0.0824366484794 -0.0137394414132 0.928 2.34802691721e-38
0.0841540786561 -0.0137394414132 0.928 2.34910885975e-38
0.0858715088327 -0.0137394414132 0.928 2.35098631944e-38
-0.00659582020431 -0.0115426853575 0.891 1.95191235147e-38
-0.00494686515323 -0.0115426853575 0.891 1.9152119243e-38
0.0 -0.0113742735622 0.878 1.97985998817e-38
0.00161934418596 -0.0113354093017 0.875 1.9152119243e-38
0.00321648022309 -0.0112576807808 0.869 2.02566941588e-38
0.00481361626021 -0.0112317712738 0.867 1.99825889688e-38
0.00641815501362 -0.0112317712738 0.867 2.34903599223e-38
0.00797642679028 -0.0111669975064 0.862 2.34834557248e-38
0.00957171214834 -0.0111669975064 0.862 2.34809726239e-38
0.0111669975064 -0.0111669975064 0.862 2.34860172984e-38
0.0127622828645 -0.0111669975064 0.862 2.34824089549e-38
0.0143908804458 -0.0111929070134 0.864 2.34921185519e-38
0.015989867162 -0.0111929070134 0.864 1.15056427023e-38
0.0175888538782 -0.0111929070134 0.864 2.66322938858e-39
0.0191878405943 -0.0111929070134 0.864 2.38775372867e-39
0.0207868273105 -0.0111929070134 0.864 1.3792002678e-38
0.0224635425477 -0.0112317712738 0.867 2.34932704193e-38
0.0241791220453 -0.0112835902878 0.871 2.34903375016e-38
0.0257910635149 -0.0112835902878 0.871 2.24729345606e-38
0.0275288511614 -0.0113354093017 0.875 1.9155696758e-38
0.0292481320171 -0.0113742735622 0.878 2.23796571284e-38
0.0309433540449 -0.0114001830692 0.88 2.34942919658e-38
0.0325719516262 -0.0114001830692 0.88 1.26987810824e-38
0.0342782777284 -0.0114260925761 0.882 2.34975303666e-38
0.0359105766679 -0.0114260925761 0.882 1.86937194829e-38
0.0376705724632 -0.0114649568366 0.885 1.40911658872e-38
0.0393972560352 -0.0114908663436 0.887 2.34975289653e-38
0.04103880837 -0.0114908663436 0.887 2.47955839627e-39
0.0427765960164 -0.0115167758506 0.889 2.34993674689e-38
0.0444218497093 -0.0115167758506 0.889 1.0859962205e-38
0.0460671034023 -0.0115167758506 0.889 2.00784560006e-38
0.0478196964812 -0.0115426853575 0.891 2.3025724384e-38
0.0497462533928 -0.011607459125 0.896 2.24776513313e-38
0.0514044618392 -0.011607459125 0.896 2.228493776e-38
0.0531811137461 -0.011633368632 0.898 2.31122027162e-38
0.0548430235506 -0.011633368632 0.898 2.24733325294e-38
0.0565049333552 -0.011633368632 0.898 2.13654981934e-38
0.0583611644621 -0.0116722328924 0.901 2.34906948327e-38
0.0603617485364 -0.0117370066599 0.906 2.34892683108e-38
