# .PCD v0.7 - Point Cloud Data file format
VERSION 0.7
FIELDS x y z rgb
SIZE 4 4 4 4
TYPE F F F F
COUNT 1 1 1 1
WIDTH 839
HEIGHT 1
VIEWPOINT 0 0 0 1 0 0 0
POINTS 839
DATA ascii
0.0341228206866 -0.0454970942488 0.878 1.63182761612e-38
0.0356255720912 -0.0453416372069 0.875 1.65015856185e-38
0.0372449162771 -0.0453416372069 0.875 1.63172041679e-38
0.0388642604631 -0.0453416372069 0.875 1.79763555626e-38
0.0404836046491 -0.0453416372069 0.875 1.84380693936e-38
0.042102948835 -0.0453416372069 0.875 1.78852487417e-38
0.043722293021 -0.0453416372069 0.875 1.85291706094e-38
0.0454970942488 -0.0454970942488 0.878 1.74235475223e-38
0.047121990472 -0.0454970942488 0.878 1.71480564481e-38
0.0487468866951 -0.0454970942488 0.878 1.68703905587e-38
0.0503717829183 -0.0454970942488 0.878 1.84380749988e-38
0.0519966791415 -0.0454970942488 0.878 1.68743562334e-38
0.0536215753646 -0.0454970942488 0.878 1.86256850411e-38
0.0552464715878 -0.0454970942488 0.878 1.8161820217e-38
0.056871367811 -0.0454970942488 0.878 2.00983166038e-38
-0.0337730423424 -0.0434224830117 0.869 1.90805325097e-38
-0.0321648022309 -0.0434224830117 0.869 1.92649237694e-38
-0.030626887924 -0.0435224196815 0.871 2.00939725785e-38
-0.0290815709008 -0.0436223563512 0.873 1.37357447486e-38
-0.027465928073 -0.0436223563512 0.873 1.86235522649e-38
-0.0258502852452 -0.0436223563512 0.873 1.73309805484e-38
-0.0242901627894 -0.043722293021 0.875 1.76086618521e-38
-0.0226708186035 -0.043722293021 0.875 1.91752462729e-38
-0.0210514744175 -0.043722293021 0.875 1.53044969781e-38
-0.0194987546781 -0.0438721980256 0.878 1.06350145651e-40
-0.0178738584549 -0.0438721980256 0.878 1.76949383972e-39
-0.0162489622317 -0.0438721980256 0.878 1.0513666322e-38
-0.0146240660085 -0.0438721980256 0.878 3.96918350539e-39
-0.0129991697854 -0.0438721980256 0.878 2.49669347389e-41
-0.0113742735622 -0.0438721980256 0.878 3.98080867745e-40
-0.00977158548786 -0.0439721346954 0.88 1.31427362579e-39
-0.00814298790655 -0.0439721346954 0.88 1.33774887832e-38
-0.00651439032524 -0.0439721346954 0.88 7.37646874737e-39
-0.00488579274393 -0.0439721346954 0.88 1.15187952897e-38
-0.00325719516262 -0.0439721346954 0.88 1.55782350279e-38
-0.00162859758131 -0.0439721346954 0.88 8.02469260138e-39
0.0 -0.0439721346954 0.88 1.65041499947e-38
0.00162859758131 -0.0439721346954 0.88 2.40183257435e-39
0.00324979244634 -0.0438721980256 0.878 1.2458342088e-38
0.00487468866951 -0.0438721980256 0.878 1.12015595343e-39
0.00651439032524 -0.0439721346954 0.88 2.23262298218e-39
0.00814298790655 -0.0439721346954 0.88 4.77674620519e-40
0.00977158548786 -0.0439721346954 0.88 1.95999616205e-41
0.0114001830692 -0.0439721346954 0.88 3.42182091095e-39
0.0130287806505 -0.0439721346954 0.88 5.90747495553e-39
0.0146573782318 -0.0439721346954 0.88 9.22692260587e-39
0.0162859758131 -0.0439721346954 0.88 1.65073337448e-38
0.0179145733944 -0.0439721346954 0.88 1.59498663871e-38
0.0194987546781 -0.0438721980256 0.878 1.622535606e-38
0.0211236509012 -0.0438721980256 0.878 1.61324569783e-38
0.0227485471244 -0.0438721980256 0.878 1.68700276224e-38
0.0243734433476 -0.0438721980256 0.878 1.6592361733e-38
0.026057561301 -0.0439721346954 0.88 1.70540405316e-38
0.0276861588823 -0.0439721346954 0.88 1.64090270523e-38
0.0292481320171 -0.0438721980256 0.878 1.60402473355e-38
0.0308730282403 -0.0438721980256 0.878 1.63168510407e-38
0.0324979244634 -0.0438721980256 0.878 1.65937868536e-38
0.0341228206866 -0.0438721980256 0.878 1.62267839832e-38
0.0357477169098 -0.0438721980256 0.878 1.65015856185e-38
0.0373726131329 -0.0438721980256 0.878 1.79756521108e-38
0.0389975093561 -0.0438721980256 0.878 1.89901319431e-38
0.0406224055793 -0.0438721980256 0.878 1.79770744287e-38
0.0422473018025 -0.0438721980256 0.878 1.82525795159e-38
0.0438721980256 -0.0438721980256 0.878 1.64083179953e-38
0.0454970942488 -0.0438721980256 0.878 1.78848759963e-38
0.047121990472 -0.0438721980256 0.878 1.83458737638e-38
0.0487468866951 -0.0438721980256 0.878 1.89912305611e-38
0.0503717829183 -0.0438721980256 0.878 1.72402352624e-38
0.0519966791415 -0.0438721980256 0.878 7.47475582166e-39
0.0536215753646 -0.0438721980256 0.878 1.95476413397e-38
0.0552464715878 -0.0438721980256 0.878 1.82547347129e-38
0.056871367811 -0.0438721980256 0.878 2.00064867128e-38
-0.0307675395333 -0.042102948835 0.875 1.99099596694e-38
-0.0291481953473 -0.042102948835 0.875 1.24460442926e-38
-0.0275288511614 -0.042102948835 0.875 1.72413436895e-38
-0.0259095069754 -0.042102948835 0.875 1.71469550275e-38
-0.0242901627894 -0.042102948835 0.875 1.76072129095e-38
-0.0227485471244 -0.0422473018025 0.878 1.56714423953e-38
-0.0211236509012 -0.0422473018025 0.878 1.80660498747e-38
-0.0195431709757 -0.0423435371141 0.88 1.20073341772e-39
-0.0179145733944 -0.0423435371141 0.88 1.31537364509e-39
-0.0162859758131 -0.0423435371141 0.88 1.8620425968e-39
-0.0146573782318 -0.0423435371141 0.88 2.415563898e-39
-0.0130287806505 -0.0423435371141 0.88 3.15169961247e-39
-0.0114001830692 -0.0423435371141 0.88 2.78327302283e-39
-0.00977158548786 -0.0423435371141 0.88 1.99306680581e-41
-0.00814298790655 -0.0423435371141 0.88 1.56751292115e-38
-0.00651439032524 -0.0423435371141 0.88 7.37285900252e-39
-0.00488579274393 -0.0423435371141 0.88 1.42900521782e-38
-0.0032645978789 -0.0424397724257 0.882 1.01404879293e-38
-0.00162859758131 -0.0423435371141 0.88 1.01505870873e-38
0.0 -0.0423435371141 0.88 3.15062621785e-39
0.00163229893945 -0.0424397724257 0.882 1.48283021287e-39
0.00325719516262 -0.0423435371141 0.88 2.13217790826e-39
0.00488579274393 -0.0423435371141 0.88 5.26068322855e-39
0.0065291957578 -0.0424397724257 0.882 7.56410541434e-39
0.00814298790655 -0.0423435371141 0.88 1.29110399647e-38
0.00977158548786 -0.0423435371141 0.88 1.65047931907e-38
0.0114001830692 -0.0423435371141 0.88 1.72398989508e-38
0.0130287806505 -0.0423435371141 0.88 1.86213690418e-38
0.0146573782318 -0.0423435371141 0.88 1.79770744287e-38
0.0162859758131 -0.0423435371141 0.88 1.65934337263e-38
0.0179145733944 -0.0423435371141 0.88 1.63175727094e-38
0.0195431709757 -0.0423435371141 0.88 1.72402352624e-38
0.021171768557 -0.0423435371141 0.88 1.73317022171e-38
0.0228003661383 -0.0423435371141 0.88 1.69632798313e-38
0.0244289637197 -0.0423435371141 0.88 1.6593784051e-38
0.026057561301 -0.0423435371141 0.88 1.60406102718e-38
0.0276861588823 -0.0423435371141 0.88 1.6593784051e-38
0.0293147564636 -0.0423435371141 0.88 1.66845349421e-38
0.0309433540449 -0.0423435371141 0.88 1.69618435004e-38
0.0325719516262 -0.0423435371141 0.88 1.67778123744e-38
0.0342005492075 -0.0423435371141 0.88 1.74224531082e-38
0.0358291467888 -0.0423435371141 0.88 1.79774219507e-38
0.0374577443701 -0.0423435371141 0.88 1.77930699274e-38
0.0390863419515 -0.0423435371141 0.88 1.8069267256e-38
0.0407149395328 -0.0423435371141 0.88 1.6593784051e-38
0.0423435371141 -0.0423435371141 0.88 1.65927176628e-38
0.0439721346954 -0.0423435371141 0.88 1.89898012367e-38
0.0456007322767 -0.0423435371141 0.88 1.89905018859e-38
0.047229329858 -0.0423435371141 0.88 1.85298922781e-38
0.0488579274393 -0.0423435371141 0.88 1.93593194378e-38
0.0503717829183 -0.0422473018025 0.878 1.69625763795e-38
0.0519966791415 -0.0422473018025 0.878 1.19004809654e-38
0.0536215753646 -0.0422473018025 0.878 1.91788616229e-38
0.0552464715878 -0.0422473018025 0.878 1.81625390831e-38
0.056871367811 -0.0422473018025 0.878 2.00983166038e-38
-0.0307675395333 -0.0404836046491 0.875 2.00947068589e-38
-0.0291481953473 -0.0404836046491 0.875 1.40123092174e-38
-0.0275288511614 -0.0404836046491 0.875 1.77948705959e-38
-0.0259983395707 -0.0406224055793 0.878 1.77012134117e-38
-0.0243734433476 -0.0406224055793 0.878 1.81607608353e-38
-0.0228003661383 -0.0407149395328 0.88 1.89912333637e-38
-0.021171768557 -0.0407149395328 0.88 1.99117575353e-38
-0.0195875872734 -0.0408074734862 0.882 7.4682369812e-39
-0.0179145733944 -0.0407149395328 0.88 7.54631452904e-40
-0.0162859758131 -0.0407149395328 0.88 3.24389524233e-39
-0.014690690455 -0.0408074734862 0.882 3.24353230603e-39
-0.0130583915156 -0.0408074734862 0.882 3.42863962927e-39
-0.0114001830692 -0.0407149395328 0.88 3.33716566812e-39
-0.00977158548786 -0.0407149395328 0.88 9.40449234467e-40
-0.00816149469725 -0.0408074734862 0.882 8.58261257846e-39
-0.0065291957578 -0.0408074734862 0.882 2.12780445575e-39
-0.00489689681835 -0.0408074734862 0.882 1.13196889948e-41
-0.0032645978789 -0.0408074734862 0.882 2.59780696718e-39
-0.00163785097666 -0.0409462744165 0.885 1.57539158164e-39
0.0 -0.0409462744165 0.885 4.53106215063e-39
0.00163229893945 -0.0408074734862 0.882 1.11625838188e-38
0.0032645978789 -0.0408074734862 0.882 1.5031814106e-38
0.00489689681835 -0.0408074734862 0.882 1.68710813989e-38
0.00655140390664 -0.0409462744165 0.885 1.80674665875e-38
0.00818925488329 -0.0409462744165 0.885 1.79763555626e-38
0.0097937936367 -0.0408074734862 0.882 1.79770744287e-38
0.0114260925761 -0.0408074734862 0.882 1.65934211147e-38
0.0130287806505 -0.0407149395328 0.88 1.72384345939e-38
0.0146573782318 -0.0407149395328 0.88 1.62250057354e-38
0.0163229893945 -0.0408074734862 0.882 1.70543964614e-38
0.0179145733944 -0.0407149395328 0.88 1.61331758444e-38
0.0195431709757 -0.0407149395328 0.88 1.64101214664e-38
0.021171768557 -0.0407149395328 0.88 1.79760024354e-38
0.0228003661383 -0.0407149395328 0.88 1.67778095718e-38
0.0244289637197 -0.0407149395328 0.88 1.6870377947e-38
0.026057561301 -0.0407149395328 0.88 1.63172013653e-38
0.0276861588823 -0.0407149395328 0.88 1.67781753107e-38
0.0293147564636 -0.0407149395328 0.88 1.71473109574e-38
0.0309433540449 -0.0407149395328 0.88 1.74238978469e-38
0.0325719516262 -0.0407149395328 0.88 1.72398793326e-38
0.0342005492075 -0.0407149395328 0.88 1.67785312405e-38
0.0358291467888 -0.0407149395328 0.88 1.72409527272e-38
0.0374577443701 -0.0407149395328 0.88 1.66888509414e-38
0.0391751745468 -0.0408074734862 0.882 1.6042062017e-38
0.0408074734862 -0.0408074734862 0.882 1.66859796808e-38
0.0424397724257 -0.0408074734862 0.882 1.67774788654e-38
0.0440720713651 -0.0408074734862 0.882 1.87142863404e-38
0.0457043703046 -0.0408074734862 0.882 1.88979517275e-38
0.047336669244 -0.0408074734862 0.882 1.88983048548e-38
0.0488579274393 -0.0407149395328 0.88 1.87142835378e-38
0.0504865250206 -0.0407149395328 0.88 1.82543815857e-38
0.0521151226019 -0.0407149395328 0.88 1.14384266189e-38
0.0537437201832 -0.0407149395328 0.88 1.81639992361e-38
0.0553723177646 -0.0407149395328 0.88 1.76079401834e-38
0.0570009153459 -0.0407149395328 0.88 1.99135722168e-38
-0.0291481953473 -0.0388642604631 0.875 1.37345900786e-38
-0.0275288511614 -0.0388642604631 0.875 1.81639838218e-38
-0.0259983395707 -0.0389975093561 0.878 1.80696371988e-38
-0.0244289637197 -0.0390863419515 0.88 1.80696371988e-38
-0.0228521851523 -0.0391751745468 0.882 1.77012134117e-38
-0.0212198862128 -0.0391751745468 0.882 1.88993978676e-38
-0.0195875872734 -0.0391751745468 0.882 1.91759903623e-38
-0.0180163607432 -0.0393084234398 0.885 6.99668323237e-42
-0.0163785097666 -0.0393084234398 0.885 9.48017647473e-40
-0.0147406587899 -0.0393084234398 0.885 2.13862528249e-39
-0.0131028078133 -0.0393084234398 0.885 1.16086367382e-40
-0.0114260925761 -0.0391751745468 0.882 1.77782736169e-41
-0.0097937936367 -0.0391751745468 0.882 2.14006301472e-41
-0.00818925488329 -0.0393084234398 0.885 1.45356689704e-41
-0.00655140390664 -0.0393084234398 0.885 7.47376089975e-39
-0.00491355292998 -0.0393084234398 0.885 1.20809303726e-38
-0.00327570195332 -0.0393084234398 0.885 1.45687270025e-38
-0.00163785097666 -0.0393084234398 0.885 1.81607033821e-38
0.0 -0.0393084234398 0.885 1.85298922781e-38
0.00163785097666 -0.0393084234398 0.885 1.87150066078e-38
0.00327570195332 -0.0393084234398 0.885 1.79767213015e-38
0.00491355292998 -0.0393084234398 0.885 1.82540312611e-38
0.00655140390664 -0.0393084234398 0.885 1.8069267256e-38
0.00820776167399 -0.0393972560352 0.887 1.78845256716e-38
0.00984931400879 -0.0393972560352 0.887 1.70536874044e-38
0.0114908663436 -0.0393972560352 0.887 1.66852636173e-38
0.0130583915156 -0.0391751745468 0.882 1.69614903732e-38
0.014690690455 -0.0391751745468 0.882 1.63172069705e-38
0.0163229893945 -0.0391751745468 0.882 1.65934337263e-38
0.0179552883339 -0.0391751745468 0.882 1.63168538433e-38
0.0195431709757 -0.0390863419515 0.88 1.64097683392e-38
0.021171768557 -0.0390863419515 0.88 1.66852664199e-38
0.0228003661383 -0.0390863419515 0.88 1.67763802474e-38
0.0244289637197 -0.0390863419515 0.88 1.69611414499e-38
0.0261167830312 -0.0391751745468 0.882 1.67763802474e-38
0.0277490819706 -0.0391751745468 0.882 1.7053690207e-38
0.0293147564636 -0.0390863419515 0.88 1.75157473561e-38
0.0309433540449 -0.0390863419515 0.88 1.72405883896e-38
0.032645978789 -0.0391751745468 0.882 1.65026646183e-38
0.0342782777284 -0.0391751745468 0.882 1.6963292443e-38
0.0359105766679 -0.0391751745468 0.882 1.71469550275e-38
0.0375428756073 -0.0391751745468 0.882 1.7238805938e-38
0.0391751745468 -0.0391751745468 0.882 1.75164634196e-38
0.0408074734862 -0.0391751745468 0.882 1.71469606327e-38
0.0424397724257 -0.0391751745468 0.882 1.80692700586e-38
0.0440720713651 -0.0391751745468 0.882 1.7330635829e-38
0.0457043703046 -0.0391751745468 0.882 1.7699059616e-38
0.047336669244 -0.0391751745468 0.882 1.74231817834e-38
0.0489689681835 -0.0391751745468 0.882 1.80681952627e-38
0.0506012671229 -0.0391751745468 0.882 1.70561943273e-38
0.0522335660624 -0.0391751745468 0.882 1.30990675939e-38
0.0538658650018 -0.0391751745468 0.882 1.80725336827e-38
0.0554981639413 -0.0391751745468 0.882 1.67774732602e-38
0.0571304628807 -0.0391751745468 0.882 2.06496883131e-38
-0.0294813175799 -0.0376705724632 0.885 1.41016321854e-38
-0.0277490819706 -0.0375428756073 0.882 1.74246433377e-38
-0.0261167830312 -0.0375428756073 0.882 1.82540284585e-38
-0.0244844840917 -0.0375428756073 0.882 1.82543815857e-38
-0.0229299136732 -0.0376705724632 0.885 1.72398835365e-38
-0.0212920626966 -0.0376705724632 0.885 1.88990475429e-38
-0.0196542117199 -0.0376705724632 0.885 2.09259094638e-38
-0.0180570756828 -0.0377557037004 0.887 5.49308998015e-42
-0.016415523348 -0.0377557037004 0.887 1.20770067369e-39
-0.0147739710132 -0.0377557037004 0.887 4.43668049517e-39
-0.0131324186784 -0.0377557037004 0.887 9.59275679335e-39
-0.0114908663436 -0.0377557037004 0.887 1.42928659855e-38
-0.00984931400879 -0.0377557037004 0.887 1.84394342583e-38
-0.00820776167399 -0.0377557037004 0.887 1.93603563987e-38
-0.00656620933919 -0.0377557037004 0.887 1.96354985496e-38
-0.00492465700439 -0.0377557037004 0.887 1.90826975158e-38
-0.00327570195332 -0.0376705724632 0.885 1.77012134117e-38
-0.00163785097666 -0.0376705724632 0.885 1.79767213015e-38
0.0 -0.0376705724632 0.885 1.74239146625e-38
0.00163785097666 -0.0376705724632 0.885 1.76086590495e-38
0.00327570195332 -0.0376705724632 0.885 1.73317050197e-38
0.00491355292998 -0.0376705724632 0.885 1.76086492404e-38
0.00656620933919 -0.0377557037004 0.887 1.76079401834e-38
0.00820776167399 -0.0377557037004 0.887 1.62250239523e-38
0.00984931400879 -0.0377557037004 0.887 1.79760024354e-38
0.0114908663436 -0.0377557037004 0.887 1.66856139419e-38
0.0131324186784 -0.0377557037004 0.887 1.76075660367e-38
0.0147739710132 -0.0377557037004 0.887 1.59495132599e-38
0.016415523348 -0.0377557037004 0.887 1.64104745937e-38
0.0180570756828 -0.0377557037004 0.887 1.61328059016e-38
0.0196542117199 -0.0376705724632 0.885 1.70536930096e-38
0.0212920626966 -0.0376705724632 0.885 1.63179104223e-38
0.0228521851523 -0.0375428756073 0.882 1.68703751444e-38
0.0244844840917 -0.0375428756073 0.882 1.67771257381e-38
0.0261167830312 -0.0375428756073 0.882 1.70533370797e-38
0.0277490819706 -0.0375428756073 0.882 1.76082933106e-38
0.0293813809101 -0.0375428756073 0.882 1.70540405316e-38
0.0310136798495 -0.0375428756073 0.882 1.65023198989e-38
0.0327570195332 -0.0376705724632 0.885 1.65948658534e-38
0.0343948705098 -0.0376705724632 0.885 1.65026702235e-38
0.0360327214865 -0.0376705724632 0.885 1.65941399808e-38
0.0376705724632 -0.0376705724632 0.885 1.71462515757e-38
0.0393084234398 -0.0376705724632 0.885 1.76090149793e-38
0.0409462744165 -0.0376705724632 0.885 1.72391562626e-38
0.0425841253931 -0.0376705724632 0.885 1.72387849185e-38
0.0442219763698 -0.0376705724632 0.885 1.78845256716e-38
0.0458598273464 -0.0376705724632 0.885 1.77923272392e-38
0.0474976783231 -0.0376705724632 0.885 1.82540186494e-38
0.0489689681835 -0.0375428756073 0.882 1.84380693936e-38
0.0506012671229 -0.0375428756073 0.882 1.49331711019e-38
0.0524112312531 -0.0376705724632 0.885 1.55807503586e-38
0.0538658650018 -0.0375428756073 0.882 1.88086343647e-38
0.0554981639413 -0.0375428756073 0.882 1.88986846066e-38
0.0571304628807 -0.0375428756073 0.882 2.1387976422e-38
-0.0312598201658 -0.0361955812446 0.889 1.57604206438e-38
-0.0295479420264 -0.0361141513656 0.887 1.35477325336e-38
-0.0278434666032 -0.0360327214865 0.885 1.53945276018e-38
-0.0262056156265 -0.0360327214865 0.885 1.81611139625e-38
-0.0245677646499 -0.0360327214865 0.885 1.7793058717e-38
-0.0229817326872 -0.0361141513656 0.887 1.77934230546e-38
-0.0213401803524 -0.0361141513656 0.887 1.69629393158e-38
-0.0196986280176 -0.0361141513656 0.887 1.69618435004e-38
-0.0180570756828 -0.0361141513656 0.887 1.5488865817e-38
-0.016415523348 -0.0361141513656 0.887 1.67832171826e-38
-0.0147739710132 -0.0361141513656 0.887 2.01908429401e-38
-0.0131324186784 -0.0361141513656 0.887 2.02808707612e-38
-0.0114908663436 -0.0361141513656 0.887 1.85302454053e-38
-0.00987152215763 -0.0361955812446 0.889 1.92674601196e-38
-0.00822626846469 -0.0361955812446 0.889 1.78852515443e-38
-0.00658101477175 -0.0361955812446 0.889 1.71469606327e-38
-0.00493576107881 -0.0361955812446 0.889 1.76086618521e-38
-0.00329050738588 -0.0361955812446 0.889 1.76093681065e-38
-0.0016415523348 -0.0361141513656 0.887 1.72402352624e-38
0.0 -0.0361141513656 0.887 1.72398793326e-38
0.0016415523348 -0.0361141513656 0.887 1.78841697418e-38
0.0032831046696 -0.0361141513656 0.887 1.74242705923e-38
0.00492465700439 -0.0361141513656 0.887 1.78845228691e-38
0.00656620933919 -0.0361141513656 0.887 1.70554880729e-38
0.00822626846469 -0.0361955812446 0.889 1.6317923034e-38
0.00987152215763 -0.0361955812446 0.889 1.69632770287e-38
0.0115167758506 -0.0361955812446 0.889 1.65934211147e-38
0.0131620295435 -0.0361955812446 0.889 1.65015884211e-38
0.0148072832364 -0.0361955812446 0.889 1.62246526082e-38
0.0164525369294 -0.0361955812446 0.889 1.69632798313e-38
0.0180570756828 -0.0361141513656 0.887 1.62246526082e-38
0.0196986280176 -0.0361141513656 0.887 1.80685483899e-38
0.0213401803524 -0.0361141513656 0.887 1.61324401627e-38
0.0229817326872 -0.0361141513656 0.887 1.70540433342e-38
0.024623285022 -0.0361141513656 0.887 1.66852608147e-38
0.0262648373568 -0.0361141513656 0.887 1.71462361614e-38
0.0278434666032 -0.0360327214865 0.885 1.76075660367e-38
0.0294813175799 -0.0360327214865 0.885 1.73299071538e-38
0.0311191685565 -0.0360327214865 0.885 1.6593784051e-38
0.0327570195332 -0.0360327214865 0.885 1.66863201964e-38
0.0343948705098 -0.0360327214865 0.885 1.60402599472e-38
0.0360327214865 -0.0360327214865 0.885 1.80685483899e-38
0.0376705724632 -0.0360327214865 0.885 1.77916083731e-38
0.0393084234398 -0.0360327214865 0.885 1.79770688235e-38
0.0409462744165 -0.0360327214865 0.885 1.76079401834e-38
0.0425841253931 -0.0360327214865 0.885 1.76082961132e-38
0.0442219763698 -0.0360327214865 0.885 1.80689169314e-38
0.0458598273464 -0.0360327214865 0.885 1.75168193494e-38
0.0474976783231 -0.0360327214865 0.885 1.59491419158e-38
0.0491355292998 -0.0360327214865 0.885 1.73309861536e-38
0.0507733802764 -0.0360327214865 0.885 1.39201135875e-38
0.0524112312531 -0.0360327214865 0.885 1.49357298729e-38
0.0540490822297 -0.0360327214865 0.885 1.93603760169e-38
0.0556869332064 -0.0360327214865 0.885 1.88068393014e-38
-0.0312598201658 -0.0345503275517 0.889 1.29967153528e-38
-0.0295479420264 -0.0344725990308 0.887 1.25350351529e-38
-0.0279063896916 -0.0344725990308 0.887 1.93575075589e-38
-0.0262648373568 -0.0344725990308 0.887 1.82529592678e-38
-0.024623285022 -0.0344725990308 0.887 1.77008574819e-38
-0.0230335517011 -0.0345503275517 0.889 1.8346226891e-38
-0.0213882980082 -0.0345503275517 0.889 1.4659127569e-38
-0.0197430443153 -0.0345503275517 0.889 1.4933889968e-38
-0.0180977906223 -0.0345503275517 0.889 1.60398970109e-38
-0.0164525369294 -0.0345503275517 0.889 1.622390992e-38
-0.0148072832364 -0.0345503275517 0.889 1.58558532732e-38
-0.0131620295435 -0.0345503275517 0.889 1.58562190121e-38
-0.0115167758506 -0.0345503275517 0.889 1.75168165468e-38
-0.00987152215763 -0.0345503275517 0.889 1.84391259727e-38
-0.00822626846469 -0.0345503275517 0.889 1.77923244366e-38
-0.00658101477175 -0.0345503275517 0.889 1.797635276e-38
-0.00493576107881 -0.0345503275517 0.889 1.73313518925e-38
-0.00329050738588 -0.0345503275517 0.889 1.73320525417e-38
-0.00164525369294 -0.0345503275517 0.889 1.77012134117e-38
0.0 -0.0345503275517 0.889 1.80696343962e-38
0.0016415523348 -0.0344725990308 0.887 1.79770688235e-38
0.0032831046696 -0.0344725990308 0.887 1.74238978469e-38
0.00492465700439 -0.0344725990308 0.887 1.7053690207e-38
0.00658101477175 -0.0345503275517 0.889 1.71466047029e-38
0.00822626846469 -0.0345503275517 0.889 1.66863356106e-38
0.00987152215763 -0.0345503275517 0.889 1.71469550275e-38
0.0115167758506 -0.0345503275517 0.889 1.6961846303e-38
0.0131620295435 -0.0345503275517 0.889 1.70540433342e-38
0.0148072832364 -0.0345503275517 0.889 1.71480396326e-38
0.0164525369294 -0.0345503275517 0.889 1.53041312392e-38
0.0180977906223 -0.0345503275517 0.889 1.83451577002e-38
0.0196986280176 -0.0344725990308 0.887 1.58572755911e-38
0.0213401803524 -0.0344725990308 0.887 1.61328255198e-38
0.0229817326872 -0.0344725990308 0.887 1.66845629681e-38
0.024623285022 -0.0344725990308 0.887 1.59473482538e-38
0.0262648373568 -0.0344725990308 0.887 1.68710813989e-38
0.0279063896916 -0.0344725990308 0.887 1.73317050197e-38
0.0295479420264 -0.0344725990308 0.887 1.65001633006e-38
0.0311894943612 -0.0344725990308 0.887 1.6870377947e-38
0.032831046696 -0.0344725990308 0.887 1.61328059016e-38
0.0343948705098 -0.0343948705098 0.885 1.78852515443e-38
0.0360327214865 -0.0343948705098 0.885 1.81600601861e-38
0.0377557037004 -0.0344725990308 0.887 1.79760150471e-38
0.0393972560352 -0.0344725990308 0.887 1.80696371988e-38
0.04103880837 -0.0344725990308 0.887 1.82540186494e-38
0.0426803607048 -0.0344725990308 0.887 1.83451324769e-38
0.0443219130396 -0.0344725990308 0.887 1.71458858368e-38
0.0459634653743 -0.0344725990308 0.887 1.71455229005e-38
0.0476050177091 -0.0344725990308 0.887 1.99128141144e-38
0.0491355292998 -0.0343948705098 0.885 2.01890408702e-38
0.0507733802764 -0.0343948705098 0.885 1.74257027194e-38
0.0525296747135 -0.0344725990308 0.887 1.71502074413e-38
0.0541712270483 -0.0344725990308 0.887 1.79781702441e-38
0.0558127793831 -0.0344725990308 0.887 1.76079401834e-38
-0.0312598201658 -0.0329050738588 0.889 1.29967097476e-38
-0.0296145664729 -0.0329050738588 0.889 1.11531698957e-38
-0.0279693127799 -0.0329050738588 0.889 1.8067844938e-38
-0.026324059087 -0.0329050738588 0.889 1.80696231858e-38
-0.0246788053941 -0.0329050738588 0.889 1.83469429545e-38
-0.0230335517011 -0.0329050738588 0.889 1.79770688235e-38
-0.0213882980082 -0.0329050738588 0.889 1.90823443886e-38
-0.0197430443153 -0.0329050738588 0.889 1.87150038052e-38
-0.0180977906223 -0.0329050738588 0.889 1.81614797014e-38
-0.0164525369294 -0.0329050738588 0.889 1.81611293768e-38
-0.0148072832364 -0.0329050738588 0.889 1.89912333637e-38
-0.0131620295435 -0.0329050738588 0.889 1.76086492404e-38
-0.0115167758506 -0.0329050738588 0.889 1.66863356106e-38
-0.00989373030646 -0.0329791010215 0.891 1.5761900415e-38
-0.00824477525538 -0.0329791010215 0.891 1.59473454512e-38
-0.00659582020431 -0.0329791010215 0.891 1.83465982351e-38
-0.00493576107881 -0.0329050738588 0.889 1.80692868742e-38
-0.00329050738588 -0.0329050738588 0.889 1.78856046715e-38
-0.00164525369294 -0.0329050738588 0.889 1.72402492754e-38
0.0 -0.0329050738588 0.889 1.76083087249e-38
0.00164525369294 -0.0329050738588 0.889 1.77012078065e-38
0.00329050738588 -0.0329050738588 0.889 1.6870377947e-38
0.00493576107881 -0.0329050738588 0.889 1.70543936588e-38
0.00658101477175 -0.0329050738588 0.889 1.72384373965e-38
0.00822626846469 -0.0329050738588 0.889 1.73320525417e-38
0.00987152215763 -0.0329050738588 0.889 1.71466075055e-38
0.0115167758506 -0.0329050738588 0.889 1.70536874044e-38
0.0131620295435 -0.0329050738588 0.889 1.67781781133e-38
0.0148072832364 -0.0329050738588 0.889 1.62246554108e-38
0.0164525369294 -0.0329050738588 0.889 1.62253770795e-38
0.0180977906223 -0.0329050738588 0.889 1.80696596196e-38
0.0197430443153 -0.0329050738588 0.889 1.5949147521e-38
0.0213882980082 -0.0329050738588 0.889 1.65008849693e-38
0.0230335517011 -0.0329050738588 0.889 1.63168538433e-38
0.0246788053941 -0.0329050738588 0.889 1.61324569783e-38
0.026324059087 -0.0329050738588 0.889 1.74239174651e-38
0.0279693127799 -0.0329050738588 0.889 1.6595216178e-38
0.0295479420264 -0.032831046696 0.887 1.603990682e-38
0.0311894943612 -0.032831046696 0.887 1.62250057354e-38
0.032831046696 -0.032831046696 0.887 1.78852263209e-38
0.0344725990308 -0.032831046696 0.887 1.76093653039e-38
0.0361141513656 -0.032831046696 0.887 1.78856046715e-38
0.0377557037004 -0.032831046696 0.887 1.77923300418e-38
0.0394860886305 -0.0329050738588 0.889 1.83458765664e-38
0.0411313423234 -0.0329050738588 0.889 1.83451324769e-38
0.0427765960164 -0.0329050738588 0.889 1.88979517275e-38
0.0443219130396 -0.032831046696 0.887 1.78841599327e-38
0.0459634653743 -0.032831046696 0.887 1.87128387991e-38
0.0476050177091 -0.032831046696 0.887 1.83444094069e-38
0.0492465700439 -0.032831046696 0.887 1.88994006702e-38
0.0508881223787 -0.032831046696 0.887 1.90844953817e-38
0.0525296747135 -0.032831046696 0.887 1.51186791965e-38
0.0541712270483 -0.032831046696 0.887 1.79763709769e-38
0.0558127793831 -0.032831046696 0.887 1.79770744287e-38
-0.0313301459705 -0.0313301459705 0.891 1.19825802399e-38
-0.0296145664729 -0.0312598201658 0.889 1.03241379021e-38
-0.0279693127799 -0.0312598201658 0.889 1.85291916289e-38
-0.026324059087 -0.0312598201658 0.889 1.82540186494e-38
-0.0246788053941 -0.0312598201658 0.889 1.81621887585e-38
-0.0230853707151 -0.0313301459705 0.891 1.86217403859e-38
-0.0213882980082 -0.0312598201658 0.889 1.92660125783e-38
-0.0197430443153 -0.0312598201658 0.889 1.82533095924e-38
-0.0180977906223 -0.0312598201658 0.889 1.9267457317e-38
-0.0164895505108 -0.0313301459705 0.891 1.83451577002e-38
-0.0148405954597 -0.0313301459705 0.891 1.8622087908e-38
-0.0131916404086 -0.0313301459705 0.891 1.82533151976e-38
-0.0115426853575 -0.0313301459705 0.891 1.77923272392e-38
-0.00989373030646 -0.0313301459705 0.891 1.78841697418e-38
-0.00824477525538 -0.0313301459705 0.891 1.65008821667e-38
-0.00659582020431 -0.0313301459705 0.891 1.77927055898e-38
-0.00494686515323 -0.0313301459705 0.891 1.80689169314e-38
-0.00329791010215 -0.0313301459705 0.891 1.77012134117e-38
-0.00164525369294 -0.0312598201658 0.889 1.77930531118e-38
0.0 -0.0312598201658 0.889 1.76086590495e-38
0.00164525369294 -0.0312598201658 0.889 1.75168193494e-38
0.00329050738588 -0.0312598201658 0.889 1.71476893079e-38
0.00493576107881 -0.0312598201658 0.889 1.71466047029e-38
0.00659582020431 -0.0313301459705 0.891 1.73313518925e-38
0.00824477525538 -0.0313301459705 0.891 1.68714443352e-38
0.00987152215763 -0.0312598201658 0.889 1.68700248198e-38
0.0115167758506 -0.0312598201658 0.889 1.67785480561e-38
0.0131620295435 -0.0312598201658 0.889 1.64097711418e-38
0.0148072832364 -0.0312598201658 0.889 1.61328227172e-38
0.0164525369294 -0.0312598201658 0.889 1.69632952456e-38
0.0180977906223 -0.0312598201658 0.889 1.6963292443e-38
0.0197430443153 -0.0312598201658 0.889 1.5949147521e-38
0.0213882980082 -0.0312598201658 0.889 1.65019415483e-38
0.0230335517011 -0.0312598201658 0.889 1.59476957758e-38
0.0246788053941 -0.0312598201658 0.889 1.69618406978e-38
0.026324059087 -0.0312598201658 0.889 1.67778263874e-38
0.0279693127799 -0.0312598201658 0.889 1.65023142937e-38
0.0296145664729 -0.0312598201658 0.889 1.84376784314e-38
0.0312598201658 -0.0312598201658 0.889 1.91749085599e-38
0.0329050738588 -0.0312598201658 0.889 1.94522185195e-38
0.0345503275517 -0.0312598201658 0.889 1.85298950807e-38
0.0361955812446 -0.0312598201658 0.889 1.77927055898e-38
0.0378408349376 -0.0312598201658 0.889 1.65930805991e-38
0.0394860886305 -0.0312598201658 0.889 1.70529895577e-38
0.0411313423234 -0.0312598201658 0.889 1.67778095718e-38
0.042872831328 -0.0313301459705 0.891 1.70551349457e-38
0.0444218497093 -0.0312598201658 0.889 1.76068625848e-38
0.0460671034023 -0.0312598201658 0.889 1.54859945565e-38
0.0477123570952 -0.0312598201658 0.889 1.61328101055e-38
0.0493576107881 -0.0312598201658 0.889 1.93607543675e-38
0.0510028644811 -0.0312598201658 0.889 1.8714289143e-38
0.052648118174 -0.0312598201658 0.889 1.88075553649e-38
0.0544155166855 -0.0313301459705 0.891 1.82540284585e-38
0.0562532410017 -0.0314356346774 0.894 1.75164634196e-38
0.05790774809 -0.0314356346774 0.894 2.1019900157e-38
-0.0313301459705 -0.0296811909194 0.891 1.19839997552e-38
-0.0296811909194 -0.0296811909194 0.891 9.03411234497e-39
-0.0280322358683 -0.0296811909194 0.891 1.8161482504e-38
-0.0263832808172 -0.0296811909194 0.891 1.82547347129e-38
-0.0247343257662 -0.0296811909194 0.891 1.78848759963e-38
-0.023163099236 -0.0297811275891 0.894 1.95433239392e-38
-0.0215085921477 -0.0297811275891 0.894 1.62257246015e-38
-0.0198540850594 -0.0297811275891 0.894 1.50271968276e-38
-0.0181995779711 -0.0297811275891 0.894 1.53941870863e-38
-0.0165450708829 -0.0297811275891 0.894 1.70536874044e-38
-0.0148905637946 -0.0297811275891 0.894 1.68700248198e-38
-0.0132360567063 -0.0297811275891 0.894 1.68696716926e-38
-0.011581549618 -0.0297811275891 0.894 1.67774732602e-38
-0.00992704252972 -0.0297811275891 0.894 1.6870377947e-38
-0.00827253544143 -0.0297811275891 0.894 1.74231789808e-38
-0.00659582020431 -0.0296811909194 0.891 1.68725261376e-38
-0.00494686515323 -0.0296811909194 0.891 1.81629118285e-38
-0.00329791010215 -0.0296811909194 0.891 1.80696371988e-38
-0.00164895505108 -0.0296811909194 0.891 1.79778171169e-38
0.0 -0.0296811909194 0.891 1.78856046715e-38
0.00164895505108 -0.0296811909194 0.891 1.74235475223e-38
0.00329791010215 -0.0296811909194 0.891 1.67781753107e-38
0.00494686515323 -0.0296811909194 0.891 1.80696400014e-38
0.00659582020431 -0.0296811909194 0.891 1.69625707743e-38
0.00824477525538 -0.0296811909194 0.891 1.66866859353e-38
0.00989373030646 -0.0296811909194 0.891 1.68707310743e-38
0.0115426853575 -0.0296811909194 0.891 1.65015912237e-38
0.0131916404086 -0.0296811909194 0.891 1.61335317743e-38
0.0148405954597 -0.0296811909194 0.891 1.63182607469e-38
0.0164895505108 -0.0296811909194 0.891 1.83447821523e-38
0.0181385055618 -0.0296811909194 0.891 1.5946992324e-38
0.0197874606129 -0.0296811909194 0.891 1.62246554108e-38
0.021436415664 -0.0296811909194 0.891 1.62250057354e-38
0.0230853707151 -0.0296811909194 0.891 1.5671131307e-38
0.0247343257662 -0.0296811909194 0.891 1.70547874237e-38
0.0263832808172 -0.0296811909194 0.891 1.83451296743e-38
0.0281266205009 -0.0297811275891 0.894 1.78841543276e-38
0.0297811275891 -0.0297811275891 0.894 1.72387877211e-38
0.0314356346774 -0.0297811275891 0.894 1.60406130744e-38
0.0329791010215 -0.0296811909194 0.891 1.6316476894e-38
0.0346280560726 -0.0296811909194 0.891 1.53019760421e-38
0.0362770111237 -0.0296811909194 0.891 1.49339193953e-38
0.0380536630306 -0.0297811275891 0.894 1.91744979795e-38
0.0397081701189 -0.0297811275891 0.894 1.97277166002e-38
0.0413626772071 -0.0297811275891 0.894 1.93599906598e-38
0.0430171842954 -0.0297811275891 0.894 1.92678104442e-38
0.0445217863791 -0.0296811909194 0.891 2.05571241418e-38
0.0461707414302 -0.0296811909194 0.891 2.01890436728e-38
0.0478196964812 -0.0296811909194 0.891 2.00057426233e-38
0.0494686515323 -0.0296811909194 0.891 1.91759903623e-38
0.0511176065834 -0.0296811909194 0.891 2.03748838752e-38
0.0527665616345 -0.0296811909194 0.891 1.84394819025e-38
0.0545987339134 -0.0297811275891 0.894 1.81618356312e-38
0.0562532410017 -0.0297811275891 0.894 1.79781674415e-38
0.05790774809 -0.0297811275891 0.894 2.12972129192e-38
-0.0313301459705 -0.0280322358683 0.891 1.15237334655e-38
-0.0296811909194 -0.0280322358683 0.891 8.57349292806e-39
-0.0280322358683 -0.0280322358683 0.891 1.77927027872e-38
-0.0263832808172 -0.0280322358683 0.891 1.86220907106e-38
-0.0248176063243 -0.0281266205009 0.894 1.78845200665e-38
-0.023163099236 -0.0281266205009 0.894 1.91745456236e-38
-0.0215567098035 -0.0281895435892 0.896 1.72405883896e-38
-0.0198985013571 -0.0281895435892 0.896 1.81625390831e-38
-0.0182402929107 -0.0281895435892 0.896 1.81621705416e-38
-0.0165820844643 -0.0281895435892 0.896 1.61324597809e-38
-0.0149238760178 -0.0281895435892 0.896 1.77916237874e-38
-0.0132656675714 -0.0281895435892 0.896 1.83462142793e-38
-0.011607459125 -0.0281895435892 0.896 1.83458639547e-38
-0.00994925067855 -0.0281895435892 0.896 1.88075553649e-38
-0.00829104223213 -0.0281895435892 0.896 1.77934034364e-38
-0.0066328337857 -0.0281895435892 0.896 1.81625390831e-38
-0.00497462533928 -0.0281895435892 0.896 1.80703406506e-38
-0.00331641689285 -0.0281895435892 0.896 1.84373253041e-38
-0.00165820844643 -0.0281895435892 0.896 1.85291706094e-38
0.0 -0.0281895435892 0.896 1.89897956315e-38
0.00165820844643 -0.0281895435892 0.896 1.82540186494e-38
0.00331641689285 -0.0281895435892 0.896 1.67785480561e-38
0.00497462533928 -0.0281895435892 0.896 1.77916111757e-38
0.0066328337857 -0.0281895435892 0.896 1.69625707743e-38
0.00829104223213 -0.0281895435892 0.896 1.66856139419e-38
0.00994925067855 -0.0281895435892 0.896 1.74221027836e-38
0.011607459125 -0.0281895435892 0.896 1.71465920912e-38
0.0132360567063 -0.0281266205009 0.894 1.82525669042e-38
0.0148905637946 -0.0281266205009 0.894 1.77915901562e-38
0.0165450708829 -0.0281266205009 0.894 1.82518634524e-38
0.0181385055618 -0.0280322358683 0.891 1.66831154268e-38
0.0197874606129 -0.0280322358683 0.891 1.76068471706e-38
0.0215085921477 -0.0281266205009 0.894 1.82525795159e-38
0.023163099236 -0.0281266205009 0.894 1.85291706094e-38
0.0248176063243 -0.0281266205009 0.894 1.66852636173e-38
0.0264721134126 -0.0281266205009 0.894 1.82525641016e-38
0.0281266205009 -0.0281266205009 0.894 1.70543964614e-38
0.0297811275891 -0.0281266205009 0.894 1.66848880693e-38
0.0314356346774 -0.0281266205009 0.894 1.68707282717e-38
0.0330901417657 -0.0281266205009 0.894 1.68707282717e-38
0.034744648854 -0.0281266205009 0.894 1.77908923096e-38
0.0363991559423 -0.0281266205009 0.894 1.90816409367e-38
0.0380536630306 -0.0281266205009 0.894 1.51204756612e-38
0.0397081701189 -0.0281266205009 0.894 1.5491424588e-38
0.0413626772071 -0.0281266205009 0.894 1.53048655196e-38
0.0430171842954 -0.0281266205009 0.894 1.43825757119e-38
0.0446716913837 -0.0281266205009 0.894 1.39219534924e-38
0.046326198472 -0.0281266205009 0.894 1.45669725768e-38
0.0479807055603 -0.0281266205009 0.894 1.3091133442e-38
0.0496352126486 -0.0281266205009 0.894 1.40127169952e-38
0.0512897197369 -0.0281266205009 0.894 1.23546249821e-38
0.0529442268251 -0.0281266205009 0.894 1.86221453612e-38
0.0545987339134 -0.0281266205009 0.894 1.82540284585e-38
0.0562532410017 -0.0281266205009 0.894 1.74242677897e-38
0.05790774809 -0.0281266205009 0.894 2.13894113517e-38
-0.0297811275891 -0.0264721134126 0.894 9.67876569049e-39
-0.0281266205009 -0.0264721134126 0.894 1.73335197012e-38
-0.0264721134126 -0.0264721134126 0.894 1.85309740805e-38
-0.0248176063243 -0.0264721134126 0.894 1.88068491105e-38
-0.02321491825 -0.0265313351428 0.896 1.82533095924e-38
-0.0215567098035 -0.0265313351428 0.896 1.83458765664e-38
-0.0198985013571 -0.0265313351428 0.896 1.69625763795e-38
-0.0182402929107 -0.0265313351428 0.896 1.74242677897e-38
-0.0165820844643 -0.0265313351428 0.896 1.8438775648e-38
-0.0149238760178 -0.0265313351428 0.896 1.80706909752e-38
-0.0132656675714 -0.0265313351428 0.896 1.82540284585e-38
-0.011607459125 -0.0265313351428 0.896 1.8437719069e-38
-0.00994925067855 -0.0265313351428 0.896 1.87142863404e-38
-0.00829104223213 -0.0265313351428 0.896 1.84369749795e-38
-0.0066328337857 -0.0265313351428 0.896 1.89897956315e-38
-0.00497462533928 -0.0265313351428 0.896 1.8437315495e-38
-0.00331641689285 -0.0265313351428 0.896 1.69614903732e-38
-0.00165820844643 -0.0265313351428 0.896 1.65005192304e-38
0.0 -0.0265313351428 0.896 1.59473426486e-38
0.00165820844643 -0.0265313351428 0.896 1.51172288526e-38
0.00331641689285 -0.0265313351428 0.896 1.68689262018e-38
0.00497462533928 -0.0265313351428 0.896 1.88057252691e-38
0.00664763921826 -0.026590556873 0.898 1.95433239392e-38
0.00830954902282 -0.026590556873 0.898 1.92670943807e-38
0.00997145882739 -0.026590556873 0.898 1.69614945771e-38
0.011633368632 -0.026590556873 0.898 1.70540405316e-38
0.0132952784365 -0.026590556873 0.898 1.69625763795e-38
0.0149238760178 -0.0265313351428 0.896 1.65930651849e-38
0.0165820844643 -0.0265313351428 0.896 1.6776730572e-38
0.0182402929107 -0.0265313351428 0.896 1.64086571095e-38
0.0198985013571 -0.0265313351428 0.896 1.63157552253e-38
0.0215567098035 -0.0265313351428 0.896 1.58555029485e-38
0.02321491825 -0.0265313351428 0.896 1.50257366746e-38
0.0248731266964 -0.0265313351428 0.896 1.65019415483e-38
0.0265313351428 -0.0265313351428 0.896 1.64086739251e-38
0.0281895435892 -0.0265313351428 0.896 1.71451669707e-38
0.0299143764822 -0.026590556873 0.898 1.70540433342e-38
0.0315059604821 -0.0265313351428 0.896 1.66859796808e-38
0.0331641689285 -0.0265313351428 0.896 1.80689141288e-38
0.0348223773749 -0.0265313351428 0.896 1.76072101069e-38
0.0364805858214 -0.0265313351428 0.896 1.9174542821e-38
0.0381387942678 -0.0265313351428 0.896 1.21709175561e-38
0.0397970027142 -0.0265313351428 0.896 1.03335013785e-38
0.0414552111606 -0.0265313351428 0.896 1.23553508547e-38
0.0431134196071 -0.0265313351428 0.896 1.29088777611e-38
0.0447716280535 -0.0265313351428 0.896 1.29085218313e-38
0.0464298364999 -0.0265313351428 0.896 1.23546249821e-38
0.0480880449463 -0.0265313351428 0.896 1.18932937056e-38
0.0497462533928 -0.0265313351428 0.896 1.19847662655e-38
0.0514044618392 -0.0265313351428 0.896 8.94194193848e-39
0.0530626702856 -0.0265313351428 0.896 1.85295447561e-38
0.054720878732 -0.0265313351428 0.896 1.85298950807e-38
0.0563790871785 -0.0265313351428 0.896 1.8070365874e-38
0.0580372956249 -0.0265313351428 0.896 2.24035548724e-38
-0.0297811275891 -0.0248176063243 0.894 8.7575058372e-39
-0.0281266205009 -0.0248176063243 0.894 1.75161158976e-38
-0.0264721134126 -0.0248176063243 0.894 1.86224410352e-38
-0.0248731266964 -0.0248731266964 0.896 1.84391287753e-38
-0.0232667372639 -0.0249286470685 0.898 1.85302426027e-38
-0.0215567098035 -0.0248731266964 0.896 1.73313490899e-38
-0.0198985013571 -0.0248731266964 0.896 1.69625707743e-38
-0.0182810078502 -0.0249286470685 0.898 1.70558440027e-38
-0.0166190980456 -0.0249286470685 0.898 1.77937747805e-38
-0.0149571882411 -0.0249286470685 0.898 1.81621831533e-38
-0.0132952784365 -0.0249286470685 0.898 1.81621887585e-38
-0.011633368632 -0.0249286470685 0.898 1.84384225208e-38
-0.00997145882739 -0.0249286470685 0.898 1.64097683392e-38
-0.00830954902282 -0.0249286470685 0.898 1.56700354916e-38
-0.00664763921826 -0.0249286470685 0.898 1.61313611629e-38
-0.00498572941369 -0.0249286470685 0.898 1.74228314588e-38
-0.00332381960913 -0.0249286470685 0.898 1.78848759963e-38
-0.00166190980456 -0.0249286470685 0.898 1.77937565636e-38
0.0 -0.0249286470685 0.898 1.8714289143e-38
0.00166190980456 -0.0249286470685 0.898 1.86220907106e-38
0.00332381960913 -0.0249286470685 0.898 1.54870763589e-38
0.00498572941369 -0.0249286470685 0.898 1.57644017328e-38
0.00664763921826 -0.0249286470685 0.898 1.6686332808e-38
0.00830954902282 -0.0249286470685 0.898 1.61320870355e-38
0.00997145882739 -0.0249286470685 0.898 1.71469606327e-38
0.011633368632 -0.0249286470685 0.898 1.71473109574e-38
0.0132952784365 -0.0249286470685 0.898 1.69614903732e-38
0.0149571882411 -0.0249286470685 0.898 1.75168193494e-38
0.0166190980456 -0.0249286470685 0.898 1.71469578301e-38
0.0182810078502 -0.0249286470685 0.898 1.71465920912e-38
0.0199429176548 -0.0249286470685 0.898 1.69629267041e-38
0.0216048274593 -0.0249286470685 0.898 1.70540433342e-38
0.0232667372639 -0.0249286470685 0.898 1.71458732251e-38
0.0249286470685 -0.0249286470685 0.898 1.69611246343e-38
0.026590556873 -0.0249286470685 0.898 1.67774592472e-38
0.0282524666776 -0.0249286470685 0.898 1.76072395341e-38
0.0299143764822 -0.0249286470685 0.898 1.73309861536e-38
0.0315762862867 -0.0249286470685 0.898 1.69629239015e-38
0.0332381960913 -0.0249286470685 0.898 1.71480396326e-38
0.0348223773749 -0.0248731266964 0.896 1.66852790316e-38
0.0364805858214 -0.0248731266964 0.896 1.91741924964e-38
0.038223925505 -0.0249286470685 0.898 8.48128188391e-39
0.0398858353096 -0.0249286470685 0.898 8.3881277659e-39
0.0415477451141 -0.0249286470685 0.898 9.67559875597e-39
0.0432096549187 -0.0249286470685 0.898 8.75292218992e-39
0.0448715647232 -0.0249286470685 0.898 8.75329213272e-39
0.0465334745278 -0.0249286470685 0.898 8.66109229896e-39
0.0481953843324 -0.0249286470685 0.898 7.55691955581e-39
0.0498572941369 -0.0249286470685 0.898 7.37360169071e-39
0.0515192039415 -0.0249286470685 0.898 7.09841750088e-39
0.0531811137461 -0.0249286470685 0.898 1.88986944157e-38
0.0548430235506 -0.0249286470685 0.898 1.8068919734e-38
0.0565049333552 -0.0249286470685 0.898 1.84380721962e-38
0.0581668431598 -0.0249286470685 0.898 2.26787026284e-38
-0.0298477520357 -0.02321491825 0.896 8.94120345418e-39
-0.0281895435892 -0.02321491825 0.896 1.62246554108e-38
-0.0265313351428 -0.02321491825 0.896 1.89912333637e-38
-0.0249286470685 -0.0232667372639 0.898 1.82540186494e-38
-0.0233444657848 -0.0233444657848 0.901 1.79763681743e-38
-0.0217251215989 -0.0233962847988 0.903 1.71469550275e-38
-0.020053958399 -0.0233962847988 0.903 1.63182761612e-38
-0.018382795199 -0.0233962847988 0.903 1.77923272392e-38
-0.0166746184177 -0.0233444657848 0.901 1.7791974112e-38
-0.015007156576 -0.0233444657848 0.901 1.85295447561e-38
-0.0133396947342 -0.0233444657848 0.901 1.86213718444e-38
-0.0116722328924 -0.0233444657848 0.901 1.76082961132e-38
-0.0100047710506 -0.0233444657848 0.901 1.76086590495e-38
-0.00833730920887 -0.0233444657848 0.901 1.83462142793e-38
-0.00666984736709 -0.0233444657848 0.901 1.93589396859e-38
-0.00500238552532 -0.0233444657848 0.901 1.93596431378e-38
-0.00332381960913 -0.0232667372639 0.898 1.78848731937e-38
-0.00166190980456 -0.0232667372639 0.898 1.52090923747e-38
0.0 -0.0233444657848 0.901 1.72373780149e-38
0.00166190980456 -0.0232667372639 0.898 1.92677950299e-38
0.00332381960913 -0.0232667372639 0.898 1.65945113249e-38
0.00498572941369 -0.0232667372639 0.898 1.62250211497e-38
0.00664763921826 -0.0232667372639 0.898 1.63164712888e-38
0.00830954902282 -0.0232667372639 0.898 1.64090214471e-38
0.00997145882739 -0.0232667372639 0.898 1.61331618315e-38
0.011633368632 -0.0232667372639 0.898 1.61317367109e-38
0.0133396947342 -0.0233444657848 0.901 1.66834783631e-38
0.015007156576 -0.0233444657848 0.901 1.76994127432e-38
0.0166746184177 -0.0233444657848 0.901 1.74235447197e-38
0.0183420802595 -0.0233444657848 0.901 1.72395065872e-38
0.0200095421013 -0.0233444657848 0.901 1.65012380965e-38
0.0216770039431 -0.0233444657848 0.901 1.69622232523e-38
0.0233444657848 -0.0233444657848 0.901 1.7146238964e-38
0.0250119276266 -0.0233444657848 0.901 1.73299071538e-38
0.026590556873 -0.0232667372639 0.898 1.69611386473e-38
0.0282524666776 -0.0232667372639 0.898 1.70536874044e-38
0.0300143131519 -0.0233444657848 0.901 1.7146238964e-38
0.0316817749937 -0.0233444657848 0.901 1.74228314588e-38
0.0332381960913 -0.0232667372639 0.898 1.72391562626e-38
0.0349001058959 -0.0232667372639 0.898 1.77937565636e-38
0.0365620157004 -0.0232667372639 0.898 1.88993880585e-38
0.038223925505 -0.0232667372639 0.898 8.20181532598e-39
0.0398858353096 -0.0232667372639 0.898 8.84617720142e-39
0.0415477451141 -0.0232667372639 0.898 8.75434871176e-39
0.0432096549187 -0.0232667372639 0.898 9.40006704412e-39
0.0448715647232 -0.0232667372639 0.898 1.0597885761e-38
0.0465334745278 -0.0232667372639 0.898 1.09673941531e-38
0.0481953843324 -0.0232667372639 0.898 1.13376242139e-38
0.0498572941369 -0.0232667372639 0.898 1.27212747253e-38
0.0515192039415 -0.0232667372639 0.898 1.17107143248e-38
0.0531811137461 -0.0232667372639 0.898 1.78852837741e-38
0.0548430235506 -0.0232667372639 0.898 1.77919769146e-38
0.0565049333552 -0.0232667372639 0.898 1.81607664405e-38
0.0581668431598 -0.0232667372639 0.898 2.35073674818e-38
-0.0283468513102 -0.0216770039431 0.901 1.61310108383e-38
-0.0266793894684 -0.0216770039431 0.901 1.90826947132e-38
-0.0250119276266 -0.0216770039431 0.901 1.83451548976e-38
-0.0233962847988 -0.0217251215989 0.903 1.62246526082e-38
-0.0217251215989 -0.0217251215989 0.903 1.53955967926e-38
-0.020053958399 -0.0217251215989 0.903 1.58580140754e-38
-0.018382795199 -0.0217251215989 0.903 1.6687431426e-38
-0.0167116319991 -0.0217251215989 0.903 1.71469578301e-38
-0.0150404687992 -0.0217251215989 0.903 1.83440758978e-38
-0.0133693055993 -0.0217251215989 0.903 1.65927120576e-38
-0.0116981423994 -0.0217251215989 0.903 1.74220971784e-38
-0.0100047710506 -0.0216770039431 0.901 1.88064833716e-38
-0.00833730920887 -0.0216770039431 0.901 1.77012106091e-38
-0.00666984736709 -0.0216770039431 0.901 1.87149925948e-38
-0.00500238552532 -0.0216770039431 0.901 1.80689169314e-38
-0.00333492368355 -0.0216770039431 0.901 1.84373309093e-38
-0.00166746184177 -0.0216770039431 0.901 1.78823578629e-38
0.0 -0.0216770039431 0.901 1.9173096681e-38
0.00166190980456 -0.0216048274593 0.898 1.80681700393e-38
0.00332381960913 -0.0216048274593 0.898 1.65934309238e-38
0.00498572941369 -0.0216048274593 0.898 1.69607715071e-38
0.00664763921826 -0.0216048274593 0.898 1.65934211147e-38
0.00833730920887 -0.0216770039431 0.901 1.63175572951e-38
0.0100047710506 -0.0216770039431 0.901 1.63182733586e-38
0.0116722328924 -0.0216770039431 0.901 1.67781781133e-38
0.0133693055993 -0.0217251215989 0.903 1.59487705717e-38
0.0150404687992 -0.0217251215989 0.903 1.65941371782e-38
0.0167116319991 -0.0217251215989 0.903 1.65930651849e-38
0.018382795199 -0.0217251215989 0.903 1.64086711225e-38
0.020053958399 -0.0217251215989 0.903 1.71466047029e-38
0.0217251215989 -0.0217251215989 0.903 1.69625735769e-38
0.0233962847988 -0.0217251215989 0.903 1.69618435004e-38
0.0250674479987 -0.0217251215989 0.903 1.71458858368e-38
0.0267386111986 -0.0217251215989 0.903 1.70536874044e-38
0.0284097743985 -0.0217251215989 0.903 1.6961846303e-38
0.0300809375984 -0.0217251215989 0.903 1.76993959276e-38
0.0317521007983 -0.0217251215989 0.903 1.74231789808e-38
0.0334232639983 -0.0217251215989 0.903 1.74228426692e-38
0.0350166986772 -0.0216770039431 0.901 1.71469550275e-38
0.036684160519 -0.0216770039431 0.901 1.84373309093e-38
0.0383516223608 -0.0216770039431 0.901 1.30003250976e-38
0.0400190842026 -0.0216770039431 0.901 1.35574645515e-38
0.0416865460443 -0.0216770039431 0.901 1.4660925435e-38
0.0433540078861 -0.0216770039431 0.901 1.42921401129e-38
0.0450214697279 -0.0216770039431 0.901 1.46587870535e-38
0.0466889315697 -0.0216770039431 0.901 1.41970676173e-38
0.0483563934114 -0.0216770039431 0.901 1.47516861352e-38
0.0500238552532 -0.0216770039431 0.901 1.28145241316e-38
0.051691317095 -0.0216770039431 0.901 1.17070849618e-38
0.0533587789368 -0.0216770039431 0.901 1.96355209703e-38
0.0550262407785 -0.0216770039431 0.901 1.83454856041e-38
0.0566937026203 -0.0216770039431 0.901 1.89919648415e-38
-0.0300809375984 -0.020053958399 0.903 9.40252492163e-39
-0.0283468513102 -0.0200095421013 0.901 1.59495258716e-38
-0.0266793894684 -0.0200095421013 0.901 1.86224410352e-38
-0.0250674479987 -0.020053958399 0.903 1.84362561134e-38
-0.0233962847988 -0.020053958399 0.903 1.74217496564e-38
-0.0217972980826 -0.0201205828455 0.906 1.27205166229e-38
-0.0201205828455 -0.0201205828455 0.906 1.60399096226e-38
-0.0184438676083 -0.0201205828455 0.906 1.72395304093e-38
