# .PCD v0.7 - Point Cloud Data file format
VERSION 0.7
FIELDS x y z rgb
SIZE 4 4 4 4
TYPE F F F F
COUNT 1 1 1 1
WIDTH 839
HEIGHT 1
VIEWPOINT 0 0 0 1 0 0 0
POINTS 839
DATA ascii
0.0520781090205 -0.0850609114002 0.938 1.86032418449e-38
0.0538140459879 -0.0850609114002 0.938 2.33970810888e-38
-0.054559869653 -0.0844797981723 0.951 2.13673380983e-38
-0.0525222719973 -0.0840356351956 0.946 2.15502972309e-38
-0.0506105205183 -0.0837691374096 0.943 2.34889305979e-38
-0.0488653301556 -0.0837691374096 0.943 7.63526054776e-39
-0.0468702981185 -0.0833249744329 0.938 1.34334888737e-38
-0.0449900081837 -0.0830584766468 0.935 1.39027360853e-38
-0.0432596232536 -0.0830584766468 0.935 1.4179342593e-38
-0.0414404057281 -0.0828808114561 0.933 1.46406668631e-38
-0.0395860253003 -0.0826143136701 0.93 1.39030990216e-38
-0.0377834638864 -0.0824366484794 0.928 1.42711486619e-38
-0.0358717124074 -0.0819924855027 0.923 1.50987709492e-38
-0.0339784677192 -0.081548322526 0.918 1.482541125e-38
-0.0321037298216 -0.0811041595493 0.913 1.48265252823e-38
-0.0302474987147 -0.0806599965725 0.908 1.1785493216e-38
-0.0285041590311 -0.0804823313819 0.906 1.49197943068e-38
-0.0267386111986 -0.0802158335958 0.903 1.31687443574e-38
-0.0250674479987 -0.0802158335958 0.903 1.27074326991e-38
-0.0233444657848 -0.0800381684051 0.901 1.46428192575e-38
-0.0216770039431 -0.0800381684051 0.901 1.27974633228e-38
-0.0200095421013 -0.0800381684051 0.901 1.86043754954e-38
-0.0183420802595 -0.0800381684051 0.901 1.96178057552e-38
-0.0166746184177 -0.0800381684051 0.901 1.9524148571e-38
-0.0150404687992 -0.0802158335958 0.903 1.9708555245e-38
-0.013413721897 -0.0804823313819 0.906 2.00791202161e-38
-0.0117370066599 -0.0804823313819 0.906 1.90635361606e-38
-0.0100824995716 -0.0806599965725 0.908 1.95245143099e-38
-0.00840208297631 -0.0806599965725 0.908 2.17372262422e-38
-0.00672166638105 -0.0806599965725 0.908 1.65303893084e-39
-0.00504124978578 -0.0806599965725 0.908 1.39914340742e-38
-0.0033682359068 -0.0808376617632 0.91 1.19388246953e-39
-0.0016841179534 -0.0808376617632 0.91 2.03554885031e-38
0.0 -0.0808376617632 0.91 1.94355654886e-38
0.00169337134875 -0.08128182474 0.915 2.01724270756e-38
0.00339784677192 -0.081548322526 0.918 5.32651062521e-39
0.00509677015787 -0.081548322526 0.918 2.07273706948e-38
0.00679569354383 -0.081548322526 0.918 1.92482861527e-38
0.00849461692979 -0.081548322526 0.918 2.01702368461e-38
0.0102157484646 -0.0817259877167 0.92 1.99872693057e-38
0.0119183732087 -0.0817259877167 0.92 1.75913025667e-38
0.0136209979528 -0.0817259877167 0.92 1.62047653804e-38
0.0153236226969 -0.0817259877167 0.92 1.32524046784e-38
0.0170817678131 -0.0819924855027 0.923 1.35390500883e-38
0.0187899445944 -0.0819924855027 0.923 1.16998248344e-38
0.0205425376733 -0.0821701506934 0.925 2.03600427231e-38
0.0222544158128 -0.0821701506934 0.925 1.97107202511e-38
0.0240440224732 -0.0824366484794 0.928 2.00794831524e-38
0.0257614526498 -0.0824366484794 0.928 1.54707834617e-38
0.0275381045567 -0.0826143136701 0.93 1.96185274239e-38
0.0292592360915 -0.0826143136701 0.93 1.86958298383e-38
0.0310803042961 -0.0828808114561 0.933 1.86951291891e-38
0.0328069878681 -0.0828808114561 0.933 1.99865840707e-38
0.0346076986028 -0.0830584766468 0.935 1.87887471369e-38
0.036338083533 -0.0830584766468 0.935 1.94315984126e-38
0.0380684684631 -0.0830584766468 0.935 1.94305264193e-38
0.0397988533933 -0.0830584766468 0.935 1.96174161942e-38
0.0416624872164 -0.0833249744329 0.938 1.75909242161e-38
0.0433984241838 -0.0833249744329 0.938 1.97114110913e-38
0.0451343611511 -0.0833249744329 0.938 1.70370315708e-38
0.0468702981185 -0.0833249744329 0.938 1.7497652389e-38
0.0486062350858 -0.0833249744329 0.938 1.758875921e-38
0.0503421720532 -0.0833249744329 0.938 1.6851935458e-38
0.0520781090205 -0.0833249744329 0.938 1.88791449009e-38
-0.0547319828065 -0.0829807481259 0.954 2.16417767973e-38
-0.0527998738577 -0.0827198023771 0.951 2.14580987985e-38
-0.0507715295974 -0.0822848927957 0.946 2.34878586046e-38
-0.0488653301556 -0.0820239470469 0.943 9.66354758917e-39
-0.0469702347883 -0.0817630012981 0.94 1.1494884934e-38
-0.0451343611511 -0.0815890374655 0.938 1.36283071953e-38
-0.0432596232536 -0.0813280917167 0.935 1.42744080822e-38
-0.0414404057281 -0.0811541278841 0.933 1.46403137359e-38
-0.0395860253003 -0.0808931821353 0.93 1.44555693489e-38
-0.0377834638864 -0.0807192183028 0.928 1.47325317865e-38
-0.0358717124074 -0.0802843087214 0.923 1.43633765217e-38
-0.0340524948819 -0.0800233629726 0.92 1.4272257089e-38
-0.0321740556262 -0.0795884533912 0.915 1.43644527189e-38
-0.0303141231612 -0.0791535438098 0.91 1.4641032602e-38
-0.0285041590311 -0.0788056161447 0.906 1.45477803931e-38
-0.0267386111986 -0.0785446703959 0.903 1.49143768869e-38
-0.0250674479987 -0.0785446703959 0.903 1.5006925644e-38
-0.0233444657848 -0.0783707065634 0.901 1.46388689971e-38
-0.0216770039431 -0.0783707065634 0.901 1.362544154e-38
-0.020053958399 -0.0785446703959 0.903 1.86954977306e-38
-0.018382795199 -0.0785446703959 0.903 1.96160036853e-38
-0.0167116319991 -0.0785446703959 0.903 2.02620821514e-38
-0.0150904371341 -0.0788056161447 0.906 1.90631732243e-38
-0.013413721897 -0.0788056161447 0.906 1.96152876218e-38
-0.0117370066599 -0.0788056161447 0.906 1.94315984126e-38
-0.0100824995716 -0.0789795799773 0.908 1.98922234347e-38
-0.00840208297631 -0.0789795799773 0.908 2.15514112632e-38
-0.00672166638105 -0.0789795799773 0.908 2.20405190779e-39
-0.0050523538602 -0.0791535438098 0.91 2.24683929523e-38
-0.0033682359068 -0.0791535438098 0.91 1.17854960186e-38
-0.00168966999061 -0.0794144895587 0.913 2.0153845858e-38
0.0 -0.0795884533912 0.915 1.85146979988e-38
0.00169337134875 -0.0795884533912 0.915 1.99847721918e-38
0.00339784677192 -0.07984939914 0.918 2.03546407176e-38
0.00509677015787 -0.07984939914 0.918 1.88820147601e-38
0.00679569354383 -0.07984939914 0.918 2.06319506772e-38
0.00849461692979 -0.07984939914 0.918 1.58374374087e-38
0.0102157484646 -0.0800233629726 0.92 1.34414944918e-38
0.0119183732087 -0.0800233629726 0.92 1.60300879216e-38
0.0136654142505 -0.0802843087214 0.923 1.63063413022e-38
0.0153735910318 -0.0802843087214 0.923 1.7868583099e-38
0.0170817678131 -0.0802843087214 0.923 1.77778336092e-38
0.0188306595339 -0.0804582725539 0.925 2.017490317e-38
0.0205425376733 -0.0804582725539 0.925 1.70409972455e-38
0.0222544158128 -0.0804582725539 0.925 1.34475761272e-38
0.0240440224732 -0.0807192183028 0.928 1.54686927243e-38
0.0258169730219 -0.0808931821353 0.93 1.32591939694e-38
0.0275381045567 -0.0808931821353 0.93 1.93469824061e-38
0.0293536207241 -0.0811541278841 0.933 1.97099649513e-38
0.0310803042961 -0.0811541278841 0.933 1.92500980316e-38
0.0328773136727 -0.0813280917167 0.935 1.89731426005e-38
0.0346076986028 -0.0813280917167 0.935 1.88809455694e-38
0.036338083533 -0.0813280917167 0.935 1.89731383966e-38
0.0380684684631 -0.0813280917167 0.935 1.98925737593e-38
0.0397988533933 -0.0813280917167 0.935 1.80483108375e-38
0.0416624872164 -0.0815890374655 0.938 1.94337634187e-38
0.0433984241838 -0.0815890374655 0.938 1.70377336213e-38
0.0451343611511 -0.0815890374655 0.938 1.78667978448e-38
0.0471201397929 -0.0820239470469 0.943 1.722321369e-38
0.0488653301556 -0.0820239470469 0.943 1.78664447176e-38
0.0506105205183 -0.0820239470469 0.943 1.63913244488e-38
0.052355710881 -0.0820239470469 0.943 2.13648521948e-38
-0.0547319828065 -0.0812152002934 0.954 2.19172902923e-38
-0.0527998738577 -0.0809598065818 0.951 2.2009837648e-38
-0.0507715295974 -0.0805341503958 0.946 2.3489315955e-38
-0.0488653301556 -0.0802787566842 0.943 9.8479416515e-39
-0.0471201397929 -0.0802787566842 0.943 1.2517283504e-38
-0.0451343611511 -0.0798531004982 0.938 9.94550985967e-39
-0.0432596232536 -0.0795977067866 0.935 1.34468152221e-38
-0.0414404057281 -0.0794274443121 0.933 1.49183327525e-38
-0.0397137221561 -0.0794274443121 0.933 1.45459530999e-38
-0.0377834638864 -0.0790017881261 0.928 1.44555693489e-38
-0.0358717124074 -0.0785761319401 0.923 1.46406668631e-38
-0.0340524948819 -0.0783207382285 0.92 1.48250581228e-38
-0.0322795443332 -0.0781504757541 0.918 1.4822556805e-38
-0.030414059831 -0.077724819568 0.913 1.43637268463e-38
-0.0285670821194 -0.077299163382 0.908 1.48232658621e-38
-0.026827443794 -0.0771289009076 0.906 1.48229099323e-38
-0.0250674479987 -0.076873507196 0.903 1.49147300141e-38
-0.0233962847988 -0.076873507196 0.903 1.46381459271e-38
-0.0217251215989 -0.076873507196 0.903 1.33488742685e-38
-0.020053958399 -0.076873507196 0.903 1.98018102565e-38
-0.018382795199 -0.076873507196 0.903 1.9250095229e-38
-0.0167116319991 -0.076873507196 0.903 1.88802533279e-38
-0.0150904371341 -0.0771289009076 0.906 2.00765964776e-38
-0.013413721897 -0.0771289009076 0.906 2.01687977126e-38
-0.0117629161668 -0.077299163382 0.908 1.92457638155e-38
-0.0100824995716 -0.077299163382 0.908 1.99840533257e-38
-0.008420589767 -0.0774694258564 0.91 2.10903952789e-38
-0.0067364718136 -0.0774694258564 0.91 1.30755019576e-38
-0.0050523538602 -0.0774694258564 0.91 1.84053378641e-38
-0.00337933998122 -0.077724819568 0.913 1.87919939455e-38
-0.00168966999061 -0.077724819568 0.913 1.99869217836e-38
0.0 -0.0778950820425 0.915 1.94359186158e-38
0.00169337134875 -0.0778950820425 0.915 2.05379221489e-38
0.00339784677192 -0.0781504757541 0.918 1.93444194313e-38
0.00510787423229 -0.0783207382285 0.92 1.24330486507e-38
0.00681049897639 -0.0783207382285 0.92 1.7132857965e-38
0.00851312372049 -0.0783207382285 0.92 1.50163661917e-38
0.0102157484646 -0.0783207382285 0.92 1.48351348601e-38
0.0119572374691 -0.0785761319401 0.923 1.65803876376e-38
0.0136654142505 -0.0785761319401 0.923 1.85161623557e-38
0.015406903255 -0.0787463944145 0.925 1.96192252705e-38
0.0171187813945 -0.0787463944145 0.925 1.89720285683e-38
0.0188306595339 -0.0787463944145 0.925 1.76820632669e-38
0.0206091621199 -0.0790017881261 0.928 1.18726427701e-38
0.0223265922965 -0.0790017881261 0.928 1.34432825487e-38
0.0240958414871 -0.0791720506005 0.93 2.03582434559e-38
0.0258169730219 -0.0791720506005 0.93 1.7039553908e-38
0.027626937152 -0.0794274443121 0.933 1.91582709433e-38
0.0293536207241 -0.0794274443121 0.933 1.99854994657e-38
0.0311469287426 -0.0795977067866 0.935 1.85125301901e-38
0.0328773136727 -0.0795977067866 0.935 1.90649851032e-38
0.0346076986028 -0.0795977067866 0.935 1.91575366629e-38
0.036338083533 -0.0795977067866 0.935 1.90653354278e-38
0.0381906132817 -0.0798531004982 0.938 1.81430274033e-38
0.0399265502491 -0.0798531004982 0.938 1.83281249174e-38
0.0417513198118 -0.0800233629726 0.94 1.64831543398e-38
0.0436297590675 -0.0802787566842 0.943 1.74040372438e-38
0.0453749494302 -0.0802787566842 0.943 1.7497652389e-38
0.0471201397929 -0.0802787566842 0.943 1.72217787603e-38
0.0488653301556 -0.0802787566842 0.943 1.7129951672e-38
0.0506105205183 -0.0802787566842 0.943 1.68501347894e-38
0.052355710881 -0.0802787566842 0.943 2.29314618389e-38
-0.0547319828065 -0.079449652461 0.954 2.23779153144e-38
-0.0527998738577 -0.0791998107866 0.951 2.19176378143e-38
-0.0507715295974 -0.0787834079959 0.946 2.34896396549e-38
-0.0488653301556 -0.0785335663215 0.943 9.57133934762e-39
-0.0471201397929 -0.0785335663215 0.943 1.26076966822e-38
-0.0452305964628 -0.0782837246471 0.94 1.25241484652e-38
-0.0432596232536 -0.0778673218564 0.935 1.05001423906e-38
-0.0415292383234 -0.0778673218564 0.935 1.33535602106e-38
-0.0397137221561 -0.0777007607401 0.933 1.43655219096e-38
-0.0378648937655 -0.0774509190657 0.93 1.44559224761e-38
-0.0359494409284 -0.0770345162751 0.925 1.45463188388e-38
-0.0340524948819 -0.0766181134844 0.92 1.51913225089e-38
-0.0322795443332 -0.0764515523681 0.918 1.50069508674e-38
-0.030414059831 -0.0760351495774 0.913 1.48232602569e-38
-0.0285670821194 -0.0756187467868 0.908 1.46410171877e-38
-0.026827443794 -0.0754521856705 0.906 1.51920651971e-38
-0.0251507285568 -0.0754521856705 0.906 1.51938378397e-38
-0.0233962847988 -0.0752023439961 0.903 1.49186830771e-38
-0.0217251215989 -0.0752023439961 0.903 1.3625789062e-38
-0.020053958399 -0.0752023439961 0.903 1.9250095229e-38
-0.018382795199 -0.0752023439961 0.903 1.94351983484e-38
-0.0167116319991 -0.0752023439961 0.903 1.92482861527e-38
-0.0150904371341 -0.0754521856705 0.906 1.96167127424e-38
-0.013413721897 -0.0754521856705 0.906 1.97092769137e-38
-0.0117629161668 -0.0756187467868 0.908 2.03528274373e-38
-0.0100824995716 -0.0756187467868 0.908 2.06294199321e-38
-0.008420589767 -0.075785307903 0.91 2.01691774645e-38
-0.0067364718136 -0.075785307903 0.91 1.85125329927e-38
-0.00506900997183 -0.0760351495774 0.913 1.97117796328e-38
-0.00337933998122 -0.0760351495774 0.913 2.06351610519e-38
-0.00168966999061 -0.0760351495774 0.913 1.90685780325e-38
0.0 -0.0762017106937 0.915 1.7781804889e-38
0.00169892338596 -0.0764515523681 0.918 1.90682052871e-38
0.00340524948819 -0.0766181134844 0.92 1.20617255771e-38
0.00510787423229 -0.0766181134844 0.92 1.21546821121e-38
0.00681049897639 -0.0766181134844 0.92 1.34450944276e-38
0.00851312372049 -0.0766181134844 0.92 1.74999196899e-38
0.0102157484646 -0.0766181134844 0.92 1.98061809064e-38
0.0119572374691 -0.0768679551588 0.923 1.85150343105e-38
0.0136654142505 -0.0768679551588 0.923 1.81476937271e-38
0.015406903255 -0.0770345162751 0.925 1.43608780065e-38
0.0171187813945 -0.0770345162751 0.925 1.01199182691e-38
0.0188306595339 -0.0770345162751 0.925 1.6669749842e-38
0.0206091621199 -0.0772843579495 0.928 1.66664567906e-38
0.0223265922965 -0.0772843579495 0.928 1.96171051059e-38
0.0240958414871 -0.0774509190657 0.93 1.93394027828e-38
0.0258169730219 -0.0774509190657 0.93 1.9615988271e-38
0.027626937152 -0.0777007607401 0.933 2.04460824489e-38
0.0293536207241 -0.0777007607401 0.933 1.97092741111e-38
0.0311469287426 -0.0778673218564 0.935 1.99837001985e-38
0.0328773136727 -0.0778673218564 0.935 1.98011180151e-38
0.0346076986028 -0.0778673218564 0.935 1.79575613476e-38
0.036338083533 -0.0778673218564 0.935 1.83274228669e-38
0.0381906132817 -0.0781171635308 0.938 1.8143011989e-38
0.0400116814863 -0.0782837246471 0.94 1.65739066322e-38
0.0417513198118 -0.0782837246471 0.94 1.77738959605e-38
0.0436297590675 -0.0785335663215 0.943 1.71292272007e-38
0.0453749494302 -0.0785335663215 0.943 1.74965831983e-38
0.0471201397929 -0.0785335663215 0.943 1.80501227164e-38
0.0488653301556 -0.0785335663215 0.943 1.74965888035e-38
0.0506105205183 -0.0785335663215 0.943 2.0537236914e-38
0.052355710881 -0.0785335663215 0.943 2.2749571897e-38
-0.0527998738577 -0.0774398149913 0.951 2.17325403001e-38
-0.0507715295974 -0.077032665596 0.946 2.34899997886e-38
-0.0490207871974 -0.077032665596 0.946 1.11390279916e-38
-0.0471201397929 -0.0767883759588 0.943 1.16847034227e-38
-0.0452305964628 -0.0765440863216 0.94 1.33510602941e-38
-0.0433984241838 -0.0763812265635 0.938 1.25252260637e-38
-0.0415292383234 -0.0761369369263 0.935 1.33524615926e-38
-0.0397137221561 -0.0759740771681 0.933 1.39038206903e-38
-0.0378648937655 -0.0757297875309 0.93 1.48239847282e-38
-0.0359494409284 -0.0753226381356 0.925 1.46403165385e-38
-0.0341635356261 -0.0751597783775 0.923 1.47310492127e-38
-0.0322795443332 -0.0747526289822 0.918 1.50062221922e-38
-0.030414059831 -0.0743454795868 0.913 1.47307114998e-38
-0.0286300052078 -0.0741011899496 0.91 1.46403137359e-38
-0.026827443794 -0.0737754704334 0.906 1.51916854452e-38
-0.0251507285568 -0.0737754704334 0.906 1.52845887308e-38
-0.0233962847988 -0.0735311807962 0.903 1.46424661303e-38
-0.0217251215989 -0.0735311807962 0.903 1.38109033917e-38
-0.0201205828455 -0.0737754704334 0.906 1.89738614667e-38
-0.0184438676083 -0.0737754704334 0.906 1.92504483562e-38
-0.0167671523712 -0.0737754704334 0.906 1.91557373956e-38
-0.0150904371341 -0.0737754704334 0.906 1.98025501421e-38
-0.013413721897 -0.0737754704334 0.906 1.90653144083e-38
-0.0117629161668 -0.0739383301915 0.908 1.98007102372e-38
-0.0101047077204 -0.0741011899496 0.91 2.01687977126e-38
-0.008420589767 -0.0741011899496 0.91 1.95245115073e-38
-0.00675867996244 -0.0743454795868 0.913 2.016951798e-38
-0.00506900997183 -0.0743454795868 0.913 2.07223162112e-38
-0.0033867426975 -0.074508339345 0.915 1.29836468433e-38
-0.00169337134875 -0.074508339345 0.915 8.9343440982e-39
0.0 -0.074508339345 0.915 7.64901008829e-39
0.00169892338596 -0.0747526289822 0.918 1.7780452636e-38
0.00340524948819 -0.0749154887403 0.92 1.33449632445e-38
0.00510787423229 -0.0749154887403 0.92 2.09049852751e-38
0.00683270712523 -0.0751597783775 0.923 2.00827453752e-38
0.00854088390653 -0.0751597783775 0.923 2.02638800173e-38
0.0102490606878 -0.0751597783775 0.923 1.26084828106e-38
0.0119572374691 -0.0751597783775 0.923 3.86182162225e-39
0.0136950251156 -0.0753226381356 0.925 1.42748915301e-38
0.015406903255 -0.0753226381356 0.925 1.83259683191e-38
0.0171187813945 -0.0753226381356 0.925 1.78689180094e-38
0.0188306595339 -0.0753226381356 0.925 1.93455306609e-38
0.0206091621199 -0.0755669277728 0.928 1.98018270721e-38
0.0223265922965 -0.0755669277728 0.928 1.9155734593e-38
0.0240958414871 -0.0757297875309 0.93 1.93401328593e-38
0.02590025358 -0.0759740771681 0.933 2.03542777813e-38
0.027626937152 -0.0759740771681 0.933 1.95237926412e-38
0.0294165438124 -0.0761369369263 0.935 1.897027134e-38
0.0311469287426 -0.0761369369263 0.935 2.00748168285e-38
0.0328773136727 -0.0761369369263 0.935 1.83249047335e-38
0.0346076986028 -0.0761369369263 0.935 1.87876751436e-38
0.036338083533 -0.0761369369263 0.935 1.73128953904e-38
0.0382720431608 -0.0765440863216 0.94 1.73118261997e-38
0.0401393783421 -0.0767883759588 0.943 1.70345134375e-38
0.0418845687048 -0.0767883759588 0.943 1.72214410474e-38
0.0436297590675 -0.0767883759588 0.943 1.69459079343e-38
0.0453749494302 -0.0767883759588 0.943 1.77731686866e-38
0.0471201397929 -0.0767883759588 0.943 1.67593838983e-38
0.0488653301556 -0.0767883759588 0.943 2.05379669905e-38
0.0506105205183 -0.0767883759588 0.943 1.93397769294e-38
0.052355710881 -0.0767883759588 0.943 2.34882257448e-38
-0.052966434974 -0.075918556796 0.954 2.17325459053e-38
-0.0507715295974 -0.0752819231961 0.946 2.34878600059e-38
-0.0490207871974 -0.0752819231961 0.946 1.11372161127e-38
-0.0471201397929 -0.0750431855961 0.943 1.53781940669e-38
-0.0452305964628 -0.0748044479961 0.94 1.18748554204e-38
-0.0433984241838 -0.0746452895961 0.938 1.18755616748e-38
-0.0415292383234 -0.0744065519961 0.935 1.24301619759e-38
-0.0397137221561 -0.0742473935961 0.933 1.51012736683e-38
-0.0378648937655 -0.0740086559961 0.93 1.34378104782e-38
-0.0359494409284 -0.0736107599962 0.925 1.49154741036e-38
-0.0341635356261 -0.0734516015962 0.923 1.45499215771e-38
-0.0322795443332 -0.0730537055962 0.918 1.49179796253e-38
-0.0304806842775 -0.0728149679962 0.915 1.46410382072e-38
-0.0286300052078 -0.0724170719962 0.91 1.46406696657e-38
-0.0268866655242 -0.0722579135962 0.908 1.51916854452e-38
-0.0251507285568 -0.0720987551962 0.906 1.52842412088e-38
-0.0234740133197 -0.0720987551962 0.906 1.48250805436e-38
-0.0217972980826 -0.0720987551962 0.906 1.36257918646e-38
-0.0201205828455 -0.0720987551962 0.906 1.98036193328e-38
-0.0184438676083 -0.0720987551962 0.906 1.92501008342e-38
-0.0167671523712 -0.0720987551962 0.906 1.98936555618e-38
-0.0150904371341 -0.0720987551962 0.906 1.98933192501e-38
-0.0134433327621 -0.0722579135962 0.908 1.95241611827e-38
-0.0117888256738 -0.0724170719962 0.91 2.04457867749e-38
-0.0101047077204 -0.0724170719962 0.91 1.97085426333e-38
-0.00844834995305 -0.0726558095962 0.913 2.03542749787e-38
-0.00675867996244 -0.0726558095962 0.913 1.98936527592e-38
-0.00506900997183 -0.0726558095962 0.913 2.00765964776e-38
-0.0033867426975 -0.0728149679962 0.915 1.29814608177e-38
-0.00169337134875 -0.0728149679962 0.915 1.63041945129e-38
0.0 -0.0728149679962 0.915 1.69516742775e-38
0.00169892338596 -0.0730537055962 0.918 2.11890354804e-38
0.00340524948819 -0.0732128639962 0.92 2.13677066397e-38
0.00510787423229 -0.0732128639962 0.92 1.81440783771e-38
0.00683270712523 -0.0734516015962 0.923 1.29804224555e-38
0.00854088390653 -0.0734516015962 0.923 1.5922127684e-38
0.0102490606878 -0.0734516015962 0.923 1.64853655888e-38
0.0119831469761 -0.0736107599962 0.925 1.50213464065e-38
0.0137394414132 -0.0738494975962 0.928 1.83342752164e-38
0.0154568715899 -0.0738494975962 0.928 1.97110705757e-38
0.0171743017665 -0.0738494975962 0.928 1.97092614994e-38
0.0189324468827 -0.0740086559961 0.93 1.92475574775e-38
0.0206535784175 -0.0740086559961 0.93 2.05375872386e-38
0.0223747099523 -0.0740086559961 0.93 1.90631984476e-38
0.024173570008 -0.0742473935961 0.933 2.01684585984e-38
0.02590025358 -0.0742473935961 0.933 1.94315984126e-38
0.0276861588823 -0.0744065519961 0.935 1.92472043503e-38
0.0294165438124 -0.0744065519961 0.935 1.93404831839e-38
0.0311469287426 -0.0744065519961 0.935 1.79561152076e-38
0.0329828023797 -0.0746452895961 0.938 1.84181849684e-38
0.034718739347 -0.0746452895961 0.938 1.67593867009e-38
0.0364546763144 -0.0746452895961 0.938 1.73107401934e-38
0.0382720431608 -0.0748044479961 0.94 1.71277992775e-38
0.0401393783421 -0.0750431855961 0.943 1.73121947412e-38
0.0418845687048 -0.0750431855961 0.943 1.67608160253e-38
0.0437685599977 -0.0752819231961 0.946 1.8143359511e-38
0.0453749494302 -0.0750431855961 0.943 1.71292300033e-38
0.0471201397929 -0.0750431855961 0.943 2.03539428709e-38
0.0488653301556 -0.0750431855961 0.943 2.06304863203e-38
0.0506105205183 -0.0750431855961 0.943 1.9615988271e-38
0.052355710881 -0.0750431855961 0.943 2.34857328348e-38
-0.052966434974 -0.0741530089636 0.954 2.22874993336e-38
-0.0508788689834 -0.073686637838 0.948 2.34871299294e-38
-0.0490207871974 -0.0735311807962 0.946 1.03989420168e-38
-0.0472700447975 -0.0735311807962 0.946 1.55593637415e-38
-0.0453749494302 -0.0732979952334 0.943 1.50115975731e-38
-0.0434909581373 -0.0730648096706 0.94 1.49208312676e-38
-0.0415292383234 -0.072676167066 0.935 1.05883751484e-38
-0.0397988533933 -0.072676167066 0.935 1.28904366733e-38
-0.0378648937655 -0.0722875244614 0.93 1.56562214913e-38
-0.0359494409284 -0.0718988818567 0.925 1.21449641072e-38
-0.0341635356261 -0.0717434248149 0.923 1.55594380103e-38
-0.0323498701378 -0.0715102392521 0.92 1.50080228607e-38
-0.0304806842775 -0.0711215966475 0.915 1.48229281491e-38
-0.0287243898404 -0.0709661396056 0.913 1.51909861973e-38
-0.0269458872544 -0.0707329540428 0.91 1.50987765544e-38
-0.0252062489289 -0.070577497001 0.908 1.50083759879e-38
-0.0234740133197 -0.0704220399591 0.906 1.51924155217e-38
-0.0217972980826 -0.0704220399591 0.906 1.39009340154e-38
-0.0201649991431 -0.070577497001 0.908 1.96185078057e-38
-0.0184438676083 -0.0704220399591 0.906 1.94330571643e-38
-0.0167671523712 -0.0704220399591 0.906 1.97074580283e-38
-0.0151237493574 -0.070577497001 0.908 1.94308767439e-38
-0.0134433327621 -0.070577497001 0.908 1.94298005467e-38
-0.0117888256738 -0.0707329540428 0.91 1.97070908881e-38
-0.0101380199437 -0.0709661396056 0.913 1.9524148571e-38
-0.00846685674374 -0.0711215966475 0.915 2.00772999294e-38
-0.006773485395 -0.0711215966475 0.915 1.99851225164e-38
-0.00508011404625 -0.0711215966475 0.915 1.50927425632e-38
-0.0033867426975 -0.0711215966475 0.915 1.84153599507e-38
-0.00169337134875 -0.0711215966475 0.915 2.11840356474e-38
0.0 -0.0713547822102 0.918 1.90667983834e-38
0.00169892338596 -0.0713547822102 0.918 1.84235575467e-38
0.00340524948819 -0.0715102392521 0.92 1.45509291107e-38
0.00512453034392 -0.0717434248149 0.923 1.34475733246e-38
0.00683270712523 -0.0717434248149 0.923 9.76367456834e-39
0.00855939069723 -0.0718988818567 0.925 1.90585741627e-38
0.0102712688367 -0.0718988818567 0.925 1.88838140273e-38
0.0119831469761 -0.0718988818567 0.925 1.95284617677e-38
0.0137394414132 -0.0721320674195 0.928 1.99854700384e-38
0.0154568715899 -0.0721320674195 0.928 1.98011040021e-38
0.0171743017665 -0.0721320674195 0.928 1.92508042861e-38
0.0189324468827 -0.0722875244614 0.93 1.96188749459e-38
0.0206535784175 -0.0722875244614 0.93 1.93401328593e-38
0.0223747099523 -0.0722875244614 0.93 1.95252401825e-38
0.024173570008 -0.0725207100241 0.933 1.97089083722e-38
0.0259557739521 -0.072676167066 0.935 2.03524743101e-38
0.0276861588823 -0.072676167066 0.935 1.90631704217e-38
0.0294165438124 -0.072676167066 0.935 1.8510365184e-38
0.0312468654123 -0.0729093526288 0.938 1.97082021178e-38
0.0329828023797 -0.0729093526288 0.938 1.71285265514e-38
0.034718739347 -0.0729093526288 0.938 1.74047561099e-38
0.0365324048353 -0.0730648096706 0.94 1.74054567592e-38
0.0382720431608 -0.0730648096706 0.94 1.7406188237e-38
0.0401393783421 -0.0732979952334 0.943 1.75898508215e-38
0.0418845687048 -0.0732979952334 0.943 1.72214284357e-38
0.0437685599977 -0.0735311807962 0.946 1.7681350006e-38
0.0455193023976 -0.0735311807962 0.946 1.86954977306e-38
0.0472700447975 -0.0735311807962 0.946 2.17354115607e-38
0.0490207871974 -0.0735311807962 0.946 1.98914835491e-38
0.0507715295974 -0.0735311807962 0.946 1.97993033336e-38
0.0525222719973 -0.0735311807962 0.946 2.34882467643e-38
-0.052966434974 -0.0723874611311 0.954 2.34846047896e-38
-0.0508788689834 -0.07193219408 0.948 2.34892837251e-38
-0.0491244252253 -0.07193219408 0.948 1.12283299401e-38
-0.0472700447975 -0.0717804383963 0.946 1.42715087956e-38
-0.0455193023976 -0.0717804383963 0.946 1.46428192575e-38
-0.0434909581373 -0.0713251713451 0.94 1.58385065995e-38
-0.0416624872164 -0.0711734156614 0.938 1.03107120615e-38
-0.0397988533933 -0.0709457821358 0.935 1.15111147728e-38
-0.0379870385841 -0.0707940264521 0.933 1.16976346049e-38
-0.0360660337097 -0.0704146372428 0.928 1.16900942179e-38
-0.0341635356261 -0.0700352480336 0.923 1.15027546262e-38
-0.0323498701378 -0.069807614508 0.92 1.5102023363e-38
-0.0304806842775 -0.0694282252987 0.915 1.60221719866e-38
-0.0287243898404 -0.069276469615 0.913 1.43644527189e-38
-0.0269458872544 -0.0690488360894 0.91 1.49172761734e-38
-0.0252062489289 -0.0688970804057 0.908 1.46414151565e-38
-0.0235258323337 -0.0688970804057 0.908 1.50076599244e-38
-0.0218454157384 -0.0688970804057 0.908 1.46374228571e-38
-0.0201649991431 -0.0688970804057 0.908 1.96167071372e-38
-0.0184845825479 -0.0688970804057 0.908 1.95245143099e-38
-0.0168041659526 -0.0688970804057 0.908 1.93390342413e-38
-0.0151237493574 -0.0688970804057 0.908 2.07212624348e-38
-0.0134433327621 -0.0688970804057 0.908 2.0262779998e-38
-0.0118276899343 -0.069276469615 0.913 1.93404775787e-38
-0.0101380199437 -0.069276469615 0.913 1.98922234347e-38
-0.00846685674374 -0.0694282252987 0.915 1.92479316242e-38
-0.006773485395 -0.0694282252987 0.915 2.04446727426e-38
-0.00508011404625 -0.0694282252987 0.915 1.97117740276e-38
-0.00339784677192 -0.0696558588243 0.918 1.98976352494e-38
-0.00169892338596 -0.0696558588243 0.918 1.6570351538e-38
0.0 -0.0696558588243 0.918 8.73881812088e-39
0.0017026247441 -0.069807614508 0.92 5.79684664567e-39
0.00341635356261 -0.0700352480336 0.923 1.76871457765e-38
0.00513563441834 -0.0701870037173 0.925 1.78735871358e-38
0.00684751255778 -0.0701870037173 0.925 1.73208267397e-38
0.00855939069723 -0.0701870037173 0.925 2.02642443549e-38
0.0102712688367 -0.0701870037173 0.925 2.1460970059e-38
0.0120220112366 -0.0704146372428 0.928 1.82366691731e-38
0.0137394414132 -0.0704146372428 0.928 1.97128712443e-38
0.0154901838131 -0.0705663929266 0.93 1.94337508071e-38
0.0172113153479 -0.0705663929266 0.93 1.98018228682e-38
0.0189324468827 -0.0705663929266 0.93 1.93401454709e-38
0.020720202864 -0.0707940264521 0.933 1.93405112098e-38
0.022446886436 -0.0707940264521 0.933 1.97092713085e-38
0.024173570008 -0.0707940264521 0.933 1.95245367307e-38
0.0259557739521 -0.0709457821358 0.935 1.87819522407e-38
0.0276861588823 -0.0709457821358 0.935 1.92450603636e-38
0.029510928445 -0.0711734156614 0.938 2.03553287551e-38
0.0312468654123 -0.0711734156614 0.938 1.73114856841e-38
0.0329828023797 -0.0711734156614 0.938 1.7036328119e-38
0.034718739347 -0.0711734156614 0.938 1.75887788282e-38
0.0365324048353 -0.0713251713451 0.94 1.75902011461e-38
0.0383941879794 -0.0715528048707 0.943 1.67611663499e-38
0.0402670751979 -0.0717804383963 0.946 1.75902067513e-38
0.0420178175978 -0.0717804383963 0.946 1.74965888035e-38
0.0437685599977 -0.0717804383963 0.946 1.86022301074e-38
0.0455193023976 -0.0717804383963 0.946 2.06294353464e-38
0.0472700447975 -0.0717804383963 0.946 2.01684585984e-38
0.0490207871974 -0.0717804383963 0.946 2.02613604827e-38
0.0507715295974 -0.0717804383963 0.946 1.96160092905e-38
0.0525222719973 -0.0717804383963 0.946 2.34899941834e-38
-0.052966434974 -0.0706219132986 0.954 2.29332190672e-38
-0.0508788689834 -0.0701777503219 0.948 2.34885718655e-38
-0.0491244252253 -0.0701777503219 0.948 1.23350502439e-38
-0.0472700447975 -0.0700296959964 0.946 1.25147947979e-38
-0.0455193023976 -0.0700296959964 0.946 1.55611938373e-38
-0.0436297590675 -0.069807614508 0.943 1.60228754384e-38
-0.0416624872164 -0.0694374786941 0.938 9.66751326383e-39
-0.0397988533933 -0.0692153972057 0.935 1.05927387918e-38
-0.0379870385841 -0.0690673428801 0.933 1.22497335882e-38
-0.0360660337097 -0.0686972070662 0.928 1.06784604227e-38
-0.0342375627889 -0.0684751255778 0.925 1.33503386254e-38
-0.0324553588448 -0.0683270712523 0.923 1.38127236784e-38
-0.0305806209472 -0.0679569354383 0.918 1.42729577382e-38
-0.0287243898404 -0.0675867996244 0.913 1.51019981396e-38
-0.0269458872544 -0.067364718136 0.91 1.51927686489e-38
-0.0252062489289 -0.0672166638105 0.908 1.49154741036e-38
-0.0235258323337 -0.0672166638105 0.908 1.48232630595e-38
-0.0218454157384 -0.0672166638105 0.908 1.46367166027e-38
-0.0201649991431 -0.0672166638105 0.908 2.02646255081e-38
-0.0184845825479 -0.0672166638105 0.908 1.93418998966e-38
-0.0168041659526 -0.0672166638105 0.908 1.98014543267e-38
-0.0151237493574 -0.0672166638105 0.908 1.99851463385e-38
-0.0134729436272 -0.067364718136 0.91 1.96167071372e-38
-0.0118276899343 -0.0675867996244 0.913 1.97089055696e-38
-0.0101602280925 -0.06773485395 0.915 1.96163568125e-38
-0.00846685674374 -0.06773485395 0.915 1.99862155292e-38
-0.00679569354383 -0.0679569354383 0.918 2.10929386356e-38
-0.00509677015787 -0.0679569354383 0.918 1.17847533305e-38
-0.00339784677192 -0.0679569354383 0.918 1.60290467569e-38
-0.00169892338596 -0.0679569354383 0.918 1.67615993512e-38
0.0 -0.0681049897639 0.92 1.51985518077e-38
0.00170817678131 -0.0683270712523 0.923 1.82431557837e-38
0.00341635356261 -0.0683270712523 0.923 2.04515124804e-38
0.00513563441834 -0.0684751255778 0.925 1.97103545122e-38
0.00684751255778 -0.0684751255778 0.925 2.11847390993e-38
0.00855939069723 -0.0684751255778 0.925 2.00816481585e-38
0.0102712688367 -0.0684751255778 0.925 1.21560890157e-38
0.0120220112366 -0.0686972070662 0.928 4.96452440331e-39
0.0137394414132 -0.0686972070662 0.928 1.99026701148e-38
0.0154901838131 -0.0688452613918 0.93 1.96170602644e-38
0.0172113153479 -0.0688452613918 0.93 1.97089083722e-38
0.0189324468827 -0.0688452613918 0.93 1.93401328593e-38
0.020720202864 -0.0690673428801 0.933 1.97085524424e-38
0.0224950040919 -0.0692153972057 0.935 1.98940058864e-38
0.024225389022 -0.0692153972057 0.935 1.88780308686e-38
0.0259557739521 -0.0692153972057 0.935 2.04443070037e-38
0.0277749914776 -0.0694374786941 0.938 1.9524148571e-38
0.029510928445 -0.0694374786941 0.938 1.96188581303e-38
0.0313134898588 -0.0695855330196 0.94 1.75895032995e-38
0.0330531281843 -0.0695855330196 0.94 1.62987616788e-38
0.0347927665098 -0.0695855330196 0.94 1.75894976943e-38
0.0366489976167 -0.069807614508 0.943 1.7129242615e-38
0.038516332798 -0.0700296959964 0.946 1.75887788282e-38
0.0402670751979 -0.0700296959964 0.946 1.75887816308e-38
0.0420178175978 -0.0700296959964 0.946 1.78664475202e-38
0.0437685599977 -0.0700296959964 0.946 1.99869343953e-38
0.0455193023976 -0.0700296959964 0.946 2.02606542283e-38
0.0472700447975 -0.0700296959964 0.946 2.01684796179e-38
0.0490207871974 -0.0700296959964 0.946 2.04457699593e-38
0.0508788689834 -0.0701777503219 0.948 1.96149499089e-38
0.0526333127414 -0.0701777503219 0.948 2.34910787885e-38
-0.052966434974 -0.0688563654662 0.954 2.30247280608e-38
-0.0510398780625 -0.068639836015 0.951 2.34892991394e-38
-0.0491244252253 -0.0684233065639 0.948 1.03985790805e-38
-0.0473699814673 -0.0684233065639 0.948 1.30636567817e-38
-0.0455193023976 -0.0682789535964 0.946 1.06719934303e-38
-0.0436297590675 -0.0680624241453 0.943 1.63895546089e-38
-0.0416624872164 -0.0677015417267 0.938 1.17876596235e-38
-0.0397988533933 -0.0674850122756 0.935 1.11451068243e-38
-0.0379870385841 -0.0673406593081 0.933 1.51995789595e-38
-0.0361437622307 -0.067124129857 0.93 1.24294038734e-38
-0.0342375627889 -0.0667632474384 0.925 1.12237056552e-38
-0.0324553588448 -0.0666188944709 0.923 1.5380710799e-38
-0.0305806209472 -0.0662580120524 0.918 1.2434082809e-38
-0.0287243898404 -0.0658971296338 0.913 1.29865433272e-38
-0.0270347198498 -0.0658971296338 0.913 1.54704499526e-38
-0.025261769301 -0.0656806001826 0.91 1.51012946878e-38
-0.0235258323337 -0.0655362472152 0.908 1.49158272308e-38
-0.0218454157384 -0.0655362472152 0.908 1.55586602897e-38
-0.0201649991431 -0.0655362472152 0.908 2.02628402539e-38
-0.0184845825479 -0.0655362472152 0.908 1.97092586968e-38
-0.0168041659526 -0.0655362472152 0.908 1.90628172945e-38
-0.0151570615806 -0.0656806001826 0.91 1.97081895061e-38
-0.0134729436272 -0.0656806001826 0.91 1.97074580283e-38
-0.0118276899343 -0.0658971296338 0.913 1.97996592634e-38
-0.0101602280925 -0.0660414826012 0.915 1.96159938762e-38
-0.00849461692979 -0.0662580120524 0.918 1.98018046513e-38
-0.00679569354383 -0.0662580120524 0.918 2.10921931448e-38
-0.00509677015787 -0.0662580120524 0.918 1.04054286273e-38
-0.00340524948819 -0.0664023650198 0.92 1.49252425552e-38
-0.0017026247441 -0.0664023650198 0.92 1.81484574348e-38
0.0 -0.0666188944709 0.923 2.02667666922e-38
0.00171187813945 -0.0667632474384 0.925 1.99851169112e-38
0.00342375627889 -0.0667632474384 0.925 2.118403845e-38
0.00513563441834 -0.0667632474384 0.925 2.00812978339e-38
0.00684751255778 -0.0667632474384 0.925 1.48297468675e-38
0.00855939069723 -0.0667632474384 0.925 1.56120343469e-39
0.0103045810599 -0.0669797768895 0.928 8.54792063238e-44
0.0120220112366 -0.0669797768895 0.928 7.00649232162e-44
0.0137394414132 -0.0669797768895 0.928 2.06419979871e-38
0.0154901838131 -0.067124129857 0.93 2.01705871708e-38
0.0172113153479 -0.067124129857 0.93 1.9617063067e-38
0.018993519292 -0.0673406593081 0.933 2.03556972966e-38
0.0207646191617 -0.0674850122756 0.935 1.92479316242e-38
0.0224950040919 -0.0674850122756 0.935 1.90624641673e-38
0.024225389022 -0.0674850122756 0.935 2.00762629685e-38
0.0260390545103 -0.0677015417267 0.938 2.00773181463e-38
0.0277749914776 -0.0677015417267 0.938 1.97071049011e-38
0.029510928445 -0.0677015417267 0.938 1.78682173601e-38
0.0313134898588 -0.0678458946941 0.94 1.74973076696e-38
0.0331586168913 -0.0680624241453 0.943 1.74058098864e-38
0.034903807254 -0.0680624241453 0.943 1.76827527058e-38
0.0366489976167 -0.0680624241453 0.943 1.72203466333e-38
0.038516332798 -0.0682789535964 0.946 1.83259739243e-38
0.0402670751979 -0.0682789535964 0.946 1.82345013644e-38
0.0420178175978 -0.0682789535964 0.946 1.96188637355e-38
0.0438610939512 -0.0684233065639 0.948 2.02620793488e-38
0.0456155377093 -0.0684233065639 0.948 2.05372243023e-38
0.0473699814673 -0.0684233065639 0.948 2.03539120424e-38
0.0491244252253 -0.0684233065639 0.948 2.00769678217e-38
0.0508788689834 -0.0684233065639 0.948 2.05375774295e-38
0.0526333127414 -0.0684233065639 0.948 2.34900067951e-38
0.0543877564995 -0.0684233065639 0.948 2.34860229036e-38
-0.052966434974 -0.0670908176337 0.954 2.24729667905e-38
-0.0510398780625 -0.0668798402198 0.951 2.33031058099e-38
-0.0492798822672 -0.0668798402198 0.951 1.25205148982e-38
-0.0473699814673 -0.0666688628058 0.948 1.28853429534e-38
-0.0455193023976 -0.0665282111965 0.946 1.23351076971e-38
-0.0436297590675 -0.0663172337826 0.943 1.08556840408e-38
-0.0417513198118 -0.0661062563686 0.94 1.56512693026e-38
-0.0399265502491 -0.0659656047594 0.938 1.16004139188e-38
-0.0379870385841 -0.0656139757361 0.933 1.5108479145e-38
-0.0361437622307 -0.0654029983222 0.93 1.51019785214e-38
-0.0342375627889 -0.0650513692989 0.925 1.3990996869e-38
-0.0324553588448 -0.0649107176896 0.923 1.19648832416e-38
-0.0306472453938 -0.0646997402757 0.92 1.0682053352e-38
-0.0287873129287 -0.0643481112525 0.915 1.38148690664e-38
-0.0270347198498 -0.0642074596432 0.913 1.39956687981e-38
-0.025261769301 -0.0639964822292 0.91 1.53760809088e-38
-0.0235776513476 -0.0639964822292 0.91 1.47328652955e-38
-0.0218935333942 -0.0639964822292 0.91 1.50973234079e-38
-0.0202094154408 -0.0639964822292 0.91 1.97107230537e-38
-0.0185252974874 -0.0639964822292 0.91 1.93412174643e-38
-0.016841179534 -0.0639964822292 0.91 1.98932996319e-38
-0.0151570615806 -0.0639964822292 0.91 1.96159938762e-38
-0.0135173599249 -0.0642074596432 0.913 1.97993033336e-38
-0.0118535994412 -0.0643481112525 0.915 2.04446727426e-38
-0.0101602280925 -0.0643481112525 0.915 1.98925709567e-38
-0.00849461692979 -0.0645590886664 0.918 1.98936555618e-38
-0.00681049897639 -0.0646997402757 0.92 1.98954702433e-38
-0.00510787423229 -0.0646997402757 0.92 1.89760250715e-38
-0.00340524948819 -0.0646997402757 0.92 2.00812852222e-38
-0.0017026247441 -0.0646997402757 0.92 2.02620765462e-38
0.0 -0.0649107176896 0.923 2.09078271084e-38
0.00171187813945 -0.0650513692989 0.925 2.10018121964e-38
0.00342375627889 -0.0650513692989 0.925 1.65810532544e-38
0.00513563441834 -0.0650513692989 0.925 2.02038091548e-39
0.00686972070662 -0.0652623467129 0.928 1.02294787896e-43
0.00858715088327 -0.0652623467129 0.928 6.09110250759e-39
0.0103045810599 -0.0652623467129 0.928 3.413834911e-39
0.0120479207436 -0.0654029983222 0.93 5.04467447157e-44
0.0137690522784 -0.0654029983222 0.93 2.0912585918e-38
0.0154901838131 -0.0654029983222 0.93 1.98947233512e-38
0.01726683572 -0.0656139757361 0.933 1.97085398307e-38
0.0190342342316 -0.0657546273454 0.935 1.92468484205e-38
0.0207646191617 -0.0657546273454 0.935 2.01687921074e-38
0.0224950040919 -0.0657546273454 0.935 1.99847693892e-38
0.0243031175429 -0.0659656047594 0.938 2.06294353464e-38
0.0260945748824 -0.0661062563686 0.94 1.9246132357e-38
0.0278342132079 -0.0661062563686 0.94 1.98011040021e-38
0.0295738515333 -0.0661062563686 0.94 1.75887788282e-38
0.0314134265286 -0.0663172337826 0.943 1.77746022149e-38
0.0331586168913 -0.0663172337826 0.943 1.74054567592e-38
0.034903807254 -0.0663172337826 0.943 1.7866441915e-38
0.0367655903981 -0.0665282111965 0.946 1.77738987631e-38
0.038516332798 -0.0665282111965 0.946 1.78671663863e-38
0.0402670751979 -0.0665282111965 0.946 1.78657384631e-38
0.0421066501932 -0.0666688628058 0.948 2.08141783321e-38
0.0438610939512 -0.0666688628058 0.948 2.01684585984e-38
0.0456155377093 -0.0666688628058 0.948 2.04446727426e-38
0.0473699814673 -0.0666688628058 0.948 2.02617136099e-38
0.0491244252253 -0.0666688628058 0.948 1.96167071372e-38
0.0508788689834 -0.0666688628058 0.948 1.85089176427e-38
0.0527998738577 -0.0668798402198 0.951 2.34889249927e-38
0.054559869653 -0.0668798402198 0.951 2.34860509296e-38
-0.052966434974 -0.0653252698012 0.954 2.16432131282e-38
-0.0512008871415 -0.0653252698012 0.954 2.34903683301e-38
-0.0492798822672 -0.0651198444245 0.951 1.10450204828e-38
-0.0475198864719 -0.0651198444245 0.951 1.3350984624e-38
-0.0456155377093 -0.0649144190478 0.948 1.04061769207e-38
-0.0437685599977 -0.0647774687966 0.946 1.58406716056e-38
-0.0418845687048 -0.0645720434199 0.943 1.52845719152e-38
-0.0400116814863 -0.0643666180432 0.94 1.15028260924e-38
-0.0379870385841 -0.0638872921641 0.933 1.56562509186e-38
-0.0361437622307 -0.0636818667874 0.93 1.48236287984e-38
-0.0343486035331 -0.0635449165362 0.928 1.60225096995e-38
-0.0325256846495 -0.0633394911595 0.925 1.30733355502e-38
-0.0307471820635 -0.0632025409083 0.923 9.84368030287e-39
-0.0288816975613 -0.0628601652804 0.918 1.56558949888e-38
-0.02709394158 -0.0626547399037 0.915 1.39027094606e-38
-0.0253450498591 -0.0625177896526 0.913 1.26091806573e-38
-0.0235776513476 -0.0623123642758 0.91 1.44580930875e-38
-0.0218935333942 -0.0623123642758 0.91 1.62969512012e-38
-0.0202760398873 -0.0625177896526 0.913 2.00805999873e-38
-0.0185863698967 -0.0625177896526 0.913 1.93433530431e-38
-0.0168966999061 -0.0625177896526 0.913 2.01709627188e-38
-0.0152070299155 -0.0625177896526 0.913 1.97078489906e-38
-0.0135173599249 -0.0625177896526 0.913 1.96167071372e-38
-0.0118535994412 -0.0626547399037 0.915 1.97081642827e-38
-0.0101935403157 -0.0628601652804 0.918 2.00776684709e-38
-0.00851312372049 -0.0629971155316 0.92 1.98018102565e-38
-0.00681049897639 -0.0629971155316 0.92 1.98943730266e-38
-0.00510787423229 -0.0629971155316 0.92 1.97099803655e-38
-0.00341635356261 -0.0632025409083 0.923 2.05382962956e-38
-0.00170817678131 -0.0632025409083 0.923 2.14609952824e-38
0.0 -0.0633394911595 0.925 1.74111796621e-38
0.00171187813945 -0.0633394911595 0.925 4.04506661983e-39
0.00342375627889 -0.0633394911595 0.925 3.39799603446e-39
0.00515229052996 -0.0635449165362 0.928 1.08761948464e-38
0.00686972070662 -0.0635449165362 0.928 1.05048591612e-38
0.00858715088327 -0.0635449165362 0.928 4.97604027409e-39
0.0103267892088 -0.0636818667874 0.93 2.95897202818e-39
0.0120479207436 -0.0636818667874 0.93 4.7644147787e-44
0.013813468576 -0.0638872921641 0.933 1.97147910232e-38
0.015540152148 -0.0638872921641 0.933 2.00809152794e-38
0.01726683572 -0.0638872921641 0.933 1.97081867035e-38
0.0190953066409 -0.064229667792 0.938 2.02617262216e-38
0.0208312436082 -0.064229667792 0.938 1.99858469877e-38
0.0225671805756 -0.064229667792 0.938 1.96167099398e-38
0.0243031175429 -0.064229667792 0.938 2.07223316255e-38
0.0260945748824 -0.0643666180432 0.94 1.93390496555e-38
0.0278342132079 -0.0643666180432 0.94 1.89734887213e-38
0.0296682361659 -0.0645720434199 0.943 1.80519107732e-38
0.0314134265286 -0.0645720434199 0.943 1.69448513552e-38
0.0332641055983 -0.0647774687966 0.946 1.81430246007e-38
0.0350148479982 -0.0647774687966 0.946 1.76845547756e-38
0.0367655903981 -0.0647774687966 0.946 1.77731897061e-38
0.038516332798 -0.0647774687966 0.946 1.80512073214e-38
0.0402670751979 -0.0647774687966 0.946 1.98968715417e-38
0.0421066501932 -0.0649144190478 0.948 2.05386662384e-38
0.0438610939512 -0.0649144190478 0.948 1.98922178295e-38
0.0456155377093 -0.0649144190478 0.948 2.07230406825e-38
0.0473699814673 -0.0649144190478 0.948 1.92482805475e-38
0.0491244252253 -0.0649144190478 0.948 1.77735428333e-38
0.0510398780625 -0.0651198444245 0.951 2.13655780674e-38
0.0527998738577 -0.0651198444245 0.951 2.34885704642e-38
0.054559869653 -0.0651198444245 0.951 2.31161781999e-38
-0.052966434974 -0.0635597219688 0.954 2.16424928608e-38
-0.0512008871415 -0.0635597219688 0.954 2.34892893303e-38
-0.0492798822672 -0.0633598486293 0.951 1.12287124946e-38
-0.0475198864719 -0.0633598486293 0.951 1.2522668694e-38
-0.0456155377093 -0.0631599752897 0.948 1.09622345721e-38
-0.0437685599977 -0.0630267263967 0.946 1.4827246951e-38
-0.0418845687048 -0.0628268530572 0.943 1.50087235099e-38
-0.0400116814863 -0.0626269797177 0.94 1.53764340361e-38
-0.0381906132817 -0.0624937308247 0.938 1.53768025775e-38
-0.0362603550121 -0.0621606085921 0.933 1.46417682837e-38
-0.0343486035331 -0.0618274863596 0.928 1.25180598233e-38
-0.0325256846495 -0.06162761302 0.925 1.28886163866e-38
-0.0307471820635 -0.061494364127 0.923 1.20617073602e-38
-0.0288816975613 -0.0611612418945 0.918 1.23401145365e-38
-0.02709394158 -0.060961368555 0.915 1.27063733175e-38
-0.0254005702312 -0.060961368555 0.915 1.07677525622e-38
-0.0236553798685 -0.0608281196619 0.913 1.14121074311e-38
-0.0219657098779 -0.0608281196619 0.913 1.53775340553e-38
-0.0202760398873 -0.0608281196619 0.913 1.99876798861e-38
-0.0185863698967 -0.0608281196619 0.913 1.9435173125e-38
-0.0168966999061 -0.0608281196619 0.913 1.92482805475e-38
-0.0152070299155 -0.0608281196619 0.913 2.05375872386e-38
-0.01354697079 -0.060961368555 0.915 1.96163413983e-38
-0.0118924637017 -0.0611612418945 0.918 1.98929268866e-38
-0.0101935403157 -0.0611612418945 0.918 2.03542595644e-38
-0.00851312372049 -0.0612944907875 0.92 2.10921931448e-38
-0.00681049897639 -0.0612944907875 0.92 1.98933164475e-38
-0.00512453034392 -0.061494364127 0.923 2.20145193862e-38
-0.00341635356261 -0.061494364127 0.923 1.75970436865e-38
-0.00171187813945 -0.06162761302 0.925 6.71768050423e-39
0.0 -0.06162761302 0.925 8.82704247089e-39
0.00171187813945 -0.06162761302 0.925 1.83704623479e-40
0.00343486035331 -0.0618274863596 0.928 1.61263865534e-38
0.00515229052996 -0.0618274863596 0.928 1.08675011908e-38
0.00686972070662 -0.0618274863596 0.928 1.76917966861e-38
0.00858715088327 -0.0618274863596 0.928 6.71873428068e-39
0.0103267892088 -0.0619607352526 0.93 3.40377218673e-39
0.012086785004 -0.0621606085921 0.933 4.35803822405e-43
0.013813468576 -0.0621606085921 0.933 1.50132048624e-38
0.0155734643713 -0.0622938574851 0.935 1.99916329491e-38
0.0173038493014 -0.0622938574851 0.935 2.03539120424e-38
0.0190953066409 -0.0624937308247 0.938 2.01698809163e-38
0.0208312436082 -0.0624937308247 0.938 1.99865560447e-38
0.0225671805756 -0.0624937308247 0.938 1.98936527592e-38
0.0243031175429 -0.0624937308247 0.938 1.9894370224e-38
0.0260945748824 -0.0626269797177 0.94 1.89706342763e-38
0.0279230458032 -0.0628268530572 0.943 1.82362964277e-38
0.0296682361659 -0.0628268530572 0.943 1.74047589125e-38
0.0315133631984 -0.0630267263967 0.946 1.85114609994e-38
0.0332641055983 -0.0630267263967 0.946 1.79597095382e-38
0.0350148479982 -0.0630267263967 0.946 1.8052614225e-38
0.0367655903981 -0.0630267263967 0.946 1.74065413642e-38
0.038516332798 -0.0630267263967 0.946 1.9525608724e-38
0.0403522064351 -0.0631599752897 0.948 2.14609588487e-38
0.0421066501932 -0.0631599752897 0.948 1.98933038358e-38
0.0438610939512 -0.0631599752897 0.948 2.03542595644e-38
0.0457598906767 -0.0633598486293 0.951 1.97996592634e-38
0.0475198864719 -0.0633598486293 0.951 1.98925555425e-38
0.0492798822672 -0.0633598486293 0.951 2.07237833707e-38
0.0510398780625 -0.0633598486293 0.951 2.17350458218e-38
0.052966434974 -0.0635597219688 0.954 2.3487855802e-38
0.0547319828065 -0.0635597219688 0.954 2.34860467257e-38
-0.0513082265276 -0.0619237216712 0.956 2.34882201396e-38
-0.0494353393091 -0.0617941741363 0.954 9.29081060545e-39
-0.0476697914766 -0.0617941741363 0.954 1.35318207896e-38
-0.0457598906767 -0.061599852834 0.951 1.21528674305e-38
-0.0438610939512 -0.0614055315317 0.948 1.50094465799e-38
-0.0420178175978 -0.0612759839968 0.946 1.39056199575e-38
-0.0400116814863 -0.0608873413922 0.94 1.26123756178e-38
-0.0379870385841 -0.0604339250201 0.933 1.60239726551e-38
-0.0361437622307 -0.0602396037178 0.93 1.50087291151e-38
-0.0343486035331 -0.0601100561829 0.928 1.36265345528e-38
-0.0325256846495 -0.0599157348806 0.925 1.27042055087e-38
-0.0307471820635 -0.0597861873457 0.923 1.16018488484e-38
-0.0289446206497 -0.0595918660434 0.92 1.49230116881e-38
-0.0271827741753 -0.0594623185085 0.918 1.25219652421e-38
-0.0254005702312 -0.0592679972062 0.915 1.06752430415e-38
-0.0236553798685 -0.0591384496713 0.913 1.40872030151e-38
-0.0219657098779 -0.0591384496713 0.913 1.61165172083e-38
-0.020320456185 -0.0592679972062 0.915 1.98040173016e-38
-0.0186270848362 -0.0592679972062 0.915 1.93422712407e-38
-0.0169337134875 -0.0592679972062 0.915 1.95248492202e-38
-0.0152403421387 -0.0592679972062 0.915 1.9615988271e-38
-0.0135913870877 -0.0594623185085 0.918 2.01698809163e-38
-0.0118924637017 -0.0594623185085 0.918 1.97081867035e-38
-0.0102157484646 -0.0595918660434 0.92 1.98925709567e-38
-0.00851312372049 -0.0595918660434 0.92 2.19205216865e-38
-0.00683270712523 -0.0597861873457 0.923 1.9345164922e-38
-0.00513563441834 -0.0599157348806 0.925 1.08642838095e-38
-0.00342375627889 -0.0599157348806 0.925 1.10207359804e-39
-0.00171187813945 -0.0599157348806 0.925 1.32822060928e-38
0.0 -0.0601100561829 0.928 9.95066383542e-39
0.00171743017665 -0.0601100561829 0.928 2.84874168708e-39
0.00343486035331 -0.0601100561829 0.928 5.80230330189e-39
0.00515229052996 -0.0601100561829 0.928 1.45622586088e-38
0.00688452613918 -0.0602396037178 0.93 9.40462266543e-39
0.00860565767397 -0.0602396037178 0.93 1.32700568351e-38
0.010360101432 -0.0604339250201 0.933 8.57022790263e-39
