# .PCD v0.7 - Point Cloud Data file format
VERSION 0.7
FIELDS x y z rgb
SIZE 4 4 4 4
TYPE F F F F
COUNT 1 1 1 1
WIDTH 839
HEIGHT 1
VIEWPOINT 0 0 0 1 0 0 0
POINTS 839
DATA ascii
-0.0128659208924 -0.0755872852426 0.869 1.07076816996e-38
-0.0112576807808 -0.0755872852426 0.869 1.53081277424e-38
-0.00964944066926 -0.0755872852426 0.869 1.68699827809e-38
-0.00804120055772 -0.0755872852426 0.869 1.60391683357e-38
-0.00643296044618 -0.0755872852426 0.869 1.46602219831e-38
-0.00482472033463 -0.0755872852426 0.869 1.09749317375e-38
-0.00321648022309 -0.0755872852426 0.869 1.32812672228e-38
-0.00160824011154 -0.0755872852426 0.869 1.63225893579e-38
0.0 -0.07541332141 0.867 1.5216248806e-38
0.0016045387534 -0.07541332141 0.867 1.36507153591e-38
0.00320907750681 -0.07541332141 0.867 1.650733935e-38
0.00481361626021 -0.07541332141 0.867 1.48456572102e-38
0.00641815501362 -0.07541332141 0.867 1.68754002007e-38
0.00802269376702 -0.07541332141 0.867 1.66009965342e-38
0.00959392029717 -0.0751523756612 0.864 1.71505549633e-38
0.0111929070134 -0.0751523756612 0.864 1.68735953283e-38
0.0127918937296 -0.0751523756612 0.864 1.6230393728e-38
0.0143575682225 -0.0749784118287 0.862 1.78856186845e-38
0.0159528535806 -0.0749784118287 0.862 1.89883312746e-38
0.0175481389386 -0.0749784118287 0.862 1.81621831533e-38
0.0191434242967 -0.0749784118287 0.862 1.76079401834e-38
0.0206905919989 -0.0748044479961 0.86 1.75142984135e-38
0.0222821759988 -0.0748044479961 0.86 1.82529326431e-38
0.0238737599988 -0.0748044479961 0.86 1.83458611521e-38
0.0254653439987 -0.0748044479961 0.86 1.79760024354e-38
0.0270569279986 -0.0748044479961 0.86 1.83447793497e-38
0.0286485119985 -0.0748044479961 0.86 1.71469578301e-38
0.0302400959984 -0.0748044479961 0.86 1.73313490899e-38
0.0317576528356 -0.0746304841636 0.858 1.75161004833e-38
0.0333455354773 -0.0746304841636 0.858 1.72384500082e-38
0.0349334181191 -0.0746304841636 0.858 1.79756465056e-38
0.0364361695237 -0.074456520331 0.856 1.74228258536e-38
0.0380203508073 -0.074456520331 0.856 1.75157445535e-38
0.039604532091 -0.074456520331 0.856 1.7791974112e-38
0.041092478063 -0.0742825564985 0.854 1.75157473561e-38
0.0426729579885 -0.0742825564985 0.854 1.77916237874e-38
0.044253437914 -0.0742825564985 0.854 1.79767213015e-38
0.0458339178395 -0.0742825564985 0.854 1.82533095924e-38
0.047414397765 -0.0742825564985 0.854 1.62257274041e-38
0.0491096197928 -0.074456520331 0.856 1.65016108419e-38
0.050575357616 -0.0742825564985 0.854 1.85295419535e-38
0.0521558375415 -0.0742825564985 0.854 2.10202686985e-38
0.053736317467 -0.0742825564985 0.854 2.10184554183e-38
-0.0355441422121 -0.0743195700798 0.873 2.01872500108e-38
-0.0339284993843 -0.0743195700798 0.873 1.79745703084e-38
-0.0323128565565 -0.0743195700798 0.873 1.72373780149e-38
-0.0306972137286 -0.0743195700798 0.873 1.71469578301e-38
-0.0290815709008 -0.0743195700798 0.873 1.74235475223e-38
-0.0274030049846 -0.0741493076054 0.871 1.79767213015e-38
-0.0257910635149 -0.0741493076054 0.871 1.72395304093e-38
-0.0241791220453 -0.0741493076054 0.871 1.69625735769e-38
-0.0225671805756 -0.0741493076054 0.871 1.723915346e-38
-0.0209552391059 -0.0741493076054 0.871 1.77923118249e-38
-0.0193432976362 -0.0741493076054 0.871 1.71462235497e-38
-0.0177313561665 -0.0741493076054 0.871 1.74228314588e-38
-0.0161194146968 -0.0741493076054 0.871 1.78834508757e-38
-0.0145074732272 -0.0741493076054 0.871 1.67792487053e-38
-0.0128955317575 -0.0741493076054 0.871 1.78848731937e-38
-0.0112835902878 -0.0741493076054 0.871 1.86184753605e-38
-0.00964944066926 -0.073979045131 0.869 1.88968825368e-38
-0.00804120055772 -0.073979045131 0.869 1.84373253041e-38
-0.00643296044618 -0.073979045131 0.869 1.83458583495e-38
-0.00482472033463 -0.073979045131 0.869 1.93593054248e-38
-0.00321648022309 -0.073979045131 0.869 1.6595230191e-38
-0.00160824011154 -0.073979045131 0.869 1.90841450571e-38
0.0 -0.073979045131 0.869 1.74249936623e-38
0.00160824011154 -0.073979045131 0.869 1.73338546115e-38
0.00321648022309 -0.073979045131 0.869 1.65948630508e-38
0.00482472033463 -0.073979045131 0.869 1.68736135452e-38
0.00643296044618 -0.073979045131 0.869 1.54017246707e-38
0.00804120055772 -0.073979045131 0.869 1.31922917768e-38
0.00962723252043 -0.0738087826566 0.867 1.32841370821e-38
0.0111929070134 -0.073553388945 0.864 1.60442130101e-38
0.0127918937296 -0.073553388945 0.864 1.70554880729e-38
0.0143908804458 -0.073553388945 0.864 9.49839755866e-39
0.0159528535806 -0.0733831264706 0.862 1.37433397863e-38
0.0175481389386 -0.0733831264706 0.862 1.09774540748e-38
0.0191434242967 -0.0733831264706 0.862 1.43839854182e-38
0.0207387096547 -0.0733831264706 0.862 1.06885918106e-38
0.0223339950128 -0.0733831264706 0.862 1.80671162628e-38
0.0239292803708 -0.0733831264706 0.862 1.73313518925e-38
0.0254653439987 -0.0732128639962 0.86 1.75143376498e-38
0.0270569279986 -0.0732128639962 0.86 1.76079401834e-38
0.0286485119985 -0.0732128639962 0.86 1.69622204497e-38
0.0302400959984 -0.0732128639962 0.86 1.74235503249e-38
0.0318316799983 -0.0732128639962 0.86 1.71469606327e-38
0.0334232639983 -0.0732128639962 0.86 1.71469578301e-38
0.0349334181191 -0.0730426015218 0.858 1.67774592472e-38
0.0365213007609 -0.0730426015218 0.858 1.7422099981e-38
0.0381091834027 -0.0730426015218 0.858 1.76068625848e-38
0.039604532091 -0.0728723390474 0.856 1.74239174651e-38
0.0411887133746 -0.0728723390474 0.856 1.74235475223e-38
0.042872831328 -0.0730426015218 0.858 1.78841697418e-38
0.0444607139698 -0.0730426015218 0.858 1.78845200665e-38
0.0460485966116 -0.0730426015218 0.858 1.50253835474e-38
0.0476364792533 -0.0730426015218 0.858 1.62243022836e-38
0.0492243618951 -0.0730426015218 0.858 1.86213844561e-38
0.0508122445369 -0.0730426015218 0.858 1.72395304093e-38
0.0524001271787 -0.0730426015218 0.858 2.02837966724e-38
-0.0393084234398 -0.0737032939496 0.885 1.9542233729e-38
-0.0375428756073 -0.0734534522752 0.882 1.92656440368e-38
-0.0357477169098 -0.0731203300427 0.878 1.94500352965e-38
-0.0340062279052 -0.0728704883683 0.875 1.8528074794e-38
-0.0323868837192 -0.0728704883683 0.875 1.71448166461e-38
-0.0307675395333 -0.0728704883683 0.875 1.72391506574e-38
-0.0291481953473 -0.0728704883683 0.875 1.74235475223e-38
-0.027465928073 -0.072703927252 0.873 1.73313518925e-38
-0.0258502852452 -0.072703927252 0.873 1.70554908755e-38
-0.0242346424173 -0.072703927252 0.873 1.74239174651e-38
-0.0226189995895 -0.072703927252 0.873 1.72388031354e-38
-0.0210033567617 -0.072703927252 0.873 1.71466047029e-38
-0.0193877139339 -0.072703927252 0.873 1.72380814667e-38
-0.0177720711061 -0.072703927252 0.873 1.72380814667e-38
-0.0161194146968 -0.0725373661358 0.871 1.77919769146e-38
-0.0145074732272 -0.0725373661358 0.871 1.41985151586e-38
-0.0129251426226 -0.072703927252 0.873 1.72398793326e-38
-0.0113094997948 -0.072703927252 0.873 1.20751416086e-38
-0.0096716488181 -0.0725373661358 0.871 1.51226014309e-38
-0.00805970734842 -0.0725373661358 0.871 9.04317594343e-39
-0.00644776587873 -0.0725373661358 0.871 7.57092693526e-39
-0.00483582440905 -0.0725373661358 0.871 1.4660629761e-38
-0.00322388293937 -0.0725373661358 0.871 1.36438812264e-38
-0.00161194146968 -0.0725373661358 0.871 1.60395186603e-38
0.0 -0.0725373661358 0.871 1.1894295634e-38
0.00161194146968 -0.0725373661358 0.871 1.08827571271e-38
0.00322388293937 -0.0725373661358 0.871 7.74201146477e-39
0.00482472033463 -0.0723708050195 0.869 1.26322810625e-38
0.00643296044618 -0.0723708050195 0.869 1.28166765261e-38
0.00804120055772 -0.0723708050195 0.869 8.02862044098e-39
0.00964944066926 -0.0723708050195 0.869 1.05218835362e-38
0.0112317712738 -0.0722042439032 0.867 8.39601567495e-39
0.0128363100272 -0.0722042439032 0.867 1.06976638169e-38
0.0143908804458 -0.0719544022288 0.864 1.09760443685e-38
0.015989867162 -0.0719544022288 0.864 1.43879903292e-38
0.0175888538782 -0.0719544022288 0.864 1.06090443007e-38
0.0191878405943 -0.0719544022288 0.864 1.83473227064e-38
0.0207387096547 -0.0717878411125 0.862 1.30875026777e-38
0.0223339950128 -0.0717878411125 0.862 1.81593118927e-38
0.0239292803708 -0.0717878411125 0.862 1.7146238964e-38
0.0255245657289 -0.0717878411125 0.862 1.8251866255e-38
0.027119851087 -0.0717878411125 0.862 1.80678225173e-38
0.028715136445 -0.0717878411125 0.862 1.81600209497e-38
0.0302400959984 -0.0716212799963 0.86 1.71455383148e-38
0.0318316799983 -0.0716212799963 0.86 1.82533095924e-38
0.0334232639983 -0.0716212799963 0.86 1.69625763795e-38
0.0350148479982 -0.0716212799963 0.86 1.79770744287e-38
0.0365213007609 -0.07145471888 0.858 1.70547874237e-38
0.0381091834027 -0.07145471888 0.858 1.81614698923e-38
0.0396970660444 -0.07145471888 0.858 1.72395065872e-38
0.0412849486862 -0.07145471888 0.858 1.75160976807e-38
0.042872831328 -0.07145471888 0.858 1.60398970109e-38
0.0444607139698 -0.07145471888 0.858 1.61331618315e-38
0.0460485966116 -0.07145471888 0.858 1.80689043197e-38
0.0477475199975 -0.0716212799963 0.86 1.79763499574e-38
0.0493391039974 -0.0716212799963 0.86 1.6963292443e-38
0.0509306879973 -0.0716212799963 0.86 1.52136858311e-38
0.0525222719973 -0.0716212799963 0.86 2.03752762387e-38
-0.0393084234398 -0.072065442973 0.885 1.92652909096e-38
-0.0375428756073 -0.0718211533358 0.882 2.00028615537e-38
-0.0357477169098 -0.0714954338195 0.878 1.95418806018e-38
-0.0341228206866 -0.0714954338195 0.878 1.94500409017e-38
-0.0324979244634 -0.0714954338195 0.878 1.6776730572e-38
-0.0308730282403 -0.0714954338195 0.878 1.72406024026e-38
-0.0291481953473 -0.0712511441823 0.875 1.65955861208e-38
-0.0275288511614 -0.0712511441823 0.875 1.69654406336e-38
-0.0259095069754 -0.0712511441823 0.875 1.72398793326e-38
-0.0242901627894 -0.0712511441823 0.875 1.77930559144e-38
-0.0226708186035 -0.0712511441823 0.875 1.80689169314e-38
-0.0210514744175 -0.0712511441823 0.875 1.72388031354e-38
-0.0193877139339 -0.0710882844242 0.873 1.71477033209e-38
-0.0177720711061 -0.0710882844242 0.873 1.73309987653e-38
-0.0161564282782 -0.0710882844242 0.873 1.80689365496e-38
-0.0145407854504 -0.0710882844242 0.873 8.30305914002e-39
-0.0129251426226 -0.0710882844242 0.873 9.5967294745e-39
-0.0113094997948 -0.0710882844242 0.873 1.21695526914e-38
-0.00969385696694 -0.0710882844242 0.873 9.49803041846e-39
-0.00807821413911 -0.0710882844242 0.873 8.76912680536e-39
-0.00646257131129 -0.0710882844242 0.873 7.94116680512e-39
-0.00483582440905 -0.0709254246661 0.871 1.34642725984e-38
-0.00322388293937 -0.0709254246661 0.871 1.24425298361e-38
-0.00161194146968 -0.0709254246661 0.871 1.80657149644e-38
0.0 -0.0709254246661 0.871 1.00511565535e-38
0.00161194146968 -0.0709254246661 0.871 1.65952708286e-38
0.00322388293937 -0.0709254246661 0.871 1.70533398823e-38
0.00482472033463 -0.0707625649079 0.869 1.8343705955e-38
0.00643296044618 -0.0707625649079 0.869 1.92631413177e-38
0.00805970734842 -0.0709254246661 0.871 1.82507914591e-38
0.00964944066926 -0.0707625649079 0.869 1.86210215198e-38
0.0112576807808 -0.0707625649079 0.869 1.77912580485e-38
0.0128363100272 -0.0705997051498 0.867 1.77008574819e-38
0.0144408487806 -0.0705997051498 0.867 1.82536655222e-38
0.016045387534 -0.0705997051498 0.867 1.78845228691e-38
0.0176499262875 -0.0705997051498 0.867 1.77012134117e-38
0.0191878405943 -0.0703554155126 0.864 1.72405827844e-38
0.0207868273105 -0.0703554155126 0.864 1.76082961132e-38
0.0223858140267 -0.0703554155126 0.864 1.74228258536e-38
0.0239848007429 -0.0703554155126 0.864 1.79763555626e-38
0.0255837874591 -0.0703554155126 0.864 1.69625735769e-38
0.027119851087 -0.0701925557545 0.862 1.70529713408e-38
0.028715136445 -0.0701925557545 0.862 1.76064912407e-38
0.0303104218031 -0.0701925557545 0.862 1.76068597822e-38
0.0319057071611 -0.0701925557545 0.862 1.74228314588e-38
0.0335009925192 -0.0701925557545 0.862 1.74228454718e-38
0.0350148479982 -0.0700296959964 0.86 1.72402352624e-38
0.0366064319981 -0.0700296959964 0.86 1.70558412001e-38
0.038198015998 -0.0700296959964 0.86 1.67792515079e-38
0.0397895999979 -0.0700296959964 0.86 1.59487649665e-38
0.0413811839978 -0.0700296959964 0.86 1.63175727094e-38
0.0429727679978 -0.0700296959964 0.86 1.71466075055e-38
0.0445643519977 -0.0700296959964 0.86 1.84369749795e-38
0.0461559359976 -0.0700296959964 0.86 1.70543964614e-38
0.0477475199975 -0.0700296959964 0.86 1.63157552253e-38
0.0493391039974 -0.0700296959964 0.86 1.65008541407e-38
0.0509306879973 -0.0700296959964 0.86 1.51201015145e-38
0.0525222719973 -0.0700296959964 0.86 2.17574778076e-38
-0.0393084234398 -0.0704275919963 0.885 1.97255614032e-38
-0.0375428756073 -0.0701888543963 0.882 1.90801919941e-38
-0.0359105766679 -0.0701888543963 0.882 1.92642231201e-38
-0.0341228206866 -0.0698705375964 0.878 1.98173912941e-38
-0.0324979244634 -0.0698705375964 0.878 1.61303073865e-38
-0.0308730282403 -0.0698705375964 0.878 1.72402352624e-38
-0.0292481320171 -0.0698705375964 0.878 1.6872175813e-38
-0.0275288511614 -0.0696317999964 0.875 1.75157599678e-38
-0.0259095069754 -0.0696317999964 0.875 1.72388003328e-38
-0.0242901627894 -0.0696317999964 0.875 1.71476865053e-38
-0.0227485471244 -0.0698705375964 0.878 1.73310015679e-38
-0.0211236509012 -0.0698705375964 0.878 1.69625763795e-38
-0.0194321302315 -0.0696317999964 0.875 1.72388031354e-38
-0.0178127860456 -0.0696317999964 0.875 1.74231817834e-38
-0.0161934418596 -0.0696317999964 0.875 1.76079612028e-38
-0.0145740976737 -0.0696317999964 0.875 1.7611182788e-38
-0.0129547534877 -0.0696317999964 0.875 1.70587250723e-38
-0.0113354093017 -0.0696317999964 0.875 1.8438775648e-38
-0.00971606511577 -0.0696317999964 0.875 1.83458583495e-38
-0.00809672092981 -0.0696317999964 0.875 1.87142835378e-38
-0.00646257131129 -0.0694726415964 0.873 1.80696371988e-38
-0.00484692848347 -0.0694726415964 0.873 1.77930531118e-38
-0.00323128565565 -0.0694726415964 0.873 1.79767213015e-38
-0.00161564282782 -0.0694726415964 0.873 1.88068393014e-38
0.0 -0.0693134831964 0.871 1.74239006495e-38
0.00161194146968 -0.0693134831964 0.871 1.88068519131e-38
0.00322388293937 -0.0693134831964 0.871 1.91748959482e-38
0.00483582440905 -0.0693134831964 0.871 1.77008574819e-38
0.00644776587873 -0.0693134831964 0.871 1.71476865053e-38
0.00805970734842 -0.0693134831964 0.871 1.7607942986e-38
0.0096716488181 -0.0693134831964 0.871 1.76068625848e-38
0.0112576807808 -0.0691543247964 0.869 1.76987092914e-38
0.0128659208924 -0.0691543247964 0.869 1.7974920633e-38
0.0144741610039 -0.0691543247964 0.869 1.75161004833e-38
0.0160824011154 -0.0691543247964 0.869 1.70558383975e-38
0.0176499262875 -0.0689951663964 0.867 1.72388003328e-38
0.0192544650409 -0.0689951663964 0.867 1.76086590495e-38
0.0208590037943 -0.0689951663964 0.867 1.7238805938e-38
0.0224635425477 -0.0689951663964 0.867 1.76058074071e-38
0.0240680813011 -0.0689951663964 0.867 1.73292008993e-38
0.0255837874591 -0.0687564287964 0.864 1.76064912407e-38
0.0271827741753 -0.0687564287964 0.864 1.71458858368e-38
0.0287817608915 -0.0687564287964 0.864 1.73295540265e-38
0.0303807476077 -0.0687564287964 0.864 1.76068597822e-38
0.0319057071611 -0.0685972703964 0.862 1.78841599327e-38
0.0335009925192 -0.0685972703964 0.862 1.74228258536e-38
0.0350962778772 -0.0685972703964 0.862 1.65934183121e-38
0.0366915632353 -0.0685972703964 0.862 1.59480643173e-38
0.0382868485934 -0.0685972703964 0.862 1.65930805991e-38
0.0397895999979 -0.0684381119964 0.86 1.80685638042e-38
0.0413811839978 -0.0684381119964 0.86 1.72391506574e-38
0.0430727046675 -0.0685972703964 0.862 1.51193798458e-38
0.0445643519977 -0.0684381119964 0.86 1.61321094563e-38
0.0461559359976 -0.0684381119964 0.86 1.58558532732e-38
0.0478585607417 -0.0685972703964 0.862 1.57618793955e-38
0.0494538460997 -0.0685972703964 0.862 1.60380963423e-38
0.0510491314578 -0.0685972703964 0.862 1.57665541272e-38
0.0529497788624 -0.0689951663964 0.867 2.16649192414e-38
0.0545543176158 -0.0689951663964 0.867 1.78841697418e-38
-0.0393084234398 -0.0687897410197 0.885 1.92649433876e-38
-0.0376705724632 -0.0687897410197 0.885 1.93571390174e-38
-0.0359105766679 -0.0685565554569 0.882 1.94493318447e-38
-0.0342005492075 -0.068401098415 0.88 1.99099456564e-38
-0.0324979244634 -0.0682456413732 0.878 1.62217869528e-38
-0.0308730282403 -0.0682456413732 0.878 1.74242677897e-38
-0.0292481320171 -0.0682456413732 0.878 1.70558440027e-38
-0.0276232357939 -0.0682456413732 0.878 1.78841697418e-38
-0.0259983395707 -0.0682456413732 0.878 1.7330635829e-38
-0.0243734433476 -0.0682456413732 0.878 1.71466047029e-38
-0.0227485471244 -0.0682456413732 0.878 1.83455080249e-38
-0.0211236509012 -0.0682456413732 0.878 1.72398863391e-38
-0.0194987546781 -0.0682456413732 0.878 1.72388003328e-38
-0.0178738584549 -0.0682456413732 0.878 1.76079401834e-38
-0.0162489622317 -0.0682456413732 0.878 1.76994127432e-38
-0.0146240660085 -0.0682456413732 0.878 1.78841599327e-38
-0.0129991697854 -0.0682456413732 0.878 1.7791974112e-38
-0.0113742735622 -0.0682456413732 0.878 1.70561915247e-38
-0.00974937733903 -0.0682456413732 0.878 1.76093681065e-38
-0.00812448111586 -0.0682456413732 0.878 1.78848759963e-38
-0.00647737674385 -0.0680124558104 0.875 1.80689309444e-38
-0.00485803255789 -0.0680124558104 0.875 1.84384449416e-38
-0.00323868837192 -0.0680124558104 0.875 1.87146562832e-38
-0.00161564282782 -0.0678569987686 0.873 1.73335197012e-38
0.0 -0.0678569987686 0.873 1.71502018361e-38
0.00161564282782 -0.0678569987686 0.873 1.58601692724e-38
0.00323128565565 -0.0678569987686 0.873 1.50296883362e-38
0.00484692848347 -0.0678569987686 0.873 1.05149835426e-38
0.00646257131129 -0.0678569987686 0.873 1.6691760037e-38
0.00807821413911 -0.0678569987686 0.873 1.70551377483e-38
0.00969385696694 -0.0678569987686 0.873 1.82522291913e-38
0.0112835902878 -0.0677015417267 0.871 1.7330635829e-38
0.0128955317575 -0.0677015417267 0.871 1.74224783316e-38
0.0145074732272 -0.0677015417267 0.871 1.74235615353e-38
0.0160824011154 -0.0675460846849 0.869 1.75157445535e-38
0.017690641227 -0.0675460846849 0.869 1.74235475223e-38
0.0192988813385 -0.0675460846849 0.869 1.76997658704e-38
0.0209071214501 -0.0675460846849 0.869 1.71469606327e-38
0.0225153615616 -0.0675460846849 0.869 1.76065080563e-38
0.0241236016732 -0.0675460846849 0.869 1.77916055705e-38
0.0256726200545 -0.067390627643 0.867 1.77923300418e-38
0.0272771588079 -0.067390627643 0.867 1.71476893079e-38
0.0289483220078 -0.0675460846849 0.869 1.80685483899e-38
0.0304862363147 -0.067390627643 0.867 1.72387849185e-38
0.0320907750681 -0.067390627643 0.867 1.51172288526e-38
0.0335787210401 -0.0671574420802 0.864 1.65927176628e-38
0.0351777077563 -0.0671574420802 0.864 1.8067844938e-38
0.0366915632353 -0.0670019850384 0.862 1.76997602652e-38
0.0382868485934 -0.0670019850384 0.862 1.54863420785e-38
0.0398821339514 -0.0670019850384 0.862 1.47491708045e-38
0.0414774193095 -0.0670019850384 0.862 1.52115782782e-38
0.0430727046675 -0.0670019850384 0.862 1.61328129081e-38
0.0446679900256 -0.0670019850384 0.862 1.67778123744e-38
0.0462632753836 -0.0670019850384 0.862 1.53026822966e-38
0.0478585607417 -0.0670019850384 0.862 1.57622353254e-38
0.0495685882021 -0.0671574420802 0.864 1.61310108383e-38
0.0511675749183 -0.0671574420802 0.864 1.59513083233e-38
0.0529497788624 -0.067390627643 0.867 2.17574651959e-38
0.0545543176158 -0.067390627643 0.867 1.69614903732e-38
0.0561588563692 -0.067390627643 0.867 2.17560330689e-38
-0.0393084234398 -0.067151890043 0.885 1.95411519266e-38
-0.0376705724632 -0.067151890043 0.885 1.86199243031e-38
-0.0360327214865 -0.067151890043 0.885 1.94493318447e-38
-0.0342782777284 -0.0669242565174 0.882 1.98191961666e-38
-0.032645978789 -0.0669242565174 0.882 1.65001534915e-38
-0.0309433540449 -0.0667725008337 0.88 1.71469550275e-38
-0.0293147564636 -0.0667725008337 0.88 1.76079401834e-38
-0.0276232357939 -0.06662074515 0.878 1.71466075055e-38
-0.0259983395707 -0.06662074515 0.878 1.73309987653e-38
-0.0243734433476 -0.06662074515 0.878 1.77005071573e-38
-0.0228003661383 -0.0667725008337 0.88 1.74235475223e-38
-0.021171768557 -0.0667725008337 0.88 1.79763499574e-38
-0.0195431709757 -0.0667725008337 0.88 1.77916055705e-38
-0.0178738584549 -0.06662074515 0.878 1.89897816185e-38
-0.0162489622317 -0.06662074515 0.878 1.94500409017e-38
-0.0146240660085 -0.06662074515 0.878 1.82536627196e-38
-0.0129991697854 -0.06662074515 0.878 1.81629118285e-38
-0.0113742735622 -0.06662074515 0.878 1.70594313268e-38
-0.00974937733903 -0.06662074515 0.878 1.55860963123e-38
-0.00812448111586 -0.06662074515 0.878 1.34645472529e-38
-0.00649958489268 -0.06662074515 0.878 9.1328128023e-39
-0.00485803255789 -0.0663931116244 0.875 5.53904276069e-39
-0.00323868837192 -0.0663931116244 0.875 1.02182684019e-41
-0.00161934418596 -0.0663931116244 0.875 9.16589325515e-42
0.0 -0.0662413559407 0.873 1.80767501898e-43
0.00161564282782 -0.0662413559407 0.873 1.12160349474e-39
0.00323868837192 -0.0663931116244 0.875 1.23692615446e-41
0.00485803255789 -0.0663931116244 0.875 8.05466357294e-42
0.00647737674385 -0.0663931116244 0.875 7.11037197808e-39
0.00807821413911 -0.0662413559407 0.873 1.87175471619e-38
0.00969385696694 -0.0662413559407 0.873 1.73299071538e-38
0.0112835902878 -0.066089600257 0.871 1.7790889507e-38
0.0128955317575 -0.066089600257 0.871 1.83447821523e-38
0.0145074732272 -0.066089600257 0.871 1.68710940106e-38
0.0161194146968 -0.066089600257 0.871 1.78852263209e-38
0.017690641227 -0.0659378445733 0.869 1.71458886394e-38
0.0192988813385 -0.0659378445733 0.869 1.7422475529e-38
0.0209071214501 -0.0659378445733 0.869 1.74228454718e-38
0.0225153615616 -0.0659378445733 0.869 1.74235475223e-38
0.0241236016732 -0.0659378445733 0.869 1.73313490899e-38
0.0257318417847 -0.0659378445733 0.869 1.63168510407e-38
0.0273400818963 -0.0659378445733 0.869 1.65008821667e-38
0.0289483220078 -0.0659378445733 0.869 1.64086739251e-38
0.0305565621193 -0.0659378445733 0.869 1.68689262018e-38
0.0321648022309 -0.0659378445733 0.869 1.70543964614e-38
0.0337730423424 -0.0659378445733 0.869 1.54877770081e-38
0.035381282454 -0.0659378445733 0.869 1.42889031135e-38
0.0369043913283 -0.0657860888896 0.867 1.43803700681e-38
0.0385089300817 -0.0657860888896 0.867 1.4656972372e-38
0.0399746679049 -0.065558455364 0.864 1.50271870185e-38
0.0415736546211 -0.065558455364 0.864 1.54881623652e-38
0.0431726413373 -0.065558455364 0.864 1.58565721393e-38
0.0447716280535 -0.065558455364 0.864 1.51190267185e-38
0.0463706147697 -0.065558455364 0.864 1.54870875693e-38
0.0479696014859 -0.065558455364 0.864 1.64076047344e-38
0.0497407013555 -0.0657860888896 0.867 1.59480643173e-38
0.051345240109 -0.0657860888896 0.867 1.72402324598e-38
0.053071923681 -0.0659378445733 0.869 2.12039060597e-38
0.0546801637925 -0.0659378445733 0.869 1.80674918108e-38
0.056288403904 -0.0659378445733 0.869 1.92656846744e-38
-0.0393084234398 -0.0655140390664 0.885 1.9173096681e-38
-0.0376705724632 -0.0655140390664 0.885 1.9080182185e-38
-0.0360327214865 -0.0655140390664 0.885 2.04627607032e-38
-0.0343948705098 -0.0655140390664 0.885 2.00950543809e-38
-0.0327570195332 -0.0655140390664 0.885 1.52097776097e-38
-0.0310136798495 -0.065291957578 0.882 1.8161482504e-38
-0.0293147564636 -0.0651439032524 0.88 1.71466047029e-38
-0.0276861588823 -0.0651439032524 0.88 1.76079457886e-38
-0.026057561301 -0.0651439032524 0.88 1.90837919299e-38
-0.0244289637197 -0.0651439032524 0.88 1.80710847401e-38
-0.0228003661383 -0.0651439032524 0.88 1.74267663049e-38
-0.021171768557 -0.0651439032524 0.88 1.59520145777e-38
-0.0195431709757 -0.0651439032524 0.88 1.56750325219e-38
-0.0179145733944 -0.0651439032524 0.88 1.16173752354e-38
-0.0162859758131 -0.0651439032524 0.88 6.08864463009e-39
-0.0146573782318 -0.0651439032524 0.88 1.94560622812e-39
-0.0130287806505 -0.0651439032524 0.88 1.38322171414e-41
-0.0114001830692 -0.0651439032524 0.88 7.72395713536e-42
-0.00977158548786 -0.0651439032524 0.88 5.07986247731e-39
-0.00814298790655 -0.0651439032524 0.88 7.10026020836e-39
-0.00649958489268 -0.0649958489268 0.878 4.34158838138e-39
-0.00487468866951 -0.0649958489268 0.878 1.05994215842e-41
-0.00324979244634 -0.0649958489268 0.878 1.50282954456e-38
-0.00162489622317 -0.0649958489268 0.878 1.23571655363e-38
0.0 -0.0647737674385 0.875 1.12368722556e-39
0.00161934418596 -0.0647737674385 0.875 1.42982960171e-38
0.00324979244634 -0.0649958489268 0.878 2.40548015425e-39
0.00487468866951 -0.0649958489268 0.878 1.31209320538e-39
0.00649958489268 -0.0649958489268 0.878 9.50640878198e-42
0.00812448111586 -0.0649958489268 0.878 1.90881247447e-38
0.00971606511577 -0.0647737674385 0.875 1.76072129095e-38
0.0113354093017 -0.0647737674385 0.875 1.76994127432e-38
0.0129547534877 -0.0647737674385 0.875 1.73309861536e-38
0.0145407854504 -0.0646257131129 0.873 1.72395332119e-38
0.0161194146968 -0.0644776587873 0.871 1.72398863391e-38
0.0177313561665 -0.0644776587873 0.871 1.74235671405e-38
0.0193432976362 -0.0644776587873 0.871 1.74235503249e-38
0.0209552391059 -0.0644776587873 0.871 1.73306330264e-38
0.0225671805756 -0.0644776587873 0.871 1.6591263115e-38
0.0241791220453 -0.0644776587873 0.871 1.70540433342e-38
0.0257910635149 -0.0644776587873 0.871 1.72384373965e-38
0.0274030049846 -0.0644776587873 0.871 1.76072101069e-38
0.0290149464543 -0.0644776587873 0.871 1.54871057862e-38
0.0305565621193 -0.0643296044618 0.869 1.49328361916e-38
0.0321648022309 -0.0643296044618 0.869 1.46573283018e-38
0.0337730423424 -0.0643296044618 0.869 1.49346172419e-38
0.035381282454 -0.0643296044618 0.869 1.53948905381e-38
0.0369895225655 -0.0643296044618 0.869 1.52108524056e-38
0.0385977626771 -0.0643296044618 0.869 1.48417181602e-38
0.0401134688351 -0.0641815501362 0.867 1.53948905381e-38
0.0417180075885 -0.0641815501362 0.867 1.55800020653e-38
0.0433225463419 -0.0641815501362 0.867 1.54874434991e-38
0.0449270850953 -0.0641815501362 0.867 1.5303778112e-38
0.0465316238487 -0.0641815501362 0.867 1.58569448847e-38
0.0481361626021 -0.0641815501362 0.867 1.49339193953e-38
0.0497407013555 -0.0641815501362 0.867 1.63164979134e-38
0.0514636835694 -0.0643296044618 0.869 1.9175321943e-38
0.0531940684996 -0.0644776587873 0.871 2.00053782857e-38
0.0548060099692 -0.0644776587873 0.871 1.9450445877e-38
0.0564179514389 -0.0644776587873 0.871 1.95418988186e-38
-0.0393084234398 -0.0638761880897 0.885 1.91727407512e-38
-0.0376705724632 -0.0638761880897 0.885 1.91727463564e-38
-0.0360327214865 -0.0638761880897 0.885 1.9633350359e-38
-0.0343948705098 -0.0638761880897 0.885 2.05556653901e-38
-0.0327570195332 -0.0638761880897 0.885 1.63171803458e-38
-0.0311191685565 -0.0638761880897 0.885 1.68728974817e-38
-0.0293813809101 -0.0636596586385 0.882 1.72398793326e-38
-0.0277490819706 -0.0636596586385 0.882 1.83451577002e-38
-0.0261167830312 -0.0636596586385 0.882 1.93862636047e-39
-0.0244844840917 -0.0636596586385 0.882 1.02378865804e-41
-0.0228521851523 -0.0636596586385 0.882 1.49196247497e-41
-0.0212198862128 -0.0636596586385 0.882 1.09623578864e-41
-0.0195875872734 -0.0636596586385 0.882 3.14283219579e-41
-0.0179552883339 -0.0636596586385 0.882 1.88684838221e-41
-0.0163229893945 -0.0636596586385 0.882 4.8416123111e-40
-0.014690690455 -0.0636596586385 0.882 8.54001730904e-40
-0.0130583915156 -0.0636596586385 0.882 2.23046498255e-39
-0.0114260925761 -0.0636596586385 0.882 3.52662402309e-39
-0.0097937936367 -0.0636596586385 0.882 1.07883558535e-38
-0.00816149469725 -0.0636596586385 0.882 6.17400472604e-39
-0.00651439032524 -0.0635153056711 0.88 1.02292125429e-39
-0.00488579274393 -0.0635153056711 0.88 1.49042104666e-41
-0.00325719516262 -0.0635153056711 0.88 1.57713101342e-38
-0.00162489622317 -0.0633709527037 0.878 9.95431561922e-39
0.0 -0.0633709527037 0.878 1.58577057897e-38
0.00162489622317 -0.0633709527037 0.878 1.02286660365e-39
0.00324979244634 -0.0633709527037 0.878 9.36524197468e-40
0.00487468866951 -0.0633709527037 0.878 2.04787579264e-39
0.00649958489268 -0.0633709527037 0.878 8.77212838667e-42
0.00812448111586 -0.0633709527037 0.878 1.61422394429e-38
0.00974937733903 -0.0633709527037 0.878 1.77926803664e-38
0.0113742735622 -0.0633709527037 0.878 1.78845256716e-38
0.0129547534877 -0.0631544232525 0.875 1.78845200665e-38
0.0145740976737 -0.0631544232525 0.875 1.7793406239e-38
0.0161194146968 -0.0628657173177 0.871 1.64104844027e-38
0.0177313561665 -0.0628657173177 0.871 1.69621966276e-38
0.0193877139339 -0.0630100702851 0.873 1.69629267041e-38
0.0210033567617 -0.0630100702851 0.873 1.74228258536e-38
0.0226189995895 -0.0630100702851 0.873 1.74217468538e-38
0.0242346424173 -0.0630100702851 0.873 1.72384373965e-38
0.0257910635149 -0.0628657173177 0.871 1.7607942986e-38
0.0274030049846 -0.0628657173177 0.871 1.54874238809e-38
0.0290815709008 -0.0630100702851 0.873 1.53026949083e-38
0.030626887924 -0.0628657173177 0.871 1.53945247992e-38
0.0322388293937 -0.0628657173177 0.871 1.53023291694e-38
0.0338507708634 -0.0628657173177 0.871 1.50264625472e-38
0.035381282454 -0.0627213643502 0.869 1.59487649665e-38
0.0369895225655 -0.0627213643502 0.869 1.53955967926e-38
0.0385977626771 -0.0627213643502 0.869 1.46591079509e-38
0.0401134688351 -0.0625770113828 0.867 1.53952436653e-38
0.0417180075885 -0.0625770113828 0.867 1.54874406965e-38
0.0433225463419 -0.0625770113828 0.867 1.55792860017e-38
0.0449270850953 -0.0625770113828 0.867 1.56718375614e-38
0.0465316238487 -0.0625770113828 0.867 1.50257590954e-38
0.0481361626021 -0.0625770113828 0.867 1.71476584794e-38
0.0498554434579 -0.0627213643502 0.869 1.92660097757e-38
0.0514636835694 -0.0627213643502 0.869 1.87143059586e-38
0.0531940684996 -0.0628657173177 0.871 1.98213597714e-38
0.0548060099692 -0.0628657173177 0.871 2.12929123342e-38
0.0564179514389 -0.0628657173177 0.871 2.03720140159e-38
-0.0361141513656 -0.0623789887223 0.887 1.98184632875e-38
-0.0344725990308 -0.0623789887223 0.887 1.97262676576e-38
-0.032831046696 -0.0623789887223 0.887 1.52108468004e-38
-0.0311191685565 -0.062238337113 0.885 1.72409527272e-38
-0.0294813175799 -0.062238337113 0.885 1.73313490899e-38
-0.0278434666032 -0.062238337113 0.885 1.90841478597e-38
-0.0262056156265 -0.062238337113 0.885 5.71862756669e-39
-0.0245677646499 -0.062238337113 0.885 3.87672022752e-40
-0.0229299136732 -0.062238337113 0.885 1.86096359698e-39
-0.0212920626966 -0.062238337113 0.885 1.12685009632e-38
-0.0196542117199 -0.062238337113 0.885 1.11697710786e-38
-0.0180163607432 -0.062238337113 0.885 4.34549940539e-39
-0.0163785097666 -0.062238337113 0.885 2.50814628624e-39
-0.0147406587899 -0.062238337113 0.885 2.96621674124e-39
-0.0130583915156 -0.0620273596991 0.882 3.05985570852e-39
-0.0114260925761 -0.0620273596991 0.882 2.10012600848e-41
-0.0097937936367 -0.0620273596991 0.882 1.66009586991e-38
-0.00816149469725 -0.0620273596991 0.882 1.19922842317e-38
-0.0065291957578 -0.0620273596991 0.882 1.31011751468e-38
-0.00489689681835 -0.0620273596991 0.882 3.97304408266e-39
-0.00325719516262 -0.0618867080898 0.88 1.63587582725e-41
-0.00162859758131 -0.0618867080898 0.88 6.37134538488e-39
0.0 -0.0618867080898 0.88 1.44747166911e-38
0.00162859758131 -0.0618867080898 0.88 1.64158597837e-38
0.00325719516262 -0.0618867080898 0.88 1.17103696054e-38
0.00487468866951 -0.0617460564805 0.878 3.51098973613e-39
0.00649958489268 -0.0617460564805 0.878 1.6695069904e-41
0.00812448111586 -0.0617460564805 0.878 6.93426519488e-39
0.00974937733903 -0.0617460564805 0.878 1.78870662258e-38
0.0113742735622 -0.0617460564805 0.878 1.7330635829e-38
0.0129991697854 -0.0617460564805 0.878 1.65941371782e-38
0.0145740976737 -0.0615350790666 0.875 1.72398793326e-38
0.0161564282782 -0.0613944274573 0.873 1.75168193494e-38
0.0177720711061 -0.0613944274573 0.873 1.75161004833e-38
0.0193877139339 -0.0613944274573 0.873 1.77926803664e-38
0.0211236509012 -0.0617460564805 0.878 1.76072101069e-38
0.0226708186035 -0.0615350790666 0.875 1.76068597822e-38
0.0242901627894 -0.0615350790666 0.875 1.69607715071e-38
0.0259095069754 -0.0615350790666 0.875 1.76072129095e-38
0.0275288511614 -0.0615350790666 0.875 1.5211225151e-38
0.0290815709008 -0.0613944274573 0.873 1.56718319562e-38
0.030626887924 -0.061253775848 0.871 1.53945247992e-38
0.0322388293937 -0.061253775848 0.871 1.53019760421e-38
0.0338507708634 -0.061253775848 0.871 1.56714970459e-38
0.035462712333 -0.061253775848 0.871 1.50268310887e-38
0.0370746538027 -0.061253775848 0.871 1.53948905381e-38
0.0385977626771 -0.0611131242387 0.869 1.53945374109e-38
0.0402060027886 -0.0611131242387 0.869 1.53945247992e-38
0.0418142429001 -0.0611131242387 0.869 1.5578540511e-38
0.0434224830117 -0.0611131242387 0.869 1.65012198796e-38
0.0450307231232 -0.0611131242387 0.869 1.61317535265e-38
0.0466389632348 -0.0611131242387 0.869 1.87135268367e-38
0.0482472033463 -0.0611131242387 0.869 1.79763709769e-38
0.0498554434579 -0.0611131242387 0.869 1.83455080249e-38
0.0515821270299 -0.061253775848 0.871 1.90841576688e-38
0.0531940684996 -0.061253775848 0.871 2.02816288637e-38
0.0548060099692 -0.061253775848 0.871 2.06493225742e-38
0.0564179514389 -0.061253775848 0.871 1.97277194028e-38
-0.0361955812446 -0.0608743866387 0.889 1.9080895446e-38
-0.0345503275517 -0.0608743866387 0.889 2.08329753497e-38
-0.032831046696 -0.0607374363875 0.887 1.46576758238e-38
-0.0311894943612 -0.0607374363875 0.887 1.73317022171e-38
-0.0295479420264 -0.0607374363875 0.887 1.7330635829e-38
-0.0279063896916 -0.0607374363875 0.887 1.81611167651e-38
-0.0262648373568 -0.0607374363875 0.887 1.76994099406e-38
-0.024623285022 -0.0607374363875 0.887 4.47854989198e-42
-0.0229817326872 -0.0607374363875 0.887 2.0507428493e-39
-0.0213401803524 -0.0607374363875 0.887 9.3756255963e-40
-0.0196986280176 -0.0607374363875 0.887 2.04574722028e-39
-0.0180570756828 -0.0607374363875 0.887 1.07930572098e-38
-0.016415523348 -0.0607374363875 0.887 2.13073316954e-39
-0.0147406587899 -0.0606004861364 0.885 2.23262298218e-39
-0.0131028078133 -0.0606004861364 0.885 3.24065824288e-39
-0.0114649568366 -0.0606004861364 0.885 1.5611866191e-41
-0.00982710585995 -0.0606004861364 0.885 4.89010284316e-39
-0.00818925488329 -0.0606004861364 0.885 3.38133319442e-42
-0.00655140390664 -0.0606004861364 0.885 4.72156447296e-39
-0.00489689681835 -0.0603950607596 0.882 1.04249557214e-38
-0.0032645978789 -0.0603950607596 0.882 1.85111527137e-41
-0.00163229893945 -0.0603950607596 0.882 1.18180790105e-38
0.0 -0.0602581105085 0.88 9.34999584739e-40
0.00162859758131 -0.0602581105085 0.88 1.26496207297e-38
0.00325719516262 -0.0602581105085 0.88 1.36460616469e-38
0.00488579274393 -0.0602581105085 0.88 7.0108909975e-39
0.00651439032524 -0.0602581105085 0.88 8.54367469803e-40
0.00814298790655 -0.0602581105085 0.88 8.80015435596e-42
0.00974937733903 -0.0601211602573 0.878 1.8626426328e-38
0.0113742735622 -0.0601211602573 0.878 1.78838222198e-38
0.0129991697854 -0.0601211602573 0.878 1.78845256716e-38
0.0146240660085 -0.0601211602573 0.878 1.75161004833e-38
0.0161934418596 -0.0599157348806 0.875 1.77008602845e-38
0.0178127860456 -0.0599157348806 0.875 1.72402352624e-38
0.0194987546781 -0.0601211602573 0.878 1.81618356312e-38
0.0211236509012 -0.0601211602573 0.878 1.71476865053e-38
0.0227485471244 -0.0601211602573 0.878 1.72388003328e-38
0.0243734433476 -0.0601211602573 0.878 1.78834508757e-38
0.0259983395707 -0.0601211602573 0.878 1.55803425808e-38
0.0275288511614 -0.0599157348806 0.875 1.5579639129e-38
0.0291481953473 -0.0599157348806 0.875 1.52104810615e-38
0.0306972137286 -0.0597787846294 0.873 1.53959443146e-38
0.0323128565565 -0.0597787846294 0.873 1.56725382107e-38
0.0338507708634 -0.0596418343783 0.871 1.55792831992e-38
0.035462712333 -0.0596418343783 0.871 1.52101433486e-38
0.0370746538027 -0.0596418343783 0.871 1.53952464679e-38
0.0386865952724 -0.0596418343783 0.871 1.52101279343e-38
0.0402060027886 -0.0595048841271 0.869 1.56704026318e-38
0.0418142429001 -0.0595048841271 0.869 1.65934183121e-38
0.0434224830117 -0.0595048841271 0.869 1.56707389434e-38
0.0450307231232 -0.0595048841271 0.869 1.8067497416e-38
0.0466389632348 -0.0595048841271 0.869 1.79763709769e-38
0.0482472033463 -0.0595048841271 0.869 1.78838194172e-38
0.0499701855602 -0.0596418343783 0.871 1.81611139625e-38
0.0515821270299 -0.0596418343783 0.871 1.98220828414e-38
0.0533162133182 -0.0597787846294 0.873 2.00050391715e-38
0.054931856146 -0.0597787846294 0.873 1.77916111757e-38
-0.0362770111237 -0.0593623818388 0.891 1.93585613354e-38
-0.0345503275517 -0.0592291329458 0.889 2.06485784847e-38
-0.0329050738588 -0.0592291329458 0.889 1.65001506889e-38
-0.0312598201658 -0.0592291329458 0.889 1.83447793497e-38
-0.0295479420264 -0.0590958840527 0.887 1.70558440027e-38
-0.0279063896916 -0.0590958840527 0.887 1.75161102924e-38
-0.0262648373568 -0.0590958840527 0.887 2.00050125468e-38
-0.024623285022 -0.0590958840527 0.887 1.11000494735e-39
-0.0230335517011 -0.0592291329458 0.889 4.8237317427e-40
-0.0213882980082 -0.0592291329458 0.889 1.95567315629e-39
-0.0197430443153 -0.0592291329458 0.889 1.48944013773e-41
-0.0180570756828 -0.0590958840527 0.887 1.57723498977e-38
-0.016415523348 -0.0590958840527 0.887 4.70605770416e-39
-0.0147739710132 -0.0590958840527 0.887 8.01969276846e-39
-0.0131324186784 -0.0590958840527 0.887 1.28088278534e-38
-0.0114908663436 -0.0590958840527 0.887 8.02007111905e-39
-0.00984931400879 -0.0590958840527 0.887 1.46584815705e-38
-0.00820776167399 -0.0590958840527 0.887 1.34652535073e-38
-0.00656620933919 -0.0590958840527 0.887 1.36525314419e-38
-0.00492465700439 -0.0590958840527 0.887 3.60424194503e-39
-0.00327570195332 -0.0589626351597 0.885 2.21096871701e-41
-0.00163785097666 -0.0589626351597 0.885 1.06166547527e-38
0.0 -0.0589626351597 0.885 1.11794890835e-39
0.00163229893945 -0.0587627618202 0.882 2.10334899495e-41
0.0032645978789 -0.0587627618202 0.882 4.52670411241e-39
0.00488579274393 -0.0586295129272 0.88 1.85664059122e-39
0.00651439032524 -0.0586295129272 0.88 1.86562992087e-39
0.00814298790655 -0.0586295129272 0.88 6.25399504628e-42
0.00977158548786 -0.0586295129272 0.88 1.72449828616e-38
0.0114001830692 -0.0586295129272 0.88 1.77934090416e-38
0.0130287806505 -0.0586295129272 0.88 1.73313518925e-38
0.0146573782318 -0.0586295129272 0.88 1.78841725444e-38
0.0162489622317 -0.0584962640342 0.878 1.80700155494e-38
0.0178738584549 -0.0584962640342 0.878 1.74242677897e-38
0.0195431709757 -0.0586295129272 0.88 1.75168193494e-38
0.021171768557 -0.0586295129272 0.88 1.77937565636e-38
0.0228003661383 -0.0586295129272 0.88 1.63179202314e-38
0.0244289637197 -0.0586295129272 0.88 1.76994099406e-38
0.0259983395707 -0.0584962640342 0.878 1.53952408627e-38
0.0276232357939 -0.0584962640342 0.878 1.52101489538e-38
0.0292481320171 -0.0584962640342 0.878 1.53945276018e-38
0.0308730282403 -0.0584962640342 0.878 1.53033955575e-38
0.0323868837192 -0.0582963906946 0.875 1.54885126898e-38
0.0339284993843 -0.0581631418016 0.873 1.50264653498e-38
0.0355441422121 -0.0581631418016 0.873 1.52101335395e-38
0.0370746538027 -0.0580298929086 0.871 1.58562218147e-38
0.0386865952724 -0.0580298929086 0.871 1.50264681524e-38
0.0402060027886 -0.0578966440156 0.869 1.69611386473e-38
0.0418142429001 -0.0578966440156 0.869 1.70543964614e-38
0.0434224830117 -0.0578966440156 0.869 1.81593118927e-38
0.0450307231232 -0.0578966440156 0.869 1.88983048548e-38
0.0466389632348 -0.0578966440156 0.869 1.78856018689e-38
0.0483582440905 -0.0580298929086 0.871 1.77930531118e-38
0.0499701855602 -0.0580298929086 0.871 1.81618356312e-38
0.0515821270299 -0.0580298929086 0.871 2.01904926155e-38
0.0533162133182 -0.0581631418016 0.873 1.98210094468e-38
0.0553723177646 -0.0586295129272 0.88 1.65938288925e-38
-0.0362770111237 -0.0577134267877 0.891 1.96344447731e-38
-0.0346280560726 -0.0577134267877 0.891 1.95408016019e-38
-0.0329050738588 -0.0575838792528 0.889 1.71447900214e-38
-0.0312598201658 -0.0575838792528 0.889 1.70540433342e-38
-0.0296145664729 -0.0575838792528 0.889 1.76072129095e-38
-0.0279693127799 -0.0575838792528 0.889 1.73313518925e-38
-0.026324059087 -0.0575838792528 0.889 1.90826975158e-38
-0.0246788053941 -0.0575838792528 0.889 1.23538584719e-38
-0.0230335517011 -0.0575838792528 0.889 2.93657507482e-40
-0.0213882980082 -0.0575838792528 0.889 1.86275866031e-39
-0.0197430443153 -0.0575838792528 0.889 1.16264780702e-38
-0.0180977906223 -0.0575838792528 0.889 1.56794297965e-38
-0.0164525369294 -0.0575838792528 0.889 8.85659585551e-39
-0.0148072832364 -0.0575838792528 0.889 7.92636348814e-39
-0.0131620295435 -0.0575838792528 0.889 8.01539638737e-39
-0.0115167758506 -0.0575838792528 0.889 1.00520015365e-38
-0.00987152215763 -0.0575838792528 0.889 9.1364659874e-42
-0.00822626846469 -0.0575838792528 0.889 1.81426112176e-41
-0.00658101477175 -0.0575838792528 0.889 1.99320693566e-41
-0.00492465700439 -0.0574543317179 0.887 2.5052568088e-39
-0.0032831046696 -0.0574543317179 0.887 2.02879991665e-41
-0.0016415523348 -0.0574543317179 0.887 4.53141247525e-39
0.0 -0.0574543317179 0.887 2.31834461314e-39
0.00163785097666 -0.0573247841831 0.885 2.69179625908e-39
0.00327570195332 -0.0573247841831 0.885 2.14042174712e-39
0.00489689681835 -0.0571304628807 0.882 3.15205273968e-39
0.0065291957578 -0.0571304628807 0.882 2.87654064602e-39
0.00816149469725 -0.0571304628807 0.882 1.59663947025e-41
0.0097937936367 -0.0571304628807 0.882 6.37535029589e-39
0.0114001830692 -0.0570009153459 0.88 1.91788798398e-38
0.0130287806505 -0.0570009153459 0.88 1.69636455702e-38
0.0146573782318 -0.0570009153459 0.88 1.75157473561e-38
0.0162859758131 -0.0570009153459 0.88 1.70554908755e-38
0.0179145733944 -0.0570009153459 0.88 1.68721730104e-38
0.0195431709757 -0.0570009153459 0.88 1.72409527272e-38
0.021171768557 -0.0570009153459 0.88 1.56725508223e-38
0.0228003661383 -0.0570009153459 0.88 1.77908867044e-38
0.0244289637197 -0.0570009153459 0.88 1.57629373759e-38
0.026057561301 -0.0570009153459 0.88 1.56722033003e-38
0.0276861588823 -0.0570009153459 0.88 1.50261150252e-38
0.0293147564636 -0.0570009153459 0.88 1.53019788447e-38
0.0308730282403 -0.056871367811 0.878 1.57632877005e-38
0.0324979244634 -0.056871367811 0.878 1.61335149587e-38
0.0340062279052 -0.0566770465087 0.875 1.56725564275e-38
0.0356255720912 -0.0566770465087 0.875 1.51183288719e-38
0.0371597850399 -0.0565474989738 0.873 1.5671131307e-38
0.0387754278677 -0.0565474989738 0.873 1.61328227172e-38
0.0403910706956 -0.0565474989738 0.873 1.84369805847e-38
0.0420067135234 -0.0565474989738 0.873 1.85288230874e-38
0.0435224196815 -0.0564179514389 0.871 1.85298922781e-38
0.0451343611511 -0.0564179514389 0.871 1.85306181507e-38
0.0467463026208 -0.0564179514389 0.871 1.76090121767e-38
0.0483582440905 -0.0564179514389 0.871 1.79770688235e-38
0.0500849276625 -0.0565474989738 0.873 1.80689169314e-38
0.0517005704903 -0.0565474989738 0.873 1.97295172687e-38
0.0536215753646 -0.056871367811 0.878 2.09280576544e-38
0.0553723177646 -0.0570009153459 0.88 1.84387952662e-38
-0.0363991559423 -0.0562532410017 0.894 1.88950790657e-38
-0.034744648854 -0.0562532410017 0.894 1.95411575318e-38
-0.0329791010215 -0.0560644717366 0.891 1.84355288395e-38
-0.0313301459705 -0.0560644717366 0.891 1.64079536577e-38
-0.0296811909194 -0.0560644717366 0.891 1.71455172953e-38
-0.0280322358683 -0.0560644717366 0.891 1.67781823172e-38
-0.0263832808172 -0.0560644717366 0.891 1.41952557384e-38
-0.0247343257662 -0.0560644717366 0.891 1.67752662151e-38
-0.023163099236 -0.0562532410017 0.894 1.10931410721e-39
-0.0215085921477 -0.0562532410017 0.894 1.86708026478e-39
-0.0197874606129 -0.0560644717366 0.891 4.43378681384e-39
-0.0181385055618 -0.0560644717366 0.891 1.41727326682e-41
-0.0164895505108 -0.0560644717366 0.891 4.85589154246e-40
-0.0148405954597 -0.0560644717366 0.891 3.05698584927e-39
-0.0131916404086 -0.0560644717366 0.891 4.81444814037e-39
-0.0115426853575 -0.0560644717366 0.891 9.41956330965e-39
-0.00989373030646 -0.0560644717366 0.891 7.2089967653e-39
-0.00822626846469 -0.0559386255599 0.889 5.08025203828e-39
-0.00658101477175 -0.0559386255599 0.889 6.64180299499e-39
-0.00493576107881 -0.0559386255599 0.889 1.02395779476e-38
-0.00329050738588 -0.0559386255599 0.889 9.04030328158e-39
-0.0016415523348 -0.0558127793831 0.887 1.28188877751e-38
0.0 -0.0558127793831 0.887 6.91906811303e-39
0.0016415523348 -0.0558127793831 0.887 1.95747802871e-39
0.0032831046696 -0.0558127793831 0.887 3.05948436443e-39
0.00491355292998 -0.0556869332064 0.885 3.5190429984e-39
0.00655140390664 -0.0556869332064 0.885 3.60943655844e-39
0.00818925488329 -0.0556869332064 0.885 3.05950538391e-39
0.0097937936367 -0.0554981639413 0.882 1.38182041567e-41
0.0114260925761 -0.0554981639413 0.882 1.9547994467e-38
0.0130583915156 -0.0554981639413 0.882 1.86217403859e-38
0.0146573782318 -0.0553723177646 0.88 1.78848731937e-38
0.0162859758131 -0.0553723177646 0.88 1.77923244366e-38
0.0179552883339 -0.0554981639413 0.882 1.73338574141e-38
0.0195875872734 -0.0554981639413 0.882 1.73331483571e-38
0.0212198862128 -0.0554981639413 0.882 1.60402599472e-38
0.0228521851523 -0.0554981639413 0.882 1.80671190654e-38
0.0244289637197 -0.0553723177646 0.88 1.58547966941e-38
0.026057561301 -0.0553723177646 0.88 1.53055661688e-38
0.0276861588823 -0.0553723177646 0.88 1.56725382107e-38
0.0293147564636 -0.0553723177646 0.88 1.58551470187e-38
0.0309433540449 -0.0553723177646 0.88 1.63164740914e-38
0.0324979244634 -0.0552464715878 0.878 1.55792831992e-38
0.0341228206866 -0.0552464715878 0.878 1.51208287884e-38
0.0357477169098 -0.0552464715878 0.878 1.56725508223e-38
0.0372449162771 -0.0550577023227 0.875 1.59480517056e-38
0.0388642604631 -0.0550577023227 0.875 1.78841543276e-38
0.0403910706956 -0.054931856146 0.873 1.80689309444e-38
0.0420067135234 -0.054931856146 0.873 1.79760024354e-38
0.0436223563512 -0.054931856146 0.873 1.81614797014e-38
0.045237999179 -0.054931856146 0.873 1.83458639547e-38
0.0468536420069 -0.054931856146 0.873 1.81611139625e-38
0.0484692848347 -0.054931856146 0.873 1.74235475223e-38
0.0501996697648 -0.0550577023227 0.875 1.82533095924e-38
0.0518190139508 -0.0550577023227 0.875 2.0467079505e-38
0.0537437201832 -0.0553723177646 0.88 2.00993885971e-38
-0.0363991559423 -0.0545987339134 0.894 1.92649237694e-38
-0.034744648854 -0.0545987339134 0.894 1.90801947967e-38
-0.0330901417657 -0.0545987339134 0.894 1.86195739785e-38
-0.0314356346774 -0.0545987339134 0.894 1.70540433342e-38
-0.0297811275891 -0.0545987339134 0.894 1.76072129095e-38
-0.0281266205009 -0.0545987339134 0.894 1.73313518925e-38
-0.0264721134126 -0.0545987339134 0.894 1.80703434532e-38
-0.0248176063243 -0.0545987339134 0.894 2.07407797198e-38
-0.023163099236 -0.0545987339134 0.894 2.3063354853e-39
-0.0215085921477 -0.0545987339134 0.894 1.30782765286e-39
-0.0198540850594 -0.0545987339134 0.894 3.14918147913e-39
-0.0181995779711 -0.0545987339134 0.894 2.41628276411e-39
-0.0165450708829 -0.0545987339134 0.894 2.96657267105e-39
-0.0148905637946 -0.0545987339134 0.894 2.87402391397e-39
-0.0132360567063 -0.0545987339134 0.894 9.46197360768e-40
-0.0115426853575 -0.0544155166855 0.891 1.3565105832e-38
-0.00989373030646 -0.0544155166855 0.891 7.75853697756e-39
-0.00824477525538 -0.0544155166855 0.891 1.57651416184e-38
-0.00659582020431 -0.0544155166855 0.891 1.55778244474e-38
-0.00494686515323 -0.0544155166855 0.891 5.5375784038e-39
-0.00329050738588 -0.0542933718669 0.889 1.25386841341e-38
-0.00164525369294 -0.0542933718669 0.889 6.91767662366e-39
0.0 -0.0542933718669 0.889 5.44864639806e-39
0.00164525369294 -0.0542933718669 0.889 1.86421040552e-39
0.00329050738588 -0.0542933718669 0.889 3.24244629972e-39
0.00492465700439 -0.0541712270483 0.887 2.2322432303e-39
0.00656620933919 -0.0541712270483 0.887 1.58508576441e-39
0.00820776167399 -0.0541712270483 0.887 7.5498177752e-40
0.00984931400879 -0.0541712270483 0.887 2.66526967915e-42
0.0114908663436 -0.0541712270483 0.887 1.48518789754e-38
0.0131324186784 -0.0541712270483 0.887 1.65952133754e-38
0.0147406587899 -0.0540490822297 0.885 1.74221027836e-38
0.0163785097666 -0.0540490822297 0.885 1.73306302238e-38
0.0180163607432 -0.0540490822297 0.885 1.65948630508e-38
0.0196542117199 -0.0540490822297 0.885 1.65945113249e-38
0.0212920626966 -0.0540490822297 0.885 1.66859824834e-38
0.0228521851523 -0.0538658650018 0.882 1.67788815651e-38
0.0244844840917 -0.0538658650018 0.882 1.61338652833e-38
0.0261167830312 -0.0538658650018 0.882 1.50289862857e-38
0.0277490819706 -0.0538658650018 0.882 1.71476865053e-38
