# .PCD v0.7 - Point Cloud Data file format
VERSION 0.7
FIELDS x y z rgb
SIZE 4 4 4 4
TYPE F F F F
COUNT 1 1 1 1
WIDTH 838
HEIGHT 1
VIEWPOINT 0 0 0 1 0 0 0
POINTS 838
DATA ascii
0.032140743403 -0.0826476258934 0.827 1.60391655331e-38
0.0335898251145 -0.0824477525538 0.825 1.55792860017e-38
0.035116635347 -0.0824477525538 0.825 1.58555029485e-38
0.0366434455795 -0.0824477525538 0.825 1.60391655331e-38
0.038170255812 -0.0824477525538 0.825 1.57636548407e-38
0.0396970660444 -0.0824477525538 0.825 1.5670755759e-38
0.0412238762769 -0.0824477525538 0.825 1.52104992784e-38
0.0427506865094 -0.0824477525538 0.825 1.98220800388e-38
0.0443848361279 -0.0826476258934 0.827 2.02826882453e-38
0.0460263884627 -0.0828474992329 0.829 2.01897737493e-38
-0.0429727679978 -0.0843539519956 0.86 1.94493374499e-38
-0.0413811839978 -0.0843539519956 0.86 2.04638298939e-38
-0.039604532091 -0.0839616080328 0.856 1.7053676194e-38
-0.037931518212 -0.0837654360515 0.854 1.54878064354e-38
-0.0363510382865 -0.0837654360515 0.854 1.59487677691e-38
-0.034770558361 -0.0837654360515 0.854 1.6040963399e-38
-0.0330734856541 -0.0834711780794 0.851 1.64083067849e-38
-0.0314985577658 -0.0834711780794 0.851 1.66845349421e-38
-0.0299236298775 -0.0834711780794 0.851 1.60402473355e-38
-0.028448638659 -0.0837654360515 0.854 1.63164740914e-38
-0.0267737741009 -0.0834711780794 0.851 1.7053676194e-38
-0.0251988462126 -0.0834711780794 0.851 1.58576511391e-38
-0.0236239183244 -0.0834711780794 0.851 1.29153167276e-38
-0.0220489904361 -0.0834711780794 0.851 1.7887043805e-38
-0.0204740625478 -0.0834711780794 0.851 1.48431404782e-38
-0.0188991346595 -0.0834711780794 0.851 1.60463780163e-38
-0.0173242067712 -0.0834711780794 0.851 1.64090214471e-38
-0.0157122653015 -0.083275006098 0.849 1.73295540265e-38
-0.0141410387714 -0.083275006098 0.849 1.61331618315e-38
-0.0125698122412 -0.083275006098 0.849 1.57672547765e-38
-0.0109726762041 -0.0830788341166 0.847 1.797635276e-38
-0.00940515103207 -0.0830788341166 0.847 1.65030401663e-38
-0.00781911906936 -0.0828826621352 0.845 1.62296902762e-38
-0.00625529525549 -0.0828826621352 0.845 1.66903152983e-38
-0.00469147144162 -0.0828826621352 0.845 1.37458004664e-38
-0.00312024491147 -0.0826864901538 0.843 1.6966160901e-38
-0.00156012245573 -0.0826864901538 0.843 1.61313429461e-38
0.0 -0.0824903181724 0.841 1.19911898176e-38
0.00155642109759 -0.0824903181724 0.841 1.58630839732e-38
0.00311284219519 -0.0824903181724 0.841 1.60391529214e-38
0.00466926329278 -0.0824903181724 0.841 1.49320766878e-38
0.00621087895782 -0.0822941461911 0.839 6.99977309549e-39
0.00776359869727 -0.0822941461911 0.839 8.75399558454e-39
0.00929411028789 -0.0820979742097 0.837 1.71465920912e-38
0.0108431286692 -0.0820979742097 0.837 1.57632877005e-38
0.0123625361854 -0.0819018022283 0.835 1.60391683357e-38
0.0139078532086 -0.0819018022283 0.835 1.60388152085e-38
0.0154161566504 -0.0817056302469 0.833 1.60384592786e-38
0.0169577723154 -0.0817056302469 0.833 1.57629513889e-38
0.0184993879804 -0.0817056302469 0.833 1.60402473355e-38
0.0199447683338 -0.0813132862841 0.829 1.57629485863e-38
0.0214789812826 -0.0813132862841 0.829 1.60402473355e-38
0.0230131942314 -0.0813132862841 0.829 1.58555029485e-38
0.0245474071801 -0.0813132862841 0.829 1.57629541915e-38
0.0260816201289 -0.0813132862841 0.829 1.5670755759e-38
0.0275492086311 -0.0811171143028 0.827 1.60380963423e-38
0.0290797202217 -0.0811171143028 0.827 1.63143076839e-38
0.0306102318124 -0.0811171143028 0.827 1.59462496358e-38
0.032140743403 -0.0811171143028 0.827 1.58540512033e-38
0.0336712549936 -0.0811171143028 0.827 1.58547840824e-38
0.0352017665842 -0.0811171143028 0.827 1.58554875343e-38
0.0367322781748 -0.0811171143028 0.827 1.59480517056e-38
0.0382627897654 -0.0811171143028 0.827 1.65937868536e-38
0.0397933013561 -0.0811171143028 0.827 1.59473426486e-38
0.0412238762769 -0.0809209423214 0.825 1.65008723576e-38
0.0427506865094 -0.0809209423214 0.825 1.90856066114e-38
0.044492175514 -0.0813132862841 0.829 2.01901394882e-38
0.0460263884627 -0.0813132862841 0.829 2.14798035104e-38
0.0476753435138 -0.0815094582655 0.831 1.84387784506e-38
-0.0429727679978 -0.0827623679957 0.86 1.93585585328e-38
-0.0413811839978 -0.0827623679957 0.86 2.1016284807e-38
-0.0396970660444 -0.0825698973724 0.858 1.76064968459e-38
-0.0381091834027 -0.0825698973724 0.858 1.53019760421e-38
-0.0364361695237 -0.0823774267492 0.856 1.60402473355e-38
-0.03485198824 -0.0823774267492 0.856 1.60402445329e-38
-0.0331900784355 -0.082184956126 0.854 1.6315402098e-38
-0.03160959851 -0.082184956126 0.854 1.64079508551e-38
-0.0300994443891 -0.0823774267492 0.856 1.59480461004e-38
-0.0285152631055 -0.0823774267492 0.856 1.62253588626e-38
-0.0268681587335 -0.082184956126 0.854 1.63168510407e-38
-0.025287678808 -0.082184956126 0.854 1.73317050197e-38
-0.0237071988825 -0.082184956126 0.854 1.0544770944e-41
-0.022126718957 -0.082184956126 0.854 1.84463132325e-38
-0.0205462390315 -0.082184956126 0.854 1.12103877146e-44
-0.0188991346595 -0.0818962501911 0.851 1.44848957232e-38
-0.0173242067712 -0.0818962501911 0.851 1.63168272186e-38
-0.0157492788829 -0.0818962501911 0.851 1.67771117252e-38
-0.0141743509946 -0.0818962501911 0.851 1.19861675639e-38
-0.0125698122412 -0.0817037795678 0.849 1.82168800362e-43
-0.0109985857111 -0.0817037795678 0.849 1.6785087916e-38
-0.0094273591809 -0.0817037795678 0.849 1.20762009903e-38
-0.00783762586006 -0.0815113089446 0.847 1.41531144897e-43
-0.00627010068805 -0.0815113089446 0.847 1.9264630898e-38
-0.00469147144162 -0.0813188383213 0.845 2.75506488474e-40
-0.00312764762774 -0.0813188383213 0.845 1.88926183856e-38
-0.00156382381387 -0.0813188383213 0.845 3.50269264792e-39
0.0 -0.0811263676981 0.843 1.55869020589e-38
0.00156012245573 -0.0811263676981 0.843 1.62232064682e-38
0.00312024491147 -0.0811263676981 0.843 1.76064940433e-38
0.00466926329278 -0.0809338970749 0.841 1.04221293024e-38
0.00622568439037 -0.0809338970749 0.841 1.2822051907e-38
0.00778210548797 -0.0809338970749 0.841 1.62296748619e-38
0.00931631843672 -0.0807414264516 0.839 1.61346079715e-38
0.0108690381762 -0.0807414264516 0.839 1.50271814133e-38
0.0123625361854 -0.0803564852051 0.835 1.67788843677e-38
0.0139078532086 -0.0803564852051 0.835 1.56711018797e-38
0.0154531702318 -0.0803564852051 0.835 1.57633017135e-38
0.0169984872549 -0.0803564852051 0.835 1.6225008538e-38
0.0184993879804 -0.0801640145819 0.833 1.54870903719e-38
0.0200410036455 -0.0801640145819 0.833 1.63157552253e-38
0.0215308002966 -0.0799715439586 0.831 1.57625814461e-38
0.0230131942314 -0.0797790733354 0.829 1.60388152085e-38
0.0245474071801 -0.0797790733354 0.829 1.64090242497e-38
0.0260816201289 -0.0797790733354 0.829 1.5579639129e-38
0.0276158330776 -0.0797790733354 0.829 1.61306422968e-38
0.0291500460264 -0.0797790733354 0.829 1.6038446667e-38
0.0306842589751 -0.0797790733354 0.829 1.60391683357e-38
0.0322184719239 -0.0797790733354 0.829 1.60384592786e-38
0.0336712549936 -0.0795866027121 0.827 1.63157552253e-38
0.0352017665842 -0.0795866027121 0.827 1.60391683357e-38
0.0367322781748 -0.0795866027121 0.827 1.58544281526e-38
0.0382627897654 -0.0795866027121 0.827 1.57629513889e-38
0.0397933013561 -0.0795866027121 0.827 1.65930679874e-38
0.0413238129467 -0.0795866027121 0.827 1.54877924224e-38
0.0428543245373 -0.0795866027121 0.827 1.94540219906e-38
0.044492175514 -0.0797790733354 0.829 2.13886826765e-38
0.0460263884627 -0.0797790733354 0.829 2.02808903794e-38
0.0476753435138 -0.0799715439586 0.831 1.5579301416e-38
0.0492132578207 -0.0799715439586 0.831 1.90834444079e-38
-0.0413811839978 -0.0811707839958 0.86 1.98173940967e-38
-0.0397895999979 -0.0811707839958 0.86 1.87117668058e-38
-0.038198015998 -0.0811707839958 0.86 1.57614898346e-38
-0.0366064319981 -0.0811707839958 0.86 1.61331590289e-38
-0.0349334181191 -0.0809820147307 0.858 1.61328101055e-38
-0.0333455354773 -0.0809820147307 0.858 1.66852608147e-38
-0.0316836256728 -0.0807932454656 0.856 1.66841818149e-38
-0.0300994443891 -0.0807932454656 0.856 1.59487705717e-38
-0.0285152631055 -0.0807932454656 0.856 1.59480615147e-38
-0.0269310818219 -0.0807932454656 0.856 1.62253588626e-38
-0.0253469005382 -0.0807932454656 0.856 1.8068919734e-38
-0.0237627192546 -0.0807932454656 0.856 5.50430036787e-42
-0.0221785379709 -0.0807932454656 0.856 1.5960720845e-38
-0.0205943566873 -0.0807932454656 0.856 6.81778506263e-39
-0.018965759106 -0.0806044762005 0.854 1.43790178151e-38
-0.0173242067712 -0.0803213223028 0.851 1.73320553443e-38
-0.0157492788829 -0.0803213223028 0.851 1.66845349421e-38
-0.0141743509946 -0.0803213223028 0.851 1.73306330264e-38
-0.0125994231063 -0.0803213223028 0.851 1.05559813318e-41
-0.0109985857111 -0.0801325530377 0.849 2.51854111824e-39
-0.0094273591809 -0.0801325530377 0.849 8.39636599957e-39
-0.00785613265075 -0.0801325530377 0.849 5.62010787686e-39
-0.00627010068805 -0.0799437837726 0.847 1.62218416035e-38
-0.00470257551603 -0.0799437837726 0.847 6.35972021282e-39
-0.00313505034402 -0.0799437837726 0.847 1.82429610032e-38
-0.00156382381387 -0.0797550145075 0.845 3.41769688957e-39
0.0 -0.0797550145075 0.845 1.24666629983e-38
0.00156382381387 -0.0797550145075 0.845 1.68700248198e-38
0.00312024491147 -0.0795662452424 0.843 1.56718347588e-38
0.0046803673672 -0.0795662452424 0.843 3.72605261664e-42
0.00624048982293 -0.0795662452424 0.843 1.05258884472e-38
0.00780061227866 -0.0795662452424 0.843 3.44479519927e-39
0.0093607347344 -0.0795662452424 0.843 1.2640161965e-38
0.0108949476832 -0.0793774759773 0.841 1.23328277845e-41
0.0123921470505 -0.078999937447 0.837 1.80721413191e-38
0.0139078532086 -0.0788111681819 0.835 4.05844061238e-39
0.0154531702318 -0.0788111681819 0.835 1.60482333354e-38
0.0169984872549 -0.0788111681819 0.835 1.54874238809e-38
0.0185438042781 -0.0788111681819 0.835 1.54874266835e-38
0.0200410036455 -0.0786223989168 0.833 1.5670755759e-38
0.0215826193105 -0.0786223989168 0.833 1.54867232317e-38
0.0230687146034 -0.0784336296517 0.831 1.57632877005e-38
0.0246066289103 -0.0784336296517 0.831 1.56707529564e-38
0.0261445432172 -0.0784336296517 0.831 1.61317423161e-38
0.0276158330776 -0.0782448603866 0.829 1.59465971578e-38
0.0291500460264 -0.0782448603866 0.829 1.61310108383e-38
0.0306842589751 -0.0782448603866 0.829 1.59473454512e-38
0.0322184719239 -0.0782448603866 0.829 1.59473636681e-38
0.0336712549936 -0.0780560911215 0.827 1.60384620812e-38
0.0352017665842 -0.0780560911215 0.827 1.74210335929e-38
0.0367322781748 -0.0780560911215 0.827 1.64079508551e-38
0.0382627897654 -0.0780560911215 0.827 1.64075781097e-38
0.0397933013561 -0.0780560911215 0.827 1.62228407293e-38
0.0413238129467 -0.0780560911215 0.827 1.65945113249e-38
0.0428543245373 -0.0780560911215 0.827 1.98220772362e-38
0.044492175514 -0.0782448603866 0.829 2.07429601402e-38
0.0460263884627 -0.0782448603866 0.829 2.0926610113e-38
0.0475606014115 -0.0782448603866 0.829 1.65012773328e-38
0.0492132578207 -0.0784336296517 0.831 1.75147033887e-38
-0.0430727046675 -0.0797642679028 0.862 1.96333531616e-38
-0.0413811839978 -0.0795791999959 0.86 2.01858080747e-38
-0.0397895999979 -0.0795791999959 0.86 1.98173912941e-38
-0.038198015998 -0.0795791999959 0.86 1.54852911047e-38
-0.0366064319981 -0.0795791999959 0.86 1.62253770795e-38
-0.0350148479982 -0.0795791999959 0.86 1.62260805313e-38
-0.0334232639983 -0.0795791999959 0.86 1.56714816316e-38
-0.0318316799983 -0.0795791999959 0.86 1.63157720408e-38
-0.0302400959984 -0.0795791999959 0.86 1.62246526082e-38
-0.028581887552 -0.0793941320889 0.858 1.64086711225e-38
-0.0269940049102 -0.0793941320889 0.858 1.57629513889e-38
-0.0254061222684 -0.0793941320889 0.858 1.85273769474e-38
-0.0238182396267 -0.0793941320889 0.858 8.32281604707e-40
-0.0222303569849 -0.0793941320889 0.858 1.12685009632e-38
-0.0206424743431 -0.0793941320889 0.858 1.3372351623e-38
-0.0190101754037 -0.0792090641819 0.856 3.43082565488e-39
-0.01742599412 -0.0792090641819 0.856 9.78465060506e-39
-0.015804799255 -0.079023996275 0.854 8.30951912594e-39
-0.0142243193295 -0.079023996275 0.854 1.47553042878e-38
-0.012643839404 -0.079023996275 0.854 1.1274847444e-41
-0.0110633594785 -0.079023996275 0.854 9.97087756577e-39
-0.00944956732974 -0.0787463944145 0.851 3.32387995738e-42
-0.00787463944145 -0.0787463944145 0.851 1.73253052896e-38
-0.00629971155316 -0.0787463944145 0.851 5.80551087407e-39
-0.00472478366487 -0.0787463944145 0.851 1.53991911231e-38
-0.0031424530603 -0.0785613265075 0.849 9.31045680992e-39
-0.00156752517201 -0.0783762586006 0.847 7.47360395432e-39
0.0 -0.0783762586006 0.847 1.1722279241e-38
0.00156752517201 -0.0783762586006 0.847 1.63182887729e-38
0.00312764762774 -0.0781911906936 0.845 1.72391506574e-38
0.00469147144162 -0.0781911906936 0.845 3.36451761284e-42
0.00625529525549 -0.0781911906936 0.845 1.7705529411e-38
0.00781911906936 -0.0781911906936 0.845 1.13440449634e-38
0.0093607347344 -0.0780061227866 0.843 1.63240383005e-38
0.0109208571901 -0.0780061227866 0.843 8.72448423889e-42
0.0124513687807 -0.0778210548797 0.841 1.85359683082e-38
0.0140077898783 -0.0778210548797 0.841 6.91540792144e-42
0.0155642109759 -0.0778210548797 0.841 1.21025538092e-38
0.0170392021945 -0.0774509190657 0.837 1.58569224639e-38
0.0185882205758 -0.0774509190657 0.837 1.61324429653e-38
0.0200891213013 -0.0772658511588 0.835 1.59480517056e-38
0.0216344383245 -0.0772658511588 0.835 1.61317395135e-38
0.0231242349755 -0.0770807832518 0.833 1.57636576433e-38
0.0246658506406 -0.0770807832518 0.833 1.5302341781e-38
0.0262074663056 -0.0770807832518 0.833 1.60391683357e-38
0.0277490819706 -0.0770807832518 0.833 1.61313611629e-38
0.029220371831 -0.0768957153448 0.831 1.60391655331e-38
0.0307582861379 -0.0768957153448 0.831 1.58551498213e-38
0.0322184719239 -0.0767106474379 0.829 1.59473482538e-38
0.0337526848727 -0.0767106474379 0.829 1.64065215307e-38
0.0352868978214 -0.0767106474379 0.829 1.59459007125e-38
0.0367322781748 -0.0765255795309 0.827 1.61317367109e-38
0.0382627897654 -0.0765255795309 0.827 1.63164740914e-38
0.0397933013561 -0.0765255795309 0.827 1.6499447237e-38
0.0413238129467 -0.0765255795309 0.827 1.62253616652e-38
0.0428543245373 -0.0765255795309 0.827 1.97295144661e-38
0.044492175514 -0.0767106474379 0.829 2.07429601402e-38
0.0460263884627 -0.0767106474379 0.829 1.85313272077e-38
0.0475606014115 -0.0767106474379 0.829 2.01894332338e-38
0.0493317012812 -0.0770807832518 0.833 1.74246181144e-38
-0.0430727046675 -0.0781689825448 0.862 1.92645762474e-38
-0.0414774193095 -0.0781689825448 0.862 2.00939781837e-38
-0.0398821339514 -0.0781689825448 0.862 2.00954103108e-38
-0.0382868485934 -0.0781689825448 0.862 1.51172344578e-38
-0.0366915632353 -0.0781689825448 0.862 1.68707310743e-38
-0.0350148479982 -0.0779876159959 0.86 1.59491447184e-38
-0.0334232639983 -0.0779876159959 0.86 1.66856139419e-38
-0.0318316799983 -0.0779876159959 0.86 1.64083179953e-38
-0.0302400959984 -0.0779876159959 0.86 1.5948048903e-38
-0.0286485119985 -0.0779876159959 0.86 1.622390992e-38
-0.0269940049102 -0.0778062494471 0.858 1.68689290044e-38
-0.0254061222684 -0.0778062494471 0.858 1.83429674707e-38
-0.0238182396267 -0.0778062494471 0.858 1.12478696459e-38
-0.0222821759988 -0.0779876159959 0.86 1.02196697003e-41
-0.0206905919989 -0.0779876159959 0.86 1.28224596848e-38
-0.0190545917013 -0.0778062494471 0.858 3.4135630591e-42
-0.01742599412 -0.0776248828983 0.856 1.32005930689e-38
-0.0158418128364 -0.0776248828983 0.856 1.263907736e-38
-0.0142576315527 -0.0776248828983 0.856 1.68753707735e-38
-0.012643839404 -0.0774435163495 0.854 9.38029192019e-42
-0.0110633594785 -0.0774435163495 0.854 1.66039280505e-38
-0.00948287955299 -0.0774435163495 0.854 8.38802687241e-39
-0.0079023996275 -0.0774435163495 0.854 1.84362771329e-38
-0.00629971155316 -0.0771714665262 0.851 7.61185325821e-42
-0.00472478366487 -0.0771714665262 0.851 1.8627445072e-38
-0.00314985577658 -0.0771714665262 0.851 1.0369608636e-43
-0.00157122653015 -0.0769900999774 0.849 1.65073365474e-38
0.0 -0.0769900999774 0.849 3.23274511045e-39
0.00157122653015 -0.0769900999774 0.849 1.60463752137e-38
0.00313505034402 -0.0768087334286 0.847 1.82518606498e-38
0.00470257551603 -0.0768087334286 0.847 4.46733950427e-42
0.00627010068805 -0.0768087334286 0.847 1.66964165518e-38
0.00781911906936 -0.0766273668797 0.845 1.71462417666e-38
0.00938294288323 -0.0766273668797 0.845 1.77919615003e-38
0.0109208571901 -0.0764460003309 0.843 4.40007717798e-43
0.0124809796459 -0.0764460003309 0.843 1.89948178852e-38
0.0140411021016 -0.0764460003309 0.843 2.48857855448e-39
0.0155642109759 -0.0762646337821 0.841 1.48518775741e-38
0.0171206320735 -0.0762646337821 0.841 1.65934183121e-38
0.0186326368734 -0.0760832672332 0.839 1.55781873838e-38
0.0201372389571 -0.0759019006844 0.837 1.6315402098e-38
0.0216862573384 -0.0759019006844 0.837 1.63157552253e-38
0.0231797553476 -0.0757205341356 0.835 1.57625814461e-38
0.0247250723708 -0.0757205341356 0.835 1.60402473355e-38
0.026270389394 -0.0757205341356 0.835 1.56707529564e-38
0.0277490819706 -0.0755391675868 0.833 1.61320898381e-38
0.0292906976357 -0.0755391675868 0.833 1.54877770081e-38
0.0308323133007 -0.0755391675868 0.833 1.63157692382e-38
0.0322962004448 -0.0753578010379 0.831 1.69607588954e-38
0.0338341147517 -0.0753578010379 0.831 1.68674786605e-38
0.0352868978214 -0.0751764344891 0.829 1.65001212616e-38
0.0368211107702 -0.0751764344891 0.829 1.67781655016e-38
0.0383553237189 -0.0751764344891 0.829 1.58565721393e-38
0.0398895366677 -0.0751764344891 0.829 1.59487551574e-38
0.0413238129467 -0.0749950679403 0.827 1.66856139419e-38
0.0428543245373 -0.0749950679403 0.827 2.02823379207e-38
0.044492175514 -0.0751764344891 0.829 2.02823351181e-38
0.0460263884627 -0.0751764344891 0.829 1.71484067728e-38
0.0475606014115 -0.0751764344891 0.829 2.0834099191e-38
0.0493317012812 -0.0755391675868 0.833 1.76072395341e-38
-0.0415736546211 -0.0767513623774 0.864 2.02780037045e-38
-0.0398821339514 -0.0765736971867 0.862 2.03709182005e-38
-0.0382868485934 -0.0765736971867 0.862 1.49321173255e-38
-0.0366915632353 -0.0765736971867 0.862 1.62253588626e-38
-0.0350962778772 -0.0765736971867 0.862 1.68689290044e-38
-0.0335009925192 -0.0765736971867 0.862 1.60395410811e-38
-0.0318316799983 -0.076396031996 0.86 1.68689290044e-38
-0.0302400959984 -0.076396031996 0.86 1.6500869555e-38
-0.0286485119985 -0.076396031996 0.86 1.6316476894e-38
-0.0270569279986 -0.076396031996 0.86 1.6316125168e-38
-0.0254061222684 -0.0762183668053 0.858 1.61317367109e-38
-0.0238182396267 -0.0762183668053 0.858 1.66856167445e-38
-0.0222821759988 -0.076396031996 0.86 3.36031371745e-42
-0.0206905919989 -0.076396031996 0.86 2.00082495463e-38
-0.0190545917013 -0.0762183668053 0.858 6.493322811e-40
-0.0174667090596 -0.0762183668053 0.858 1.46724469109e-38
-0.0158788264178 -0.0762183668053 0.858 1.75139452863e-38
-0.0142576315527 -0.0760407016146 0.856 1.88046658875e-38
-0.0126734502691 -0.0760407016146 0.856 2.86985925494e-42
-0.0110892689855 -0.0760407016146 0.856 1.16362016803e-38
-0.00948287955299 -0.075863036424 0.854 1.72405827844e-38
-0.0079023996275 -0.075863036424 0.854 1.84355288395e-38
-0.006321919702 -0.075863036424 0.854 2.88807613497e-42
-0.0047414397765 -0.075863036424 0.854 1.69666065139e-38
-0.00314985577658 -0.0755965386379 0.851 5.11053549939e-42
-0.00157492788829 -0.0755965386379 0.851 1.89944521463e-38
0.0 -0.0755965386379 0.851 1.3592595104e-43
0.00157492788829 -0.0755965386379 0.851 1.72463687458e-38
0.0031424530603 -0.0754188734472 0.849 1.88035728747e-38
0.00471367959045 -0.0754188734472 0.849 2.88106964265e-42
0.00627010068805 -0.0752412082565 0.847 1.43962888187e-38
0.00783762586006 -0.0752412082565 0.847 1.511577991e-38
0.00940515103207 -0.0752412082565 0.847 1.05088949008e-38
0.0109467666971 -0.0750635430659 0.845 1.20578790128e-39
0.0124809796459 -0.0748858778752 0.843 6.17617253477e-39
0.0140411021016 -0.0748858778752 0.843 1.83693413091e-40
0.0156012245573 -0.0748858778752 0.843 1.08860922175e-38
0.0171206320735 -0.0747082126845 0.841 1.59520145777e-38
0.0186770531711 -0.0747082126845 0.841 1.66848880693e-38
0.0201853566129 -0.0745305474938 0.839 1.61317142901e-38
0.0216862573384 -0.0743528823031 0.837 1.61310136409e-38
0.0232352757197 -0.0743528823031 0.837 1.62232064682e-38
0.024784294101 -0.0743528823031 0.837 1.5948048903e-38
0.026270389394 -0.0741752171124 0.835 1.54870707537e-38
0.0278157064172 -0.0741752171124 0.835 1.53945276018e-38
0.0293610234403 -0.0741752171124 0.835 1.6870377947e-38
0.0309063404635 -0.0741752171124 0.835 1.53945276018e-38
0.0323739289658 -0.0739975519217 0.833 1.59465999604e-38
0.0339155446308 -0.0739975519217 0.833 1.59455447827e-38
0.0353720290586 -0.073819886731 0.831 1.64083236005e-38
0.0369099433655 -0.073819886731 0.831 1.58565721393e-38
0.0383553237189 -0.0736422215403 0.829 1.65941399808e-38
0.0398895366677 -0.0736422215403 0.829 1.5672187886e-38
0.0414237496164 -0.0736422215403 0.829 1.68700220172e-38
0.0429579625652 -0.0736422215403 0.829 2.02819819909e-38
0.044492175514 -0.0736422215403 0.829 2.03748964869e-38
0.0461374292069 -0.073819886731 0.831 2.09277017245e-38
0.0476753435138 -0.073819886731 0.831 1.80685680081e-38
0.0492132578207 -0.073819886731 0.831 2.07414985859e-38
-0.0415736546211 -0.0751523756612 0.864 2.0370202137e-38
-0.0399746679049 -0.0751523756612 0.864 2.07393475928e-38
-0.0383756811887 -0.0751523756612 0.864 1.47477260657e-38
-0.0367766944725 -0.0751523756612 0.864 1.60402627498e-38
-0.0351777077563 -0.0751523756612 0.864 1.63154049006e-38
-0.0335787210401 -0.0751523756612 0.864 1.6592361733e-38
-0.0319057071611 -0.0749784118287 0.862 1.64090270523e-38
-0.0303104218031 -0.0749784118287 0.862 1.67774592472e-38
-0.0286485119985 -0.0748044479961 0.86 1.64086711225e-38
-0.0270569279986 -0.0748044479961 0.86 1.65934309238e-38
-0.0254653439987 -0.0748044479961 0.86 1.63172041679e-38
-0.0238737599988 -0.0748044479961 0.86 1.79738486397e-38
-0.0223339950128 -0.0749784118287 0.862 1.75115364542e-39
-0.0206905919989 -0.0748044479961 0.86 1.82558319296e-38
-0.019099007999 -0.0748044479961 0.86 1.03266364173e-38
-0.0174667090596 -0.0746304841636 0.858 1.31872148725e-38
-0.0158788264178 -0.0746304841636 0.858 1.67771089226e-38
-0.014290943776 -0.0746304841636 0.858 1.73309959627e-38
-0.0127030611342 -0.0746304841636 0.858 1.05099640915e-38
-0.0110892689855 -0.074456520331 0.856 9.77453463144e-39
-0.00948287955299 -0.0742825564985 0.854 1.69614903732e-38
-0.0079023996275 -0.0742825564985 0.854 1.71444635189e-38
-0.006321919702 -0.0742825564985 0.854 1.12457214554e-38
-0.0047414397765 -0.0742825564985 0.854 1.41052111017e-38
-0.003160959851 -0.0742825564985 0.854 1.44754131365e-42
-0.0015804799255 -0.0742825564985 0.854 1.71517068306e-38
0.0 -0.0740216107496 0.851 1.82449060055e-42
0.00157492788829 -0.0740216107496 0.851 9.97339289651e-39
0.00314985577658 -0.0740216107496 0.851 1.34681247679e-38
0.00472478366487 -0.0740216107496 0.851 1.04209746325e-38
0.0062849061206 -0.0738476469171 0.849 1.00548335607e-38
0.00785613265075 -0.0738476469171 0.849 1.65970336621e-38
0.00940515103207 -0.0736736830845 0.847 2.03850530981e-39
0.0109467666971 -0.073499719252 0.845 9.13203648295e-39
0.012510590511 -0.073499719252 0.845 1.5673356569e-38
0.0140744143248 -0.073499719252 0.845 1.67756641838e-38
0.0156012245573 -0.0733257554194 0.843 1.76187077608e-39
0.0171613470131 -0.0733257554194 0.843 1.58641377497e-38
0.0186770531711 -0.0731517915869 0.841 1.58562064004e-38
0.0202334742687 -0.0731517915869 0.841 1.58554973433e-38
0.0217380763524 -0.0729778277543 0.839 1.52104964758e-38
0.0232352757197 -0.0728038639218 0.837 1.65934309238e-38
0.024784294101 -0.0728038639218 0.837 1.64090242497e-38
0.0263333124823 -0.0728038639218 0.837 1.66848880693e-38
0.0278823308637 -0.0728038639218 0.837 1.58544281526e-38
0.0293610234403 -0.0726299000892 0.835 1.58555127576e-38
0.0309063404635 -0.0726299000892 0.835 1.60402627498e-38
0.0324516574867 -0.0726299000892 0.835 1.61317423161e-38
0.0339155446308 -0.0724559362567 0.833 1.6315402098e-38
0.0354571602958 -0.0724559362567 0.833 1.58547840824e-38
0.0369099433655 -0.0722819724241 0.831 1.71458732251e-38
0.0384478576724 -0.0722819724241 0.831 1.65934155095e-38
0.0399857719793 -0.0722819724241 0.831 1.63179104223e-38
0.0414237496164 -0.0721080085916 0.829 1.6593784051e-38
0.0429579625652 -0.0721080085916 0.829 2.03748964869e-38
0.0445995149 -0.0722819724241 0.831 2.05596478803e-38
0.0461374292069 -0.0722819724241 0.831 2.01894332338e-38
0.0476753435138 -0.0722819724241 0.831 2.0189786361e-38
0.0492132578207 -0.0722819724241 0.831 1.97302361348e-38
-0.0415736546211 -0.073553388945 0.864 1.95404512773e-38
-0.0399746679049 -0.073553388945 0.864 2.1015937285e-38
-0.0383756811887 -0.073553388945 0.864 1.41027069813e-38
-0.0369043913283 -0.0738087826566 0.867 1.56714816316e-38
-0.0352998525749 -0.0738087826566 0.867 1.64987171605e-38
-0.0335787210401 -0.073553388945 0.864 1.62235567928e-38
-0.0319797343239 -0.073553388945 0.864 1.65008541407e-38
-0.0303104218031 -0.0733831264706 0.862 1.62232064682e-38
-0.028715136445 -0.0733831264706 0.862 1.67756641838e-38
-0.027119851087 -0.0733831264706 0.862 1.68682255526e-38
-0.0254653439987 -0.0732128639962 0.86 1.62253616652e-38
-0.0238737599988 -0.0732128639962 0.86 1.69614777615e-38
-0.0223339950128 -0.0733831264706 0.862 1.7144792824e-38
-0.0207387096547 -0.0733831264706 0.862 1.81585986318e-38
-0.019099007999 -0.0732128639962 0.86 1.67778095718e-38
-0.0175074239991 -0.0732128639962 0.86 1.65945113249e-38
-0.0159158399992 -0.0732128639962 0.86 1.68685758772e-38
-0.0143242559993 -0.0732128639962 0.86 1.66841664006e-38
-0.0127326719993 -0.0732128639962 0.86 1.72369884539e-38
-0.0111151784924 -0.0730426015218 0.858 1.68678177748e-38
-0.00950508770183 -0.0728723390474 0.856 1.64997737396e-38
-0.00792090641819 -0.0728723390474 0.856 1.66856111393e-38
-0.00633672513455 -0.0728723390474 0.856 1.67763620305e-38
-0.0047414397765 -0.072702076573 0.854 1.67781655016e-38
-0.003160959851 -0.072702076573 0.854 1.56739759429e-38
-0.0015804799255 -0.072702076573 0.854 1.74242537768e-38
0.0 -0.072702076573 0.854 1.53058870662e-38
0.00157492788829 -0.0724466828613 0.851 1.26379885511e-38
0.00314985577658 -0.0724466828613 0.851 9.04346881481e-39
0.00472478366487 -0.0724466828613 0.851 1.67792346923e-38
0.00629971155316 -0.0724466828613 0.851 8.11147501528e-39
0.00785613265075 -0.0722764203869 0.849 2.67875297297e-39
0.00940515103207 -0.0721061579125 0.847 6.63820305923e-39
0.0109726762041 -0.0721061579125 0.847 1.51190295211e-38
0.012510590511 -0.0719358954381 0.845 8.29905422901e-39
0.0140744143248 -0.0719358954381 0.845 1.80699875234e-38
0.0156382381387 -0.0719358954381 0.845 6.58470148386e-42
0.0171613470131 -0.0717656329637 0.843 1.6235431396e-38
0.0187214694688 -0.0717656329637 0.843 1.59480615147e-38
0.0202815919245 -0.0717656329637 0.843 1.70529671369e-38
0.0217898953663 -0.0715953704893 0.841 1.59484174445e-38
0.0232907960918 -0.0714251080149 0.839 1.57643989302e-38
0.0248435158313 -0.0714251080149 0.839 1.58555029485e-38
0.0263333124823 -0.0712548455405 0.837 1.71455229005e-38
0.0278823308637 -0.0712548455405 0.837 1.57629513889e-38
0.029431349245 -0.0712548455405 0.837 1.59480615147e-38
0.0309803676263 -0.0712548455405 0.837 1.58562162095e-38
0.0324516574867 -0.0710845830661 0.835 1.6225008538e-38
0.0339969745099 -0.0710845830661 0.835 1.63164740914e-38
0.035542291533 -0.0710845830661 0.835 1.64079676707e-38
0.0369987759609 -0.0709143205917 0.833 1.62235595954e-38
0.0385403916259 -0.0709143205917 0.833 1.62250057354e-38
0.0400820072909 -0.0709143205917 0.833 1.622535606e-38
0.041623622956 -0.0709143205917 0.833 1.68710940106e-38
0.0430616005931 -0.0707440581172 0.831 2.06518435102e-38
0.0445995149 -0.0707440581172 0.831 1.98213569688e-38
0.0461374292069 -0.0707440581172 0.831 2.00975879286e-38
0.0479048277184 -0.0710845830661 0.835 2.08355088973e-38
-0.0415736546211 -0.0719544022288 0.864 1.96322839709e-38
-0.0399746679049 -0.0719544022288 0.864 2.13839939318e-38
-0.0385089300817 -0.0722042439032 0.867 1.50250164072e-38
-0.0369043913283 -0.0722042439032 0.867 1.60398942083e-38
-0.0352998525749 -0.0722042439032 0.867 1.66845377447e-38
-0.0336953138215 -0.0722042439032 0.867 1.62235567928e-38
-0.0320907750681 -0.0722042439032 0.867 1.72387877211e-38
-0.0303807476077 -0.0719544022288 0.864 1.60388152085e-38
-0.0287817608915 -0.0719544022288 0.864 1.6960052641e-38
-0.0271827741753 -0.0719544022288 0.864 1.56703858162e-38
-0.0255245657289 -0.0717878411125 0.862 1.622535606e-38
-0.0239292803708 -0.0717878411125 0.862 1.65937868536e-38
-0.0223339950128 -0.0717878411125 0.862 1.52123013482e-38
-0.0207387096547 -0.0717878411125 0.862 1.66877789481e-38
-0.0191434242967 -0.0717878411125 0.862 1.07001427139e-38
-0.0175481389386 -0.0717878411125 0.862 1.10725181626e-38
-0.0159158399992 -0.0716212799963 0.86 1.5582878931e-38
-0.0143242559993 -0.0716212799963 0.86 1.53948751238e-38
-0.0127326719993 -0.0716212799963 0.86 1.77894377618e-38
-0.0111410879994 -0.0716212799963 0.86 1.63168090017e-38
-0.00952729585067 -0.07145471888 0.858 1.28198588749e-38
-0.00793941320889 -0.07145471888 0.858 1.75168137442e-38
-0.00633672513455 -0.0712881577637 0.856 1.57650995794e-38
-0.00475254385092 -0.0712881577637 0.856 1.70558440027e-38
-0.00316836256728 -0.0712881577637 0.856 1.72369884539e-38
-0.0015804799255 -0.0711215966475 0.854 1.7144792824e-38
0.0 -0.0711215966475 0.854 1.71444242825e-38
0.0015804799255 -0.0711215966475 0.854 1.71473109574e-38
0.003160959851 -0.0711215966475 0.854 1.7607942986e-38
0.00472478366487 -0.0708717549731 0.851 1.72373387785e-38
0.00629971155316 -0.0708717549731 0.851 1.78820019331e-38
0.00785613265075 -0.0707051938568 0.849 1.70543936588e-38
0.0094273591809 -0.0707051938568 0.849 1.74221027836e-38
0.0109726762041 -0.0705386327405 0.847 1.69600582462e-38
0.0125402013761 -0.0705386327405 0.847 1.64083179953e-38
0.0141077265481 -0.0705386327405 0.847 1.70565446519e-38
0.0156382381387 -0.0703720716242 0.845 1.2636236928e-38
0.0172020619526 -0.0703720716242 0.845 1.5586122937e-38
0.0187658857665 -0.0703720716242 0.845 1.60402445329e-38
0.0202815919245 -0.070205510508 0.843 1.62235595954e-38
0.0218417143803 -0.070205510508 0.843 1.61313639655e-38
0.0233463164639 -0.0700389493917 0.841 1.57622297202e-38
0.0249027375615 -0.0700389493917 0.841 1.71444242825e-38
0.0263962355707 -0.0698723882754 0.839 1.64079508551e-38
0.0279489553102 -0.0698723882754 0.839 1.62235595954e-38
0.029431349245 -0.0697058271592 0.837 1.63157748434e-38
0.0309803676263 -0.0697058271592 0.837 1.59480517056e-38
0.0325293860076 -0.0697058271592 0.837 1.6040615877e-38
0.0339969745099 -0.0695392660429 0.835 1.64086711225e-38
0.035542291533 -0.0695392660429 0.835 1.59476985784e-38
0.0370876085562 -0.0695392660429 0.835 1.65012226822e-38
0.0385403916259 -0.0693727049266 0.833 1.58580014637e-38
0.0400820072909 -0.0693727049266 0.833 1.60402417303e-38
0.0417235596257 -0.0695392660429 0.835 1.72402352624e-38
0.043165238621 -0.0693727049266 0.833 2.02827036596e-38
0.044706854286 -0.0693727049266 0.833 2.02823323155e-38
0.0463595106953 -0.0695392660429 0.835 2.01901366856e-38
0.0479048277184 -0.0695392660429 0.835 2.01901366856e-38
-0.0417180075885 -0.0705997051498 0.867 2.05531584671e-38
-0.0401134688351 -0.0705997051498 0.867 2.10152184188e-38
-0.0385089300817 -0.0705997051498 0.867 1.42867353047e-38
-0.0369043913283 -0.0705997051498 0.867 1.66845377447e-38
-0.0352998525749 -0.0705997051498 0.867 1.65916162422e-38
-0.0336953138215 -0.0705997051498 0.867 1.60409507873e-38
-0.0320907750681 -0.0705997051498 0.867 1.69618406978e-38
-0.0304862363147 -0.0705997051498 0.867 1.64075991292e-38
-0.0288816975613 -0.0705997051498 0.867 1.60388152085e-38
-0.0272771588079 -0.0705997051498 0.867 1.65001478863e-38
-0.0255837874591 -0.0703554155126 0.864 1.63179076197e-38
-0.0239848007429 -0.0703554155126 0.864 1.67774564446e-38
-0.0223858140267 -0.0703554155126 0.864 1.46591121548e-38
-0.0207387096547 -0.0701925557545 0.862 1.13469204279e-38
-0.0191434242967 -0.0701925557545 0.862 9.96687966125e-39
-0.0175481389386 -0.0701925557545 0.862 1.36485839841e-38
-0.0159158399992 -0.0700296959964 0.86 1.45651691057e-38
-0.0143242559993 -0.0700296959964 0.86 1.26297250941e-38
-0.0127326719993 -0.0700296959964 0.86 1.18914818267e-38
-0.0111410879994 -0.0700296959964 0.86 1.00500845602e-38
-0.0095495039995 -0.0700296959964 0.86 7.85000953742e-39
-0.00793941320889 -0.0698668362382 0.858 1.06104610135e-38
-0.00635153056711 -0.0698668362382 0.858 7.29179668896e-39
-0.00476364792533 -0.0698668362382 0.858 8.30670391733e-39
-0.00316836256728 -0.0697039764801 0.856 8.11907846075e-39
-0.00158418128364 -0.0697039764801 0.856 1.50257226616e-38
0.0 -0.069541116722 0.854 1.25307345679e-38
0.0015804799255 -0.069541116722 0.854 1.6684872655e-38
0.003160959851 -0.069541116722 0.854 9.95572392418e-39
0.00472478366487 -0.0692968270848 0.851 1.60399096226e-38
0.00629971155316 -0.0692968270848 0.851 1.48459949232e-38
0.00787463944145 -0.0692968270848 0.851 9.41047588911e-39
0.00944956732974 -0.0692968270848 0.851 1.70562363663e-38
0.0109985857111 -0.0691339673266 0.849 1.53944967733e-38
0.0125698122412 -0.0691339673266 0.849 1.53999001801e-38
0.0141410387714 -0.0691339673266 0.849 1.63211474217e-38
0.0156752517201 -0.0689711075685 0.847 1.67778263874e-38
0.0172020619526 -0.0688082478104 0.845 1.64090270523e-38
0.0187658857665 -0.0688082478104 0.845 1.54874434991e-38
0.0203297095803 -0.0688082478104 0.845 1.60388152085e-38
0.0218935333942 -0.0688082478104 0.845 1.61309982266e-38
0.023401836836 -0.0686453880522 0.843 1.69604029656e-38
0.0249619592917 -0.0686453880522 0.843 1.64990674852e-38
0.0264591586591 -0.0684825282941 0.841 1.57615290709e-38
0.0280155797567 -0.0684825282941 0.841 1.63146636138e-38
0.0295016750496 -0.068319668536 0.839 1.62232092708e-38
0.0310543947891 -0.068319668536 0.839 1.64075991292e-38
0.0325293860076 -0.0681568087778 0.837 1.64079704733e-38
0.0340784043889 -0.0681568087778 0.837 1.59473454512e-38
0.0356274227702 -0.0681568087778 0.837 1.63172041679e-38
0.0370876085562 -0.0679939490197 0.835 1.73309959627e-38
0.0386329255794 -0.0679939490197 0.835 1.622535606e-38
0.0401782426026 -0.0679939490197 0.835 1.65001506889e-38
0.0417235596257 -0.0679939490197 0.835 1.67781921263e-38
0.0433725146768 -0.0681568087778 0.837 2.03745335506e-38
0.0449215330581 -0.0681568087778 0.837 2.02819819909e-38
0.0463595106953 -0.0679939490197 0.835 2.05581961351e-38
0.0479048277184 -0.0679939490197 0.835 2.12943136327e-38
-0.0418142429001 -0.0691543247964 0.869 1.94475227684e-38
-0.0402060027886 -0.0691543247964 0.869 2.08304684267e-38
-0.0385089300817 -0.0689951663964 0.867 1.42867353047e-38
-0.0369043913283 -0.0689951663964 0.867 1.6315402098e-38
-0.035381282454 -0.0691543247964 0.869 1.6038446667e-38
-0.0337730423424 -0.0691543247964 0.869 1.66845349421e-38
-0.0321648022309 -0.0691543247964 0.869 1.65005038161e-38
-0.0304862363147 -0.0689951663964 0.867 1.61324429653e-38
-0.0288816975613 -0.0689951663964 0.867 1.61335317743e-38
-0.0272771588079 -0.0689951663964 0.867 1.66849104901e-38
-0.0256726200545 -0.0689951663964 0.867 1.64076047344e-38
-0.0240680813011 -0.0689951663964 0.867 1.67749551268e-38
-0.0224635425477 -0.0689951663964 0.867 1.74195818477e-38
-0.0207868273105 -0.0687564287964 0.864 1.41985151586e-38
-0.0191878405943 -0.0687564287964 0.864 1.64122738609e-38
-0.0175888538782 -0.0687564287964 0.864 1.73273834152e-38
-0.0159528535806 -0.0685972703964 0.862 1.70508063347e-38
-0.0143575682225 -0.0685972703964 0.862 1.68685576603e-38
-0.0127622828645 -0.0685972703964 0.862 1.65008513381e-38
-0.0111410879994 -0.0684381119964 0.86 1.29063568252e-38
-0.0095495039995 -0.0684381119964 0.86 1.46605891233e-38
-0.00795791999959 -0.0684381119964 0.86 1.6690257845e-38
-0.00636633599967 -0.0684381119964 0.86 1.43849971557e-38
-0.00477475199975 -0.0684381119964 0.86 1.18968137673e-38
-0.00317576528356 -0.0682789535964 0.858 1.23585906568e-38
-0.00158788264178 -0.0682789535964 0.858 1.23513627593e-38
0.0 -0.0681197951965 0.856 1.44683029481e-38
0.00158418128364 -0.0681197951965 0.856 1.17978582737e-38
0.00316836256728 -0.0681197951965 0.856 1.2079814939e-38
0.00475254385092 -0.0681197951965 0.856 1.21738462698e-38
0.006321919702 -0.0679606367965 0.854 1.33734236163e-38
0.00787463944145 -0.0677218991965 0.851 7.38432022266e-39
0.00944956732974 -0.0677218991965 0.851 1.06976371922e-38
0.011024495218 -0.0677218991965 0.851 9.77425857564e-39
0.0125994231063 -0.0677218991965 0.851 1.8598523673e-39
0.0141743509946 -0.0677218991965 0.851 1.30986289875e-38
0.0157122653015 -0.0675627407965 0.849 1.08762354841e-38
0.0172427768921 -0.0674035823965 0.847 1.37350539084e-38
0.0188103020641 -0.0674035823965 0.847 1.52136886337e-38
0.0203297095803 -0.0672444239965 0.845 1.60424277559e-38
0.0218935333942 -0.0672444239965 0.845 1.65001478863e-38
0.0234573572081 -0.0672444239965 0.845 1.64994206124e-38
0.025021181022 -0.0672444239965 0.845 1.61313639655e-38
0.0265220817475 -0.0670852655965 0.843 1.66838286877e-38
0.0280822042032 -0.0670852655965 0.843 1.64076145435e-38
0.0296423266589 -0.0670852655965 0.843 1.6039193559e-38
0.0311284219519 -0.0669261071965 0.841 1.64072249825e-38
0.0326848430495 -0.0669261071965 0.841 1.60384592786e-38
0.034159834268 -0.0667669487965 0.839 1.71458858368e-38
0.0356274227702 -0.0666077903965 0.837 1.56714844342e-38
0.0371764411516 -0.0666077903965 0.837 1.62243050862e-38
0.0387254595329 -0.0666077903965 0.837 1.65934183121e-38
0.0402744779142 -0.0666077903965 0.837 1.68689290044e-38
0.0418234962955 -0.0666077903965 0.837 1.71469606327e-38
0.0434761527047 -0.0667669487965 0.839 2.04674494478e-38
0.0450288724442 -0.0667669487965 0.839 2.02823351181e-38
0.0465815921836 -0.0667669487965 0.839 1.99117575353e-38
-0.0402060027886 -0.0675460846849 0.869 2.09230199864e-38
-0.0385977626771 -0.0675460846849 0.869 1.45633095827e-38
-0.0369895225655 -0.0675460846849 0.869 1.6225008538e-38
-0.035381282454 -0.0675460846849 0.869 1.63157552253e-38
-0.0337730423424 -0.0675460846849 0.869 1.63164740914e-38
-0.0321648022309 -0.0675460846849 0.869 1.64072516072e-38
-0.0305565621193 -0.0675460846849 0.869 1.61317170927e-38
-0.0289483220078 -0.0675460846849 0.869 1.59491419158e-38
-0.0273400818963 -0.0675460846849 0.869 1.6316500716e-38
-0.0256726200545 -0.067390627643 0.867 1.6316125168e-38
-0.0240680813011 -0.067390627643 0.867 1.66831098216e-38
-0.0225153615616 -0.0675460846849 0.869 1.79741849513e-38
-0.0208590037943 -0.067390627643 0.867 1.18921796733e-38
-0.0192544650409 -0.067390627643 0.867 1.63182733586e-38
-0.0176499262875 -0.067390627643 0.867 1.39204611095e-38
-0.015989867162 -0.0671574420802 0.864 1.61342296209e-38
-0.0143575682225 -0.0670019850384 0.862 1.56736228157e-38
-0.0127622828645 -0.0670019850384 0.862 1.56747214337e-38
-0.0111669975064 -0.0670019850384 0.862 1.68707254691e-38
-0.00957171214834 -0.0670019850384 0.862 1.49363954897e-38
-0.00797642679028 -0.0670019850384 0.862 1.70565446519e-38
-0.00638114143223 -0.0670019850384 0.862 1.65008569433e-38
-0.00477475199975 -0.0668465279965 0.86 1.67796270559e-38
-0.00318316799983 -0.0668465279965 0.86 1.6871800265e-38
-0.00159158399992 -0.0668465279965 0.86 1.69639986974e-38
0.0 -0.0668465279965 0.86 1.76065108589e-38
0.00158788264178 -0.0666910709547 0.858 1.75135767448e-38
0.00317576528356 -0.0666910709547 0.858 1.64111752429e-38
0.00476364792533 -0.0666910709547 0.858 1.53984680531e-38
0.00635153056711 -0.0666910709547 0.858 1.72391562626e-38
0.00792090641819 -0.0665356139128 0.856 1.63175544925e-38
0.00948287955299 -0.066380156871 0.854 1.75139270694e-38
0.0110633594785 -0.066380156871 0.854 1.28130499656e-38
0.012643839404 -0.066380156871 0.854 1.39269505227e-38
0.0141743509946 -0.0661469713082 0.851 1.44761600286e-38
0.0157492788829 -0.0661469713082 0.851 1.17967064064e-38
0.0172834918317 -0.0659915142663 0.849 1.57630088421e-38
0.0188547183618 -0.0659915142663 0.849 1.31890169423e-38
0.0203778272361 -0.0658360572245 0.847 1.56757780127e-38
0.0219453524082 -0.0658360572245 0.847 1.24446121656e-38
0.0235128775802 -0.0658360572245 0.847 1.19829726034e-38
0.025021181022 -0.0656806001826 0.845 1.67778095718e-38
0.0265850048358 -0.0656806001826 0.845 1.59487705717e-38
0.0281488286497 -0.0656806001826 0.845 1.71469550275e-38
0.0296423266589 -0.0655251431408 0.843 1.59480517056e-38
0.0312024491147 -0.0655251431408 0.843 1.6315402098e-38
0.0326848430495 -0.0653696860989 0.841 1.65001534915e-38
0.0342412641471 -0.0653696860989 0.841 1.64090270523e-38
0.0357125540074 -0.0652142290571 0.839 1.71455172953e-38
0.0372652737469 -0.0652142290571 0.839 1.61320926407e-38
0.0387254595329 -0.0650587720152 0.837 1.69611246343e-38
0.0402744779142 -0.0650587720152 0.837 1.65001478863e-38
0.0419234329653 -0.0652142290571 0.839 1.77012078065e-38
0.0434761527047 -0.0652142290571 0.839 2.04674466452e-38
0.0450288724442 -0.0652142290571 0.839 2.02823379207e-38
0.0466926329278 -0.0653696860989 0.841 2.1110669265e-38
-0.0402985367421 -0.066089600257 0.871 2.08311774837e-38
-0.0386865952724 -0.066089600257 0.871 1.47476910333e-38
-0.0370746538027 -0.066089600257 0.871 1.6316125168e-38
-0.035462712333 -0.066089600257 0.871 1.64086711225e-38
-0.0338507708634 -0.066089600257 0.871 1.58554973433e-38
-0.0322388293937 -0.066089600257 0.871 1.69611246343e-38
-0.030626887924 -0.066089600257 0.871 1.61327960926e-38
-0.0290149464543 -0.066089600257 0.871 1.74235447197e-38
-0.0274030049846 -0.066089600257 0.871 1.59480643173e-38
-0.0257318417847 -0.0659378445733 0.869 1.63168510407e-38
-0.0241236016732 -0.0659378445733 0.869 1.66845629681e-38
-0.0225671805756 -0.066089600257 0.871 1.73306302238e-38
-0.0209071214501 -0.0659378445733 0.869 8.66675494605e-39
-0.0192988813385 -0.0659378445733 0.869 1.00530286882e-38
-0.017690641227 -0.0659378445733 0.869 1.19869172586e-38
-0.016045387534 -0.0657860888896 0.867 8.20513780464e-39
-0.0143908804458 -0.065558455364 0.864 4.0631643895e-39
-0.0127918937296 -0.065558455364 0.864 1.67977710684e-39
-0.0111929070134 -0.065558455364 0.864 1.16217066489e-38
-0.00959392029717 -0.065558455364 0.864 1.09817728766e-38
-0.00797642679028 -0.0654066996803 0.862 1.13415422444e-38
-0.00638114143223 -0.0654066996803 0.862 1.05085445761e-38
-0.00478585607417 -0.0654066996803 0.862 4.434825176e-39
-0.00319057071611 -0.0654066996803 0.862 8.02615976088e-39
-0.00159158399992 -0.0652549439966 0.86 5.53758400899e-39
0.0 -0.0652549439966 0.86 1.1622763228e-38
0.00159158399992 -0.0652549439966 0.86 1.40152225169e-38
0.00318316799983 -0.0652549439966 0.86 9.31539358441e-39
0.00477475199975 -0.0652549439966 0.86 1.39230619195e-38
0.00635153056711 -0.0651031883129 0.858 1.53945219966e-38
0.00793941320889 -0.0651031883129 0.858 1.43818021952e-38
0.00950508770183 -0.0649514326292 0.856 1.56718319562e-38
0.0110892689855 -0.0649514326292 0.856 1.65019387457e-38
0.0126734502691 -0.0649514326292 0.856 1.36499880852e-38
0.0142243193295 -0.0647996769455 0.854 1.64140871411e-38
0.0157492788829 -0.0645720434199 0.851 1.61313611629e-38
0.0172834918317 -0.0644202877362 0.849 1.61324401627e-38
0.0188547183618 -0.0644202877362 0.849 1.62260749261e-38
0.020425944892 -0.0644202877362 0.849 1.58569476873e-38
0.0219971714221 -0.0644202877362 0.849 1.66845349421e-38
0.0235128775802 -0.0642685320525 0.847 1.65012198796e-38
0.0250804027522 -0.0642685320525 0.847 1.61313639655e-38
0.0265850048358 -0.0641167763688 0.845 1.59480517056e-38
0.0281488286497 -0.0641167763688 0.845 1.60398942083e-38
0.0297126524636 -0.0641167763688 0.845 1.60398942083e-38
0.0312024491147 -0.063965020685 0.843 1.64076019318e-38
0.0327625715704 -0.063965020685 0.843 1.65927176628e-38
0.0343226940261 -0.063965020685 0.843 1.59480517056e-38
0.0358828164819 -0.063965020685 0.843 1.63157524227e-38
0.0374429389376 -0.063965020685 0.843 1.66838286877e-38
0.0388179934863 -0.0636615093176 0.839 1.68685758772e-38
0.0403707132258 -0.0636615093176 0.839 1.64086739251e-38
0.042023369635 -0.0638132650013 0.841 1.77008602845e-38
0.0434761527047 -0.0636615093176 0.839 2.02837812581e-38
0.0450288724442 -0.0636615093176 0.839 2.0374530748e-38
0.0466926329278 -0.0638132650013 0.841 2.08337068275e-38
-0.0404836046491 -0.0647737674385 0.875 2.05560325303e-38
-0.0388642604631 -0.0647737674385 0.875 1.4931748784e-38
-0.0371597850399 -0.0646257131129 0.873 1.60395158577e-38
-0.0355441422121 -0.0646257131129 0.873 1.70533202642e-38
-0.0339284993843 -0.0646257131129 0.873 1.61324429653e-38
-0.0323128565565 -0.0646257131129 0.873 1.61320870355e-38
-0.0306972137286 -0.0646257131129 0.873 1.65008667524e-38
-0.0290149464543 -0.0644776587873 0.871 1.65015856185e-38
-0.0274030049846 -0.0644776587873 0.871 1.6593784051e-38
-0.0257910635149 -0.0644776587873 0.871 1.6040615877e-38
-0.0241791220453 -0.0644776587873 0.871 1.64083207979e-38
-0.0225671805756 -0.0644776587873 0.871 1.64083236005e-38
-0.0209552391059 -0.0644776587873 0.871 1.64108249183e-38
-0.0192988813385 -0.0643296044618 0.869 1.77012106091e-38
-0.017690641227 -0.0643296044618 0.869 1.65008723576e-38
-0.0160824011154 -0.0643296044618 0.869 1.73295358097e-38
-0.0144741610039 -0.0643296044618 0.869 1.64108249183e-38
-0.0128363100272 -0.0641815501362 0.867 1.63204383647e-38
-0.0112317712738 -0.0641815501362 0.867 1.68728820674e-38
-0.00962723252043 -0.0641815501362 0.867 1.42921345077e-38
-0.00799493358098 -0.0639594686478 0.864 1.69618435004e-38
-0.00639594686478 -0.0639594686478 0.864 1.19846905953e-38
-0.00479696014859 -0.0639594686478 0.864 1.55850089047e-38
-0.00319057071611 -0.0638114143223 0.862 1.21683840084e-38
-0.00159528535806 -0.0638114143223 0.862 1.40148245481e-38
0.0 -0.0638114143223 0.862 1.1990867519e-38
0.00159528535806 -0.0638114143223 0.862 1.04217635635e-38
0.00318316799983 -0.0636633599967 0.86 1.10646120367e-38
0.00477475199975 -0.0636633599967 0.86 1.34566565412e-38
0.00636633599967 -0.0636633599967 0.86 1.30835356017e-38
0.00795791999959 -0.0636633599967 0.86 1.02330058578e-38
0.00952729585067 -0.0635153056711 0.858 1.12493494171e-38
0.0111151784924 -0.0635153056711 0.858 1.31847205612e-38
0.0127030611342 -0.0635153056711 0.858 7.38215241394e-39
0.0142243193295 -0.06321919702 0.854 1.52169704747e-38
0.015804799255 -0.06321919702 0.854 1.60398970109e-38
0.0173242067712 -0.0629971155316 0.851 1.6592361733e-38
0.0188991346595 -0.0629971155316 0.851 1.57629485863e-38
0.0204740625478 -0.0629971155316 0.851 1.71462361614e-38
0.0219971714221 -0.062849061206 0.849 1.63164712888e-38
0.0235683979523 -0.062849061206 0.849 1.65934309238e-38
0.0251396244824 -0.062849061206 0.849 1.63157552253e-38
0.0266479279242 -0.0627010068805 0.847 1.67763620305e-38
0.0281488286497 -0.0625529525549 0.845 1.65005010135e-38
0.0297126524636 -0.0625529525549 0.845 1.57633017135e-38
0.0312024491147 -0.0624048982293 0.843 1.69607715071e-38
0.0327625715704 -0.0624048982293 0.843 1.64083039823e-38
0.0343226940261 -0.0624048982293 0.843 1.66852664199e-38
0.0358828164819 -0.0624048982293 0.843 1.6592361733e-38
0.0374429389376 -0.0624048982293 0.843 1.64998003643e-38
0.0389105274398 -0.0622568439037 0.841 1.68682101383e-38
0.0404669485374 -0.0622568439037 0.841 1.65005010135e-38
0.042023369635 -0.0622568439037 0.841 1.73320945807e-38
0.0435797907326 -0.0622568439037 0.841 2.07440517517e-38
0.0451362118302 -0.0622568439037 0.841 2.01901394882e-38
0.046803673672 -0.0624048982293 0.843 2.09269884636e-38
-0.0426803607048 -0.0640205410571 0.887 1.94496877745e-38
-0.0409462744165 -0.0638761880897 0.885 1.99106659238e-38
-0.0389975093561 -0.0633709527037 0.878 1.60384438644e-38
-0.0372449162771 -0.0631544232525 0.875 1.64101186638e-38
-0.0356255720912 -0.0631544232525 0.875 1.63154077032e-38
-0.0340062279052 -0.0631544232525 0.875 1.7421752459e-38
-0.0323868837192 -0.0631544232525 0.875 1.62243022836e-38
-0.0306972137286 -0.0630100702851 0.873 1.66856293562e-38
-0.0290815709008 -0.0630100702851 0.873 1.64083179953e-38
-0.027465928073 -0.0630100702851 0.873 1.63164740914e-38
-0.0258502852452 -0.0630100702851 0.873 1.65934211147e-38
-0.0242346424173 -0.0630100702851 0.873 1.65941371782e-38
-0.0226189995895 -0.0630100702851 0.873 1.65930834017e-38
