# .PCD v0.7 - Point Cloud Data file format
VERSION 0.7
FIELDS x y z rgb
SIZE 4 4 4 4
TYPE F F F F
COUNT 1 1 1 1
WIDTH 841
HEIGHT 1
VIEWPOINT 0 0 0 1 0 0 0
POINTS 841
DATA ascii
0.0521632402577 -0.0552316661553 0.829 1.24132679216e-38
-0.0139078532086 -0.0540860958111 0.835 2.34957675331e-38
-0.0123625361854 -0.0540860958111 0.835 2.35090994867e-38
-0.0108172191622 -0.0540860958111 0.835 3.21424236553e-39
-0.00927190213905 -0.0540860958111 0.835 3.50136141438e-39
-0.00772658511588 -0.0540860958111 0.835 3.97132468945e-39
-0.0061812680927 -0.0540860958111 0.835 1.48421049186e-39
-0.00463595106953 -0.0540860958111 0.835 1.41545157881e-41
-0.00309063404635 -0.0540860958111 0.835 7.7401575469e-39
-0.00154531702318 -0.0540860958111 0.835 1.5097469143e-38
0.0 -0.0540860958111 0.835 2.2290482698e-38
0.00154531702318 -0.0540860958111 0.835 2.35064930716e-38
0.00309063404635 -0.0540860958111 0.835 2.350655613e-38
0.00463595106953 -0.0540860958111 0.835 2.35097777152e-38
0.0061812680927 -0.0540860958111 0.835 2.35097875243e-38
0.00770807832518 -0.0539565482763 0.833 2.3506889639e-38
0.00924969399022 -0.0539565482763 0.833 2.35076239194e-38
0.0107913096553 -0.0539565482763 0.833 2.35097763139e-38
0.0123329253203 -0.0539565482763 0.833 2.35075776766e-38
0.0138745409853 -0.0539565482763 0.833 2.35097777152e-38
0.0154161566504 -0.0539565482763 0.833 2.35043967291e-38
0.0169577723154 -0.0539565482763 0.833 2.35040183785e-38
0.0184993879804 -0.0539565482763 0.833 2.35061651677e-38
0.0200410036455 -0.0539565482763 0.833 1.95218784675e-38
0.0215826193105 -0.0539565482763 0.833 2.3491297391e-38
0.0231242349755 -0.0539565482763 0.833 2.21934007404e-38
0.0246658506406 -0.0539565482763 0.833 2.35004871063e-38
0.0262074663056 -0.0539565482763 0.833 2.35047358433e-38
0.0277490819706 -0.0539565482763 0.833 2.34918032598e-38
0.0292906976357 -0.0539565482763 0.833 3.30612690713e-39
0.0308323133007 -0.0539565482763 0.833 7.56022942279e-40
0.0323739289658 -0.0539565482763 0.833 2.35018729905e-38
0.0339155446308 -0.0539565482763 0.833 3.58160536964e-39
0.0354571602958 -0.0539565482763 0.833 1.05971402703e-38
0.0369987759609 -0.0539565482763 0.833 8.38480528724e-39
0.0384478576724 -0.0538270007414 0.831 1.02357005548e-39
0.0399857719793 -0.0538270007414 0.831 2.34951775865e-38
0.0415236862862 -0.0538270007414 0.831 1.34518725083e-38
0.0429579625652 -0.0536974532065 0.829 1.44733490238e-38
0.044492175514 -0.0536974532065 0.829 2.3503368176e-38
0.0461374292069 -0.0538270007414 0.831 7.18260751262e-39
0.0475606014115 -0.0536974532065 0.829 3.50206486621e-39
0.0490948143602 -0.0536974532065 0.829 2.35090602504e-38
0.050629027309 -0.0536974532065 0.829 1.5648332181e-38
-0.0139078532086 -0.052540778788 0.835 2.34957801448e-38
-0.0123625361854 -0.052540778788 0.835 2.35098421749e-38
-0.0108172191622 -0.052540778788 0.835 4.13259732711e-39
-0.00927190213905 -0.052540778788 0.835 6.62845142322e-39
-0.00772658511588 -0.052540778788 0.835 6.73430410791e-39
-0.0061812680927 -0.052540778788 0.835 6.82902627891e-39
-0.00463595106953 -0.052540778788 0.835 4.89396622303e-39
-0.00309063404635 -0.052540778788 0.835 3.97275401388e-39
-0.00154531702318 -0.052540778788 0.835 4.8003692947e-39
0.0 -0.052540778788 0.835 2.5894790504e-39
0.00154531702318 -0.052540778788 0.835 1.57569005821e-39
0.00309063404635 -0.052540778788 0.835 9.76090279998e-39
0.00463595106953 -0.052540778788 0.835 1.66636976339e-38
0.00616646266014 -0.0524149326112 0.833 2.28450647821e-38
0.00770807832518 -0.0524149326112 0.833 2.35086510712e-38
0.00924969399022 -0.0524149326112 0.833 2.35097735113e-38
0.0107913096553 -0.0524149326112 0.833 2.35098169515e-38
0.0123329253203 -0.0524149326112 0.833 2.35098043398e-38
0.0138745409853 -0.0524149326112 0.833 2.35097763139e-38
0.0154161566504 -0.0524149326112 0.833 2.35090462374e-38
0.0169577723154 -0.0524149326112 0.833 2.35097566957e-38
0.0184993879804 -0.0524149326112 0.833 2.34950220423e-38
0.0200410036455 -0.0524149326112 0.833 2.3487733889e-38
0.0215308002966 -0.0522890864345 0.831 2.11731041181e-38
0.0230687146034 -0.0522890864345 0.831 1.96069639089e-38
0.0246066289103 -0.0522890864345 0.831 2.34979339405e-38
0.0261445432172 -0.0522890864345 0.831 2.35014988438e-38
0.0277490819706 -0.0524149326112 0.833 1.70337707493e-38
0.029220371831 -0.0522890864345 0.831 2.20412477531e-39
0.0307582861379 -0.0522890864345 0.831 1.6865396331e-38
0.0322962004448 -0.0522890864345 0.831 2.19295698707e-38
0.0338341147517 -0.0522890864345 0.831 4.69228854545e-39
0.0353720290586 -0.0522890864345 0.831 2.33207929991e-38
0.0368211107702 -0.0521632402577 0.829 1.05977890714e-38
0.0383553237189 -0.0521632402577 0.829 6.55925110115e-39
0.0398895366677 -0.0521632402577 0.829 2.3498720069e-38
0.0414237496164 -0.0521632402577 0.829 6.71618812137e-39
0.0429579625652 -0.0521632402577 0.829 2.34951775865e-38
0.044492175514 -0.0521632402577 0.829 2.08239271655e-38
0.0460263884627 -0.0521632402577 0.829 4.23420267616e-39
0.0475606014115 -0.0521632402577 0.829 1.75028526076e-38
0.0490948143602 -0.0521632402577 0.829 2.35040309902e-38
-0.0139078532086 -0.0509954617648 0.835 2.34997009779e-38
-0.0123625361854 -0.0509954617648 0.835 2.35079896583e-38
-0.0108172191622 -0.0509954617648 0.835 1.95170159618e-38
-0.00927190213905 -0.0509954617648 0.835 1.02127935288e-38
-0.00772658511588 -0.0509954617648 0.835 5.24188761224e-39
-0.0061812680927 -0.0509954617648 0.835 5.99996345677e-39
-0.00463595106953 -0.0509954617648 0.835 6.27221192632e-39
-0.00309063404635 -0.0509954617648 0.835 6.54809536408e-39
-0.00154531702318 -0.0509954617648 0.835 7.74698887692e-39
0.0 -0.0509954617648 0.835 7.2881995558e-39
0.00154531702318 -0.0509954617648 0.835 6.5506317143e-39
0.00309063404635 -0.0509954617648 0.835 5.26059915064e-39
0.00463595106953 -0.0509954617648 0.835 4.61631014271e-39
0.00616646266014 -0.0508733169462 0.833 3.32562597527e-39
0.00770807832518 -0.0508733169462 0.833 2.12745413113e-39
0.00924969399022 -0.0508733169462 0.833 9.02839224464e-39
0.0107913096553 -0.0508733169462 0.833 1.77672341876e-38
0.0123329253203 -0.0508733169462 0.833 2.31223691365e-38
0.0138745409853 -0.0508733169462 0.833 2.35097048476e-38
0.015379143069 -0.0507511721276 0.831 2.35083315752e-38
0.0169170573759 -0.0507511721276 0.831 2.35097777152e-38
0.0184549716828 -0.0507511721276 0.831 1.86972339394e-38
0.0199928859897 -0.0507511721276 0.831 2.35098393723e-38
0.0215308002966 -0.0507511721276 0.831 1.7404737893e-38
0.0230687146034 -0.0507511721276 0.831 2.3494353623e-38
0.0246066289103 -0.0507511721276 0.831 2.35076141103e-38
0.0261445432172 -0.0507511721276 0.831 2.30322236063e-38
0.0276824575241 -0.0507511721276 0.831 1.744874427e-39
0.029220371831 -0.0507511721276 0.831 9.80908925027e-44
0.0307582861379 -0.0507511721276 0.831 2.34984061781e-38
0.0322962004448 -0.0507511721276 0.831 8.83777781843e-39
0.0338341147517 -0.0507511721276 0.831 1.45446232676e-38
0.0353720290586 -0.0507511721276 0.831 2.17455527577e-38
0.0368211107702 -0.050629027309 0.829 2.66617491795e-39
0.0383553237189 -0.050629027309 0.829 1.11636768316e-38
0.0398895366677 -0.050629027309 0.829 2.23012040325e-38
0.0414237496164 -0.050629027309 0.829 3.39801285004e-39
0.0429579625652 -0.050629027309 0.829 2.35062982911e-38
0.044492175514 -0.050629027309 0.829 1.16065123697e-38
0.0460263884627 -0.050629027309 0.829 5.32493416443e-44
0.0475606014115 -0.050629027309 0.829 2.34951775865e-38
0.0490948143602 -0.050629027309 0.829 2.3215210765e-38
-0.0154901838131 -0.0495685882021 0.837 2.34971898511e-38
-0.0139078532086 -0.0494501447416 0.835 2.34993590611e-38
-0.0123625361854 -0.0494501447416 0.835 2.35058302574e-38
-0.0108172191622 -0.0494501447416 0.835 1.87797241761e-38
-0.00927190213905 -0.0494501447416 0.835 2.33009267907e-38
-0.00772658511588 -0.0494501447416 0.835 9.28937987972e-39
-0.0061812680927 -0.0494501447416 0.835 4.22443702716e-39
-0.00463595106953 -0.0494501447416 0.835 4.88786777211e-39
-0.00309063404635 -0.0494501447416 0.835 6.36118316841e-39
-0.00154531702318 -0.0494501447416 0.835 5.25878587043e-39
0.0 -0.0494501447416 0.835 5.44389599626e-39
0.00154531702318 -0.0494501447416 0.835 5.07476735609e-39
0.00308323133007 -0.0493317012812 0.833 6.63995748491e-39
0.00462484699511 -0.0493317012812 0.833 8.48743078157e-39
0.00616646266014 -0.0493317012812 0.833 7.01305460233e-39
0.00770807832518 -0.0493317012812 0.833 5.90671405046e-39
0.00924969399022 -0.0493317012812 0.833 5.81519945166e-39
0.0107913096553 -0.0493317012812 0.833 3.14371221122e-39
0.0123329253203 -0.0493317012812 0.833 1.85229656598e-39
0.0138412287621 -0.0492132578207 0.831 6.44597293589e-44
0.0153421294876 -0.0490948143602 0.829 2.3465042663e-38
0.0168763424363 -0.0490948143602 0.829 2.35097833204e-38
0.0184105553851 -0.0490948143602 0.829 1.83277283499e-38
0.0199447683338 -0.0490948143602 0.829 2.26490497516e-38
0.0214789812826 -0.0490948143602 0.829 2.12613522902e-38
0.0230131942314 -0.0490948143602 0.829 2.31082496532e-38
0.0245474071801 -0.0490948143602 0.829 2.35072595818e-38
0.0260816201289 -0.0490948143602 0.829 2.34982674496e-38
0.0276824575241 -0.0492132578207 0.831 3.21429981877e-39
0.029220371831 -0.0492132578207 0.831 6.36808316205e-39
0.0307582861379 -0.0492132578207 0.831 2.32217548288e-38
0.0322962004448 -0.0492132578207 0.831 2.66645798024e-39
0.0337526848727 -0.0490948143602 0.829 2.20207537631e-38
0.0352868978214 -0.0490948143602 0.829 2.14621121173e-38
0.0368211107702 -0.0490948143602 0.829 5.51050812006e-40
0.0383553237189 -0.0490948143602 0.829 2.18403449936e-38
0.0398895366677 -0.0490948143602 0.829 1.88006637791e-38
0.0413238129467 -0.0489763708998 0.827 1.04091462722e-38
0.0428543245373 -0.0489763708998 0.827 2.35097693074e-38
0.0443848361279 -0.0489763708998 0.827 9.75982380016e-39
0.0459153477185 -0.0489763708998 0.827 6.58610278233e-44
0.0474458593092 -0.0489763708998 0.827 2.35040590161e-38
0.0489763708998 -0.0489763708998 0.827 2.02595612155e-38
-0.0139411654318 -0.0480195698208 0.837 2.34968297174e-38
-0.0123625361854 -0.0479048277184 0.835 2.35069022507e-38
-0.0108172191622 -0.0479048277184 0.835 1.60167811914e-38
-0.00927190213905 -0.0479048277184 0.835 2.3022874143e-38
-0.00772658511588 -0.0479048277184 0.835 2.3117234779e-38
-0.0061812680927 -0.0479048277184 0.835 1.03917743751e-38
-0.00463595106953 -0.0479048277184 0.835 4.68361030406e-39
-0.00309063404635 -0.0479048277184 0.835 4.51764051394e-39
-0.00154531702318 -0.0479048277184 0.835 5.43922686978e-39
0.0 -0.0479048277184 0.835 5.07331841348e-39
0.00154531702318 -0.0479048277184 0.835 5.25770967321e-39
0.00308323133007 -0.0477900856161 0.833 5.07296808886e-39
0.00462484699511 -0.0477900856161 0.833 5.90415527947e-39
0.00616646266014 -0.0477900856161 0.833 4.61809539695e-39
0.00770807832518 -0.0477900856161 0.833 5.35459404773e-39
0.00924969399022 -0.0477900856161 0.833 6.64247561825e-39
0.0107654001483 -0.0476753435138 0.831 8.30197733761e-39
0.0123033144552 -0.0476753435138 0.831 7.38289790472e-39
0.0138079165388 -0.0475606014115 0.829 3.22298646795e-44
0.0153421294876 -0.0475606014115 0.829 2.34807974616e-38
0.0168763424363 -0.0475606014115 0.829 2.35032378552e-38
0.0184105553851 -0.0475606014115 0.829 2.35094273905e-38
0.0199447683338 -0.0475606014115 0.829 2.34989751053e-38
0.0214789812826 -0.0475606014115 0.829 2.35040085694e-38
0.0230131942314 -0.0475606014115 0.829 2.35039777408e-38
0.0245474071801 -0.0475606014115 0.829 2.35072665883e-38
0.0260816201289 -0.0475606014115 0.829 1.88787735568e-38
0.0276158330776 -0.0475606014115 0.829 2.11230189084e-39
0.0291500460264 -0.0475606014115 0.829 1.88972903147e-38
0.0307582861379 -0.0476753435138 0.831 2.04536732826e-38
0.0322184719239 -0.0475606014115 0.829 1.22404513872e-38
0.0337526848727 -0.0475606014115 0.829 2.34986948456e-38
0.0352868978214 -0.0475606014115 0.829 1.55691265879e-38
0.0368211107702 -0.0475606014115 0.829 4.23674603287e-39
0.0382627897654 -0.0474458593092 0.827 2.35051856601e-38
0.0397933013561 -0.0474458593092 0.827 2.84941150775e-39
0.0413238129467 -0.0474458593092 0.827 2.21057789487e-38
0.0428543245373 -0.0474458593092 0.827 2.35048087108e-38
0.0443848361279 -0.0474458593092 0.827 6.63310793801e-39
0.0459153477185 -0.0474458593092 0.827 8.93875258317e-39
0.0473311172068 -0.0473311172068 0.825 2.35036918759e-38
0.0488579274393 -0.0473311172068 0.825 2.02562807758e-38
-0.0154901838131 -0.0464705514394 0.837 2.34957563227e-38
-0.0139411654318 -0.0464705514394 0.837 2.34993576598e-38
-0.0123921470505 -0.0464705514394 0.837 2.35051071874e-38
-0.0108431286692 -0.0464705514394 0.837 1.65728094156e-38
-0.00929411028789 -0.0464705514394 0.837 2.2101615691e-38
-0.00774509190657 -0.0464705514394 0.837 2.21945371934e-38
-0.0061812680927 -0.0463595106953 0.835 2.32980737471e-38
-0.00463595106953 -0.0463595106953 0.835 1.34353091604e-38
-0.00309063404635 -0.0463595106953 0.835 5.0566920072e-39
-0.00154531702318 -0.0463595106953 0.835 4.24068087896e-39
0.0 -0.0463595106953 0.835 4.97786056079e-39
0.00154531702318 -0.0463595106953 0.835 5.80871284106e-39
0.00308323133007 -0.0462484699511 0.833 4.70379740973e-39
0.00462484699511 -0.0462484699511 0.833 5.53177562686e-39
0.00616646266014 -0.0462484699511 0.833 5.25519574376e-39
0.00770807832518 -0.0462484699511 0.833 5.16516091613e-39
0.00924969399022 -0.0462484699511 0.833 3.96984211567e-39
0.0107654001483 -0.0461374292069 0.831 5.72550934345e-39
0.0123033144552 -0.0461374292069 0.831 2.68453332913e-39
0.0138079165388 -0.0460263884627 0.829 8.40779078595e-44
0.0153421294876 -0.0460263884627 0.829 2.35044878135e-38
0.0168763424363 -0.0460263884627 0.829 2.34017530178e-38
0.0184105553851 -0.0460263884627 0.829 2.34975205575e-38
0.0199447683338 -0.0460263884627 0.829 2.34870836865e-38
0.0214789812826 -0.0460263884627 0.829 2.34809908408e-38
0.0230131942314 -0.0460263884627 0.829 2.34892528966e-38
0.0245474071801 -0.0460263884627 0.829 2.35036484357e-38
0.0260816201289 -0.0460263884627 0.829 3.58158435016e-39
0.0276158330776 -0.0460263884627 0.829 4.68033687084e-43
0.0291500460264 -0.0460263884627 0.829 2.23924341678e-38
0.0306842589751 -0.0460263884627 0.829 1.72282933969e-38
0.0322184719239 -0.0460263884627 0.829 1.28886570243e-38
0.0337526848727 -0.0460263884627 0.829 2.34989989274e-38
0.0352868978214 -0.0460263884627 0.829 4.78477704669e-39
0.0367322781748 -0.0459153477185 0.827 9.40116005692e-39
0.0382627897654 -0.0459153477185 0.827 2.35040562135e-38
0.0397933013561 -0.0459153477185 0.827 8.26604944628e-40
0.0413238129467 -0.0459153477185 0.827 2.35026773358e-38
0.0428543245373 -0.0459153477185 0.827 1.40010834154e-38
0.0443848361279 -0.0459153477185 0.827 1.57244324967e-39
0.0458043069744 -0.0458043069744 0.825 2.11895707764e-38
0.0473311172068 -0.0458043069744 0.825 2.35018701879e-38
0.0488579274393 -0.0458043069744 0.825 2.09017258549e-38
-0.0139411654318 -0.0449215330581 0.837 2.34986443989e-38
-0.0123921470505 -0.0449215330581 0.837 2.35040576148e-38
-0.0108431286692 -0.0449215330581 0.837 1.80504478176e-38
-0.00929411028789 -0.0449215330581 0.837 2.30185371242e-38
-0.00774509190657 -0.0449215330581 0.837 2.17335576428e-38
-0.00619607352526 -0.0449215330581 0.837 2.19172496546e-38
-0.00463595106953 -0.0448141936721 0.835 2.34849649233e-38
-0.00309063404635 -0.0448141936721 0.835 1.58324179576e-38
-0.00154531702318 -0.0448141936721 0.835 3.67341984632e-39
0.0 -0.0448141936721 0.835 4.05701829444e-39
0.00154531702318 -0.0448141936721 0.835 7.00725883188e-39
0.00309063404635 -0.0448141936721 0.835 4.1484852491e-39
0.00462484699511 -0.044706854286 0.833 5.1629973113e-39
0.00616646266014 -0.044706854286 0.833 5.1629945087e-39
0.00770807832518 -0.044706854286 0.833 5.71652281639e-39
0.00922748584138 -0.0445995149 0.831 5.07079747754e-39
0.0107654001483 -0.0445995149 0.831 5.53106937243e-39
0.0123033144552 -0.0445995149 0.831 4.61269619397e-39
0.0138079165388 -0.044492175514 0.829 4.20389539297e-45
0.0153421294876 -0.044492175514 0.829 2.34943424126e-38
0.0168763424363 -0.044492175514 0.829 2.34881710941e-38
0.0184105553851 -0.044492175514 0.829 2.34968157044e-38
0.0199447683338 -0.044492175514 0.829 2.34935829088e-38
0.0214271622687 -0.0443848361279 0.827 2.35018239451e-38
0.0229576738593 -0.0443848361279 0.827 2.35003848116e-38
0.0244881854499 -0.0443848361279 0.827 2.34975906224e-38
0.0260816201289 -0.044492175514 0.829 2.8469003809e-39
0.0276158330776 -0.044492175514 0.829 1.44827054937e-38
0.0291500460264 -0.044492175514 0.829 2.18424511452e-38
0.0306842589751 -0.044492175514 0.829 7.64208066739e-39
0.0322184719239 -0.044492175514 0.829 2.12010095757e-38
0.0337526848727 -0.044492175514 0.829 1.65837297345e-38
0.0352868978214 -0.044492175514 0.829 2.11661228492e-39
0.0367322781748 -0.0443848361279 0.827 2.11110420104e-38
0.0382627897654 -0.0443848361279 0.827 1.51160601697e-38
0.0397933013561 -0.0443848361279 0.827 7.56191938873e-39
0.0413238129467 -0.0443848361279 0.827 2.35029954306e-38
0.0428543245373 -0.0443848361279 0.827 1.04984482207e-38
0.0443848361279 -0.0443848361279 0.827 5.184804318e-44
0.0458043069744 -0.0442774967419 0.825 2.34969712485e-38
0.0473311172068 -0.0442774967419 0.825 2.34983249028e-38
0.0488579274393 -0.0442774967419 0.825 1.71188505855e-38
-0.0140077898783 -0.0435797907326 0.841 2.34961248642e-38
-0.0124513687807 -0.0435797907326 0.841 2.35018771944e-38
-0.0108949476832 -0.0435797907326 0.841 2.03571308249e-38
-0.00931631843672 -0.0434761527047 0.839 2.1450856888e-38
-0.00776359869727 -0.0434761527047 0.839 2.21938337416e-38
-0.00619607352526 -0.0433725146768 0.837 2.13626269328e-38
-0.00464705514394 -0.0433725146768 0.837 2.1086409986e-38
-0.00309803676263 -0.0433725146768 0.837 2.34856291387e-38
-0.00154531702318 -0.0432688766489 0.835 1.74951510713e-38
0.0 -0.0432688766489 0.835 4.50711395988e-39
0.00154531702318 -0.0432688766489 0.835 4.05913145252e-39
0.00309063404635 -0.0432688766489 0.835 5.43887654517e-39
0.00463595106953 -0.0432688766489 0.835 5.43813946217e-39
0.00616646266014 -0.043165238621 0.833 5.53142249964e-39
0.00770807832518 -0.043165238621 0.833 5.71436621806e-39
0.00922748584138 -0.0430616005931 0.831 5.34629555822e-39
0.0107654001483 -0.0430616005931 0.831 5.25339367394e-39
0.0123033144552 -0.0430616005931 0.831 4.60695227157e-39
0.0138079165388 -0.0429579625652 0.829 2.75544323533e-40
0.0153421294876 -0.0429579625652 0.829 2.13727429064e-38
0.0168763424363 -0.0429579625652 0.829 2.12707816276e-38
0.0184105553851 -0.0429579625652 0.829 2.00700902488e-38
0.0199447683338 -0.0429579625652 0.829 2.23749459629e-38
0.0214271622687 -0.0428543245373 0.827 2.34892318771e-38
0.0229576738593 -0.0428543245373 0.827 2.34935730997e-38
0.0244881854499 -0.0428543245373 0.827 1.85996110806e-38
0.0260816201289 -0.0429579625652 0.829 5.51417531815e-39
0.0276158330776 -0.0429579625652 0.829 6.00214948238e-39
0.0291500460264 -0.0429579625652 0.829 1.05081914489e-38
0.0306842589751 -0.0429579625652 0.829 7.19094804108e-39
0.032140743403 -0.0428543245373 0.827 1.77019112584e-38
0.0336712549936 -0.0428543245373 0.827 1.76958198139e-38
0.0352017665842 -0.0428543245373 0.827 3.5949667505e-39
0.0367322781748 -0.0428543245373 0.827 2.24881554646e-38
0.0382627897654 -0.0428543245373 0.827 1.09636666992e-38
0.0397933013561 -0.0428543245373 0.827 1.98109271043e-38
0.0413238129467 -0.0428543245373 0.827 2.28551233025e-38
0.0428543245373 -0.0428543245373 0.827 9.85995498323e-39
0.0442774967419 -0.0427506865094 0.825 7.46610420494e-40
0.0458043069744 -0.0427506865094 0.825 2.35058947171e-38
0.0473311172068 -0.0427506865094 0.825 2.34964779914e-38
0.0488579274393 -0.0427506865094 0.825 6.79582671569e-39
-0.0124809796459 -0.0421233063048 0.843 2.35004184427e-38
-0.0109208571901 -0.0421233063048 0.843 2.34013998906e-38
-0.0093607347344 -0.0421233063048 0.843 2.11757413618e-38
-0.00778210548797 -0.042023369635 0.841 2.10871316547e-38
-0.00622568439037 -0.042023369635 0.841 2.1086062464e-38
-0.00465815921836 -0.0419234329653 0.839 2.16399368924e-38
-0.00310543947891 -0.0419234329653 0.839 2.19172286351e-38
-0.00154901838131 -0.0418234962955 0.837 2.33923517065e-38
0.0 -0.0418234962955 0.837 1.97110607667e-38
0.00154531702318 -0.0417235596257 0.835 2.57139389242e-39
0.00309063404635 -0.0417235596257 0.835 4.69373748806e-39
0.00463595106953 -0.0417235596257 0.835 3.77966769718e-39
0.0061812680927 -0.0417235596257 0.835 7.00329035463e-39
0.00772658511588 -0.0417235596257 0.835 6.26572531573e-39
0.00924969399022 -0.041623622956 0.833 5.16154556609e-39
0.0107913096553 -0.041623622956 0.833 5.44065619422e-39
0.0123329253203 -0.041623622956 0.833 6.08456404896e-39
0.0138412287621 -0.0415236862862 0.831 5.184804318e-44
0.0153421294876 -0.0414237496164 0.829 2.13727274921e-38
0.0168763424363 -0.0414237496164 0.829 2.20101879727e-38
0.0184105553851 -0.0414237496164 0.829 2.05364760089e-38
0.0199447683338 -0.0414237496164 0.829 2.02577311197e-38
0.0214271622687 -0.0413238129467 0.827 2.05332362068e-38
0.0229576738593 -0.0413238129467 0.827 2.21913352264e-38
0.0244881854499 -0.0413238129467 0.827 5.78563625795e-39
0.0260816201289 -0.0414237496164 0.829 6.44294893381e-39
0.0275492086311 -0.0413238129467 0.827 4.343666507e-39
0.0290797202217 -0.0413238129467 0.827 6.00070894756e-39
0.0306102318124 -0.0413238129467 0.827 7.19709974134e-39
0.032140743403 -0.0413238129467 0.827 6.64461119711e-39
0.0336712549936 -0.0413238129467 0.827 7.47474040737e-39
0.0352017665842 -0.0413238129467 0.827 7.47474601257e-39
0.0367322781748 -0.0413238129467 0.827 1.38253816074e-38
0.0382627897654 -0.0413238129467 0.827 7.9266759777e-39
0.0397933013561 -0.0413238129467 0.827 2.07433412934e-38
0.0413238129467 -0.0413238129467 0.827 1.2445238546e-38
0.0428543245373 -0.0413238129467 0.827 8.85332102099e-39
0.0442774967419 -0.0412238762769 0.825 1.08755488478e-38
0.0458043069744 -0.0412238762769 0.825 2.35029589968e-38
0.0473311172068 -0.0412238762769 0.825 2.34870822852e-38
-0.0109467666971 -0.0406594191607 0.845 2.34961038448e-38
-0.0093607347344 -0.040563183849 0.843 2.04338701327e-38
-0.00780061227866 -0.040563183849 0.843 2.09020411471e-38
-0.00622568439037 -0.0404669485374 0.841 2.19168937248e-38
-0.00466926329278 -0.0404669485374 0.841 2.15470223964e-38
-0.00310543947891 -0.0403707132258 0.839 2.14551742886e-38
-0.00155271973945 -0.0403707132258 0.839 2.12711585769e-38
0.0 -0.0402744779142 0.837 2.22849349574e-38
0.00154901838131 -0.0402744779142 0.837 2.18283260567e-38
0.00309803676263 -0.0402744779142 0.837 5.60483512489e-39
0.00464705514394 -0.0402744779142 0.837 4.68363833003e-39
0.00619607352526 -0.0402744779142 0.837 4.5147594443e-39
0.00772658511588 -0.0401782426026 0.835 3.96050386271e-39
0.00927190213905 -0.0401782426026 0.835 5.71401869604e-39
0.0108172191622 -0.0401782426026 0.835 5.43887374257e-39
0.0123329253203 -0.0400820072909 0.833 4.79455810997e-39
0.0138412287621 -0.0399857719793 0.831 1.3833422258e-39
0.0153421294876 -0.0398895366677 0.829 2.10046848583e-38
0.0168763424363 -0.0398895366677 0.829 2.16410705429e-38
0.0184105553851 -0.0398895366677 0.829 2.13669303204e-38
0.0199447683338 -0.0398895366677 0.829 2.034950636e-38
0.0214789812826 -0.0398895366677 0.829 2.17346352413e-38
0.0229576738593 -0.0397933013561 0.827 2.2932490392e-38
0.0244881854499 -0.0397933013561 0.827 3.85709083864e-39
0.0260816201289 -0.0398895366677 0.829 7.09117278782e-39
0.0275492086311 -0.0397933013561 0.827 5.53212875407e-39
0.0290797202217 -0.0397933013561 0.827 5.53177282426e-39
0.0306102318124 -0.0397933013561 0.827 4.33287931142e-39
0.032140743403 -0.0397933013561 0.827 4.43082026499e-39
0.0336712549936 -0.0397933013561 0.827 2.59231948239e-39
0.0352017665842 -0.0397933013561 0.827 4.06783351598e-39
0.0367322781748 -0.0397933013561 0.827 5.99998167365e-39
0.0382627897654 -0.0397933013561 0.827 6.36911872162e-39
0.0397933013561 -0.0397933013561 0.827 6.0907297622e-39
0.0412238762769 -0.0396970660444 0.825 6.36768239069e-39
0.0427506865094 -0.0396970660444 0.825 7.01375805416e-39
0.0442774967419 -0.0396970660444 0.825 2.34922684909e-38
0.0458043069744 -0.0396970660444 0.825 2.34928752531e-38
0.0473311172068 -0.0396970660444 0.825 2.34835398027e-38
0.0488579274393 -0.0396970660444 0.825 1.27849006821e-38
-0.0109726762041 -0.0391881293003 0.847 2.3499710787e-38
-0.00940515103207 -0.0391881293003 0.847 2.03445737894e-38
-0.00781911906936 -0.0390955953468 0.845 2.0994570286e-38
-0.00624048982293 -0.0390030613933 0.843 2.24704178286e-38
-0.0046803673672 -0.0390030613933 0.843 2.1732117108e-38
-0.00312024491147 -0.0390030613933 0.843 2.20079935393e-38
-0.00155642109759 -0.0389105274398 0.841 2.23774893196e-38
0.0 -0.0389105274398 0.841 2.16402844144e-38
0.00155271973945 -0.0388179934863 0.839 2.15481140079e-38
0.00310543947891 -0.0388179934863 0.839 2.26577265917e-38
0.00465815921836 -0.0388179934863 0.839 8.82983946263e-39
0.00621087895782 -0.0388179934863 0.839 6.79872600221e-39
0.00774509190657 -0.0387254595329 0.837 6.17461148828e-39
0.00929411028789 -0.0387254595329 0.837 4.79098620018e-39
0.0108431286692 -0.0387254595329 0.837 6.35866923897e-39
0.0123625361854 -0.0386329255794 0.835 3.04179297132e-39
0.0138745409853 -0.0385403916259 0.833 3.6740784566e-40
0.015379143069 -0.0384478576724 0.831 2.21110338179e-38
0.0168763424363 -0.0383553237189 0.829 2.17328752105e-38
0.0184105553851 -0.0383553237189 0.829 2.02573499665e-38
0.0199447683338 -0.0383553237189 0.829 2.09945646808e-38
0.0214789812826 -0.0383553237189 0.829 2.17317793951e-38
0.0230131942314 -0.0383553237189 0.829 2.25633225155e-38
0.0245474071801 -0.0383553237189 0.829 2.38772290011e-39
0.0260816201289 -0.0383553237189 0.829 7.00079183947e-39
0.0275492086311 -0.0382627897654 0.827 6.72706359875e-39
0.0290797202217 -0.0382627897654 0.827 6.63812738911e-39
0.0306102318124 -0.0382627897654 0.827 7.00581129057e-39
0.032140743403 -0.0382627897654 0.827 6.91396598532e-39
0.0336712549936 -0.0382627897654 0.827 5.71831647843e-39
0.0352017665842 -0.0382627897654 0.827 6.17998406659e-39
0.0367322781748 -0.0382627897654 0.827 5.07044435033e-39
0.0382627897654 -0.0382627897654 0.827 3.77825799093e-39
0.0396970660444 -0.038170255812 0.825 3.31945045293e-39
0.0412238762769 -0.038170255812 0.825 3.87367800856e-39
0.0427506865094 -0.038170255812 0.825 8.12479856108e-39
0.0442774967419 -0.038170255812 0.825 2.35051982718e-38
0.0456932662302 -0.0380777218585 0.823 1.74032791413e-38
0.0472163751045 -0.0380777218585 0.823 2.34821132809e-38
0.0487394839789 -0.0380777218585 0.823 1.99728975886e-38
-0.0125698122412 -0.0377094367236 0.849 2.34939542529e-38
-0.0109985857111 -0.0377094367236 0.849 2.35015072516e-38
-0.0094273591809 -0.0377094367236 0.849 2.03452744386e-38
-0.00781911906936 -0.0375317715329 0.845 2.09945674834e-38
-0.00625529525549 -0.0375317715329 0.845 2.25608169938e-38
-0.00469147144162 -0.0375317715329 0.845 2.15466720718e-38
-0.00312764762774 -0.0375317715329 0.845 2.1271192208e-38
-0.00156012245573 -0.0374429389376 0.843 2.17314290704e-38
0.0 -0.0373541063422 0.841 2.15470378107e-38
0.00155642109759 -0.0373541063422 0.841 2.12722431819e-38
0.00310543947891 -0.0372652737469 0.839 2.16413830324e-38
0.00465815921836 -0.0372652737469 0.839 2.26548273052e-38
0.00621087895782 -0.0372652737469 0.839 1.48179297175e-38
0.00776359869727 -0.0372652737469 0.839 6.07118725382e-39
0.00929411028789 -0.0371764411516 0.837 5.71758920453e-39
0.0108431286692 -0.0371764411516 0.837 6.9128953933e-39
0.0123921470505 -0.0371764411516 0.837 6.45156551807e-39
0.0139078532086 -0.0370876085562 0.835 8.2657551736e-40
0.0154161566504 -0.0369987759609 0.833 2.18340755843e-38
0.0169170573759 -0.0369099433655 0.831 2.19172622663e-38
0.0184549716828 -0.0369099433655 0.831 2.06258045821e-38
0.0199447683338 -0.0368211107702 0.829 2.19165279859e-38
0.0214789812826 -0.0368211107702 0.829 2.05335893341e-38
0.0230131942314 -0.0368211107702 0.829 2.24707961792e-38
0.0245474071801 -0.0368211107702 0.829 2.29588740395e-39
0.0260816201289 -0.0368211107702 0.829 7.46464685454e-39
0.0276158330776 -0.0368211107702 0.829 7.1898340088e-39
0.0290797202217 -0.0367322781748 0.827 6.91254506868e-39
0.0306102318124 -0.0367322781748 0.827 6.81927464289e-39
0.032140743403 -0.0367322781748 0.827 6.63633092448e-39
0.0336712549936 -0.0367322781748 0.827 6.72779787914e-39
0.0352017665842 -0.0367322781748 0.827 6.72598039504e-39
0.0367322781748 -0.0367322781748 0.827 8.74675087148e-39
0.0382627897654 -0.0367322781748 0.827 1.21540206992e-38
0.0396970660444 -0.0366434455795 0.825 1.37169953751e-38
0.0412238762769 -0.0366434455795 0.825 1.42733543057e-38
0.0427506865094 -0.0366434455795 0.825 1.96178618071e-38
0.0441701573558 -0.0365546129841 0.823 2.35026044683e-38
0.0456932662302 -0.0365546129841 0.823 1.59227134268e-38
0.0471016330022 -0.0364657803888 0.821 2.34889796434e-38
0.0486210405184 -0.0364657803888 0.821 2.34964653798e-38
-0.0125698122412 -0.0361382101935 0.849 2.34979087172e-38
-0.0109985857111 -0.0361382101935 0.849 2.3499335239e-38
-0.0094273591809 -0.0361382101935 0.849 1.8963787532e-38
-0.00783762586006 -0.0360530789563 0.847 2.15466692692e-38
-0.00627010068805 -0.0360530789563 0.847 2.16392152237e-38
-0.00470257551603 -0.0360530789563 0.847 2.1270431303e-38
-0.00313505034402 -0.0360530789563 0.847 2.11778615264e-38
-0.00156382381387 -0.0359679477191 0.845 2.23782207974e-38
0.0 -0.0359679477191 0.845 2.09949626495e-38
0.00156012245573 -0.0358828164819 0.843 2.17317962106e-38
0.00312024491147 -0.0358828164819 0.843 2.20105144752e-38
0.0046803673672 -0.0358828164819 0.843 2.12733277869e-38
0.00624048982293 -0.0358828164819 0.843 2.34870682723e-38
0.00778210548797 -0.0357976852446 0.841 1.68497872674e-38
0.00933852658556 -0.0357976852446 0.841 4.68755916313e-39
0.0108690381762 -0.0357125540074 0.839 5.9912683998e-39
0.0124217579156 -0.0357125540074 0.839 6.91147027276e-39
0.0139744776551 -0.0357125540074 0.839 1.19463216421e-39
0.0154901838131 -0.0356274227702 0.837 2.14660175361e-38
0.0169984872549 -0.035542291533 0.835 2.10860596614e-38
0.0185438042781 -0.035542291533 0.835 2.09945674834e-38
0.0200410036455 -0.0354571602958 0.833 2.13621981355e-38
0.0215308002966 -0.0353720290586 0.831 2.05343530417e-38
0.0230687146034 -0.0353720290586 0.831 2.25640806179e-38
0.0246066289103 -0.0353720290586 0.831 2.75506488474e-39
0.0261445432172 -0.0353720290586 0.831 7.64760878983e-39
0.0276158330776 -0.0352868978214 0.829 6.54376395053e-39
0.0291500460264 -0.0352868978214 0.829 7.46500979084e-39
0.0306842589751 -0.0352868978214 0.829 6.08026066138e-39
0.032140743403 -0.0352017665842 0.827 9.39212028053e-39
0.0336712549936 -0.0352017665842 0.827 1.33510967279e-38
0.0352017665842 -0.0352017665842 0.827 1.68544507887e-38
0.0367322781748 -0.0352017665842 0.827 1.87926553583e-38
0.0382627897654 -0.0352017665842 0.827 1.98021549759e-38
0.0396970660444 -0.035116635347 0.825 2.01695011645e-38
0.0412238762769 -0.035116635347 0.825 1.97999941737e-38
0.0427506865094 -0.035116635347 0.825 2.24664773773e-38
0.0441701573558 -0.0350315041098 0.823 2.35008164115e-38
0.0456932662302 -0.0350315041098 0.823 1.64713161704e-38
0.0471016330022 -0.0349463728726 0.821 2.34864573061e-38
0.0486210405184 -0.0349463728726 0.821 2.34961234629e-38
-0.012643839404 -0.034770558361 0.854 2.35000849337e-38
-0.0110633594785 -0.034770558361 0.854 2.34986472015e-38
-0.00948287955299 -0.034770558361 0.854 1.92431602029e-38
-0.00787463944145 -0.0346484135424 0.851 2.16392208289e-38
-0.0062849061206 -0.0345669836633 0.849 2.15470378107e-38
-0.00471367959045 -0.0345669836633 0.849 2.15466846835e-38
-0.0031424530603 -0.0345669836633 0.849 2.22846448886e-38
-0.00156752517201 -0.0344855537843 0.847 2.13615689525e-38
0.0 -0.0344855537843 0.847 2.20069411641e-38
0.00156382381387 -0.0344041239052 0.845 2.1638883116e-38
0.00312764762774 -0.0344041239052 0.845 2.12711711885e-38
0.00469147144162 -0.0344041239052 0.845 2.18247387326e-38
0.00624048982293 -0.0343226940261 0.843 2.19190194946e-38
0.00780061227866 -0.0343226940261 0.843 2.34838284702e-38
0.0093607347344 -0.0343226940261 0.843 1.9615640749e-38
0.0108949476832 -0.0342412641471 0.841 4.78154425113e-39
0.0124513687807 -0.0342412641471 0.841 6.17531494011e-39
0.0140077898783 -0.0342412641471 0.841 6.42873696478e-40
0.0155271973945 -0.034159834268 0.839 2.19273488126e-38
0.0170392021945 -0.0340784043889 0.837 2.07198022818e-38
0.0185438042781 -0.0339969745099 0.835 2.11793314885e-38
0.0200891213013 -0.0339969745099 0.835 2.1454486251e-38
0.0216344383245 -0.0339969745099 0.835 2.16395837652e-38
0.0231242349755 -0.0339155446308 0.833 2.1088930922e-38
0.0246658506406 -0.0339155446308 0.833 2.66322938858e-39
0.0262074663056 -0.0339155446308 0.833 6.54303527532e-39
0.0276824575241 -0.0338341147517 0.831 7.73543096718e-39
0.0291500460264 -0.0337526848727 0.829 1.24259412649e-38
0.0306842589751 -0.0337526848727 0.829 1.76817129423e-38
0.0322184719239 -0.0337526848727 0.829 1.9621321613e-38
0.0337526848727 -0.0337526848727 0.829 2.10918021825e-38
0.0352868978214 -0.0337526848727 0.829 2.12740438504e-38
0.0367322781748 -0.0336712549936 0.827 2.06276052506e-38
0.0382627897654 -0.0336712549936 0.827 1.95209241832e-38
0.0397933013561 -0.0336712549936 0.827 2.0718000212e-38
0.0413238129467 -0.0336712549936 0.827 1.91517507015e-38
0.0428543245373 -0.0336712549936 0.827 2.34838536936e-38
0.0442774967419 -0.0335898251145 0.825 2.34968465329e-38
0.0458043069744 -0.0335898251145 0.825 1.68415126e-38
0.0473311172068 -0.0335898251145 0.825 2.02549187136e-38
-0.0127622828645 -0.0335009925192 0.862 2.3492156387e-38
-0.0111669975064 -0.0335009925192 0.862 2.35008009972e-38
-0.00950508770183 -0.0332678069564 0.856 1.94268718329e-38
-0.00792090641819 -0.0332678069564 0.856 2.18225148719e-38
-0.006321919702 -0.0331900784355 0.854 2.15470350081e-38
-0.0047414397765 -0.0331900784355 0.854 2.12708082522e-38
-0.003160959851 -0.0331900784355 0.854 2.16388228601e-38
-0.00157492788829 -0.0330734856541 0.851 2.15466692692e-38
0.0 -0.0330734856541 0.851 2.24678996953e-38
0.00156752517201 -0.0329180286122 0.847 2.19150790433e-38
0.00313505034402 -0.0329180286122 0.847 2.24700647014e-38
0.00470257551603 -0.0329180286122 0.847 2.14548421809e-38
0.00625529525549 -0.0328403000913 0.845 2.19165279859e-38
0.00781911906936 -0.0328403000913 0.845 2.10882148584e-38
0.0093607347344 -0.0327625715704 0.843 2.34856543621e-38
0.0109208571901 -0.0327625715704 0.843 2.08152755488e-38
0.0124809796459 -0.0327625715704 0.843 3.39791335785e-39
0.0140077898783 -0.0326848430495 0.841 0.0
0.0155271973945 -0.0326071145285 0.839 2.10068498644e-38
0.0170392021945 -0.0325293860076 0.837 2.12726187299e-38
0.0185882205758 -0.0325293860076 0.837 2.03506624312e-38
0.0200891213013 -0.0324516574867 0.835 2.07183533392e-38
0.0216344383245 -0.0324516574867 0.835 2.11786252341e-38
0.0231797553476 -0.0324516574867 0.835 1.97985298168e-38
0.0247250723708 -0.0324516574867 0.835 8.18413374195e-39
0.0262074663056 -0.0323739289658 0.833 1.4833317376e-38
0.0276824575241 -0.0322962004448 0.831 1.90689241532e-38
0.029220371831 -0.0322962004448 0.831 2.17368184643e-38
0.0306842589751 -0.0322184719239 0.829 2.20097928065e-38
0.0322184719239 -0.0322184719239 0.829 1.97052804105e-38
0.0337526848727 -0.0322184719239 0.829 2.06243584421e-38
0.0352868978214 -0.0322184719239 0.829 2.0994570286e-38
0.0368211107702 -0.0322184719239 0.829 2.06250618939e-38
0.0383553237189 -0.0322184719239 0.829 2.09012970576e-38
0.0398895366677 -0.0322184719239 0.829 2.02562387368e-38
0.0413238129467 -0.032140743403 0.827 2.08094517523e-38
0.0428543245373 -0.032140743403 0.827 2.34871201203e-38
0.0443848361279 -0.032140743403 0.827 2.34975611952e-38
-0.0127622828645 -0.0319057071611 0.862 2.34925053103e-38
-0.0111669975064 -0.0319057071611 0.862 2.34979129211e-38
-0.0095495039995 -0.0318316799983 0.86 2.02573751899e-38
-0.00795791999959 -0.0318316799983 0.86 2.13615689525e-38
-0.00636633599967 -0.0318316799983 0.86 2.13630347107e-38
-0.00476364792533 -0.0317576528356 0.858 2.15473881353e-38
-0.00316836256728 -0.0316836256728 0.856 2.13640758754e-38
-0.0015804799255 -0.03160959851 0.854 2.12715663547e-38
0.0 -0.03160959851 0.854 2.19176153935e-38
0.00157122653015 -0.031424530603 0.849 1.69462386407e-38
0.0031424530603 -0.031424530603 0.849 2.16471269548e-38
0.00471367959045 -0.031424530603 0.849 2.1916148234e-38
0.00627010068805 -0.0313505034402 0.847 2.10867659158e-38
0.00781911906936 -0.0312764762774 0.845 2.13644290026e-38
0.00938294288323 -0.0312764762774 0.845 2.13640758754e-38
0.0109208571901 -0.0312024491147 0.843 2.33912853183e-38
0.0124809796459 -0.0312024491147 0.843 2.14584547283e-38
0.0140411021016 -0.0312024491147 0.843 2.29588740395e-39
0.0155642109759 -0.0311284219519 0.841 2.10024609976e-38
0.017079917134 -0.0310543947891 0.839 2.23782446195e-38
0.0185882205758 -0.0309803676263 0.837 2.04428426468e-38
0.0201372389571 -0.0309803676263 0.837 2.05336061496e-38
0.0216862573384 -0.0309803676263 0.837 2.11786056159e-38
0.0232352757197 -0.0309803676263 0.837 1.79557312518e-38
0.024784294101 -0.0309803676263 0.837 1.4163886271e-38
0.026270389394 -0.0309063404635 0.835 2.19269536465e-38
0.0278157064172 -0.0309063404635 0.835 2.01680508205e-38
0.0292906976357 -0.0308323133007 0.833 2.17317850003e-38
0.0307582861379 -0.0307582861379 0.831 2.12722151559e-38
0.0322962004448 -0.0307582861379 0.831 2.09045200441e-38
0.0338341147517 -0.0307582861379 0.831 2.19179503038e-38
0.0353720290586 -0.0307582861379 0.831 2.04410461822e-38
0.0368211107702 -0.0306842589751 0.829 2.12700781757e-38
0.0383553237189 -0.0306842589751 0.829 2.07169071992e-38
0.0398895366677 -0.0306842589751 0.829 2.17324856495e-38
0.0414237496164 -0.0306842589751 0.829 2.08109048988e-38
-0.0111929070134 -0.0303807476077 0.864 2.34978933029e-38
-0.00959392029717 -0.0303807476077 0.864 2.06297702567e-38
-0.00799493358098 -0.0303807476077 0.864 2.08062301672e-38
-0.00639594686478 -0.0303807476077 0.864 2.10864155912e-38
-0.00477475199975 -0.0302400959984 0.86 2.19168965274e-38
-0.00318316799983 -0.0302400959984 0.86 2.10885651831e-38
-0.00158788264178 -0.0301697701938 0.858 2.16417515739e-38
0.0 -0.0301697701938 0.858 2.21985224863e-38
0.0015804799255 -0.0300291185845 0.854 2.93874989004e-39
0.003160959851 -0.0300291185845 0.854 1.60078240916e-38
0.00472478366487 -0.0299236298775 0.851 2.34863942477e-38
0.0062849061206 -0.0298533040729 0.849 2.2010536896e-38
0.00783762586006 -0.0297829782682 0.847 2.19186971959e-38
0.00940515103207 -0.0297829782682 0.847 2.21934890222e-38
0.0109467666971 -0.0297126524636 0.845 2.11822279724e-38
0.012510590511 -0.0297126524636 0.845 2.2199244155e-38
0.0140411021016 -0.0296423266589 0.843 1.99872903251e-38
0.0155642109759 -0.0295720008543 0.841 2.00751671531e-38
0.0171206320735 -0.0295720008543 0.841 2.11786084185e-38
0.0186326368734 -0.0295016750496 0.839 2.04406902524e-38
0.0201372389571 -0.029431349245 0.837 1.97974760404e-38
0.0216862573384 -0.029431349245 0.837 2.11789755587e-38
0.0232907960918 -0.0295016750496 0.839 1.44544399024e-38
0.0248435158313 -0.0295016750496 0.839 1.7846399143e-38
0.0263333124823 -0.029431349245 0.837 2.15556571976e-38
0.0278823308637 -0.029431349245 0.837 2.06264926196e-38
0.029431349245 -0.029431349245 0.837 2.17300263707e-38
0.0309063404635 -0.0293610234403 0.835 2.17324982612e-38
0.0324516574867 -0.0293610234403 0.835 2.20101487363e-38
0.0339155446308 -0.0292906976357 0.833 2.12718802456e-38
0.0353720290586 -0.029220371831 0.831 2.12711739911e-38
0.0369099433655 -0.029220371831 0.831 2.19154475848e-38
0.0384478576724 -0.029220371831 0.831 2.19158273367e-38
0.0398895366677 -0.0291500460264 0.829 2.12697278511e-38
0.0414237496164 -0.0291500460264 0.829 2.09027670197e-38
0.043165238621 -0.0292906976357 0.833 2.34903431068e-38
-0.0112317712738 -0.0288816975613 0.867 2.3492517922e-38
-0.00962723252043 -0.0288816975613 0.867 2.26584454578e-38
-0.00802269376702 -0.0288816975613 0.867 2.07147225749e-38
-0.00641815501362 -0.0288816975613 0.867 2.18242903171e-38
-0.00479696014859 -0.0287817608915 0.864 2.14559183781e-38
-0.00319057071611 -0.028715136445 0.862 2.13637199456e-38
-0.00159528535806 -0.028715136445 0.862 2.13637199456e-38
0.0 -0.0286485119985 0.86 2.34881851071e-38
0.00158788264178 -0.028581887552 0.858 7.35652546762e-39
0.00317576528356 -0.028581887552 0.858 5.32645877716e-39
0.00475254385092 -0.0285152631055 0.856 1.62098268704e-38
0.006321919702 -0.028448638659 0.854 9.19081254574e-39
0.00787463944145 -0.0283487019892 0.851 1.90628747477e-38
0.0094273591809 -0.0282820775427 0.849 2.09113723935e-38
0.0109726762041 -0.0282154530962 0.847 4.50460283303e-39
0.0125402013761 -0.0282154530962 0.847 5.23462328101e-39
0.0140744143248 -0.0281488286497 0.845 2.34849957518e-38
0.0156012245573 -0.0280822042032 0.843 2.21016381117e-38
0.0171206320735 -0.0280155797567 0.841 2.1546316142e-38
0.0186770531711 -0.0280155797567 0.841 2.04442831816e-38
0.0202334742687 -0.0280155797567 0.841 1.98007102372e-38
0.0217898953663 -0.0280155797567 0.841 2.08130671024e-38
0.0233463164639 -0.0280155797567 0.841 1.17833001839e-38
0.0249027375615 -0.0280155797567 0.841 1.83223585742e-38
0.0263962355707 -0.0279489553102 0.839 2.10003450369e-38
0.0279489553102 -0.0279489553102 0.839 2.16392152237e-38
0.0295016750496 -0.0279489553102 0.839 2.1177179094e-38
0.0310543947891 -0.0279489553102 0.839 2.19165405976e-38
0.0326071145285 -0.0279489553102 0.839 2.06265080339e-38
0.0339969745099 -0.0278157064172 0.835 2.13626241302e-38
0.035542291533 -0.0278157064172 0.835 2.14544708368e-38
0.0369987759609 -0.0277490819706 0.833 2.20998402458e-38
0.0385403916259 -0.0277490819706 0.833 2.15473699185e-38
0.0401782426026 -0.0278157064172 0.835 2.19147287187e-38
0.041623622956 -0.0277490819706 0.833 2.20987836668e-38
0.043165238621 -0.0277490819706 0.833 2.34914207053e-38
0.0448141936721 -0.0278157064172 0.835 2.35058386652e-38
-0.0112835902878 -0.0274030049846 0.871 2.34932115647e-38
-0.00964944066926 -0.0273400818963 0.869 2.31172221673e-38
-0.00804120055772 -0.0273400818963 0.869 2.04367245777e-38
-0.00643296044618 -0.0273400818963 0.869 2.28367046355e-38
-0.00482472033463 -0.0273400818963 0.869 2.15474161613e-38
-0.00321648022309 -0.0273400818963 0.869 2.15470378107e-38
-0.0016045387534 -0.0272771588079 0.867 2.14555708561e-38
0.0 -0.0272771588079 0.867 2.28377738262e-38
0.0015989867162 -0.0271827741753 0.864 2.00765992802e-38
0.00319057071611 -0.027119851087 0.862 4.86728129637e-39
0.00478585607417 -0.027119851087 0.862 1.6761284059e-38
0.00636633599967 -0.0270569279986 0.86 1.83670992316e-39
0.00795791999959 -0.0270569279986 0.86 1.7783720464e-38
0.0095495039995 -0.0270569279986 0.86 4.59179442608e-39
0.0111410879994 -0.0270569279986 0.86 1.94252140968e-38
0.0127030611342 -0.0269940049102 0.858 5.96932686845e-39
0.014290943776 -0.0269940049102 0.858 2.34764590416e-38
0.0156382381387 -0.0265850048358 0.845 2.16395837652e-38
0.0171613470131 -0.0265220817475 0.843 2.23764327406e-38
0.0187214694688 -0.0265220817475 0.843 2.11814824816e-38
0.0202815919245 -0.0265220817475 0.843 2.0260249253e-38
0.0218417143803 -0.0265220817475 0.843 2.03520665323e-38
0.023401836836 -0.0265220817475 0.843 1.15971222687e-38
0.0249619592917 -0.0265220817475 0.843 2.12773481122e-38
0.0265220817475 -0.0265220817475 0.843 2.17343031336e-38
0.0280822042032 -0.0265220817475 0.843 2.26530126237e-38
0.0296423266589 -0.0265220817475 0.843 2.1824684082e-38
0.0311284219519 -0.0264591586591 0.841 2.17324982612e-38
0.0326848430495 -0.0264591586591 0.841 2.16410299052e-38
0.034159834268 -0.0263962355707 0.839 2.15491860013e-38
0.0356274227702 -0.0263333124823 0.837 2.12697278511e-38
0.0370876085562 -0.026270389394 0.835 2.1731060529e-38
0.0386329255794 -0.026270389394 0.835 2.21001961756e-38
0.0401782426026 -0.026270389394 0.835 2.20076460172e-38
0.0417235596257 -0.026270389394 0.835 2.08076791098e-38
0.0432688766489 -0.026270389394 0.835 2.3493240992e-38
0.0448141936721 -0.026270389394 0.835 2.3503687672e-38
0.0463595106953 -0.026270389394 0.835 1.25104437662e-38
-0.0129547534877 -0.0259095069754 0.875 2.34867627892e-38
-0.0113094997948 -0.0258502852452 0.873 2.34896382536e-38
-0.00969385696694 -0.0258502852452 0.873 2.34889039732e-38
-0.00805970734842 -0.0257910635149 0.871 2.09895452297e-38
-0.00644776587873 -0.0257910635149 0.871 2.18207548411e-38
-0.00483582440905 -0.0257910635149 0.871 2.17303374589e-38
-0.00321648022309 -0.0257318417847 0.869 2.20072900874e-38
-0.00160824011154 -0.0257318417847 0.869 2.12708082522e-38
0.0 -0.0257318417847 0.869 2.2284600047e-38
0.0016045387534 -0.0256726200545 0.867 2.13648185636e-38
0.00320907750681 -0.0256726200545 0.867 6.52032022722e-39
0.00479696014859 -0.0255837874591 0.864 1.88645447722e-38
0.00639594686478 -0.0255837874591 0.864 2.02631359278e-38
0.00797642679028 -0.0255245657289 0.862 1.53721040238e-38
0.00957171214834 -0.0255245657289 0.862 1.01937989281e-38
0.0111669975064 -0.0255245657289 0.862 2.0883800445e-38
0.0127326719993 -0.0254653439987 0.86 4.86728129637e-39
0.0143242559993 -0.0254653439987 0.86 1.64746204322e-38
0.0159158399992 -0.0254653439987 0.86 2.28464254429e-38
0.0174667090596 -0.0254061222684 0.858 2.29314183987e-38
0.018965759106 -0.025287678808 0.854 2.15473853327e-38
0.0204740625478 -0.0251988462126 0.851 2.21938141234e-38
0.0219971714221 -0.0251396244824 0.849 2.0994917808e-38
0.0235128775802 -0.0250804027522 0.847 1.98925135035e-38
0.0250804027522 -0.0250804027522 0.847 2.16431584776e-38
0.0266479279242 -0.0250804027522 0.847 2.29299750613e-38
0.0282154530962 -0.0250804027522 0.847 2.26526594965e-38
0.0297829782682 -0.0250804027522 0.847 2.16395837652e-38
0.0312764762774 -0.025021181022 0.845 2.33909321911e-38
0.0328403000913 -0.025021181022 0.845 2.16385173771e-38
0.0343226940261 -0.0249619592917 0.843 2.27452250691e-38
0.0357976852446 -0.0249027375615 0.841 2.16406403442e-38
0.0372652737469 -0.0248435158313 0.839 2.24689114327e-38
0.0388179934863 -0.0248435158313 0.839 2.20998262328e-38
0.0403707132258 -0.0248435158313 0.839 2.21923918055e-38
0.0418234962955 -0.024784294101 0.837 2.19143783941e-38
0.0432688766489 -0.0247250723708 0.835 2.34892795212e-38
0.0448141936721 -0.0247250723708 0.835 2.35040323915e-38
0.0463595106953 -0.0247250723708 0.835 1.4264636828e-38
-0.0129547534877 -0.0242901627894 0.875 2.34871117125e-38
-0.0113354093017 -0.0242901627894 0.875 2.34846075921e-38
-0.00971606511577 -0.0242901627894 0.875 2.34853390699e-38
-0.00809672092981 -0.0242901627894 0.875 2.04385266475e-38
-0.00646257131129 -0.0242346424173 0.873 2.17296312045e-38
-0.00483582440905 -0.0241791220453 0.871 2.19150818459e-38
-0.00322388293937 -0.0241791220453 0.871 2.17321325223e-38
-0.00161194146968 -0.0241791220453 0.871 2.17317850003e-38
0.0 -0.0241236016732 0.869 2.24707989818e-38
0.00160824011154 -0.0241236016732 0.869 2.24722030828e-38
0.00321648022309 -0.0241236016732 0.869 2.03549784305e-38
0.00481361626021 -0.0240680813011 0.867 2.10929092083e-38
0.00641815501362 -0.0240680813011 0.867 2.22878244348e-38
0.00799493358098 -0.0239848007429 0.864 2.2470067504e-38
0.00959392029717 -0.0239848007429 0.864 2.34852914258e-38
0.0111669975064 -0.0239292803708 0.862 2.2381120084e-38
0.0127622828645 -0.0239292803708 0.862 2.09081550123e-38
0.0143575682225 -0.0239292803708 0.862 1.9253259361e-38
0.0159158399992 -0.0238737599988 0.86 2.2015222838e-38
0.0175074239991 -0.0238737599988 0.86 1.91517689184e-38
0.0190545917013 -0.0238182396267 0.858 2.08144894203e-38
0.0205462390315 -0.0237071988825 0.854 2.12765437669e-38
0.022126718957 -0.0237071988825 0.854 2.21967050022e-38
0.0236239183244 -0.0236239183244 0.851 2.29325128128e-38
0.0251396244824 -0.0235683979523 0.849 2.22864175311e-38
0.0267108510126 -0.0235683979523 0.849 2.23757643212e-38
0.0282820775427 -0.0235683979523 0.849 2.30228713404e-38
0.0298533040729 -0.0235683979523 0.849 2.17335520376e-38
0.031424530603 -0.0235683979523 0.849 2.21919938367e-38
0.0329180286122 -0.0235128775802 0.847 2.19143755915e-38
0.0344041239052 -0.0234573572081 0.845 2.32051298238e-38
0.0359679477191 -0.0234573572081 0.845 2.16406823832e-38
0.0374429389376 -0.023401836836 0.843 2.27441418654e-38
0.0389105274398 -0.0233463164639 0.841 2.24682948614e-38
0.0404669485374 -0.0233463164639 0.841 2.17310759432e-38
