# .PCD v0.7 - Point Cloud Data file format
VERSION 0.7
FIELDS x y z rgb
SIZE 4 4 4 4
TYPE F F F F
COUNT 1 1 1 1
WIDTH 854
HEIGHT 1
VIEWPOINT 0 0 0 1 0 0 0
POINTS 854
DATA ascii
0.0030388150324 -0.158018381685 0.821 2.02790728953e-38
0.0045582225486 -0.158018381685 0.821 1.97241012502e-38
0.0060776300648 -0.158018381685 0.821 1.97241012502e-38
0.007597037581 -0.158018381685 0.821 1.99095673058e-38
0.0091164450972 -0.158018381685 0.821 2.03698223851e-38
0.0106617621204 -0.158403322931 0.823 2.16605584006e-38
0.0121848709947 -0.158403322931 0.823 2.10166253225e-38
0.0137079798691 -0.158403322931 0.823 1.40119532876e-38
0.0152310887434 -0.158403322931 0.823 3.33368904663e-42
0.0167134826782 -0.158018381685 0.821 6.63975289533e-39
0.0182328901944 -0.158018381685 0.821 2.08326194198e-38
0.0197522977106 -0.158018381685 0.821 2.12010319965e-38
0.0212198862128 -0.157633440438 0.819 1.9908126771e-38
0.0226245516267 -0.156863557945 0.815 1.87110241176e-38
0.0238959681476 -0.155323792959 0.807 1.98173940967e-38
0.0253265430684 -0.154938851713 0.805 1.95415050538e-38
0.0268163397195 -0.154938851713 0.805 1.98180975486e-38
0.0283061363706 -0.154938851713 0.805 1.9080182185e-38
0.0296848922775 -0.154361439843 0.802 1.91727309421e-38
0.0311691368914 -0.154361439843 0.802 1.92638475722e-38
0.0326533815053 -0.154361439843 0.802 1.95404330604e-38
0.0341376261192 -0.154361439843 0.802 1.87121171304e-38
0.0355330381377 -0.153976498597 0.8 1.88968671225e-38
0.0370135813934 -0.153976498597 0.8 1.8157519632e-38
0.0384941246492 -0.153976498597 0.8 2.03680441374e-38
0.0399746679049 -0.153976498597 0.8 2.1290333945e-38
0.0415588491885 -0.154361439843 0.802 2.21197456905e-38
-0.0410240029374 -0.156498974169 0.821 2.28243493869e-41
-0.0395045954212 -0.156498974169 0.821 3.79383202206e-39
-0.0378926539515 -0.15611773428 0.819 1.38312222194e-38
-0.0363769477935 -0.15611773428 0.819 1.42946932787e-38
-0.0348612416354 -0.15611773428 0.819 3.50813809375e-39
-0.0333455354773 -0.15611773428 0.819 7.37973657539e-39
-0.0318298293193 -0.15611773428 0.819 1.27327653727e-38
-0.0303141231612 -0.15611773428 0.819 8.21696756627e-39
-0.0287984170032 -0.15611773428 0.819 1.39742387407e-39
-0.0272827108451 -0.15611773428 0.819 4.25875622785e-39
-0.025767004687 -0.15611773428 0.819 1.57967114715e-39
-0.024251298529 -0.15611773428 0.819 2.10026613833e-41
-0.022791112743 -0.156498974169 0.821 2.53158580565e-41
-0.0212717052268 -0.156498974169 0.821 2.32624092999e-39
-0.0197522977106 -0.156498974169 0.821 4.16329837516e-39
-0.0182328901944 -0.156498974169 0.821 4.72241786373e-40
-0.0167134826782 -0.156498974169 0.821 4.62428493227e-44
-0.015194075162 -0.156498974169 0.821 1.29796951816e-39
-0.0136746676458 -0.156498974169 0.821 5.43711651429e-39
-0.0121552601296 -0.156498974169 0.821 2.11081357174e-38
-0.0106358526134 -0.156498974169 0.821 2.0922271693e-38
-0.0091164450972 -0.156498974169 0.821 1.66766414279e-38
-0.007597037581 -0.156498974169 0.821 1.63189613961e-38
-0.0060776300648 -0.156498974169 0.821 1.30974603046e-38
-0.0045582225486 -0.156498974169 0.821 1.68685366409e-38
-0.0030388150324 -0.156498974169 0.821 2.11031498975e-38
-0.0015194075162 -0.156498974169 0.821 1.96329846201e-38
0.0 -0.156498974169 0.821 1.9909211376e-38
0.0015194075162 -0.156498974169 0.821 1.96329874227e-38
0.0030388150324 -0.156498974169 0.821 1.97240970463e-38
0.0045582225486 -0.156498974169 0.821 1.97240970463e-38
0.0060776300648 -0.156498974169 0.821 2.06464134786e-38
0.007597037581 -0.156498974169 0.821 2.07393279746e-38
0.0091164450972 -0.156498974169 0.821 2.15673061917e-38
0.0106358526134 -0.156498974169 0.821 1.77919390795e-38
0.0121552601296 -0.156498974169 0.821 9.38869971098e-44
0.0136746676458 -0.156498974169 0.821 1.47136338754e-43
0.015194075162 -0.156498974169 0.821 1.65041317778e-38
0.0167134826782 -0.156498974169 0.821 2.15680124461e-38
0.0182328901944 -0.156498974169 0.821 2.06435450207e-38
0.019656062399 -0.155736494392 0.817 1.92634916423e-38
0.0211162481849 -0.155355254504 0.815 1.8619529137e-38
0.0224024701384 -0.15383029495 0.807 1.92641978968e-38
0.0237775246871 -0.153067815173 0.803 1.95411519266e-38
0.0252636199801 -0.153067815173 0.803 2.03716370666e-38
0.026749715273 -0.153067815173 0.803 2.03712685251e-38
0.0282006476636 -0.152877195229 0.802 1.88954349955e-38
0.0296848922775 -0.152877195229 0.802 1.92638293553e-38
0.0311691368914 -0.152877195229 0.802 1.95404330604e-38
0.0326533815053 -0.152877195229 0.802 2.00017601331e-38
0.0341376261192 -0.152877195229 0.802 1.87110269202e-38
0.0355330381377 -0.152495955341 0.8 1.90805297071e-38
0.0370135813934 -0.152495955341 0.8 1.87103206658e-38
0.0384941246492 -0.152495955341 0.8 1.93542425335e-38
0.0399746679049 -0.152495955341 0.8 1.88025036839e-38
0.0414552111606 -0.152495955341 0.8 2.0186156998e-38
-0.0454711847418 -0.154602028122 0.819 1.36279414564e-38
-0.0439554785838 -0.154602028122 0.819 1.60286585972e-38
-0.0424397724257 -0.154602028122 0.819 6.910067573e-39
-0.0409240662676 -0.154602028122 0.819 4.83588100038e-42
-0.0394083601096 -0.154602028122 0.819 1.56216752803e-41
-0.0378926539515 -0.154602028122 0.819 1.63265284078e-41
-0.0362881151981 -0.154224489592 0.817 4.81983893557e-39
-0.0347761103982 -0.154224489592 0.817 1.58619671384e-38
-0.0332641055983 -0.154224489592 0.817 9.40795495317e-39
-0.0317521007983 -0.154224489592 0.817 2.7728081259e-39
-0.0302400959984 -0.154224489592 0.817 7.39125665006e-39
-0.0286577653939 -0.153846951062 0.815 1.3104396732e-38
-0.0271494619521 -0.153846951062 0.815 7.19962067728e-39
-0.0257040815987 -0.154224489592 0.817 3.14267945426e-39
-0.0241920767987 -0.154224489592 0.817 1.40682518547e-39
-0.0227355923709 -0.154602028122 0.819 2.78398908634e-39
-0.0212198862128 -0.154602028122 0.819 2.23153837717e-39
-0.0197041800548 -0.154602028122 0.819 2.7814751569e-39
-0.0181884738967 -0.154602028122 0.819 4.43775529109e-39
-0.0166727677387 -0.154602028122 0.819 3.88168502798e-39
-0.0151570615806 -0.154602028122 0.819 7.84727140022e-44
-0.0136413554225 -0.154602028122 0.819 7.84727140022e-44
-0.0121256492645 -0.154602028122 0.819 2.12171301133e-39
-0.0106099431064 -0.154602028122 0.819 1.76993328692e-38
-0.00909423694836 -0.154602028122 0.819 2.16595340514e-38
-0.0075785307903 -0.154602028122 0.819 1.39150731169e-38
-0.00606282463224 -0.154602028122 0.819 1.58511421077e-38
-0.0045582225486 -0.154979566652 0.821 1.35448066224e-38
-0.0030388150324 -0.154979566652 0.821 2.05509486194e-38
-0.00151570615806 -0.154602028122 0.819 2.03709210031e-38
0.0 -0.154602028122 0.819 2.0554580785e-38
0.00151570615806 -0.154602028122 0.819 1.90791073891e-38
0.00303141231612 -0.154602028122 0.819 2.00006909424e-38
0.00454711847418 -0.154602028122 0.819 1.98166500072e-38
0.00606282463224 -0.154602028122 0.819 2.11073916279e-38
0.0075785307903 -0.154602028122 0.819 1.99110092419e-38
0.00909423694836 -0.154602028122 0.819 9.21855124884e-39
0.0106358526134 -0.154979566652 0.821 1.82168800362e-43
0.0121552601296 -0.154979566652 0.821 7.57389348411e-39
0.0136413554225 -0.154602028122 0.819 2.20275906983e-38
0.0151570615806 -0.154602028122 0.819 2.09215738464e-38
0.0166727677387 -0.154602028122 0.819 2.00914572478e-38
0.0180996413014 -0.153846951062 0.815 1.99081295736e-38
0.0195117094315 -0.153091874001 0.811 1.69593267684e-38
0.0209089721291 -0.152336796941 0.807 1.92641796799e-38
0.0223469497663 -0.151959258411 0.805 1.92631385151e-38
0.0237775246871 -0.15158171988 0.803 2.08311746811e-38
0.0252321584359 -0.151392950615 0.802 1.94482528449e-38
0.0267164030498 -0.151392950615 0.802 2.0278372246e-38
0.0282006476636 -0.151392950615 0.802 1.96330000344e-38
0.0296108651147 -0.151015412085 0.8 2.00939725785e-38
0.0310914083705 -0.151015412085 0.8 1.92649237694e-38
0.0325719516262 -0.151015412085 0.8 1.9265274094e-38
0.0340524948819 -0.151015412085 0.8 1.9633350359e-38
0.0355330381377 -0.151015412085 0.8 1.88046658875e-38
0.0369210474399 -0.150637873555 0.798 1.88957881227e-38
0.0383978893375 -0.150637873555 0.798 1.92631385151e-38
0.0398747312351 -0.150637873555 0.798 1.83415395476e-38
0.0412479351048 -0.150260335025 0.796 1.89869117592e-38
0.0427210756443 -0.150260335025 0.796 2.14765426889e-38
0.0441942161837 -0.150260335025 0.796 1.78783893857e-38
0.0456673567232 -0.150260335025 0.796 1.34417355152e-38
-0.0454711847418 -0.153086321964 0.819 1.25220100837e-38
-0.0439554785838 -0.153086321964 0.819 1.40893259823e-38
-0.0424397724257 -0.153086321964 0.819 1.5296195686e-38
-0.0409240662676 -0.153086321964 0.819 1.29045169203e-38
-0.0394083601096 -0.153086321964 0.819 8.31590764564e-40
-0.037800119998 -0.152712484792 0.817 2.66526967915e-42
-0.0362881151981 -0.152712484792 0.817 1.59944206718e-41
-0.0347761103982 -0.152712484792 0.817 1.8499942326e-41
-0.0332641055983 -0.152712484792 0.817 9.78330115463e-39
-0.0317521007983 -0.152712484792 0.817 1.43868790995e-38
-0.0301660688356 -0.15233864762 0.815 5.90561262987e-39
-0.0286577653939 -0.15233864762 0.815 1.48299416479e-41
-0.0271494619521 -0.15233864762 0.815 1.11665733155e-38
-0.0256411585103 -0.15233864762 0.815 1.42028479735e-38
-0.0241328550685 -0.15233864762 0.815 8.29839001354e-39
-0.0227355923709 -0.153086321964 0.819 4.89221179735e-39
-0.0211680671989 -0.152712484792 0.817 2.41593243949e-39
-0.019656062399 -0.152712484792 0.817 3.14918147913e-39
-0.0181440575991 -0.152712484792 0.817 1.95100402981e-39
-0.0166320527991 -0.152712484792 0.817 2.23009924365e-39
-0.0151200479992 -0.152712484792 0.817 2.87222464675e-39
-0.0136080431993 -0.152712484792 0.817 5.51551075558e-42
-0.0120960383994 -0.152712484792 0.817 3.78350585368e-44
-0.0105840335994 -0.152712484792 0.817 2.50369436102e-39
-0.00907202879953 -0.152712484792 0.817 8.6653382333e-39
-0.00756002399961 -0.152712484792 0.817 2.15655335492e-38
-0.00604801919968 -0.152712484792 0.817 2.17517016553e-38
-0.00453601439976 -0.152712484792 0.817 2.19357005515e-38
-0.00302400959984 -0.152712484792 0.817 1.87135450535e-38
-0.00151200479992 -0.152712484792 0.817 2.00042782664e-38
0.0 -0.152712484792 0.817 2.13839911292e-38
0.00151200479992 -0.152712484792 0.817 2.14754482748e-38
0.00302400959984 -0.152712484792 0.817 2.03701965318e-38
0.00453601439976 -0.152712484792 0.817 2.08318963498e-38
0.00604801919968 -0.152712484792 0.817 1.32783595285e-38
0.00756002399961 -0.152712484792 0.817 3.74286819821e-42
0.00909423694836 -0.153086321964 0.819 2.58204656335e-39
0.0106099431064 -0.153086321964 0.819 1.99124637897e-38
0.0121256492645 -0.153086321964 0.819 2.2030054181e-38
0.0136413554225 -0.153086321964 0.819 2.0276189023e-38
0.0151200479992 -0.152712484792 0.817 1.97233837854e-38
0.0166320527991 -0.152712484792 0.817 1.95386337932e-38
0.018010808706 -0.151590973276 0.811 2.09215584321e-38
0.0194154741199 -0.150843298932 0.807 1.41041391084e-38
0.0208571531152 -0.15046946176 0.805 1.93582502471e-38
0.0222636692081 -0.149908706001 0.802 1.96322839709e-38
0.023747913822 -0.149908706001 0.802 2.00936054383e-38
0.0251692353475 -0.149534868829 0.8 1.99088610514e-38
0.0266497786033 -0.149534868829 0.8 2.00936082409e-38
0.028130321859 -0.149534868829 0.8 2.00017657383e-38
0.0295368379519 -0.149161031657 0.798 1.94478857047e-38
0.0310136798495 -0.149161031657 0.798 1.97240970463e-38
0.0324905217471 -0.149161031657 0.798 1.81574874021e-38
0.0339673636447 -0.149161031657 0.798 1.88943630022e-38
0.0354442055423 -0.149161031657 0.798 1.87124702576e-38
0.0369210474399 -0.149161031657 0.798 1.88957881227e-38
0.0383978893375 -0.149161031657 0.798 1.88035924928e-38
0.0398747312351 -0.149161031657 0.798 1.76046961774e-38
0.0412479351048 -0.148787194485 0.796 1.88950692566e-38
0.0427210756443 -0.148787194485 0.796 2.09229905591e-38
0.0441942161837 -0.148787194485 0.796 2.02765519593e-38
-0.0471016330022 -0.15194075162 0.821 1.38127040602e-38
-0.045582225486 -0.15194075162 0.821 1.2429458524e-38
-0.0439554785838 -0.151570615806 0.819 1.27056852799e-38
-0.0424397724257 -0.151570615806 0.819 1.48363091482e-38
-0.0409240662676 -0.151570615806 0.819 1.400941974e-38
-0.0394083601096 -0.151570615806 0.819 1.51172162409e-38
-0.037800119998 -0.151200479992 0.817 9.77060819314e-39
-0.0361992826028 -0.150830344178 0.815 5.32493416443e-44
-0.034690979161 -0.150830344178 0.815 1.02042554172e-41
-0.0331826757192 -0.150830344178 0.815 1.38027898736e-41
-0.0316743722774 -0.150830344178 0.815 2.50920286528e-39
-0.0301660688356 -0.150830344178 0.815 1.30979703772e-38
-0.0285874395892 -0.150460208364 0.813 1.27288025007e-38
-0.0270828375056 -0.150460208364 0.813 3.69395727661e-39
-0.0256411585103 -0.150830344178 0.815 8.48350294198e-39
-0.0241328550685 -0.150830344178 0.815 1.41992340247e-38
-0.0226800719988 -0.151200479992 0.817 5.07511487811e-39
-0.0211680671989 -0.151200479992 0.817 2.8761903214e-39
-0.019656062399 -0.151200479992 0.817 1.63349361986e-41
-0.0181440575991 -0.151200479992 0.817 1.09644598341e-40
-0.0166320527991 -0.151200479992 0.817 9.21715975947e-39
-0.0151200479992 -0.151200479992 0.817 2.20815911359e-39
-0.013574730976 -0.150830344178 0.815 9.39029719123e-40
-0.0120664275343 -0.150830344178 0.815 2.68422504347e-39
-0.0105581240925 -0.150830344178 0.815 7.00649232162e-44
-0.00904982065069 -0.150830344178 0.815 7.42688186092e-44
-0.00754151720891 -0.150830344178 0.815 4.23717062631e-39
-0.00603321376713 -0.150830344178 0.815 1.87156750272e-38
-0.00452491032535 -0.150830344178 0.815 2.19385746146e-38
-0.00301660688356 -0.150830344178 0.815 1.47454951986e-38
-0.00150830344178 -0.150830344178 0.815 2.09212235217e-38
0.0 -0.150830344178 0.815 2.07375329113e-38
0.00150830344178 -0.150830344178 0.815 1.9263841967e-38
0.00301660688356 -0.150830344178 0.815 2.0648931612e-38
0.00452491032535 -0.150830344178 0.815 1.68689135902e-38
0.00603321376713 -0.150830344178 0.815 8.40779078595e-44
0.00754151720891 -0.150830344178 0.815 1.3285653287e-38
0.00904982065069 -0.150830344178 0.815 2.23041551671e-38
0.0105581240925 -0.150830344178 0.815 2.06442456699e-38
0.0120664275343 -0.150830344178 0.815 2.07378832359e-38
0.0135414187528 -0.150460208364 0.813 1.93556900748e-38
0.0149719936736 -0.149719936736 0.809 2.0277273628e-38
0.0163877631619 -0.148979665109 0.805 2.04612991489e-38
0.0178331435154 -0.148609529295 0.803 1.9631904219e-38
0.0192951799804 -0.148424461388 0.802 7.74337352688e-39
0.0207276055803 -0.148054325574 0.8 1.87132746029e-38
0.022152628464 -0.14768418976 0.798 1.95411575318e-38
0.0236294703616 -0.14768418976 0.798 1.93574865394e-38
0.0251063122592 -0.14768418976 0.798 1.98184632875e-38
0.0265831541568 -0.14768418976 0.798 1.94482388319e-38
0.0279896702497 -0.147314053946 0.796 1.89879837526e-38
0.0294628107892 -0.147314053946 0.796 1.97248299254e-38
0.0310136798495 -0.14768418976 0.798 1.9724832728e-38
0.0324905217471 -0.14768418976 0.798 1.94486031695e-38
0.0339673636447 -0.14768418976 0.798 1.96337034862e-38
0.0354442055423 -0.14768418976 0.798 1.96333377473e-38
0.0369210474399 -0.14768418976 0.798 1.8803236563e-38
0.0383978893375 -0.14768418976 0.798 1.88028694228e-38
0.0397747945654 -0.147314053946 0.796 1.82497124592e-38
0.0411442970769 -0.146943918132 0.794 1.96311979646e-38
0.0426137362582 -0.146943918132 0.794 2.07396937135e-38
0.0439721346954 -0.146573782318 0.792 1.81585734084e-38
0.0454378725186 -0.146573782318 0.792 1.29847384548e-38
-0.0471016330022 -0.150421344104 0.821 1.51034400757e-38
-0.045582225486 -0.150421344104 0.821 1.45509893666e-38
-0.0440628179698 -0.150421344104 0.821 1.55662006767e-38
-0.0424397724257 -0.150054909648 0.819 1.34519467771e-38
-0.0409240662676 -0.150054909648 0.819 1.29967279645e-38
-0.0394083601096 -0.150054909648 0.819 1.28130639786e-38
-0.037800119998 -0.149688475192 0.817 1.42874541709e-38
-0.0361992826028 -0.149322040736 0.815 1.41948998086e-38
-0.034690979161 -0.149322040736 0.815 5.43705625846e-39
-0.0331826757192 -0.149322040736 0.815 1.41531144897e-43
-0.0316743722774 -0.149322040736 0.815 1.37915794859e-41
-0.0300920416729 -0.148955606281 0.813 1.48930000788e-41
-0.0285874395892 -0.148955606281 0.813 4.90342218507e-39
-0.0270828375056 -0.148955606281 0.813 6.36486017559e-39
-0.0255782354219 -0.148955606281 0.813 5.62668977574e-40
-0.0240736333383 -0.148955606281 0.813 1.84915345352e-41
-0.0226245516267 -0.149322040736 0.815 2.32014948556e-39
-0.0211162481849 -0.149322040736 0.815 1.63251271094e-41
-0.0195598270874 -0.148955606281 0.813 8.21122644646e-39
-0.0180552250037 -0.148955606281 0.813 2.1846023055e-38
-0.0165913378596 -0.149322040736 0.815 2.25821657759e-38
-0.0150830344178 -0.149322040736 0.815 1.73288351604e-38
-0.013574730976 -0.149322040736 0.815 1.02316297827e-38
-0.0120664275343 -0.149322040736 0.815 3.95773209434e-39
-0.0105322145855 -0.148955606281 0.813 1.57863418628e-39
-0.00902761250186 -0.148955606281 0.813 4.07777853119e-42
-0.00752301041821 -0.148955606281 0.813 3.78350585368e-44
-0.00601840833457 -0.148955606281 0.813 2.58870553365e-39
-0.00451380625093 -0.148955606281 0.813 1.2449942705e-38
-0.00300920416729 -0.148955606281 0.813 2.35023452281e-38
-0.00150460208364 -0.148955606281 0.813 1.64929760407e-38
0.0 -0.148955606281 0.813 1.5289711878e-38
0.00150460208364 -0.148955606281 0.813 1.26203518086e-38
0.00300920416729 -0.148955606281 0.813 2.1014486941e-38
0.00451380625093 -0.148955606281 0.813 2.01886751313e-38
0.00601840833457 -0.148955606281 0.813 2.16641555338e-38
0.00752301041821 -0.148955606281 0.813 2.13832526449e-38
0.00902761250186 -0.148955606281 0.813 2.0183640266e-38
0.0105322145855 -0.148955606281 0.813 2.10141338138e-38
0.0120368166691 -0.148955606281 0.813 1.92631259034e-38
0.0134747943063 -0.148222737369 0.809 2.0092157897e-38
0.0148979665109 -0.147489868457 0.805 2.01847094567e-38
0.0163470482224 -0.147123434002 0.803 1.62207051504e-38
0.0177665190688 -0.146573782318 0.8 1.34555172856e-38
0.0191989446688 -0.146207347862 0.798 9.67947194492e-39
0.0206757865664 -0.146207347862 0.798 1.33709026804e-38
0.0220971080919 -0.145840913406 0.796 1.95440245884e-38
0.0235702486313 -0.145840913406 0.796 1.94496849719e-38
0.0250433891708 -0.145840913406 0.796 1.99106463056e-38
0.0265165297102 -0.145840913406 0.796 2.04638172822e-38
0.0279896702497 -0.145840913406 0.796 1.9910643503e-38
0.0294628107892 -0.145840913406 0.796 1.88046714927e-38
0.0309359513286 -0.145840913406 0.796 1.90808828343e-38
0.0324090918681 -0.145840913406 0.796 1.86202774303e-38
0.0338822324075 -0.145840913406 0.796 1.93553369476e-38
0.035355372947 -0.145840913406 0.796 1.87103178632e-38
0.036735979533 -0.145474478951 0.794 1.92634916423e-38
0.0382054187143 -0.145474478951 0.794 1.88028722254e-38
0.0396748578956 -0.145474478951 0.794 1.96308350283e-38
0.0411442970769 -0.145474478951 0.794 2.09222744956e-38
0.0426137362582 -0.145474478951 0.794 2.16602052734e-38
0.0439721346954 -0.145108044495 0.792 1.64068592436e-38
0.0454378725186 -0.145108044495 0.792 1.18791560054e-38
0.0470220538022 -0.145474478951 0.794 1.48232602569e-38
-0.0473311172068 -0.149627402783 0.825 1.58409672796e-38
-0.045582225486 -0.148901936588 0.821 1.49190516186e-38
-0.0440628179698 -0.148901936588 0.821 1.56576676313e-38
-0.0424397724257 -0.14853920349 0.819 1.37281609213e-38
-0.0409240662676 -0.14853920349 0.819 1.29967153528e-38
-0.0394083601096 -0.14853920349 0.819 1.27204956034e-38
-0.037800119998 -0.148176470392 0.817 1.34584137695e-38
-0.0361992826028 -0.147813737295 0.815 1.32733008411e-38
-0.034690979161 -0.147813737295 0.815 1.53912779907e-38
-0.0331826757192 -0.147813737295 0.815 1.23513431411e-38
-0.0315966437565 -0.147451004197 0.813 1.86957037215e-40
-0.0300920416729 -0.147451004197 0.813 8.40498818902e-42
-0.0285171137846 -0.147088271099 0.811 1.73971204346e-41
-0.0270162130591 -0.147088271099 0.811 4.80174536979e-40
-0.0255153123336 -0.147088271099 0.811 1.76875115154e-39
-0.0240144116081 -0.147088271099 0.811 2.04460936592e-39
-0.0225690312546 -0.147451004197 0.813 1.45286624781e-41
-0.021064429171 -0.147451004197 0.813 5.1667429821e-39
-0.0195598270874 -0.147451004197 0.813 2.22119917671e-38
-0.0180552250037 -0.147451004197 0.813 1.89843908233e-38
-0.0165506229201 -0.147451004197 0.813 1.45593705327e-38
-0.0150460208364 -0.147451004197 0.813 1.87110843734e-38
-0.0135414187528 -0.147451004197 0.813 2.17545532977e-38
-0.0120368166691 -0.147451004197 0.813 2.1843154597e-38
-0.0105063050785 -0.147088271099 0.811 1.14290126958e-38
-0.00900540435302 -0.147088271099 0.811 5.0726570006e-39
-0.00750450362752 -0.147088271099 0.811 3.06604103994e-42
-0.00600360290201 -0.147088271099 0.811 1.0369608636e-43
-0.00450270217651 -0.147088271099 0.811 1.84824120822e-39
-0.00300180145101 -0.147088271099 0.811 5.70439738078e-39
-0.0015009007255 -0.147088271099 0.811 2.26722454451e-38
0.0 -0.147088271099 0.811 2.2672934884e-38
0.0015009007255 -0.147088271099 0.811 2.17498841712e-38
0.00300180145101 -0.147088271099 0.811 1.59455307697e-38
0.00450270217651 -0.147088271099 0.811 8.76002677314e-39
0.00600360290201 -0.147088271099 0.811 1.76032920764e-38
0.00750450362752 -0.147088271099 0.811 2.09183943001e-38
0.00900540435302 -0.147088271099 0.811 1.94485919591e-38
0.0105063050785 -0.147088271099 0.811 1.99088484397e-38
0.012007205804 -0.147088271099 0.811 1.99095673058e-38
0.013441482083 -0.146362804904 0.807 1.91705771464e-38
0.0148609529295 -0.145637338709 0.803 1.6498714358e-38
0.0162859758131 -0.145093239062 0.8 1.2998472581e-38
0.0177221027712 -0.144730505965 0.798 1.78827081875e-38
0.0191989446688 -0.144730505965 0.798 1.08762354841e-38
0.0206239675524 -0.144367772867 0.796 1.06036142692e-38
0.0220971080919 -0.144367772867 0.796 1.11564139016e-38
0.0235702486313 -0.144367772867 0.796 1.89916117143e-38
0.0249804660824 -0.144005039769 0.794 2.00950305589e-38
0.0264499052637 -0.144005039769 0.794 2.06460757657e-38
0.0279193444451 -0.144005039769 0.794 2.02790728953e-38
0.0293887836264 -0.144005039769 0.794 1.88961384473e-38
0.0308582228077 -0.144005039769 0.794 1.96330000344e-38
0.032327661989 -0.144005039769 0.794 1.91727309421e-38
0.0337119699331 -0.143642306672 0.792 1.99106631212e-38
0.0351777077563 -0.143642306672 0.792 1.89883340772e-38
0.0366434455795 -0.143642306672 0.792 1.95411575318e-38
0.0382054187143 -0.144005039769 0.794 2.01861541954e-38
0.0396748578956 -0.144005039769 0.794 1.98159437528e-38
0.0411442970769 -0.144005039769 0.794 1.93581927939e-38
0.0426137362582 -0.144005039769 0.794 1.82529200314e-38
0.0439721346954 -0.143642306672 0.792 1.80664184162e-38
0.0454378725186 -0.143642306672 0.792 2.00936054383e-38
0.0470220538022 -0.144005039769 0.794 1.31702031091e-38
-0.0473311172068 -0.14810059255 0.825 1.49197802938e-38
-0.0458043069744 -0.14810059255 0.825 1.48275972756e-38
-0.0441701573558 -0.147741560811 0.823 1.53821597416e-38
-0.0425434104536 -0.147382529071 0.821 1.36359624888e-38
-0.0410240029374 -0.147382529071 0.821 1.29045169203e-38
-0.0394083601096 -0.147023497332 0.819 1.31814737527e-38
-0.037800119998 -0.146664465592 0.817 1.38271794734e-38
-0.0361992826028 -0.146305433853 0.815 1.36420973735e-38
-0.034690979161 -0.146305433853 0.815 1.34576906995e-38
-0.0331826757192 -0.146305433853 0.815 1.38264746202e-38
-0.0315966437565 -0.145946402113 0.813 1.47477204606e-38
-0.0300920416729 -0.145946402113 0.813 7.37386793742e-39
-0.0285171137846 -0.145587370374 0.811 2.26169572142e-42
-0.0270162130591 -0.145587370374 0.811 1.66978725009e-41
-0.0254523892452 -0.145228338634 0.809 2.04354297779e-39
-0.0239551898778 -0.145228338634 0.809 1.70327828339e-41
-0.0225135108825 -0.145587370374 0.811 7.3414026546e-42
-0.021012610157 -0.145587370374 0.811 1.94518934183e-38
-0.0194635917757 -0.145228338634 0.809 1.91702086049e-38
-0.0179663924084 -0.145228338634 0.809 1.96311853529e-38
-0.016469193041 -0.145228338634 0.809 1.99095673058e-38
-0.0149719936736 -0.145228338634 0.809 1.65916582812e-38
-0.0134747943063 -0.145228338634 0.809 1.99098994136e-38
-0.0119775949389 -0.145228338634 0.809 1.87128261874e-38
-0.0104803955715 -0.145228338634 0.809 1.60402024939e-38
-0.00898319620418 -0.145228338634 0.809 1.84344722605e-38
-0.00750450362752 -0.145587370374 0.811 1.41030825293e-38
-0.00600360290201 -0.145587370374 0.811 7.65011150889e-39
-0.00450270217651 -0.145587370374 0.811 1.73761009576e-43
-0.00300180145101 -0.145587370374 0.811 2.38220738935e-44
-0.0015009007255 -0.145587370374 0.811 2.21357653345e-39
0.0 -0.145228338634 0.809 1.75239267352e-38
0.00149719936736 -0.145228338634 0.809 2.35051870614e-38
0.00300180145101 -0.145587370374 0.811 1.63999774669e-38
0.00450270217651 -0.145587370374 0.811 1.48362741157e-38
0.00600360290201 -0.145587370374 0.811 1.24442590384e-38
0.00750450362752 -0.145587370374 0.811 1.86174454061e-38
0.00900540435302 -0.145587370374 0.811 2.00939585655e-38
0.0104803955715 -0.145228338634 0.809 1.97237313074e-38
0.0119479840738 -0.144869306895 0.807 2.0369103519e-38
0.0134081698598 -0.144510275155 0.805 1.89861690711e-38
0.0148609529295 -0.144151243416 0.803 1.12446046205e-38
0.0162859758131 -0.143612695806 0.8 1.4196704681e-38
0.0177221027712 -0.143253664067 0.798 1.42856535023e-38
0.019150827013 -0.142894632327 0.796 1.14304812566e-38
0.0206239675524 -0.142894632327 0.796 1.16155955863e-38
0.0220971080919 -0.142894632327 0.796 1.2723738208e-38
0.0235110269011 -0.142535600588 0.794 1.06061295999e-38
0.0249804660824 -0.142535600588 0.794 1.65944720885e-38
0.0264499052637 -0.142535600588 0.794 1.82518508407e-38
0.0278490186404 -0.142176568848 0.792 1.87128205822e-38
0.0293147564636 -0.142176568848 0.792 2.02790700927e-38
0.0307804942868 -0.142176568848 0.792 2.06471323447e-38
0.0322462321099 -0.142176568848 0.792 1.99095673058e-38
0.0337119699331 -0.142176568848 0.792 1.97255305746e-38
0.0351777077563 -0.142176568848 0.792 2.00946774317e-38
0.0366434455795 -0.142176568848 0.792 2.02805232392e-38
0.0381091834027 -0.142176568848 0.792 2.08325969991e-38
0.0396748578956 -0.142535600588 0.794 1.74221448226e-38
0.0411442970769 -0.142535600588 0.794 1.47509700717e-38
0.0426137362582 -0.142535600588 0.794 1.79781856584e-38
0.0440831754396 -0.142535600588 0.794 1.89894481095e-38
0.0455526146209 -0.142535600588 0.794 2.08336914132e-38
0.0471404972627 -0.142894632327 0.796 2.17513317125e-38
0.0487357826207 -0.143253664067 0.798 1.63996691812e-38
-0.0474458593092 -0.146929112699 0.827 1.51023891019e-38
-0.0458043069744 -0.146573782318 0.825 1.43658778394e-38
-0.0442774967419 -0.146573782318 0.825 1.5104164547e-38
-0.0426470484815 -0.146218451937 0.823 1.40976524978e-38
-0.0410240029374 -0.145863121555 0.821 1.36427826085e-38
-0.0394083601096 -0.145507791174 0.819 1.33665740694e-38
-0.0378926539515 -0.145507791174 0.819 1.29974286137e-38
-0.0361992826028 -0.144797130411 0.815 1.31814737527e-38
-0.034690979161 -0.144797130411 0.815 1.34587696993e-38
-0.0331826757192 -0.144797130411 0.815 1.32733036437e-38
-0.0315966437565 -0.14444180003 0.813 1.30889249956e-38
-0.0300920416729 -0.14444180003 0.813 1.51150638465e-38
-0.0285171137846 -0.144086469648 0.811 1.39190415942e-38
-0.0270162130591 -0.144086469648 0.811 7.39016784116e-40
-0.0254523892452 -0.143731139267 0.809 2.30513597381e-42
-0.0239551898778 -0.143731139267 0.809 1.27378030407e-41
-0.0225135108825 -0.144086469648 0.811 8.13314329343e-39
-0.0209607911431 -0.143731139267 0.809 1.8533084436e-38
-0.0194635917757 -0.143731139267 0.809 1.90808828343e-38
-0.0179219761107 -0.143375808886 0.807 1.88932699894e-38
-0.0164284781015 -0.143375808886 0.807 1.48373825428e-38
-0.0149349800922 -0.143375808886 0.807 1.24450059305e-38
-0.013441482083 -0.143375808886 0.807 1.89893906562e-38
-0.0119479840738 -0.143375808886 0.807 1.77908923096e-38
-0.0104544860646 -0.143375808886 0.807 1.89919494272e-38
-0.00896098805535 -0.143375808886 0.807 2.02787225707e-38
-0.00746749004612 -0.143375808886 0.807 1.17052520634e-38
-0.0059739920369 -0.143375808886 0.807 1.92631833567e-38
-0.00448049402767 -0.143375808886 0.807 1.73284652176e-38
-0.00298699601845 -0.143375808886 0.807 8.29076975249e-39
-0.00149349800922 -0.143375808886 0.807 4.20389539297e-44
0.0 -0.143375808886 0.807 1.38795950424e-39
0.00149349800922 -0.143375808886 0.807 1.373603762e-38
0.00298699601845 -0.143375808886 0.807 2.35016347698e-38
0.00448049402767 -0.143375808886 0.807 1.65880275169e-38
0.00598879746946 -0.143731139267 0.809 1.75131409409e-38
0.00748599683682 -0.143731139267 0.809 1.94486339981e-38
0.00896098805535 -0.143375808886 0.807 1.99073966945e-38
0.0104544860646 -0.143375808886 0.807 1.95393400476e-38
0.0119183732087 -0.143020478504 0.805 1.93545956607e-38
0.0133748576365 -0.142665148123 0.803 1.80638568426e-38
0.0148609529295 -0.142665148123 0.803 1.48380635738e-38
0.0162859758131 -0.142132152551 0.8 1.41023510515e-38
0.0177221027712 -0.141776822169 0.798 1.20747814749e-38
0.019150827013 -0.141421491788 0.796 1.27204956034e-38
0.0206239675524 -0.141421491788 0.796 1.23531606252e-38
0.0220971080919 -0.141421491788 0.796 1.28166344871e-38
0.0235110269011 -0.141066161407 0.794 1.30932409949e-38
0.0249804660824 -0.141066161407 0.794 1.18943656989e-38
0.0263832808172 -0.140710831025 0.792 1.28148800614e-38
0.0278490186404 -0.140710831025 0.792 1.3735394424e-38
0.0293147564636 -0.140710831025 0.792 1.50261430511e-38
0.0307804942868 -0.140710831025 0.792 1.65009143965e-38
0.0322462321099 -0.140710831025 0.792 1.8343372446e-38
0.0336268386959 -0.140355500644 0.79 1.63147042514e-38
0.035088875161 -0.140355500644 0.79 1.71444663215e-38
0.036550911626 -0.140355500644 0.79 1.63175572951e-38
0.0381091834027 -0.140710831025 0.792 1.82536809365e-38
0.0396748578956 -0.141066161407 0.794 1.47513231989e-38
0.0412479351048 -0.141421491788 0.796 1.54917566958e-38
0.0427210756443 -0.141421491788 0.796 1.81622293961e-38
0.0441942161837 -0.141421491788 0.796 2.01883093924e-38
0.0456673567232 -0.141421491788 0.796 2.02790700927e-38
0.0471404972627 -0.141421491788 0.796 1.94500409017e-38
0.0487357826207 -0.141776822169 0.798 2.07386217202e-38
0.0505272399602 -0.142665148123 0.803 2.1474379084e-38
-0.0459153477185 -0.145398601109 0.827 1.51030294953e-38
-0.0442774967419 -0.145046972085 0.825 1.50127088028e-38
-0.0426470484815 -0.144695343062 0.823 1.45586096276e-38
-0.0411239396072 -0.144695343062 0.823 1.36406316153e-38
-0.0395045954212 -0.144343714039 0.821 1.32733008411e-38
-0.0378926539515 -0.143992085016 0.819 1.34580382215e-38
-0.0362881151981 -0.143640455993 0.817 1.35495303995e-38
-0.034690979161 -0.143288826969 0.815 1.34584193747e-38
-0.0331826757192 -0.143288826969 0.815 1.33662181396e-38
-0.0315966437565 -0.142937197946 0.813 1.33658650124e-38
-0.0300920416729 -0.142937197946 0.813 1.32740407267e-38
-0.0285171137846 -0.142585568923 0.811 1.40112344215e-38
-0.0270162130591 -0.142585568923 0.811 1.5022517892e-38
-0.0254523892452 -0.1422339399 0.809 9.58441486359e-39
-0.0239551898778 -0.1422339399 0.809 4.48415508584e-44
-0.0224579905105 -0.1422339399 0.809 1.93098928384e-42
-0.0209089721291 -0.141882310876 0.807 6.97566375541e-42
-0.0194154741199 -0.141882310876 0.807 6.27702118265e-39
-0.017877559813 -0.141530681853 0.805 1.43825729093e-38
-0.0163877631619 -0.141530681853 0.805 1.93592619846e-38
-0.0148979665109 -0.141530681853 0.805 1.53934457994e-38
-0.0134081698598 -0.141530681853 0.805 1.73263268362e-38
-0.0119183732087 -0.141530681853 0.805 1.52958972094e-38
-0.0104285765576 -0.141530681853 0.805 2.10148414696e-38
-0.00893877990651 -0.141530681853 0.805 2.06464134786e-38
-0.00744898325543 -0.141530681853 0.805 1.47481016137e-38
-0.00595918660434 -0.141530681853 0.805 1.79745983343e-38
-0.00446938995326 -0.141530681853 0.805 2.1473322505e-38
-0.00298699601845 -0.141882310876 0.807 2.06464162812e-38
-0.00149349800922 -0.141882310876 0.807 3.96742347452e-39
0.0 -0.141530681853 0.805 9.50220488659e-42
0.00148979665109 -0.141530681853 0.805 7.42688186092e-44
0.00297959330217 -0.141530681853 0.805 3.50394400745e-39
0.00448049402767 -0.141882310876 0.807 1.65933734705e-38
0.0059739920369 -0.141882310876 0.807 2.1289587053e-38
0.00746749004612 -0.141882310876 0.807 2.07375301087e-38
0.00893877990651 -0.141530681853 0.805 1.91691282038e-38
0.0104285765576 -0.141530681853 0.805 1.82496942424e-38
0.0119183732087 -0.141530681853 0.805 7.82415277815e-39
0.0133748576365 -0.14117905283 0.803 1.55667261636e-38
0.0148424461388 -0.141003238318 0.802 1.44689461441e-38
0.0162859758131 -0.140651609295 0.8 1.1522989376e-38
0.0177221027712 -0.140299980272 0.798 1.14311692941e-38
0.0191989446688 -0.140299980272 0.798 1.00475440061e-38
0.0206239675524 -0.139948351249 0.796 1.01389955464e-38
0.0220971080919 -0.139948351249 0.796 1.27258892012e-38
0.0235110269011 -0.139596722225 0.794 1.35549239973e-38
0.0249804660824 -0.139596722225 0.794 1.36457113222e-38
0.0263832808172 -0.139245093202 0.792 1.34602340562e-38
0.0277786928358 -0.138893464179 0.79 1.3735741946e-38
0.0292407293008 -0.138893464179 0.79 1.51193980626e-38
0.0307027657658 -0.138893464179 0.79 1.46598660533e-38
0.0321648022309 -0.138893464179 0.79 1.54892539767e-38
0.0336268386959 -0.138893464179 0.79 1.39205059511e-38
0.035088875161 -0.138893464179 0.79 1.61342730611e-38
0.036550911626 -0.138893464179 0.79 1.47513358106e-38
0.038012948091 -0.138893464179 0.79 1.85309880935e-38
0.0396748578956 -0.139596722225 0.794 1.52133901571e-38
0.0412479351048 -0.139948351249 0.796 1.48449537584e-38
0.0428284150303 -0.140299980272 0.798 2.06504141857e-38
0.0443052569279 -0.140299980272 0.798 2.08333438912e-38
0.0457820988255 -0.140299980272 0.798 1.95422365316e-38
0.0473773841836 -0.140651609295 0.8 1.93574865394e-38
0.0489800722579 -0.141003238318 0.802 1.90805451213e-38
0.0505272399602 -0.14117905283 0.803 2.03709182005e-38
0.0520133352531 -0.14117905283 0.803 2.2305577485e-38
0.0534994305461 -0.14117905283 0.803 1.81517042433e-38
-0.0477900856161 -0.144911872513 0.833 1.53821975766e-38
-0.0460263884627 -0.144216017183 0.829 1.4827594473e-38
-0.0443848361279 -0.143868089518 0.827 1.42744277003e-38
-0.0427506865094 -0.143520161853 0.825 1.43738232017e-38
-0.0412238762769 -0.143520161853 0.825 1.35498835268e-38
-0.0396008307328 -0.143172234188 0.823 1.34569816425e-38
-0.037985187905 -0.142824306523 0.821 1.34573347697e-38
-0.0362881151981 -0.142128451193 0.817 1.40090694153e-38
-0.0347761103982 -0.142128451193 0.817 1.37342803917e-38
-0.0332641055983 -0.142128451193 0.817 1.33658650124e-38
-0.0316743722774 -0.141780523527 0.815 1.34580634449e-38
-0.0301660688356 -0.141780523527 0.815 1.33658706176e-38
-0.0285171137846 -0.141084668197 0.811 1.3919745046e-38
-0.0270162130591 -0.141084668197 0.811 1.39183199255e-38
-0.0254523892452 -0.140736740532 0.809 1.55760419958e-38
-0.0239551898778 -0.140736740532 0.809 1.42874485657e-38
-0.0224579905105 -0.140736740532 0.809 4.69951784422e-39
-0.0209089721291 -0.140388812867 0.807 1.52741532611e-43
-0.0194154741199 -0.140388812867 0.807 4.45192522116e-42
-0.017877559813 -0.140040885202 0.805 2.66386838068e-42
-0.0163877631619 -0.140040885202 0.805 1.37327249504e-43
-0.0148979665109 -0.140040885202 0.805 2.40621163205e-39
-0.0133748576365 -0.139692957537 0.803 1.35492221139e-38
-0.0118887623436 -0.139692957537 0.803 1.77000587418e-38
-0.0104026670506 -0.139692957537 0.803 1.98205610313e-38
-0.00891657175768 -0.139692957537 0.803 2.14772461407e-38
-0.00743047646473 -0.139692957537 0.803 2.27654682268e-38
-0.00595918660434 -0.140040885202 0.805 1.9541844168e-38
-0.00446938995326 -0.140040885202 0.805 7.74302320226e-39
-0.00297959330217 -0.140040885202 0.805 7.37783641467e-42
-0.00148979665109 -0.140040885202 0.805 2.06537380657e-41
0.0 -0.140040885202 0.805 2.87186871694e-39
0.00148979665109 -0.140040885202 0.805 2.78036392721e-39
0.00297959330217 -0.140040885202 0.805 1.30320757182e-43
0.00446938995326 -0.140040885202 0.805 4.37345250716e-42
0.00595918660434 -0.140040885202 0.805 2.39395867827e-39
0.00744898325543 -0.140040885202 0.805 1.7235190588e-38
0.00891657175768 -0.139692957537 0.803 2.09240471382e-38
0.0104026670506 -0.139692957537 0.803 1.68667583931e-38
0.0118887623436 -0.139692957537 0.803 1.90783647009e-38
0.0133748576365 -0.139692957537 0.803 8.84244414231e-39
0.0148424461388 -0.139518993704 0.802 1.25364420566e-38
0.0162859758131 -0.139171066039 0.8 1.15215768672e-38
0.0177221027712 -0.138823138374 0.798 1.14308133643e-38
0.0191989446688 -0.138823138374 0.798 1.0416681054e-38
0.0206239675524 -0.138475210709 0.796 1.02301402024e-38
0.0220971080919 -0.138475210709 0.796 1.16159431084e-38
0.0235702486313 -0.138475210709 0.796 1.36446000926e-38
0.0249804660824 -0.138127283044 0.794 1.41967200953e-38
0.0263832808172 -0.137779355379 0.792 1.44736573095e-38
0.0277786928358 -0.137431427714 0.79 1.46584087029e-38
0.0292407293008 -0.137431427714 0.79 1.5487809238e-38
0.0307027657658 -0.137431427714 0.79 1.6134976513e-38
0.0321648022309 -0.137431427714 0.79 1.63179384483e-38
0.0336268386959 -0.137431427714 0.79 1.49335788798e-38
0.035088875161 -0.137431427714 0.79 1.5949147521e-38
0.036550911626 -0.137431427714 0.79 1.56740025675e-38
0.038012948091 -0.137431427714 0.79 1.7793420252e-38
0.0397747945654 -0.138475210709 0.796 1.59506048714e-38
0.0413515731327 -0.138823138374 0.798 1.82551270765e-38
0.0429357544164 -0.139171066039 0.8 2.14780042432e-38
0.0444162976721 -0.139171066039 0.8 2.05556597849e-38
0.0458968409278 -0.139171066039 0.8 1.98184660901e-38
0.047495827644 -0.139518993704 0.802 1.86202774303e-38
0.0489800722579 -0.139518993704 0.802 1.94493318447e-38
0.0505272399602 -0.139692957537 0.803 2.02783666409e-38
0.0519485614857 -0.139518993704 0.802 2.05545835876e-38
0.0534328060995 -0.139518993704 0.802 2.2765483641e-38
-0.0477900856161 -0.143370256848 0.833 1.44598853482e-38
-0.0461374292069 -0.143026030541 0.831 1.60261642859e-38
-0.044492175514 -0.142681804234 0.829 1.44595350236e-38
-0.0428543245373 -0.142337577927 0.827 1.45582200666e-38
-0.0413238129467 -0.142337577927 0.827 1.36420847618e-38
-0.0396970660444 -0.141993351621 0.825 1.34584291838e-38
-0.0380777218585 -0.141649125314 0.823 1.42889003109e-38
-0.0364657803888 -0.141304899007 0.821 1.47495085174e-38
-0.0348612416354 -0.1409606727 0.819 1.44722125708e-38
-0.0332641055983 -0.140616446393 0.817 1.37353762071e-38
-0.0317521007983 -0.140616446393 0.817 1.36428036279e-38
-0.0301660688356 -0.140272220086 0.815 1.37339272645e-38
-0.0285874395892 -0.139927993779 0.813 1.37346335189e-38
-0.0270162130591 -0.139583767472 0.811 1.38264774228e-38
-0.0254523892452 -0.139239541165 0.809 1.38261270982e-38
-0.0239551898778 -0.139239541165 0.809 1.42874541709e-38
-0.0224024701384 -0.138895314858 0.807 1.64994206124e-38
-0.0209089721291 -0.138895314858 0.807 1.30899815747e-38
-0.0194154741199 -0.138895314858 0.807 4.05626019197e-39
-0.017877559813 -0.138551088551 0.805 1.4573504029e-43
-0.0163470482224 -0.138206862244 0.803 3.8438878045e-40
-0.0148609529295 -0.138206862244 0.803 3.85460773776e-40
-0.0133748576365 -0.138206862244 0.803 8.40218559209e-42
-0.0118887623436 -0.138206862244 0.803 1.48537637218e-43
-0.0103897122971 -0.13803474909 0.802 4.45612911655e-42
-0.00890546768326 -0.13803474909 0.802 8.9474896791e-39
-0.00742122306938 -0.13803474909 0.802 1.29049639345e-38
-0.00594438117178 -0.138206862244 0.803 4.67194309304e-40
-0.00445828587884 -0.138206862244 0.803 2.95811303222e-40
-0.00297219058589 -0.138206862244 0.803 2.13790081119e-39
-0.00148609529295 -0.138206862244 0.803 2.41269263744e-39
0.0 -0.138206862244 0.803 2.59816009439e-39
0.00148609529295 -0.138206862244 0.803 2.78182408021e-39
0.00297219058589 -0.138206862244 0.803 4.07074681549e-39
0.00445828587884 -0.138206862244 0.803 9.82870742877e-42
0.00594438117178 -0.138206862244 0.803 3.22298646795e-44
0.00743047646473 -0.138206862244 0.803 1.06498683289e-43
0.00891657175768 -0.138206862244 0.803 8.75935134728e-39
0.0103897122971 -0.13803474909 0.802 2.10137694762e-38
0.011873956911 -0.13803474909 0.802 1.98159465554e-38
0.0133748576365 -0.138206862244 0.803 1.10576798132e-38
0.0148424461388 -0.13803474909 0.802 8.38908345145e-39
0.0163266907526 -0.13803474909 0.802 1.21694125615e-38
0.0177221027712 -0.137346296477 0.798 1.1707733763e-38
0.0191989446688 -0.137346296477 0.798 1.01393865087e-38
0.0206757865664 -0.137346296477 0.798 1.05999835048e-38
0.0220971080919 -0.13700207017 0.796 1.17077884136e-38
0.0235702486313 -0.13700207017 0.796 1.29056127357e-38
0.0249804660824 -0.136657843863 0.794 1.41037985928e-38
0.0263832808172 -0.136313617556 0.792 1.39204863329e-38
0.0278490186404 -0.136313617556 0.792 1.48420740901e-38
0.0292407293008 -0.135969391249 0.79 1.57647520574e-38
0.0307027657658 -0.135969391249 0.79 1.53977646013e-38
0.0321648022309 -0.135969391249 0.79 1.57651205989e-38
0.0336268386959 -0.135969391249 0.79 1.62246582134e-38
0.035088875161 -0.135969391249 0.79 1.6593784051e-38
0.0366434455795 -0.136313617556 0.792 1.64101340781e-38
0.0382054187143 -0.136657843863 0.794 1.76086618521e-38
0.0397747945654 -0.13700207017 0.796 1.8161858052e-38
0.0413515731327 -0.137346296477 0.798 1.98199276444e-38
0.0429357544164 -0.137690522784 0.8 2.10170064757e-38
0.0444162976721 -0.137690522784 0.8 1.9080182185e-38
0.0458968409278 -0.137690522784 0.8 1.93571362148e-38
0.047495827644 -0.13803474909 0.802 1.92652909096e-38
0.0489800722579 -0.13803474909 0.802 1.98184632875e-38
0.0505272399602 -0.138206862244 0.803 2.08315236044e-38
0.0519485614857 -0.13803474909 0.802 2.22126629891e-38
0.0534328060995 -0.13803474909 0.802 1.9728420052e-38
0.0549170507134 -0.13803474909 0.802 7.4339303922e-40
-0.0477900856161 -0.141828641183 0.833 1.39985596769e-38
-0.0462484699511 -0.141828641183 0.833 1.39045661811e-38
-0.0445995149 -0.141488116234 0.831 1.51037805913e-38
-0.0430616005931 -0.141488116234 0.831 1.42802038526e-38
-0.0414237496164 -0.141147591286 0.829 1.44703978893e-38
-0.0397933013561 -0.140807066337 0.827 1.41045076498e-38
-0.038170255812 -0.140466541388 0.825 1.79366203434e-43
-0.0365546129841 -0.140126016439 0.823 1.38736815629e-39
-0.0348612416354 -0.139444966542 0.819 1.24508017009e-38
-0.0332641055983 -0.139104441593 0.817 1.43832637495e-38
-0.0317521007983 -0.139104441593 0.817 1.42860066295e-38
-0.0302400959984 -0.139104441593 0.817 1.38257711684e-38
-0.0285874395892 -0.138423391695 0.813 1.36409875451e-38
-0.0270162130591 -0.138082866746 0.811 1.47491301668e-38
-0.0254523892452 -0.137742341797 0.809 1.37342944047e-38
-0.0239551898778 -0.137742341797 0.809 1.39183199255e-38
-0.0224024701384 -0.137401816849 0.807 1.41030573059e-38
-0.0209089721291 -0.137401816849 0.807 1.46569569577e-38
-0.0194154741199 -0.137401816849 0.807 1.60391683357e-38
-0.017877559813 -0.1370612919 0.805 1.35502394566e-38
-0.0163470482224 -0.136720766951 0.803 3.69874130957e-40
-0.0148609529295 -0.136720766951 0.803 3.76828775235e-40
-0.0133582015249 -0.136550504477 0.802 2.13357220023e-39
-0.011873956911 -0.136550504477 0.802 1.49071672063e-39
-0.0103897122971 -0.136550504477 0.802 2.02148513867e-40
-0.00890546768326 -0.136550504477 0.802 1.16447902385e-41
-0.00742122306938 -0.136550504477 0.802 1.34636756452e-41
-0.0059369784555 -0.136550504477 0.802 2.31648649138e-41
-0.00445273384163 -0.136550504477 0.802 3.52300587046e-39
-0.00296848922775 -0.136550504477 0.802 2.78397927725e-39
-0.00148424461388 -0.136550504477 0.802 2.50740920324e-39
0.0 -0.136550504477 0.802 2.50596306323e-39
0.00148424461388 -0.136550504477 0.802 2.78182828411e-39
0.00296848922775 -0.136550504477 0.802 2.59743001789e-39
0.00445273384163 -0.136550504477 0.802 3.15168279689e-39
0.0059369784555 -0.136550504477 0.802 3.79056839794e-39
0.00742122306938 -0.136550504477 0.802 7.98740124665e-44
0.00890546768326 -0.136550504477 0.802 7.21668709127e-42
0.0103638027902 -0.136209979528 0.8 0.0
0.0118443460459 -0.136209979528 0.8 1.99099428538e-38
0.0133582015249 -0.136550504477 0.802 2.05556625875e-38
0.0148424461388 -0.136550504477 0.802 1.24406296754e-38
0.0163266907526 -0.136550504477 0.802 1.29970656774e-38
0.0177221027712 -0.135869454579 0.798 1.08747879428e-38
0.0191989446688 -0.135869454579 0.798 1.33640531335e-38
0.0206757865664 -0.135869454579 0.798 1.11535034047e-38
0.022152628464 -0.135869454579 0.798 1.12442963348e-38
0.0235702486313 -0.13552892963 0.796 1.26275965217e-38
0.0250433891708 -0.13552892963 0.796 1.39201079823e-38
0.0263832808172 -0.134847879733 0.792 1.42889031135e-38
0.0278490186404 -0.134847879733 0.792 1.51182854317e-38
0.0292407293008 -0.134507354784 0.79 1.49339137901e-38
0.0307027657658 -0.134507354784 0.79 1.55818055364e-38
0.0321648022309 -0.134507354784 0.79 1.55818027338e-38
0.0337119699331 -0.134847879733 0.792 1.63168538433e-38
0.0351777077563 -0.134847879733 0.792 1.72384500082e-38
0.036735979533 -0.135188404681 0.794 1.77012134117e-38
0.0383016540259 -0.13552892963 0.796 1.84377218716e-38
0.0398747312351 -0.135869454579 0.798 2.000322449e-38
0.0413515731327 -0.135869454579 0.798 2.16620493822e-38
0.0429357544164 -0.136209979528 0.8 1.99110092419e-38
0.0444162976721 -0.136209979528 0.8 1.97259145304e-38
0.0460115830302 -0.136550504477 0.802 1.84355162278e-38
0.047495827644 -0.136550504477 0.802 1.76050268838e-38
0.0489800722579 -0.136550504477 0.802 2.20315157353e-38
0.0505272399602 -0.136720766951 0.803 2.10180630547e-38
0.0519485614857 -0.136550504477 0.802 1.14316163084e-38
0.0534328060995 -0.136550504477 0.802 1.56272804742e-41
0.0549170507134 -0.136550504477 0.802 2.07041848104e-41
-0.0479048277184 -0.140623849109 0.835 1.49197915042e-38
-0.0463595106953 -0.140623849109 0.835 1.46432060159e-38
-0.044706854286 -0.140287025518 0.833 1.52885726223e-38
-0.043165238621 -0.140287025518 0.833 1.46500373459e-38
-0.0415236862862 -0.139950201928 0.831 1.36427882136e-38
-0.0398895366677 -0.139613378337 0.829 1.23527920837e-38
-0.0382627897654 -0.139276554746 0.827 1.1350517561e-43
-0.0366434455795 -0.138939731156 0.825 1.02294787896e-43
-0.0350315041098 -0.138602907565 0.823 9.24856986454e-44
-0.0335083952355 -0.138602907565 0.823 9.59848249888e-39
-0.0318298293193 -0.137929260384 0.819 1.50264835667e-38
-0.0302400959984 -0.137592436793 0.817 1.38250284802e-38
-0.0286577653939 -0.137255613202 0.815 1.41952557384e-38
-0.0270828375056 -0.136918789611 0.813 1.36428036279e-38
-0.0255153123336 -0.136581966021 0.811 1.34577103177e-38
-0.0240144116081 -0.136581966021 0.811 1.42853031777e-38
-0.0224579905105 -0.13624514243 0.809 1.40097728672e-38
-0.0209089721291 -0.135908318839 0.807 1.40115875487e-38
-0.0194154741199 -0.135908318839 0.807 1.43800197435e-38
-0.017877559813 -0.135571495249 0.805 1.52097621954e-38
-0.0163470482224 -0.135234671658 0.803 1.54863476837e-38
-0.0148609529295 -0.135234671658 0.803 4.33108144549e-39
-0.0133582015249 -0.135066259863 0.802 1.54142831076e-43
-0.011873956911 -0.135066259863 0.802 2.02514252766e-40
-0.0103638027902 -0.134729436272 0.8 1.03011131671e-39
-0.00888325953442 -0.134729436272 0.8 1.67440172593e-39
-0.00740271627868 -0.134729436272 0.8 1.30849326963e-39
-0.00592217302295 -0.134729436272 0.8 1.76874834894e-39
-0.00444162976721 -0.134729436272 0.8 1.21737944218e-39
-0.00296848922775 -0.135066259863 0.802 3.98036726844e-39
-0.00148424461388 -0.135066259863 0.802 4.25515909469e-39
0.0 -0.135066259863 0.802 2.69107459037e-39
0.00148054325574 -0.134729436272 0.8 2.9647902194e-39
0.00296108651147 -0.134729436272 0.8 2.7814751569e-39
0.00444162976721 -0.134729436272 0.8 2.68963125295e-39
0.00592217302295 -0.134729436272 0.8 2.69035572425e-39
0.00740271627868 -0.134729436272 0.8 4.34626311305e-39
0.00888325953442 -0.134729436272 0.8 1.05503761379e-41
0.0103638027902 -0.134729436272 0.8 7.42688186092e-44
0.0118443460459 -0.134729436272 0.8 4.28797330083e-43
0.0133248893016 -0.134729436272 0.8 1.46644553058e-38
0.0148054325574 -0.134729436272 0.8 2.04616690917e-38
0.0162859758131 -0.134729436272 0.8 1.73252184091e-38
0.0177665190688 -0.134729436272 0.8 1.48387922491e-38
0.0191989446688 -0.134392612681 0.798 8.01374986168e-39
0.0206757865664 -0.134392612681 0.798 1.3453397121e-38
0.022152628464 -0.134392612681 0.798 1.33633062414e-38
0.0235702486313 -0.134055789091 0.796 1.29952678115e-38
0.0250433891708 -0.134055789091 0.796 1.17070723501e-38
0.0263832808172 -0.133382141909 0.792 1.32743882487e-38
0.0278490186404 -0.133382141909 0.792 1.49335396434e-38
0.0293147564636 -0.133382141909 0.792 1.54870931745e-38
0.0307804942868 -0.133382141909 0.792 1.62253714743e-38
