# .PCD v0.7 - Point Cloud Data file format
VERSION 0.7
FIELDS x y z rgb
SIZE 4 4 4 4
TYPE F F F F
COUNT 1 1 1 1
WIDTH 843
HEIGHT 1
VIEWPOINT 0 0 0 1 0 0 0
POINTS 843
DATA ascii
0.0464705514394 -0.106882268311 0.837 1.90834416053e-38
0.0480195698208 -0.106882268311 0.837 1.96373342506e-38
0.0495685882021 -0.106882268311 0.837 1.94529275765e-38
0.051239751402 -0.107137662022 0.839 1.85309908961e-38
0.0530441634949 -0.107648449446 0.843 1.87139528314e-38
0.0546042859506 -0.107648449446 0.843 1.91752855092e-38
0.0562976572994 -0.107903843157 0.845 1.88072022377e-38
0.0578614811133 -0.107903843157 0.845 1.96362468429e-38
0.0594253049271 -0.107903843157 0.845 1.91752644897e-38
0.0611334817084 -0.108159236869 0.847 1.9637331448e-38
0.0627010068805 -0.108159236869 0.847 1.8992694918e-38
0.0642685320525 -0.108159236869 0.847 1.92689062596e-38
0.0658360572245 -0.108159236869 0.847 1.86231837234e-38
0.0674035823965 -0.108159236869 0.847 2.09259038586e-38
0.0689711075685 -0.108159236869 0.847 2.09237416551e-38
-0.0357125540074 -0.105584942283 0.839 2.12003257421e-38
-0.0340784043889 -0.105333249929 0.837 1.35505869786e-38
-0.0324516574867 -0.105081557576 0.835 1.23520620072e-38
-0.0309063404635 -0.105081557576 0.835 1.32729505164e-38
-0.0292906976357 -0.104829865222 0.833 1.47480735878e-38
-0.0277490819706 -0.104829865222 0.833 3.50324616081e-44
-0.0260816201289 -0.104326480515 0.829 1.65912659176e-38
-0.0244881854499 -0.104074788162 0.827 1.1334282117e-38
-0.022791112743 -0.103319711102 0.821 6.63332093538e-39
-0.0211162481849 -0.102564634041 0.815 3.5985218447e-39
-0.0195598270874 -0.102312941688 0.813 1.40159217648e-38
-0.0180552250037 -0.102312941688 0.813 1.31818072617e-38
-0.0165099079805 -0.102061249334 0.811 1.29967097476e-38
-0.0149349800922 -0.101557864627 0.807 1.29045141177e-38
-0.013441482083 -0.101557864627 0.807 1.31818268799e-38
-0.0119183732087 -0.101306172274 0.805 1.24449652928e-38
-0.0104026670506 -0.10105447992 0.803 1.24442590384e-38
-0.00890546768326 -0.100928633744 0.802 1.23531424084e-38
-0.00738420948799 -0.100425249037 0.798 1.26297222915e-38
-0.00590736759039 -0.100425249037 0.798 1.23534955356e-38
-0.00441942161837 -0.100173556683 0.796 1.29981614928e-38
-0.00294628107892 -0.100173556683 0.796 1.19840025578e-38
-0.00147314053946 -0.100173556683 0.796 1.68728974817e-38
0.0 -0.100173556683 0.796 1.96376817726e-38
0.00147314053946 -0.100173556683 0.796 1.93600228897e-38
0.00295368379519 -0.100425249037 0.798 2.09291534698e-38
0.00443052569279 -0.100425249037 0.798 2.11596068113e-43
0.00590736759039 -0.100425249037 0.798 1.75228309198e-39
0.00743047646473 -0.10105447992 0.803 1.86214292977e-38
0.00891657175768 -0.10105447992 0.803 1.22549688392e-38
0.0104285765576 -0.101306172274 0.805 1.37327249504e-43
0.0119183732087 -0.101306172274 0.805 4.79506678131e-39
0.0134081698598 -0.101306172274 0.805 2.35098856151e-38
0.0149719936736 -0.101809556981 0.809 5.51033996425e-40
0.0165099079805 -0.102061249334 0.811 2.3065176541e-39
0.018010808706 -0.102061249334 0.811 2.21715124584e-39
0.0195598270874 -0.102312941688 0.813 1.47136338754e-43
0.0211162481849 -0.102564634041 0.815 2.12970699868e-38
0.0227355923709 -0.103068018748 0.819 1.87132339653e-38
0.024251298529 -0.103068018748 0.819 0.0
0.0258299277754 -0.103319711102 0.821 1.44333741825e-43
0.0274159597381 -0.103571403455 0.823 1.4573504029e-43
0.0289390686124 -0.103571403455 0.823 1.65059338476e-38
0.0305362046496 -0.103823095809 0.825 2.2031180825e-38
0.032140743403 -0.104074788162 0.827 1.97262942823e-38
0.0336712549936 -0.104074788162 0.827 2.00053922987e-38
0.0352868978214 -0.104326480515 0.829 1.93603760169e-38
0.0369099433655 -0.104578172869 0.831 1.91745554327e-38
0.0385403916259 -0.104829865222 0.833 1.92671069924e-38
0.0401782426026 -0.105081557576 0.835 1.91759903623e-38
0.0418234962955 -0.105333249929 0.837 1.90841604714e-38
0.0433725146768 -0.105333249929 0.837 1.88079337155e-38
0.0449215330581 -0.105333249929 0.837 1.97295298804e-38
0.0464705514394 -0.105333249929 0.837 1.88079337155e-38
0.0482490540254 -0.105836634636 0.841 1.87161010219e-38
0.0499239185834 -0.10608832699 0.843 1.97309662113e-38
0.0514840410392 -0.10608832699 0.843 1.88082994544e-38
0.0531700096716 -0.106340019343 0.845 1.90841604714e-38
0.0547338334855 -0.106340019343 0.845 2.00972249923e-38
0.0562976572994 -0.106340019343 0.845 1.93596753676e-38
0.0579984313644 -0.106591711697 0.847 1.9451502456e-38
0.0595659565364 -0.106591711697 0.847 1.94518681949e-38
0.0614221876433 -0.107095096404 0.851 1.93611046921e-38
0.0629971155316 -0.107095096404 0.851 1.88082868427e-38
0.0645720434199 -0.107095096404 0.851 1.93603732143e-38
0.0661469713082 -0.107095096404 0.851 1.89008482115e-38
0.0677218991965 -0.107095096404 0.851 2.02819693792e-38
0.0692968270848 -0.107095096404 0.851 2.05553094603e-38
-0.0373541063422 -0.104280213539 0.841 1.96337427226e-38
-0.0357976852446 -0.104280213539 0.841 2.04624131812e-38
-0.034159834268 -0.104032222543 0.839 1.48402538033e-38
-0.0325293860076 -0.103784231548 0.837 1.29974342189e-38
-0.0309063404635 -0.103536240553 0.835 1.32736567709e-38
-0.0293610234403 -0.103536240553 0.835 1.38264746202e-38
-0.0277490819706 -0.103288249557 0.833 1.41970578082e-38
-0.0261445432172 -0.103040258562 0.831 1.36424505007e-38
-0.0244881854499 -0.102544276571 0.827 1.47462589063e-38
-0.0229021534872 -0.102296285576 0.825 1.53923569905e-38
-0.0212198862128 -0.10155231259 0.819 9.24856986454e-44
-0.0196079447432 -0.101056330599 0.815 1.41977738717e-38
-0.0180552250037 -0.100808339604 0.813 1.31825303317e-38
-0.0165506229201 -0.100808339604 0.813 1.31821800071e-38
-0.015009007255 -0.100560348609 0.811 1.22602461293e-38
-0.0134747943063 -0.100312357613 0.809 1.36420973735e-38
-0.0119479840738 -0.100064366618 0.807 1.29045169203e-38
-0.0104026670506 -0.0995683846274 0.803 1.37342803917e-38
-0.00890546768326 -0.0994443891297 0.802 1.28133974877e-38
-0.00740271627868 -0.0991963981344 0.8 1.26293691642e-38
-0.00590736759039 -0.098948407139 0.798 1.25368105981e-38
-0.00443052569279 -0.098948407139 0.798 1.26286502981e-38
-0.00294628107892 -0.0987004161437 0.796 1.21683938175e-38
-0.00147314053946 -0.0987004161437 0.796 1.63197251038e-38
0.0 -0.0987004161437 0.796 1.96369629065e-38
0.00147314053946 -0.0987004161437 0.796 1.97288110143e-38
0.00295368379519 -0.098948407139 0.798 1.9267109795e-38
0.00443052569279 -0.098948407139 0.798 2.12046459452e-38
0.00592217302295 -0.0991963981344 0.8 2.240319614e-38
0.00743047646473 -0.0995683846274 0.803 3.49989705748e-39
0.00893877990651 -0.0998163756227 0.805 1.47136338754e-43
0.0104285765576 -0.0998163756227 0.805 1.75798777803e-39
0.0119479840738 -0.100064366618 0.807 1.52741532611e-43
0.013441482083 -0.100064366618 0.807 2.35098575892e-38
0.0149719936736 -0.100312357613 0.809 1.1021142357e-39
0.0165099079805 -0.100560348609 0.811 2.40014821359e-39
0.0180552250037 -0.100808339604 0.813 3.41317069553e-39
0.0196079447432 -0.101056330599 0.815 7.33299486381e-42
0.0211680671989 -0.101304321595 0.817 1.63951920326e-43
0.0227355923709 -0.10155231259 0.819 1.48537637218e-43
0.0243105202592 -0.101800303585 0.821 1.54142831076e-43
0.0258928508638 -0.102048294581 0.823 7.93257404294e-39
0.0274159597381 -0.102048294581 0.823 2.06511470648e-38
0.0289390686124 -0.102048294581 0.823 2.15720019429e-38
0.0305362046496 -0.102296285576 0.825 1.89908774339e-38
0.032140743403 -0.102544276571 0.827 1.88990503455e-38
0.0336712549936 -0.102544276571 0.827 1.9821362574e-38
0.0352868978214 -0.102792267567 0.829 1.91759903623e-38
0.0369987759609 -0.103288249557 0.833 1.87150290286e-38
0.0386329255794 -0.103536240553 0.835 1.97291641415e-38
0.0402744779142 -0.103784231548 0.837 1.91752616871e-38
0.0418234962955 -0.103784231548 0.837 2.01894234247e-38
0.0434761527047 -0.104032222543 0.839 1.8991248778e-38
0.0451362118302 -0.104280213539 0.841 1.89004992881e-38
0.0466926329278 -0.104280213539 0.841 1.94536660608e-38
0.0483637961277 -0.104528204534 0.843 1.97295172687e-38
0.0499239185834 -0.104528204534 0.843 1.9176340687e-38
0.0514840410392 -0.104528204534 0.843 1.86242557167e-38
0.0531700096716 -0.104776195529 0.845 1.91774294959e-38
0.0547338334855 -0.104776195529 0.845 1.87157324804e-38
0.0564309061924 -0.105024186525 0.847 1.88990503455e-38
0.0579984313644 -0.105024186525 0.847 1.90837947325e-38
0.0597066081457 -0.10527217752 0.849 1.91756372351e-38
0.0614221876433 -0.105520168515 0.851 1.91756372351e-38
0.0629971155316 -0.105520168515 0.851 1.99124735988e-38
0.0647996769455 -0.105892155008 0.854 1.89915934974e-38
0.066380156871 -0.105892155008 0.854 1.96384146517e-38
0.0679606367965 -0.105892155008 0.854 2.09273387882e-38
0.069541116722 -0.105892155008 0.854 2.05553150654e-38
-0.0358828164819 -0.102968082078 0.843 2.0555679403e-38
-0.0343226940261 -0.102968082078 0.843 1.5116836489e-38
-0.0326071145285 -0.102479502804 0.839 1.29974342189e-38
-0.0309803676263 -0.102235213167 0.837 1.36420847618e-38
-0.0293610234403 -0.10199092353 0.835 1.38250312828e-38
-0.0277490819706 -0.101746633892 0.833 1.38264746202e-38
-0.0261445432172 -0.101502344255 0.831 1.32736567709e-38
-0.0245474071801 -0.101258054618 0.829 1.34576878969e-38
-0.0229576738593 -0.101013764981 0.827 1.42860066295e-38
-0.0213235242407 -0.100525185706 0.823 1.42874541709e-38
-0.0197522977106 -0.100280896069 0.821 1.37349978565e-38
-0.0181884738967 -0.100036606432 0.819 1.30910605745e-38
-0.0166320527991 -0.0997923167948 0.817 1.28141191564e-38
-0.0150830344178 -0.0995480271576 0.815 1.31818268799e-38
-0.0135414187528 -0.0993037375204 0.813 1.24435555866e-38
-0.012007205804 -0.0990594478832 0.811 1.38261242956e-38
-0.0104544860646 -0.0985708686088 0.807 1.25357386048e-38
-0.00891657175768 -0.0980822893344 0.803 1.31821800071e-38
-0.00740271627868 -0.0977158548786 0.8 1.25364546683e-38
-0.00590736759039 -0.0974715652414 0.798 1.29045141177e-38
-0.00443052569279 -0.0974715652414 0.798 1.33662181396e-38
-0.00295368379519 -0.0974715652414 0.798 1.17066897956e-38
-0.0014768418976 -0.0974715652414 0.798 1.74239174651e-38
0.0 -0.0974715652414 0.798 1.95447672766e-38
0.0014768418976 -0.0974715652414 0.798 1.89912459754e-38
0.00295368379519 -0.0974715652414 0.798 2.00972376039e-38
0.00444162976721 -0.0977158548786 0.8 2.03752496141e-38
0.0059369784555 -0.0979601445158 0.802 6.86636247519e-44
0.00744898325543 -0.0983265789716 0.805 1.68155815719e-43
0.00893877990651 -0.0983265789716 0.805 2.86216472507e-39
0.0104544860646 -0.0985708686088 0.807 2.95471348215e-39
0.0119479840738 -0.0985708686088 0.807 1.52741532611e-43
0.0134747943063 -0.098815158246 0.809 2.35080919531e-38
0.015009007255 -0.0990594478832 0.811 5.51039601619e-40
0.0165506229201 -0.0993037375204 0.813 2.5830947346e-39
0.0180996413014 -0.0995480271576 0.815 3.50355164388e-39
0.019656062399 -0.0997923167948 0.817 2.95326734213e-39
0.0212198862128 -0.100036606432 0.819 2.032402655e-39
0.022791112743 -0.100280896069 0.821 1.52741532611e-43
0.0243105202592 -0.100280896069 0.821 1.28167900313e-38
0.0258928508638 -0.100525185706 0.823 2.24013716494e-38
0.0274825841846 -0.100769475344 0.825 1.9912479204e-38
0.0290093944171 -0.100769475344 0.825 2.00965187378e-38
0.0306102318124 -0.101013764981 0.827 1.89919648415e-38
0.032140743403 -0.101013764981 0.827 1.98217269116e-38
0.0337526848727 -0.101258054618 0.829 2.00053951013e-38
0.0353720290586 -0.101502344255 0.831 1.93596697624e-38
0.0369987759609 -0.101746633892 0.833 1.98220772362e-38
0.0386329255794 -0.10199092353 0.835 1.85313412207e-38
0.0402744779142 -0.102235213167 0.837 1.92667566678e-38
0.0419234329653 -0.102479502804 0.839 1.93589565015e-38
0.0434761527047 -0.102479502804 0.839 1.90834444079e-38
0.0451362118302 -0.102723792441 0.841 1.95462176205e-38
0.0466926329278 -0.102723792441 0.841 1.87157380856e-38
0.0483637961277 -0.102968082078 0.843 1.85299161002e-38
0.0499239185834 -0.102968082078 0.843 1.98202807716e-38
0.0514840410392 -0.102968082078 0.843 1.85317069596e-38
0.0531700096716 -0.103212371716 0.845 1.91774294959e-38
0.0548633810204 -0.103456661353 0.847 1.97298830076e-38
0.0564309061924 -0.103456661353 0.847 1.88086525816e-38
0.0581353816156 -0.10370095099 0.849 1.90834416053e-38
0.059847259755 -0.103945240627 0.851 1.94533031245e-38
0.0616387170945 -0.104311675083 0.854 1.90845135986e-38
0.06321919702 -0.104311675083 0.854 1.93596697624e-38
0.0647996769455 -0.104311675083 0.854 1.92689090622e-38
0.066380156871 -0.104311675083 0.854 1.91770763686e-38
0.0681197951965 -0.10455596472 0.856 2.06493225742e-38
0.0697039764801 -0.10455596472 0.856 2.08311900954e-38
-0.0358828164819 -0.101407959623 0.843 2.02780037045e-38
-0.0343226940261 -0.101407959623 0.843 1.64072249825e-38
-0.0326848430495 -0.101167371344 0.841 1.23520648098e-38
-0.0310543947891 -0.100926783065 0.839 1.37342803917e-38
-0.029431349245 -0.100686194785 0.837 1.49310201088e-38
-0.0278157064172 -0.100445606506 0.835 1.36417316346e-38
-0.0261445432172 -0.0999644299483 0.831 1.33665712668e-38
-0.0245474071801 -0.0997238416692 0.829 1.35502394566e-38
-0.0229576738593 -0.0994832533902 0.827 1.37346335189e-38
-0.0213235242407 -0.0990020768321 0.823 1.35495303995e-38
-0.0197522977106 -0.098761488553 0.821 1.39190415942e-38
-0.0181884738967 -0.0985209002739 0.819 8.8504917994e-39
-0.0166727677387 -0.0985209002739 0.819 1.31847233638e-38
-0.0151200479992 -0.0982803119949 0.817 1.36442343537e-38
-0.013574730976 -0.0980397237158 0.815 1.39190415942e-38
-0.0120368166691 -0.0977991354368 0.813 1.29981376707e-38
-0.0104803955715 -0.0973179588787 0.809 1.308963125e-38
-0.00891657175768 -0.0965961940415 0.803 1.28141191564e-38
-0.00742122306938 -0.096475899902 0.802 1.34583941513e-38
-0.00592217302295 -0.0962353116229 0.8 1.22594950333e-38
-0.00443052569279 -0.0959947233438 0.798 1.34577103177e-38
-0.00295368379519 -0.0959947233438 0.798 1.2444261841e-38
-0.0014768418976 -0.0959947233438 0.798 1.72398863391e-38
0.0 -0.0959947233438 0.798 1.96380615245e-38
0.0014768418976 -0.0959947233438 0.798 1.91770609544e-38
0.00296848922775 -0.096475899902 0.802 1.91763434896e-38
0.00445828587884 -0.0965961940415 0.803 2.12046515504e-38
0.00595918660434 -0.0968367823205 0.805 1.20511667932e-43
0.00746749004612 -0.0970773705996 0.807 2.76784612803e-39
0.00896098805535 -0.0970773705996 0.807 2.95219534881e-39
0.0104803955715 -0.0973179588787 0.809 2.86107171227e-39
0.0119775949389 -0.0973179588787 0.809 1.47136338754e-43
0.0135081065295 -0.0975585471577 0.811 2.28616561559e-38
0.0150460208364 -0.0977991354368 0.813 5.71394302592e-39
0.0165913378596 -0.0980397237158 0.815 1.54142831076e-43
0.0181884738967 -0.0985209002739 0.819 1.48103094565e-39
0.0197041800548 -0.0985209002739 0.819 6.48749340939e-40
0.0212717052268 -0.098761488553 0.821 1.58346726469e-43
0.0228466331151 -0.0990020768321 0.823 8.76057748343e-39
0.0244289637197 -0.0992426651111 0.825 2.24900093824e-38
0.0260186970405 -0.0994832533902 0.827 1.97262914797e-38
0.0275492086311 -0.0994832533902 0.827 1.96362496455e-38
0.0290797202217 -0.0994832533902 0.827 1.95440666274e-38
0.0306842589751 -0.0997238416692 0.829 1.89912459754e-38
0.0322184719239 -0.0997238416692 0.829 1.96376873778e-38
0.0337526848727 -0.0997238416692 0.829 1.89008454089e-38
0.0354571602958 -0.100205018227 0.833 1.89912431728e-38
0.0370876085562 -0.100445606506 0.835 1.88997481922e-38
0.0387254595329 -0.100686194785 0.837 1.93600228897e-38
0.0403707132258 -0.100926783065 0.839 1.89908774339e-38
0.042023369635 -0.101167371344 0.841 1.98199276444e-38
0.0435797907326 -0.101167371344 0.841 1.90845135986e-38
0.0452435512162 -0.101407959623 0.843 1.88086469764e-38
0.046803673672 -0.101407959623 0.843 1.90841576688e-38
0.0483637961277 -0.101407959623 0.843 1.90837947325e-38
0.0499239185834 -0.101407959623 0.843 1.9820277969e-38
0.0516061858578 -0.101648547902 0.845 1.89919620389e-38
0.0532958558484 -0.101889136181 0.847 1.91763575025e-38
0.0548633810204 -0.101889136181 0.847 1.90834444079e-38
0.0565641550854 -0.10212972446 0.849 1.89923389882e-38
0.0582723318667 -0.102370312739 0.851 1.91767134323e-38
0.059847259755 -0.102370312739 0.851 2.00975879286e-38
0.0616387170945 -0.102731195157 0.854 1.91756372351e-38
0.06321919702 -0.102731195157 0.854 1.90838115481e-38
0.0647996769455 -0.102731195157 0.854 1.98213597714e-38
0.0665356139128 -0.102971783436 0.856 1.99146287959e-38
0.0681197951965 -0.102971783436 0.856 2.07407895289e-38
-0.037931518212 -0.101150715232 0.854 1.96330000344e-38
-0.0359679477191 -0.100084724088 0.845 2.0738991663e-38
-0.0344041239052 -0.100084724088 0.845 1.69604029656e-38
-0.0327625715704 -0.0998478371669 0.843 1.20754793215e-38
-0.0311284219519 -0.099610950246 0.841 1.32736693826e-38
-0.0295016750496 -0.0993740633251 0.839 1.28144722836e-38
-0.0278157064172 -0.0989002894832 0.835 1.34594857628e-38
-0.0262074663056 -0.0986634025623 0.833 1.36420791566e-38
-0.0246066289103 -0.0984265156414 0.831 1.39190233773e-38
-0.0230131942314 -0.0981896287205 0.829 1.37342775891e-38
-0.0213753432547 -0.0977158548786 0.825 1.39190261799e-38
-0.0198004153664 -0.0974789679577 0.823 1.39193765045e-38
-0.0182328901944 -0.0972420810368 0.821 1.03259511823e-38
-0.0166727677387 -0.0970051941159 0.819 1.20787471496e-38
-0.0151200479992 -0.096768307195 0.817 1.06032583393e-38
-0.0136080431993 -0.096768307195 0.817 1.38289913523e-38
-0.0120368166691 -0.0962945333531 0.813 1.35505869786e-38
-0.0105063050785 -0.0960576464322 0.811 1.31818268799e-38
-0.00893877990651 -0.0953469856695 0.805 1.31811206255e-38
-0.00743047646473 -0.0951100987485 0.803 1.30899843773e-38
-0.00594438117178 -0.0951100987485 0.803 1.43803532526e-38
-0.00445828587884 -0.0951100987485 0.803 1.34576850943e-38
-0.00296848922775 -0.0949916552881 0.802 1.25353854775e-38
-0.00148424461388 -0.0949916552881 0.802 1.72395360145e-38
0.0 -0.0949916552881 0.802 1.98220772362e-38
0.00148424461388 -0.0949916552881 0.802 1.90848667258e-38
0.00297219058589 -0.0951100987485 0.803 1.91759903623e-38
0.00445828587884 -0.0951100987485 0.803 2.15730739362e-38
0.00595918660434 -0.0953469856695 0.805 0.0
0.00746749004612 -0.0955838725904 0.807 2.76675031263e-39
0.00898319620418 -0.0958207595113 0.809 3.32062193845e-39
0.0104803955715 -0.0958207595113 0.809 3.22842350599e-39
0.012007205804 -0.0960576464322 0.811 1.3592595104e-43
0.0135414187528 -0.0962945333531 0.813 1.54018157551e-38
0.0150830344178 -0.096531420274 0.815 2.09273542025e-38
0.0166320527991 -0.096768307195 0.817 8.12753109308e-44
0.0182328901944 -0.0972420810368 0.821 1.33123354111e-43
0.0197522977106 -0.0972420810368 0.821 1.47136338754e-43
0.0213753432547 -0.0977158548786 0.825 1.65002235564e-38
0.0229021534872 -0.0977158548786 0.825 2.23074145873e-38
0.0244881854499 -0.0979527417995 0.827 2.01872682277e-38
0.0260186970405 -0.0979527417995 0.827 1.94514996534e-38
0.0276158330776 -0.0981896287205 0.829 1.94514996534e-38
0.0291500460264 -0.0981896287205 0.829 1.91767106297e-38
0.0308323133007 -0.0986634025623 0.833 1.87150094104e-38
0.0323739289658 -0.0986634025623 0.833 1.97295298804e-38
0.0339969745099 -0.0989002894832 0.835 1.86242557167e-38
0.0356274227702 -0.0991371764041 0.837 1.93600228897e-38
0.0372652737469 -0.0993740633251 0.839 1.90834388027e-38
0.0389105274398 -0.099610950246 0.841 2.01897891636e-38
0.0404669485374 -0.099610950246 0.841 1.94529499973e-38
0.0421233063048 -0.0998478371669 0.843 1.92685531324e-38
0.0436834287605 -0.0998478371669 0.843 1.89933983698e-38
0.0452435512162 -0.0998478371669 0.843 1.89933983698e-38
0.0469147144162 -0.100084724088 0.845 1.90837947325e-38
0.04847853823 -0.100084724088 0.845 1.90834388027e-38
0.0500423620439 -0.100084724088 0.845 1.98199276444e-38
0.051850475495 -0.10055849793 0.849 1.92671041898e-38
0.0534217020251 -0.10055849793 0.849 1.89905271093e-38
0.0549929285553 -0.10055849793 0.849 1.88983314794e-38
0.0566974039784 -0.100795384851 0.851 1.93603788195e-38
0.0584777572435 -0.101150715232 0.854 2.00068272283e-38
0.060058237169 -0.101150715232 0.854 1.8623186526e-38
0.0617830700619 -0.101387602153 0.856 1.94522185195e-38
0.0633672513455 -0.101387602153 0.856 1.94522213221e-38
0.0651031883129 -0.101624489074 0.858 1.96369811233e-38
0.0666910709547 -0.101624489074 0.858 1.83462423053e-38
0.0682789535964 -0.101624489074 0.858 2.09251835912e-38
-0.037931518212 -0.0995702353064 0.854 1.93571362148e-38
-0.0363510382865 -0.0995702353064 0.854 2.0186171011e-38
-0.0345669836633 -0.0989872713995 0.849 1.84366120432e-38
-0.0328403000913 -0.0985209002739 0.845 1.19829361697e-38
-0.0312024491147 -0.0982877147112 0.843 1.48402748228e-38
-0.0295720008543 -0.0980545291484 0.841 7.09763837894e-39
-0.0278823308637 -0.0975881580228 0.837 1.41967425161e-38
-0.026270389394 -0.09735497246 0.835 1.43789029086e-38
-0.0246658506406 -0.0971217868973 0.833 1.4378552584e-38
-0.0230687146034 -0.0968886013345 0.831 1.3642785411e-38
-0.0214789812826 -0.0966554157717 0.829 1.36427882136e-38
-0.0198485330222 -0.0961890446462 0.825 1.37356971044e-38
-0.0182328901944 -0.0957226735206 0.821 1.00479363696e-38
-0.0167134826782 -0.0957226735206 0.821 1.53945374109e-38
-0.0151570615806 -0.0954894879578 0.819 8.75645206075e-39
-0.0136080431993 -0.095256302395 0.817 9.03415718652e-39
-0.0120664275343 -0.0950231168323 0.815 1.24478589742e-38
-0.0105322145855 -0.0947899312695 0.813 1.34613004443e-38
-0.00900540435302 -0.0945567457067 0.811 1.34584137695e-38
-0.00744898325543 -0.0938571890184 0.805 1.36428036279e-38
-0.00595918660434 -0.0938571890184 0.805 1.34584137695e-38
-0.00445828587884 -0.0936240034556 0.803 1.41030573059e-38
-0.00297219058589 -0.0936240034556 0.803 1.29967279645e-38
-0.00148609529295 -0.0936240034556 0.803 1.67785732795e-38
0.0 -0.0936240034556 0.803 1.99142784713e-38
0.00148609529295 -0.0936240034556 0.803 1.88082868427e-38
0.00297219058589 -0.0936240034556 0.803 1.91759903623e-38
0.00446938995326 -0.0938571890184 0.805 2.11110195897e-38
0.0059739920369 -0.0940903745811 0.807 4.33176527914e-39
0.00748599683682 -0.0943235601439 0.809 1.01468302061e-39
0.00898319620418 -0.0943235601439 0.809 3.13910754447e-39
0.0105063050785 -0.0945567457067 0.811 3.13946347428e-39
0.0120368166691 -0.0947899312695 0.813 1.30320757182e-43
0.0136080431993 -0.095256302395 0.817 9.22081434586e-39
0.0151570615806 -0.0954894879578 0.819 2.21269511672e-38
0.0166727677387 -0.0954894879578 0.819 2.14790790391e-38
0.0182328901944 -0.0957226735206 0.821 1.97291613389e-38
0.0198004153664 -0.0959558590834 0.823 2.15716263949e-38
0.0213753432547 -0.0961890446462 0.825 2.11095818574e-38
0.0229576738593 -0.0964222302089 0.827 1.9451502456e-38
0.0244881854499 -0.0964222302089 0.827 2.00968718651e-38
0.0260816201289 -0.0966554157717 0.829 1.94522185195e-38
0.0276824575241 -0.0968886013345 0.831 1.95447728818e-38
0.0292906976357 -0.0971217868973 0.833 1.93611074947e-38
0.0309063404635 -0.09735497246 0.835 1.94529499973e-38
0.0324516574867 -0.09735497246 0.835 1.93596697624e-38
0.0340784043889 -0.0975881580228 0.837 1.94529471947e-38
0.0356274227702 -0.0975881580228 0.837 1.9544416952e-38
0.0372652737469 -0.0978213435856 0.839 1.89908802365e-38
0.0390030613933 -0.0982877147112 0.843 1.90834444079e-38
0.040563183849 -0.0982877147112 0.843 1.93611018895e-38
0.0422232429745 -0.0985209002739 0.845 1.87164569517e-38
0.0437870667884 -0.0985209002739 0.845 1.91760043753e-38
0.0453508906023 -0.0985209002739 0.845 1.98213569688e-38
0.0469147144162 -0.0985209002739 0.845 1.89912459754e-38
0.0485932803324 -0.0987540858367 0.847 1.94522185195e-38
0.0501608055044 -0.0987540858367 0.847 1.92671069924e-38
0.0519726203136 -0.0992204569623 0.851 1.99128295286e-38
0.0535475482019 -0.0992204569623 0.851 1.88990503455e-38
0.0551224760902 -0.0992204569623 0.851 1.9175641439e-38
0.0566974039784 -0.0992204569623 0.851 1.8623186526e-38
0.0584777572435 -0.0995702353064 0.854 1.90845135986e-38
0.0601988887783 -0.0998034208692 0.856 1.94540219906e-38
0.0617830700619 -0.0998034208692 0.856 1.9177063757e-38
0.0636633599967 -0.100269791995 0.86 1.9544416952e-38
0.0652549439966 -0.100269791995 0.86 1.92682056104e-38
0.0668465279965 -0.100269791995 0.86 1.96376845752e-38
0.0684381119964 -0.100269791995 0.86 2.10180868768e-38
-0.0396970660444 -0.0984487237902 0.858 1.93578578835e-38
-0.037931518212 -0.0979897553809 0.854 2.0187255616e-38
-0.0363510382865 -0.0979897553809 0.854 1.98173968993e-38
-0.0345669836633 -0.0974160448693 0.849 1.88032393656e-38
-0.0329180286122 -0.0971865606647 0.847 1.24435415736e-38
-0.0312764762774 -0.0969570764601 0.845 1.364138131e-38
-0.0296423266589 -0.0967275922554 0.843 1.42881576227e-38
-0.0278823308637 -0.0960391396415 0.837 7.28169753093e-39
-0.026270389394 -0.0958096554369 0.835 1.50250360253e-38
-0.0246658506406 -0.0955801712322 0.833 1.14304630397e-38
-0.0231242349755 -0.0955801712322 0.833 1.3920092568e-38
-0.0214789812826 -0.095121202823 0.829 1.47476938359e-38
-0.019896650678 -0.0948917186183 0.827 1.50239247957e-38
-0.0182773064921 -0.094432750209 0.823 5.07185405658e-39
-0.0167134826782 -0.0942032660044 0.821 1.10685524879e-38
-0.0151570615806 -0.0939737817998 0.819 1.00503578134e-38
-0.0136080431993 -0.0937442975951 0.817 1.17103065469e-38
-0.0120664275343 -0.0935148133905 0.815 6.91797510023e-39
-0.0105322145855 -0.0932853291858 0.813 1.36475091882e-38
-0.00900540435302 -0.0930558449812 0.811 1.37357027096e-38
-0.00744898325543 -0.0923673923673 0.805 1.34591326356e-38
-0.00595918660434 -0.0923673923673 0.805 1.36428008253e-38
-0.00446938995326 -0.0923673923673 0.805 1.34587696993e-38
-0.00297219058589 -0.0921379081626 0.803 1.28130499656e-38
-0.00148609529295 -0.0921379081626 0.803 1.66877999675e-38
0.0 -0.0921379081626 0.803 1.96384174543e-38
0.00148609529295 -0.0921379081626 0.803 1.88994006702e-38
0.00297959330217 -0.0923673923673 0.805 1.9083088478e-38
0.00446938995326 -0.0923673923673 0.805 2.01890702975e-38
0.00598879746946 -0.0928263607766 0.809 1.41970550056e-38
0.00748599683682 -0.0928263607766 0.809 1.79366203434e-43
0.00902761250186 -0.0932853291858 0.813 2.5870225742e-39
0.0105322145855 -0.0932853291858 0.813 3.32097506566e-39
0.0120664275343 -0.0935148133905 0.815 1.38703324596e-39
0.0136080431993 -0.0937442975951 0.817 1.62550621862e-43
0.0151570615806 -0.0939737817998 0.819 2.19432983918e-38
0.0166727677387 -0.0939737817998 0.819 2.01901394882e-38
0.0182773064921 -0.094432750209 0.823 1.91767232414e-38
0.0198485330222 -0.0946622344137 0.825 1.93600256923e-38
0.0214271622687 -0.0948917186183 0.827 1.93603788195e-38
0.0229576738593 -0.0948917186183 0.827 1.92671041898e-38
0.0245474071801 -0.095121202823 0.829 1.99124764014e-38
0.0260816201289 -0.095121202823 0.829 1.93596753676e-38
0.0277490819706 -0.0955801712322 0.833 1.89905271093e-38
0.0293610234403 -0.0958096554369 0.835 1.99121260768e-38
0.0309803676263 -0.0960391396415 0.837 1.97288110143e-38
0.0325293860076 -0.0960391396415 0.837 1.95447700792e-38
0.0340784043889 -0.0960391396415 0.837 1.89905271093e-38
0.0357125540074 -0.0962686238461 0.839 2.03738300987e-38
0.0373541063422 -0.0964981080508 0.841 1.9544416952e-38
0.0390030613933 -0.0967275922554 0.843 1.90834444079e-38
0.0406594191607 -0.0969570764601 0.845 1.95451232064e-38
0.0422232429745 -0.0969570764601 0.845 1.86239025895e-38
0.0437870667884 -0.0969570764601 0.845 1.89001461609e-38
0.0453508906023 -0.0969570764601 0.845 1.87160884102e-38
0.0470257551603 -0.0971865606647 0.847 1.86239025895e-38
0.0485932803324 -0.0971865606647 0.847 1.89923151661e-38
0.0502792489648 -0.0974160448693 0.849 1.87143003534e-38
0.0519726203136 -0.097645529074 0.851 1.84380693936e-38
0.053736317467 -0.0979897553809 0.854 1.94529527999e-38
0.0553167973925 -0.0979897553809 0.854 1.8714303156e-38
0.056897277318 -0.0979897553809 0.854 1.90841576688e-38
0.0586147074946 -0.0982192395856 0.856 1.91767134323e-38
0.0603395403876 -0.0984487237902 0.858 1.87164569517e-38
0.0619274230293 -0.0984487237902 0.858 2.01915870296e-38
0.0636633599967 -0.0986782079949 0.86 1.93603760169e-38
0.0652549439966 -0.0986782079949 0.86 1.94529471947e-38
0.0668465279965 -0.0986782079949 0.86 2.00975879286e-38
0.0684381119964 -0.0986782079949 0.86 2.07429475285e-38
-0.0396970660444 -0.0968608411484 0.858 2.04627761175e-38
-0.0380203508073 -0.0966350583019 0.856 1.90812780004e-38
-0.0364361695237 -0.0966350583019 0.856 2.03709182005e-38
-0.0346484135424 -0.0960706011857 0.851 1.96329972318e-38
-0.0329957571332 -0.0958448183392 0.849 1.22573468427e-38
-0.0312764762774 -0.0953932526462 0.845 1.36420945709e-38
-0.0296423266589 -0.0951674697997 0.843 1.47484239124e-38
-0.0279489553102 -0.0947159041067 0.839 1.34594731511e-38
-0.0263333124823 -0.0944901212602 0.837 9.03409693068e-39
-0.0247250723708 -0.0942643384137 0.835 9.95718828107e-39
-0.0231797553476 -0.0942643384137 0.835 9.59160212342e-39
-0.0215826193105 -0.0940385555672 0.833 1.43803672655e-38
-0.0199447683338 -0.0935869898742 0.829 1.52072594763e-38
-0.0183217227897 -0.0931354241812 0.825 1.24456911654e-38
-0.0167134826782 -0.0926838584882 0.821 1.37378551041e-38
-0.0151570615806 -0.0924580756417 0.819 6.35979868553e-39
-0.0136080431993 -0.0922322927952 0.817 9.12707168249e-39
-0.0120664275343 -0.0920065099487 0.815 1.23560122676e-38
-0.0105322145855 -0.0917807271022 0.813 1.38289913523e-38
-0.00900540435302 -0.0915549442557 0.811 1.40122910005e-38
-0.00746749004612 -0.0911033785627 0.807 1.37353734045e-38
-0.00595918660434 -0.0908775957162 0.805 1.39193919188e-38
-0.00446938995326 -0.0908775957162 0.805 1.4564395589e-38
-0.00297959330217 -0.0908775957162 0.805 1.29974314163e-38
-0.00148979665109 -0.0908775957162 0.805 1.7701228826e-38
0.0 -0.0906518128697 0.803 1.98220828414e-38
0.00148609529295 -0.0906518128697 0.803 1.91756372351e-38
0.00297959330217 -0.0908775957162 0.805 2.00046720313e-38
0.00446938995326 -0.0908775957162 0.805 2.09269828584e-38
0.00598879746946 -0.0913291614092 0.809 1.94525744493e-38
0.00750450362752 -0.0915549442557 0.811 1.48537637218e-43
0.00902761250186 -0.0917807271022 0.813 2.21896452605e-39
0.0105581240925 -0.0920065099487 0.815 2.76780128648e-39
0.0120960383994 -0.0922322927952 0.817 2.77139841964e-39
0.0136413554225 -0.0924580756417 0.819 1.42932443361e-43
0.0151570615806 -0.0924580756417 0.819 2.09298723359e-38
0.0167134826782 -0.0926838584882 0.821 1.99146442102e-38
0.0183217227897 -0.0931354241812 0.825 1.95447672766e-38
0.019896650678 -0.0933612070277 0.827 1.97291641415e-38
0.0214271622687 -0.0933612070277 0.827 1.91759903623e-38
0.0230131942314 -0.0935869898742 0.829 1.96358937157e-38
0.0245474071801 -0.0935869898742 0.829 2.08347928338e-38
0.0261445432172 -0.0938127727207 0.831 1.89905271093e-38
0.0278157064172 -0.0942643384137 0.835 2.00043189041e-38
0.029431349245 -0.0944901212602 0.837 1.95447672766e-38
0.0309803676263 -0.0944901212602 0.837 2.00053922987e-38
0.0325293860076 -0.0944901212602 0.837 2.00975907312e-38
0.034159834268 -0.0947159041067 0.839 1.70594705631e-38
0.0357976852446 -0.0949416869532 0.841 9.78074238364e-39
0.0373541063422 -0.0949416869532 0.841 1.93607291441e-38
0.0390030613933 -0.0951674697997 0.843 1.89916117143e-38
0.0406594191607 -0.0953932526462 0.845 1.89008482115e-38
0.0423231796443 -0.0956190354927 0.847 1.89919648415e-38
0.0438907048163 -0.0956190354927 0.847 1.96373342506e-38
0.0454582299883 -0.0956190354927 0.847 1.98217128986e-38
0.0470257551603 -0.0956190354927 0.847 1.88082994544e-38
0.048822764537 -0.0960706011857 0.851 1.89930452426e-38
0.0503976924253 -0.0960706011857 0.851 1.899304244e-38
0.0522779823601 -0.0966350583019 0.856 1.96391209061e-38
0.0538621636437 -0.0966350583019 0.856 1.89004992881e-38
0.0554463449273 -0.0966350583019 0.856 1.9175641439e-38
0.057030526211 -0.0966350583019 0.856 1.91759903623e-38
0.0586147074946 -0.0966350583019 0.856 1.91759931649e-38
0.0603395403876 -0.0968608411484 0.858 1.95447672766e-38
0.0620717759968 -0.0970866239949 0.86 1.94540219906e-38
0.0636633599967 -0.0970866239949 0.86 1.94529275765e-38
0.0652549439966 -0.0970866239949 0.86 1.92689244765e-38
0.0668465279965 -0.0970866239949 0.86 1.98217269116e-38
0.0684381119964 -0.0970866239949 0.86 2.05578331988e-38
-0.0381091834027 -0.0952729585067 0.858 1.98177444213e-38
-0.0365213007609 -0.0952729585067 0.858 2.02790756979e-38
-0.034770558361 -0.0948287955299 0.854 2.06482281601e-38
-0.0330734856541 -0.0944956732974 0.851 1.17059905477e-38
-0.031424530603 -0.094273591809 0.849 1.41048579745e-38
-0.0297126524636 -0.0938294288323 0.845 1.27222710485e-38
-0.0280155797567 -0.0933852658556 0.841 1.47505749055e-38
-0.0263962355707 -0.0931631843672 0.839 1.40119406759e-38
-0.024784294101 -0.0929411028789 0.837 7.92742006718e-39
-0.0231797553476 -0.0927190213905 0.835 1.12486431627e-38
-0.0215826193105 -0.0924969399022 0.833 9.40542420815e-39
-0.0199447683338 -0.0920527769254 0.829 1.45640732903e-38
-0.0183661390874 -0.0918306954371 0.827 1.47491301668e-38
-0.0167949125573 -0.0916086139487 0.825 1.34584291838e-38
-0.015194075162 -0.091164450972 0.821 1.55760251802e-38
-0.0136413554225 -0.0909423694836 0.819 8.5720860244e-39
-0.0120664275343 -0.0904982065069 0.815 1.16177633951e-38
-0.0105581240925 -0.0904982065069 0.815 1.05989423401e-38
-0.00900540435302 -0.0900540435302 0.811 1.32733162553e-38
-0.00748599683682 -0.0898319620418 0.809 1.36460504365e-38
-0.0059739920369 -0.0896098805535 0.807 1.3919745046e-38
-0.00446938995326 -0.0893877990651 0.805 1.38264746202e-38
-0.00297959330217 -0.0893877990651 0.805 1.29970656774e-38
-0.00148979665109 -0.0893877990651 0.805 1.67792767313e-38
0.0 -0.0893877990651 0.805 1.92692593868e-38
0.00148979665109 -0.0893877990651 0.805 1.91745582353e-38
0.00297959330217 -0.0893877990651 0.805 1.89908802365e-38
0.00448049402767 -0.0896098805535 0.807 1.93596585521e-38
0.00598879746946 -0.0898319620418 0.809 2.09277045271e-38
0.00750450362752 -0.0900540435302 0.811 1.54142831076e-43
0.00907202879953 -0.0907202879953 0.817 2.21718908089e-39
0.0105840335994 -0.0907202879953 0.817 2.86251785228e-39
0.0121256492645 -0.0909423694836 0.819 3.32097506566e-39
0.0136413554225 -0.0909423694836 0.819 1.48537637218e-43
0.015194075162 -0.091164450972 0.821 2.01004928203e-38
0.0167541976177 -0.0913865324604 0.823 1.94533003219e-38
0.0183217227897 -0.0916086139487 0.825 1.89912431728e-38
0.019896650678 -0.0918306954371 0.827 1.9268555935e-38
0.0214789812826 -0.0920527769254 0.829 2.04667263778e-38
0.0230131942314 -0.0920527769254 0.829 1.91745582353e-38
0.0246066289103 -0.0922748584138 0.831 1.91745582353e-38
0.0262074663056 -0.0924969399022 0.833 1.9358949495e-38
0.0278823308637 -0.0929411028789 0.837 2.00061237765e-38
0.029431349245 -0.0929411028789 0.837 2.02826882453e-38
0.0310543947891 -0.0931631843672 0.839 2.07422412741e-38
0.0326071145285 -0.0931631843672 0.839 1.93621766854e-38
0.0342412641471 -0.0933852658556 0.841 3.14796795466e-39
0.0358828164819 -0.093607347344 0.843 1.73472215976e-38
0.0374429389376 -0.093607347344 0.843 1.9363625628e-38
0.0391881293003 -0.0940515103207 0.847 1.96369657091e-38
0.0407556544723 -0.0940515103207 0.847 1.93596697624e-38
0.0423231796443 -0.0940515103207 0.847 1.91767288466e-38
0.0439943428442 -0.094273591809 0.849 1.88057799198e-38
0.0455655693744 -0.094273591809 0.849 1.90834444079e-38
0.0472478366487 -0.0944956732974 0.851 1.88082868427e-38
0.0489948776905 -0.0948287955299 0.854 1.93618207556e-38
0.050575357616 -0.0948287955299 0.854 1.92692719985e-38
0.0522779823601 -0.0950508770183 0.856 1.89919648415e-38
0.0539880098204 -0.0952729585067 0.858 1.89919648415e-38
0.0555758924622 -0.0952729585067 0.858 1.90837919299e-38
0.057163775104 -0.0952729585067 0.858 1.95440484105e-38
0.0587516577458 -0.0952729585067 0.858 1.94525744493e-38
0.0604801919968 -0.095495039995 0.86 1.93614578193e-38
0.0620717759968 -0.095495039995 0.86 1.90841604714e-38
0.0636633599967 -0.095495039995 0.86 1.97288082117e-38
0.0652549439966 -0.095495039995 0.86 1.96376873778e-38
0.0670019850384 -0.0957171214834 0.862 1.9729880205e-38
0.0685972703964 -0.0957171214834 0.862 2.06500260261e-38
-0.0381091834027 -0.0936850758649 0.858 1.96329972318e-38
-0.0365213007609 -0.0936850758649 0.858 2.03716398692e-38
-0.03485198824 -0.0934666957347 0.856 1.99106659238e-38
-0.0331900784355 -0.0932483156044 0.854 1.2535754019e-38
-0.0314985577658 -0.0929207454091 0.851 9.67982226954e-39
-0.0297829782682 -0.0924839851487 0.847 1.09698954709e-38
-0.0280155797567 -0.091828844758 0.841 1.35520541381e-38
-0.0264591586591 -0.091828844758 0.841 1.51175819798e-38
-0.0248435158313 -0.0916104646278 0.839 1.53941170214e-38
-0.0232352757197 -0.0913920844976 0.837 8.66425643089e-39
-0.0216344383245 -0.0911737043673 0.835 1.08805837132e-38
-0.0199928859897 -0.0907369441069 0.831 1.0144759087e-38
-0.0184105553851 -0.0905185639767 0.829 1.30925249314e-38
-0.0167949125573 -0.0900818037162 0.825 1.35520387238e-38
-0.0152681023248 -0.0900818037162 0.825 1.4748426715e-38
-0.0136746676458 -0.0896450434558 0.821 1.35505897812e-38
-0.0120960383994 -0.0892082831954 0.817 1.18013755328e-38
-0.0105581240925 -0.0889899030651 0.815 9.77314734596e-39
-0.00902761250186 -0.0887715229349 0.813 8.48455671842e-39
-0.00748599683682 -0.0883347626745 0.809 1.44765313726e-38
-0.0059739920369 -0.0881163825442 0.807 1.45647641305e-38
-0.00448049402767 -0.0881163825442 0.807 1.41027041787e-38
-0.00297959330217 -0.087898002414 0.805 1.35498863294e-38
-0.00148979665109 -0.087898002414 0.805 1.68707464885e-38
0.0 -0.087898002414 0.805 1.98217128986e-38
0.00148979665109 -0.087898002414 0.805 1.93611018895e-38
0.00298699601845 -0.0881163825442 0.807 1.89915963e-38
0.00449159810209 -0.0883347626745 0.809 1.9821376587e-38
0.00600360290201 -0.0885531428047 0.811 2.15730865479e-38
0.00752301041821 -0.0887715229349 0.813 2.66246708222e-44
0.00907202879953 -0.0892082831954 0.817 2.95114437496e-39
0.0106099431064 -0.0894266633256 0.819 3.5057222552e-39
0.0121552601296 -0.0896450434558 0.821 3.5057222552e-39
0.0136746676458 -0.0896450434558 0.821 1.38728547968e-43
0.015194075162 -0.0896450434558 0.821 1.62351511363e-38
0.0167541976177 -0.089863423586 0.823 2.00064741011e-38
0.0183217227897 -0.0900818037162 0.825 1.93600256923e-38
0.019896650678 -0.0903001838465 0.827 1.90834388027e-38
0.0214789812826 -0.0905185639767 0.829 1.91767134323e-38
0.0230131942314 -0.0905185639767 0.829 2.01901422908e-38
0.0246066289103 -0.0907369441069 0.831 1.91760071779e-38
0.026270389394 -0.0911737043673 0.835 1.98210066442e-38
0.0278823308637 -0.0913920844976 0.837 2.01901366856e-38
0.029431349245 -0.0913920844976 0.837 1.8256927745e-38
0.0310543947891 -0.0916104646278 0.839 1.79796149828e-38
0.0326848430495 -0.091828844758 0.841 3.60586604995e-39
0.0343226940261 -0.0920472248882 0.843 2.69680309849e-39
0.0358828164819 -0.0920472248882 0.843 1.42096905139e-38
0.0375317715329 -0.0922656050184 0.845 1.97295298804e-38
0.0391881293003 -0.0924839851487 0.847 1.98210066442e-38
0.0407556544723 -0.0924839851487 0.847 1.95447700792e-38
0.0424231163141 -0.0927023652789 0.849 1.56794059744e-38
0.0439943428442 -0.0927023652789 0.849 1.87215184418e-38
0.0456729087604 -0.0929207454091 0.851 1.93603788195e-38
0.0472478366487 -0.0929207454091 0.851 1.96373342506e-38
0.0489948776905 -0.0932483156044 0.854 1.9913925344e-38
0.050575357616 -0.0932483156044 0.854 1.97291641415e-38
0.0524001271787 -0.0936850758649 0.858 1.89912459754e-38
0.0539880098204 -0.0936850758649 0.858 1.90834388027e-38
0.0555758924622 -0.0936850758649 0.858 1.90848611206e-38
0.057297023997 -0.0939034559951 0.86 1.9177063757e-38
0.0588886079969 -0.0939034559951 0.86 1.94536506466e-38
0.0604801919968 -0.0939034559951 0.86 1.96376719635e-38
0.0620717759968 -0.0939034559951 0.86 2.02819819909e-38
0.0636633599967 -0.0939034559951 0.86 1.97291613389e-38
0.0654066996803 -0.0941218361253 0.862 1.94533031245e-38
0.0670019850384 -0.0941218361253 0.862 2.0466745996e-38
0.0685972703964 -0.0941218361253 0.862 2.00961291769e-38
-0.0381091834027 -0.0920971932231 0.858 1.95415302771e-38
-0.0365213007609 -0.0920971932231 0.858 1.98184632875e-38
-0.03485198824 -0.091882514451 0.856 2.05553262758e-38
-0.0332678069564 -0.091882514451 0.856 1.33633524843e-38
-0.0314985577658 -0.0913458175208 0.851 1.44725460798e-38
-0.0297829782682 -0.0909164599767 0.847 9.86206393742e-39
-0.0281488286497 -0.0907017812046 0.845 1.0137969796e-38
-0.0264591586591 -0.0902724236604 0.841 1.32765014068e-38
-0.0249027375615 -0.0902724236604 0.841 1.40122910005e-38
-0.0232907960918 -0.0900577448883 0.839 1.47477204606e-38
-0.0216862573384 -0.0898430661163 0.837 8.57210003738e-39
-0.0200410036455 -0.0894137085721 0.833 1.10700168448e-38
-0.0184105553851 -0.0889843510279 0.829 8.48416295355e-39
-0.0168356274968 -0.0887696722558 0.827 1.41963641655e-38
-0.0153051159062 -0.0887696722558 0.827 1.42867451138e-38
-0.0137412920923 -0.0885549934838 0.825 1.46537101492e-38
-0.0121552601296 -0.0881256359396 0.821 1.49328361916e-38
-0.0106099431064 -0.0879109571675 0.819 8.85191411734e-39
-0.00904982065069 -0.0874815996233 0.815 8.30198014021e-39
-0.00752301041821 -0.0872669208513 0.813 1.40155560259e-38
-0.00600360290201 -0.0870522420792 0.811 1.41041391084e-38
-0.00449159810209 -0.0868375633071 0.809 1.42874485657e-38
-0.00298699601845 -0.086622884535 0.807 1.29967125502e-38
-0.00149349800922 -0.086622884535 0.807 1.63168538433e-38
0.0 -0.086622884535 0.807 1.96366125818e-38
0.00149349800922 -0.086622884535 0.807 1.8900493683e-38
0.00299439873473 -0.0868375633071 0.809 1.89008454089e-38
0.00451380625093 -0.0872669208513 0.813 1.86231837234e-38
0.00601840833457 -0.0872669208513 0.813 2.19422249971e-38
0.00754151720891 -0.0874815996233 0.815 3.69158067442e-40
0.00909423694836 -0.0879109571675 0.819 1.47565836733e-39
0.0106099431064 -0.0879109571675 0.819 3.3234946003e-39
0.0121552601296 -0.0881256359396 0.821 3.59791788506e-39
0.0136746676458 -0.0881256359396 0.821 1.33123354111e-43
0.0152310887434 -0.0883403147117 0.823 1.63294977593e-38
0.0167949125573 -0.0885549934838 0.825 1.97313291476e-38
0.0183661390874 -0.0887696722558 0.827 1.96369811233e-38
0.0199447683338 -0.0889843510279 0.829 1.87160856076e-38
0.0215308002966 -0.0891990298 0.831 1.94533031245e-38
0.0230687146034 -0.0891990298 0.831 1.90841604714e-38
0.0246066289103 -0.0891990298 0.831 1.96369685117e-38
0.026270389394 -0.0896283873442 0.835 2.09269828584e-38
0.0278823308637 -0.0898430661163 0.837 2.04674522504e-38
0.0295016750496 -0.0900577448883 0.839 5.6105748434e-40
0.0311284219519 -0.0902724236604 0.841 7.77767591199e-39
0.0327625715704 -0.0904871024325 0.843 8.95459566361e-39
0.0344041239052 -0.0907017812046 0.845 1.28210135448e-38
0.0359679477191 -0.0907017812046 0.845 1.4485223627e-38
0.0376206041283 -0.0909164599767 0.847 1.95479916644e-38
0.0392806632538 -0.0911311387487 0.849 1.77955866594e-38
0.0408518897839 -0.0911311387487 0.849 2.18511027619e-38
0.0425230529838 -0.0913458175208 0.851 4.76857663514e-40
0.0440979808721 -0.0913458175208 0.851 1.65246481886e-38
0.0458339178395 -0.0916678356789 0.854 1.92692593868e-38
0.047414397765 -0.0916678356789 0.854 1.91763575025e-38
0.0491096197928 -0.091882514451 0.856 1.98210066442e-38
0.0506938010764 -0.091882514451 0.856 1.90834416053e-38
0.0524001271787 -0.0920971932231 0.858 1.89908802365e-38
0.0541138559972 -0.0923118719952 0.86 2.00053951013e-38
0.0557054399971 -0.0923118719952 0.86 1.92696279283e-38
0.057297023997 -0.0923118719952 0.86 1.90841646753e-38
0.0588886079969 -0.0923118719952 0.86 1.96376873778e-38
0.0606208436061 -0.0925265507673 0.862 1.97302305297e-38
0.0625770113828 -0.0930632476975 0.867 1.96369685117e-38
0.0641815501362 -0.0930632476975 0.867 1.94522241247e-38
0.0657860888896 -0.0930632476975 0.867 1.95447700792e-38
0.067390627643 -0.0930632476975 0.867 1.91745582353e-38
0.0689951663964 -0.0930632476975 0.867 2.00961291769e-38
-0.038198015998 -0.0907202879953 0.86 1.94493318447e-38
-0.0365213007609 -0.0905093105813 0.858 1.91727435538e-38
-0.03485198824 -0.0902983331674 0.856 2.08333410886e-38
-0.0332678069564 -0.0902983331674 0.856 1.17052702803e-38
-0.0314985577658 -0.0897708896325 0.851 1.50246254449e-38
-0.0298533040729 -0.0895599122186 0.849 1.25382146991e-38
-0.0282154530962 -0.0893489348046 0.847 1.07883334327e-38
-0.0264591586591 -0.0887160025628 0.841 9.03340889314e-39
-0.0249027375615 -0.0887160025628 0.841 1.28159338379e-38
-0.0233463164639 -0.0887160025628 0.841 1.49328179747e-38
-0.0216862573384 -0.0882940477349 0.837 1.308963125e-38
-0.0200891213013 -0.088083070321 0.835 8.11327568381e-39
-0.0184549716828 -0.0876611154931 0.831 1.43817993926e-38
-0.0168763424363 -0.0874501380792 0.829 8.94118383601e-39
-0.0153051159062 -0.0872391606652 0.827 1.1339747181e-38
-0.0137412920923 -0.0870281832513 0.825 1.47498714537e-38
-0.0121848709947 -0.0868172058373 0.823 1.41016167711e-38
-0.0106358526134 -0.0866062284234 0.821 1.47487770396e-38
-0.00907202879953 -0.0861842735955 0.817 1.40115875487e-38
-0.00752301041821 -0.0857623187676 0.813 1.40119532876e-38
-0.00600360290201 -0.0855513413537 0.811 1.47495085174e-38
-0.00450270217651 -0.0855513413537 0.811 1.34594885654e-38
-0.00299439873473 -0.0853403639397 0.809 1.32747413759e-38
-0.00149719936736 -0.0853403639397 0.809 1.59487943938e-38
0.0 -0.0851293865258 0.807 2.00975907312e-38
0.00149349800922 -0.0851293865258 0.807 1.89919648415e-38
0.00300180145101 -0.0855513413537 0.811 1.94533157362e-38
0.00451380625093 -0.0857623187676 0.813 1.89008454089e-38
0.00601840833457 -0.0857623187676 0.813 2.10206218257e-38
0.0075785307903 -0.0863952510095 0.819 1.28152177744e-38
0.00909423694836 -0.0863952510095 0.819 1.69557114183e-43
0.0106099431064 -0.0863952510095 0.819 3.04763358332e-39
0.0121848709947 -0.0868172058373 0.823 3.2287766332e-39
0.0137079798691 -0.0868172058373 0.823 1.27518160254e-43
0.0152681023248 -0.0870281832513 0.825 1.97331508356e-38
0.0167949125573 -0.0870281832513 0.825 1.96391363204e-38
0.0183661390874 -0.0872391606652 0.827 1.87164569517e-38
0.0199447683338 -0.0874501380792 0.829 1.96384146517e-38
0.0215308002966 -0.0876611154931 0.831 1.97306102815e-38
0.0230687146034 -0.0876611154931 0.831 1.96373342506e-38
0.0246066289103 -0.0876611154931 0.831 1.95458658946e-38
0.0263333124823 -0.0882940477349 0.837 1.10636129108e-38
0.0278823308637 -0.0882940477349 0.837 5.54226995106e-39
0.0295016750496 -0.0885050251489 0.839 1.87104593943e-39
0.0311284219519 -0.0887160025628 0.841 8.60024932093e-39
0.0327625715704 -0.0889269799768 0.843 1.67818523179e-38
0.0344041239052 -0.0891379573907 0.845 1.71430720295e-38
0.0359679477191 -0.0891379573907 0.845 1.63250710574e-38
0.0376206041283 -0.0893489348046 0.847 2.12082584927e-38
0.0392806632538 -0.0895599122186 0.849 1.95960379848e-40
0.0409481250955 -0.0897708896325 0.851 2.20405176766e-38
0.0425230529838 -0.0897708896325 0.851 1.92750005066e-40
0.0440979808721 -0.0897708896325 0.851 1.61583824012e-38
0.0458339178395 -0.0900873557534 0.854 1.92689090622e-38
0.047414397765 -0.0900873557534 0.854 1.93593194378e-38
0.0491096197928 -0.0902983331674 0.856 1.94515052586e-38
0.0506938010764 -0.0902983331674 0.856 1.97291641415e-38
0.0525222719973 -0.0907202879953 0.86 1.9176340687e-38
0.0541138559972 -0.0907202879953 0.86 1.90845135986e-38
0.0557054399971 -0.0907202879953 0.86 1.89923179687e-38
0.05743027289 -0.0909312654092 0.862 2.04670823076e-38
0.0590255582481 -0.0909312654092 0.862 1.93607515649e-38
0.0607614952154 -0.0911422428232 0.864 1.92696279283e-38
0.0627213643502 -0.091669686358 0.869 1.97302571543e-38
0.0643296044618 -0.091669686358 0.869 1.96376845752e-38
0.0657860888896 -0.0914587089441 0.867 1.80692868742e-38
0.067390627643 -0.0914587089441 0.867 2.02809156028e-38
0.0689951663964 -0.0914587089441 0.867 2.09258926482e-38
-0.038198015998 -0.0891287039954 0.86 1.9541886207e-38
-0.0365213007609 -0.0889214279396 0.858 2.01879744821e-38
-0.03485198824 -0.0887141518838 0.856 2.10180896794e-38
-0.0332678069564 -0.0887141518838 0.856 1.271870054e-38
-0.03160959851 -0.0885068758279 0.854 1.09684058906e-38
-0.0299236298775 -0.0881959617442 0.851 1.10624218072e-38
-0.0282820775427 -0.0879886856884 0.849 1.27258892012e-38
-0.0266479279242 -0.0877814096326 0.847 1.04206046897e-38
-0.0249619592917 -0.087366857521 0.843 1.15212517659e-38
-0.023401836836 -0.087366857521 0.843 1.3092485695e-38
