# .PCD v0.7 - Point Cloud Data file format
VERSION 0.7
FIELDS x y z rgb
SIZE 4 4 4 4
TYPE F F F F
COUNT 1 1 1 1
WIDTH 845
HEIGHT 1
VIEWPOINT 0 0 0 1 0 0 0
POINTS 845
DATA ascii
0.0490948143602 -0.0429579625652 0.829 2.31158278753e-38
0.050629027309 -0.0429579625652 0.829 2.34824243691e-38
0.0522890864345 -0.0430616005931 0.831 2.34842026169e-38
0.0539565482763 -0.043165238621 0.833 2.34939346347e-38
0.0556314128343 -0.0432688766489 0.835 4.77544580022e-39
0.0571767298575 -0.0432688766489 0.835 1.04897531637e-38
0.05886269849 -0.0433725146768 0.837 2.34921732026e-38
0.0605560698387 -0.0434761527047 0.839 2.29328687426e-38
0.0621087895782 -0.0434761527047 0.839 2.34820502225e-38
0.0638132650013 -0.0435797907326 0.841 2.34817223186e-38
0.0655251431408 -0.0436834287605 0.843 2.34809642161e-38
0.0670852655965 -0.0436834287605 0.843 2.32033165436e-38
0.0686453880522 -0.0436834287605 0.843 2.34809880382e-38
0.070205510508 -0.0436834287605 0.843 2.34813509745e-38
0.0719358954381 -0.0437870667884 0.845 2.35080260921e-38
0.073499719252 -0.0437870667884 0.845 2.35098407736e-38
0.0750635430659 -0.0437870667884 0.845 2.35098449775e-38
0.00156752517201 -0.0423231796443 0.847 2.12744390166e-38
0.00313505034402 -0.0423231796443 0.847 6.70793727601e-39
0.00470257551603 -0.0423231796443 0.847 1.51931792294e-38
0.00625529525549 -0.0422232429745 0.845 1.99887196496e-38
0.00780061227866 -0.0421233063048 0.843 2.08123692557e-38
0.00931631843672 -0.0419234329653 0.839 1.93365105027e-38
0.0108431286692 -0.0418234962955 0.837 1.94297795272e-38
0.0123329253203 -0.041623622956 0.833 1.93357874327e-38
0.0138079165388 -0.0414237496164 0.829 2.06286716388e-38
0.0153421294876 -0.0414237496164 0.829 2.47955839627e-39
0.0168763424363 -0.0414237496164 0.829 5.04467447157e-44
0.0183661390874 -0.0413238129467 0.827 2.34975822146e-38
0.019896650678 -0.0413238129467 0.827 2.3500072322e-38
0.0214271622687 -0.0413238129467 0.827 2.35094512126e-38
0.0229576738593 -0.0413238129467 0.827 2.35097763139e-38
0.0244881854499 -0.0413238129467 0.827 2.35072609831e-38
0.0260186970405 -0.0413238129467 0.827 1.63949299898e-38
0.0274825841846 -0.0412238762769 0.825 7.25903853476e-39
0.0290093944171 -0.0412238762769 0.825 4.61743398408e-39
0.0305362046496 -0.0412238762769 0.825 8.2997969172e-39
0.032140743403 -0.0413238129467 0.827 1.18957726026e-38
0.0336712549936 -0.0413238129467 0.827 9.77744512835e-39
0.0352017665842 -0.0413238129467 0.827 8.11864826212e-39
0.0367322781748 -0.0413238129467 0.827 6.91977156486e-39
0.0382627897654 -0.0413238129467 0.827 3.7858586338e-39
0.0397933013561 -0.0413238129467 0.827 4.61774787494e-39
0.0413238129467 -0.0413238129467 0.827 4.89002156785e-39
0.0428543245373 -0.0413238129467 0.827 5.71329702733e-39
0.044492175514 -0.0414237496164 0.829 4.06376554654e-44
0.0460263884627 -0.0414237496164 0.829 2.27536118404e-38
0.0475606014115 -0.0414237496164 0.829 2.31190340462e-38
0.0490948143602 -0.0414237496164 0.829 2.28391681182e-38
0.0507511721276 -0.0415236862862 0.831 2.3486020101e-38
0.0524149326112 -0.041623622956 0.833 2.34874508267e-38
0.0540860958111 -0.0417235596257 0.835 2.3491095604e-38
0.0556314128343 -0.0417235596257 0.835 1.18694225863e-38
0.0573136801086 -0.0418234962955 0.837 2.17329354663e-38
0.05886269849 -0.0418234962955 0.837 2.34878375851e-38
0.0605560698387 -0.0419234329653 0.839 2.34860257062e-38
0.0624048982293 -0.0421233063048 0.843 2.34838424832e-38
0.063965020685 -0.0421233063048 0.843 2.34827634834e-38
0.0656806001826 -0.0422232429745 0.845 2.34802551591e-38
0.0672444239965 -0.0422232429745 0.845 2.3487428406e-38
0.0688082478104 -0.0422232429745 0.845 2.3483127821e-38
0.0703720716242 -0.0422232429745 0.845 2.3295143632e-38
0.0721061579125 -0.0423231796443 0.847 2.35090770659e-38
0.0736736830845 -0.0423231796443 0.847 2.35098477801e-38
0.00314985577658 -0.0409481250955 0.851 1.58352667974e-38
0.00471367959045 -0.0408518897839 0.849 4.5917748079e-39
0.00627010068805 -0.0407556544723 0.847 2.01724242731e-38
0.00781911906936 -0.0406594191607 0.845 2.06268737728e-38
0.00933852658556 -0.0404669485374 0.841 1.9704550334e-38
0.0108431286692 -0.0402744779142 0.837 1.86904446483e-38
0.0123329253203 -0.0400820072909 0.833 1.97942642643e-38
0.0138079165388 -0.0398895366677 0.829 2.0810548969e-38
0.0153421294876 -0.0398895366677 0.829 1.60207678855e-38
0.0168763424363 -0.0398895366677 0.829 1.83670992316e-39
0.0183661390874 -0.0397933013561 0.827 1.83279441499e-38
0.019896650678 -0.0397933013561 0.827 2.35082881349e-38
0.0214271622687 -0.0397933013561 0.827 2.35069064546e-38
0.0229576738593 -0.0397933013561 0.827 1.39052668303e-38
0.0244881854499 -0.0397933013561 0.827 6.79884090869e-39
0.0260186970405 -0.0397933013561 0.827 5.81489116599e-39
0.0274825841846 -0.0396970660444 0.825 9.31396846387e-39
0.0290093944171 -0.0396970660444 0.825 1.12504270156e-38
0.0305362046496 -0.0396970660444 0.825 1.04192047926e-38
0.0320630148821 -0.0396970660444 0.825 6.9161744317e-39
0.0335898251145 -0.0396970660444 0.825 6.184723258e-39
0.0352017665842 -0.0397933013561 0.827 4.52446343617e-39
0.0367322781748 -0.0397933013561 0.827 4.79817346001e-39
0.0382627897654 -0.0397933013561 0.827 5.80945833185e-39
0.0397933013561 -0.0397933013561 0.827 6.63847771373e-39
0.0414237496164 -0.0398895366677 0.829 6.36188662024e-39
0.0429579625652 -0.0398895366677 0.829 7.28169472833e-39
0.044492175514 -0.0398895366677 0.829 1.40129846432e-44
0.0461374292069 -0.0399857719793 0.831 2.10941227328e-38
0.0476753435138 -0.0399857719793 0.831 2.31208529316e-38
0.0492132578207 -0.0399857719793 0.831 2.3482752273e-38
0.0508733169462 -0.0400820072909 0.833 2.34845627506e-38
0.052540778788 -0.0401782426026 0.835 2.31154200974e-38
0.0540860958111 -0.0401782426026 0.835 2.34885424382e-38
0.0557646617273 -0.0402744779142 0.837 1.97960817484e-38
0.0573136801086 -0.0402744779142 0.837 2.27459691586e-38
0.0590033500993 -0.0403707132258 0.839 2.32987323573e-38
0.0608447757736 -0.040563183849 0.843 2.34845795662e-38
0.0624048982293 -0.040563183849 0.843 2.33887825993e-38
0.0641167763688 -0.0406594191607 0.845 2.33873574787e-38
0.0656806001826 -0.0406594191607 0.845 2.34863802347e-38
0.0672444239965 -0.0406594191607 0.845 2.34842152286e-38
0.0688082478104 -0.0406594191607 0.845 2.34806265032e-38
0.0705386327405 -0.0407556544723 0.847 2.34799174462e-38
0.0721061579125 -0.0407556544723 0.847 2.35097665048e-38
0.0736736830845 -0.0407556544723 0.847 2.3509851984e-38
0.0047414397765 -0.0395119981375 0.854 6.70399121953e-39
0.00629971155316 -0.0393731972073 0.851 2.17278711736e-38
0.00785613265075 -0.0392806632538 0.849 1.93365273183e-38
0.0094273591809 -0.0392806632538 0.849 2.09031173443e-38
0.0108690381762 -0.0388179934863 0.839 1.89680811105e-38
0.0123329253203 -0.0385403916259 0.833 2.0256671738e-38
0.0138079165388 -0.0383553237189 0.829 1.82294244601e-38
0.0153421294876 -0.0383553237189 0.829 2.12715117041e-38
0.0168763424363 -0.0383553237189 0.829 9.10896690633e-39
0.0183661390874 -0.0382627897654 0.827 0.0
0.019896650678 -0.0382627897654 0.827 1.56571211249e-38
0.0214271622687 -0.0382627897654 0.827 3.21427599669e-39
0.0229576738593 -0.0382627897654 0.827 5.26746271052e-39
0.0244289637197 -0.038170255812 0.825 8.57640062237e-39
0.0259557739521 -0.038170255812 0.825 1.11607663347e-38
0.0274825841846 -0.038170255812 0.825 8.30411571907e-39
0.0289390686124 -0.0380777218585 0.823 7.10308662737e-39
0.0304621774868 -0.0380777218585 0.823 7.10343975458e-39
0.0320630148821 -0.038170255812 0.825 5.26129979987e-39
0.0335898251145 -0.038170255812 0.825 5.44247367832e-39
0.0352017665842 -0.0382627897654 0.827 5.62613906545e-39
0.0367322781748 -0.0382627897654 0.827 5.90161612665e-39
0.0382627897654 -0.0382627897654 0.827 6.26898753855e-39
0.0397933013561 -0.0382627897654 0.827 5.89878129986e-39
0.0414237496164 -0.0383553237189 0.829 6.36009155691e-39
0.0430616005931 -0.0384478576724 0.831 5.89731554166e-39
0.0445995149 -0.0384478576724 0.831 0.0
0.0461374292069 -0.0384478576724 0.831 1.75942845298e-38
0.0477900856161 -0.0385403916259 0.833 2.34946829281e-38
0.0494501447416 -0.0386329255794 0.835 2.32076171286e-38
0.0509954617648 -0.0386329255794 0.835 2.31125530408e-38
0.0526666249647 -0.0387254595329 0.837 2.34845963818e-38
0.054215643346 -0.0387254595329 0.837 2.34874452215e-38
0.0557646617273 -0.0387254595329 0.837 2.10867799288e-38
0.0574506303598 -0.0388179934863 0.839 2.17310633315e-38
0.0592846533178 -0.0390030613933 0.843 2.30214490224e-38
0.060989128741 -0.0390955953468 0.845 2.34831194132e-38
0.0627010068805 -0.0391881293003 0.847 2.34834921586e-38
0.0644202877362 -0.0392806632538 0.849 2.34852928271e-38
0.0661469713082 -0.0393731972073 0.851 2.34849312921e-38
0.0677218991965 -0.0393731972073 0.851 2.34856809868e-38
0.0692968270848 -0.0393731972073 0.851 2.34841815974e-38
0.0708717549731 -0.0393731972073 0.851 2.34809852356e-38
0.0724466828613 -0.0393731972073 0.851 2.35094722321e-38
0.0740216107496 -0.0393731972073 0.851 2.35098491814e-38
0.00475254385092 -0.0380203508073 0.856 2.02595458012e-38
0.00629971155316 -0.037798269319 0.851 2.00737055988e-38
0.00785613265075 -0.0377094367236 0.849 1.94272768082e-38
0.0094273591809 -0.0377094367236 0.849 2.08080504539e-38
0.011024495218 -0.037798269319 0.851 1.94283333872e-38
0.0123625361854 -0.0370876085562 0.835 1.97059936714e-38
0.0138079165388 -0.0368211107702 0.829 2.05371822633e-38
0.0153421294876 -0.0368211107702 0.829 1.85049547706e-38
0.0168763424363 -0.0368211107702 0.829 2.03517540427e-38
0.0183661390874 -0.0367322781748 0.827 1.92854541932e-39
0.019896650678 -0.0367322781748 0.827 1.47704985671e-39
0.0214271622687 -0.0367322781748 0.827 7.93249697152e-39
0.0229576738593 -0.0367322781748 0.827 1.05150311867e-38
0.0244289637197 -0.0366434455795 0.825 8.57997393345e-39
0.0259557739521 -0.0366434455795 0.825 6.91906811303e-39
0.0274825841846 -0.0366434455795 0.825 5.72446817869e-39
0.0289390686124 -0.0365546129841 0.823 5.07548341961e-39
0.0304621774868 -0.0365546129841 0.823 5.07476735609e-39
0.0320630148821 -0.0366434455795 0.825 6.08639414475e-39
0.0335898251145 -0.0366434455795 0.825 5.7165200138e-39
0.0352017665842 -0.0367322781748 0.827 6.26791554523e-39
0.0367322781748 -0.0367322781748 0.827 6.72888108286e-39
0.0382627897654 -0.0367322781748 0.827 6.72779507655e-39
0.0398895366677 -0.0368211107702 0.829 5.71294670271e-39
0.0415236862862 -0.0369099433655 0.831 6.63488338317e-39
0.0430616005931 -0.0369099433655 0.831 7.46464685454e-39
0.0445995149 -0.0369099433655 0.831 2.85701495321e-39
0.0462484699511 -0.0369987759609 0.833 1.38182307814e-38
0.0479048277184 -0.0370876085562 0.835 2.34953891825e-38
0.0494501447416 -0.0370876085562 0.835 2.3487480254e-38
0.0511176065834 -0.0371764411516 0.837 2.34845823688e-38
0.0526666249647 -0.0371764411516 0.837 2.34831712612e-38
0.054215643346 -0.0371764411516 0.837 2.34841998143e-38
0.0558979106203 -0.0372652737469 0.839 2.19161510366e-38
0.0577245308621 -0.0374429389376 0.843 2.34831432353e-38
0.0595659565364 -0.0376206041283 0.847 2.34824201652e-38
0.0612778346759 -0.0377094367236 0.849 2.34845767636e-38
0.062849061206 -0.0377094367236 0.849 2.34831390314e-38
0.0645720434199 -0.037798269319 0.851 2.34877843358e-38
0.066380156871 -0.037931518212 0.854 2.3487438215e-38
0.0679606367965 -0.037931518212 0.854 2.34849088713e-38
0.069541116722 -0.037931518212 0.854 2.34824159614e-38
0.0711215966475 -0.037931518212 0.854 2.34809768278e-38
0.072702076573 -0.037931518212 0.854 2.35098197541e-38
0.0742825564985 -0.037931518212 0.854 2.35098267606e-38
0.00476364792533 -0.0365213007609 0.858 1.99825861662e-38
0.00633672513455 -0.0364361695237 0.856 1.98893339573e-38
0.00787463944145 -0.0362233414307 0.851 1.96127694885e-38
0.00944956732974 -0.0362233414307 0.851 2.00719273511e-38
0.011024495218 -0.0362233414307 0.851 1.97041972068e-38
0.0125994231063 -0.0362233414307 0.851 1.96141763921e-38
0.0138079165388 -0.0352868978214 0.829 1.8877680544e-38
0.0153421294876 -0.0352868978214 0.829 1.97052776079e-38
0.0168763424363 -0.0352868978214 0.829 2.05364633972e-38
0.0183661390874 -0.0352017665842 0.827 1.63902552581e-38
0.019896650678 -0.0352017665842 0.827 2.38772290011e-39
0.0214271622687 -0.0352017665842 0.827 9.77459208468e-39
0.0229576738593 -0.0352017665842 0.827 6.64245880267e-39
0.0244881854499 -0.0352017665842 0.827 6.08858857815e-39
0.0259557739521 -0.035116635347 0.825 5.62506707212e-39
0.0274825841846 -0.035116635347 0.825 5.16483020969e-39
0.0290093944171 -0.035116635347 0.825 6.36011397769e-39
0.0305362046496 -0.035116635347 0.825 6.36008875431e-39
0.0320630148821 -0.035116635347 0.825 6.45338300217e-39
0.0336712549936 -0.0352017665842 0.827 7.18949909847e-39
0.0352017665842 -0.0352017665842 0.827 6.72817202583e-39
0.0367322781748 -0.0352017665842 0.827 6.07993415883e-39
0.0383553237189 -0.0352868978214 0.829 6.44906279901e-39
0.0398895366677 -0.0352868978214 0.829 5.52745682499e-39
0.0415236862862 -0.0353720290586 0.831 7.37244842207e-39
0.0430616005931 -0.0353720290586 0.831 7.2798968624e-39
0.0445995149 -0.0353720290586 0.831 5.71366276623e-39
0.0462484699511 -0.0354571602958 0.833 1.19764887954e-38
0.0479048277184 -0.035542291533 0.835 2.34946661125e-38
0.0495685882021 -0.0356274227702 0.837 2.2838852826e-38
0.0511176065834 -0.0356274227702 0.837 2.34834921586e-38
0.0526666249647 -0.0356274227702 0.837 2.34816998978e-38
0.0543451908809 -0.0357125540074 0.839 2.34838326741e-38
0.0561644084064 -0.0358828164819 0.843 2.21923890029e-38
0.0577245308621 -0.0358828164819 0.843 2.34823823302e-38
0.0597066081457 -0.0361382101935 0.849 2.34817041017e-38
0.0612778346759 -0.0361382101935 0.849 2.34824229678e-38
0.0629971155316 -0.0362233414307 0.851 2.34838705092e-38
0.0647996769455 -0.0363510382865 0.854 2.34856557634e-38
0.066380156871 -0.0363510382865 0.854 2.34852858206e-38
0.0679606367965 -0.0363510382865 0.854 2.34863255841e-38
0.069541116722 -0.0363510382865 0.854 2.34842096234e-38
0.0712881577637 -0.0364361695237 0.856 2.34824005471e-38
0.0728723390474 -0.0364361695237 0.856 2.35098211554e-38
0.074456520331 -0.0364361695237 0.856 2.35098281619e-38
0.00477475199975 -0.0350148479982 0.86 1.99833064336e-38
0.00635153056711 -0.0349334181191 0.858 1.96127442651e-38
0.00792090641819 -0.03485198824 0.856 2.02598989284e-38
0.00950508770183 -0.03485198824 0.856 1.93372307701e-38
0.0110892689855 -0.03485198824 0.856 1.98871437278e-38
0.0127326719993 -0.0350148479982 0.86 2.00722804783e-38
0.0138079165388 -0.0337526848727 0.829 1.96152329712e-38
0.0153421294876 -0.0337526848727 0.829 1.92453742545e-38
0.0168763424363 -0.0337526848727 0.829 1.89680755053e-38
0.0183661390874 -0.0336712549936 0.827 2.02584499858e-38
0.019896650678 -0.0336712549936 0.827 1.85082141909e-38
0.0214271622687 -0.0336712549936 0.827 1.25216919889e-38
0.0229576738593 -0.0336712549936 0.827 1.22465302199e-38
0.0244881854499 -0.0336712549936 0.827 1.27060650318e-38
0.0260186970405 -0.0336712549936 0.827 1.1781220657e-38
0.0274825841846 -0.0335898251145 0.825 9.75186302359e-39
0.0290093944171 -0.0335898251145 0.825 7.54639019915e-39
0.0305362046496 -0.0335898251145 0.825 7.18373415659e-39
0.032140743403 -0.0336712549936 0.827 6.63381138984e-39
0.0336712549936 -0.0336712549936 0.827 5.34271944454e-39
0.0352017665842 -0.0336712549936 0.827 7.5561138092e-39
0.0368211107702 -0.0337526848727 0.829 6.54016961996e-39
0.0383553237189 -0.0337526848727 0.829 6.81927464289e-39
0.0399857719793 -0.0338341147517 0.831 6.63738189833e-39
0.0415236862862 -0.0338341147517 0.831 8.11108545431e-39
0.043165238621 -0.0339155446308 0.833 8.29617876456e-39
0.044706854286 -0.0339155446308 0.833 7.28239818016e-39
0.0463595106953 -0.0339969745099 0.835 8.10464368527e-39
0.0480195698208 -0.0340784043889 0.837 2.34950388579e-38
0.0495685882021 -0.0340784043889 0.837 2.2744506203e-38
0.051239751402 -0.034159834268 0.839 2.34813551784e-38
0.0527924711414 -0.034159834268 0.839 2.2926396145e-38
0.0546042859506 -0.0343226940261 0.843 2.34791551398e-38
0.0562976572994 -0.0344041239052 0.845 2.311325369e-38
0.0581353816156 -0.0345669836633 0.849 2.34856571647e-38
0.059847259755 -0.0346484135424 0.851 2.34856501582e-38
0.0614221876433 -0.0346484135424 0.851 2.34878319799e-38
0.06321919702 -0.034770558361 0.854 2.34845767636e-38
0.0647996769455 -0.034770558361 0.854 2.3485658566e-38
0.066380156871 -0.034770558361 0.854 2.34853012349e-38
0.0681197951965 -0.03485198824 0.856 2.34867445723e-38
0.0697039764801 -0.03485198824 0.856 2.34827915093e-38
0.0712881577637 -0.03485198824 0.856 2.34896312471e-38
0.0728723390474 -0.03485198824 0.856 2.35098141489e-38
0.00478585607417 -0.0335009925192 0.862 1.99825889688e-38
0.00635153056711 -0.0333455354773 0.858 1.98889808301e-38
0.00793941320889 -0.0333455354773 0.858 1.96138008441e-38
0.0095495039995 -0.0334232639983 0.86 2.12729886727e-38
0.0111410879994 -0.0334232639983 0.86 1.95198255652e-38
0.0127326719993 -0.0334232639983 0.86 1.94276173237e-38
0.0143242559993 -0.0334232639983 0.86 1.96116302328e-38
0.0153421294876 -0.0322184719239 0.829 1.93354343055e-38
0.0168763424363 -0.0322184719239 0.829 1.87829878002e-38
0.0183661390874 -0.032140743403 0.827 1.84145570067e-38
0.019896650678 -0.032140743403 0.827 2.22845846327e-38
0.0214271622687 -0.032140743403 0.827 2.34917780364e-38
0.0229576738593 -0.032140743403 0.827 2.17368016488e-38
0.0244881854499 -0.032140743403 0.827 2.0722672141e-38
0.0260186970405 -0.032140743403 0.827 2.19176378143e-38
0.0274825841846 -0.0320630148821 0.825 2.05375774295e-38
0.0290093944171 -0.0320630148821 0.825 1.9067110873e-38
0.0306102318124 -0.032140743403 0.827 1.91603756936e-38
0.032140743403 -0.032140743403 0.827 1.67632767054e-38
0.0336712549936 -0.032140743403 0.827 1.30712728389e-38
0.0352868978214 -0.0322184719239 0.829 1.15050219271e-38
0.0368211107702 -0.0322184719239 0.829 9.56605925501e-39
0.0383553237189 -0.0322184719239 0.829 8.74313271885e-39
0.0399857719793 -0.0322962004448 0.831 6.9078759422e-39
0.0417235596257 -0.0324516574867 0.835 7.27737872906e-39
0.0432688766489 -0.0324516574867 0.835 7.37316448559e-39
0.0448141936721 -0.0324516574867 0.835 4.79277285573e-39
0.0464705514394 -0.0325293860076 0.837 6.44619854495e-39
0.0481343119231 -0.0326071145285 0.839 2.34939682659e-38
0.0496870316625 -0.0326071145285 0.839 2.34853054388e-38
0.051239751402 -0.0326071145285 0.839 2.34824117575e-38
0.0529183173182 -0.0326848430495 0.841 2.3479883815e-38
0.0546042859506 -0.0327625715704 0.843 2.34784586945e-38
0.0565641550854 -0.0329957571332 0.849 2.33877078033e-38
0.0582723318667 -0.0330734856541 0.851 2.34863984516e-38
0.060058237169 -0.0331900784355 0.854 2.34852872219e-38
0.0616387170945 -0.0331900784355 0.854 2.34859948776e-38
0.0633672513455 -0.0332678069564 0.856 2.34852676037e-38
0.0649514326292 -0.0332678069564 0.856 2.34863830373e-38
0.0665356139128 -0.0332678069564 0.856 2.34867445723e-38
0.0681197951965 -0.0332678069564 0.856 2.34860285088e-38
0.0698668362382 -0.0333455354773 0.858 2.34828013184e-38
0.07145471888 -0.0333455354773 0.858 2.34885690629e-38
0.0730426015218 -0.0333455354773 0.858 2.35098253593e-38
0.00478585607417 -0.0319057071611 0.862 1.96138260675e-38
0.00638114143223 -0.0319057071611 0.862 1.96141735895e-38
0.00797642679028 -0.0319057071611 0.862 2.0443543296e-38
0.00957171214834 -0.0319057071611 0.862 1.85056834458e-38
0.0111410879994 -0.0318316799983 0.86 1.97953404615e-38
0.0127326719993 -0.0318316799983 0.86 1.96120225964e-38
0.0143242559993 -0.0318316799983 0.86 1.9426557942e-38
0.015379143069 -0.0307582861379 0.831 1.97956907861e-38
0.0168763424363 -0.0306842589751 0.829 1.91521346573e-38
0.0184105553851 -0.0306842589751 0.829 1.87840471819e-38
0.019896650678 -0.0306102318124 0.827 2.13619052641e-38
0.0214271622687 -0.0306102318124 0.827 2.34867403684e-38
0.0229576738593 -0.0306102318124 0.827 2.32050961927e-38
0.0244881854499 -0.0306102318124 0.827 2.29306574936e-38
0.0260186970405 -0.0306102318124 0.827 2.12725808948e-38
0.0275492086311 -0.0306102318124 0.827 2.12715243158e-38
0.0290797202217 -0.0306102318124 0.827 2.23782179948e-38
0.0306102318124 -0.0306102318124 0.827 2.20090893547e-38
0.0322184719239 -0.0306842589751 0.829 2.18239918405e-38
0.0337526848727 -0.0306842589751 0.829 2.24722030828e-38
0.0352868978214 -0.0306842589751 0.829 2.15516887203e-38
0.0368211107702 -0.0306842589751 0.829 2.1368407289e-38
0.0385403916259 -0.0308323133007 0.833 2.04482432511e-38
0.0401782426026 -0.0309063404635 0.835 1.89763599818e-38
0.0417235596257 -0.0309063404635 0.835 1.62115700857e-38
0.0433725146768 -0.0309803676263 0.837 1.34400175233e-38
0.0449215330581 -0.0309803676263 0.837 1.10461891657e-38
0.0464705514394 -0.0309803676263 0.837 5.79138578555e-39
0.0481343119231 -0.0310543947891 0.839 2.34954088007e-38
0.049805475123 -0.0311284219519 0.841 2.34831558469e-38
0.0513618962206 -0.0311284219519 0.841 2.34834949612e-38
0.0530441634949 -0.0312024491147 0.843 2.34845809675e-38
0.0546042859506 -0.0312024491147 0.843 2.34813285537e-38
0.056897277318 -0.03160959851 0.854 2.34863732282e-38
0.0584777572435 -0.03160959851 0.854 2.34820656367e-38
0.060058237169 -0.03160959851 0.854 2.21920358757e-38
0.0616387170945 -0.03160959851 0.854 2.34856529608e-38
0.0633672513455 -0.0316836256728 0.856 2.3484935496e-38
0.0651031883129 -0.0317576528356 0.858 2.34906976353e-38
0.0666910709547 -0.0317576528356 0.858 2.34827760951e-38
0.0684381119964 -0.0318316799983 0.86 2.34874508267e-38
0.0700296959964 -0.0318316799983 0.86 2.3482428573e-38
0.0716212799963 -0.0318316799983 0.86 2.34882061266e-38
0.00797642679028 -0.0303104218031 0.862 1.96109295836e-38
0.00957171214834 -0.0303104218031 0.862 1.99793813966e-38
0.0111669975064 -0.0303104218031 0.862 1.9612025399e-38
0.0127622828645 -0.0303104218031 0.862 1.95198283678e-38
0.0143575682225 -0.0303104218031 0.862 1.95187703875e-38
0.015379143069 -0.029220371831 0.831 1.9609870202e-38
0.0169170573759 -0.029220371831 0.831 1.8967750404e-38
0.0184105553851 -0.0291500460264 0.829 1.9152119243e-38
0.0199447683338 -0.0291500460264 0.829 2.02559332537e-38
0.0214271622687 -0.0290797202217 0.827 2.33930985985e-38
0.0229576738593 -0.0290797202217 0.827 2.34842012156e-38
0.0245474071801 -0.0291500460264 0.829 2.34813131395e-38
0.0260816201289 -0.0291500460264 0.829 2.21916883537e-38
0.0276158330776 -0.0291500460264 0.829 2.22842371107e-38
0.0291500460264 -0.0291500460264 0.829 2.26529944068e-38
0.0306842589751 -0.0291500460264 0.829 2.30232090533e-38
0.0322962004448 -0.029220371831 0.831 2.23760796134e-38
0.0338341147517 -0.029220371831 0.831 2.25612065548e-38
0.0353720290586 -0.029220371831 0.831 2.30228895572e-38
0.0369099433655 -0.029220371831 0.831 2.28388584312e-38
0.0386329255794 -0.0293610234403 0.835 2.3021799347e-38
0.0402744779142 -0.029431349245 0.837 2.23775047339e-38
0.0418234962955 -0.029431349245 0.837 2.3485658566e-38
0.0434761527047 -0.0295016750496 0.839 2.34860411205e-38
0.0450288724442 -0.0295016750496 0.839 2.32112478929e-38
0.0465815921836 -0.0295016750496 0.839 2.13702065562e-38
0.0483637961277 -0.0296423266589 0.843 2.26562594322e-38
0.0499239185834 -0.0296423266589 0.843 2.33902147263e-38
0.0516061858578 -0.0297126524636 0.845 2.34838564962e-38
0.0531700096716 -0.0297126524636 0.845 2.3483888726e-38
0.0551224760902 -0.0299236298775 0.851 2.34867473749e-38
0.056897277318 -0.0300291185845 0.854 2.09034858858e-38
0.0586147074946 -0.0300994443891 0.856 2.06247115693e-38
0.0601988887783 -0.0300994443891 0.856 2.10806744714e-38
0.0617830700619 -0.0300994443891 0.856 1.84163969116e-38
0.0636633599967 -0.0302400959984 0.86 1.93372882234e-38
0.0652549439966 -0.0302400959984 0.86 2.3491057769e-38
0.0668465279965 -0.0302400959984 0.86 2.34852942284e-38
0.0687564287964 -0.0303807476077 0.864 2.34878207695e-38
0.0703554155126 -0.0303807476077 0.864 2.3483141834e-38
0.00799493358098 -0.0287817608915 0.864 1.99803777198e-38
0.00959392029717 -0.0287817608915 0.864 2.04425203482e-38
0.0111929070134 -0.0287817608915 0.864 1.92453742545e-38
0.0127918937296 -0.0287817608915 0.864 1.91521038287e-38
0.0144408487806 -0.0288816975613 0.867 2.00737055988e-38
0.016045387534 -0.0288816975613 0.867 1.93347154394e-38
0.0169170573759 -0.0276824575241 0.831 1.91524849819e-38
0.0184105553851 -0.0276158330776 0.829 1.88769616778e-38
0.0199447683338 -0.0276158330776 0.829 1.95190688641e-38
0.0214789812826 -0.0276158330776 0.829 2.26555181453e-38
0.0230131942314 -0.0276158330776 0.829 2.34835187832e-38
0.0245474071801 -0.0276158330776 0.829 2.34824229678e-38
0.0261445432172 -0.0276824575241 0.831 2.34813383628e-38
0.0276824575241 -0.0276824575241 0.831 2.33898587965e-38
0.029220371831 -0.0276824575241 0.831 2.34820502225e-38
0.0307582861379 -0.0276824575241 0.831 2.34831474391e-38
0.0322962004448 -0.0276824575241 0.831 2.31129033654e-38
0.0338341147517 -0.0276824575241 0.831 2.34824215665e-38
0.035542291533 -0.0278157064172 0.835 2.3205820664e-38
0.0371764411516 -0.0278823308637 0.837 2.34820572289e-38
0.0387254595329 -0.0278823308637 0.837 2.34831222158e-38
0.0403707132258 -0.0279489553102 0.839 2.34824103562e-38
0.042023369635 -0.0280155797567 0.841 2.34881598838e-38
0.0435797907326 -0.0280155797567 0.841 2.34824187639e-38
0.0452435512162 -0.0280822042032 0.843 2.34849284895e-38
0.046803673672 -0.0280822042032 0.843 2.34849326934e-38
0.04847853823 -0.0281488286497 0.845 2.34870976995e-38
0.0501608055044 -0.0282154530962 0.847 2.34838522923e-38
0.051850475495 -0.0282820775427 0.849 2.34870948969e-38
0.0534217020251 -0.0282820775427 0.849 2.34863886425e-38
0.0551224760902 -0.0283487019892 0.851 1.96120436159e-38
0.057163775104 -0.028581887552 0.858 1.91528353065e-38
0.0587516577458 -0.028581887552 0.858 2.34882229422e-38
0.0603395403876 -0.028581887552 0.858 2.16359936385e-38
0.0620717759968 -0.0286485119985 0.86 2.2656215992e-38
0.0638114143223 -0.028715136445 0.862 2.34917710299e-38
0.065558455364 -0.0287817608915 0.864 2.34874536293e-38
0.067390627643 -0.0288816975613 0.867 2.34856543621e-38
0.0689951663964 -0.0288816975613 0.867 2.34831502417e-38
0.0705997051498 -0.0288816975613 0.867 2.34827873054e-38
0.00964944066926 -0.0273400818963 0.869 1.97052776079e-38
0.0111929070134 -0.0271827741753 0.864 1.96127316534e-38
0.0127918937296 -0.0271827741753 0.864 2.05354040156e-38
0.0144408487806 -0.0272771588079 0.867 1.93365133053e-38
0.016045387534 -0.0272771588079 0.867 1.98874940524e-38
0.0169170573759 -0.0261445432172 0.831 1.86900676991e-38
0.0184549716828 -0.0261445432172 0.831 1.95212352715e-38
0.0199928859897 -0.0261445432172 0.831 1.73060192188e-38
0.0215308002966 -0.0261445432172 0.831 2.34867333619e-38
0.0230687146034 -0.0261445432172 0.831 2.33916916949e-38
0.0246066289103 -0.0261445432172 0.831 2.34838677066e-38
0.0262074663056 -0.0262074663056 0.833 2.34831236171e-38
0.0277490819706 -0.0262074663056 0.833 2.34870710748e-38
0.0293610234403 -0.026270389394 0.835 2.34827676873e-38
0.0309063404635 -0.026270389394 0.835 2.34845571454e-38
0.0324516574867 -0.026270389394 0.835 2.33898587965e-38
0.0340784043889 -0.0263333124823 0.837 2.34867487762e-38
0.0357976852446 -0.0264591586591 0.841 2.30200014811e-38
0.0374429389376 -0.0265220817475 0.843 2.34827774964e-38
0.0390030613933 -0.0265220817475 0.843 2.34849284895e-38
0.040563183849 -0.0265220817475 0.843 2.34835117768e-38
0.0421233063048 -0.0265220817475 0.843 2.33927482739e-38
0.0437870667884 -0.0265850048358 0.845 7.80612507341e-39
0.0454582299883 -0.0266479279242 0.847 2.11586693426e-38
0.0470257551603 -0.0266479279242 0.847 2.34900053938e-38
0.0485932803324 -0.0266479279242 0.847 2.34853306622e-38
0.0502792489648 -0.0267108510126 0.849 2.34849565155e-38
0.0519726203136 -0.0267737741009 0.851 2.15485021676e-38
0.053736317467 -0.0268681587335 0.854 1.8048998875e-38
0.0554463449273 -0.0269310818219 0.856 1.90624823841e-38
0.057163775104 -0.0269940049102 0.858 1.65757058995e-38
0.0588886079969 -0.0270569279986 0.86 2.30211169147e-38
0.0604801919968 -0.0270569279986 0.86 2.3484611796e-38
0.0622161289642 -0.027119851087 0.862 2.3490334699e-38
0.0641815501362 -0.0272771588079 0.867 2.34874410176e-38
0.0657860888896 -0.0272771588079 0.867 2.34849607194e-38
0.067390627643 -0.0272771588079 0.867 2.34863718269e-38
0.0691543247964 -0.0273400818963 0.869 2.34881738967e-38
0.0707625649079 -0.0273400818963 0.869 2.3481681681e-38
0.0096716488181 -0.0257910635149 0.871 1.9979674268e-38
0.0111929070134 -0.0255837874591 0.864 1.94280096873e-38
0.0127622828645 -0.0255245657289 0.862 1.91517563067e-38
0.0143575682225 -0.0255245657289 0.862 1.9703493755e-38
0.0159528535806 -0.0255245657289 0.862 2.02573779925e-38
0.0172427768921 -0.0250804027522 0.847 1.97063496012e-38
0.0186326368734 -0.0248435158313 0.839 1.86925648129e-38
0.0201372389571 -0.024784294101 0.837 1.86911214755e-38
0.0216344383245 -0.0247250723708 0.835 2.23782446195e-38
0.0231797553476 -0.0247250723708 0.835 2.34852676037e-38
0.0247250723708 -0.0247250723708 0.835 2.34813313563e-38
0.0263333124823 -0.024784294101 0.837 2.34824103562e-38
0.0278823308637 -0.024784294101 0.837 2.34831292223e-38
0.029431349245 -0.024784294101 0.837 2.33887797967e-38
0.0310543947891 -0.0248435158313 0.839 2.34881444695e-38
0.0326848430495 -0.0249027375615 0.841 2.34835019677e-38
0.0344041239052 -0.025021181022 0.845 2.34838522923e-38
0.0359679477191 -0.025021181022 0.845 2.34848976609e-38
0.0377094367236 -0.0251396244824 0.849 2.34863494061e-38
0.0392806632538 -0.0251396244824 0.849 2.34863508074e-38
0.0408518897839 -0.0251396244824 0.849 2.34907060431e-38
0.0425230529838 -0.0251988462126 0.851 2.16453641214e-38
0.0440979808721 -0.0251988462126 0.851 5.14280880432e-39
0.0456729087604 -0.0251988462126 0.851 9.66177214402e-39
0.047414397765 -0.025287678808 0.854 2.3497180042e-38
0.0489948776905 -0.025287678808 0.854 2.12740438504e-38
0.050575357616 -0.025287678808 0.854 1.83252522556e-38
0.0522779823601 -0.0253469005382 0.856 2.32119513448e-38
0.0539880098204 -0.0254061222684 0.858 1.52827768519e-38
0.0555758924622 -0.0254061222684 0.858 2.1638587442e-38
0.057297023997 -0.0254653439987 0.86 2.33938020504e-38
0.0588886079969 -0.0254653439987 0.86 2.34896158329e-38
0.0606208436061 -0.0255245657289 0.862 2.34852984323e-38
0.0622161289642 -0.0255245657289 0.862 2.34856711777e-38
0.0641815501362 -0.0256726200545 0.867 2.34860229036e-38
0.0657860888896 -0.0256726200545 0.867 2.24661396644e-38
0.0675460846849 -0.0257318417847 0.869 2.34882215409e-38
0.0693134831964 -0.0257910635149 0.871 2.34849509103e-38
0.0716582935777 -0.026057561301 0.88 2.31125530408e-38
0.073286891159 -0.026057561301 0.88 2.35004072323e-38
0.00971606511577 -0.0242901627894 0.875 1.93361349547e-38
0.0111929070134 -0.0239848007429 0.864 1.9703493755e-38
0.0127622828645 -0.0239292803708 0.862 1.93354315029e-38
0.014290943776 -0.0238182396267 0.858 2.0533255825e-38
0.015804799255 -0.0237071988825 0.854 1.9243263899e-38
0.0172427768921 -0.0235128775802 0.847 1.95205290171e-38
0.0186770531711 -0.0233463164639 0.841 1.81390407091e-38
0.0201853566129 -0.0232907960918 0.839 1.79542977235e-38
0.0217380763524 -0.0232907960918 0.839 2.2840998214e-38
0.0232907960918 -0.0232907960918 0.839 2.34892585018e-38
0.0248435158313 -0.0232907960918 0.839 2.34849439038e-38
0.0263962355707 -0.0232907960918 0.839 2.34827648847e-38
0.0279489553102 -0.0232907960918 0.839 2.34841956104e-38
0.0295016750496 -0.0232907960918 0.839 2.34834907573e-38
0.0312024491147 -0.023401836836 0.843 2.34817012991e-38
0.0328403000913 -0.0234573572081 0.845 2.34820894588e-38
0.0344855537843 -0.0235128775802 0.847 2.34870948969e-38
0.0360530789563 -0.0235128775802 0.847 2.34856459543e-38
0.0377094367236 -0.0235683979523 0.849 2.3491808865e-38
0.0392806632538 -0.0235683979523 0.849 2.33956195345e-38
0.0409481250955 -0.0236239183244 0.851 1.12251531965e-38
0.0425230529838 -0.0236239183244 0.851 1.12225846164e-38
0.044253437914 -0.0237071988825 0.854 1.20639340235e-38
0.0458339178395 -0.0237071988825 0.854 1.14087667356e-38
0.0476364792533 -0.0238182396267 0.858 2.34925417441e-38
0.0492243618951 -0.0238182396267 0.858 1.91539339245e-38
0.0509306879973 -0.0238737599988 0.86 1.68519326554e-38
0.0525222719973 -0.0238737599988 0.86 2.32062676782e-38
0.0541138559972 -0.0238737599988 0.86 2.25601373641e-38
0.055834987532 -0.0239292803708 0.862 2.34895808004e-38
0.057563521783 -0.0239848007429 0.864 2.34878628085e-38
0.0591625084992 -0.0239848007429 0.864 2.34874886618e-38
0.0609724726294 -0.0240680813011 0.867 2.34906934314e-38
0.0627213643502 -0.0241236016732 0.869 2.29303099716e-38
0.0643296044618 -0.0241236016732 0.869 2.25593526369e-38
0.066089600257 -0.0241791220453 0.871 2.34827929106e-38
0.0678569987686 -0.0242346424173 0.873 2.34885690629e-38
0.0698705375964 -0.0243734433476 0.878 2.34885522473e-38
0.0716582935777 -0.0244289637197 0.88 2.34802173241e-38
0.073286891159 -0.0244289637197 0.88 2.35022625515e-38
0.0749154887403 -0.0244289637197 0.88 2.35098561879e-38
0.00974937733903 -0.0227485471244 0.878 1.88766113532e-38
0.0111929070134 -0.0223858140267 0.864 1.97038440796e-38
0.0127622828645 -0.0223339950128 0.862 2.016517956e-38
0.014290943776 -0.0222303569849 0.858 2.00722776757e-38
0.015804799255 -0.022126718957 0.854 1.90584746705e-38
0.0173242067712 -0.0220489904361 0.851 1.96120282016e-38
0.0188103020641 -0.0219453524082 0.847 1.93382705336e-38
0.0203297095803 -0.0218935333942 0.845 1.57412284601e-38
0.0218417143803 -0.0218417143803 0.843 2.27495410684e-38
0.0233463164639 -0.0217898953663 0.841 2.34860186997e-38
0.0249027375615 -0.0217898953663 0.841 2.34845669545e-38
0.0264591586591 -0.0217898953663 0.841 2.34889025719e-38
0.0280822042032 -0.0218417143803 0.843 2.34871061073e-38
0.0297126524636 -0.0218935333942 0.845 2.34831320249e-38
0.0313505034402 -0.0219453524082 0.847 2.34903080743e-38
0.0329957571332 -0.0219971714221 0.849 2.34885634577e-38
0.0345669836633 -0.0219971714221 0.849 1.25158766003e-38
0.0361382101935 -0.0219971714221 0.849 2.34938785828e-38
0.037798269319 -0.0220489904361 0.851 1.6296945596e-38
0.0393731972073 -0.0220489904361 0.851 1.80464204858e-38
0.0409481250955 -0.0220489904361 0.851 1.0308296223e-38
0.0426729579885 -0.022126718957 0.854 9.11395552887e-39
0.044253437914 -0.022126718957 0.854 2.33995796039e-38
0.0459412572255 -0.0221785379709 0.856 2.34936011257e-38
0.0476364792533 -0.0222303569849 0.858 2.34888997693e-38
0.0492243618951 -0.0222303569849 0.858 2.22846028496e-38
0.0509306879973 -0.0222821759988 0.86 2.16409906689e-38
0.0525222719973 -0.0222821759988 0.86 2.34899675588e-38
0.0542397021739 -0.0223339950128 0.862 2.34864110633e-38
0.055834987532 -0.0223339950128 0.862 2.34842138273e-38
0.057563521783 -0.0223858140267 0.864 1.9702071437e-38
0.059367933876 -0.0224635425477 0.867 2.32995198871e-38
0.0611131242387 -0.0225153615616 0.869 2.21063100408e-38
0.0628657173177 -0.0225671805756 0.871 2.32072696066e-38
0.0644776587873 -0.0225671805756 0.871 2.34896130303e-38
0.0662413559407 -0.0226189995895 0.873 2.34881766993e-38
0.0682456413732 -0.0227485471244 0.878 2.34849565155e-38
0.0700296959964 -0.0228003661383 0.88 2.34849523116e-38
0.0716582935777 -0.0228003661383 0.88 2.34809712226e-38
0.073286891159 -0.0228003661383 0.88 2.35043995317e-38
0.00974937733903 -0.0211236509012 0.878 2.02591674506e-38
0.0111929070134 -0.0207868273105 0.864 1.99825455285e-38
0.0127622828645 -0.0207387096547 0.862 1.93364908845e-38
0.014290943776 -0.0206424743431 0.858 1.95201786924e-38
0.015804799255 -0.0205462390315 0.854 1.97045321171e-38
0.0173852791805 -0.0205462390315 0.854 1.91524877845e-38
0.0188547183618 -0.020425944892 0.849 2.00736999936e-38
0.0203778272361 -0.0203778272361 0.847 1.68457837577e-38
0.0218935333942 -0.0203297095803 0.845 2.22871237856e-38
0.0234573572081 -0.0203297095803 0.845 2.34863606165e-38
0.025021181022 -0.0203297095803 0.845 2.34831250184e-38
0.0265850048358 -0.0203297095803 0.845 2.3484212426e-38
0.0281488286497 -0.0203297095803 0.845 2.34827817003e-38
0.0298533040729 -0.020425944892 0.849 2.34870864891e-38
0.031424530603 -0.020425944892 0.849 2.3488165489e-38
0.0329957571332 -0.020425944892 0.849 1.73045912957e-38
0.0345669836633 -0.020425944892 0.849 5.69383299166e-39
0.0362233414307 -0.0204740625478 0.851 1.79511924461e-38
0.037798269319 -0.0204740625478 0.851 2.66322938858e-39
0.0395119981375 -0.0205462390315 0.854 1.15766717189e-38
0.041092478063 -0.0205462390315 0.854 2.24717224375e-38
0.042872831328 -0.0206424743431 0.858 2.3495020641e-38
0.0445643519977 -0.0206905919989 0.86 2.34863844386e-38
0.0461559359976 -0.0206905919989 0.86 2.34849425025e-38
0.0477475199975 -0.0206905919989 0.86 2.34845865727e-38
0.0493391039974 -0.0206905919989 0.86 2.34860313114e-38
0.0510491314578 -0.0207387096547 0.862 2.3489973164e-38
0.0526444168159 -0.0207387096547 0.862 2.29335469711e-38
0.0543655483507 -0.0207868273105 0.864 1.83198950915e-38
0.0561588563692 -0.0208590037943 0.867 1.98932744086e-38
0.0578966440156 -0.0209071214501 0.869 1.85071421975e-38
0.0596418343783 -0.0209552391059 0.871 2.31183067723e-38
0.061253775848 -0.0209552391059 0.871 2.34903276925e-38
0.0630100702851 -0.0210033567617 0.873 2.34889193875e-38
0.0646257131129 -0.0210033567617 0.873 2.16356755438e-38
0.0667725008337 -0.021171768557 0.88 2.27423832358e-38
0.068401098415 -0.021171768557 0.88 2.20040278646e-38
0.0701888543963 -0.0212198862128 0.882 2.34882117318e-38
0.0718211533358 -0.0212198862128 0.882 2.34863732282e-38
0.0734534522752 -0.0212198862128 0.882 2.35069302767e-38
0.00974937733903 -0.0194987546781 0.878 1.97978417793e-38
0.0113354093017 -0.0194321302315 0.875 1.92429275874e-38
0.0127622828645 -0.0191434242967 0.862 1.92443148729e-38
0.0143242559993 -0.019099007999 0.86 1.94283361898e-38
0.0158418128364 -0.0190101754037 0.856 1.95187311511e-38
0.01742599412 -0.0190101754037 0.856 1.96123785262e-38
0.018965759106 -0.018965759106 0.854 1.94290340364e-38
0.020425944892 -0.0188547183618 0.849 1.72138600227e-38
0.0219971714221 -0.0188547183618 0.849 2.29295770925e-38
0.0235128775802 -0.0188103020641 0.847 2.34885620564e-38
0.0250804027522 -0.0188103020641 0.847 2.3483513178e-38
0.0266479279242 -0.0188103020641 0.847 2.34838298715e-38
0.0282820775427 -0.0188547183618 0.849 2.34838845221e-38
0.0298533040729 -0.0188547183618 0.849 2.34827788977e-38
0.031424530603 -0.0188547183618 0.849 2.34878403877e-38
0.0330734856541 -0.0188991346595 0.851 2.34917920494e-38
0.0346484135424 -0.0188991346595 0.851 4.68361030406e-39
0.0363510382865 -0.018965759106 0.854 6.42852677001e-40
0.037931518212 -0.018965759106 0.854 2.3495114528e-38
0.0397895999979 -0.019099007999 0.86 2.33985104132e-38
0.0413811839978 -0.019099007999 0.86 2.34885396356e-38
0.0429727679978 -0.019099007999 0.86 2.34867193489e-38
0.0445643519977 -0.019099007999 0.86 2.34863578139e-38
0.0461559359976 -0.019099007999 0.86 2.34900011899e-38
0.0478585607417 -0.0191434242967 0.862 2.34845823688e-38
0.0494538460997 -0.0191434242967 0.862 2.34881809032e-38
0.0511675749183 -0.0191878405943 0.864 2.0158052556e-38
0.0527665616345 -0.0191878405943 0.864 2.10925644889e-38
0.0546801637925 -0.0192988813385 0.869 1.98004453918e-38
0.0565474989738 -0.0193877139339 0.873 2.24729639879e-38
0.0581631418016 -0.0193877139339 0.873 2.34874634384e-38
0.0599157348806 -0.0194321302315 0.875 2.34892893303e-38
0.0615350790666 -0.0194321302315 0.875 2.1177568655e-38
0.0633709527037 -0.0194987546781 0.878 2.20091313936e-38
0.0649958489268 -0.0194987546781 0.878 2.09928494915e-38
0.0667725008337 -0.0195431709757 0.88 2.32977234225e-38
0.0687897410197 -0.0196542117199 0.885 2.34906976353e-38
0.0704275919963 -0.0196542117199 0.885 2.3485297031e-38
0.072065442973 -0.0196542117199 0.885 2.34831502417e-38
0.0737032939496 -0.0196542117199 0.885 2.35098253593e-38
0.00974937733903 -0.0178738584549 0.878 2.01651977769e-38
0.0113742735622 -0.0178738584549 0.878 1.92439617456e-38
0.0127918937296 -0.0175888538782 0.864 1.89670091172e-38
0.0143575682225 -0.0175481389386 0.862 1.91524569559e-38
0.0159158399992 -0.0175074239991 0.86 1.95201408574e-38
0.0174667090596 -0.0174667090596 0.858 1.93357720184e-38
0.0190101754037 -0.01742599412 0.856 1.90602613261e-38
0.0205462390315 -0.0173852791805 0.854 1.83223557716e-38
0.0220489904361 -0.0173242067712 0.851 2.27448593302e-38
0.0235683979523 -0.0172834918317 0.849 2.34845963818e-38
0.0251396244824 -0.0172834918317 0.849 2.34863886425e-38
0.0267108510126 -0.0172834918317 0.849 2.34863620178e-38
0.0283487019892 -0.0173242067712 0.851 2.34827746938e-38
0.0299236298775 -0.0173242067712 0.851 2.3485269005e-38
0.0314985577658 -0.0173242067712 0.851 2.3487813763e-38
0.0331900784355 -0.0173852791805 0.854 2.3495020641e-38
0.034770558361 -0.0173852791805 0.854 6.98918348299e-39
0.0364361695237 -0.01742599412 0.856 3.39791335785e-39
0.038198015998 -0.0175074239991 0.86 2.34950879034e-38
0.0398821339514 -0.0175481389386 0.862 2.34856893946e-38
0.0414774193095 -0.0175481389386 0.862 2.34863760308e-38
0.0430727046675 -0.0175481389386 0.862 2.34878375851e-38
0.0446679900256 -0.0175481389386 0.862 2.34859696543e-38
0.0462632753836 -0.0175481389386 0.862 2.2748041679e-38
0.0479696014859 -0.0175888538782 0.864 1.89691545051e-38
0.0497407013555 -0.0176499262875 0.867 2.34899773679e-38
0.051345240109 -0.0176499262875 0.867 1.93315330906e-38
0.0531940684996 -0.0177313561665 0.871 1.95227234505e-38
0.0550577023227 -0.0178127860456 0.875 2.21935562845e-38
0.0566770465087 -0.0178127860456 0.875 2.34942919658e-38
0.0584962640342 -0.0178738584549 0.878 2.27466347754e-38
0.0601211602573 -0.0178738584549 0.878 2.09996289734e-38
0.0617460564805 -0.0178738584549 0.878 2.02592501272e-38
0.0636596586385 -0.0179552883339 0.882 2.12769123084e-38
0.0656620933919 -0.0180570756828 0.887 2.11793721261e-38
0.0674554014104 -0.0180977906223 0.889 2.24664773773e-38
0.0691006551034 -0.0180977906223 0.889 2.09005964084e-38
0.0705867503963 -0.0180570756828 0.887 2.34842418533e-38
0.0722283027311 -0.0180570756828 0.887 2.34856893946e-38
0.0738698550659 -0.0180570756828 0.887 2.35098365697e-38
0.0128659208924 -0.0160824011154 0.869 1.91528381091e-38
0.0143908804458 -0.015989867162 0.864 1.91528226948e-38
0.0159158399992 -0.0159158399992 0.86 1.95190842783e-38
0.0174667090596 -0.0158788264178 0.858 1.97034909524e-38
0.0190545917013 -0.0158788264178 0.858 1.94297627116e-38
0.0205462390315 -0.015804799255 0.854 1.81368911173e-38
0.022126718957 -0.015804799255 0.854 2.23767830652e-38
0.0236239183244 -0.0157492788829 0.851 2.34838943312e-38
0.0251988462126 -0.0157492788829 0.851 2.34820824523e-38
0.0267737741009 -0.0157492788829 0.851 2.34820614328e-38
0.028448638659 -0.015804799255 0.854 2.34885284253e-38
0.0300291185845 -0.015804799255 0.854 2.34831264197e-38
0.03160959851 -0.015804799255 0.854 2.34842236364e-38
0.0332678069564 -0.0158418128364 0.856 2.34870976995e-38
0.03485198824 -0.0158418128364 0.856 1.53713249019e-38
0.0366915632353 -0.0159528535806 0.862 2.34867655918e-38
0.0382868485934 -0.0159528535806 0.862 2.3491095604e-38
0.0398821339514 -0.0159528535806 0.862 2.34888941642e-38
0.0415736546211 -0.015989867162 0.864 2.3483141834e-38
0.0431726413373 -0.015989867162 0.864 2.15484867533e-38
0.0447716280535 -0.015989867162 0.864 2.00730259691e-38
0.0463706147697 -0.015989867162 0.864 1.98021549759e-38
0.0481361626021 -0.016045387534 0.867 1.89753482443e-38
0.0498554434579 -0.0160824011154 0.869 2.34871089099e-38
0.0517005704903 -0.0161564282782 0.873 1.8689358642e-38
0.0534383581368 -0.0161934418596 0.875 2.28392409857e-38
0.0552464715878 -0.0162489622317 0.878 2.16407370338e-38
0.056871367811 -0.0162489622317 0.878 2.17328934273e-38
0.0586295129272 -0.0162859758131 0.88 2.25605059056e-38
0.0603950607596 -0.0163229893945 0.882 2.19223083421e-38
0.0620273596991 -0.0163229893945 0.882 2.07212792504e-38
0.0638761880897 -0.0163785097666 0.885 2.1275492793e-38
0.0656620933919 -0.016415523348 0.887 2.1269398546e-38
0.0676071570942 -0.0164895505108 0.891 2.34849663246e-38
0.0692561121452 -0.0164895505108 0.891 2.34921591896e-38
0.0707459087963 -0.0164525369294 0.889 2.34849565155e-38
0.0723911624893 -0.0164525369294 0.889 2.34809922421e-38
0.0159528535806 -0.0143575682225 0.862 1.90581215433e-38
0.0175074239991 -0.0143242559993 0.86 1.94283361898e-38
0.019099007999 -0.0143242559993 0.86 1.91528353065e-38
0.0205943566873 -0.0142576315527 0.856 1.78613832275e-38
0.0221785379709 -0.0142576315527 0.856 2.29281743927e-38
0.0237627192546 -0.0142576315527 0.856 2.34860355153e-38
0.025287678808 -0.0142243193295 0.854 2.34820502225e-38
0.0268681587335 -0.0142243193295 0.854 2.34827845028e-38
0.028448638659 -0.0142243193295 0.854 2.34820558276e-38
0.0300291185845 -0.0142243193295 0.854 2.3483475343e-38
0.0317576528356 -0.014290943776 0.858 2.34827760951e-38
0.0334232639983 -0.0143242559993 0.86 2.34842208338e-38
0.0350962778772 -0.0143575682225 0.862 2.34903445081e-38
0.0366915632353 -0.0143575682225 0.862 2.34842376494e-38
0.0383756811887 -0.0143908804458 0.864 2.34903290938e-38
0.0399746679049 -0.0143908804458 0.864 1.97950251693e-38
0.0415736546211 -0.0143908804458 0.864 1.92428673315e-38
0.0433225463419 -0.0144408487806 0.867 2.04454196347e-38
0.0449270850953 -0.0144408487806 0.867 1.93390888919e-38
0.0465316238487 -0.0144408487806 0.867 1.89727894733e-38
0.0482472033463 -0.0144741610039 0.869 1.90664452562e-38
0.0499701855602 -0.0145074732272 0.871 2.32991401352e-38
0.0518190139508 -0.0145740976737 0.875 2.27491781321e-38
0.0536215753646 -0.0146240660085 0.878 2.04446307036e-38
0.0553723177646 -0.0146573782318 0.88 2.04407477056e-38
0.0570009153459 -0.0146573782318 0.88 1.97031280161e-38
0.0587627618202 -0.014690690455 0.882 2.11718303378e-38
0.0603950607596 -0.014690690455 0.882 2.34842096234e-38
0.062238337113 -0.0147406587899 0.885 2.07187036638e-38
0.0640205410571 -0.0147739710132 0.887 2.21038087231e-38
0.0658101477175 -0.0148072832364 0.889 2.06218991633e-38
0.0678347906197 -0.0148905637946 0.894 2.34882271461e-38
0.069489297708 -0.0148905637946 0.894 2.34867389671e-38
0.0711438047963 -0.0148905637946 0.894 2.34878361838e-38
0.0727983118846 -0.0148905637946 0.894 2.34856431517e-38
0.0159528535806 -0.0127622828645 0.862 1.96130973923e-38
0.0175481389386 -0.0127622828645 0.862 1.88769770921e-38
0.0191434242967 -0.0127622828645 0.862 1.90599208105e-38
0.0206424743431 -0.0127030611342 0.858 1.86904026094e-38
0.0222303569849 -0.0127030611342 0.858 2.20995305588e-38
0.0238182396267 -0.0127030611342 0.858 2.34853166492e-38
0.0254061222684 -0.0127030611342 0.858 2.34856319413e-38
0.0269940049102 -0.0127030611342 0.858 2.34831348275e-38
0.028581887552 -0.0127030611342 0.858 2.34853026362e-38
0.0302400959984 -0.0127326719993 0.86 2.34856753816e-38
0.0318316799983 -0.0127326719993 0.86 2.34849298908e-38
0.0335009925192 -0.0127622828645 0.862 2.34856627699e-38
0.0350962778772 -0.0127622828645 0.862 2.34878109604e-38
0.0367766944725 -0.0127918937296 0.864 2.34871131138e-38
0.0385089300817 -0.0128363100272 0.867 2.34881823045e-38
0.0401134688351 -0.0128363100272 0.867 1.89720860215e-38
0.0417180075885 -0.0128363100272 0.867 1.82334251672e-38
0.0434224830117 -0.0128659208924 0.869 2.32051270212e-38
0.0450307231232 -0.0128659208924 0.869 2.33952481904e-38
0.0466389632348 -0.0128659208924 0.869 2.03563881367e-38
0.0483582440905 -0.0128955317575 0.871 2.29339351307e-38
0.0501996697648 -0.0129547534877 0.875 2.18221673499e-38
0.0519966791415 -0.0129991697854 0.878 2.12708629029e-38
0.0537437201832 -0.0130287806505 0.88 2.24747338279e-38
0.0554981639413 -0.0130583915156 0.882 2.34846286116e-38
0.0573247841831 -0.0131028078133 0.885 2.20090893547e-38
0.0589626351597 -0.0131028078133 0.885 2.20948768466e-38
0.0607374363875 -0.0131324186784 0.887 2.22838867861e-38
0.0625196403316 -0.0131620295435 0.889 2.19133246176e-38
0.064309246992 -0.0131916404086 0.891 2.34899115068e-38
0.0661802835314 -0.0132360567063 0.894 2.34921115454e-38
0.0679865463034 -0.0132656675714 0.896 2.3491752813e-38
0.0696447547499 -0.0132656675714 0.896 2.34896228394e-38
0.0713029631963 -0.0132656675714 0.896 2.34853180505e-38
0.0729611716427 -0.0132656675714 0.896 2.34845851714e-38
0.0175481389386 -0.0111669975064 0.862 1.89680755053e-38
0.0191434242967 -0.0111669975064 0.862 1.93361349547e-38
