# .PCD v0.7 - Point Cloud Data file format
VERSION 0.7
FIELDS x y z rgb
SIZE 4 4 4 4
TYPE F F F F
COUNT 1 1 1 1
WIDTH 838
HEIGHT 1
VIEWPOINT 0 0 0 1 0 0 0
POINTS 838
DATA ascii
0.041092478063 -0.0521558375415 0.854 1.61334995444e-38
0.0426729579885 -0.0521558375415 0.854 1.41037859811e-38
0.044253437914 -0.0521558375415 0.854 1.60388124059e-38
0.0458339178395 -0.0521558375415 0.854 1.67774788654e-38
0.0475254385092 -0.0522779823601 0.856 2.14805097648e-38
0.0491096197928 -0.0522779823601 0.856 2.04652942508e-38
0.0511675749183 -0.0527665616345 0.864 2.04652942508e-38
0.0527665616345 -0.0527665616345 0.864 2.07418881469e-38
-0.0426803607048 -0.0525296747135 0.887 1.88950636514e-38
-0.0409462744165 -0.0524112312531 0.885 1.90801793824e-38
-0.0393084234398 -0.0524112312531 0.885 1.90794605163e-38
-0.0376705724632 -0.0524112312531 0.885 1.95400855384e-38
-0.0360327214865 -0.0524112312531 0.885 1.64079536577e-38
-0.0342782777284 -0.0522335660624 0.882 1.6040615877e-38
-0.032645978789 -0.0522335660624 0.882 1.74239174651e-38
-0.0309433540449 -0.0521151226019 0.88 1.87149869896e-38
-0.0292481320171 -0.0519966791415 0.878 1.19861731691e-38
-0.0276232357939 -0.0519966791415 0.878 1.34566691529e-41
-0.0259983395707 -0.0519966791415 0.878 2.50560993602e-39
-0.0243734433476 -0.0519966791415 0.878 1.81271969345e-41
-0.0228003661383 -0.0521151226019 0.88 1.56751544349e-38
-0.021171768557 -0.0521151226019 0.88 8.10967574805e-39
-0.0195431709757 -0.0521151226019 0.88 8.47814437665e-39
-0.0179145733944 -0.0521151226019 0.88 1.2355366269e-38
-0.0162489622317 -0.0519966791415 0.878 9.59420573596e-39
-0.0146240660085 -0.0519966791415 0.878 1.14395084213e-38
-0.0130287806505 -0.0521151226019 0.88 1.00562180435e-38
-0.0114001830692 -0.0521151226019 0.88 1.25487244376e-38
-0.00974937733903 -0.0519966791415 0.878 8.58109076833e-39
-0.00812448111586 -0.0519966791415 0.878 1.39348622539e-39
-0.00649958489268 -0.0519966791415 0.878 1.18126742024e-38
-0.00487468866951 -0.0519966791415 0.878 2.40290737027e-39
-0.00324979244634 -0.0519966791415 0.878 6.46498995735e-39
-0.00161934418596 -0.0518190139508 0.875 1.34681948328e-38
0.0 -0.0518190139508 0.875 9.04239682149e-39
0.00161564282782 -0.0517005704903 0.873 2.86789323319e-39
0.00323128565565 -0.0517005704903 0.873 1.34412548698e-41
0.00484692848347 -0.0517005704903 0.873 1.68783583418e-38
0.00644776587873 -0.0515821270299 0.871 1.69639986974e-38
0.00805970734842 -0.0515821270299 0.871 1.70536874044e-38
0.0096716488181 -0.0515821270299 0.871 1.70536874044e-38
0.0112835902878 -0.0515821270299 0.871 1.69622204497e-38
0.0128955317575 -0.0515821270299 0.871 1.70533202642e-38
0.0144741610039 -0.0514636835694 0.869 1.69611246343e-38
0.0160824011154 -0.0514636835694 0.869 1.66852608147e-38
0.017690641227 -0.0514636835694 0.869 1.66856167445e-38
0.0192544650409 -0.051345240109 0.867 1.58562218147e-38
0.0208590037943 -0.051345240109 0.867 1.63182607469e-38
0.0224635425477 -0.051345240109 0.867 1.50271688016e-38
0.0240680813011 -0.051345240109 0.867 1.43810987433e-38
0.0256726200545 -0.051345240109 0.867 1.45651298694e-38
0.0271827741753 -0.0511675749183 0.864 1.44729188252e-38
0.0287817608915 -0.0511675749183 0.864 1.47502245809e-38
0.0303807476077 -0.0511675749183 0.864 1.46580261485e-38
0.0319057071611 -0.0510491314578 0.862 1.50257394772e-38
0.0335009925192 -0.0510491314578 0.862 1.45647641305e-38
0.0350148479982 -0.0509306879973 0.86 1.47491553902e-38
0.0366064319981 -0.0509306879973 0.86 1.45651116525e-38
0.038198015998 -0.0509306879973 0.86 1.48420712875e-38
0.0396970660444 -0.0508122445369 0.858 1.53955967926e-38
0.0412849486862 -0.0508122445369 0.858 1.46580317536e-38
0.042872831328 -0.0508122445369 0.858 1.60395186603e-38
0.0445643519977 -0.0509306879973 0.86 1.74220971784e-38
0.0461559359976 -0.0509306879973 0.86 1.84366120432e-38
0.0477475199975 -0.0509306879973 0.86 2.06507476948e-38
0.0493391039974 -0.0509306879973 0.86 2.14787259119e-38
0.0511675749183 -0.0511675749183 0.864 2.0925553534e-38
0.0527665616345 -0.0511675749183 0.864 1.95426148822e-38
-0.0409462744165 -0.0507733802764 0.885 1.93578424692e-38
-0.0393084234398 -0.0507733802764 0.885 1.94475325775e-38
-0.0376705724632 -0.0507733802764 0.885 1.9908863854e-38
-0.0361141513656 -0.0508881223787 0.887 1.53923710035e-38
-0.0343948705098 -0.0507733802764 0.885 1.69625707743e-38
-0.0327570195332 -0.0507733802764 0.885 1.6317923034e-38
-0.0310136798495 -0.0506012671229 0.882 1.67788955781e-38
-0.0293813809101 -0.0506012671229 0.882 1.72413184661e-38
-0.0277490819706 -0.0506012671229 0.882 6.24278465857e-42
-0.026057561301 -0.0504865250206 0.88 2.31662662122e-41
-0.0244289637197 -0.0504865250206 0.88 1.03436607923e-38
-0.0228521851523 -0.0506012671229 0.882 1.05171961929e-38
-0.0212198862128 -0.0506012671229 0.882 8.39025353567e-39
-0.0195875872734 -0.0506012671229 0.882 7.6490983701e-39
-0.0179552883339 -0.0506012671229 0.882 2.03238724072e-39
-0.0162859758131 -0.0504865250206 0.88 1.24583995412e-38
-0.0146573782318 -0.0504865250206 0.88 1.199931875e-41
-0.0130287806505 -0.0504865250206 0.88 1.03983492675e-39
-0.0114001830692 -0.0504865250206 0.88 1.58580463053e-39
-0.00977158548786 -0.0504865250206 0.88 2.42466673282e-41
-0.00812448111586 -0.0503717829183 0.878 1.76982034226e-39
-0.00649958489268 -0.0503717829183 0.878 4.43413994105e-39
-0.00487468866951 -0.0503717829183 0.878 3.3285112488e-39
-0.00324979244634 -0.0503717829183 0.878 7.59285165104e-40
-0.00161934418596 -0.0501996697648 0.875 1.95677317558e-41
0.0 -0.0501996697648 0.875 1.58796683406e-39
0.00161934418596 -0.0501996697648 0.875 3.24315255415e-39
0.00323868837192 -0.0501996697648 0.875 1.37943820828e-41
0.00484692848347 -0.0500849276625 0.873 1.0066727782e-38
0.00646257131129 -0.0500849276625 0.873 1.81625390831e-38
0.00807821413911 -0.0500849276625 0.873 1.68700276224e-38
0.00969385696694 -0.0500849276625 0.873 1.65934337263e-38
0.0112835902878 -0.0499701855602 0.871 1.69614945771e-38
0.0128955317575 -0.0499701855602 0.871 1.67774564446e-38
0.0145074732272 -0.0499701855602 0.871 1.73306330264e-38
0.0161194146968 -0.0499701855602 0.871 1.73309959627e-38
0.017690641227 -0.0498554434579 0.869 1.61313611629e-38
0.0192988813385 -0.0498554434579 0.869 1.72366325241e-38
0.0209071214501 -0.0498554434579 0.869 1.56718109367e-38
0.0225153615616 -0.0498554434579 0.869 1.4289619177e-38
0.0241236016732 -0.0498554434579 0.869 1.48420740901e-38
0.0257318417847 -0.0498554434579 0.869 1.51175791772e-38
0.0272771588079 -0.0497407013555 0.867 1.49339137901e-38
0.0288816975613 -0.0497407013555 0.867 1.47502245809e-38
0.0303807476077 -0.0495685882021 0.864 1.42892506355e-38
0.0319797343239 -0.0495685882021 0.864 1.50257324707e-38
0.0335009925192 -0.0494538460997 0.862 1.52108468004e-38
0.0350962778772 -0.0494538460997 0.862 1.49331893188e-38
0.0366064319981 -0.0493391039974 0.86 1.56703830136e-38
0.038198015998 -0.0493391039974 0.86 1.43807428135e-38
0.0397895999979 -0.0493391039974 0.86 1.54870875693e-38
0.0413811839978 -0.0493391039974 0.86 1.69621966276e-38
0.0429727679978 -0.0493391039974 0.86 1.77916055705e-38
0.0445643519977 -0.0493391039974 0.86 1.76072157121e-38
0.0462632753836 -0.0494538460997 0.862 1.74235475223e-38
0.0478585607417 -0.0494538460997 0.862 2.15727053947e-38
0.0495685882021 -0.0495685882021 0.864 2.11099293794e-38
0.051345240109 -0.0497407013555 0.867 2.11099293794e-38
0.0529497788624 -0.0497407013555 0.867 1.73310015679e-38
-0.0393972560352 -0.0492465700439 0.887 1.88025190982e-38
-0.0377557037004 -0.0492465700439 0.887 1.92634944449e-38
-0.0361141513656 -0.0492465700439 0.887 1.62235595954e-38
-0.0343948705098 -0.0491355292998 0.885 1.63189950273e-38
-0.0327570195332 -0.0491355292998 0.885 1.67788955781e-38
-0.0311191685565 -0.0491355292998 0.885 1.68707408833e-38
-0.0294813175799 -0.0491355292998 0.885 1.72409527272e-38
-0.0277490819706 -0.0489689681835 0.882 2.67906125863e-39
-0.0261167830312 -0.0489689681835 0.882 9.43696043009e-40
-0.0244844840917 -0.0489689681835 0.882 1.39817076615e-39
-0.0229299136732 -0.0491355292998 0.885 7.55688031946e-40
-0.0212920626966 -0.0491355292998 0.885 1.67836740059e-39
-0.0196542117199 -0.0491355292998 0.885 3.14917867653e-39
-0.0179552883339 -0.0489689681835 0.882 2.41413036967e-39
-0.0162859758131 -0.0488579274393 0.88 1.05208661935e-38
-0.0146573782318 -0.0488579274393 0.88 8.21847676472e-39
-0.0130287806505 -0.0488579274393 0.88 2.0899806076e-40
-0.0114001830692 -0.0488579274393 0.88 5.90675048423e-39
-0.00977158548786 -0.0488579274393 0.88 5.99859578947e-39
-0.00814298790655 -0.0488579274393 0.88 6.08864463009e-39
-0.00651439032524 -0.0488579274393 0.88 1.41063223314e-38
-0.00488579274393 -0.0488579274393 0.88 6.1771422333e-39
-0.00324979244634 -0.0487468866951 0.878 3.42215582128e-39
-0.00162489622317 -0.0487468866951 0.878 2.87437704119e-39
0.0 -0.0487468866951 0.878 2.87437704119e-39
0.00162489622317 -0.0487468866951 0.878 3.42609627256e-39
0.00323868837192 -0.0485803255789 0.875 1.49071672063e-39
0.00485803255789 -0.0485803255789 0.875 1.03516720157e-39
0.00647737674385 -0.0485803255789 0.875 1.80742516746e-38
0.00809672092981 -0.0485803255789 0.875 1.73313518925e-38
0.00969385696694 -0.0484692848347 0.873 1.66852636173e-38
0.0112835902878 -0.0483582440905 0.871 1.76990568134e-38
0.0128955317575 -0.0483582440905 0.871 1.68685730746e-38
0.0145074732272 -0.0483582440905 0.871 1.66856167445e-38
0.0161194146968 -0.0483582440905 0.871 1.66856111393e-38
0.0177313561665 -0.0483582440905 0.871 1.49324830644e-38
0.0192988813385 -0.0482472033463 0.869 1.69611246343e-38
0.0209071214501 -0.0482472033463 0.869 1.50264653498e-38
0.0225153615616 -0.0482472033463 0.869 1.44740104367e-38
0.0241236016732 -0.0482472033463 0.869 1.46576786264e-38
0.0257318417847 -0.0482472033463 0.869 1.53948779264e-38
0.0273400818963 -0.0482472033463 0.869 1.44718594436e-38
0.0288816975613 -0.0481361626021 0.867 1.48420740901e-38
0.0304862363147 -0.0481361626021 0.867 1.48417181602e-38
0.0320907750681 -0.0481361626021 0.867 1.48424244147e-38
0.0335787210401 -0.0479696014859 0.864 1.49335396434e-38
0.0350962778772 -0.0478585607417 0.862 1.54856442319e-38
0.0366915632353 -0.0478585607417 0.862 1.502538635e-38
0.0382868485934 -0.0478585607417 0.862 1.61324401627e-38
0.0398821339514 -0.0478585607417 0.862 1.88053847536e-38
0.0414774193095 -0.0478585607417 0.862 1.76986924758e-38
0.0430727046675 -0.0478585607417 0.862 1.71455172953e-38
0.0446679900256 -0.0478585607417 0.862 1.80671162628e-38
0.0463706147697 -0.0479696014859 0.864 1.81611139625e-38
0.0479696014859 -0.0479696014859 0.864 2.10202532842e-38
0.0497407013555 -0.0481361626021 0.867 2.13865148677e-38
0.051345240109 -0.0481361626021 0.867 2.05574800716e-38
-0.0377557037004 -0.0476050177091 0.887 1.91720218851e-38
-0.0361141513656 -0.0476050177091 0.887 1.58533449489e-38
-0.0345503275517 -0.0477123570952 0.889 1.69632896404e-38
-0.032831046696 -0.0476050177091 0.887 1.7793030691e-38
-0.0311191685565 -0.0474976783231 0.885 1.65001534915e-38
-0.0294813175799 -0.0474976783231 0.885 1.93589144626e-38
-0.0278434666032 -0.0474976783231 0.885 1.28152121692e-38
-0.0262056156265 -0.0474976783231 0.885 1.34300444821e-41
-0.0245677646499 -0.0474976783231 0.885 1.77126648228e-39
-0.0229817326872 -0.0476050177091 0.887 2.87437704119e-39
-0.0213401803524 -0.0476050177091 0.887 2.96441747401e-39
-0.0196986280176 -0.0476050177091 0.887 3.33212519754e-39
-0.0180163607432 -0.0474976783231 0.885 3.85460773776e-40
-0.0163229893945 -0.047336669244 0.882 1.38291090614e-38
-0.014690690455 -0.047336669244 0.882 9.40798438044e-39
-0.0130583915156 -0.047336669244 0.882 1.16235815863e-38
-0.0114260925761 -0.047336669244 0.882 1.24442996761e-38
-0.0097937936367 -0.047336669244 0.882 6.64217153648e-39
-0.00814298790655 -0.047229329858 0.88 1.36442890043e-38
-0.00651439032524 -0.047229329858 0.88 7.466503575e-39
-0.00488579274393 -0.047229329858 0.88 8.66896759633e-39
-0.00325719516262 -0.047229329858 0.88 3.23560936451e-39
-0.00162489622317 -0.047121990472 0.878 3.33570131122e-39
0.0 -0.047121990472 0.878 3.5172227117e-39
0.00162489622317 -0.047121990472 0.878 3.70233564013e-39
0.00324979244634 -0.047121990472 0.878 3.05733617388e-39
0.00487468866951 -0.047121990472 0.878 7.69593116607e-42
0.00649958489268 -0.047121990472 0.878 1.75208424773e-38
0.00812448111586 -0.047121990472 0.878 1.77915929588e-38
0.00971606511577 -0.0469609813929 0.875 1.7606844368e-38
0.0113354093017 -0.0469609813929 0.875 1.76983393486e-38
0.0129547534877 -0.0469609813929 0.875 1.68682255526e-38
0.0145407854504 -0.0468536420069 0.873 1.69622232523e-38
0.0161194146968 -0.0467463026208 0.871 1.57629541915e-38
0.0177313561665 -0.0467463026208 0.871 1.73291980967e-38
0.0193432976362 -0.0467463026208 0.871 1.58554875343e-38
0.0209552391059 -0.0467463026208 0.871 1.41963487512e-38
0.0225153615616 -0.0466389632348 0.869 1.47491301668e-38
0.0241236016732 -0.0466389632348 0.869 1.49324676501e-38
0.0257318417847 -0.0466389632348 0.869 1.47491581928e-38
0.0273400818963 -0.0466389632348 0.869 1.52104838641e-38
0.0289483220078 -0.0466389632348 0.869 1.48434767898e-38
0.0305565621193 -0.0466389632348 0.869 1.44743607613e-38
0.0320907750681 -0.0465316238487 0.867 1.48431264652e-38
0.0335787210401 -0.0463706147697 0.864 1.539559399e-38
0.0351777077563 -0.0463706147697 0.864 1.58540540059e-38
0.0367766944725 -0.0463706147697 0.864 1.76990399978e-38
0.0383756811887 -0.0463706147697 0.864 1.72395065872e-38
0.0398821339514 -0.0462632753836 0.862 1.74220971784e-38
0.0414774193095 -0.0462632753836 0.862 1.71455172953e-38
0.0430727046675 -0.0462632753836 0.862 1.80674721927e-38
0.0447716280535 -0.0463706147697 0.864 1.72387905237e-38
0.0463706147697 -0.0463706147697 0.864 1.83462296936e-38
0.0479696014859 -0.0463706147697 0.864 2.12042984232e-38
0.0498554434579 -0.0466389632348 0.869 2.09251863938e-38
0.0514636835694 -0.0466389632348 0.869 2.05578331988e-38
-0.0378408349376 -0.0460671034023 0.889 1.82504187137e-38
-0.0361955812446 -0.0460671034023 0.889 1.5393796124e-38
-0.0345503275517 -0.0460671034023 0.889 1.63197251038e-38
-0.032831046696 -0.0459634653743 0.887 1.72395065872e-38
-0.0311894943612 -0.0459634653743 0.887 1.74221252044e-38
-0.0295479420264 -0.0459634653743 0.887 1.70540433342e-38
-0.0279063896916 -0.0459634653743 0.887 1.86213718444e-38
-0.0262056156265 -0.0458598273464 0.885 4.41829405802e-42
-0.0245677646499 -0.0458598273464 0.885 1.49973968144e-39
-0.0229817326872 -0.0459634653743 0.887 3.05733617388e-39
-0.0213401803524 -0.0459634653743 0.887 2.69214658369e-39
-0.0196986280176 -0.0459634653743 0.887 3.24172743361e-39
-0.0180570756828 -0.0459634653743 0.887 1.12231255176e-39
-0.0163785097666 -0.0458598273464 0.885 1.06090989513e-38
-0.0147406587899 -0.0458598273464 0.885 4.68655863603e-40
-0.0131028078133 -0.0458598273464 0.885 6.46320750571e-39
-0.0114649568366 -0.0458598273464 0.885 1.07001455165e-38
-0.00982710585995 -0.0458598273464 0.885 5.63985357352e-39
-0.00816149469725 -0.0457043703046 0.882 9.87434771976e-39
-0.0065291957578 -0.0457043703046 0.882 4.71192213823e-40
-0.00489689681835 -0.0457043703046 0.882 6.83482345066e-39
-0.00325719516262 -0.0456007322767 0.88 1.84761202521e-41
-0.00162859758131 -0.0456007322767 0.88 2.02795913757e-41
0.0 -0.0456007322767 0.88 5.72022644824e-40
0.00162859758131 -0.0456007322767 0.88 1.740132433e-41
0.00325719516262 -0.0456007322767 0.88 4.78401894422e-40
0.00488579274393 -0.0456007322767 0.88 1.56525038465e-42
0.00649958489268 -0.0454970942488 0.878 1.23690919875e-38
0.00812448111586 -0.0454970942488 0.878 1.60424151442e-38
0.00974937733903 -0.0454970942488 0.878 1.59473454512e-38
0.0113742735622 -0.0454970942488 0.878 1.63157748434e-38
0.0129991697854 -0.0454970942488 0.878 1.74221027836e-38
0.0145740976737 -0.0453416372069 0.875 1.74220971784e-38
0.0161934418596 -0.0453416372069 0.875 1.60384648838e-38
0.0177720711061 -0.045237999179 0.873 1.69611386473e-38
0.0193432976362 -0.0451343611511 0.871 1.53034011627e-38
0.0209552391059 -0.0451343611511 0.871 1.54859945565e-38
0.0225671805756 -0.0451343611511 0.871 1.57629373759e-38
0.0241791220453 -0.0451343611511 0.871 1.61309982266e-38
0.0257910635149 -0.0451343611511 0.871 1.56703858162e-38
0.0273400818963 -0.0450307231232 0.869 1.52111999276e-38
0.0289483220078 -0.0450307231232 0.869 1.50257324707e-38
0.0305565621193 -0.0450307231232 0.869 1.52101335395e-38
0.0321648022309 -0.0450307231232 0.869 1.55796363264e-38
0.0336953138215 -0.0449270850953 0.867 1.60402473355e-38
0.0352998525749 -0.0449270850953 0.867 1.79752737602e-38
0.0369043913283 -0.0449270850953 0.867 1.76072101069e-38
0.0385089300817 -0.0449270850953 0.867 1.72391562626e-38
0.0401134688351 -0.0449270850953 0.867 1.82525795159e-38
0.0415736546211 -0.0447716280535 0.864 1.72387877211e-38
0.0431726413373 -0.0447716280535 0.864 1.73317050197e-38
0.0449270850953 -0.0449270850953 0.867 1.6870377947e-38
0.0465316238487 -0.0449270850953 0.867 1.88079309129e-38
0.0481361626021 -0.0449270850953 0.867 2.11120985895e-38
0.0498554434579 -0.0450307231232 0.869 2.13865148677e-38
0.0514636835694 -0.0450307231232 0.869 1.96365971676e-38
-0.0378408349376 -0.0444218497093 0.889 1.86181250359e-38
-0.0361955812446 -0.0444218497093 0.889 1.29059658629e-38
-0.0346280560726 -0.0445217863791 0.891 1.55807111223e-38
-0.0329791010215 -0.0445217863791 0.891 1.72387877211e-38
-0.0313301459705 -0.0445217863791 0.891 1.70536930096e-38
-0.0295479420264 -0.0443219130396 0.887 1.73309861536e-38
-0.0279063896916 -0.0443219130396 0.887 1.93600088767e-38
-0.0262648373568 -0.0443219130396 0.887 1.66313388498e-39
-0.024623285022 -0.0443219130396 0.887 2.80729127851e-40
-0.0230335517011 -0.0444218497093 0.889 1.05910137934e-41
-0.0213882980082 -0.0444218497093 0.889 1.34678795406e-41
-0.0197430443153 -0.0444218497093 0.889 1.59762037918e-41
-0.0180570756828 -0.0443219130396 0.887 9.35047228887e-40
-0.016415523348 -0.0443219130396 0.887 1.30965354476e-41
-0.0147739710132 -0.0443219130396 0.887 1.02976099209e-39
-0.0131324186784 -0.0443219130396 0.887 1.94847328478e-39
-0.0114908663436 -0.0443219130396 0.887 1.0242791125e-40
-0.00982710585995 -0.0442219763698 0.885 2.13251842378e-39
-0.00818925488329 -0.0442219763698 0.885 2.49982957985e-39
-0.00655140390664 -0.0442219763698 0.885 5.44755058266e-39
-0.00489689681835 -0.0440720713651 0.882 6.91942404284e-39
-0.0032645978789 -0.0440720713651 0.882 1.01462654829e-38
-0.00163229893945 -0.0440720713651 0.882 1.07915956556e-38
0.0 -0.0439721346954 0.88 1.2357108083e-38
0.00162859758131 -0.0439721346954 0.88 1.30014012948e-38
0.00325719516262 -0.0439721346954 0.88 1.44768788947e-38
0.00488579274393 -0.0439721346954 0.88 1.39247771088e-38
0.00651439032524 -0.0439721346954 0.88 1.44797543591e-38
0.00814298790655 -0.0439721346954 0.88 1.49371535922e-38
0.00977158548786 -0.0439721346954 0.88 1.51193798458e-38
0.0114001830692 -0.0439721346954 0.88 1.52101433486e-38
0.0130287806505 -0.0439721346954 0.88 1.52101489538e-38
0.0146240660085 -0.0438721980256 0.878 1.55792831992e-38
0.0161934418596 -0.043722293021 0.875 1.59476985784e-38
0.0178127860456 -0.043722293021 0.875 1.58558532732e-38
0.0193877139339 -0.0436223563512 0.873 1.46573254992e-38
0.0210033567617 -0.0436223563512 0.873 1.54859945565e-38
0.0225671805756 -0.0435224196815 0.871 1.53019886538e-38
0.0241791220453 -0.0435224196815 0.871 1.53945247992e-38
0.0257910635149 -0.0435224196815 0.871 1.51175791772e-38
0.0274030049846 -0.0435224196815 0.871 1.53034011627e-38
0.0290149464543 -0.0435224196815 0.871 1.50257366746e-38
0.030626887924 -0.0435224196815 0.871 1.51175819798e-38
0.0321648022309 -0.0434224830117 0.869 1.73317022171e-38
0.0337730423424 -0.0434224830117 0.869 1.70547439834e-38
0.035381282454 -0.0434224830117 0.869 1.70536733914e-38
0.0369895225655 -0.0434224830117 0.869 1.73309861536e-38
0.0385977626771 -0.0434224830117 0.869 1.72387877211e-38
0.0401134688351 -0.0433225463419 0.867 1.75142984135e-38
0.0417180075885 -0.0433225463419 0.867 1.72387877211e-38
0.0433225463419 -0.0433225463419 0.867 1.76082961132e-38
0.0450307231232 -0.0434224830117 0.869 1.72402352624e-38
0.0466389632348 -0.0434224830117 0.869 1.87164569517e-38
0.0482472033463 -0.0434224830117 0.869 2.08351529675e-38
0.0499701855602 -0.0435224196815 0.871 2.1017383425e-38
0.0515821270299 -0.0435224196815 0.871 1.95429680094e-38
-0.0379259661748 -0.042872831328 0.891 1.7418860179e-38
-0.0362770111237 -0.042872831328 0.891 1.51175651642e-38
-0.0346280560726 -0.042872831328 0.891 1.7700116195e-38
-0.0329791010215 -0.042872831328 0.891 1.69614777615e-38
-0.0313301459705 -0.042872831328 0.891 1.81604133133e-38
-0.0296811909194 -0.042872831328 0.891 1.50275373431e-38
-0.0279693127799 -0.0427765960164 0.889 1.56725564275e-38
-0.0262648373568 -0.0426803607048 0.887 1.52122565067e-38
-0.024623285022 -0.0426803607048 0.887 1.47537964907e-38
-0.0230335517011 -0.0427765960164 0.889 1.65955665026e-38
-0.0213882980082 -0.0427765960164 0.889 1.65937658341e-38
-0.0197430443153 -0.0427765960164 0.889 1.68714317235e-38
-0.0180977906223 -0.0427765960164 0.889 1.65033708727e-38
-0.0164525369294 -0.0427765960164 0.889 1.63171803458e-38
-0.0148072832364 -0.0427765960164 0.889 1.72398443002e-38
-0.0131324186784 -0.0426803607048 0.887 1.74253243688e-38
-0.0114908663436 -0.0426803607048 0.887 1.64090046316e-38
-0.00984931400879 -0.0426803607048 0.887 1.76068289537e-38
-0.00820776167399 -0.0426803607048 0.887 1.69632798313e-38
-0.00656620933919 -0.0426803607048 0.887 1.76086464378e-38
-0.00492465700439 -0.0426803607048 0.887 1.7053676194e-38
-0.00327570195332 -0.0425841253931 0.885 1.73299043512e-38
-0.00163785097666 -0.0425841253931 0.885 1.70533202642e-38
0.0 -0.0424397724257 0.882 1.6776730572e-38
0.00163229893945 -0.0424397724257 0.882 1.7053676194e-38
0.0032645978789 -0.0424397724257 0.882 1.60398942083e-38
0.00489689681835 -0.0424397724257 0.882 1.65934337263e-38
0.00651439032524 -0.0423435371141 0.88 1.56711285044e-38
0.00814298790655 -0.0423435371141 0.88 1.54874406965e-38
0.00977158548786 -0.0423435371141 0.88 1.56711046823e-38
0.0114001830692 -0.0423435371141 0.88 1.54863673019e-38
0.0130287806505 -0.0423435371141 0.88 1.58544435669e-38
0.0146573782318 -0.0423435371141 0.88 1.5579639129e-38
0.0162489622317 -0.0422473018025 0.878 1.58562218147e-38
0.0178127860456 -0.042102948835 0.875 1.54877896198e-38
0.0194321302315 -0.042102948835 0.875 1.49346354588e-38
0.0210033567617 -0.0420067135234 0.873 1.53033983601e-38
0.0226189995895 -0.0420067135234 0.873 1.6316125168e-38
0.0242346424173 -0.0420067135234 0.873 1.5302679494e-38
0.0258502852452 -0.0420067135234 0.873 1.56721850834e-38
0.0274030049846 -0.0419104782118 0.871 1.57629345733e-38
0.0290149464543 -0.0419104782118 0.871 1.57629317707e-38
0.030626887924 -0.0419104782118 0.871 1.75160976807e-38
0.0322388293937 -0.0419104782118 0.871 1.69618406978e-38
0.0338507708634 -0.0419104782118 0.871 1.78845074548e-38
0.035462712333 -0.0419104782118 0.871 1.7238805938e-38
0.0369895225655 -0.0418142429001 0.869 1.69614903732e-38
0.0385977626771 -0.0418142429001 0.869 1.72387905237e-38
0.0402060027886 -0.0418142429001 0.869 1.7422099981e-38
0.0418142429001 -0.0418142429001 0.869 1.82518606498e-38
0.0434224830117 -0.0418142429001 0.869 1.78848577794e-38
0.0450307231232 -0.0418142429001 0.869 1.73317022171e-38
0.0467463026208 -0.0419104782118 0.871 1.81621887585e-38
0.0483582440905 -0.0419104782118 0.871 2.15730711336e-38
0.0499701855602 -0.0419104782118 0.871 2.0834436904e-38
0.0515821270299 -0.0419104782118 0.871 1.98199150327e-38
-0.0380536630306 -0.0413626772071 0.894 1.64065243333e-38
-0.0363991559423 -0.0413626772071 0.894 1.51168659163e-38
-0.034744648854 -0.0413626772071 0.894 1.70543964614e-38
-0.0330901417657 -0.0413626772071 0.894 1.70540405316e-38
-0.0314356346774 -0.0413626772071 0.894 1.75157473561e-38
-0.0297811275891 -0.0413626772071 0.894 1.61339073222e-38
-0.0281266205009 -0.0413626772071 0.894 1.3828656442e-38
-0.0264721134126 -0.0413626772071 0.894 1.502538635e-38
-0.0248176063243 -0.0413626772071 0.894 1.51175791772e-38
-0.023163099236 -0.0413626772071 0.894 1.65934155095e-38
-0.021436415664 -0.0412238762769 0.891 1.69618308887e-38
-0.0197874606129 -0.0412238762769 0.891 1.78852235183e-38
-0.0180977906223 -0.0411313423234 0.889 1.71476837027e-38
-0.0164525369294 -0.0411313423234 0.889 1.82536655222e-38
-0.0148072832364 -0.0411313423234 0.889 1.67774732602e-38
-0.0131620295435 -0.0411313423234 0.889 1.68710813989e-38
-0.0115167758506 -0.0411313423234 0.889 1.66852608147e-38
-0.00987152215763 -0.0411313423234 0.889 1.68689290044e-38
-0.00822626846469 -0.0411313423234 0.889 1.69618406978e-38
-0.00658101477175 -0.0411313423234 0.889 1.65005010135e-38
-0.00492465700439 -0.04103880837 0.887 1.74224503056e-38
-0.0032831046696 -0.04103880837 0.887 1.68692765265e-38
-0.0016415523348 -0.04103880837 0.887 1.64994444345e-38
0.0 -0.04103880837 0.887 1.60391655331e-38
0.00163785097666 -0.0409462744165 0.885 1.64090270523e-38
0.0032645978789 -0.0408074734862 0.882 1.64090270523e-38
0.00489689681835 -0.0408074734862 0.882 1.53019732396e-38
0.0065291957578 -0.0408074734862 0.882 1.61324429653e-38
0.00816149469725 -0.0408074734862 0.882 1.54874266835e-38
0.0097937936367 -0.0408074734862 0.882 1.60395186603e-38
0.0114001830692 -0.0407149395328 0.88 1.53023291694e-38
0.0130287806505 -0.0407149395328 0.88 1.60391655331e-38
0.0146573782318 -0.0407149395328 0.88 1.57629373759e-38
0.0162489622317 -0.0406224055793 0.878 1.64083067849e-38
0.0178738584549 -0.0406224055793 0.878 1.50264415277e-38
0.0194321302315 -0.0404836046491 0.875 1.55800048679e-38
0.0210514744175 -0.0404836046491 0.875 1.57629485863e-38
0.0226708186035 -0.0404836046491 0.875 1.53945247992e-38
0.0242901627894 -0.0404836046491 0.875 1.56710920706e-38
0.0258502852452 -0.0403910706956 0.873 1.56707529564e-38
0.027465928073 -0.0403910706956 0.873 1.64079676707e-38
0.0290815709008 -0.0403910706956 0.873 1.73316896054e-38
0.0306972137286 -0.0403910706956 0.873 1.74242537768e-38
0.0323128565565 -0.0403910706956 0.873 1.77923300418e-38
0.0339284993843 -0.0403910706956 0.873 1.70543964614e-38
0.035462712333 -0.0402985367421 0.871 1.76064940433e-38
0.0370746538027 -0.0402985367421 0.871 1.67788843677e-38
0.0386865952724 -0.0402985367421 0.871 1.65019387457e-38
0.0402985367421 -0.0402985367421 0.871 1.67774564446e-38
0.0418142429001 -0.0402060027886 0.869 1.61320870355e-38
0.0434224830117 -0.0402060027886 0.869 1.54867232317e-38
0.0451343611511 -0.0402985367421 0.871 1.41948998086e-38
0.0467463026208 -0.0402985367421 0.871 1.91759903623e-38
0.0484692848347 -0.0403910706956 0.873 2.07433104648e-38
0.0500849276625 -0.0403910706956 0.873 2.24932323689e-38
0.0517005704903 -0.0403910706956 0.873 1.98206310962e-38
-0.0381387942678 -0.0397970027142 0.896 1.55774713202e-38
-0.0364805858214 -0.0397970027142 0.896 1.50239191905e-38
-0.0348223773749 -0.0397970027142 0.896 1.74228314588e-38
-0.0331641689285 -0.0397970027142 0.896 1.74228258536e-38
-0.0315059604821 -0.0397970027142 0.896 1.71465892886e-38
-0.0298477520357 -0.0397970027142 0.896 1.72395065872e-38
-0.0281895435892 -0.0397970027142 0.896 1.76086492404e-38
-0.0264721134126 -0.0397081701189 0.894 1.79767213015e-38
-0.0248176063243 -0.0397081701189 0.894 1.69618406978e-38
-0.023163099236 -0.0397081701189 0.894 1.53030298186e-38
-0.0215567098035 -0.0397970027142 0.896 1.41967018784e-38
-0.0198540850594 -0.0397081701189 0.894 1.539559399e-38
-0.0181995779711 -0.0397081701189 0.894 1.63175727094e-38
-0.0164895505108 -0.0395749212258 0.891 1.65934155095e-38
-0.0148405954597 -0.0395749212258 0.891 1.56711088862e-38
-0.0131916404086 -0.0395749212258 0.891 1.63172167796e-38
-0.0115426853575 -0.0395749212258 0.891 1.63175544925e-38
-0.00989373030646 -0.0395749212258 0.891 1.74231789808e-38
-0.00822626846469 -0.0394860886305 0.889 1.62246582134e-38
-0.00658101477175 -0.0394860886305 0.889 1.68707310743e-38
-0.00493576107881 -0.0394860886305 0.889 1.68689262018e-38
-0.0032831046696 -0.0393972560352 0.887 1.6591263115e-38
-0.0016415523348 -0.0393972560352 0.887 1.66834657514e-38
0.0 -0.0393972560352 0.887 1.63157552253e-38
0.00163785097666 -0.0393084234398 0.885 1.58555029485e-38
0.00327570195332 -0.0393084234398 0.885 1.52108524056e-38
0.00491355292998 -0.0393084234398 0.885 1.54867232317e-38
0.00655140390664 -0.0393084234398 0.885 1.55781901863e-38
0.00818925488329 -0.0393084234398 0.885 1.49346172419e-38
0.0097937936367 -0.0391751745468 0.882 1.52104684498e-38
0.0114260925761 -0.0391751745468 0.882 1.57625814461e-38
0.0130583915156 -0.0391751745468 0.882 1.54870707537e-38
0.0146573782318 -0.0390863419515 0.88 1.56725143886e-38
0.0162489622317 -0.0389975093561 0.878 1.5855134407e-38
0.0178738584549 -0.0389975093561 0.878 1.54870707537e-38
0.0194987546781 -0.0389975093561 0.878 1.54877924224e-38
0.0211236509012 -0.0389975093561 0.878 1.66845377447e-38
0.0227485471244 -0.0389975093561 0.878 1.63157524227e-38
0.0242901627894 -0.0388642604631 0.875 1.62235567928e-38
0.0259095069754 -0.0388642604631 0.875 1.58544309552e-38
0.0275288511614 -0.0388642604631 0.875 1.74228454718e-38
0.0291481953473 -0.0388642604631 0.875 1.77926747612e-38
0.0306972137286 -0.0387754278677 0.873 1.69621966276e-38
0.0323128565565 -0.0387754278677 0.873 1.66856139419e-38
0.0339284993843 -0.0387754278677 0.873 1.54860197799e-38
0.0355441422121 -0.0387754278677 0.873 1.64083067849e-38
0.0371597850399 -0.0387754278677 0.873 1.68714443352e-38
0.0387754278677 -0.0387754278677 0.873 1.75164508079e-38
0.0402985367421 -0.0386865952724 0.871 1.78841599327e-38
0.0419104782118 -0.0386865952724 0.871 1.63200740271e-38
0.0435224196815 -0.0386865952724 0.871 1.7426053044e-38
0.0451343611511 -0.0386865952724 0.871 1.83451352795e-38
0.0468536420069 -0.0387754278677 0.873 1.88079337155e-38
0.0484692848347 -0.0387754278677 0.873 2.07429601402e-38
0.0500849276625 -0.0387754278677 0.873 2.16638220247e-38
0.0517005704903 -0.0387754278677 0.873 2.11128048439e-38
-0.0365620157004 -0.038223925505 0.898 1.35495303995e-38
-0.0349001058959 -0.038223925505 0.898 1.77919615003e-38
-0.0332381960913 -0.038223925505 0.898 1.71462263523e-38
-0.0315762862867 -0.038223925505 0.898 1.74221027836e-38
-0.0298477520357 -0.0381387942678 0.896 1.76068625848e-38
-0.0281895435892 -0.0381387942678 0.896 1.68707254691e-38
-0.0265313351428 -0.0381387942678 0.896 1.71465920912e-38
-0.0248731266964 -0.0381387942678 0.896 1.7699045603e-38
-0.02321491825 -0.0381387942678 0.896 1.77012134117e-38
-0.0215567098035 -0.0381387942678 0.896 1.79770716261e-38
-0.0198985013571 -0.0381387942678 0.896 1.5672187886e-38
-0.0182402929107 -0.0381387942678 0.896 1.56718375614e-38
-0.0165450708829 -0.0380536630306 0.894 1.65012198796e-38
-0.0148905637946 -0.0380536630306 0.894 1.68714345261e-38
-0.0132360567063 -0.0380536630306 0.894 1.65019387457e-38
-0.011581549618 -0.0380536630306 0.894 1.65941399808e-38
-0.00989373030646 -0.0379259661748 0.891 1.65934211147e-38
-0.00824477525538 -0.0379259661748 0.891 1.67785312405e-38
-0.00659582020431 -0.0379259661748 0.891 1.65015730068e-38
-0.00493576107881 -0.0378408349376 0.889 1.64083011797e-38
-0.00329050738588 -0.0378408349376 0.889 1.60391683357e-38
-0.00164525369294 -0.0378408349376 0.889 1.58551470187e-38
0.0 -0.0378408349376 0.889 1.57647492548e-38
0.0016415523348 -0.0377557037004 0.887 1.54870875693e-38
0.0032831046696 -0.0377557037004 0.887 1.5579986651e-38
0.00492465700439 -0.0377557037004 0.887 1.6040963399e-38
0.00656620933919 -0.0377557037004 0.887 1.47495085174e-38
0.00820776167399 -0.0377557037004 0.887 1.5394171672e-38
0.00982710585995 -0.0376705724632 0.885 1.54870735563e-38
0.0114649568366 -0.0376705724632 0.885 1.68689290044e-38
0.0130583915156 -0.0375428756073 0.882 1.58554973433e-38
0.014690690455 -0.0375428756073 0.882 1.56722004977e-38
0.0163229893945 -0.0375428756073 0.882 1.54870707537e-38
0.0179145733944 -0.0374577443701 0.88 1.56710920706e-38
0.0195431709757 -0.0374577443701 0.88 1.63157524227e-38
0.021171768557 -0.0374577443701 0.88 1.61317367109e-38
0.0227485471244 -0.0373726131329 0.878 1.6040615877e-38
0.0243734433476 -0.0373726131329 0.878 1.603990682e-38
0.0259095069754 -0.0372449162771 0.875 1.71462361614e-38
0.0275288511614 -0.0372449162771 0.875 1.65015758094e-38
0.0291481953473 -0.0372449162771 0.875 1.58558658848e-38
0.0307675395333 -0.0372449162771 0.875 1.59480615147e-38
0.0323868837192 -0.0372449162771 0.875 1.54863701045e-38
0.0340062279052 -0.0372449162771 0.875 1.77926775638e-38
0.0356255720912 -0.0372449162771 0.875 1.72395304093e-38
0.0372449162771 -0.0372449162771 0.875 1.76072129095e-38
0.0387754278677 -0.0371597850399 0.873 1.79770688235e-38
0.0403910706956 -0.0371597850399 0.873 1.72395037846e-38
0.0419104782118 -0.0370746538027 0.871 5.9971062092e-39
0.0435224196815 -0.0370746538027 0.871 1.83483975023e-38
0.0451343611511 -0.0370746538027 0.871 1.73309861536e-38
0.0468536420069 -0.0371597850399 0.873 1.97295298804e-38
0.0484692848347 -0.0371597850399 0.873 2.16652695661e-38
0.0500849276625 -0.0371597850399 0.873 2.14805125674e-38
0.0521151226019 -0.0374577443701 0.88 2.07433076622e-38
-0.0367655903981 -0.0367655903981 0.903 1.3643884029e-38
-0.0350166986772 -0.036684160519 0.901 1.83462086741e-38
-0.0333492368355 -0.036684160519 0.901 1.6686332808e-38
-0.0316817749937 -0.036684160519 0.901 1.77908867044e-38
-0.0299143764822 -0.0365620157004 0.898 1.60398970109e-38
-0.0282524666776 -0.0365620157004 0.898 1.40119560902e-38
-0.0265313351428 -0.0364805858214 0.896 1.53026766914e-38
-0.0248731266964 -0.0364805858214 0.896 1.61328059016e-38
-0.02321491825 -0.0364805858214 0.896 1.65959490571e-38
-0.0216048274593 -0.0365620157004 0.898 1.74246181144e-38
-0.0198985013571 -0.0364805858214 0.896 1.67770808966e-38
-0.0182402929107 -0.0364805858214 0.896 1.60380795268e-38
-0.0165820844643 -0.0364805858214 0.896 1.46569751746e-38
-0.0149238760178 -0.0364805858214 0.896 1.75164662222e-38
-0.0132656675714 -0.0364805858214 0.896 1.69639832832e-38
-0.011581549618 -0.0363991559423 0.894 1.65930651849e-38
-0.00989373030646 -0.0362770111237 0.891 1.69618406978e-38
-0.00824477525538 -0.0362770111237 0.891 1.62253616652e-38
-0.00659582020431 -0.0362770111237 0.891 1.62253588626e-38
-0.00494686515323 -0.0362770111237 0.891 1.64086711225e-38
-0.00329791010215 -0.0362770111237 0.891 1.72380842693e-38
-0.00164895505108 -0.0362770111237 0.891 1.57625982617e-38
0.0 -0.0361955812446 0.889 1.60406130744e-38
0.00164525369294 -0.0361955812446 0.889 1.55792831992e-38
0.00329050738588 -0.0361955812446 0.889 1.54870875693e-38
0.00492465700439 -0.0361141513656 0.887 1.55803579951e-38
0.00656620933919 -0.0361141513656 0.887 1.61331590289e-38
0.00820776167399 -0.0361141513656 0.887 1.54870931745e-38
0.00984931400879 -0.0361141513656 0.887 1.64075991292e-38
0.0114649568366 -0.0360327214865 0.885 1.58533351398e-38
0.0131028078133 -0.0360327214865 0.885 1.54870735563e-38
0.0147406587899 -0.0360327214865 0.885 1.5948048903e-38
0.0163785097666 -0.0360327214865 0.885 1.5579986651e-38
0.0179552883339 -0.0359105766679 0.882 1.57625814461e-38
0.0195875872734 -0.0359105766679 0.882 1.64083067849e-38
0.0212198862128 -0.0359105766679 0.882 1.60398942083e-38
0.0228003661383 -0.0358291467888 0.88 1.58551470187e-38
0.0244289637197 -0.0358291467888 0.88 1.58554973433e-38
0.0259983395707 -0.0357477169098 0.878 1.59480461004e-38
0.0276232357939 -0.0357477169098 0.878 1.57636548407e-38
0.0292481320171 -0.0357477169098 0.878 1.65015912237e-38
0.0307675395333 -0.0356255720912 0.875 1.58565721393e-38
0.0323868837192 -0.0356255720912 0.875 1.57629345733e-38
0.0340062279052 -0.0356255720912 0.875 1.76086226157e-38
0.0356255720912 -0.0356255720912 0.875 1.78852291235e-38
0.0372449162771 -0.0356255720912 0.875 1.7606844368e-38
0.0388642604631 -0.0356255720912 0.875 1.79767030846e-38
0.0404836046491 -0.0356255720912 0.875 1.72391408483e-38
0.0420067135234 -0.0355441422121 0.873 1.08795173251e-38
0.0436223563512 -0.0355441422121 0.873 1.8532413214e-38
0.045237999179 -0.0355441422121 0.873 1.75149990627e-38
0.0468536420069 -0.0355441422121 0.873 1.8715735283e-38
0.0485803255789 -0.0356255720912 0.875 2.12046515504e-38
0.0504865250206 -0.0358291467888 0.88 2.09262569858e-38
0.0521151226019 -0.0358291467888 0.88 2.05578331988e-38
-0.038436753598 -0.0350944271982 0.903 1.36438812264e-38
-0.0367655903981 -0.0350944271982 0.903 1.21694503966e-38
-0.0350944271982 -0.0350944271982 0.903 1.80696231858e-38
-0.0334232639983 -0.0350944271982 0.903 1.68707310743e-38
-0.0317521007983 -0.0350944271982 0.903 1.74235503249e-38
-0.0300143131519 -0.0350166986772 0.901 1.76086590495e-38
-0.0283468513102 -0.0350166986772 0.901 1.73310015679e-38
-0.0266793894684 -0.0350166986772 0.901 1.69625707743e-38
-0.0249286470685 -0.0349001058959 0.898 1.54878120406e-38
-0.0232667372639 -0.0349001058959 0.898 1.4842439829e-38
-0.0216048274593 -0.0349001058959 0.898 1.65015533886e-38
-0.0199429176548 -0.0349001058959 0.898 1.52097621954e-38
-0.0182810078502 -0.0349001058959 0.898 1.61303045839e-38
-0.0166190980456 -0.0349001058959 0.898 1.65941610003e-38
-0.0149571882411 -0.0349001058959 0.898 1.67792487053e-38
-0.0132952784365 -0.0349001058959 0.898 1.67785284379e-38
-0.011607459125 -0.0348223773749 0.896 1.723915346e-38
-0.00994925067855 -0.0348223773749 0.896 1.73317050197e-38
-0.00827253544143 -0.034744648854 0.894 1.6778162699e-38
-0.00661802835314 -0.034744648854 0.894 1.677710612e-38
-0.00496352126486 -0.034744648854 0.894 1.5948048903e-38
-0.00330901417657 -0.034744648854 0.894 1.56707389434e-38
-0.00165450708829 -0.034744648854 0.894 1.65927148602e-38
0.0 -0.0346280560726 0.891 1.61324429653e-38
0.00164895505108 -0.0346280560726 0.891 1.61317395135e-38
0.00329050738588 -0.0345503275517 0.889 1.62243022836e-38
0.00493576107881 -0.0345503275517 0.889 1.56725410132e-38
0.00656620933919 -0.0344725990308 0.887 1.58565693367e-38
0.00820776167399 -0.0344725990308 0.887 1.50268156744e-38
0.00984931400879 -0.0344725990308 0.887 1.79759744094e-38
0.0114908663436 -0.0344725990308 0.887 1.53938213474e-38
0.0131324186784 -0.0344725990308 0.887 1.56707529564e-38
0.0147406587899 -0.0343948705098 0.885 1.57636576433e-38
0.0163785097666 -0.0343948705098 0.885 1.54870707537e-38
0.0180163607432 -0.0343948705098 0.885 1.59484174445e-38
0.0196542117199 -0.0343948705098 0.885 1.6409377377e-38
0.0212920626966 -0.0343948705098 0.885 1.58554973433e-38
0.0228521851523 -0.0342782777284 0.882 1.56700382942e-38
0.0244844840917 -0.0342782777284 0.882 1.54867204291e-38
0.026057561301 -0.0342005492075 0.88 1.53026766914e-38
0.0276861588823 -0.0342005492075 0.88 1.64083207979e-38
0.0292481320171 -0.0341228206866 0.878 1.64083179953e-38
0.0308730282403 -0.0341228206866 0.878 1.63164740914e-38
0.0324979244634 -0.0341228206866 0.878 1.71462361614e-38
0.0341228206866 -0.0341228206866 0.878 1.65005038161e-38
0.0357477169098 -0.0341228206866 0.878 1.61310108383e-38
0.0373726131329 -0.0341228206866 0.878 1.76064968459e-38
0.0389975093561 -0.0341228206866 0.878 1.7422099981e-38
0.0404836046491 -0.0340062279052 0.875 1.71458732251e-38
0.042102948835 -0.0340062279052 0.875 1.05110809264e-38
0.043722293021 -0.0340062279052 0.875 1.7610459718e-38
0.0453416372069 -0.0340062279052 0.875 1.67770865018e-38
0.0469609813929 -0.0340062279052 0.875 1.95447700792e-38
0.0488579274393 -0.0342005492075 0.88 2.20336989583e-38
0.0504865250206 -0.0342005492075 0.88 2.12950451105e-38
0.0521151226019 -0.0342005492075 0.88 1.78845256716e-38
-0.038436753598 -0.0334232639983 0.903 1.35495303995e-38
-0.0367655903981 -0.0334232639983 0.903 1.28130443605e-38
-0.0350944271982 -0.0334232639983 0.903 1.75153970315e-38
-0.0334232639983 -0.0334232639983 0.903 1.77015637364e-38
-0.0317521007983 -0.0334232639983 0.903 1.76097156285e-38
-0.0300809375984 -0.0334232639983 0.903 1.73317022171e-38
-0.0284097743985 -0.0334232639983 0.903 1.62260805313e-38
-0.0266793894684 -0.0333492368355 0.901 1.62260749261e-38
-0.0250119276266 -0.0333492368355 0.901 1.64097711418e-38
-0.0233444657848 -0.0333492368355 0.901 1.77916111757e-38
-0.0216770039431 -0.0333492368355 0.901 1.77908923096e-38
-0.0200095421013 -0.0333492368355 0.901 1.75142956109e-38
-0.0183420802595 -0.0333492368355 0.901 1.7330983351e-38
-0.0166190980456 -0.0332381960913 0.898 1.63175544925e-38
-0.0149571882411 -0.0332381960913 0.898 1.61324569783e-38
-0.0133396947342 -0.0333492368355 0.901 1.68692821316e-38
-0.011633368632 -0.0332381960913 0.898 1.76079135587e-38
-0.00994925067855 -0.0331641689285 0.896 1.67792318897e-38
-0.00829104223213 -0.0331641689285 0.896 1.60398914057e-38
-0.0066328337857 -0.0331641689285 0.896 1.62246526082e-38
-0.00497462533928 -0.0331641689285 0.896 1.64090270523e-38
-0.00331641689285 -0.0331641689285 0.896 1.57647492548e-38
-0.00165820844643 -0.0331641689285 0.896 1.58558658848e-38
0.0 -0.0330901417657 0.894 1.65934211147e-38
0.00164895505108 -0.0329791010215 0.891 1.58547784772e-38
0.00329050738588 -0.0329050738588 0.889 1.54874266835e-38
0.00493576107881 -0.0329050738588 0.889 1.53026822966e-38
0.00658101477175 -0.0329050738588 0.889 1.52101279343e-38
0.00822626846469 -0.0329050738588 0.889 1.71462361614e-38
0.00984931400879 -0.032831046696 0.887 1.57647114197e-38
0.0114908663436 -0.032831046696 0.887 1.53026977109e-38
0.0131324186784 -0.032831046696 0.887 1.54870735563e-38
0.0147739710132 -0.032831046696 0.887 1.50261122226e-38
0.0163785097666 -0.0327570195332 0.885 1.54863420785e-38
0.0180163607432 -0.0327570195332 0.885 1.66859824834e-38
0.0196542117199 -0.0327570195332 0.885 1.5855134407e-38
0.0212920626966 -0.0327570195332 0.885 1.60398942083e-38
0.0229299136732 -0.0327570195332 0.885 1.58547994967e-38
0.0244844840917 -0.032645978789 0.882 1.56696823644e-38
0.0261167830312 -0.032645978789 0.882 1.74221027836e-38
0.0276861588823 -0.0325719516262 0.88 1.69618280861e-38
0.0293147564636 -0.0325719516262 0.88 1.66856111393e-38
0.0309433540449 -0.0325719516262 0.88 1.65934211147e-38
0.0324979244634 -0.0324979244634 0.878 1.64090270523e-38
0.0341228206866 -0.0324979244634 0.878 1.65919693695e-38
0.0357477169098 -0.0324979244634 0.878 1.75142984135e-38
0.0373726131329 -0.0324979244634 0.878 1.67770808966e-38
0.0389975093561 -0.0324979244634 0.878 1.82511600006e-38
0.0406224055793 -0.0324979244634 0.878 1.74213811149e-38
0.0422473018025 -0.0324979244634 0.878 1.28181436856e-38
0.0438721980256 -0.0324979244634 0.878 1.72420499439e-38
0.0454970942488 -0.0324979244634 0.878 1.6222853341e-38
0.047121990472 -0.0324979244634 0.878 1.89915836883e-38
0.0488579274393 -0.0325719516262 0.88 2.16638248273e-38
0.0504865250206 -0.0325719516262 0.88 2.14790636248e-38
0.0527665616345 -0.0329791010215 0.891 1.50264653498e-38
0.0545987339134 -0.0330901417657 0.894 1.70522833033e-38
0.0562532410017 -0.0330901417657 0.894 1.58537247008e-38
-0.0385644504538 -0.0318575895053 0.906 1.32729505164e-38
-0.0368877352167 -0.0318575895053 0.906 1.17988896294e-38
-0.0352110199796 -0.0318575895053 0.906 1.86217249717e-38
-0.0335343047424 -0.0318575895053 0.906 1.63179104223e-38
-0.0317521007983 -0.0317521007983 0.903 1.68707310743e-38
-0.0300809375984 -0.0317521007983 0.903 1.63172069705e-38
-0.0284097743985 -0.0317521007983 0.903 1.58565693367e-38
-0.0267386111986 -0.0317521007983 0.903 1.63186292884e-38
-0.0250674479987 -0.0317521007983 0.903 1.67792487053e-38
-0.0233962847988 -0.0317521007983 0.903 1.66852664199e-38
-0.0217251215989 -0.0317521007983 0.903 1.76983435525e-38
-0.0200095421013 -0.0316817749937 0.901 1.76072101069e-38
-0.0183420802595 -0.0316817749937 0.901 1.78856046715e-38
-0.0166746184177 -0.0316817749937 0.901 1.7330635829e-38
-0.015007156576 -0.0316817749937 0.901 1.82518634524e-38
-0.0133396947342 -0.0316817749937 0.901 1.77919432834e-38
-0.011633368632 -0.0315762862867 0.898 1.78852109066e-38
-0.00997145882739 -0.0315762862867 0.898 1.78845046522e-38
-0.00830954902282 -0.0315762862867 0.898 1.72384528108e-38
-0.00664763921826 -0.0315762862867 0.898 1.66856321588e-38
-0.00497462533928 -0.0315059604821 0.896 1.66866831327e-38
-0.00331641689285 -0.0315059604821 0.896 1.63179104223e-38
-0.00165820844643 -0.0315059604821 0.896 1.59487705717e-38
0.0 -0.0315059604821 0.896 1.55792831992e-38
0.00165450708829 -0.0314356346774 0.894 1.56711018797e-38
0.00330901417657 -0.0314356346774 0.894 1.57636576433e-38
0.00494686515323 -0.0313301459705 0.891 1.55781873838e-38
0.00659582020431 -0.0313301459705 0.891 1.50257394772e-38
0.00822626846469 -0.0312598201658 0.889 1.67785284379e-38
0.00987152215763 -0.0312598201658 0.889 1.47495239317e-38
0.0115167758506 -0.0312598201658 0.889 1.53019760421e-38
0.0131324186784 -0.0311894943612 0.887 1.52108524056e-38
0.0147739710132 -0.0311894943612 0.887 1.53023291694e-38
0.016415523348 -0.0311894943612 0.887 1.57629485863e-38
0.0180570756828 -0.0311894943612 0.887 1.63161223655e-38
0.0196542117199 -0.0311191685565 0.885 1.54870735563e-38
0.0212920626966 -0.0311191685565 0.885 1.50264625472e-38
0.0229299136732 -0.0311191685565 0.885 1.48417237654e-38
0.0245677646499 -0.0311191685565 0.885 1.66852664199e-38
0.0262056156265 -0.0311191685565 0.885 1.76068625848e-38
0.0277490819706 -0.0310136798495 0.882 1.69611274369e-38
0.0293813809101 -0.0310136798495 0.882 1.67774592472e-38
0.0310136798495 -0.0310136798495 0.882 1.65934211147e-38
0.0325719516262 -0.0309433540449 0.88 1.75161004833e-38
0.0342005492075 -0.0309433540449 0.88 1.67774340238e-38
0.0358291467888 -0.0309433540449 0.88 1.75142956109e-38
0.0374577443701 -0.0309433540449 0.88 1.65008569433e-38
0.0390863419515 -0.0309433540449 0.88 1.61313863863e-38
0.0407149395328 -0.0309433540449 0.88 1.52994607114e-38
0.0423435371141 -0.0309433540449 0.88 1.3550997559e-38
0.0439721346954 -0.0309433540449 0.88 1.84394973168e-38
0.0456007322767 -0.0309433540449 0.88 1.70561915247e-38
0.047229329858 -0.0309433540449 0.88 2.04667263778e-38
0.0488579274393 -0.0309433540449 0.88 2.16638248273e-38
0.0507733802764 -0.0311191685565 0.885 2.09258926482e-38
0.052648118174 -0.0312598201658 0.889 1.40112554409e-38
0.0545987339134 -0.0314356346774 0.894 1.59484440692e-38
0.0562532410017 -0.0314356346774 0.894 1.63165035186e-38
-0.0369691650957 -0.0302474987147 0.908 1.18910880618e-38
-0.0352110199796 -0.0301808742682 0.906 1.79760150471e-38
-0.0335343047424 -0.0301808742682 0.906 1.75161102924e-38
-0.0318575895053 -0.0301808742682 0.906 1.74239006495e-38
-0.0301808742682 -0.0301808742682 0.906 1.58558532732e-38
-0.0285041590311 -0.0301808742682 0.906 1.49346172419e-38
-0.026827443794 -0.0301808742682 0.906 1.61331758444e-38
-0.0250674479987 -0.0300809375984 0.903 1.65030205481e-38
-0.0233962847988 -0.0300809375984 0.903 1.80685511925e-38
-0.0217972980826 -0.0301808742682 0.906 1.71455200979e-38
-0.0201205828455 -0.0301808742682 0.906 1.75142956109e-38
-0.018382795199 -0.0300809375984 0.903 1.5210849603e-38
-0.0167116319991 -0.0300809375984 0.903 1.46573100849e-38
-0.0150404687992 -0.0300809375984 0.903 1.53026921057e-38
-0.0133693055993 -0.0300809375984 0.903 1.60391683357e-38
-0.0116981423994 -0.0300809375984 0.903 1.58544281526e-38
-0.0100047710506 -0.0300143131519 0.901 1.55778370591e-38
-0.00830954902282 -0.0299143764822 0.898 1.46573072823e-38
-0.00664763921826 -0.0299143764822 0.898 1.41966570369e-38
-0.00498572941369 -0.0299143764822 0.898 1.58565693367e-38
-0.00332381960913 -0.0299143764822 0.898 1.79756465056e-38
-0.00166190980456 -0.0299143764822 0.898 1.62246133718e-38
0.0 -0.0299143764822 0.898 1.61331590289e-38
0.00165820844643 -0.0298477520357 0.896 1.62253588626e-38
0.00331641689285 -0.0298477520357 0.896 1.57643582925e-38
0.00497462533928 -0.0298477520357 0.896 1.64083011797e-38
0.00659582020431 -0.0296811909194 0.891 1.59480461004e-38
0.00824477525538 -0.0296811909194 0.891 1.62257119898e-38
0.00987152215763 -0.0296145664729 0.889 1.55796363264e-38
0.0115167758506 -0.0296145664729 0.889 1.57629345733e-38
0.0131620295435 -0.0296145664729 0.889 1.5209764998e-38
0.0148072832364 -0.0296145664729 0.889 1.539559399e-38
0.016415523348 -0.0295479420264 0.887 1.60388152085e-38
0.0180570756828 -0.0295479420264 0.887 1.54867232317e-38
0.0196986280176 -0.0295479420264 0.887 1.54863673019e-38
0.0213401803524 -0.0295479420264 0.887 1.59473426486e-38
