# .PCD v0.7 - Point Cloud Data file format
VERSION 0.7
FIELDS x y z rgb
SIZE 4 4 4 4
TYPE F F F F
COUNT 1 1 1 1
WIDTH 854
HEIGHT 1
VIEWPOINT 0 0 0 1 0 0 0
POINTS 854
DATA ascii
0.0141743509946 -0.0188991346595 0.851 2.26558810816e-38
0.0157492788829 -0.0188991346595 0.851 2.34874171956e-38
0.0172834918317 -0.0188547183618 0.849 2.34856403491e-38
0.0188547183618 -0.0188547183618 0.849 2.34838480884e-38
0.0204740625478 -0.0188991346595 0.851 2.34849382986e-38
0.0220489904361 -0.0188991346595 0.851 2.30224775755e-38
0.0237071988825 -0.018965759106 0.854 2.34874466228e-38
0.025287678808 -0.018965759106 0.854 2.34928738518e-38
0.0268681587335 -0.018965759106 0.854 4.49993931174e-39
0.028448638659 -0.018965759106 0.854 0.0
0.0300994443891 -0.0190101754037 0.856 2.03615617307e-38
0.0316836256728 -0.0190101754037 0.856 1.64838157527e-38
0.0332678069564 -0.0190101754037 0.856 2.23843837081e-38
0.03485198824 -0.0190101754037 0.856 2.34928542336e-38
0.0365213007609 -0.0190545917013 0.858 2.34856641712e-38
0.0381091834027 -0.0190545917013 0.858 2.34838789169e-38
0.0397895999979 -0.019099007999 0.86 2.34824173626e-38
0.0413811839978 -0.019099007999 0.86 2.34849312921e-38
0.0430727046675 -0.0191434242967 0.862 2.32094332114e-38
0.0446679900256 -0.0191434242967 0.862 2.34870948969e-38
0.0462632753836 -0.0191434242967 0.862 2.34870920943e-38
0.0478585607417 -0.0191434242967 0.862 2.34859962789e-38
0.0495685882021 -0.0191878405943 0.864 2.34874466228e-38
0.0511675749183 -0.0191878405943 0.864 1.97999941737e-38
0.0527665616345 -0.0191878405943 0.864 2.34842558662e-38
0.0543655483507 -0.0191878405943 0.864 2.33934517257e-38
0.0561588563692 -0.0192544650409 0.867 2.1734300331e-38
0.0578966440156 -0.0192988813385 0.869 2.10857121394e-38
0.0596418343783 -0.0193432976362 0.871 2.13607912318e-38
0.0613944274573 -0.0193877139339 0.873 2.34863998529e-38
0.0631544232525 -0.0194321302315 0.875 2.3488151476e-38
0.0647737674385 -0.0194321302315 0.875 2.34863774321e-38
0.06662074515 -0.0194987546781 0.878 2.33880735422e-38
0.068401098415 -0.0195431709757 0.88 2.34906892275e-38
0.0110633594785 -0.0173852791805 0.854 1.97970808742e-38
0.012643839404 -0.0173852791805 0.854 1.62933484628e-38
0.0142243193295 -0.0173852791805 0.854 2.26562566296e-38
0.015804799255 -0.0173852791805 0.854 2.3485644553e-38
0.0173852791805 -0.0173852791805 0.854 2.34820446173e-38
0.018965759106 -0.0173852791805 0.854 2.33884266695e-38
0.0205943566873 -0.01742599412 0.856 2.3480996446e-38
0.0221785379709 -0.01742599412 0.856 2.34845767636e-38
0.0237627192546 -0.01742599412 0.856 2.34860271075e-38
0.0253469005382 -0.01742599412 0.856 2.34957409084e-38
0.0269310818219 -0.01742599412 0.856 9.66604470304e-39
0.0285152631055 -0.01742599412 0.856 0.0
0.0301697701938 -0.0174667090596 0.858 2.34882817967e-38
0.0317576528356 -0.0174667090596 0.858 2.34892767186e-38
0.0333455354773 -0.0174667090596 0.858 2.34813495732e-38
0.0350148479982 -0.0175074239991 0.86 2.34867305593e-38
0.0366064319981 -0.0175074239991 0.86 2.34824117575e-38
0.0382868485934 -0.0175481389386 0.862 2.34863648204e-38
0.0398821339514 -0.0175481389386 0.862 2.34838494897e-38
0.0415736546211 -0.0175888538782 0.864 2.34842026169e-38
0.0431726413373 -0.0175888538782 0.864 2.3487480254e-38
0.0447716280535 -0.0175888538782 0.864 2.29331770283e-38
0.0463706147697 -0.0175888538782 0.864 2.07215777269e-38
0.0479696014859 -0.0175888538782 0.864 1.69351277452e-38
0.0497407013555 -0.0176499262875 0.867 2.01698108514e-38
0.051345240109 -0.0176499262875 0.867 1.92526343818e-38
0.0529497788624 -0.0176499262875 0.867 2.04468265383e-38
0.0546801637925 -0.017690641227 0.869 2.0442139195e-38
0.056288403904 -0.017690641227 0.869 2.3485311044e-38
0.0582963906946 -0.0178127860456 0.875 2.34888857564e-38
0.0599157348806 -0.0178127860456 0.875 2.34896242407e-38
0.0617460564805 -0.0178738584549 0.878 2.34838929299e-38
0.0633709527037 -0.0178738584549 0.878 2.3482790108e-38
0.0651439032524 -0.0179145733944 0.88 2.34846047896e-38
0.0667725008337 -0.0179145733944 0.88 2.3483165656e-38
0.068401098415 -0.0179145733944 0.88 2.34910605716e-38
0.0700296959964 -0.0179145733944 0.88 2.35098491814e-38
0.0110892689855 -0.0158418128364 0.856 2.00733524716e-38
0.0126734502691 -0.0158418128364 0.856 1.62004297629e-38
0.0142576315527 -0.0158418128364 0.856 2.21942247039e-38
0.0158418128364 -0.0158418128364 0.856 2.34863381958e-38
0.01742599412 -0.0158418128364 0.856 2.34863606165e-38
0.0190101754037 -0.0158418128364 0.856 2.34810202681e-38
0.0205943566873 -0.0158418128364 0.856 2.34806321084e-38
0.0221785379709 -0.0158418128364 0.856 2.34827718912e-38
0.0238182396267 -0.0158788264178 0.858 2.34824215665e-38
0.0254061222684 -0.0158788264178 0.858 2.34885522473e-38
0.0270569279986 -0.0159158399992 0.86 1.38044013668e-38
0.0286485119985 -0.0159158399992 0.86 2.12733446025e-38
0.0302400959984 -0.0159158399992 0.86 2.30279930863e-38
0.0318316799983 -0.0159158399992 0.86 2.34834837508e-38
0.0334232639983 -0.0159158399992 0.86 2.34817125095e-38
0.0350962778772 -0.0159528535806 0.862 2.34849200817e-38
0.0367766944725 -0.015989867162 0.864 2.34867249541e-38
0.0383756811887 -0.015989867162 0.864 2.34874326099e-38
0.0401134688351 -0.016045387534 0.867 2.28434841175e-38
0.0417180075885 -0.016045387534 0.867 1.79582451813e-38
0.0434224830117 -0.0160824011154 0.869 2.22867706584e-38
0.0449270850953 -0.016045387534 0.867 1.8783024234e-38
0.0465316238487 -0.016045387534 0.867 1.89796418228e-38
0.0481361626021 -0.016045387534 0.867 1.95231046036e-38
0.0498554434579 -0.0160824011154 0.869 2.16385271862e-38
0.0515821270299 -0.0161194146968 0.871 2.20998836861e-38
0.0531940684996 -0.0161194146968 0.871 2.3490334699e-38
0.054931856146 -0.0161564282782 0.873 2.34903711327e-38
0.0565474989738 -0.0161564282782 0.873 2.34860215023e-38
0.0584962640342 -0.0162489622317 0.878 2.09931423628e-38
0.0601211602573 -0.0162489622317 0.878 2.16370824474e-38
0.0618867080898 -0.0162859758131 0.88 2.21920933289e-38
0.0635153056711 -0.0162859758131 0.88 1.98843327231e-38
0.065291957578 -0.0163229893945 0.882 2.34881668902e-38
0.0669242565174 -0.0163229893945 0.882 2.34842460571e-38
0.0685565554569 -0.0163229893945 0.882 2.34946815268e-38
0.0701888543963 -0.0163229893945 0.882 2.35098463788e-38
0.00959392029717 -0.0143908804458 0.864 1.90592019444e-38
0.0111410879994 -0.0143242559993 0.86 1.91517563067e-38
0.0127326719993 -0.0143242559993 0.86 1.65695471927e-38
0.014290943776 -0.014290943776 0.858 2.17324674326e-38
0.0158788264178 -0.014290943776 0.858 2.34860172984e-38
0.0174667090596 -0.014290943776 0.858 2.34838382793e-38
0.0190545917013 -0.014290943776 0.858 2.34838494897e-38
0.0206424743431 -0.014290943776 0.858 2.34834963625e-38
0.0222303569849 -0.014290943776 0.858 2.34827746938e-38
0.0238737599988 -0.0143242559993 0.86 2.34838424832e-38
0.0254653439987 -0.0143242559993 0.86 2.3114713843e-38
0.0270569279986 -0.0143242559993 0.86 2.34889249927e-38
0.0286485119985 -0.0143242559993 0.86 2.34867375658e-38
0.0302400959984 -0.0143242559993 0.86 2.34859878711e-38
0.0318316799983 -0.0143242559993 0.86 2.31154200974e-38
0.0335009925192 -0.0143575682225 0.862 2.3486367623e-38
0.0351777077563 -0.0143908804458 0.864 2.15523683501e-38
0.0369043913283 -0.0144408487806 0.867 1.80440186603e-38
0.0385089300817 -0.0144408487806 0.867 2.11789615457e-38
0.0401134688351 -0.0144408487806 0.867 1.92501008342e-38
0.0418142429001 -0.0144741610039 0.869 1.63985425372e-38
0.0434224830117 -0.0144741610039 0.869 2.34925277311e-38
0.0450307231232 -0.0144741610039 0.869 1.8784428335e-38
0.0467463026208 -0.0145074732272 0.871 1.8700208896e-38
0.0483582440905 -0.0145074732272 0.871 2.06304737086e-38
0.0499701855602 -0.0145074732272 0.871 2.34932395907e-38
0.0517005704903 -0.0145407854504 0.873 2.34853166492e-38
0.0534383581368 -0.0145740976737 0.875 2.17321353249e-38
0.0552464715878 -0.0146240660085 0.878 1.97009546021e-38
0.056871367811 -0.0146240660085 0.878 2.05325551758e-38
0.0586295129272 -0.0146573782318 0.88 2.09971234518e-38
0.0602581105085 -0.0146573782318 0.88 2.16410355104e-38
0.0620273596991 -0.014690690455 0.882 2.15488777156e-38
0.0636596586385 -0.014690690455 0.882 2.3492114348e-38
0.065291957578 -0.014690690455 0.882 2.34831292223e-38
0.0669242565174 -0.014690690455 0.882 2.34835005664e-38
0.0685565554569 -0.014690690455 0.882 2.34954186098e-38
0.0701888543963 -0.014690690455 0.882 2.35098463788e-38
0.00959392029717 -0.0127918937296 0.864 1.85074715027e-38
0.0111669975064 -0.0127622828645 0.862 1.96134449143e-38
0.0127622828645 -0.0127622828645 0.862 1.7582998472e-38
0.0143575682225 -0.0127622828645 0.862 2.16388228601e-38
0.0159158399992 -0.0127326719993 0.86 2.34885466421e-38
0.0175074239991 -0.0127326719993 0.86 2.33916944975e-38
0.019099007999 -0.0127326719993 0.86 2.3021076277e-38
0.0206905919989 -0.0127326719993 0.86 2.34831488404e-38
0.0222821759988 -0.0127326719993 0.86 2.30203924434e-38
0.0239292803708 -0.0127622828645 0.862 2.34838578975e-38
0.0255245657289 -0.0127622828645 0.862 2.34838536936e-38
0.027119851087 -0.0127622828645 0.862 2.32058332757e-38
0.0287817608915 -0.0127918937296 0.864 2.34878053552e-38
0.0303807476077 -0.0127918937296 0.864 2.34896214381e-38
0.0319797343239 -0.0127918937296 0.864 1.84134429744e-38
0.0335787210401 -0.0127918937296 0.864 1.78628447818e-38
0.0352998525749 -0.0128363100272 0.867 1.89796390202e-38
0.0369895225655 -0.0128659208924 0.869 1.86983914119e-38
0.0385977626771 -0.0128659208924 0.869 1.87829093275e-38
0.0402060027886 -0.0128659208924 0.869 2.1271581769e-38
0.0419104782118 -0.0128955317575 0.871 1.7685289056e-38
0.0435224196815 -0.0128955317575 0.871 2.3489663477e-38
0.0451343611511 -0.0128955317575 0.871 2.28395562779e-38
0.0468536420069 -0.0129251426226 0.873 2.11854593667e-38
0.0484692848347 -0.0129251426226 0.873 2.081383081e-38
0.0501996697648 -0.0129547534877 0.875 1.97031252135e-38
0.0519966791415 -0.0129991697854 0.878 2.1457035213e-38
0.0536215753646 -0.0129991697854 0.878 2.05383201177e-38
0.0553723177646 -0.0130287806505 0.88 2.15441665502e-38
0.0573247841831 -0.0131028078133 0.885 2.17318242366e-38
0.0589626351597 -0.0131028078133 0.885 2.34871089099e-38
0.0606004861364 -0.0131028078133 0.885 2.07176078484e-38
0.0623789887223 -0.0131324186784 0.887 2.33891749628e-38
0.0640205410571 -0.0131324186784 0.887 1.94236880828e-38
0.0656620933919 -0.0131324186784 0.887 2.34874326099e-38
0.0673036457267 -0.0131324186784 0.887 2.30225210157e-38
0.0689451980615 -0.0131324186784 0.887 2.35015254685e-38
0.0705867503963 -0.0131324186784 0.887 2.35098687996e-38
0.0111929070134 -0.0111929070134 0.864 1.96127442651e-38
0.0127918937296 -0.0111929070134 0.864 1.75844404081e-38
0.0143908804458 -0.0111929070134 0.864 2.18232365406e-38
0.0159528535806 -0.0111669975064 0.862 2.32065661548e-38
0.0175481389386 -0.0111669975064 0.862 2.3204745868e-38
0.0191434242967 -0.0111669975064 0.862 2.34838564962e-38
0.0207387096547 -0.0111669975064 0.862 2.34852816167e-38
0.0223339950128 -0.0111669975064 0.862 2.34827718912e-38
0.0239848007429 -0.0111929070134 0.864 2.34860088906e-38
0.0255837874591 -0.0111929070134 0.864 2.34834935599e-38
0.0272771588079 -0.0112317712738 0.867 2.27480823167e-38
0.0289483220078 -0.0112576807808 0.869 2.19179629155e-38
0.0304862363147 -0.0112317712738 0.867 2.07165358551e-38
0.0320907750681 -0.0112317712738 0.867 2.08055449322e-38
0.0337730423424 -0.0112576807808 0.869 2.12693775265e-38
0.035381282454 -0.0112576807808 0.869 2.18315182146e-38
0.0370746538027 -0.0112835902878 0.871 2.04442621621e-38
0.0386865952724 -0.0112835902878 0.871 2.28377584119e-38
0.0403910706956 -0.0113094997948 0.873 2.27477109726e-38
0.0420067135234 -0.0113094997948 0.873 2.17393225847e-38
0.043722293021 -0.0113354093017 0.875 2.00751895739e-38
0.0453416372069 -0.0113354093017 0.875 2.18211107709e-38
0.047121990472 -0.0113742735622 0.878 2.15492028168e-38
0.0487468866951 -0.0113742735622 0.878 1.96171177176e-38
0.0504865250206 -0.0114001830692 0.88 2.09934982926e-38
0.0521151226019 -0.0114001830692 0.88 2.09921068033e-38
0.0538658650018 -0.0114260925761 0.882 2.02598933232e-38
0.0556869332064 -0.0114649568366 0.885 2.34881416669e-38
0.0574543317179 -0.0114908663436 0.887 2.07216183646e-38
0.0590958840527 -0.0114908663436 0.887 2.07212624348e-38
0.0607374363875 -0.0114908663436 0.887 2.08101580068e-38
0.0623789887223 -0.0114908663436 0.887 2.34849985544e-38
0.0640205410571 -0.0114908663436 0.887 2.3489236081e-38
0.0656620933919 -0.0114908663436 0.887 2.34867235528e-38
0.0673036457267 -0.0114908663436 0.887 2.3388058128e-38
0.0689451980615 -0.0114908663436 0.887 2.35043883213e-38
0.0705867503963 -0.0114908663436 0.887 2.3509865997e-38
0.0112576807808 -0.00964944066926 0.869 1.97989137726e-38
0.0128363100272 -0.00962723252043 0.867 1.80464779391e-38
0.0144408487806 -0.00962723252043 0.867 2.21913324238e-38
0.015989867162 -0.00959392029717 0.864 2.34856781842e-38
0.0175888538782 -0.00959392029717 0.864 2.34838480884e-38
0.0191878405943 -0.00959392029717 0.864 2.29299568444e-38
0.0207868273105 -0.00959392029717 0.864 2.34842208338e-38
0.0224635425477 -0.00962723252043 0.867 2.3484935496e-38
0.0240680813011 -0.00962723252043 0.867 2.04371351582e-38
0.0257318417847 -0.00964944066926 0.869 1.95115256744e-38
0.0273400818963 -0.00964944066926 0.869 2.20984333421e-38
0.0290149464543 -0.0096716488181 0.871 2.19183160427e-38
0.030626887924 -0.0096716488181 0.871 2.33026826177e-38
0.0322388293937 -0.0096716488181 0.871 2.3488898368e-38
0.0339284993843 -0.00969385696694 0.873 2.34863494061e-38
0.0356255720912 -0.00971606511577 0.875 2.34856543621e-38
0.0372449162771 -0.00971606511577 0.875 2.22878216322e-38
0.0388642604631 -0.00971606511577 0.875 1.89666559899e-38
0.0404836046491 -0.00971606511577 0.875 2.03463142021e-38
0.042102948835 -0.00971606511577 0.875 2.30236196337e-38
0.0438721980256 -0.00974937733903 0.878 2.07191142442e-38
0.0454970942488 -0.00974937733903 0.878 2.07169043966e-38
0.047229329858 -0.00977158548786 0.88 2.16446186306e-38
0.0488579274393 -0.00977158548786 0.88 2.34892767186e-38
0.0506012671229 -0.0097937936367 0.882 2.13608683032e-38
0.0524112312531 -0.00982710585995 0.885 2.1821533963e-38
0.0540490822297 -0.00982710585995 0.885 2.13648788194e-38
0.0558127793831 -0.00984931400879 0.887 2.34903038704e-38
0.0574543317179 -0.00984931400879 0.887 2.17364709423e-38
0.0590958840527 -0.00984931400879 0.887 2.08120161285e-38
0.0608743866387 -0.00987152215763 0.889 2.16385173771e-38
0.0625196403316 -0.00987152215763 0.889 2.34889348018e-38
0.0641648940246 -0.00987152215763 0.889 2.34867305593e-38
0.0658101477175 -0.00987152215763 0.889 2.34856613686e-38
0.0674554014104 -0.00987152215763 0.889 2.34813481719e-38
0.0691006551034 -0.00987152215763 0.889 2.35065603339e-38
0.0128659208924 -0.00804120055772 0.869 1.87840443793e-38
0.0144741610039 -0.00804120055772 0.869 2.00700902488e-38
0.0160824011154 -0.00804120055772 0.869 2.34892893303e-38
0.017690641227 -0.00804120055772 0.869 2.33919985792e-38
0.0192988813385 -0.00804120055772 0.869 2.33913007326e-38
0.0209552391059 -0.00805970734842 0.871 2.34838733118e-38
0.0225671805756 -0.00805970734842 0.871 2.34838803182e-38
0.0241791220453 -0.00805970734842 0.871 2.32043927408e-38
0.0258502852452 -0.00807821413911 0.873 2.34881598838e-38
0.027465928073 -0.00807821413911 0.873 2.34878319799e-38
0.0291481953473 -0.00809672092981 0.875 2.34903459094e-38
0.0307675395333 -0.00809672092981 0.875 2.20112025127e-38
0.0323868837192 -0.00809672092981 0.875 1.97038735068e-38
0.0341228206866 -0.00812448111586 0.878 1.95155361906e-38
0.0357477169098 -0.00812448111586 0.878 2.21916855511e-38
0.0373726131329 -0.00812448111586 0.878 1.79579144748e-38
0.0389975093561 -0.00812448111586 0.878 2.05368837867e-38
0.0406224055793 -0.00812448111586 0.878 2.0993147968e-38
0.0422473018025 -0.00812448111586 0.878 2.28403199855e-38
0.0439721346954 -0.00814298790655 0.88 2.13655402323e-38
0.0456007322767 -0.00814298790655 0.88 1.98867934032e-38
0.047229329858 -0.00814298790655 0.88 2.24722311088e-38
0.0489689681835 -0.00816149469725 0.882 2.20098530623e-38
0.0508881223787 -0.00820776167399 0.887 2.23749851993e-38
0.0525296747135 -0.00820776167399 0.887 2.19172594637e-38
0.0541712270483 -0.00820776167399 0.887 2.14584841556e-38
0.0559386255599 -0.00822626846469 0.889 2.12711767937e-38
0.0575838792528 -0.00822626846469 0.889 2.34860215023e-38
0.0592291329458 -0.00822626846469 0.889 2.34921157493e-38
0.0610113368898 -0.00824477525538 0.891 2.34878221708e-38
0.0628712693549 -0.00827253544143 0.894 2.3489250094e-38
0.0645257764432 -0.00827253544143 0.894 2.34878151643e-38
0.0661802835314 -0.00827253544143 0.894 2.34860299101e-38
0.0678347906197 -0.00827253544143 0.894 2.34845865727e-38
0.069489297708 -0.00827253544143 0.894 2.35065491235e-38
0.0128955317575 -0.00644776587873 0.871 1.83223431599e-38
0.0145074732272 -0.00644776587873 0.871 2.13622177537e-38
0.0161194146968 -0.00644776587873 0.871 2.34853152479e-38
0.0177313561665 -0.00644776587873 0.871 2.34849200817e-38
0.0193877139339 -0.00646257131129 0.873 2.3487090693e-38
0.0210033567617 -0.00646257131129 0.873 2.34827873054e-38
0.0226189995895 -0.00646257131129 0.873 2.34860116932e-38
0.0242901627894 -0.00647737674385 0.875 2.3483836878e-38
0.0259095069754 -0.00647737674385 0.875 2.20044048139e-38
0.0276232357939 -0.00649958489268 0.878 1.96051464248e-38
0.0292481320171 -0.00649958489268 0.878 2.34839181533e-38
0.0308730282403 -0.00649958489268 0.878 1.91510808808e-38
0.0324979244634 -0.00649958489268 0.878 2.10886380506e-38
0.0342005492075 -0.00651439032524 0.88 2.02534095152e-38
0.0358291467888 -0.00651439032524 0.88 2.34867599866e-38
0.0374577443701 -0.00651439032524 0.88 1.92497673252e-38
0.0390863419515 -0.00651439032524 0.88 2.17382786173e-38
0.0407149395328 -0.00651439032524 0.88 2.1639981734e-38
0.0424397724257 -0.0065291957578 0.882 2.15502972309e-38
0.0440720713651 -0.0065291957578 0.882 1.92447282559e-38
0.0457043703046 -0.0065291957578 0.882 2.06257891678e-38
0.047336669244 -0.0065291957578 0.882 2.12751368632e-38
0.0492465700439 -0.00656620933919 0.887 1.88748485198e-38
0.0510028644811 -0.00658101477175 0.889 2.18228651965e-38
0.052648118174 -0.00658101477175 0.889 2.2654150478e-38
0.0542933718669 -0.00658101477175 0.889 2.04414385457e-38
0.0560644717366 -0.00659582020431 0.891 2.34913758637e-38
0.0577134267877 -0.00659582020431 0.891 2.34849481077e-38
0.0595622551783 -0.00661802835314 0.894 2.34899619536e-38
0.0614906627689 -0.00664763921826 0.898 2.34834991651e-38
0.0630119209642 -0.0066328337857 0.896 2.34867683944e-38
0.0646701294106 -0.0066328337857 0.896 2.34889095784e-38
0.066328337857 -0.0066328337857 0.896 2.34867529801e-38
0.0679865463034 -0.0066328337857 0.896 2.34867487762e-38
0.0701888543963 -0.00668465279965 0.903 2.35076659584e-38
0.0129991697854 -0.00487468866951 0.878 1.8598242012e-38
0.0146240660085 -0.00487468866951 0.878 2.08076819124e-38
0.0161934418596 -0.00485803255789 0.875 2.34881963175e-38
0.0178127860456 -0.00485803255789 0.875 2.32998491922e-38
0.0194321302315 -0.00485803255789 0.875 2.34824173626e-38
0.0211236509012 -0.00487468866951 0.878 2.34820754458e-38
0.0227485471244 -0.00487468866951 0.878 2.19187084063e-38
0.0243734433476 -0.00487468866951 0.878 2.19172594637e-38
0.0259983395707 -0.00487468866951 0.878 2.07126458505e-38
0.0276232357939 -0.00487468866951 0.878 2.10806716688e-38
0.0293147564636 -0.00488579274393 0.88 2.34795951475e-38
0.0309433540449 -0.00488579274393 0.88 1.91518137599e-38
0.0325719516262 -0.00488579274393 0.88 2.02574102223e-38
0.0342782777284 -0.00489689681835 0.882 2.04363588388e-38
0.0359105766679 -0.00489689681835 0.882 2.17317793951e-38
0.0375428756073 -0.00489689681835 0.882 1.7497346906e-38
0.0391751745468 -0.00489689681835 0.882 1.91553814658e-38
0.0408074734862 -0.00489689681835 0.882 2.11786056159e-38
0.0425841253931 -0.00491355292998 0.885 2.34820922614e-38
0.0442219763698 -0.00491355292998 0.885 2.1360167654e-38
0.0458598273464 -0.00491355292998 0.885 2.16388648991e-38
0.0476050177091 -0.00492465700439 0.887 2.04439720934e-38
0.0493576107881 -0.00493576107881 0.889 2.0718761117e-38
0.0510028644811 -0.00493576107881 0.889 2.25586940267e-38
0.0527665616345 -0.00494686515323 0.891 2.34831824716e-38
0.0544155166855 -0.00494686515323 0.891 2.34881668902e-38
0.0562532410017 -0.00496352126486 0.894 2.34870836865e-38
0.05790774809 -0.00496352126486 0.894 2.3484611796e-38
0.0598287529643 -0.00498572941369 0.898 2.34856781842e-38
0.0616960881456 -0.00500238552532 0.901 2.34845795662e-38
0.0633635499874 -0.00500238552532 0.901 2.34874508267e-38
0.0650310118292 -0.00500238552532 0.901 2.34860299101e-38
0.0666984736709 -0.00500238552532 0.901 2.34856683751e-38
0.0683659355127 -0.00500238552532 0.901 2.34845557441e-38
0.0701888543963 -0.00501348959974 0.903 2.35098393723e-38
0.0131324186784 -0.0032831046696 0.887 1.82298070146e-38
0.0146240660085 -0.00324979244634 0.878 2.09005992109e-38
0.0162489622317 -0.00324979244634 0.878 2.34863648204e-38
0.0178738584549 -0.00324979244634 0.878 2.34827774964e-38
0.0194987546781 -0.00324979244634 0.878 2.34831320249e-38
0.0211236509012 -0.00324979244634 0.878 2.3480620898e-38
0.0228003661383 -0.00325719516262 0.88 2.1454861799e-38
0.0244289637197 -0.00325719516262 0.88 2.0720558983e-38
0.026057561301 -0.00325719516262 0.88 2.05343530417e-38
0.0276861588823 -0.00325719516262 0.88 2.05274754689e-38
0.0293813809101 -0.0032645978789 0.882 2.34852760115e-38
0.0310136798495 -0.0032645978789 0.882 2.11833097748e-38
0.032645978789 -0.0032645978789 0.882 2.01673655856e-38
0.0342782777284 -0.0032645978789 0.882 2.34881500747e-38
0.0359105766679 -0.0032645978789 0.882 2.02616561567e-38
0.0376705724632 -0.00327570195332 0.885 2.17383206563e-38
0.0393084234398 -0.00327570195332 0.885 1.97059810597e-38
0.0409462744165 -0.00327570195332 0.885 2.07172393069e-38
0.0426803607048 -0.0032831046696 0.887 2.22828428188e-38
0.0443219130396 -0.0032831046696 0.887 2.33895224849e-38
0.0460671034023 -0.00329050738588 0.889 2.24675311538e-38
0.0477123570952 -0.00329050738588 0.889 2.32990882872e-38
0.0493576107881 -0.00329050738588 0.889 2.34895793991e-38
0.0511176065834 -0.00329791010215 0.891 2.34881612851e-38
0.0529442268251 -0.00330901417657 0.894 2.3488898368e-38
0.0545987339134 -0.00330901417657 0.894 2.34867249541e-38
0.0563790871785 -0.00331641689285 0.896 2.34856627699e-38
0.0581668431598 -0.00332381960913 0.898 2.34867543814e-38
0.0600286263038 -0.00333492368355 0.901 2.34874592345e-38
0.0618330383968 -0.00334232639983 0.903 2.34889095784e-38
0.0635042015967 -0.00334232639983 0.903 2.34924912973e-38
0.0651753647966 -0.00334232639983 0.903 2.34871033047e-38
0.0668465279965 -0.00334232639983 0.903 2.32055095757e-38
0.0685176911964 -0.00334232639983 0.903 2.29253059348e-38
0.0701888543963 -0.00334232639983 0.903 2.35097903269e-38
0.0131620295435 -0.00164525369294 0.889 1.81390435117e-38
0.0147739710132 -0.0016415523348 0.887 1.95183780239e-38
0.0163229893945 -0.00163229893945 0.882 2.34842138273e-38
0.0179145733944 -0.00162859758131 0.88 2.34845907766e-38
0.0195431709757 -0.00162859758131 0.88 2.34816858849e-38
0.021171768557 -0.00162859758131 0.88 2.29306757105e-38
0.0228521851523 -0.00163229893945 0.882 2.34877885397e-38
0.0244289637197 -0.00162859758131 0.88 2.0261375897e-38
0.026057561301 -0.00162859758131 0.88 2.09038334078e-38
0.0277490819706 -0.00163229893945 0.882 2.07111058235e-38
0.0293813809101 -0.00163229893945 0.882 2.19147469356e-38
0.0310136798495 -0.00163229893945 0.882 2.04454168321e-38
0.0327570195332 -0.00163785097666 0.885 1.98889976457e-38
0.0343948705098 -0.00163785097666 0.885 2.237428455e-38
0.0360327214865 -0.00163785097666 0.885 1.98911514414e-38
0.0377557037004 -0.0016415523348 0.887 1.9615640749e-38
0.0394860886305 -0.00164525369294 0.889 2.00676141544e-38
0.0411313423234 -0.00164525369294 0.889 2.27433977759e-38
0.042872831328 -0.00164895505108 0.891 2.34863634191e-38
0.0445217863791 -0.00164895505108 0.891 2.34888703421e-38
0.0461707414302 -0.00164895505108 0.891 2.34896214381e-38
0.0479807055603 -0.00165450708829 0.894 2.3490358521e-38
0.0496352126486 -0.00165450708829 0.894 2.3490682221e-38
0.0512897197369 -0.00165450708829 0.894 2.34845865727e-38
0.0530626702856 -0.00165820844643 0.896 2.34853278596e-38
0.0548430235506 -0.00166190980456 0.898 2.34885354317e-38
0.0565049333552 -0.00166190980456 0.898 2.34852802154e-38
0.0583611644621 -0.00166746184177 0.901 2.34878361838e-38
0.0603617485364 -0.00167671523712 0.906 2.34867305593e-38
0.0620384637735 -0.00167671523712 0.906 2.34853278596e-38
0.0637151790106 -0.00167671523712 0.906 2.16385145745e-38
0.0653918942478 -0.00167671523712 0.906 1.90509763224e-38
0.0672166638105 -0.00168041659526 0.908 2.27420329112e-38
0.0688970804057 -0.00168041659526 0.908 2.20058873877e-38
0.070577497001 -0.00168041659526 0.908 2.35098085437e-38
0.011633368632 0.0 0.898 1.87844157234e-38
0.0132656675714 0.0 0.896 1.90606242624e-38
0.0148072832364 0.0 0.889 1.95194374056e-38
0.0164525369294 0.0 0.889 2.34864012542e-38
0.0180570756828 0.0 0.887 2.34856375465e-38
0.0196986280176 0.0 0.887 2.34852816167e-38
0.0213401803524 0.0 0.887 2.17328808157e-38
0.0229817326872 0.0 0.887 2.25657607748e-38
0.024623285022 0.0 0.887 1.84185072671e-38
0.0262648373568 0.0 0.887 2.10871288521e-38
0.0278434666032 0.0 0.885 2.25579877722e-38
0.0294813175799 0.0 0.885 2.34824145601e-38
0.0311894943612 0.0 0.887 2.20119788321e-38
0.0329050738588 0.0 0.889 2.04393001643e-38
0.034744648854 0.0 0.894 2.26494421152e-38
0.0363991559423 0.0 0.894 2.33905650509e-38
0.0381387942678 0.0 0.896 2.34870794826e-38
0.0397970027142 0.0 0.896 2.34889011706e-38
0.0415477451141 0.0 0.898 2.34870948969e-38
0.0432096549187 0.0 0.898 2.34870864891e-38
0.0448715647232 0.0 0.898 2.34852928271e-38
0.0464298364999 0.0 0.896 2.34896158329e-38
0.0480880449463 0.0 0.896 2.3485297031e-38
0.0498572941369 0.0 0.898 2.34888941642e-38
0.0515192039415 0.0 0.898 2.34842278403e-38
0.0533587789368 0.0 0.901 2.34881696928e-38
0.0551483855971 0.0 0.903 2.34913870741e-38
0.056819548797 0.0 0.903 2.34838270689e-38
0.0586850332993 0.0 0.906 2.34817251212e-38
0.0603617485364 0.0 0.906 2.34863718269e-38
0.0620384637735 0.0 0.906 1.96120408133e-38
0.0638558306199 0.0 0.908 2.08134608672e-38
0.0655362472152 0.0 0.908 2.22820987293e-38
0.067364718136 0.0 0.91 2.3483527191e-38
0.0690488360894 0.0 0.91 2.34820824523e-38
0.0707329540428 0.0 0.91 2.35098281619e-38
0.011633368632 0.00166190980456 0.898 1.83241760583e-38
0.0132656675714 0.00165820844643 0.896 1.78610301003e-38
0.0148905637946 0.00165450708829 0.894 1.88733841629e-38
0.0164895505108 0.00164895505108 0.891 2.30250839906e-38
0.0181385055618 0.00164895505108 0.891 2.34863550113e-38
0.0197874606129 0.00164895505108 0.891 2.34827620821e-38
0.021436415664 0.00164895505108 0.891 2.3486020101e-38
0.0230853707151 0.00164895505108 0.891 2.34852788141e-38
0.0247343257662 0.00164895505108 0.891 2.34870878904e-38
0.0264721134126 0.00165450708829 0.894 2.34867319606e-38
0.0279693127799 0.00164525369294 0.889 2.34863760308e-38
0.0296145664729 0.00164525369294 0.889 2.3485311044e-38
0.0312598201658 0.00164525369294 0.889 2.34856543621e-38
0.0330901417657 0.00165450708829 0.894 2.34856375465e-38
0.0348223773749 0.00165820844643 0.896 2.34860172984e-38
0.0364805858214 0.00165820844643 0.896 2.34853068401e-38
0.038223925505 0.00166190980456 0.898 2.34863886425e-38
0.0398858353096 0.00166190980456 0.898 2.3489250094e-38
0.0415477451141 0.00166190980456 0.898 2.34849396999e-38
0.0433540078861 0.00166746184177 0.901 2.34889011706e-38
0.0450214697279 0.00166746184177 0.901 2.34896186355e-38
0.0467925695976 0.00167116319991 0.903 2.34906654054e-38
0.0486247418765 0.00167671523712 0.906 2.34860130945e-38
0.0503014571137 0.00167671523712 0.906 2.34874648397e-38
0.0520929144531 0.00168041659526 0.908 2.34863858399e-38
0.0537733310484 0.00168041659526 0.908 2.34838775156e-38
0.0555758924622 0.0016841179534 0.91 2.09916990254e-38
0.0572600104156 0.0016841179534 0.91 2.02559724901e-38
0.058944128369 0.0016841179534 0.91 2.26519602485e-38
0.0608281196619 0.00168966999061 0.913 2.22799183089e-38
0.0625177896526 0.00168966999061 0.913 2.34834907573e-38
0.0643481112525 0.00169337134875 0.915 2.34885480434e-38
0.0660414826012 0.00169337134875 0.915 2.34813775992e-38
0.0679569354383 0.00169892338596 0.918 2.20040881204e-38
0.0696558588243 0.00169892338596 0.918 2.34831684586e-38
0.0715102392521 0.0017026247441 0.92 2.35098253593e-38
0.0132656675714 0.00331641689285 0.896 1.87865821308e-38
0.0149238760178 0.00331641689285 0.896 1.73106855427e-38
0.0165820844643 0.00331641689285 0.896 2.33949357008e-38
0.0182402929107 0.00331641689285 0.896 2.34867165463e-38
0.0198540850594 0.00330901417657 0.894 2.34842110247e-38
0.0215085921477 0.00330901417657 0.894 2.34831740638e-38
0.023163099236 0.00330901417657 0.894 2.34860158971e-38
0.0248176063243 0.00330901417657 0.894 2.34852872219e-38
0.0265313351428 0.00331641689285 0.896 2.34849340947e-38
0.0281895435892 0.00331641689285 0.896 2.34845711584e-38
0.0298477520357 0.00331641689285 0.896 2.34889095784e-38
0.0315762862867 0.00332381960913 0.898 2.34856795855e-38
0.0332381960913 0.00332381960913 0.898 2.34845935792e-38
0.0349001058959 0.00332381960913 0.898 2.34849411012e-38
0.0365620157004 0.00332381960913 0.898 2.34863886425e-38
0.038223925505 0.00332381960913 0.898 2.34878291773e-38
0.0400190842026 0.00333492368355 0.901 2.34871019034e-38
0.0416865460443 0.00333492368355 0.901 2.34863704256e-38
0.0434502431977 0.00334232639983 0.903 2.3490334699e-38
0.0452713114023 0.00335343047424 0.906 2.34870836865e-38
0.0469480266394 0.00335343047424 0.906 2.34820768471e-38
0.0487320812626 0.00336083319052 0.908 2.23778970975e-38
0.0504124978578 0.00336083319052 0.908 2.34824495925e-38
0.0520929144531 0.00336083319052 0.908 2.30229287936e-38
0.0538917745088 0.0033682359068 0.91 2.32065395301e-38
0.0555758924622 0.0033682359068 0.91 1.95187563745e-38
0.0574487796807 0.00337933998122 0.913 2.20091341962e-38
0.0591384496713 0.00337933998122 0.913 2.34924772843e-38
0.060961368555 0.0033867426975 0.915 2.34921297623e-38
0.0626547399037 0.0033867426975 0.915 2.34856893946e-38
0.0645590886664 0.00339784677192 0.918 2.34910521638e-38
0.0662580120524 0.00339784677192 0.918 2.2003381866e-38
0.0681049897639 0.00340524948819 0.92 2.34863634191e-38
0.069807614508 0.00340524948819 0.92 2.3484601987e-38
0.0715102392521 0.00340524948819 0.92 2.35098071424e-38
0.011607459125 0.00497462533928 0.896 1.76755248083e-38
0.0132656675714 0.00497462533928 0.896 1.68493991077e-38
0.0149238760178 0.00497462533928 0.896 1.60207104323e-38
0.0165820844643 0.00497462533928 0.896 2.3489663477e-38
0.0182402929107 0.00497462533928 0.896 2.28402947621e-38
0.0198985013571 0.00497462533928 0.896 2.34860018841e-38
0.0215567098035 0.00497462533928 0.896 2.34845851714e-38
0.02321491825 0.00497462533928 0.896 2.34842152286e-38
0.0248731266964 0.00497462533928 0.896 2.34849411012e-38
0.026590556873 0.00498572941369 0.898 2.34860130945e-38
0.0283468513102 0.00500238552532 0.901 2.3484573961e-38
0.0300143131519 0.00500238552532 0.901 2.34859850685e-38
0.0316817749937 0.00500238552532 0.901 2.34853026362e-38
0.0333492368355 0.00500238552532 0.901 2.34885410369e-38
0.0350166986772 0.00500238552532 0.901 2.34867249541e-38
0.0367655903981 0.00501348959974 0.903 2.34867473749e-38
0.038436753598 0.00501348959974 0.903 2.3487466241e-38
0.0401079167979 0.00501348959974 0.903 2.34849368973e-38
0.041917880928 0.00503014571137 0.906 2.34849326934e-38
0.0435945961652 0.00503014571137 0.906 2.31114964617e-38
0.0453712480721 0.00504124978578 0.908 2.28345550436e-38
0.0471553026952 0.0050523538602 0.91 1.8132617157e-38
0.0488394206486 0.0050523538602 0.91 2.00729965418e-38
0.0506900997183 0.00506900997183 0.913 2.34932522024e-38
0.0523797697089 0.00506900997183 0.913 2.13615521369e-38
0.0540694396995 0.00506900997183 0.913 1.95165927697e-38
0.0558812545087 0.00508011404625 0.915 1.98875739264e-38
0.0575746258575 0.00508011404625 0.915 2.24679599511e-38
0.0592679972062 0.00508011404625 0.915 2.34928416219e-38
0.0611612418945 0.00509677015787 0.918 2.34885284253e-38
0.0628601652804 0.00509677015787 0.918 2.34896270432e-38
0.0649107176896 0.00512453034392 0.923 2.34870976995e-38
0.0666188944709 0.00512453034392 0.923 2.24700927274e-38
0.0683270712523 0.00512453034392 0.923 2.18229226498e-38
0.0700352480336 0.00512453034392 0.923 2.34907228586e-38
0.011633368632 0.00664763921826 0.898 1.84145542041e-38
0.0132952784365 0.00664763921826 0.898 1.62033290495e-38
0.0149571882411 0.00664763921826 0.898 1.34381636054e-38
0.0166190980456 0.00664763921826 0.898 2.3209450027e-38
0.0182810078502 0.00664763921826 0.898 2.3486771197e-38
0.0199429176548 0.00664763921826 0.898 2.34834949612e-38
0.0216048274593 0.00664763921826 0.898 2.34845795662e-38
0.0232667372639 0.00664763921826 0.898 2.34841886039e-38
0.0249286470685 0.00664763921826 0.898 2.34856543621e-38
0.0266793894684 0.00666984736709 0.901 2.34860172984e-38
0.0284097743985 0.00668465279965 0.903 2.34856753816e-38
0.0301808742682 0.00670686094849 0.906 2.34899829731e-38
0.0318575895053 0.00670686094849 0.906 2.34831544456e-38
0.0335343047424 0.00670686094849 0.906 2.34853390699e-38
0.0352110199796 0.00670686094849 0.906 2.34831390314e-38
0.0368877352167 0.00670686094849 0.906 2.34834977638e-38
0.0385644504538 0.00670686094849 0.906 2.3481705503e-38
0.0403299982863 0.00672166638105 0.908 2.3484240452e-38
0.0420104148815 0.00672166638105 0.908 2.21956540283e-38
0.0436908314768 0.00672166638105 0.908 2.20105439025e-38
0.0453712480721 0.00672166638105 0.908 2.09913907398e-38
0.0473107597371 0.00675867996244 0.913 2.32044137603e-38
0.0490004297277 0.00675867996244 0.913 2.31179536451e-38
0.0508011404625 0.006773485395 0.915 2.34914122975e-38
0.0524945118112 0.006773485395 0.915 2.34817181147e-38
0.05418788316 0.006773485395 0.915 2.11761463371e-38
0.0560644717366 0.00679569354383 0.918 2.10868205665e-38
0.0578892412993 0.00681049897639 0.92 2.27413028347e-38
0.0599157348806 0.00684751255778 0.925 2.34914165014e-38
0.06162761302 0.00684751255778 0.925 2.34906836223e-38
0.0633394911595 0.00684751255778 0.925 2.3490696234e-38
0.0650513692989 0.00684751255778 0.925 2.34853068401e-38
0.0667632474384 0.00684751255778 0.925 2.07173121744e-38
0.0684751255778 0.00684751255778 0.925 2.25593918733e-38
0.0701870037173 0.00684751255778 0.925 2.34918004572e-38
0.00997145882739 0.00830954902282 0.898 1.83234403766e-38
0.011633368632 0.00830954902282 0.898 1.96127414625e-38
0.0132952784365 0.00830954902282 0.898 1.80461416274e-38
0.0149571882411 0.00830954902282 0.898 1.35296151458e-38
0.0166190980456 0.00830954902282 0.898 2.27481243557e-38
0.0182810078502 0.00830954902282 0.898 2.3488175298e-38
0.0199429176548 0.00830954902282 0.898 2.34827676873e-38
0.0216048274593 0.00830954902282 0.898 2.3489611629e-38
0.0233444657848 0.00833730920887 0.901 2.34849509103e-38
0.0250119276266 0.00833730920887 0.901 2.34870976995e-38
0.0267386111986 0.00835581599956 0.903 2.34870976995e-38
0.0285041590311 0.00838357618561 0.906 2.34870920943e-38
0.0302474987147 0.00840208297631 0.908 2.25640203621e-38
0.03192791531 0.00840208297631 0.908 2.06265234482e-38
0.0336083319052 0.00840208297631 0.908 2.18214737072e-38
0.0352887485005 0.00840208297631 0.908 2.34878151643e-38
0.0369691650957 0.00840208297631 0.908 2.20091103741e-38
0.038649581691 0.00840208297631 0.908 2.18229226498e-38
0.0404188308816 0.008420589767 0.91 2.17303374589e-38
0.042102948835 0.008420589767 0.91 2.15484671352e-38
0.0439314197559 0.00844834995305 0.913 2.3485992075e-38
0.0456210897465 0.00844834995305 0.913 2.34924800869e-38
0.047414397765 0.00846685674374 0.915 2.26523063693e-38
0.0491077691137 0.00846685674374 0.915 2.09013152745e-38
0.0509677015787 0.00849461692979 0.918 2.34914529351e-38
0.0526666249647 0.00849461692979 0.918 2.34913954819e-38
0.0544839918111 0.00851312372049 0.92 2.34903473107e-38
0.0563698337831 0.00854088390653 0.923 2.21949057349e-38
0.0582038567412 0.00855939069723 0.925 2.28381143417e-38
0.0599157348806 0.00855939069723 0.925 2.34889067758e-38
0.06162761302 0.00855939069723 0.925 2.34842306429e-38
0.0633394911595 0.00855939069723 0.925 2.34928864635e-38
0.0652623467129 0.00858715088327 0.928 2.20076460172e-38
0.0669797768895 0.00858715088327 0.928 2.20973795657e-38
0.0686972070662 0.00858715088327 0.928 2.23764509575e-38
0.0704146372428 0.00858715088327 0.928 2.34921549857e-38
0.0729093526288 0.00867968483676 0.938 2.35098407736e-38
0.0116722328924 0.0100047710506 0.901 1.90592173587e-38
0.0133396947342 0.0100047710506 0.901 1.89688041805e-38
0.015007156576 0.0100047710506 0.901 1.71241502963e-38
0.0166746184177 0.0100047710506 0.901 2.34871411398e-38
0.0183420802595 0.0100047710506 0.901 2.34889039732e-38
0.0200095421013 0.0100047710506 0.901 2.34838607001e-38
0.0216770039431 0.0100047710506 0.901 2.33913007326e-38
0.0233444657848 0.0100047710506 0.901 2.25618973949e-38
0.0251507285568 0.0100602914227 0.906 2.11782328705e-38
0.026827443794 0.0100602914227 0.906 2.14526715695e-38
0.0285670821194 0.0100824995716 0.908 1.99736164547e-38
0.0302474987147 0.0100824995716 0.908 2.20108900232e-38
0.0319982411146 0.0101047077204 0.91 1.98922052178e-38
0.033682359068 0.0101047077204 0.91 2.07140499516e-38
0.0353664770214 0.0101047077204 0.91 2.14545114744e-38
0.0370505949748 0.0101047077204 0.91 1.89659679524e-38
0.038862409784 0.0101380199437 0.913 1.99804533899e-38
0.0405520797746 0.0101380199437 0.913 2.2378265639e-38
0.0422417497652 0.0101380199437 0.913 2.3493964062e-38
0.0440276550675 0.0101602280925 0.915 2.34878221708e-38
0.0457210264162 0.0101602280925 0.915 2.34899675588e-38
0.0475698548068 0.0101935403157 0.918 2.34824131588e-38
0.0493761175788 0.0102157484646 0.92 2.25640778154e-38
0.0510787423229 0.0102157484646 0.92 2.34903809418e-38
0.052781367067 0.0102157484646 0.92 2.34921269597e-38
0.0546616570018 0.0102490606878 0.923 2.10843010318e-38
0.0564919786017 0.0102712688367 0.925 1.88787917736e-38
0.0582038567412 0.0102712688367 0.925 2.14581016011e-38
0.0601100561829 0.0103045810599 0.928 2.3493588514e-38
0.0618274863596 0.0103045810599 0.928 2.34881851071e-38
0.0635449165362 0.0103045810599 0.928 2.3488912381e-38
0.0654029983222 0.0103267892088 0.93 2.34845921779e-38
0.067124129857 0.0103267892088 0.93 2.34856403491e-38
0.0688452613918 0.0103267892088 0.93 2.34838635027e-38
0.0707940264521 0.010360101432 0.933 2.34931947491e-38
0.0729093526288 0.0104156218041 0.938 2.35098491814e-38
0.0116981423994 0.0116981423994 0.903 1.90592229639e-38
0.0133693055993 0.0116981423994 0.903 1.87851542077e-38
0.0150404687992 0.0116981423994 0.903 1.79521285135e-38
0.0167671523712 0.0117370066599 0.906 2.34863942477e-38
0.0184438676083 0.0117370066599 0.906 2.34856978024e-38
0.0201205828455 0.0117370066599 0.906 2.08022827094e-38
0.0217972980826 0.0117370066599 0.906 1.88701429595e-38
0.0235258323337 0.0117629161668 0.908 2.05347229845e-38
0.0252062489289 0.0117629161668 0.908 1.87858772777e-38
0.0268866655242 0.0117629161668 0.908 2.01630145539e-38
0.0286300052078 0.0117888256738 0.91 2.05293153737e-38
0.0303141231612 0.0117888256738 0.91 2.34871033047e-38
0.0321037298216 0.0118276899343 0.913 2.34838677066e-38
0.0337933998122 0.0118276899343 0.913 2.34925011064e-38
0.0355607983237 0.0118535994412 0.915 1.87822058757e-38
0.0372541696725 0.0118535994412 0.915 2.11785677808e-38
0.0389475410212 0.0118535994412 0.915 2.02566465147e-38
0.04064091237 0.0118535994412 0.915 2.21917584186e-38
0.0423342837187 0.0118535994412 0.915 2.34921325649e-38
0.0440276550675 0.0118535994412 0.915 2.3488874546e-38
0.0458709314209 0.0118924637017 0.918 2.34907046418e-38
0.0475698548068 0.0118924637017 0.918 2.33877078033e-38
0.0493761175788 0.0119183732087 0.92 1.89630392386e-38
0.0510787423229 0.0119183732087 0.92 2.34925403428e-38
0.0529534802205 0.0119572374691 0.923 2.34943143866e-38
0.0547801004623 0.0119831469761 0.925 2.01651823626e-38
0.0566751958296 0.0120220112366 0.928 1.93401300567e-38
0.0583926260063 0.0120220112366 0.928 2.22867958817e-38
0.0601100561829 0.0120220112366 0.928 2.3492489896e-38
0.0618274863596 0.0120220112366 0.928 2.34874620371e-38
0.0636818667874 0.0120479207436 0.93 2.34899899796e-38
0.0656139757361 0.012086785004 0.933 2.34932115647e-38
0.0673406593081 0.012086785004 0.933 2.34813986187e-38
0.0692153972057 0.012112694511 0.935 2.32948115242e-38
0.0711734156614 0.0121515587715 0.938 2.34976256549e-38
0.0730648096706 0.0121774682784 0.94 2.35098351684e-38
0.0752819231961 0.0122551967994 0.946 2.35098828126e-38
0.0118276899343 0.0135173599249 0.913 1.90599208105e-38
0.0135173599249 0.0135173599249 0.913 1.85996643299e-38
0.0151570615806 0.0134729436272 0.91 1.74915090966e-38
0.016841179534 0.0134729436272 0.91 2.34835075729e-38
0.0185863698967 0.0135173599249 0.913 2.3488550846e-38
0.0202760398873 0.0135173599249 0.913 2.09874222625e-38
0.0219657098779 0.0135173599249 0.913 2.17296760461e-38
0.0236553798685 0.0135173599249 0.913 2.02559696875e-38
0.0253450498591 0.0135173599249 0.913 2.14523506722e-38
0.0270347198498 0.0135173599249 0.913 2.2190239411e-38
0.0287873129287 0.01354697079 0.915 2.34860747516e-38
0.0304806842775 0.01354697079 0.915 2.3491095604e-38
0.0322795443332 0.0135913870877 0.918 2.3486020101e-38
0.0339784677192 0.0135913870877 0.918 2.34863438009e-38
0.0356773911051 0.0135913870877 0.918 2.34924576661e-38
0.0373763144911 0.0135913870877 0.918 2.34918074637e-38
0.039075237877 0.0135913870877 0.918 2.33956167319e-38
0.040774161263 0.0135913870877 0.918 2.3488175298e-38
0.042473084649 0.0135913870877 0.918 2.34870920943e-38
0.0441720080349 0.0135913870877 0.918 2.34874550306e-38
0.0458709314209 0.0135913870877 0.918 2.34914066923e-38
0.0476734928347 0.0136209979528 0.92 2.28367018329e-38
0.0496444660439 0.0136950251156 0.925 1.87790403425e-38
0.0513563441834 0.0136950251156 0.925 2.34918340883e-38
0.0530682223228 0.0136950251156 0.925 2.34910563677e-38
0.054957765653 0.0137394414132 0.928 2.13654827791e-38
0.0566751958296 0.0137394414132 0.928 2.05372060854e-38
0.0583926260063 0.0137394414132 0.928 1.96127694885e-38
0.0601100561829 0.0137394414132 0.928 2.20091341962e-38
0.0619607352526 0.0137690522784 0.93 2.21903206864e-38
0.0640242424153 0.0138430794411 0.935 2.3493922023e-38
0.0657546273454 0.0138430794411 0.935 2.34838466871e-38
0.0677015417267 0.0138874957388 0.938 2.34924688765e-38
0.0695855330196 0.0139171066039 0.94 2.34935408699e-38
0.0715528048707 0.0139615229016 0.943 2.34975878198e-38
0.0735311807962 0.0140059391993 0.946 2.35098407736e-38
0.0752819231961 0.0140059391993 0.946 2.35098702009e-38
0.0101380199437 0.0152070299155 0.913 1.77684841458e-38
0.0118276899343 0.0152070299155 0.913 1.9060974587e-38
0.0135173599249 0.0152070299155 0.913 1.82312391416e-38
0.0152070299155 0.0152070299155 0.913 1.79528375705e-38
0.0168966999061 0.0152070299155 0.913 2.34867305593e-38
0.0185863698967 0.0152070299155 0.913 2.34917990559e-38
0.0202760398873 0.0152070299155 0.913 2.33877078033e-38
0.0219657098779 0.0152070299155 0.913 2.18265141777e-38
0.0237071988825 0.0152403421387 0.915 2.34885578525e-38
0.0254005702312 0.0152403421387 0.915 2.34921199532e-38
0.02709394158 0.0152403421387 0.915 2.34885466421e-38
0.0288816975613 0.0152903104736 0.918 2.32079884727e-38
0.0305806209472 0.0152903104736 0.918 2.14551742886e-38
0.0323498701378 0.0153236226969 0.92 2.1910805083e-38
0.0339784677192 0.0152903104736 0.918 2.18175080325e-38
0.0356773911051 0.0152903104736 0.918 2.34889474135e-38
0.0373763144911 0.0152903104736 0.918 2.20141116084e-38
0.0393731972073 0.015406903255 0.925 1.91546373763e-38
0.0408629938583 0.0153236226969 0.92 1.97957132069e-38
0.0425656186024 0.0153236226969 0.92 2.34925123168e-38
0.0442682433465 0.0153236226969 0.92 2.34874830566e-38
0.046220709765 0.015406903255 0.925 2.34939262269e-38
0.0479325879045 0.015406903255 0.925 2.34849719298e-38
0.049805475123 0.0154568715899 0.928 2.04410629978e-38
0.0515229052996 0.0154568715899 0.928 2.34853502803e-38
0.0533550775786 0.0154901838131 0.93 2.24700647014e-38
0.0550762091134 0.0154901838131 0.93 1.97935804306e-38
0.0569805578761 0.015540152148 0.933 2.23735965125e-38
0.0587072414481 0.015540152148 0.933 2.30192980293e-38
0.060563472555 0.0155734643713 0.935 2.34910521638e-38
0.0624937308247 0.0156234327062 0.938 2.3490010999e-38
0.064229667792 0.0156234327062 0.938 2.34907130496e-38
0.0659656047594 0.0156234327062 0.938 2.34925361389e-38
0.0678458946941 0.0156567449294 0.94 2.34903220873e-38
0.069807614508 0.0157067132643 0.943 1.9981829465e-38
0.0717804383963 0.0157566815992 0.946 2.3501518462e-38
0.0735311807962 0.0157566815992 0.946 2.35098491814e-38
0.0101380199437 0.0168966999061 0.913 1.52824237247e-38
0.0118276899343 0.0168966999061 0.913 1.78628265649e-38
0.0135173599249 0.0168966999061 0.913 1.72160138185e-38
0.0152070299155 0.0168966999061 0.913 1.73046095126e-38
0.0169337134875 0.0169337134875 0.915 2.33888218356e-38
0.0186270848362 0.0169337134875 0.915 2.34860215023e-38
0.020320456185 0.0169337134875 0.915 2.31111167099e-38
0.0220138275337 0.0169337134875 0.915 1.97085370281e-38
0.0237849274034 0.0169892338596 0.918 1.9333619624e-38
0.0254838507894 0.0169892338596 0.918 1.91500088875e-38
0.0271827741753 0.0169892338596 0.918 2.19165854391e-38
0.0289446206497 0.017026247441 0.92 1.92461169427e-38
0.0307471820635 0.0170817678131 0.923 2.062838157e-38
0.0324553588448 0.0170817678131 0.923 2.21938393468e-38
0.0341635356261 0.0170817678131 0.923 2.34889291966e-38
0.0359494409284 0.0171187813945 0.925 2.34939136153e-38
0.0376613190678 0.0171187813945 0.925 1.73106855427e-38
0.0395008940631 0.0171743017665 0.928 1.90646501929e-38
0.0412183242397 0.0171743017665 0.928 2.23771908431e-38
0.0427044195327 0.0170817678131 0.923 2.34950080294e-38
0.044412596314 0.0170817678131 0.923 2.34867501775e-38
0.0463706147697 0.0171743017665 0.928 2.3484170387e-38
0.0480880449463 0.0171743017665 0.928 2.1180718774e-38
0.049805475123 0.0171743017665 0.928 1.97953656849e-38
0.0516339460438 0.0172113153479 0.93 2.20098712792e-38
0.0533550775786 0.0172113153479 0.93 2.16396286068e-38
0.0552538743041 0.01726683572 0.933 2.34860313114e-38
0.0569805578761 0.01726683572 0.933 2.34921886168e-38
0.0588330876248 0.0173038493014 0.935 2.34899619536e-38
0.0607577938573 0.0173593696735 0.938 2.34943073801e-38
0.0626269797177 0.0173963832549 0.94 2.34903641262e-38
0.0645720434199 0.017451903627 0.943 2.23775201482e-38
0.0663172337826 0.017451903627 0.943 1.96999232465e-38
0.0680624241453 0.017451903627 0.943 1.61079132357e-38
0.069807614508 0.017451903627 0.943 1.78592700694e-38
0.0717804383963 0.0175074239991 0.946 2.35061707729e-38
0.0735311807962 0.0175074239991 0.946 2.35098533853e-38
0.0101380199437 0.0185863698967 0.913 1.39030892125e-38
0.0118276899343 0.0185863698967 0.913 1.84167472362e-38
0.0135173599249 0.0185863698967 0.913 1.79546326338e-38
0.0152403421387 0.0186270848362 0.915 1.91510108159e-38
0.0169892338596 0.0186881572455 0.918 2.34828209366e-38
0.0186881572455 0.0186881572455 0.918 2.34896242407e-38
0.0204314969292 0.0187288721851 0.92 2.14534170603e-38
0.0221341216733 0.0187288721851 0.92 2.24736800514e-38
0.0238367464174 0.0187288721851 0.92 1.97049426976e-38
0.0255393711615 0.0187288721851 0.92 1.9706038513e-38
0.0272419959056 0.0187288721851 0.92 2.06269186144e-38
0.0290390052822 0.0187899445944 0.923 2.06250829134e-38
0.03081380651 0.0188306595339 0.925 2.06269017988e-38
0.0325256846495 0.0188306595339 0.925 2.16396286068e-38
0.0342375627889 0.0188306595339 0.925 2.3488203324e-38
0.0360660337097 0.0188917319432 0.928 2.34921451766e-38
0.0377834638864 0.0188917319432 0.928 2.173535691e-38
0.0395008940631 0.0188917319432 0.928 1.94312438841e-38
0.0412183242397 0.0188917319432 0.928 1.98882969964e-38
0.0429357544164 0.0188917319432 0.928 2.17311361991e-38
0.0447494199046 0.0189324468827 0.93 2.21931330924e-38
0.0466204564441 0.018993519292 0.933 1.8783371756e-38
0.0481916829742 0.0189324468827 0.93 2.1087508604e-38
0.049912814509 0.0189324468827 0.93 1.97042364431e-38
