# .PCD v0.7 - Point Cloud Data file format
VERSION 0.7
FIELDS x y z rgb
SIZE 4 4 4 4
TYPE F F F F
COUNT 1 1 1 1
WIDTH 854
HEIGHT 1
VIEWPOINT 0 0 0 1 0 0 0
POINTS 854
DATA ascii
-0.00638114143223 -0.153147394373 0.862 1.65764401799e-38
-0.00478585607417 -0.153147394373 0.862 1.72221599135e-38
-0.00319057071611 -0.153147394373 0.862 1.56577096703e-38
-0.00159528535806 -0.153147394373 0.862 1.59335861016e-38
0.0 -0.153502724755 0.864 1.62991120034e-38
0.0015989867162 -0.153502724755 0.864 2.30276175383e-38
0.00320907750681 -0.154035720327 0.867 2.34878403877e-38
0.00485803255789 -0.155457041852 0.875 2.32097863386e-38
0.00651439032524 -0.156345367806 0.88 2.22864147285e-38
0.00814298790655 -0.156345367806 0.88 2.2377514543e-38
0.00977158548786 -0.156345367806 0.88 2.21016591312e-38
0.0114260925761 -0.156700698187 0.882 2.16421271219e-38
0.0130583915156 -0.156700698187 0.882 2.16410453195e-38
0.014690690455 -0.156700698187 0.882 2.30218147613e-38
0.0163229893945 -0.156700698187 0.882 2.34860158971e-38
0.0179552883339 -0.156700698187 0.882 2.3491808865e-38
0.0195875872734 -0.156700698187 0.882 2.34943382087e-38
0.0212198862128 -0.156700698187 0.882 5.51012976948e-40
0.0229299136732 -0.157233693759 0.885 8.54792063238e-44
0.0245677646499 -0.157233693759 0.885 7.53851630308e-39
0.0262056156265 -0.157233693759 0.885 1.28901844396e-38
0.0279063896916 -0.157589024141 0.887 1.74130826254e-38
0.0295479420264 -0.157589024141 0.887 2.01760172023e-38
0.0311894943612 -0.157589024141 0.887 2.12787550158e-38
0.032831046696 -0.157589024141 0.887 1.98929535112e-38
0.0344725990308 -0.157589024141 0.887 1.94305292219e-38
0.0361955812446 -0.157944354522 0.889 1.90621292569e-38
0.0378408349376 -0.157944354522 0.889 2.00755427011e-38
0.0394860886305 -0.157944354522 0.889 1.91546808166e-38
0.0411313423234 -0.157944354522 0.889 1.92479344268e-38
0.0427765960164 -0.157944354522 0.889 1.91535807973e-38
0.0444218497093 -0.157944354522 0.889 1.94308795465e-38
0.0460671034023 -0.157944354522 0.889 1.87858772777e-38
0.0478196964812 -0.158299684903 0.891 1.89709719892e-38
0.0494686515323 -0.158299684903 0.891 1.89709874035e-38
0.0511176065834 -0.158299684903 0.891 2.0447176863e-38
0.0529442268251 -0.158832680475 0.894 1.79571928061e-38
0.0545987339134 -0.158832680475 0.894 1.6111130617e-38
-0.0510028644811 -0.156299100829 0.889 1.48265434992e-38
-0.0492465700439 -0.155947471806 0.887 1.68537319226e-38
-0.0476050177091 -0.155947471806 0.887 1.38108879774e-38
-0.0459634653743 -0.155947471806 0.887 1.50116550263e-38
-0.0442219763698 -0.155595842783 0.885 1.1020259539e-39
-0.0425841253931 -0.155595842783 0.885 9.18845416042e-41
-0.0409462744165 -0.155595842783 0.885 4.62464926987e-40
-0.0393084234398 -0.155595842783 0.885 4.7644147787e-44
-0.0376705724632 -0.155595842783 0.885 1.39106968618e-38
-0.0360327214865 -0.155595842783 0.885 1.27971242086e-38
-0.0342782777284 -0.155068399248 0.882 1.37175965322e-38
-0.032645978789 -0.155068399248 0.882 1.52902976207e-38
-0.0309433540449 -0.154716770224 0.88 2.00845054061e-38
-0.0292481320171 -0.154365141201 0.878 1.95281268573e-38
-0.0275288511614 -0.153837697666 0.875 1.60188901456e-38
-0.0258502852452 -0.153486068643 0.873 1.6300185398e-38
-0.0242346424173 -0.153486068643 0.873 1.4178286014e-38
-0.0225671805756 -0.15313443962 0.871 1.24290227202e-38
-0.0209552391059 -0.15313443962 0.871 1.13205830232e-38
-0.0192988813385 -0.152782810597 0.869 1.19670062087e-38
-0.0176499262875 -0.152431181573 0.867 1.29837042965e-38
-0.015989867162 -0.151903738039 0.864 1.38134621627e-38
-0.0143575682225 -0.151552109015 0.862 1.42751465664e-38
-0.0127622828645 -0.151552109015 0.862 1.45499355901e-38
-0.0111669975064 -0.151552109015 0.862 1.60236167253e-38
-0.00957171214834 -0.151552109015 0.862 1.5931423898e-38
-0.00797642679028 -0.151552109015 0.862 1.54722478185e-38
-0.00638114143223 -0.151552109015 0.862 1.60254215977e-38
-0.00478585607417 -0.151552109015 0.862 1.60236167253e-38
-0.00319057071611 -0.151552109015 0.862 1.55651244795e-38
-0.00159528535806 -0.151552109015 0.862 1.66711567457e-38
0.0 -0.151903738039 0.864 1.86947886736e-38
0.0016045387534 -0.152431181573 0.867 2.33024037593e-38
0.00322388293937 -0.15313443962 0.871 2.28428381189e-38
0.00485803255789 -0.153837697666 0.875 2.19183580817e-38
0.00651439032524 -0.154716770224 0.88 2.32998463896e-38
0.00814298790655 -0.154716770224 0.88 2.24683102757e-38
0.00977158548786 -0.154716770224 0.88 2.15488552948e-38
0.0114001830692 -0.154716770224 0.88 2.17339500064e-38
0.0130287806505 -0.154716770224 0.88 2.34863760308e-38
0.0146573782318 -0.154716770224 0.88 2.34935380673e-38
0.0162859758131 -0.154716770224 0.88 2.34936235465e-38
0.0179145733944 -0.154716770224 0.88 2.30257818373e-38
0.0195431709757 -0.154716770224 0.88 2.34871481463e-38
0.021171768557 -0.154716770224 0.88 1.45509893666e-38
0.0228521851523 -0.155068399248 0.882 1.7966211563e-38
0.0244844840917 -0.155068399248 0.882 1.99898308793e-38
0.0262056156265 -0.155595842783 0.885 1.98972695105e-38
0.0278434666032 -0.155595842783 0.885 2.00805789678e-38
0.0294813175799 -0.155595842783 0.885 1.91557373956e-38
0.0311191685565 -0.155595842783 0.885 1.89706370789e-38
0.032831046696 -0.155947471806 0.887 1.95227262531e-38
0.0344725990308 -0.155947471806 0.887 1.93394027828e-38
0.0361141513656 -0.155947471806 0.887 1.88777197803e-38
0.0378408349376 -0.156299100829 0.889 1.91542898543e-38
0.0394860886305 -0.156299100829 0.889 1.94312466867e-38
0.0411313423234 -0.156299100829 0.889 1.9155734593e-38
0.0427765960164 -0.156299100829 0.889 1.8786226201e-38
0.0444218497093 -0.156299100829 0.889 2.03517708583e-38
0.0461707414302 -0.156650729852 0.891 1.92475812996e-38
0.0478196964812 -0.156650729852 0.891 1.86032838839e-38
0.0494686515323 -0.156650729852 0.891 1.88798735761e-38
0.0511176065834 -0.156650729852 0.891 1.98936499566e-38
0.0529442268251 -0.157178173387 0.894 1.88794980281e-38
0.0545987339134 -0.157178173387 0.894 1.65742597595e-38
-0.0510028644811 -0.154653847136 0.889 8.37068300132e-39
-0.0492465700439 -0.154305919471 0.887 1.83285326953e-38
-0.0476050177091 -0.154305919471 0.887 1.2795984953e-38
-0.0459634653743 -0.154305919471 0.887 1.45484866475e-38
-0.0442219763698 -0.153957991806 0.885 1.08653375859e-38
-0.0425841253931 -0.153957991806 0.885 7.34709192636e-40
-0.0409462744165 -0.153957991806 0.885 0.0
-0.0393084234398 -0.153957991806 0.885 9.3892280005e-39
-0.0376705724632 -0.153957991806 0.885 1.4735778595e-38
-0.0359105766679 -0.153436100308 0.882 1.34410474776e-38
-0.0342782777284 -0.153436100308 0.882 1.52846321711e-38
-0.0325719516262 -0.153088172643 0.88 8.26519465422e-40
-0.0308730282403 -0.152740244978 0.878 0.0
-0.0291481953473 -0.15221835348 0.875 1.53872940992e-38
-0.027465928073 -0.151870425815 0.873 1.55694825177e-38
-0.0258502852452 -0.151870425815 0.873 1.6855860495e-38
-0.0242346424173 -0.151870425815 0.873 1.33495903321e-38
-0.0225671805756 -0.15152249815 0.871 1.35332403049e-38
-0.0209552391059 -0.15152249815 0.871 1.1597898588e-38
-0.0192988813385 -0.151174570485 0.869 1.19673887632e-38
-0.0176499262875 -0.15082664282 0.867 1.27071216108e-38
-0.015989867162 -0.150304751322 0.864 1.36287023615e-38
-0.0143575682225 -0.149956823657 0.862 1.49197971094e-38
-0.0127622828645 -0.149956823657 0.862 1.46432060159e-38
-0.0111669975064 -0.149956823657 0.862 1.59335917068e-38
-0.00957171214834 -0.149956823657 0.862 1.55644434484e-38
-0.00797642679028 -0.149956823657 0.862 1.61147473683e-38
-0.00638114143223 -0.149956823657 0.862 1.67611719551e-38
-0.00478585607417 -0.149956823657 0.862 1.63931125057e-38
-0.00319057071611 -0.149956823657 0.862 1.73129332255e-38
-0.00159528535806 -0.149956823657 0.862 1.88791869398e-38
0.0 -0.150304751322 0.864 2.16417487713e-38
0.0016045387534 -0.15082664282 0.867 2.34907494833e-38
0.00322388293937 -0.15152249815 0.871 2.26573482411e-38
0.00485803255789 -0.15221835348 0.875 2.18261610505e-38
0.00649958489268 -0.152740244978 0.878 2.34853180505e-38
0.00812448111586 -0.152740244978 0.878 2.18232785796e-38
0.00974937733903 -0.152740244978 0.878 2.34853152479e-38
0.0113742735622 -0.152740244978 0.878 2.3493226979e-38
0.0130287806505 -0.153088172643 0.88 2.34928822596e-38
0.0146573782318 -0.153088172643 0.88 2.13651744934e-38
0.0162859758131 -0.153088172643 0.88 1.98900920598e-38
0.0179145733944 -0.153088172643 0.88 1.906138797e-38
0.0195431709757 -0.153088172643 0.88 1.86929613804e-38
0.021171768557 -0.153088172643 0.88 2.02610073555e-38
0.0228003661383 -0.153088172643 0.88 1.90635361606e-38
0.0244289637197 -0.153088172643 0.88 1.98011011995e-38
0.0261167830312 -0.153436100308 0.882 1.89734943265e-38
0.0277490819706 -0.153436100308 0.882 1.96167099398e-38
0.0294813175799 -0.153957991806 0.885 1.96159910736e-38
0.0311191685565 -0.153957991806 0.885 1.88784232321e-38
0.032831046696 -0.154305919471 0.887 1.93397475022e-38
0.0344725990308 -0.154305919471 0.887 1.95248674371e-38
0.0361141513656 -0.154305919471 0.887 1.89709902061e-38
0.0378408349376 -0.154653847136 0.889 1.90631830334e-38
0.0394860886305 -0.154653847136 0.889 1.869584245e-38
0.0411313423234 -0.154653847136 0.889 1.90639018995e-38
0.042872831328 -0.155001774801 0.891 1.86032810813e-38
0.0445217863791 -0.155001774801 0.891 1.89702685374e-38
0.0461707414302 -0.155001774801 0.891 1.92468484205e-38
0.0478196964812 -0.155001774801 0.891 1.8786226201e-38
0.0494686515323 -0.155001774801 0.891 1.92468484205e-38
0.0512897197369 -0.155523666299 0.894 1.96159910736e-38
0.0529442268251 -0.155523666299 0.894 1.83245249817e-38
0.0545987339134 -0.155523666299 0.894 1.74955070011e-38
-0.0492465700439 -0.152664367136 0.887 1.7215307564e-38
-0.0476050177091 -0.152664367136 0.887 1.31658843073e-38
-0.0459634653743 -0.152664367136 0.887 1.37190861124e-38
-0.0442219763698 -0.152320140829 0.885 1.41815061979e-38
-0.0425841253931 -0.152320140829 0.885 9.1835496158e-40
-0.0409462744165 -0.152320140829 0.885 5.46506401087e-44
-0.0391751745468 -0.151803801369 0.882 1.35318964597e-38
-0.0375428756073 -0.151803801369 0.882 1.43669708522e-38
-0.0358291467888 -0.151459575062 0.88 1.2890772985e-38
-0.0341228206866 -0.151115348755 0.878 1.63913118372e-38
-0.0324979244634 -0.151115348755 0.878 6.42848473106e-40
-0.0306972137286 -0.150254782988 0.873 4.34402523941e-44
-0.0290815709008 -0.150254782988 0.873 3.64337600724e-44
-0.0274030049846 -0.149910556681 0.871 2.48933665695e-39
-0.0257910635149 -0.149910556681 0.871 1.57550186383e-38
-0.0241791220453 -0.149910556681 0.871 1.64892640011e-38
-0.0225153615616 -0.149566330374 0.869 1.28878708959e-38
-0.0209071214501 -0.149566330374 0.869 1.40878616254e-38
-0.0192544650409 -0.149222104067 0.867 1.15053288115e-38
-0.0175888538782 -0.148705764606 0.864 1.26127735865e-38
-0.015989867162 -0.148705764606 0.864 1.38102419788e-38
-0.0143575682225 -0.148361538299 0.862 1.39038655318e-38
-0.0127622828645 -0.148361538299 0.862 1.4734332455e-38
-0.0111669975064 -0.148361538299 0.862 1.57492074535e-38
-0.00957171214834 -0.148361538299 0.862 1.63949299898e-38
-0.00797642679028 -0.148361538299 0.862 1.59317980447e-38
-0.00638114143223 -0.148361538299 0.862 1.74054819825e-38
-0.00478585607417 -0.148361538299 0.862 1.76831030304e-38
-0.00319057071611 -0.148361538299 0.862 1.90660388796e-38
-0.0015989867162 -0.148705764606 0.864 2.21978190344e-38
0.0 -0.149222104067 0.867 2.21971309969e-38
0.00160824011154 -0.149566330374 0.869 2.07219841035e-38
0.00322388293937 -0.149910556681 0.871 2.06308660721e-38
0.00484692848347 -0.150254782988 0.873 2.11797196482e-38
0.00647737674385 -0.150599009294 0.875 2.34863704256e-38
0.00809672092981 -0.150599009294 0.875 2.34910843937e-38
0.00971606511577 -0.150599009294 0.875 2.33045029044e-38
0.0113354093017 -0.150599009294 0.875 2.08123790648e-38
0.0129991697854 -0.151115348755 0.878 1.8875201647e-38
0.0146240660085 -0.151115348755 0.878 1.81397904038e-38
0.0162489622317 -0.151115348755 0.878 1.8878788971e-38
0.0178738584549 -0.151115348755 0.878 1.8878441449e-38
0.0194987546781 -0.151115348755 0.878 1.92457820324e-38
0.0211236509012 -0.151115348755 0.878 1.90624669698e-38
0.0228003661383 -0.151459575062 0.88 1.89706342763e-38
0.0244289637197 -0.151459575062 0.88 1.94327068397e-38
0.026057561301 -0.151459575062 0.88 1.85110854514e-38
0.0277490819706 -0.151803801369 0.882 1.88795386657e-38
0.0294813175799 -0.152320140829 0.885 1.90632040528e-38
0.0311191685565 -0.152320140829 0.885 1.8880239315e-38
0.032831046696 -0.152664367136 0.887 1.90624641673e-38
0.0344725990308 -0.152664367136 0.887 1.90617382946e-38
0.0361955812446 -0.153008593443 0.889 1.86951263865e-38
0.0378408349376 -0.153008593443 0.889 1.87873220164e-38
0.0395749212258 -0.15335281975 0.891 1.86032838839e-38
0.0412238762769 -0.15335281975 0.891 1.8511088254e-38
0.042872831328 -0.15335281975 0.891 1.88794952255e-38
0.0446716913837 -0.153869159211 0.894 1.86958326409e-38
0.046326198472 -0.153869159211 0.894 1.88798707735e-38
0.0479807055603 -0.153869159211 0.894 1.90624669698e-38
0.0496352126486 -0.153869159211 0.894 1.92461295544e-38
0.0514044618392 -0.154213385518 0.896 1.92475841022e-38
0.0531811137461 -0.154557611825 0.898 1.93408335085e-38
-0.0492465700439 -0.151022814801 0.887 1.16004139188e-38
-0.0476050177091 -0.151022814801 0.887 1.27982396422e-38
-0.0459634653743 -0.151022814801 0.887 1.30740824423e-38
-0.0442219763698 -0.150682289853 0.885 1.51034456809e-38
-0.0425841253931 -0.150682289853 0.885 3.40006575229e-39
-0.0409462744165 -0.150682289853 0.885 0.0
-0.0391751745468 -0.150171502429 0.882 1.51024311408e-38
-0.0375428756073 -0.150171502429 0.882 1.44580930875e-38
-0.0358291467888 -0.149830977481 0.88 1.25198170516e-38
-0.0341228206866 -0.149490452532 0.878 1.72217815629e-38
-0.0323868837192 -0.148979665109 0.875 4.5917748079e-40
-0.0306972137286 -0.14863914016 0.873 1.01313318451e-39
-0.0290149464543 -0.148298615211 0.871 9.20206076851e-40
-0.0273400818963 -0.147958090262 0.869 4.90454462514e-44
-0.0257318417847 -0.147958090262 0.869 3.92363570011e-44
-0.0241236016732 -0.147958090262 0.869 7.64542556682e-39
-0.0225153615616 -0.147958090262 0.869 1.6217426112e-38
-0.0208590037943 -0.147617565313 0.867 1.62144441489e-38
-0.0192544650409 -0.147617565313 0.867 1.43611932986e-38
-0.0175888538782 -0.14710677789 0.864 1.54650171185e-38
-0.015989867162 -0.14710677789 0.864 1.49132908806e-38
-0.0143575682225 -0.146766252941 0.862 1.49125916327e-38
-0.0127622828645 -0.146766252941 0.862 1.53735655781e-38
-0.0111669975064 -0.146766252941 0.862 1.57441459635e-38
-0.00957171214834 -0.146766252941 0.862 1.62962477493e-38
-0.00797642679028 -0.146766252941 0.862 1.7587336892e-38
-0.00638114143223 -0.146766252941 0.862 1.89691755246e-38
-0.00479696014859 -0.14710677789 0.864 2.0167362783e-38
-0.00319797343239 -0.14710677789 0.864 2.01680928595e-38
-0.0016045387534 -0.147617565313 0.867 2.02613576801e-38
0.0 -0.147958090262 0.869 2.11818874569e-38
0.00161194146968 -0.148298615211 0.871 2.10878589286e-38
0.00322388293937 -0.148298615211 0.871 2.29343078761e-38
0.00483582440905 -0.148298615211 0.871 2.33981727003e-38
0.00646257131129 -0.14863914016 0.873 2.09067425034e-38
0.00807821413911 -0.14863914016 0.873 1.89681217481e-38
0.00969385696694 -0.14863914016 0.873 1.88762736403e-38
0.0113094997948 -0.14863914016 0.873 1.80475919713e-38
0.0129547534877 -0.148979665109 0.875 1.94330599669e-38
0.0146240660085 -0.149490452532 0.878 1.85125175784e-38
0.0162489622317 -0.149490452532 0.878 1.91568065864e-38
0.0178738584549 -0.149490452532 0.878 1.8234851689e-38
0.0194987546781 -0.149490452532 0.878 1.86954612968e-38
0.0211236509012 -0.149490452532 0.878 1.90617410972e-38
0.0228003661383 -0.149830977481 0.88 1.90613851674e-38
0.0244289637197 -0.149830977481 0.88 1.95234283036e-38
0.026057561301 -0.149830977481 0.88 1.87887317226e-38
0.0277490819706 -0.150171502429 0.882 1.83281249174e-38
0.0293813809101 -0.150171502429 0.882 1.93412118591e-38
0.0311191685565 -0.150682289853 0.885 1.89731383966e-38
0.032831046696 -0.151022814801 0.887 1.91535807973e-38
0.0345503275517 -0.15136333975 0.889 1.97071105063e-38
0.0361955812446 -0.15136333975 0.889 1.8786226201e-38
0.0379259661748 -0.151703864699 0.891 1.87862304049e-38
0.0395749212258 -0.151703864699 0.891 1.97089055696e-38
0.0412238762769 -0.151703864699 0.891 1.88802267033e-38
0.0430171842954 -0.152214652122 0.894 1.86025650178e-38
0.0446716913837 -0.152214652122 0.894 1.88795204488e-38
0.0464298364999 -0.152555177071 0.896 1.99854966631e-38
0.0480880449463 -0.152555177071 0.896 1.89702839517e-38
0.0497462533928 -0.152555177071 0.896 1.89702419127e-38
0.0514044618392 -0.152555177071 0.896 2.07230378799e-38
0.0531811137461 -0.15289570202 0.898 1.78653489022e-38
-0.0492465700439 -0.149381262467 0.887 1.44512393367e-38
-0.0476050177091 -0.149381262467 0.887 1.34406943504e-38
-0.0459634653743 -0.149381262467 0.887 1.31669843266e-38
-0.0443219130396 -0.149381262467 0.887 1.36283128005e-38
-0.0425841253931 -0.149044438876 0.885 1.22472154548e-38
-0.0409462744165 -0.149044438876 0.885 2.38220738935e-44
-0.0391751745468 -0.14853920349 0.882 1.45535929791e-38
-0.0375428756073 -0.14853920349 0.882 1.50108969238e-38
-0.0358291467888 -0.148202379899 0.88 1.25223351849e-38
-0.0341228206866 -0.147865556309 0.878 1.6208731055e-38
-0.0323868837192 -0.147360320923 0.875 6.42848473106e-40
-0.030626887924 -0.146686673741 0.871 5.54307429638e-40
-0.0289483220078 -0.146349850151 0.869 5.5536400868e-40
-0.0273400818963 -0.146349850151 0.869 1.29079346873e-39
-0.0256726200545 -0.14601302656 0.867 2.77723342645e-40
-0.0240680813011 -0.14601302656 0.867 5.74532370373e-44
-0.0224635425477 -0.14601302656 0.867 3.50324616081e-44
-0.0207868273105 -0.145507791174 0.864 1.19800046533e-38
-0.0191878405943 -0.145507791174 0.864 1.87956261111e-38
-0.0175888538782 -0.145507791174 0.864 1.84206848849e-38
-0.015989867162 -0.145507791174 0.864 1.92439617456e-38
-0.0143575682225 -0.145170967583 0.862 1.97074440153e-38
-0.0127622828645 -0.145170967583 0.862 1.87855101375e-38
-0.0111669975064 -0.145170967583 0.862 1.88787917736e-38
-0.00957171214834 -0.145170967583 0.862 1.84182087905e-38
-0.00797642679028 -0.145170967583 0.862 2.02624717124e-38
-0.00638114143223 -0.145170967583 0.862 2.07198176961e-38
-0.00479696014859 -0.145507791174 0.864 2.04393001643e-38
-0.00319797343239 -0.145507791174 0.864 2.33916790832e-38
-0.0016045387534 -0.14601302656 0.867 2.28406422842e-38
0.0 -0.146349850151 0.869 2.33967307642e-38
0.00160824011154 -0.146349850151 0.869 2.25655253567e-38
0.00322388293937 -0.146686673741 0.871 2.02584920247e-38
0.00483582440905 -0.146686673741 0.871 1.84145990456e-38
0.00644776587873 -0.146686673741 0.871 1.94308795465e-38
0.00805970734842 -0.146686673741 0.871 1.86947634502e-38
0.00969385696694 -0.147023497332 0.873 1.87876933605e-38
0.0113094997948 -0.147023497332 0.873 1.85118169292e-38
0.0129547534877 -0.147360320923 0.875 1.86958452526e-38
0.0145740976737 -0.147360320923 0.875 1.8511811324e-38
0.0162489622317 -0.147865556309 0.878 1.87869744944e-38
0.0178738584549 -0.147865556309 0.878 1.84185380956e-38
0.0194987546781 -0.147865556309 0.878 1.91564800838e-38
0.0211236509012 -0.147865556309 0.878 1.86032810813e-38
0.0228003661383 -0.148202379899 0.88 1.99854994657e-38
0.0244289637197 -0.148202379899 0.88 2.03557267239e-38
0.026057561301 -0.148202379899 0.88 1.56616781476e-38
0.0277490819706 -0.14853920349 0.882 1.81506098292e-38
0.0293813809101 -0.14853920349 0.882 1.87880408825e-38
0.0311191685565 -0.149044438876 0.885 1.85114609994e-38
0.032831046696 -0.149381262467 0.887 1.93397531074e-38
0.0345503275517 -0.149718086057 0.889 1.92472043503e-38
0.0361955812446 -0.149718086057 0.889 1.8601481814e-38
0.0379259661748 -0.150054909648 0.891 1.95223703232e-38
0.0397081701189 -0.150560145034 0.894 1.8878788971e-38
0.0413626772071 -0.150560145034 0.894 1.92468512231e-38
0.0430171842954 -0.150560145034 0.894 1.83263634852e-38
0.0447716280535 -0.150896968625 0.896 1.86954823163e-38
0.0464298364999 -0.150896968625 0.896 1.9523439514e-38
0.0480880449463 -0.150896968625 0.896 1.84185380956e-38
0.0497462533928 -0.150896968625 0.896 1.87876779462e-38
0.0514044618392 -0.150896968625 0.896 1.96159910736e-38
0.0531811137461 -0.151233792215 0.898 1.80493674165e-38
-0.0478196964812 -0.148405954597 0.891 1.32519338421e-38
-0.0460671034023 -0.148072832364 0.889 1.3349580523e-38
-0.0443219130396 -0.147739710132 0.887 1.30747886967e-38
-0.0426803607048 -0.147739710132 0.887 1.41822124523e-38
-0.0409462744165 -0.147406587899 0.885 1.83721439061e-40
-0.0391751745468 -0.14690690455 0.882 1.39136115627e-38
-0.0375428756073 -0.14690690455 0.882 1.45499159719e-38
-0.0358291467888 -0.146573782318 0.88 1.21535526655e-38
-0.0340062279052 -0.145740976737 0.875 1.5749923517e-38
-0.0323128565565 -0.145407854504 0.873 8.26519465422e-40
-0.0305565621193 -0.144741610039 0.869 7.38697288066e-40
-0.0289483220078 -0.144741610039 0.869 5.54660556851e-40
-0.0272771588079 -0.144408487806 0.867 5.54307429638e-40
-0.0256726200545 -0.144408487806 0.867 7.38697288066e-40
-0.0240680813011 -0.144408487806 0.867 1.1049406547e-39
-0.0224635425477 -0.144408487806 0.867 9.29719492126e-41
-0.0207868273105 -0.143908804458 0.864 4.06376554654e-44
-0.0191878405943 -0.143908804458 0.864 3.22298646795e-44
-0.0175481389386 -0.143575682225 0.862 1.4737961818e-38
-0.0159528535806 -0.143575682225 0.862 2.12798662455e-38
-0.0143575682225 -0.143575682225 0.862 2.28420744112e-38
-0.0127622828645 -0.143575682225 0.862 2.34871019034e-38
-0.0111669975064 -0.143575682225 0.862 2.29346385826e-38
-0.00957171214834 -0.143575682225 0.862 2.21077743977e-38
-0.00797642679028 -0.143575682225 0.862 2.22013769312e-38
-0.00638114143223 -0.143575682225 0.862 2.33985258275e-38
-0.00479696014859 -0.143908804458 0.864 2.27516948641e-38
-0.00319797343239 -0.143908804458 0.864 2.09992520241e-38
-0.0016045387534 -0.144408487806 0.867 1.97060539272e-38
0.0 -0.144741610039 0.869 1.89684566585e-38
0.00160824011154 -0.144741610039 0.869 1.90620886193e-38
0.00321648022309 -0.144741610039 0.869 1.89695454674e-38
0.00483582440905 -0.145074732272 0.871 1.92457820324e-38
0.00644776587873 -0.145074732272 0.871 1.8785526953e-38
0.00805970734842 -0.145074732272 0.871 1.86958326409e-38
0.0096716488181 -0.145074732272 0.871 1.86954767111e-38
0.0112835902878 -0.145074732272 0.871 1.8696180163e-38
0.0129251426226 -0.145407854504 0.873 1.86965459019e-38
0.0145740976737 -0.145740976737 0.875 1.83281389304e-38
0.0161934418596 -0.145740976737 0.875 1.86029307567e-38
0.0178738584549 -0.146240660085 0.878 1.92486532929e-38
0.0194987546781 -0.146240660085 0.878 1.90653508421e-38
0.0211236509012 -0.146240660085 0.878 2.05415557158e-38
0.0228003661383 -0.146573782318 0.88 1.71349865374e-38
0.0244289637197 -0.146573782318 0.88 4.13262395178e-39
0.026057561301 -0.146573782318 0.88 0.0
0.0277490819706 -0.14690690455 0.882 1.88931943193e-38
0.0294813175799 -0.147406587899 0.885 1.85125301901e-38
0.0311191685565 -0.147406587899 0.885 1.9155734593e-38
0.032831046696 -0.147739710132 0.887 1.90639018995e-38
0.0345503275517 -0.148072832364 0.889 1.82355761603e-38
0.0362770111237 -0.148405954597 0.891 1.8878788971e-38
0.0379259661748 -0.148405954597 0.891 1.88777225829e-38
0.0397081701189 -0.148905637946 0.894 1.8234504167e-38
0.0413626772071 -0.148905637946 0.894 1.94312270685e-38
0.0431134196071 -0.149238760178 0.896 1.8511088254e-38
0.0447716280535 -0.149238760178 0.896 1.86022245022e-38
0.0465334745278 -0.149571882411 0.898 1.93379902739e-38
0.0481953843324 -0.149571882411 0.898 1.86022273048e-38
0.0498572941369 -0.149571882411 0.898 1.88794980281e-38
0.0515192039415 -0.149571882411 0.898 1.98014739449e-38
0.0534772223972 -0.150404687992 0.903 1.71259859973e-38
-0.0478196964812 -0.146756999546 0.891 1.26984251526e-38
-0.0460671034023 -0.146427578671 0.889 1.31651864606e-38
-0.0444218497093 -0.146427578671 0.889 1.27971101956e-38
-0.0426803607048 -0.146098157797 0.887 1.33506497137e-38
-0.04103880837 -0.146098157797 0.887 5.42728220167e-39
-0.0393084234398 -0.145768736923 0.885 1.4277294757e-38
-0.0375428756073 -0.145274605611 0.882 1.50087403255e-38
-0.0358291467888 -0.144945184737 0.88 1.29801113673e-38
-0.0340062279052 -0.144121632551 0.875 1.52875160433e-38
-0.0323128565565 -0.143792211676 0.873 1.28569694621e-39
-0.0305565621193 -0.143133369927 0.869 1.20002996589e-39
-0.0289483220078 -0.143133369927 0.869 7.39745459317e-40
-0.0272771588079 -0.142803949053 0.867 1.2003858957e-39
-0.0256726200545 -0.142803949053 0.867 1.19859783886e-39
-0.0240680813011 -0.142803949053 0.867 1.10783153343e-39
-0.0224635425477 -0.142803949053 0.867 8.30174051817e-40
-0.0207387096547 -0.141980396867 0.862 1.19894816348e-39
-0.0191434242967 -0.141980396867 0.862 6.0255833966e-44
-0.0175481389386 -0.141980396867 0.862 0.0
-0.0159528535806 -0.141980396867 0.862 1.05097384824e-43
-0.0143575682225 -0.141980396867 0.862 2.34982268119e-38
-0.0127622828645 -0.141980396867 0.862 2.22867958817e-38
-0.0111669975064 -0.141980396867 0.862 2.0996054261e-38
-0.00957171214834 -0.141980396867 0.862 2.09042243701e-38
-0.00799493358098 -0.142309817741 0.864 1.89706342763e-38
-0.00639594686478 -0.142309817741 0.864 1.77738721384e-38
-0.00479696014859 -0.142309817741 0.864 1.82337754918e-38
-0.00320907750681 -0.142803949053 0.867 1.75877026309e-38
-0.0016045387534 -0.142803949053 0.867 1.88780701049e-38
0.0 -0.143133369927 0.869 1.85082169934e-38
0.00160824011154 -0.143133369927 0.869 1.87858632647e-38
0.00321648022309 -0.143133369927 0.869 1.86029335592e-38
0.00483582440905 -0.143462790802 0.871 1.84196184967e-38
0.00644776587873 -0.143462790802 0.871 1.8511811324e-38
0.00805970734842 -0.143462790802 0.871 1.84196156941e-38
0.0096716488181 -0.143462790802 0.871 1.90639075047e-38
0.0112835902878 -0.143462790802 0.871 1.89717328943e-38
0.0129251426226 -0.143792211676 0.873 1.82352202305e-38
0.0145740976737 -0.144121632551 0.875 1.8696927055e-38
0.0161934418596 -0.144121632551 0.875 1.88798735761e-38
0.0178738584549 -0.144615763862 0.878 2.00762433504e-38
0.0194987546781 -0.144615763862 0.878 1.67644481909e-38
0.0211236509012 -0.144615763862 0.878 4.41208910842e-39
0.0228003661383 -0.144945184737 0.88 5.184804318e-44
0.0244289637197 -0.144945184737 0.88 4.90454462514e-44
0.026057561301 -0.144945184737 0.88 1.12103877146e-44
0.0277490819706 -0.145274605611 0.882 2.00870655784e-38
0.0294813175799 -0.145768736923 0.885 1.83292207328e-38
0.0311894943612 -0.146098157797 0.887 1.90642578293e-38
0.0329050738588 -0.146427578671 0.889 1.85128707056e-38
0.0345503275517 -0.146427578671 0.889 1.85132518588e-38
0.0362770111237 -0.146756999546 0.891 1.93415677889e-38
0.0380536630306 -0.147251130857 0.894 1.96166973281e-38
0.0397081701189 -0.147251130857 0.894 1.87876751436e-38
0.0414552111606 -0.147580551732 0.896 1.87887471369e-38
0.0431134196071 -0.147580551732 0.896 1.85107323242e-38
0.0447716280535 -0.147580551732 0.896 1.85111134774e-38
0.0465334745278 -0.147909972606 0.898 1.91535835999e-38
0.0481953843324 -0.147909972606 0.898 1.93383307894e-38
0.0498572941369 -0.147909972606 0.898 1.86014846166e-38
0.051691317095 -0.148404103918 0.901 2.06294227347e-38
0.0534772223972 -0.148733524792 0.903 1.57412592886e-38
-0.0479807055603 -0.145596623769 0.894 1.26955552933e-38
-0.0461707414302 -0.145108044495 0.891 1.26120308983e-38
-0.0444218497093 -0.144782324979 0.889 1.3073719506e-38
-0.0427765960164 -0.144782324979 0.889 1.26124022424e-38
-0.04103880837 -0.144456605462 0.887 1.2428359906e-38
-0.0393084234398 -0.144130885946 0.885 1.41807775227e-38
-0.0375428756073 -0.143642306672 0.882 1.46417780928e-38
-0.0358291467888 -0.143316587155 0.88 1.37162288649e-38
-0.0340062279052 -0.142502288365 0.875 1.29854867482e-38
-0.0323868837192 -0.142502288365 0.875 8.26519465422e-40
-0.0305565621193 -0.141525129816 0.869 9.69250121804e-41
-0.0289483220078 -0.141525129816 0.869 9.23443076304e-40
-0.0272771588079 -0.1411994103 0.867 1.10675253362e-39
-0.0255837874591 -0.140710831025 0.864 5.54307429638e-40
-0.0239848007429 -0.140710831025 0.864 1.01528838155e-39
-0.0223858140267 -0.140710831025 0.864 4.64985862925e-40
-0.0207387096547 -0.140385111509 0.862 9.24495451451e-40
-0.0191434242967 -0.140385111509 0.862 1.47877765772e-39
-0.0175481389386 -0.140385111509 0.862 2.94272677508e-44
-0.0159528535806 -0.140385111509 0.862 2.52233723578e-44
-0.0143242559993 -0.140059391993 0.86 1.94402318125e-38
-0.0127326719993 -0.140059391993 0.86 1.75898536241e-38
-0.0111410879994 -0.140059391993 0.86 1.80479549076e-38
-0.00957171214834 -0.140385111509 0.862 1.79561152076e-38
-0.00797642679028 -0.140385111509 0.862 1.8510365184e-38
-0.00638114143223 -0.140385111509 0.862 1.7866441915e-38
-0.00479696014859 -0.140710831025 0.864 1.82338007152e-38
-0.00320907750681 -0.1411994103 0.867 1.82330748426e-38
-0.0016045387534 -0.1411994103 0.867 1.82337726892e-38
0.0 -0.141525129816 0.869 1.84178164269e-38
0.00160824011154 -0.141525129816 0.869 1.90639047021e-38
0.00321648022309 -0.141525129816 0.869 1.8328141733e-38
0.00483582440905 -0.141850849332 0.871 1.8419220528e-38
0.00644776587873 -0.141850849332 0.871 1.86029279541e-38
0.00805970734842 -0.141850849332 0.871 1.8234504167e-38
0.0096716488181 -0.141850849332 0.871 1.84185226813e-38
0.0112835902878 -0.141850849332 0.871 1.87876751436e-38
0.0129251426226 -0.142176568848 0.873 1.80504758436e-38
0.0145740976737 -0.142502288365 0.875 1.81423183462e-38
0.0161934418596 -0.142502288365 0.875 1.90624795815e-38
0.0178738584549 -0.142990867639 0.878 2.08159818032e-38
0.0194987546781 -0.142990867639 0.878 1.37753244237e-39
0.0211236509012 -0.142990867639 0.878 4.06376554654e-44
0.0228003661383 -0.143316587155 0.88 5.5110266005e-40
0.0244289637197 -0.143316587155 0.88 2.0204467765e-39
0.0261167830312 -0.143642306672 0.882 2.38220738935e-44
0.0277490819706 -0.143642306672 0.882 2.02700078955e-38
0.0295479420264 -0.144456605462 0.887 1.81444735433e-38
0.0311894943612 -0.144456605462 0.887 1.88798735761e-38
0.0329050738588 -0.144782324979 0.889 1.86951263865e-38
0.0346280560726 -0.145108044495 0.891 1.8511811324e-38
0.0363991559423 -0.145596623769 0.894 1.87883968123e-38
0.0380536630306 -0.145596623769 0.894 1.84188856176e-38
0.0397081701189 -0.145596623769 0.894 1.86954823163e-38
0.0414552111606 -0.145922343285 0.896 1.87880282708e-38
0.0431134196071 -0.145922343285 0.896 1.90624641673e-38
0.0448715647232 -0.146248062802 0.898 1.86933243167e-38
0.0465334745278 -0.146248062802 0.898 1.94308795465e-38
0.0481953843324 -0.146248062802 0.898 1.91535835999e-38
0.0500238552532 -0.146736642076 0.901 1.84178164269e-38
0.0518060591973 -0.147062361592 0.903 1.96156379464e-38
0.0534772223972 -0.147062361592 0.903 1.95194626289e-38
-0.0480880449463 -0.144264134839 0.896 1.26080091718e-38
-0.0461707414302 -0.143459089444 0.891 1.26131112995e-38
-0.0444218497093 -0.143137071286 0.889 1.30729908308e-38
-0.0427765960164 -0.143137071286 0.889 1.26119944646e-38
-0.04103880837 -0.142815053127 0.887 1.39946094165e-38
-0.0393084234398 -0.142493034969 0.885 1.39056199575e-38
-0.0375428756073 -0.142010007732 0.882 1.46421158057e-38
-0.0358291467888 -0.141687989574 0.88 1.41800642617e-38
-0.0340062279052 -0.140882944179 0.875 1.06805889951e-38
-0.0323868837192 -0.140882944179 0.875 7.34700784846e-40
-0.0305565621193 -0.139916889704 0.869 4.7293823171e-42
-0.0289483220078 -0.139916889704 0.869 1.016342158e-39
-0.0272771588079 -0.139594871546 0.867 1.19894816348e-39
-0.0255837874591 -0.139111844309 0.864 1.29079907392e-39
-0.0239848007429 -0.139111844309 0.864 1.2003858957e-39
-0.0223858140267 -0.139111844309 0.864 1.56773909072e-39
-0.0207387096547 -0.138789826151 0.862 1.20290122645e-39
-0.0191434242967 -0.138789826151 0.862 5.46506401087e-44
-0.0175481389386 -0.138789826151 0.862 3.92363570011e-44
-0.0159158399992 -0.138467807993 0.86 1.04981763688e-38
-0.0143242559993 -0.138467807993 0.86 1.93448117948e-38
-0.0127326719993 -0.138467807993 0.86 1.82352202305e-38
-0.0111410879994 -0.138467807993 0.86 1.80493912386e-38
-0.0095495039995 -0.138467807993 0.86 1.86951109722e-38
-0.00797642679028 -0.138789826151 0.862 1.78653629151e-38
-0.00638114143223 -0.138789826151 0.862 1.85111106748e-38
-0.00479696014859 -0.139111844309 0.864 1.78664629344e-38
-0.00320907750681 -0.139594871546 0.867 1.86951263865e-38
-0.0016045387534 -0.139594871546 0.867 1.86032838839e-38
0.0 -0.139916889704 0.869 1.84196184967e-38
0.00160824011154 -0.139916889704 0.869 1.84188884202e-38
0.00321648022309 -0.139916889704 0.869 1.83274228669e-38
0.00483582440905 -0.140238907862 0.871 1.87876779462e-38
0.00644776587873 -0.140238907862 0.871 1.87869744944e-38
0.00805970734842 -0.140238907862 0.871 1.8511811324e-38
0.0096716488181 -0.140238907862 0.871 1.89727894733e-38
0.0113094997948 -0.140560926021 0.873 1.83267138099e-38
0.0129251426226 -0.140560926021 0.873 1.82352370461e-38
0.0145740976737 -0.140882944179 0.875 1.84192681721e-38
0.0162489622317 -0.141365971416 0.878 1.86951418008e-38
0.0178738584549 -0.141365971416 0.878 2.09096193692e-38
0.0194987546781 -0.141365971416 0.878 1.92854541932e-39
0.021171768557 -0.141687989574 0.88 2.75568145606e-40
0.0228003661383 -0.141687989574 0.88 1.46945481903e-39
0.0244289637197 -0.141687989574 0.88 1.5612833087e-39
0.0261167830312 -0.142010007732 0.882 3.22298646795e-44
0.0278434666032 -0.142493034969 0.885 1.98969766391e-38
0.0295479420264 -0.142815053127 0.887 1.81441204161e-38
0.0311894943612 -0.142815053127 0.887 1.90642578293e-38
0.0329791010215 -0.143459089444 0.891 1.88784638698e-38
0.0346280560726 -0.143459089444 0.891 1.92483001657e-38
0.0363991559423 -0.143942116681 0.894 1.86958676734e-38
0.0380536630306 -0.143942116681 0.894 1.87880408825e-38
0.0397081701189 -0.143942116681 0.894 1.8878788971e-38
0.0414552111606 -0.144264134839 0.896 1.89713251164e-38
0.0431134196071 -0.144264134839 0.896 1.86954795137e-38
0.0448715647232 -0.144586152997 0.898 1.90635515749e-38
0.0466889315697 -0.145069180234 0.901 1.89728076902e-38
0.0483563934114 -0.145069180234 0.901 1.99851491411e-38
0.0500238552532 -0.145069180234 0.901 1.88780757101e-38
0.0518060591973 -0.145391198392 0.903 1.90624641673e-38
0.0536548875879 -0.14587422563 0.906 2.08069784605e-38
-0.0498572941369 -0.142924243193 0.898 2.1083851215e-38
-0.0480880449463 -0.142605926393 0.896 1.33459217327e-38
-0.046326198472 -0.142287609593 0.894 1.2335811149e-38
-0.0445217863791 -0.141810134393 0.891 1.27056544513e-38
-0.0427765960164 -0.141491817593 0.889 1.24287004216e-38
-0.04103880837 -0.141173500793 0.887 1.39956954228e-38
-0.0393084234398 -0.140855183993 0.885 1.4458086081e-38
-0.0375428756073 -0.140377708793 0.882 1.48279476002e-38
-0.0358291467888 -0.140059391993 0.88 1.46403137359e-38
-0.0340062279052 -0.139263599993 0.875 7.91544737311e-39
-0.0323868837192 -0.139263599993 0.875 1.83710228673e-40
-0.0305565621193 -0.138308649593 0.869 6.49727447267e-40
-0.0289483220078 -0.138308649593 0.869 1.0163393554e-39
-0.0272771588079 -0.137990332793 0.867 5.5536400868e-40
-0.0255837874591 -0.137512857593 0.864 1.10748120882e-39
-0.0239848007429 -0.137512857593 0.864 1.10748120882e-39
-0.0223858140267 -0.137512857593 0.864 1.11035527197e-39
-0.0207387096547 -0.137194540793 0.862 5.184804318e-44
-0.0191434242967 -0.137194540793 0.862 0.0
-0.0175481389386 -0.137194540793 0.862 8.10884477806e-39
-0.0159158399992 -0.136876223993 0.86 1.32545528689e-38
-0.0143242559993 -0.136876223993 0.86 1.92508168977e-38
-0.0127326719993 -0.136876223993 0.86 1.86039845331e-38
-0.0111410879994 -0.136876223993 0.86 1.8142302932e-38
-0.0095495039995 -0.136876223993 0.86 1.81419526073e-38
-0.00797642679028 -0.137194540793 0.862 1.82341538424e-38
-0.00638114143223 -0.137194540793 0.862 1.83274228669e-38
-0.00479696014859 -0.137512857593 0.864 1.78664447176e-38
-0.00320907750681 -0.137990332793 0.867 1.92490036175e-38
-0.0016045387534 -0.137990332793 0.867 1.97074608309e-38
0.0 -0.138308649593 0.869 1.84185324904e-38
0.00160824011154 -0.138308649593 0.869 1.869584245e-38
0.00321648022309 -0.138308649593 0.869 1.86954823163e-38
0.00483582440905 -0.138626966393 0.871 1.86951291891e-38
0.00644776587873 -0.138626966393 0.871 1.97089209839e-38
0.00805970734842 -0.138626966393 0.871 1.86961983798e-38
0.00969385696694 -0.138945283193 0.873 1.83270669371e-38
0.0113094997948 -0.138945283193 0.873 1.88798861877e-38
0.0129251426226 -0.138945283193 0.873 1.86954767111e-38
0.0145740976737 -0.139263599993 0.875 1.86965515071e-38
0.0162489622317 -0.139741075193 0.878 1.85110854514e-38
0.0179145733944 -0.140059391993 0.88 2.15542629056e-38
0.0195431709757 -0.140059391993 0.88 2.11221641163e-39
0.021171768557 -0.140059391993 0.88 5.51052213305e-40
0.0228521851523 -0.140377708793 0.882 1.10209882142e-39
0.0244844840917 -0.140377708793 0.882 1.65311460096e-39
0.0261167830312 -0.140377708793 0.882 4.06376554654e-44
0.0278434666032 -0.140855183993 0.885 2.08149980917e-38
0.0295479420264 -0.141173500793 0.887 1.82370223003e-38
0.0312598201658 -0.141491817593 0.889 1.88784260347e-38
0.0329791010215 -0.141810134393 0.891 1.9155748606e-38
0.0346280560726 -0.141810134393 0.891 1.85107323242e-38
0.0363991559423 -0.142287609593 0.894 1.87851738258e-38
0.0380536630306 -0.142287609593 0.894 1.87851598128e-38
0.0397081701189 -0.142287609593 0.894 1.95230751764e-38
0.0414552111606 -0.142605926393 0.896 1.91560849177e-38
0.0431134196071 -0.142605926393 0.896 1.86961955772e-38
0.0448715647232 -0.142924243193 0.898 1.88805896396e-38
0.0466889315697 -0.143401718393 0.901 1.89709902061e-38
0.0483563934114 -0.143401718393 0.901 1.92465008985e-38
0.0501348959974 -0.143720035193 0.903 1.96152848192e-38
0.0519781723508 -0.144197510392 0.906 1.93383279868e-38
0.0536548875879 -0.144197510392 0.906 2.15477664859e-38
-0.0498572941369 -0.141262333388 0.898 1.94178656877e-38
-0.0480880449463 -0.140947717946 0.896 1.34359635668e-38
-0.046326198472 -0.140633102504 0.894 1.27060103812e-38
-0.0445217863791 -0.140161179342 0.891 1.24290661605e-38
-0.042872831328 -0.140161179342 0.891 1.11379770178e-38
-0.04103880837 -0.139531948458 0.887 1.42726284331e-38
-0.0393084234398 -0.139217333016 0.885 1.39049024927e-38
-0.0375428756073 -0.138745409853 0.882 1.42733290823e-38
-0.0358291467888 -0.138430794411 0.88 1.5193487515e-38
-0.0340062279052 -0.137644255807 0.875 5.2450265208e-39
-0.0323868837192 -0.137644255807 0.875 9.18845416042e-41
-0.030626887924 -0.137015024923 0.871 8.33060726653e-40
-0.0289483220078 -0.136700409481 0.869 9.23440273707e-40
-0.0272771588079 -0.136385794039 0.867 7.38691682872e-40
-0.0255837874591 -0.135913870877 0.864 4.65348799227e-40
-0.0239848007429 -0.135913870877 0.864 1.75607360433e-39
-0.0223858140267 -0.135913870877 0.864 6.16571324303e-44
-0.0207387096547 -0.135599255435 0.862 6.16571324303e-44
-0.0191434242967 -0.135599255435 0.862 1.04097614422e-38
-0.0175481389386 -0.135599255435 0.862 1.07749944726e-38
-0.0159158399992 -0.135284639993 0.86 1.56526509828e-38
-0.0143242559993 -0.135284639993 0.86 1.86068964313e-38
-0.0127326719993 -0.135284639993 0.86 1.80522582952e-38
-0.0111410879994 -0.135284639993 0.86 1.81430274033e-38
-0.0095495039995 -0.135284639993 0.86 1.80508583981e-38
-0.00797642679028 -0.135599255435 0.862 1.82341538424e-38
-0.00638114143223 -0.135599255435 0.862 1.83274200643e-38
-0.00479696014859 -0.135913870877 0.864 1.82341636515e-38
-0.00320907750681 -0.136385794039 0.867 1.84178136243e-38
-0.0016045387534 -0.136385794039 0.867 1.88784260347e-38
0.0 -0.136700409481 0.869 1.82341482372e-38
0.00160824011154 -0.136700409481 0.869 1.8419971624e-38
0.00321648022309 -0.136700409481 0.869 1.87876779462e-38
0.00483582440905 -0.137015024923 0.871 1.84192779812e-38
0.00644776587873 -0.137015024923 0.871 1.83274200643e-38
0.00805970734842 -0.137015024923 0.871 1.83281193122e-38
0.00969385696694 -0.137329640365 0.873 1.83277731915e-38
0.0113354093017 -0.137644255807 0.875 1.86954823163e-38
0.0129547534877 -0.137644255807 0.875 1.86958298383e-38
0.0146240660085 -0.13811617897 0.878 1.85096617322e-38
0.0162859758131 -0.138430794411 0.88 1.90632012502e-38
0.0179145733944 -0.138430794411 0.88 2.0909613764e-38
0.0195875872734 -0.138745409853 0.882 3.03057137321e-39
0.0212198862128 -0.138745409853 0.882 2.10194769649e-44
0.0229299136732 -0.139217333016 0.885 1.65312861395e-39
0.0245677646499 -0.139217333016 0.885 1.74531583602e-39
0.0262648373568 -0.139531948458 0.887 3.92363570011e-44
0.0279063896916 -0.139531948458 0.887 1.92469955568e-38
0.0296145664729 -0.1398465639 0.889 1.90685738286e-38
0.0312598201658 -0.1398465639 0.889 1.8787672341e-38
0.0329791010215 -0.140161179342 0.891 1.87851766284e-38
0.0346280560726 -0.140161179342 0.891 1.91557317904e-38
0.0363991559423 -0.140633102504 0.894 1.98936723773e-38
0.0380536630306 -0.140633102504 0.894 1.89695454674e-38
0.0397970027142 -0.140947717946 0.896 1.90628172945e-38
0.0414552111606 -0.140947717946 0.896 1.89713433333e-38
0.0431134196071 -0.140947717946 0.896 1.86015056361e-38
0.0448715647232 -0.141262333388 0.898 1.87876779462e-38
0.0466889315697 -0.141734256551 0.901 1.91535835999e-38
0.0483563934114 -0.141734256551 0.901 1.91535807973e-38
0.0501348959974 -0.142048871993 0.903 1.94305236167e-38
0.0519781723508 -0.142520795155 0.906 1.84163688856e-38
0.0536548875879 -0.142520795155 0.906 2.21916855511e-38
-0.0498572941369 -0.139600423583 0.898 1.97887781808e-38
-0.0481953843324 -0.139600423583 0.898 1.30661104553e-38
-0.046326198472 -0.138978595416 0.894 1.23343664102e-38
-0.0445217863791 -0.13851222429 0.891 1.29797190037e-38
-0.042872831328 -0.13851222429 0.891 1.1691498319e-38
-0.0411313423234 -0.138201310207 0.889 1.510168565e-38
-0.0393972560352 -0.137890396123 0.887 1.46403165385e-38
-0.0375428756073 -0.137113110914 0.882 1.3996424098e-38
-0.0358291467888 -0.13680219683 0.88 1.60218188594e-38
-0.0341228206866 -0.136491282746 0.878 1.92854541932e-39
-0.0323128565565 -0.135713997537 0.873 6.45777186896e-40
-0.030626887924 -0.135403083453 0.871 9.69250121804e-41
-0.0289483220078 -0.13509216937 0.869 1.01528557895e-39
-0.0273400818963 -0.13509216937 0.869 8.348431783e-40
-0.0256726200545 -0.134781255286 0.867 6.53667898549e-40
-0.0240680813011 -0.134781255286 0.867 3.36311631438e-44
-0.0224635425477 -0.134781255286 0.867 2.52233723578e-44
-0.0207868273105 -0.13431488416 0.864 1.09611639801e-38
-0.0191434242967 -0.134003970077 0.862 1.24323297846e-38
-0.0175481389386 -0.134003970077 0.862 1.08628320643e-38
-0.0159528535806 -0.134003970077 0.862 1.59303112671e-38
-0.0143242559993 -0.133693055993 0.86 1.89760544987e-38
-0.0127326719993 -0.133693055993 0.86 1.7775668603e-38
-0.0111410879994 -0.133693055993 0.86 1.79572082204e-38
-0.0095495039995 -0.133693055993 0.86 1.86947634502e-38
-0.00797642679028 -0.134003970077 0.862 1.8142302932e-38
-0.00638114143223 -0.134003970077 0.862 1.84185324904e-38
-0.00479696014859 -0.13431488416 0.864 1.8418535293e-38
-0.00320907750681 -0.134781255286 0.867 1.86933145076e-38
-0.0016045387534 -0.134781255286 0.867 1.87858744751e-38
0.0 -0.13509216937 0.869 1.84199870382e-38
0.00160824011154 -0.13509216937 0.869 1.8328475242e-38
0.00322388293937 -0.135403083453 0.871 1.85121672538e-38
0.00483582440905 -0.135403083453 0.871 1.7866441915e-38
0.00644776587873 -0.135403083453 0.871 1.86025776294e-38
0.00807821413911 -0.135713997537 0.873 1.87883785954e-38
0.00971606511577 -0.136024911621 0.875 1.85110826488e-38
0.0113742735622 -0.136491282746 0.878 1.89724517604e-38
0.0129991697854 -0.136491282746 0.878 1.84199660188e-38
0.0146573782318 -0.13680219683 0.88 1.92464980959e-38
0.0162859758131 -0.13680219683 0.88 1.93390496555e-38
0.0179552883339 -0.137113110914 0.882 2.06337555496e-38
0.0195875872734 -0.137113110914 0.882 7.73175956521e-39
0.0212920626966 -0.137579482039 0.885 1.8367659751e-40
0.0229299136732 -0.137579482039 0.885 1.19393151498e-39
0.024623285022 -0.137890396123 0.887 1.5612833087e-39
0.0262648373568 -0.137890396123 0.887 5.04467447157e-44
0.0279693127799 -0.138201310207 0.889 1.92437739717e-38
0.0296145664729 -0.138201310207 0.889 1.8792362487e-38
0.0312598201658 -0.138201310207 0.889 1.92486364773e-38
0.0329791010215 -0.13851222429 0.891 1.89709902061e-38
0.034744648854 -0.138978595416 0.894 1.86029307567e-38
0.0363991559423 -0.138978595416 0.894 1.85107323242e-38
0.0381387942678 -0.1392895095 0.896 1.85110826488e-38
0.0397970027142 -0.1392895095 0.896 1.86954795137e-38
0.0414552111606 -0.1392895095 0.896 1.93390468529e-38
0.0432096549187 -0.139600423583 0.898 1.87851542077e-38
0.0450214697279 -0.140066794709 0.901 1.99833442687e-38
0.0467925695976 -0.140377708793 0.903 1.88780701049e-38
0.0484637327975 -0.140377708793 0.903 1.91542898543e-38
0.0503014571137 -0.140844079918 0.906 1.98918703075e-38
0.0519781723508 -0.140844079918 0.906 1.85093114075e-38
0.0536548875879 -0.140844079918 0.906 1.93329161722e-38
-0.0500238552532 -0.138399332867 0.901 1.95136192143e-38
-0.0481953843324 -0.137938513779 0.898 1.31604570783e-38
-0.046326198472 -0.137324088328 0.894 1.27045740502e-38
-0.0445217863791 -0.136863269239 0.891 1.27049271774e-38
-0.042872831328 -0.136863269239 0.891 1.15978803711e-38
-0.0411313423234 -0.136556056514 0.889 1.51020205604e-38
-0.0393972560352 -0.136248843788 0.887 1.46385186725e-38
-0.0375428756073 -0.135480811974 0.882 1.33499434593e-38
-0.0358291467888 -0.135173599249 0.88 1.69455520045e-38
-0.0341228206866 -0.134866386523 0.878 3.67341984632e-40
-0.0323128565565 -0.134098354709 0.873 7.37625294741e-40
-0.0306972137286 -0.134098354709 0.873 5.54660556851e-40
-0.0290149464543 -0.133791141984 0.871 2.30530272833e-39
-0.0273400818963 -0.133483929258 0.869 2.39567386759e-39
-0.0257318417847 -0.133483929258 0.869 3.22298646795e-44
-0.0241236016732 -0.133483929258 0.869 2.7551910016e-40
-0.0225153615616 -0.133483929258 0.869 1.20672004502e-38
-0.0208590037943 -0.133176716533 0.867 1.28000206925e-38
-0.0191878405943 -0.132715897444 0.864 1.27045740502e-38
-0.0175481389386 -0.132408684719 0.862 1.09539585034e-38
-0.0159528535806 -0.132408684719 0.862 1.66675231788e-38
-0.0143575682225 -0.132408684719 0.862 1.8698738934e-38
-0.0127622828645 -0.132408684719 0.862 1.80508261682e-38
-0.0111669975064 -0.132408684719 0.862 1.83274228669e-38
-0.00957171214834 -0.132408684719 0.862 1.85100288724e-38
-0.00797642679028 -0.132408684719 0.862 1.85110854514e-38
-0.00638114143223 -0.132408684719 0.862 1.86954640994e-38
-0.00479696014859 -0.132715897444 0.864 2.03542749787e-38
-0.00320907750681 -0.133176716533 0.867 1.85121616486e-38
-0.00160824011154 -0.133483929258 0.869 1.85110826488e-38
0.0 -0.133483929258 0.869 1.82348671033e-38
0.00161194146968 -0.133791141984 0.871 1.97107076394e-38
0.00322388293937 -0.133791141984 0.871 1.81426560592e-38
0.00484692848347 -0.134098354709 0.873 1.97092558942e-38
0.00646257131129 -0.134098354709 0.873 1.8509308605e-38
0.00807821413911 -0.134098354709 0.873 1.90613851674e-38
0.00971606511577 -0.134405567435 0.875 1.88780757101e-38
0.0113742735622 -0.134866386523 0.878 1.83274228669e-38
0.0129991697854 -0.134866386523 0.878 1.94337606161e-38
0.0146573782318 -0.135173599249 0.88 2.02617290242e-38
0.0162859758131 -0.135173599249 0.88 1.71324698053e-38
0.0179552883339 -0.135480811974 0.882 2.02670987999e-38
0.0196542117199 -0.135941631063 0.885 1.29851112002e-38
0.0212920626966 -0.135941631063 0.885 7.34683969264e-40
0.0229817326872 -0.136248843788 0.887 2.02119366859e-39
0.024623285022 -0.136248843788 0.887 2.0215467958e-39
0.0262648373568 -0.136248843788 0.887 6.44597293589e-44
0.0279693127799 -0.136556056514 0.889 1.61152140007e-38
0.0296145664729 -0.136556056514 0.889 1.89771082752e-38
0.0313301459705 -0.136863269239 0.891 1.87865793282e-38
0.0330901417657 -0.137324088328 0.894 1.8787672341e-38
0.034744648854 -0.137324088328 0.894 1.8510379197e-38
0.0363991559423 -0.137324088328 0.894 1.87851570103e-38
0.0381387942678 -0.137631301053 0.896 1.92461141401e-38
0.0397970027142 -0.137631301053 0.896 1.91535835999e-38
0.0415477451141 -0.137938513779 0.898 1.897027134e-38
0.0434502431977 -0.138706545593 0.903 1.85107155086e-38
0.0451214063976 -0.138706545593 0.903 1.92461449687e-38
0.0467925695976 -0.138706545593 0.903 1.89692175635e-38
0.0484637327975 -0.138706545593 0.903 1.93386937257e-38
