# .PCD v0.7 - Point Cloud Data file format
VERSION 0.7
FIELDS x y z rgb
SIZE 4 4 4 4
TYPE F F F F
COUNT 1 1 1 1
WIDTH 844
HEIGHT 1
VIEWPOINT 0 0 0 1 0 0 0
POINTS 844
DATA ascii
0.0115167758506 -0.105296236348 0.889 1.53764494503e-38
0.0131324186784 -0.105059349427 0.887 1.55608435127e-38
0.0147406587899 -0.104822462506 0.885 1.57452417789e-38
0.0163785097666 -0.104822462506 0.885 1.51924183243e-38
0.0179552883339 -0.104467132125 0.882 1.54700772072e-38
0.0195431709757 -0.104230245204 0.88 1.54686450802e-38
0.021171768557 -0.104230245204 0.88 1.62051185076e-38
0.0228003661383 -0.104230245204 0.88 1.4822556805e-38
0.0244289637197 -0.104230245204 0.88 1.87876933605e-38
0.026057561301 -0.104230245204 0.88 1.92468512231e-38
0.0277490819706 -0.104467132125 0.882 1.91535709882e-38
0.0294813175799 -0.104822462506 0.885 1.93383279868e-38
0.0311191685565 -0.104822462506 0.885 1.89695454674e-38
0.0329050738588 -0.105296236348 0.889 1.97063916402e-38
0.0346280560726 -0.105533123269 0.891 2.05365208504e-38
0.0363991559423 -0.10588845365 0.894 1.86933145076e-38
0.0383516223608 -0.106717557874 0.901 2.01695011645e-38
0.0400190842026 -0.106717557874 0.901 1.95231046036e-38
0.0417790799978 -0.106954444794 0.903 1.80526254354e-38
0.0434502431977 -0.106954444794 0.903 1.33517034901e-38
0.0451214063976 -0.106954444794 0.903 1.72275352944e-38
0.0470516646673 -0.107546662097 0.908 1.14178653665e-38
0.0488394206486 -0.107783549018 0.91 1.48265000589e-38
0.0509677015787 -0.108731096701 0.918 1.99873099433e-38
0.052781367067 -0.108967983622 0.92 1.8971327919e-38
0.0544839918111 -0.108967983622 0.92 1.97071049011e-38
0.0563698337831 -0.109323314004 0.923 1.92410708669e-38
-0.0518005071601 -0.108781065036 0.933 2.14566400468e-38
-0.0500738235881 -0.108781065036 0.933 2.21949253531e-38
-0.0483471400161 -0.108781065036 0.933 2.10921959474e-38
-0.0464705514394 -0.108431286692 0.93 1.48178904812e-38
-0.0447494199046 -0.108431286692 0.93 1.57473899694e-38
-0.0429357544164 -0.108198101129 0.928 1.53775284502e-38
-0.0412183242397 -0.108198101129 0.928 1.55629931045e-38
-0.0393731972073 -0.107848322785 0.925 1.60221719866e-38
-0.0376613190678 -0.107848322785 0.925 1.79597249524e-38
-0.0358717124074 -0.107615137222 0.923 1.01019045774e-39
-0.0341635356261 -0.107615137222 0.923 1.6030085119e-38
-0.0324553588448 -0.107615137222 0.923 1.37753244237e-39
-0.0306472453938 -0.107265358878 0.92 1.2993157456e-38
-0.0289446206497 -0.107265358878 0.92 1.69495457051e-38
-0.0271827741753 -0.107032173315 0.918 8.0933898573e-39
-0.0254005702312 -0.106682394971 0.915 1.85172147309e-38
-0.0237071988825 -0.106682394971 0.915 9.1835496158e-40
-0.0220860040175 -0.107032173315 0.918 1.50196031912e-38
-0.0203870806315 -0.107032173315 0.918 8.08911169309e-39
-0.0186270848362 -0.106682394971 0.915 1.74072420134e-38
-0.0169337134875 -0.106682394971 0.915 1.05794726992e-38
-0.0152403421387 -0.106682394971 0.915 6.53508711043e-39
-0.0135173599249 -0.106449209408 0.913 3.5848339613e-39
-0.0117888256738 -0.106099431064 0.91 1.75902039487e-38
-0.0100824995716 -0.105866245501 0.908 1.20595073217e-38
-0.00840208297631 -0.105866245501 0.908 1.16112039169e-38
-0.00670686094849 -0.105633059939 0.906 1.19807109077e-38
-0.00503014571137 -0.105633059939 0.906 1.55680307725e-38
-0.00334232639983 -0.105283281595 0.903 1.50090766371e-38
-0.00167116319991 -0.105283281595 0.903 1.55608435127e-38
0.0 -0.105050096032 0.901 1.56537453969e-38
0.00166746184177 -0.105050096032 0.901 1.51012918852e-38
0.00332381960913 -0.104700317688 0.898 1.58370450452e-38
0.00498572941369 -0.104700317688 0.898 1.54689982074e-38
0.0066328337857 -0.104467132125 0.896 1.50108969238e-38
0.00827253544143 -0.104233946562 0.894 1.51924183243e-38
0.00989373030646 -0.103884168218 0.891 1.57455921035e-38
0.0115167758506 -0.103650982655 0.889 1.59317714201e-38
0.0131324186784 -0.103417797092 0.887 1.54689982074e-38
0.0147406587899 -0.10318461153 0.885 1.54679262141e-38
0.0163785097666 -0.10318461153 0.885 1.51002198919e-38
0.0180163607432 -0.10318461153 0.885 1.56533922697e-38
0.0195875872734 -0.102834833185 0.882 1.54693751567e-38
0.021171768557 -0.102601647623 0.88 1.62044122532e-38
0.0228003661383 -0.102601647623 0.88 1.49147580401e-38
0.0244844840917 -0.102834833185 0.882 1.85114609994e-38
0.0261167830312 -0.102834833185 0.882 1.98007508749e-38
0.0277490819706 -0.102834833185 0.882 1.94312326737e-38
0.0294813175799 -0.10318461153 0.885 1.99840505231e-38
0.0311894943612 -0.103417797092 0.887 1.93386839166e-38
0.0329050738588 -0.103650982655 0.889 1.98907800973e-38
0.034744648854 -0.104233946562 0.894 1.93386839166e-38
0.0363991559423 -0.104233946562 0.894 1.99847932113e-38
0.0383516223608 -0.105050096032 0.901 1.83284920576e-38
0.0401079167979 -0.105283281595 0.903 1.27028042103e-38
0.041917880928 -0.105633059939 0.906 1.58345409248e-38
0.0434502431977 -0.105283281595 0.903 1.69520217995e-38
0.0451214063976 -0.105283281595 0.903 1.06806310341e-38
0.0471553026952 -0.106099431064 0.91 1.61140565282e-38
0.0490004297277 -0.106449209408 0.913 1.9895506677e-38
0.0510787423229 -0.107265358878 0.92 1.9892924084e-38
0.052781367067 -0.107265358878 0.92 1.92482805475e-38
0.0546616570018 -0.107615137222 0.923 1.94305404323e-38
0.0563698337831 -0.107615137222 0.923 1.85953329164e-38
-0.0519115479043 -0.107283865669 0.935 2.16410453195e-38
-0.0501811629741 -0.107283865669 0.935 2.19172902923e-38
-0.0483471400161 -0.107054381464 0.933 2.11836853228e-38
-0.0466204564441 -0.107054381464 0.933 1.52806510821e-38
-0.0447494199046 -0.106710155157 0.93 1.56548384097e-38
-0.0430282883699 -0.106710155157 0.93 1.57473899694e-38
-0.0412183242397 -0.106480670953 0.928 1.58388597267e-38
-0.0395008940631 -0.106480670953 0.928 1.5931010515e-38
-0.0376613190678 -0.106136444646 0.925 1.70381035641e-38
-0.0359494409284 -0.106136444646 0.925 6.80909981475e-39
-0.0341635356261 -0.105906960441 0.923 1.79597880109e-38
-0.0324553588448 -0.105906960441 0.923 6.9949232015e-39
-0.0307471820635 -0.105906960441 0.923 1.54744856922e-38
-0.0289446206497 -0.105562734134 0.92 1.75026774453e-38
-0.0272419959056 -0.105562734134 0.92 1.01019045774e-39
-0.0254838507894 -0.105333249929 0.918 1.67733954816e-38
-0.0237849274034 -0.105333249929 0.918 1.37753244237e-39
-0.0220860040175 -0.105333249929 0.918 1.6035845857e-38
-0.0203870806315 -0.105333249929 0.918 1.04015204059e-38
-0.0186270848362 -0.104989023622 0.915 1.62105191119e-38
-0.0169337134875 -0.104989023622 0.915 1.02085167658e-38
-0.0152403421387 -0.104989023622 0.915 9.02222793269e-39
-0.0135173599249 -0.104759539418 0.913 4.23951499864e-39
-0.0117888256738 -0.104415313111 0.91 1.19707238536e-38
-0.0100824995716 -0.104185828906 0.908 3.94896837375e-39
-0.00840208297631 -0.104185828906 0.908 1.04606930362e-41
-0.00672166638105 -0.104185828906 0.908 9.8688378142e-39
-0.00503014571137 -0.103956344702 0.906 1.52003118386e-38
-0.00335343047424 -0.103956344702 0.906 1.53778815774e-38
-0.00167116319991 -0.103612118395 0.903 1.5653046149e-38
0.0 -0.103612118395 0.903 1.54686450802e-38
0.00166746184177 -0.10338263419 0.901 1.54700772072e-38
0.00333492368355 -0.10338263419 0.901 1.53778815774e-38
0.00498572941369 -0.103038407883 0.898 1.54700772072e-38
0.0066328337857 -0.102808923678 0.896 1.54700772072e-38
0.00827253544143 -0.102579439474 0.894 1.52853328203e-38
0.00992704252972 -0.102579439474 0.894 1.55619028943e-38
0.0115426853575 -0.102235213167 0.891 1.46414151565e-38
0.0131620295435 -0.102005728962 0.889 1.62065688515e-38
0.0147739710132 -0.101776244757 0.887 1.5283885279e-38
0.016415523348 -0.101776244757 0.887 1.52845915334e-38
0.0180163607432 -0.101546760553 0.885 1.62983987425e-38
0.0195875872734 -0.101202534246 0.882 1.50083759879e-38
0.0212198862128 -0.101202534246 0.882 1.55597364869e-38
0.0228521851523 -0.101202534246 0.882 1.4822556805e-38
0.0244844840917 -0.101202534246 0.882 1.87880254682e-38
0.0261167830312 -0.101202534246 0.882 1.89727922759e-38
0.0278434666032 -0.101546760553 0.885 1.90620914219e-38
0.0295479420264 -0.101776244757 0.887 1.99836973959e-38
0.0312598201658 -0.102005728962 0.889 1.96159910736e-38
0.0329791010215 -0.102235213167 0.891 1.89713405307e-38
0.034744648854 -0.102579439474 0.894 1.99862029175e-38
0.0363991559423 -0.102579439474 0.894 1.4823335927e-38
0.038436753598 -0.103612118395 0.903 1.20563978404e-38
0.0401079167979 -0.103612118395 0.903 1.68584220685e-38
0.041917880928 -0.103956344702 0.906 1.67637447391e-38
0.0435945961652 -0.103956344702 0.906 1.24312185549e-38
0.0453712480721 -0.104185828906 0.908 1.85151310001e-38
0.0473107597371 -0.104759539418 0.913 1.96210441559e-38
0.0491077691137 -0.104989023622 0.915 1.99858680072e-38
0.0512453034392 -0.105906960441 0.923 1.56534090853e-38
0.0529534802205 -0.105906960441 0.923 1.92511700249e-38
0.0546616570018 -0.105906960441 0.923 1.86929613804e-38
0.0563698337831 -0.105906960441 0.923 1.85020260568e-38
-0.0501811629741 -0.105553480739 0.935 2.21942190987e-38
-0.0483471400161 -0.105327697892 0.933 2.15528153643e-38
-0.0466204564441 -0.105327697892 0.933 1.38033630047e-38
-0.0448937728721 -0.105327697892 0.933 1.60218188594e-38
-0.0430282883699 -0.104989023622 0.93 1.59317770253e-38
-0.0412183242397 -0.104763240776 0.928 1.57470368422e-38
-0.0395008940631 -0.104763240776 0.928 1.5747740294e-38
-0.0376613190678 -0.104424566506 0.925 1.60239670499e-38
-0.0359494409284 -0.104424566506 0.925 1.39041738175e-38
-0.0341635356261 -0.10419878366 0.923 1.64845065928e-38
-0.0324553588448 -0.10419878366 0.923 1.18776678264e-38
-0.0307471820635 -0.10419878366 0.923 9.74460710014e-39
-0.0289446206497 -0.10386010939 0.92 1.87852116609e-38
-0.0272419959056 -0.10386010939 0.92 1.28569694621e-39
-0.0255393711615 -0.10386010939 0.92 1.71425521478e-38
-0.0238367464174 -0.10386010939 0.92 4.32164930553e-39
-0.0221341216733 -0.10386010939 0.92 1.61198004506e-38
-0.0203870806315 -0.103634326543 0.918 1.10365258115e-38
-0.0186881572455 -0.103634326543 0.918 1.17897881958e-38
-0.0169892338596 -0.103634326543 0.918 1.03158085841e-38
-0.0152403421387 -0.103295652274 0.915 7.83590967227e-39
-0.0135173599249 -0.103069869427 0.913 8.85035307085e-39
-0.0118276899343 -0.103069869427 0.913 9.02329712342e-39
-0.0101047077204 -0.102731195157 0.91 9.94417722483e-39
-0.00840208297631 -0.102505412311 0.908 2.4874673248e-39
-0.00672166638105 -0.102505412311 0.908 1.34487097776e-38
-0.00504124978578 -0.102505412311 0.908 1.57491808289e-38
-0.00335343047424 -0.102279629464 0.906 1.51927714515e-38
-0.00167671523712 -0.102279629464 0.906 1.59288903504e-38
0.0 -0.101940955195 0.903 1.55604749712e-38
0.00167116319991 -0.101940955195 0.903 1.57455921035e-38
0.00333492368355 -0.101715172348 0.901 1.57459452307e-38
0.00498572941369 -0.101376498078 0.898 1.61147235463e-38
0.0066328337857 -0.101150715232 0.896 1.5560830901e-38
0.00827253544143 -0.100924932385 0.894 1.51924183243e-38
0.00992704252972 -0.100924932385 0.894 1.5928184096e-38
0.0115426853575 -0.100586258116 0.891 1.53764494503e-38
0.0131620295435 -0.100360475269 0.889 1.53778815774e-38
0.0147739710132 -0.100134692423 0.887 1.54707834617e-38
0.016415523348 -0.100134692423 0.887 1.55615497671e-38
0.0180570756828 -0.100134692423 0.887 1.57459452307e-38
0.0196542117199 -0.0999089095762 0.885 1.56537622125e-38
0.0212198862128 -0.0995702353064 0.882 1.61143676165e-38
0.0228521851523 -0.0995702353064 0.882 1.46399634112e-38
0.0245677646499 -0.0999089095762 0.885 1.97089209839e-38
0.0262056156265 -0.0999089095762 0.885 1.95256059214e-38
0.0279063896916 -0.100134692423 0.887 1.97092460851e-38
0.0295479420264 -0.100134692423 0.887 1.97074608309e-38
0.0312598201658 -0.100360475269 0.889 1.98018074539e-38
0.0329791010215 -0.100586258116 0.891 1.98018074539e-38
0.034744648854 -0.100924932385 0.894 2.03553343603e-38
0.0364805858214 -0.101150715232 0.896 1.45456602285e-38
0.0385644504538 -0.102279629464 0.906 1.7595618566e-38
0.0402411656909 -0.102279629464 0.906 1.16958143182e-38
0.041917880928 -0.102279629464 0.906 1.68573682921e-38
0.0435945961652 -0.102279629464 0.906 1.5010193472e-38
0.0453712480721 -0.102505412311 0.908 1.89724517604e-38
0.0471553026952 -0.102731195157 0.91 1.89760488936e-38
0.0492687781928 -0.103634326543 0.918 1.6666106466e-38
0.0512453034392 -0.10419878366 0.923 1.59295909996e-38
0.0529534802205 -0.10419878366 0.923 1.92515497768e-38
0.0546616570018 -0.10419878366 0.923 1.97074580283e-38
0.0563698337831 -0.10419878366 0.923 2.13615143018e-38
-0.0501811629741 -0.103823095809 0.935 2.21942443221e-38
-0.048450778044 -0.103823095809 0.935 2.15528181669e-38
-0.0466204564441 -0.10360101432 0.933 1.44498142161e-38
-0.0448937728721 -0.10360101432 0.933 1.6023253789e-38
-0.0431670893001 -0.10360101432 0.933 1.60239698525e-38
-0.0413071568351 -0.103267892088 0.93 1.56541097345e-38
-0.0395008940631 -0.103045810599 0.928 1.55633490343e-38
-0.0377834638864 -0.103045810599 0.928 1.65767778928e-38
-0.0359494409284 -0.102712688367 0.925 1.62080121889e-38
-0.0342375627889 -0.102712688367 0.925 1.37248370413e-38
-0.0324553588448 -0.102490606878 0.923 1.59389839033e-38
-0.0307471820635 -0.102490606878 0.923 1.48279476002e-38
-0.0290390052822 -0.102490606878 0.923 1.63952747092e-38
-0.0273308285009 -0.102490606878 0.923 1.26206502852e-38
-0.0255393711615 -0.102157484646 0.92 1.58453561464e-38
-0.0238367464174 -0.102157484646 0.92 1.32591939694e-38
-0.0221341216733 -0.102157484646 0.92 1.63005217096e-38
-0.0204314969292 -0.102157484646 0.92 1.65720877468e-38
-0.0186881572455 -0.101935403157 0.918 6.99528193391e-39
-0.0169892338596 -0.101935403157 0.918 7.18698516902e-39
-0.0152903104736 -0.101935403157 0.918 4.33358276325e-39
-0.01354697079 -0.101602280925 0.915 8.56842583281e-39
-0.0118276899343 -0.101380199437 0.913 1.79586978007e-38
-0.0101047077204 -0.101047077204 0.91 1.2709230565e-38
-0.008420589767 -0.101047077204 0.91 7.08863363501e-39
-0.00672166638105 -0.100824995716 0.908 1.46479564177e-38
-0.00504124978578 -0.100824995716 0.908 1.54740078494e-38
-0.00335343047424 -0.100602914227 0.906 1.56533894671e-38
-0.00167671523712 -0.100602914227 0.906 1.56533950723e-38
0.0 -0.100602914227 0.906 1.53771781255e-38
0.00167116319991 -0.100269791995 0.903 1.56541153397e-38
0.00333492368355 -0.100047710506 0.901 1.54697044618e-38
0.00498572941369 -0.0997145882739 0.898 1.58374079815e-38
0.0066328337857 -0.0994925067855 0.896 1.53760809088e-38
0.00829104223213 -0.0994925067855 0.896 1.54686296659e-38
0.00992704252972 -0.0992704252972 0.894 1.57459424281e-38
0.011581549618 -0.0992704252972 0.894 1.56533894671e-38
0.0131916404086 -0.0989373030646 0.891 1.53782375072e-38
0.0148072832364 -0.0987152215763 0.889 1.54714869135e-38
0.0164525369294 -0.0987152215763 0.889 1.56537453969e-38
0.0180570756828 -0.0984931400879 0.887 1.55611938373e-38
0.0196986280176 -0.0984931400879 0.887 1.54689982074e-38
0.0212920626966 -0.0982710585995 0.885 1.59289043634e-38
0.0229299136732 -0.0982710585995 0.885 1.5653046149e-38
0.0245677646499 -0.0982710585995 0.885 1.86025776294e-38
0.0262648373568 -0.0984931400879 0.887 1.90631704217e-38
0.0279063896916 -0.0984931400879 0.887 1.89716908553e-38
0.0296145664729 -0.0987152215763 0.889 1.98932996319e-38
0.0313301459705 -0.0989373030646 0.891 1.97099747603e-38
0.0330901417657 -0.0992704252972 0.894 2.01702564643e-38
0.034744648854 -0.0992704252972 0.894 1.98021703902e-38
0.0364805858214 -0.0994925067855 0.896 1.30719314491e-38
0.0385644504538 -0.100602914227 0.906 1.52842958594e-38
0.0402411656909 -0.100602914227 0.906 1.54780057539e-38
0.041917880928 -0.100602914227 0.906 1.59396901577e-38
0.0436908314768 -0.100824995716 0.908 1.74065525746e-38
0.0453712480721 -0.100824995716 0.908 1.86079502078e-38
0.0471553026952 -0.101047077204 0.91 1.09475069253e-38
0.0492687781928 -0.101935403157 0.918 1.91564506566e-38
0.0512453034392 -0.102490606878 0.923 1.32538269963e-38
0.0530682223228 -0.102712688367 0.925 2.03546407176e-38
0.0547801004623 -0.102712688367 0.925 1.88770191311e-38
-0.0503421720532 -0.102420281074 0.938 2.25633631531e-38
-0.048450778044 -0.102092710878 0.935 2.19212545656e-38
-0.0467203931138 -0.102092710878 0.935 1.41742965173e-38
-0.0448937728721 -0.101874330748 0.933 1.620797015e-38
-0.0431670893001 -0.101874330748 0.933 1.62072666981e-38
-0.0413071568351 -0.101546760553 0.93 1.61154466163e-38
-0.0395860253003 -0.101546760553 0.93 1.59303519047e-38
-0.0377834638864 -0.101328380423 0.928 1.59303070632e-38
-0.0359494409284 -0.101000810227 0.925 1.80522779134e-38
-0.0342375627889 -0.101000810227 0.925 1.47367272741e-39
-0.0325256846495 -0.101000810227 0.925 1.74201872086e-38
-0.0307471820635 -0.100782430097 0.923 3.39791335785e-39
-0.0290390052822 -0.100782430097 0.923 1.59404076225e-38
-0.0273308285009 -0.100782430097 0.923 1.67622425472e-38
-0.0255393711615 -0.100454859902 0.92 1.36304637937e-38
-0.0238367464174 -0.100454859902 0.92 1.10555120044e-38
-0.022206298157 -0.100782430097 0.923 1.69520217995e-38
-0.0204314969292 -0.100454859902 0.92 1.41843774584e-38
-0.0186881572455 -0.100236479772 0.918 1.52939872396e-38
-0.0169892338596 -0.100236479772 0.918 1.4740065167e-38
-0.0152903104736 -0.100236479772 0.918 1.44649286214e-38
-0.01354697079 -0.0999089095762 0.915 1.39081366896e-38
-0.0118276899343 -0.099690529446 0.913 1.63019832639e-38
-0.0101047077204 -0.0993629592506 0.91 1.44594775703e-38
-0.008420589767 -0.0993629592506 0.91 1.11372903815e-38
-0.00672166638105 -0.0991445791204 0.908 9.93904006466e-39
-0.00504124978578 -0.0991445791204 0.908 1.68534292421e-38
-0.00335343047424 -0.0989261989902 0.906 1.57474053837e-38
-0.00167671523712 -0.0989261989902 0.906 1.5746308167e-38
0.0 -0.0989261989902 0.906 1.5470433137e-38
0.00167116319991 -0.0985986287949 0.903 1.57466612942e-38
0.00334232639983 -0.0985986287949 0.903 1.56537453969e-38
0.00498572941369 -0.0980526784693 0.898 1.56544656644e-38
0.00664763921826 -0.0980526784693 0.898 1.55626455825e-38
0.00829104223213 -0.0978342983391 0.896 1.54700772072e-38
0.00994925067855 -0.0978342983391 0.896 1.53775284502e-38
0.011581549618 -0.0976159182089 0.894 1.52849824957e-38
0.0132360567063 -0.0976159182089 0.894 1.53778815774e-38
0.0148405954597 -0.0972883480135 0.891 1.56541097345e-38
0.0164525369294 -0.0970699678833 0.889 1.5929254688e-38
0.0180977906223 -0.0970699678833 0.889 1.59317560058e-38
0.0196986280176 -0.0968515877531 0.887 1.56555474668e-38
0.0213401803524 -0.0968515877531 0.887 1.59292574906e-38
0.0229817326872 -0.0968515877531 0.887 1.48218533532e-38
0.024623285022 -0.0968515877531 0.887 1.93394027828e-38
0.0262648373568 -0.0968515877531 0.887 1.90635515749e-38
0.0279693127799 -0.0970699678833 0.889 1.97074608309e-38
0.0296811909194 -0.0972883480135 0.891 1.98011180151e-38
0.0314356346774 -0.0976159182089 0.894 1.88820119575e-38
0.0330901417657 -0.0976159182089 0.894 1.70374001123e-38
0.0348223773749 -0.0978342983391 0.896 1.22400309976e-38
0.0365620157004 -0.0980526784693 0.898 1.74097054961e-38
0.0385644504538 -0.0989261989902 0.906 1.75913151784e-38
0.0402411656909 -0.0989261989902 0.906 1.39013600102e-38
0.0420104148815 -0.0991445791204 0.908 1.87009095453e-38
0.0436908314768 -0.0991445791204 0.908 1.5009484415e-38
0.0454711847418 -0.0993629592506 0.91 1.41772084155e-38
0.047414397765 -0.0999089095762 0.915 1.78696845196e-38
0.0493761175788 -0.100454859902 0.92 1.21525016916e-38
0.0510787423229 -0.100454859902 0.92 2.03539428709e-38
0.0530682223228 -0.101000810227 0.925 1.94340983291e-38
0.0547801004623 -0.101000810227 0.925 1.86915110365e-38
0.0564919786017 -0.101000810227 0.925 1.89593692379e-38
-0.0520781090205 -0.100684344106 0.938 2.15495783648e-38
-0.0503421720532 -0.100684344106 0.938 2.34867627892e-38
-0.048450778044 -0.100362325948 0.935 2.17375597512e-38
-0.0467203931138 -0.100362325948 0.935 1.52817230754e-38
-0.0449900081837 -0.100362325948 0.935 1.56537650151e-38
-0.0431670893001 -0.100147647176 0.933 1.58377877334e-38
-0.0414404057281 -0.100147647176 0.933 1.56541153397e-38
-0.0395860253003 -0.0998256290181 0.93 1.59289043634e-38
-0.0378648937655 -0.0998256290181 0.93 1.59310581591e-38
-0.0360660337097 -0.099610950246 0.928 1.79590060863e-38
-0.0342375627889 -0.0992889320879 0.925 1.378967372e-39
-0.0325256846495 -0.0992889320879 0.925 1.83382380884e-38
-0.0307471820635 -0.0990742533158 0.923 1.74488283479e-39
-0.0290390052822 -0.0990742533158 0.923 1.57606812854e-38
-0.0273308285009 -0.0990742533158 0.923 1.65760870527e-38
-0.0256226517196 -0.0990742533158 0.923 1.12341130989e-38
-0.0239144749383 -0.0990742533158 0.923 3.92363570011e-44
-0.022206298157 -0.0990742533158 0.923 1.85214354419e-38
-0.0204981213757 -0.0990742533158 0.923 3.39791335785e-39
-0.0187288721851 -0.0987522351576 0.92 1.93355337977e-38
-0.017026247441 -0.0987522351576 0.92 2.02038091548e-39
-0.0152903104736 -0.0985375563856 0.918 1.28068758446e-38
-0.01354697079 -0.0982155382274 0.915 1.57480906187e-38
-0.0118276899343 -0.0980008594554 0.913 1.60258111587e-38
-0.0101380199437 -0.0980008594554 0.913 1.64842263331e-38
-0.008420589767 -0.0976788412972 0.91 1.35379570755e-38
-0.00672166638105 -0.0974641625252 0.908 1.4098301299e-38
-0.00504124978578 -0.0974641625252 0.908 1.52917801945e-38
-0.00336083319052 -0.0974641625252 0.908 1.53753648453e-38
-0.00167671523712 -0.0972494837531 0.906 1.55601246465e-38
0.0 -0.0972494837531 0.906 1.53775284502e-38
0.00167671523712 -0.0972494837531 0.906 1.53775284502e-38
0.00334232639983 -0.096927465595 0.903 1.56541097345e-38
0.00500238552532 -0.0967127868229 0.901 1.46428192575e-38
0.00664763921826 -0.0963907686647 0.898 1.50101878668e-38
0.00830954902282 -0.0963907686647 0.898 1.53775284502e-38
0.00994925067855 -0.0961760898927 0.896 1.54697282839e-38
0.011607459125 -0.0961760898927 0.896 1.56541097345e-38
0.0132360567063 -0.0959614111206 0.894 1.57466612942e-38
0.0148405954597 -0.0956393929625 0.891 1.52856859475e-38
0.0164525369294 -0.0954247141904 0.889 1.58381408606e-38
0.0180977906223 -0.0954247141904 0.889 1.54704303344e-38
0.0197430443153 -0.0954247141904 0.889 1.58392100513e-38
0.0213882980082 -0.0954247141904 0.889 1.52856887501e-38
0.0230335517011 -0.0954247141904 0.889 1.55601400608e-38
0.0246788053941 -0.0954247141904 0.889 1.93408615345e-38
0.026324059087 -0.0954247141904 0.889 1.95248674371e-38
0.0279693127799 -0.0954247141904 0.889 1.98003599126e-38
0.0297811275891 -0.0959614111206 0.894 1.96166973281e-38
0.0314356346774 -0.0959614111206 0.894 1.15925512331e-38
0.0331641689285 -0.0961760898927 0.896 1.45434517821e-38
0.0348223773749 -0.0961760898927 0.896 1.97093007358e-38
0.0367655903981 -0.096927465595 0.903 1.96188749459e-38
0.0385644504538 -0.0972494837531 0.906 1.88801986773e-38
0.0402411656909 -0.0972494837531 0.906 1.9526665303e-38
0.0420104148815 -0.0974641625252 0.908 1.66686203955e-38
0.0436908314768 -0.0974641625252 0.908 1.74951188414e-38
0.0456210897465 -0.0980008594554 0.913 1.68548067185e-38
0.0475698548068 -0.0985375563856 0.918 1.28914862459e-38
0.0493761175788 -0.0987522351576 0.92 1.99851617528e-38
0.0510787423229 -0.0987522351576 0.92 1.9617063067e-38
0.0530682223228 -0.0992889320879 0.925 1.92479470385e-38
0.0547801004623 -0.0992889320879 0.925 1.88766267675e-38
0.0564919786017 -0.0992889320879 0.925 1.84980365601e-38
-0.0520781090205 -0.098948407139 0.938 2.22871434037e-38
-0.0503421720532 -0.098948407139 0.938 2.28396165337e-38
-0.0486062350858 -0.098948407139 0.938 2.21059919461e-38
-0.0467203931138 -0.0986319410181 0.935 1.50969730833e-38
-0.0449900081837 -0.0986319410181 0.935 1.59310707708e-38
-0.0432596232536 -0.0986319410181 0.935 1.6023253789e-38
-0.0414404057281 -0.0984209636042 0.933 1.62994791436e-38
-0.0397137221561 -0.0984209636042 0.933 1.61143676165e-38
-0.0378648937655 -0.0981044974833 0.93 1.62069163735e-38
-0.0360660337097 -0.0978935200693 0.928 1.85121616486e-38
-0.0342375627889 -0.0975770539484 0.925 2.75506488474e-40
-0.0325256846495 -0.0975770539484 0.925 1.88821562913e-38
-0.03081380651 -0.0975770539484 0.925 1.01019045774e-39
-0.0291019283706 -0.0975770539484 0.925 1.65865015028e-38
-0.0273308285009 -0.0973660765345 0.923 1.70377504369e-38
-0.0256226517196 -0.0973660765345 0.923 1.48290041793e-38
-0.0239144749383 -0.0973660765345 0.923 5.78675869802e-39
-0.0222544158128 -0.0975770539484 0.925 1.58392703071e-38
-0.0204981213757 -0.0973660765345 0.923 5.05097190687e-39
-0.0187899445944 -0.0973660765345 0.923 1.81334186997e-38
-0.017026247441 -0.0970496104135 0.92 1.01234285218e-39
-0.0153236226969 -0.0970496104135 0.92 1.17077309604e-38
-0.01354697079 -0.0965221668787 0.915 1.34300739094e-38
-0.0118535994412 -0.0965221668787 0.915 1.7226481518e-38
-0.0101380199437 -0.0963111894648 0.913 1.16010977524e-38
-0.00844834995305 -0.0963111894648 0.913 5.32651202651e-39
-0.0067364718136 -0.0959947233438 0.91 2.38772430141e-39
-0.00504124978578 -0.0957837459299 0.908 1.4189765451e-38
-0.00336083319052 -0.0957837459299 0.908 1.51941755526e-38
-0.00168041659526 -0.0957837459299 0.908 1.41847431973e-38
0.0 -0.095572768516 0.906 1.54729638821e-38
0.00167671523712 -0.095572768516 0.906 1.51038086172e-38
0.00335343047424 -0.095572768516 0.906 1.51952909862e-38
0.00501348959974 -0.095256302395 0.903 1.51953049991e-38
0.00664763921826 -0.0947288588602 0.898 1.51952881836e-38
0.00830954902282 -0.0947288588602 0.898 1.50101878668e-38
0.00994925067855 -0.0945178814462 0.896 1.52853356229e-38
0.011607459125 -0.0945178814462 0.896 1.54700772072e-38
0.0132360567063 -0.0943069040323 0.894 1.57466640968e-38
0.0148405954597 -0.0939904379114 0.891 1.58385065995e-38
0.0164895505108 -0.0939904379114 0.891 1.57466865176e-38
0.0180977906223 -0.0937794604974 0.889 1.55629931045e-38
0.0197430443153 -0.0937794604974 0.889 1.53792912836e-38
0.0213882980082 -0.0937794604974 0.889 1.62994847488e-38
0.0230335517011 -0.0937794604974 0.889 1.6300213424e-38
0.0246788053941 -0.0937794604974 0.889 1.85132490562e-38
0.026324059087 -0.0937794604974 0.889 1.90639018995e-38
0.0279693127799 -0.0937794604974 0.889 2.01698837189e-38
0.0297811275891 -0.0943069040323 0.894 1.90635361606e-38
0.0314356346774 -0.0943069040323 0.894 1.83281221148e-38
0.0331641689285 -0.0945178814462 0.896 1.98954702433e-38
0.0349001058959 -0.0947288588602 0.898 2.09978437192e-38
0.0367655903981 -0.095256302395 0.903 2.03535743294e-38
0.0385644504538 -0.095572768516 0.906 1.40856559816e-38
0.0402411656909 -0.095572768516 0.906 1.46309656738e-38
0.0420104148815 -0.0957837459299 0.908 1.85132938978e-38
0.0436908314768 -0.0957837459299 0.908 1.44588497886e-38
0.0457210264162 -0.0965221668787 0.915 1.67619076368e-38
0.0476734928347 -0.0970496104135 0.92 1.8149158084e-38
0.0493761175788 -0.0970496104135 0.92 1.91604009169e-38
0.0512453034392 -0.0973660765345 0.923 1.89706216646e-38
0.0530682223228 -0.0975770539484 0.925 1.97996592634e-38
0.0547801004623 -0.0975770539484 0.925 1.83231026637e-38
-0.0520781090205 -0.0972124701717 0.938 2.28392409857e-38
-0.0503421720532 -0.0972124701717 0.938 2.3209450027e-38
-0.0486062350858 -0.0972124701717 0.938 2.11843915772e-38
-0.0467203931138 -0.096901556088 0.935 1.51862848409e-38
-0.0449900081837 -0.096901556088 0.935 1.59310707708e-38
-0.0432596232536 -0.096901556088 0.935 1.60232509864e-38
-0.0414404057281 -0.0966942800322 0.933 1.66686203955e-38
-0.0397137221561 -0.0966942800322 0.933 1.59310707708e-38
-0.0379870385841 -0.0966942800322 0.933 1.62987588762e-38
-0.0361437622307 -0.0963833659485 0.93 1.82341230138e-38
-0.0343486035331 -0.0961760898927 0.928 3.03164757043e-39
-0.0325256846495 -0.095865175809 0.925 9.75041548227e-39
-0.03081380651 -0.095865175809 0.925 6.42848473106e-40
-0.0291019283706 -0.095865175809 0.925 1.30727357945e-38
-0.0273900502311 -0.095865175809 0.925 1.07630484032e-38
-0.0256226517196 -0.0956578997532 0.923 1.47339793278e-38
-0.0239144749383 -0.0956578997532 0.923 1.35286706706e-38
-0.0222544158128 -0.095865175809 0.925 2.75506488474e-39
-0.0205425376733 -0.095865175809 0.925 1.4542141568e-38
-0.0187899445944 -0.0956578997532 0.923 1.27957579426e-38
-0.0170817678131 -0.0956578997532 0.923 1.65698498732e-39
-0.0153236226969 -0.0953469856695 0.92 1.62109268897e-38
-0.01354697079 -0.0948287955299 0.915 1.18623404238e-38
-0.0118535994412 -0.0948287955299 0.915 1.70431636529e-38
-0.0101380199437 -0.0946215194741 0.913 6.34848740433e-39
-0.00844834995305 -0.0946215194741 0.913 1.82235207896e-38
-0.0067364718136 -0.0943106053904 0.91 2.20405190779e-39
-0.0050523538602 -0.0943106053904 0.91 1.29923208808e-38
-0.00336083319052 -0.0941033293346 0.908 1.14096061134e-38
-0.00168041659526 -0.0941033293346 0.908 7.36983219784e-39
0.0 -0.0941033293346 0.908 1.63877525391e-38
0.00167671523712 -0.0938960532788 0.906 1.53782515202e-38
0.00335343047424 -0.0938960532788 0.906 1.52853328203e-38
0.00501348959974 -0.0935851391951 0.903 1.51924183243e-38
0.00666984736709 -0.0933778631393 0.901 1.52881886666e-38
0.00830954902282 -0.0930669490556 0.898 1.51034456809e-38
0.00994925067855 -0.0928596729998 0.896 1.56544656644e-38
0.011607459125 -0.0928596729998 0.896 1.61157619084e-38
0.0132360567063 -0.092652396944 0.894 1.52856859475e-38
0.0148405954597 -0.0923414828603 0.891 1.58388597267e-38
0.0164895505108 -0.0923414828603 0.891 1.58385065995e-38
0.0180977906223 -0.0921342068045 0.889 1.5655191537e-38
0.0197430443153 -0.0921342068045 0.889 1.52882040808e-38
0.0213882980082 -0.0921342068045 0.889 1.54697310865e-38
0.0230335517011 -0.0921342068045 0.889 1.65750206645e-38
0.0246788053941 -0.0921342068045 0.889 1.85128805147e-38
0.026324059087 -0.0921342068045 0.889 1.95252401825e-38
0.0280322358683 -0.0923414828603 0.891 1.91575366629e-38
0.0297811275891 -0.092652396944 0.894 1.93397923437e-38
0.0315059604821 -0.0928596729998 0.896 2.01695277891e-38
0.0331641689285 -0.0928596729998 0.896 1.99847960139e-38
0.0349001058959 -0.0930669490556 0.898 1.84203345603e-38
0.0368877352167 -0.0938960532788 0.906 1.46371145715e-38
0.0385644504538 -0.0938960532788 0.906 1.74969391281e-38
0.0403299982863 -0.0941033293346 0.908 1.99858834215e-38
0.0420104148815 -0.0941033293346 0.908 1.24301199369e-38
0.0437870667884 -0.0943106053904 0.91 1.94358737742e-38
0.0458709314209 -0.0951397096136 0.918 1.58442715414e-38
0.0476734928347 -0.0953469856695 0.92 1.35307221716e-38
0.0495371266579 -0.0956578997532 0.923 2.02631905785e-38
0.0513563441834 -0.095865175809 0.925 1.9247578497e-38
0.0530682223228 -0.095865175809 0.925 2.00751699557e-38
0.054957765653 -0.0961760898927 0.928 1.89699154102e-38
-0.052355710881 -0.0959854699485 0.943 2.21027493414e-38
-0.0503421720532 -0.0954765332043 0.938 2.34860369166e-38
-0.0486062350858 -0.0954765332043 0.938 2.19208748137e-38
-0.0467203931138 -0.0951711711578 0.935 1.48185813213e-38
-0.0449900081837 -0.0951711711578 0.935 1.5931423898e-38
-0.0432596232536 -0.0951711711578 0.935 1.60235788902e-38
-0.0415292383234 -0.0951711711578 0.935 1.60236041136e-38
-0.0397137221561 -0.0949675964602 0.933 1.59310581591e-38
-0.0379870385841 -0.0949675964602 0.933 1.59307022293e-38
-0.0362603550121 -0.0949675964602 0.933 1.74051064345e-38
-0.0344226306959 -0.0946622344137 0.93 8.46789808228e-39
-0.0326311733564 -0.094458659716 0.928 1.66626592718e-38
-0.03081380651 -0.0941532976695 0.925 5.98619429806e-39
-0.0291019283706 -0.0941532976695 0.925 1.68516664087e-38
-0.0273900502311 -0.0941532976695 0.925 1.5380415125e-38
-0.0256781720917 -0.0941532976695 0.925 1.64881793961e-38
-0.0239662939522 -0.0941532976695 0.925 5.5162282204e-39
-0.0222544158128 -0.0941532976695 0.925 7.46489488436e-39
-0.0205425376733 -0.0941532976695 0.925 1.6669336459e-38
-0.0187899445944 -0.0939497229719 0.923 4.87126658921e-39
-0.0170817678131 -0.0939497229719 0.923 5.99371506692e-39
-0.0153735910318 -0.0939497229719 0.923 1.8045876782e-38
-0.0135913870877 -0.0934407862277 0.918 4.22443282327e-39
-0.0118535994412 -0.0931354241812 0.915 1.78736501943e-38
-0.0101602280925 -0.0931354241812 0.915 8.28205507734e-39
-0.00844834995305 -0.0929318494835 0.913 1.61055072063e-38
-0.0067364718136 -0.092626487437 0.91 1.61211863348e-38
-0.0050523538602 -0.092626487437 0.91 1.48304531219e-38
-0.00336083319052 -0.0924229127394 0.908 7.07825701988e-39
-0.00168041659526 -0.0924229127394 0.908 1.1702654056e-38
0.0 -0.0924229127394 0.908 1.60111465703e-38
0.00168041659526 -0.0924229127394 0.908 1.65764373773e-38
0.00335343047424 -0.0922193380417 0.906 1.55608463153e-38
0.00503014571137 -0.0922193380417 0.906 1.58370604595e-38
0.00666984736709 -0.0917104012975 0.901 1.52860390747e-38
0.00830954902282 -0.0914050392511 0.898 1.54715163408e-38
0.00997145882739 -0.0914050392511 0.898 1.52856859475e-38
0.011633368632 -0.0914050392511 0.898 1.56533894671e-38
0.0132656675714 -0.0912014645534 0.896 1.51953078017e-38
0.0149238760178 -0.0912014645534 0.896 1.57466486825e-38
0.0164895505108 -0.0906925278092 0.891 1.5746308167e-38
0.0181385055618 -0.0906925278092 0.891 1.56541097345e-38
0.0197874606129 -0.0906925278092 0.891 1.60239726551e-38
0.0213882980082 -0.0904889531116 0.889 1.54700800098e-38
0.0230335517011 -0.0904889531116 0.889 1.68519382606e-38
0.0246788053941 -0.0904889531116 0.889 1.93433670561e-38
0.0263832808172 -0.0906925278092 0.891 1.89716936579e-38
0.0280322358683 -0.0906925278092 0.891 1.93386937257e-38
0.0298477520357 -0.0912014645534 0.896 2.01684417828e-38
0.0315059604821 -0.0912014645534 0.896 1.90642578293e-38
0.0332381960913 -0.0914050392511 0.898 1.57467047345e-38
0.0349001058959 -0.0914050392511 0.898 1.36250912153e-38
0.0368877352167 -0.0922193380417 0.906 1.91589589808e-38
0.038649581691 -0.0924229127394 0.908 1.55608435127e-38
0.0404188308816 -0.092626487437 0.91 1.48182436084e-38
0.042102948835 -0.092626487437 0.91 2.04511019e-38
0.0439314197559 -0.0929318494835 0.913 1.38087776219e-38
0.0459708680906 -0.0936443609254 0.92 1.72225130407e-38
0.0476734928347 -0.0936443609254 0.92 1.40864393074e-38
0.0495371266579 -0.0939497229719 0.923 1.90638766761e-38
0.0513563441834 -0.0941532976695 0.925 2.03539064372e-38
0.0532403354763 -0.094458659716 0.928 2.00755202803e-38
0.054957765653 -0.094458659716 0.928 1.9429078878e-38
-0.052355710881 -0.0942402795858 0.943 2.21949477739e-38
-0.0506105205183 -0.0942402795858 0.943 2.34864306815e-38
-0.0486062350858 -0.093740596237 0.938 2.12751550801e-38
-0.0468702981185 -0.093740596237 0.938 1.45405679099e-38
-0.0451343611511 -0.093740596237 0.938 1.61140200944e-38
-0.0433984241838 -0.093740596237 0.938 1.60225251138e-38
-0.0415292383234 -0.0934407862277 0.935 1.67608160253e-38
-0.0397988533933 -0.0934407862277 0.935 1.5747740294e-38
-0.0379870385841 -0.0932409128882 0.933 1.61154494189e-38
-0.0362603550121 -0.0932409128882 0.933 1.6944484215e-38
-0.0344226306959 -0.0929411028789 0.93 1.37198049785e-38
-0.0327014991611 -0.0929411028789 0.93 1.26939129715e-38
-0.0309137431798 -0.0927412295394 0.928 1.16986855788e-38
-0.0291963130031 -0.0927412295394 0.928 1.48133362611e-38
-0.0273900502311 -0.0924414195301 0.925 1.5567314709e-38
-0.0256781720917 -0.0924414195301 0.925 1.71310404809e-38
-0.0239662939522 -0.0924414195301 0.925 1.37753384367e-39
-0.0222544158128 -0.0924414195301 0.925 1.57588834194e-38
-0.0205425376733 -0.0924414195301 0.925 1.82373880392e-38
-0.0188306595339 -0.0924414195301 0.925 9.1835496158e-40
-0.0171187813945 -0.0924414195301 0.925 8.85433556108e-39
-0.0153735910318 -0.0922415461905 0.923 1.85018270725e-38
-0.0135913870877 -0.0917418628417 0.918 1.01019045774e-39
-0.0118924637017 -0.0917418628417 0.918 1.64028178988e-38
-0.0101602280925 -0.0914420528324 0.915 1.16021739496e-38
-0.00844834995305 -0.0912421794929 0.913 1.41719171125e-38
-0.0067364718136 -0.0909423694836 0.91 1.63063020658e-38
-0.0050523538602 -0.0909423694836 0.91 1.63030846845e-38
-0.00336083319052 -0.0907424961441 0.908 2.7550985159e-39
-0.00168041659526 -0.0907424961441 0.908 1.42819835017e-38
0.0 -0.0907424961441 0.908 1.34325345895e-38
0.00168041659526 -0.0907424961441 0.908 1.57499053002e-38
0.00335343047424 -0.0905426228046 0.906 1.60225251138e-38
0.00503014571137 -0.0905426228046 0.906 1.58374107841e-38
0.00666984736709 -0.0900429394558 0.901 1.56544656644e-38
0.00830954902282 -0.0897431294465 0.898 1.54700772072e-38
0.00997145882739 -0.0897431294465 0.898 1.56551943396e-38
0.011633368632 -0.0897431294465 0.898 1.51924183243e-38
0.0132656675714 -0.089543256107 0.896 1.57477557083e-38
0.0149238760178 -0.089543256107 0.896 1.59310525539e-38
0.0165450708829 -0.0893433827674 0.894 1.54700828124e-38
0.0181385055618 -0.0890435727582 0.891 1.58381114333e-38
0.0197874606129 -0.0890435727582 0.891 1.57466612942e-38
0.021436415664 -0.0890435727582 0.891 1.62976672647e-38
0.0230853707151 -0.0890435727582 0.891 1.67597398281e-38
0.0247343257662 -0.0890435727582 0.891 1.94344542589e-38
0.0263832808172 -0.0890435727582 0.891 1.95248898579e-38
0.0281266205009 -0.0893433827674 0.894 1.95234423166e-38
0.0298477520357 -0.089543256107 0.896 2.07219813009e-38
0.0315059604821 -0.089543256107 0.896 9.19647799543e-39
0.0332381960913 -0.0897431294465 0.898 1.74022225623e-38
0.0350166986772 -0.0900429394558 0.901 1.67615362927e-38
0.0368877352167 -0.0905426228046 0.906 1.27928334327e-38
0.038649581691 -0.0907424961441 0.908 1.98929268866e-38
0.0404188308816 -0.0909423694836 0.91 1.94366024494e-38
0.042102948835 -0.0909423694836 0.91 1.47310253907e-38
0.0440276550675 -0.0914420528324 0.915 1.796041299e-38
0.0459708680906 -0.0919417361813 0.92 1.3073771354e-38
0.0478289498766 -0.0922415461905 0.923 1.86032362397e-38
0.0495371266579 -0.0922415461905 0.923 1.91593485418e-38
0.0513563441834 -0.0924414195301 0.925 2.00776684709e-38
0.0532403354763 -0.0927412295394 0.928 2.01691802671e-38
0.054957765653 -0.0927412295394 0.928 1.79514278642e-38
-0.0506105205183 -0.0924950892231 0.943 2.32080263078e-38
-0.0487098731137 -0.092200831251 0.94 2.12744544308e-38
-0.0468702981185 -0.0920046592696 0.938 1.57387523657e-38
-0.0451343611511 -0.0920046592696 0.938 1.70366840488e-38
-0.0433984241838 -0.0920046592696 0.938 1.63913090346e-38
-0.0415292383234 -0.0917104012975 0.935 1.57473871668e-38
-0.0397988533933 -0.0917104012975 0.935 1.58413806626e-38
-0.0379870385841 -0.0915142293162 0.933 1.61150962917e-38
-0.0362603550121 -0.0915142293162 0.933 1.63913090346e-38
-0.0344226306959 -0.0912199713441 0.93 1.64845822629e-38
-0.0327014991611 -0.0912199713441 0.93 1.35361395914e-38
-0.0309803676263 -0.0912199713441 0.93 1.50152129231e-38
-0.0291963130031 -0.0910237993627 0.928 1.28893058255e-38
-0.0274788828265 -0.0910237993627 0.928 1.61161668837e-38
-0.0256781720917 -0.0907295413906 0.925 1.81444735433e-38
-0.0239662939522 -0.0907295413906 0.925 1.19386145005e-39
-0.0223265922965 -0.0910237993627 0.928 1.60340563989e-38
-0.0205425376733 -0.0907295413906 0.925 1.75920186302e-38
-0.0188306595339 -0.0907295413906 0.925 1.56335582913e-39
-0.0171187813945 -0.0907295413906 0.925 1.27208066916e-38
-0.0153735910318 -0.0905333694092 0.923 1.58307027683e-38
-0.0135913870877 -0.0900429394558 0.918 7.34683969264e-40
-0.0118924637017 -0.0900429394558 0.918 1.66815683933e-38
-0.0101602280925 -0.0897486814837 0.915 1.55644406458e-38
-0.00846685674374 -0.0897486814837 0.915 9.93451387062e-39
-0.00675867996244 -0.0895525095023 0.913 1.49258731395e-38
-0.0050523538602 -0.0892582515302 0.91 1.48161360555e-38
-0.0033682359068 -0.0892582515302 0.91 5.51014378246e-40
-0.00168041659526 -0.0890620795488 0.908 6.44070825756e-39
0.0 -0.0890620795488 0.908 1.07588613234e-38
0.00168041659526 -0.0890620795488 0.908 1.57549457707e-38
0.00335343047424 -0.0888659075675 0.906 1.52860516864e-38
0.00503014571137 -0.0888659075675 0.906 1.59303070632e-38
0.00666984736709 -0.088375477614 0.901 1.54704499526e-38
0.00830954902282 -0.0880812196419 0.898 1.57459452307e-38
0.00997145882739 -0.0880812196419 0.898 1.57459424281e-38
0.011633368632 -0.0880812196419 0.898 1.61147179411e-38
0.0132656675714 -0.0878850476605 0.896 1.5467944431e-38
0.0149238760178 -0.0878850476605 0.896 1.58377849308e-38
0.0165450708829 -0.0876888756792 0.894 1.57455921035e-38
0.0181995779711 -0.0876888756792 0.894 1.59310525539e-38
0.0197874606129 -0.0873946177071 0.891 1.61143704191e-38
0.021436415664 -0.0873946177071 0.891 1.62966106856e-38
0.0230853707151 -0.0873946177071 0.891 1.68512320061e-38
0.0247343257662 -0.0873946177071 0.891 1.92508042861e-38
0.0263832808172 -0.0873946177071 0.891 2.03535715268e-38
0.0281266205009 -0.0876888756792 0.894 1.89702895569e-38
0.0298477520357 -0.0878850476605 0.896 2.10900421516e-38
0.0315762862867 -0.0880812196419 0.898 1.86068838196e-38
0.0333492368355 -0.088375477614 0.901 1.28882688646e-38
0.0350944271982 -0.0885716495954 0.903 1.5742345295e-38
0.0368877352167 -0.0888659075675 0.906 2.06362568673e-38
0.038649581691 -0.0890620795488 0.908 1.33485407595e-38
0.0404188308816 -0.0892582515302 0.91 1.64835256839e-38
0.0422417497652 -0.0895525095023 0.913 1.90671515106e-38
0.0441720080349 -0.0900429394558 0.918 1.45509697484e-38
0.0461207730953 -0.0905333694092 0.923 1.9525608724e-38
0.0478289498766 -0.0905333694092 0.923 1.99872903251e-38
0.0496444660439 -0.0907295413906 0.925 1.89709747918e-38
0.0515229052996 -0.0910237993627 0.928 1.98925709567e-38
0.0532403354763 -0.0910237993627 0.928 1.97063874363e-38
0.0550762091134 -0.0912199713441 0.93 1.78585105657e-38
-0.0506105205183 -0.0907498988604 0.943 2.3208379435e-38
-0.0487098731137 -0.0904611929255 0.94 2.11833363995e-38
-0.0469702347883 -0.0904611929255 0.94 1.50948052746e-38
-0.0452305964628 -0.0904611929255 0.94 1.62987588762e-38
-0.0434909581373 -0.0904611929255 0.94 1.64835102696e-38
-0.0416624872164 -0.0902687223023 0.938 1.59310581591e-38
-0.0397988533933 -0.0899800163674 0.935 1.60239516356e-38
-0.0380684684631 -0.0899800163674 0.935 1.61154494189e-38
-0.0362603550121 -0.0897875457442 0.933 1.62987616788e-38
-0.0345336714401 -0.0897875457442 0.933 1.64838577916e-38
-0.0327014991611 -0.0894988398093 0.93 1.61165200109e-38
-0.0309803676263 -0.0894988398093 0.93 1.56577152755e-38
-0.0292592360915 -0.0894988398093 0.93 1.67622425472e-38
-0.0274788828265 -0.089306369186 0.928 1.56548440149e-38
-0.0256781720917 -0.0890176632512 0.925 1.6668623198e-38
-0.0239662939522 -0.0890176632512 0.925 1.45538830479e-38
-0.0223265922965 -0.089306369186 0.928 1.6030085119e-38
-0.0205425376733 -0.0890176632512 0.925 1.68530284708e-38
-0.0188306595339 -0.0890176632512 0.925 9.11433948465e-39
-0.0171187813945 -0.0890176632512 0.925 1.51989049349e-38
-0.0153735910318 -0.0888251926279 0.923 1.35335808204e-38
-0.0136654142505 -0.0888251926279 0.923 6.42848473106e-40
-0.0118924637017 -0.0883440160698 0.918 9.02257405341e-39
-0.0101935403157 -0.0883440160698 0.918 1.2345576798e-38
-0.00846685674374 -0.0880553101349 0.915 1.12103877146e-44
-0.006773485395 -0.0880553101349 0.915 1.37309551104e-38
-0.00506900997183 -0.0878628395117 0.913 1.38095819673e-38
-0.0033682359068 -0.0875741335768 0.91 0.0
-0.00168041659526 -0.0873816629536 0.908 1.75095536169e-38
0.0 -0.0873816629536 0.908 2.29588740395e-39
0.00168041659526 -0.0873816629536 0.908 1.60329591822e-38
0.00336083319052 -0.0873816629536 0.908 1.58395603759e-38
0.00503014571137 -0.0871891923303 0.906 1.57477150707e-38
0.00666984736709 -0.0867080157722 0.901 1.56544656644e-38
0.00833730920887 -0.0867080157722 0.901 1.57466612942e-38
0.00997145882739 -0.0864193098374 0.898 1.54700772072e-38
0.011633368632 -0.0864193098374 0.898 1.54700772072e-38
0.0132656675714 -0.0862268392141 0.896 1.56537594099e-38
0.0149238760178 -0.0862268392141 0.896 1.58388597267e-38
0.0165450708829 -0.0860343685909 0.894 1.56551943396e-38
0.0181995779711 -0.0860343685909 0.894 1.60239698525e-38
0.0197874606129 -0.085745662656 0.891 1.61143676165e-38
0.021436415664 -0.085745662656 0.891 1.68512137892e-38
0.0230853707151 -0.085745662656 0.891 1.66664567906e-38
0.0247343257662 -0.085745662656 0.891 1.98958177653e-38
0.0263832808172 -0.085745662656 0.891 2.0262779998e-38
0.0281266205009 -0.0860343685909 0.894 2.09999849032e-38
0.0298477520357 -0.0862268392141 0.896 1.3441072701e-38
0.0315762862867 -0.0864193098374 0.898 1.31594004993e-38
0.0334232639983 -0.0869004863955 0.903 2.03525177504e-38
0.0352110199796 -0.0871891923303 0.906 1.83306430508e-38
0.0369691650957 -0.0873816629536 0.908 1.33445975056e-38
0.0387347129282 -0.0875741335768 0.91 2.06325868667e-38
0.0405520797746 -0.0878628395117 0.913 1.64874759443e-38
0.0422417497652 -0.0878628395117 0.913 1.60221944074e-38
0.0442682433465 -0.0885364866931 0.92 2.00812684066e-38
0.0459708680906 -0.0885364866931 0.92 1.9988341299e-38
0.0478289498766 -0.0888251926279 0.923 2.0447524385e-38
0.049805475123 -0.089306369186 0.928 1.98950764784e-38
0.0515229052996 -0.089306369186 0.928 1.90645955422e-38
0.0533550775786 -0.0894988398093 0.93 2.04460824489e-38
0.0550762091134 -0.0894988398093 0.93 1.75833487966e-38
-0.0527998738577 -0.0897597855581 0.951 2.25637302933e-38
-0.0510398780625 -0.0897597855581 0.951 2.34863970503e-38
-0.0490207871974 -0.0892878623953 0.946 2.04464874241e-38
-0.0472700447975 -0.0892878623953 0.946 1.60174874458e-38
-0.0455193023976 -0.0892878623953 0.946 1.62976896855e-38
-0.0436297590675 -0.0890047084977 0.943 1.69423332219e-38
-0.0418845687048 -0.0890047084977 0.943 1.65750024476e-38
-0.0400116814863 -0.0887215546 0.94 1.62987588762e-38
-0.0381906132817 -0.0885327853349 0.938 1.63909587099e-38
-0.0364546763144 -0.0885327853349 0.938 1.64831697541e-38
-0.0345336714401 -0.0880608621722 0.933 1.62994791436e-38
-0.0328069878681 -0.0880608621722 0.933 1.6761875407e-38
-0.0309803676263 -0.0877777082745 0.93 1.16897410907e-38
-0.0292592360915 -0.0877777082745 0.93 1.26207049358e-38
-0.0274788828265 -0.0875889390094 0.928 1.60308039851e-38
-0.0257614526498 -0.0875889390094 0.928 1.59339392288e-38
-0.0240440224732 -0.0875889390094 0.928 1.63009322901e-38
-0.0223265922965 -0.0875889390094 0.928 1.57498814781e-38
-0.0206091621199 -0.0875889390094 0.928 1.54715037291e-38
-0.0188306595339 -0.0873057851117 0.925 1.69433841957e-38
-0.0171187813945 -0.0873057851117 0.925 1.62079729526e-38
-0.015406903255 -0.0873057851117 0.925 1.65771464343e-38
-0.0136654142505 -0.0871170158466 0.923 1.59350210312e-38
-0.0119572374691 -0.0871170158466 0.923 1.4370209253e-38
-0.0101935403157 -0.0866450926839 0.918 1.14242693005e-38
-0.00849461692979 -0.0866450926839 0.918 1.23462634342e-38
-0.006773485395 -0.0863619387862 0.915 3.12242368495e-39
-0.00506900997183 -0.0861731695211 0.913 1.70228139966e-38
-0.00337933998122 -0.0861731695211 0.913 9.1835496158e-40
-0.0016841179534 -0.0858900156234 0.91 1.68620163991e-38
0.0 -0.0858900156234 0.91 1.37753244237e-39
0.00168041659526 -0.0857012463583 0.908 1.60361989842e-38
0.00336083319052 -0.0857012463583 0.908 1.50101752551e-38
0.00504124978578 -0.0857012463583 0.908 1.57473451279e-38
0.00670686094849 -0.0855124770932 0.906 1.63924062513e-38
0.00833730920887 -0.0850405539305 0.901 1.57466612942e-38
0.00997145882739 -0.0847574000328 0.898 1.55629931045e-38
0.011633368632 -0.0847574000328 0.898 1.57463109696e-38
0.0132656675714 -0.0845686307677 0.896 1.53778815774e-38
0.0149238760178 -0.0845686307677 0.896 1.61143550048e-38
0.0165450708829 -0.0843798615026 0.894 1.6022169184e-38
0.0181995779711 -0.0843798615026 0.894 1.60236041136e-38
0.0197874606129 -0.0840967076049 0.891 1.59310553565e-38
0.021436415664 -0.0840967076049 0.891 1.62980428127e-38
0.0230853707151 -0.0840967076049 0.891 1.78653657177e-38
0.0248176063243 -0.0843798615026 0.894 1.98951143135e-38
0.0264721134126 -0.0843798615026 0.894 1.95238136607e-38
0.0281266205009 -0.0843798615026 0.894 2.04450286724e-38
0.0298477520357 -0.0845686307677 0.896 1.71285419657e-38
0.0315762862867 -0.0847574000328 0.898 2.00802160315e-38
0.0334232639983 -0.0852293231956 0.903 2.05393752954e-38
0.0352110199796 -0.0855124770932 0.906 1.42679537014e-38
0.0369691650957 -0.0857012463583 0.908 2.01702746812e-38
0.0387347129282 -0.0858900156234 0.91 1.5560493188e-38
0.0405520797746 -0.0861731695211 0.913 1.98979407325e-38
0.0422417497652 -0.0861731695211 0.913 1.88830923586e-38
0.0442682433465 -0.086833861949 0.92 1.49154769062e-38
0.0459708680906 -0.086833861949 0.92 1.90642998682e-38
0.0479325879045 -0.0873057851117 0.925 1.98036039185e-38
0.049805475123 -0.0875889390094 0.928 2.01698683047e-38
0.0515229052996 -0.0875889390094 0.928 1.99847665866e-38
