# .PCD v0.7 - Point Cloud Data file format
VERSION 0.7
FIELDS x y z rgb
SIZE 4 4 4 4
TYPE F F F F
COUNT 1 1 1 1
WIDTH 839
HEIGHT 1
VIEWPOINT 0 0 0 1 0 0 0
POINTS 839
DATA ascii
-0.0300180145101 -0.106563951511 0.811 1.61321066537e-38
-0.0284467879799 -0.106301155083 0.809 1.53019760421e-38
-0.0269495886125 -0.106301155083 0.809 1.53945430161e-38
-0.0253894661568 -0.106038358655 0.807 1.56710920706e-38
-0.0238959681476 -0.106038358655 0.807 1.49338927706e-38
-0.0224024701384 -0.106038358655 0.807 1.47498770589e-38
-0.0208053341012 -0.105512765799 0.803 1.47505805107e-38
-0.0193192388083 -0.105512765799 0.803 1.20761981877e-38
-0.0178331435154 -0.105512765799 0.803 1.78841599327e-38
-0.0163470482224 -0.105512765799 0.803 1.73310015679e-38
-0.0148609529295 -0.105512765799 0.803 1.78841725444e-38
-0.0133748576365 -0.105512765799 0.803 1.55799922562e-38
-0.011873956911 -0.105381367585 0.802 1.65008667524e-38
-0.0103897122971 -0.105381367585 0.802 1.84384225208e-38
-0.00890546768326 -0.105381367585 0.802 1.88023425346e-40
-0.00742122306938 -0.105381367585 0.802 1.8570231457e-39
-0.00590736759039 -0.104855774729 0.798 2.2268524351e-39
-0.00443052569279 -0.104855774729 0.798 3.42610187775e-39
-0.00295368379519 -0.104855774729 0.798 1.67403178314e-39
-0.0014768418976 -0.104855774729 0.798 4.80084853878e-42
0.0 -0.104855774729 0.798 9.22932443143e-39
0.0014768418976 -0.104855774729 0.798 1.76997658704e-38
0.00295368379519 -0.104855774729 0.798 1.6498001097e-38
0.00443052569279 -0.104855774729 0.798 1.61320926407e-38
0.00590736759039 -0.104855774729 0.798 1.60391655331e-38
0.00736570269729 -0.104592978302 0.796 1.57629541915e-38
0.00883884323675 -0.104592978302 0.796 1.59477111901e-38
0.0103119837762 -0.104592978302 0.796 1.58554973433e-38
0.0117851243157 -0.104592978302 0.796 1.60391683357e-38
0.0132582648551 -0.104592978302 0.796 1.58547840824e-38
0.0147314053946 -0.104592978302 0.796 1.59473454512e-38
0.016204545934 -0.104592978302 0.796 1.53952464679e-38
0.0176776864735 -0.104592978302 0.796 1.81625643064e-38
0.0190545917013 -0.104067385446 0.792 2.18489349532e-38
0.0205203295245 -0.104067385446 0.792 1.73291658669e-38
-0.0390234188631 -0.105063050785 0.811 1.99099456564e-38
-0.0375225181376 -0.105063050785 0.811 1.87121171304e-38
-0.0361992826028 -0.105581240925 0.815 1.64987045489e-38
-0.034690979161 -0.105581240925 0.815 1.37328328504e-38
-0.0331012458401 -0.105322145855 0.813 1.51190295211e-38
-0.0315966437565 -0.105322145855 0.813 1.53026921057e-38
-0.0300180145101 -0.105063050785 0.811 1.51179323044e-38
-0.0285171137846 -0.105063050785 0.811 1.56703998292e-38
-0.0270162130591 -0.105063050785 0.811 1.5855134407e-38
-0.0254523892452 -0.104803955715 0.809 1.61327904874e-38
-0.0239551898778 -0.104803955715 0.809 1.50257324707e-38
-0.0224024701384 -0.104544860646 0.807 1.52115782782e-38
-0.0208571531152 -0.104285765576 0.805 1.4658028951e-38
-0.0193192388083 -0.104026670506 0.803 1.28137800421e-38
-0.0178331435154 -0.104026670506 0.803 1.75153914263e-38
-0.0163470482224 -0.104026670506 0.803 1.79760150471e-38
-0.0148609529295 -0.104026670506 0.803 1.67781823172e-38
-0.0133748576365 -0.104026670506 0.803 1.58555001459e-38
-0.0118887623436 -0.104026670506 0.803 1.66845601655e-38
-0.0104026670506 -0.104026670506 0.803 1.88990503455e-38
-0.00891657175768 -0.104026670506 0.803 2.79126042407e-40
-0.00743047646473 -0.104026670506 0.803 2.22939859441e-39
-0.00592217302295 -0.103638027902 0.8 3.60869246895e-39
-0.00444162976721 -0.103638027902 0.8 1.16489941339e-41
-0.00296108651147 -0.103638027902 0.8 1.20663148296e-39
-0.00148054325574 -0.103638027902 0.8 1.53978038376e-38
0.0 -0.103638027902 0.8 1.7424954426e-38
0.00148054325574 -0.103638027902 0.8 1.60384438644e-38
0.00296108651147 -0.103638027902 0.8 1.61313639655e-38
0.00444162976721 -0.103638027902 0.8 1.54870735563e-38
0.00590736759039 -0.103378932832 0.798 1.58544043305e-38
0.00738420948799 -0.103378932832 0.798 1.57629541915e-38
0.00886105138558 -0.103378932832 0.798 1.55792888043e-38
0.0103378932832 -0.103378932832 0.798 1.63161223655e-38
0.0117851243157 -0.103119837762 0.796 1.58544281526e-38
0.0132582648551 -0.103119837762 0.796 1.60398970109e-38
0.0147314053946 -0.103119837762 0.796 1.56704026318e-38
0.0162452608736 -0.103378932832 0.798 1.54866980083e-38
0.0177221027712 -0.103378932832 0.798 1.82536781339e-38
0.0191989446688 -0.103378932832 0.798 2.28634470154e-38
-0.037800119998 -0.104328331195 0.817 1.95422365316e-38
-0.0362881151981 -0.104328331195 0.817 2.06485812873e-38
-0.0347761103982 -0.104328331195 0.817 1.31810631722e-38
-0.0331826757192 -0.104072937483 0.815 1.511939526e-38
-0.0316743722774 -0.104072937483 0.815 1.5670755759e-38
-0.0300920416729 -0.103817543771 0.813 1.55778370591e-38
-0.0285874395892 -0.103817543771 0.813 1.53945276018e-38
-0.0270162130591 -0.10356215006 0.811 1.56703830136e-38
-0.0255153123336 -0.10356215006 0.811 1.52115754756e-38
-0.0239551898778 -0.103306756348 0.809 1.521228173e-38
-0.0224579905105 -0.103306756348 0.809 1.46598464352e-38
-0.0208571531152 -0.102795968925 0.805 1.49335396434e-38
-0.0193673564641 -0.102795968925 0.805 1.37353762071e-38
-0.017877559813 -0.102795968925 0.805 1.67781781133e-38
-0.0163877631619 -0.102795968925 0.805 1.65012380965e-38
-0.0148979665109 -0.102795968925 0.805 1.79774219507e-38
-0.0134081698598 -0.102795968925 0.805 1.57633017135e-38
-0.0119183732087 -0.102795968925 0.805 1.59473482538e-38
-0.0104026670506 -0.102540575213 0.803 1.91745400184e-38
-0.00891657175768 -0.102540575213 0.803 2.03047446831e-39
-0.00744898325543 -0.102795968925 0.805 8.43597089807e-40
-0.00594438117178 -0.102540575213 0.803 5.5267211433e-42
-0.00445828587884 -0.102540575213 0.803 7.47696566933e-39
-0.00297219058589 -0.102540575213 0.803 1.69618729277e-38
-0.00148424461388 -0.102412878357 0.802 1.64075991292e-38
0.0 -0.102412878357 0.802 1.58558532732e-38
0.00148424461388 -0.102412878357 0.802 1.59484174445e-38
0.00296848922775 -0.102412878357 0.802 1.59480671199e-38
0.00445273384163 -0.102412878357 0.802 1.58555029485e-38
0.00592217302295 -0.102157484646 0.8 1.67767333746e-38
0.00740271627868 -0.102157484646 0.8 1.64072488046e-38
0.00888325953442 -0.102157484646 0.8 1.56718347588e-38
0.0103378932832 -0.101902090934 0.798 1.61320926407e-38
0.0118147351808 -0.101902090934 0.798 1.59469951266e-38
0.0132915770784 -0.101902090934 0.798 1.65941371782e-38
0.014768418976 -0.101902090934 0.798 1.61324429653e-38
0.0162452608736 -0.101902090934 0.798 1.54863476837e-38
0.0177221027712 -0.101902090934 0.798 1.86235550674e-38
0.0192470623246 -0.102157484646 0.8 2.28630910856e-38
-0.037800119998 -0.102816326395 0.817 1.97262676576e-38
-0.0362881151981 -0.102816326395 0.817 2.12003285447e-38
-0.0347761103982 -0.102816326395 0.817 1.22594852242e-38
-0.0332641055983 -0.102816326395 0.817 1.56725662366e-38
-0.0316743722774 -0.102564634041 0.815 1.54859945565e-38
-0.0301660688356 -0.102564634041 0.815 1.5668572536e-38
-0.0286577653939 -0.102564634041 0.815 1.52087112216e-38
-0.0270828375056 -0.102312941688 0.813 1.54866952057e-38
-0.0255153123336 -0.102061249334 0.811 1.5948048903e-38
-0.0240144116081 -0.102061249334 0.811 1.5578540511e-38
-0.0225135108825 -0.102061249334 0.811 1.60402417303e-38
-0.0209089721291 -0.101557864627 0.807 1.58562007952e-38
-0.0193673564641 -0.101306172274 0.805 1.45636893345e-38
-0.017877559813 -0.101306172274 0.805 1.70529671369e-38
-0.0163877631619 -0.101306172274 0.805 1.69632798313e-38
-0.0148979665109 -0.101306172274 0.805 1.76072129095e-38
-0.0134081698598 -0.101306172274 0.805 1.61327960926e-38
-0.0119183732087 -0.101306172274 0.805 1.59473454512e-38
-0.0104285765576 -0.101306172274 0.805 1.88079056895e-38
-0.00893877990651 -0.101306172274 0.805 7.84727140022e-44
-0.00744898325543 -0.101306172274 0.805 2.21392685807e-39
-0.00595918660434 -0.101306172274 0.805 1.49368256883e-38
-0.00445828587884 -0.10105447992 0.803 1.7423198599e-38
-0.00297219058589 -0.10105447992 0.803 1.61309982266e-38
-0.00148609529295 -0.10105447992 0.803 1.60402445329e-38
0.0 -0.10105447992 0.803 1.57658058338e-38
0.00148609529295 -0.10105447992 0.803 1.56725410132e-38
0.00297219058589 -0.10105447992 0.803 1.56718319562e-38
0.00445828587884 -0.10105447992 0.803 1.61313639655e-38
0.0059369784555 -0.100928633744 0.802 1.60402473355e-38
0.00742122306938 -0.100928633744 0.802 1.5579639129e-38
0.00888325953442 -0.10067694139 0.8 1.56725536249e-38
0.0103638027902 -0.10067694139 0.8 1.6225008538e-38
0.0118147351808 -0.100425249037 0.798 1.57629485863e-38
0.0132915770784 -0.100425249037 0.798 1.60395158577e-38
0.014768418976 -0.100425249037 0.798 1.61324429653e-38
0.0162859758131 -0.10067694139 0.8 1.59491180938e-38
0.0177665190688 -0.10067694139 0.8 1.77019532973e-38
0.0192470623246 -0.10067694139 0.8 2.21255260467e-38
-0.0363769477935 -0.10155231259 0.819 2.04638593212e-38
-0.0348612416354 -0.10155231259 0.819 1.33647705983e-38
-0.0333455354773 -0.10155231259 0.819 1.53030452329e-38
-0.0317521007983 -0.101304321595 0.817 1.52108468004e-38
-0.0302400959984 -0.101304321595 0.817 1.60391655331e-38
-0.0287280911985 -0.101304321595 0.817 1.53916577426e-38
-0.0271494619521 -0.101056330599 0.815 1.54856414293e-38
-0.0256411585103 -0.101056330599 0.815 1.63154189136e-38
-0.0241328550685 -0.101056330599 0.815 6.82581870672e-39
-0.0225690312546 -0.100808339604 0.813 9.32619339168e-39
-0.021064429171 -0.100808339604 0.813 1.54939805564e-38
-0.0195117094315 -0.100560348609 0.811 1.53037486847e-38
-0.0179219761107 -0.100064366618 0.807 1.54867204291e-38
-0.0164284781015 -0.100064366618 0.807 1.52097804123e-38
-0.0148979665109 -0.0998163756227 0.805 1.54877896198e-38
-0.0134081698598 -0.0998163756227 0.805 1.58562162095e-38
-0.0119183732087 -0.0998163756227 0.805 1.63179258366e-38
-0.0104285765576 -0.0998163756227 0.805 1.41992340247e-38
-0.00893877990651 -0.0998163756227 0.805 1.13447540204e-38
-0.00744898325543 -0.0998163756227 0.805 1.5950579648e-38
-0.00595918660434 -0.0998163756227 0.805 1.66838188786e-38
-0.00446938995326 -0.0998163756227 0.805 1.6038446667e-38
-0.00297959330217 -0.0998163756227 0.805 1.60388152085e-38
-0.00148979665109 -0.0998163756227 0.805 1.58551470187e-38
0.0 -0.0998163756227 0.805 1.56714844342e-38
0.00148609529295 -0.0995683846274 0.803 1.71462361614e-38
0.00297219058589 -0.0995683846274 0.803 1.54874434991e-38
0.00445828587884 -0.0995683846274 0.803 1.56718347588e-38
0.00594438117178 -0.0995683846274 0.803 1.63161223655e-38
0.00742122306938 -0.0994443891297 0.802 1.5580695708e-38
0.00890546768326 -0.0994443891297 0.802 1.5579639129e-38
0.0103897122971 -0.0994443891297 0.802 1.57622325228e-38
0.0118443460459 -0.0991963981344 0.8 1.6316125168e-38
0.0133248893016 -0.0991963981344 0.8 1.69611120226e-38
0.0148054325574 -0.0991963981344 0.8 1.66845349421e-38
0.0162859758131 -0.0991963981344 0.8 1.54877896198e-38
0.0177665190688 -0.0991963981344 0.8 1.86246060413e-38
0.0192951799804 -0.0994443891297 0.802 2.31396737713e-38
0.0208571531152 -0.0998163756227 0.805 1.39186702501e-38
-0.0349463728726 -0.100280896069 0.821 1.42878044955e-38
-0.0333455354773 -0.100036606432 0.819 1.5579639129e-38
-0.0318298293193 -0.100036606432 0.819 1.50268156744e-38
-0.0302400959984 -0.0997923167948 0.817 1.5670032689e-38
-0.0287280911985 -0.0997923167948 0.817 1.65916190448e-38
-0.0272160863986 -0.0997923167948 0.817 1.50253891526e-38
-0.0256411585103 -0.0995480271576 0.815 1.72380814667e-38
-0.0241328550685 -0.0995480271576 0.815 0.0
-0.0226245516267 -0.0995480271576 0.815 1.1392556515e-42
-0.0211162481849 -0.0995480271576 0.815 1.64197694064e-38
-0.0196079447432 -0.0995480271576 0.815 1.74217314395e-38
-0.0180996413014 -0.0995480271576 0.815 1.70543964614e-38
-0.0165506229201 -0.0993037375204 0.813 1.72387905237e-38
-0.0150460208364 -0.0993037375204 0.813 1.71447872188e-38
-0.0135414187528 -0.0993037375204 0.813 8.54792063238e-44
-0.012007205804 -0.0990594478832 0.811 4.51884002543e-39
-0.0105063050785 -0.0990594478832 0.811 1.68711192339e-38
-0.00898319620418 -0.098815158246 0.809 1.69604029656e-38
-0.00748599683682 -0.098815158246 0.809 1.59455475853e-38
-0.00598879746946 -0.098815158246 0.809 1.58533449489e-38
-0.00449159810209 -0.098815158246 0.809 1.67767333746e-38
-0.00299439873473 -0.098815158246 0.809 1.57622297202e-38
-0.00149719936736 -0.098815158246 0.809 1.61310136409e-38
0.0 -0.0985708686088 0.807 1.60388152085e-38
0.00149349800922 -0.0985708686088 0.807 1.58554973433e-38
0.00297959330217 -0.0983265789716 0.805 1.57647492548e-38
0.00445828587884 -0.0980822893344 0.803 1.56718319562e-38
0.00594438117178 -0.0980822893344 0.803 1.56718375614e-38
0.00743047646473 -0.0980822893344 0.803 1.56711285044e-38
0.00891657175768 -0.0980822893344 0.803 1.58547938915e-38
0.0103897122971 -0.0979601445158 0.802 1.60388152085e-38
0.011873956911 -0.0979601445158 0.802 1.5579639129e-38
0.0133582015249 -0.0979601445158 0.802 1.59480643173e-38
0.0148424461388 -0.0979601445158 0.802 1.58551470187e-38
0.0163266907526 -0.0979601445158 0.802 1.56714844342e-38
0.0178109353665 -0.0979601445158 0.802 1.77941251051e-38
0.0193192388083 -0.0980822893344 0.803 2.25861342532e-38
0.0208571531152 -0.0983265789716 0.805 1.57625814461e-38
-0.0350315041098 -0.0990020768321 0.823 1.54859917539e-38
-0.0334269653564 -0.098761488553 0.821 1.58558504706e-38
-0.0318298293193 -0.0985209002739 0.819 1.54859945565e-38
-0.0303141231612 -0.0985209002739 0.819 1.56700495046e-38
-0.0287984170032 -0.0985209002739 0.819 1.53019732396e-38
-0.0272160863986 -0.0982803119949 0.817 1.54867232317e-38
-0.0257040815987 -0.0982803119949 0.817 1.6776730572e-38
-0.0241920767987 -0.0982803119949 0.817 1.41927376051e-38
-0.0226800719988 -0.0982803119949 0.817 1.44333741825e-43
-0.0211680671989 -0.0982803119949 0.817 1.89857584906e-38
-0.019656062399 -0.0982803119949 0.817 4.33036257938e-39
-0.0181440575991 -0.0982803119949 0.817 2.22396576027e-39
-0.0165913378596 -0.0980397237158 0.815 7.28717240403e-39
-0.0150830344178 -0.0980397237158 0.815 1.21738406647e-38
-0.013574730976 -0.0980397237158 0.815 4.20389539297e-44
-0.0120664275343 -0.0980397237158 0.815 9.66895940384e-44
-0.0105322145855 -0.0977991354368 0.813 1.75186172153e-38
-0.00902761250186 -0.0977991354368 0.813 1.65934155095e-38
-0.00752301041821 -0.0977991354368 0.813 1.60391683357e-38
-0.00601840833457 -0.0977991354368 0.813 1.57629373759e-38
-0.00450270217651 -0.0975585471577 0.811 1.58558658848e-38
-0.00300180145101 -0.0975585471577 0.811 1.58558686874e-38
-0.0015009007255 -0.0975585471577 0.811 1.61310108383e-38
0.0 -0.0973179588787 0.809 1.58558504706e-38
0.00149719936736 -0.0973179588787 0.809 1.60402473355e-38
0.00297959330217 -0.0968367823205 0.805 1.64079676707e-38
0.00446938995326 -0.0968367823205 0.805 1.63157552253e-38
0.00595918660434 -0.0968367823205 0.805 1.63172013653e-38
0.00744898325543 -0.0968367823205 0.805 1.53952464679e-38
0.00891657175768 -0.0965961940415 0.803 1.61306577111e-38
0.0104026670506 -0.0965961940415 0.803 1.60395410811e-38
0.0118887623436 -0.0965961940415 0.803 1.62250057354e-38
0.0133748576365 -0.0965961940415 0.803 1.64086711225e-38
0.0148609529295 -0.0965961940415 0.803 1.63164740914e-38
0.0163470482224 -0.0965961940415 0.803 1.43814644822e-38
0.0178331435154 -0.0965961940415 0.803 1.81618328286e-38
0.0193673564641 -0.0968367823205 0.805 2.32315064648e-38
0.0208571531152 -0.0968367823205 0.805 1.79742017669e-38
-0.0367322781748 -0.0979527417995 0.827 2.0648593899e-38
-0.035116635347 -0.0977158548786 0.825 1.70533230668e-38
-0.0335083952355 -0.0974789679577 0.823 1.52094118708e-38
-0.0319852863611 -0.0974789679577 0.823 1.53934457994e-38
-0.030388150324 -0.0972420810368 0.821 1.54863476837e-38
-0.0287984170032 -0.0970051941159 0.819 1.54874434991e-38
-0.0272827108451 -0.0970051941159 0.819 1.54870903719e-38
-0.025767004687 -0.0970051941159 0.819 1.59476985784e-38
-0.024251298529 -0.0970051941159 0.819 1.72380814667e-38
-0.0227355923709 -0.0970051941159 0.819 1.49938935683e-43
-0.0212198862128 -0.0970051941159 0.819 8.6665251331e-39
-0.0197041800548 -0.0970051941159 0.819 0.0
-0.0181884738967 -0.0970051941159 0.819 1.18933931978e-38
-0.0166320527991 -0.096768307195 0.817 7.73306977927e-39
-0.0151200479992 -0.096768307195 0.817 1.1350517561e-43
-0.0136080431993 -0.096768307195 0.817 8.8544154351e-39
-0.0120664275343 -0.096531420274 0.815 1.10702578682e-43
-0.0105581240925 -0.096531420274 0.815 1.70551377483e-38
-0.00904982065069 -0.096531420274 0.815 1.53026822966e-38
-0.00754151720891 -0.096531420274 0.815 1.55803579951e-38
-0.00601840833457 -0.0962945333531 0.813 1.65937686367e-38
-0.00451380625093 -0.0962945333531 0.813 1.53030480355e-38
-0.00300920416729 -0.0962945333531 0.813 1.5949846769e-38
-0.00150460208364 -0.0962945333531 0.813 1.61324401627e-38
0.0 -0.0962945333531 0.813 1.60409662016e-38
0.0015009007255 -0.0960576464322 0.811 1.5948048903e-38
0.00297959330217 -0.0953469856695 0.805 1.61313639655e-38
0.00446938995326 -0.0953469856695 0.805 1.60388152085e-38
0.0059739920369 -0.0955838725904 0.807 1.56718501731e-38
0.00744898325543 -0.0953469856695 0.805 1.61335093535e-38
0.00893877990651 -0.0953469856695 0.805 1.66845573629e-38
0.0104285765576 -0.0953469856695 0.805 1.5946992324e-38
0.0118887623436 -0.0951100987485 0.803 1.677782919e-38
0.0133748576365 -0.0951100987485 0.803 1.56718319562e-38
0.0148609529295 -0.0951100987485 0.803 1.59484174445e-38
0.0163877631619 -0.0953469856695 0.805 1.58558686874e-38
0.017877559813 -0.0953469856695 0.805 1.76108128452e-38
0.0194154741199 -0.0955838725904 0.807 2.10181022911e-38
0.0209607911431 -0.0958207595113 0.809 1.98181157654e-38
-0.0367322781748 -0.0964222302089 0.827 2.00028559485e-38
-0.0352017665842 -0.0964222302089 0.827 1.76986924758e-38
-0.0335898251145 -0.0961890446462 0.825 1.60391683357e-38
-0.0320630148821 -0.0961890446462 0.825 1.54859945565e-38
-0.0304621774868 -0.0959558590834 0.823 1.62232064682e-38
-0.0288687428078 -0.0957226735206 0.821 1.50264681524e-38
-0.0273493352916 -0.0957226735206 0.821 1.59487705717e-38
-0.0258299277754 -0.0957226735206 0.821 1.53023291694e-38
-0.0243105202592 -0.0957226735206 0.821 1.86199215005e-38
-0.022791112743 -0.0957226735206 0.821 0.0
-0.0212717052268 -0.0957226735206 0.821 4.61834342678e-40
-0.0197522977106 -0.0957226735206 0.821 6.17503187782e-39
-0.0181884738967 -0.0954894879578 0.819 8.28151417613e-39
-0.0166727677387 -0.0954894879578 0.819 1.22524493046e-38
-0.0151570615806 -0.0954894879578 0.819 1.3592595104e-43
-0.0136413554225 -0.0954894879578 0.819 1.66794804586e-38
-0.0120960383994 -0.095256302395 0.817 2.2041317818e-39
-0.0105840335994 -0.095256302395 0.817 1.22632659275e-38
-0.00907202879953 -0.095256302395 0.817 1.63197377155e-38
-0.00754151720891 -0.0950231168323 0.815 1.58558532732e-38
-0.00603321376713 -0.0950231168323 0.815 1.65012226822e-38
-0.00451380625093 -0.0947899312695 0.813 1.65945169301e-38
-0.00300920416729 -0.0947899312695 0.813 1.54877896198e-38
-0.00150460208364 -0.0947899312695 0.813 1.64083207979e-38
0.0 -0.0947899312695 0.813 1.64090242497e-38
0.00150460208364 -0.0947899312695 0.813 1.60395158577e-38
0.00300180145101 -0.0945567457067 0.811 1.61309982266e-38
0.00450270217651 -0.0945567457067 0.811 1.58547784772e-38
0.0059739920369 -0.0940903745811 0.807 1.58558686874e-38
0.00746749004612 -0.0940903745811 0.807 1.58554973433e-38
0.00893877990651 -0.0938571890184 0.805 1.59473482538e-38
0.0104285765576 -0.0938571890184 0.805 1.59480643173e-38
0.0119183732087 -0.0938571890184 0.805 1.59480643173e-38
0.0134081698598 -0.0938571890184 0.805 1.57636520381e-38
0.0148979665109 -0.0938571890184 0.805 1.62232092708e-38
0.0163877631619 -0.0938571890184 0.805 1.62250057354e-38
0.0179219761107 -0.0940903745811 0.807 1.79785387856e-38
0.0194635917757 -0.0943235601439 0.809 2.14801566376e-38
0.0209607911431 -0.0943235601439 0.809 2.16631059612e-38
0.0225135108825 -0.0945567457067 0.811 8.40779078595e-44
-0.0369099433655 -0.0953506870276 0.831 2.03712839394e-38
-0.0352868978214 -0.095121202823 0.829 1.93575047563e-38
-0.0336712549936 -0.0948917186183 0.827 1.41020007269e-38
-0.0320630148821 -0.0946622344137 0.825 1.54870735563e-38
-0.0305362046496 -0.0946622344137 0.825 1.53934457994e-38
-0.0289390686124 -0.094432750209 0.823 1.65008667524e-38
-0.0274159597381 -0.094432750209 0.823 1.52115754756e-38
-0.0258928508638 -0.094432750209 0.823 1.53945430161e-38
-0.0243697419894 -0.094432750209 0.823 1.78838068055e-38
-0.0228466331151 -0.094432750209 0.823 2.2127147349e-39
-0.0212717052268 -0.0942032660044 0.821 1.07899981753e-43
-0.0197522977106 -0.0942032660044 0.821 1.91699409569e-38
-0.0182328901944 -0.0942032660044 0.821 9.03193472715e-39
-0.0167134826782 -0.0942032660044 0.821 1.01447787052e-38
-0.015194075162 -0.0942032660044 0.821 5.90419311453e-39
-0.0136746676458 -0.0942032660044 0.821 1.47470422321e-38
-0.0121256492645 -0.0939737817998 0.819 1.28582026048e-39
-0.0106099431064 -0.0939737817998 0.819 9.03677901594e-39
-0.00907202879953 -0.0937442975951 0.817 1.5676516497e-38
-0.00756002399961 -0.0937442975951 0.817 1.48431404782e-38
-0.00604801919968 -0.0937442975951 0.817 1.54899574285e-38
-0.00452491032535 -0.0935148133905 0.815 1.49367892546e-38
-0.00300920416729 -0.0932853291858 0.813 1.55821530584e-38
-0.00150460208364 -0.0932853291858 0.813 1.58580140754e-38
0.0 -0.0932853291858 0.813 1.57668988466e-38
0.00150460208364 -0.0932853291858 0.813 1.62282315245e-38
0.00300920416729 -0.0932853291858 0.813 1.65015912237e-38
0.00451380625093 -0.0932853291858 0.813 1.58558686874e-38
0.00600360290201 -0.0930558449812 0.811 1.61328283224e-38
0.00748599683682 -0.0928263607766 0.809 1.59476985784e-38
0.00896098805535 -0.0925968765719 0.807 1.59480615147e-38
0.0104285765576 -0.0923673923673 0.805 1.59480671199e-38
0.0119183732087 -0.0923673923673 0.805 1.585659456e-38
0.0134081698598 -0.0923673923673 0.805 1.61324429653e-38
0.0148979665109 -0.0923673923673 0.805 1.57629373759e-38
0.0164284781015 -0.0925968765719 0.807 1.59487649665e-38
0.0179219761107 -0.0925968765719 0.807 1.74246461403e-38
0.0195117094315 -0.0930558449812 0.811 2.12039186713e-38
0.021012610157 -0.0930558449812 0.811 2.22169916e-38
0.0225135108825 -0.0930558449812 0.811 6.72623262876e-44
-0.0369099433655 -0.0938127727207 0.831 2.00028713628e-38
-0.0352868978214 -0.0935869898742 0.829 1.9910309994e-38
-0.0337526848727 -0.0935869898742 0.829 1.47462827283e-38
-0.032140743403 -0.0933612070277 0.827 1.67774368264e-38
-0.0306102318124 -0.0933612070277 0.827 1.57625814461e-38
-0.0290093944171 -0.0931354241812 0.825 1.54870735563e-38
-0.0274825841846 -0.0931354241812 0.825 1.54867204291e-38
-0.0259557739521 -0.0931354241812 0.825 1.54870735563e-38
-0.0243697419894 -0.0929096413347 0.823 1.71458732251e-38
-0.0228466331151 -0.0929096413347 0.823 0.0
-0.0213235242407 -0.0929096413347 0.823 9.52882955741e-44
-0.0198004153664 -0.0929096413347 0.823 1.50348325029e-38
-0.0182773064921 -0.0929096413347 0.823 1.6686332808e-38
-0.0167134826782 -0.0926838584882 0.821 1.73313336756e-38
-0.015194075162 -0.0926838584882 0.821 1.6686332808e-38
-0.0136746676458 -0.0926838584882 0.821 1.67781823172e-38
-0.0121552601296 -0.0926838584882 0.821 1.73317022171e-38
-0.0106099431064 -0.0924580756417 0.819 1.75160948781e-38
-0.00909423694836 -0.0924580756417 0.819 1.63164740914e-38
-0.00756002399961 -0.0922322927952 0.817 1.06050758235e-38
-0.00604801919968 -0.0922322927952 0.817 9.78142901989e-39
-0.00453601439976 -0.0922322927952 0.817 9.22897831071e-39
-0.00301660688356 -0.0920065099487 0.815 1.00584012666e-38
-0.00150830344178 -0.0920065099487 0.815 6.64894821585e-39
0.0 -0.0920065099487 0.815 7.66383582604e-39
0.00150830344178 -0.0920065099487 0.815 8.11905884257e-39
0.00301660688356 -0.0920065099487 0.815 7.9306864939e-39
0.00451380625093 -0.0917807271022 0.813 1.26355629035e-38
0.00600360290201 -0.0915549442557 0.811 1.60442102075e-38
0.00750450362752 -0.0915549442557 0.811 1.64997737396e-38
0.00896098805535 -0.0911033785627 0.807 1.65005038161e-38
0.0104544860646 -0.0911033785627 0.807 1.58547840824e-38
0.0119479840738 -0.0911033785627 0.807 1.64083179953e-38
0.013441482083 -0.0911033785627 0.807 1.64086711225e-38
0.0149349800922 -0.0911033785627 0.807 1.58554973433e-38
0.0164284781015 -0.0911033785627 0.807 1.55792860017e-38
0.0179663924084 -0.0913291614092 0.809 1.74228454718e-38
0.0195117094315 -0.0915549442557 0.811 2.05578331988e-38
0.021012610157 -0.0915549442557 0.811 2.23084725677e-38
0.0225135108825 -0.0915549442557 0.811 9.24856986454e-44
-0.0384478576724 -0.0922748584138 0.831 1.92652965148e-38
-0.0369099433655 -0.0922748584138 0.831 2.00936222539e-38
-0.0353720290586 -0.0922748584138 0.831 2.09240891771e-38
-0.0337526848727 -0.0920527769254 0.829 1.35488269477e-38
-0.032140743403 -0.0918306954371 0.827 1.56718375614e-38
-0.0306102318124 -0.0918306954371 0.827 1.57629513889e-38
-0.0290797202217 -0.0918306954371 0.827 1.55796363264e-38
-0.0274825841846 -0.0916086139487 0.825 1.5579639129e-38
-0.0259557739521 -0.0916086139487 0.825 1.58555029485e-38
-0.0244289637197 -0.0916086139487 0.825 1.60398970109e-38
-0.0229021534872 -0.0916086139487 0.825 1.47491680019e-38
-0.0213753432547 -0.0916086139487 0.825 1.48441970572e-38
-0.0198485330222 -0.0916086139487 0.825 1.64108669572e-38
-0.0182773064921 -0.0913865324604 0.823 1.62250057354e-38
-0.0167541976177 -0.0913865324604 0.823 1.51193798458e-38
-0.0152310887434 -0.0913865324604 0.823 1.6040615877e-38
-0.0136746676458 -0.091164450972 0.821 1.53952436653e-38
-0.0121552601296 -0.091164450972 0.821 1.59487705717e-38
-0.0106358526134 -0.091164450972 0.821 1.58558532732e-38
-0.00909423694836 -0.0909423694836 0.819 1.67788787625e-38
-0.0075785307903 -0.0909423694836 0.819 1.3095044466e-38
-0.00606282463224 -0.0909423694836 0.819 1.03345873848e-38
-0.00453601439976 -0.0907202879953 0.817 1.4207127539e-38
-0.00301660688356 -0.0904982065069 0.815 1.32877117945e-38
-0.00150830344178 -0.0904982065069 0.815 1.15349032156e-38
0.0 -0.0904982065069 0.815 1.10707202967e-38
0.00151200479992 -0.0907202879953 0.817 1.35542149403e-38
0.00301660688356 -0.0904982065069 0.815 1.68692611122e-38
0.00452491032535 -0.0904982065069 0.815 1.03245008384e-38
0.00601840833457 -0.0902761250186 0.813 1.67799549597e-38
0.00752301041821 -0.0902761250186 0.813 1.622535606e-38
0.00900540435302 -0.0900540435302 0.811 1.64086711225e-38
0.0104803955715 -0.0898319620418 0.809 1.61324429653e-38
0.0119479840738 -0.0896098805535 0.807 1.58551470187e-38
0.013441482083 -0.0896098805535 0.807 1.58547840824e-38
0.0149719936736 -0.0898319620418 0.809 1.7053676194e-38
0.016469193041 -0.0898319620418 0.809 1.56725410132e-38
0.018010808706 -0.0900540435302 0.811 1.7516113095e-38
0.0195117094315 -0.0900540435302 0.811 2.16634548845e-38
0.021012610157 -0.0900540435302 0.811 2.35070157559e-38
-0.0385403916259 -0.0909553242371 0.833 1.96322839709e-38
-0.0369987759609 -0.0909553242371 0.833 1.96330000344e-38
-0.0353720290586 -0.0907369441069 0.831 2.05553094603e-38
-0.0338341147517 -0.0907369441069 0.831 1.33658650124e-38
-0.0322184719239 -0.0905185639767 0.829 1.56725564275e-38
-0.0306842589751 -0.0905185639767 0.829 1.55799894536e-38
-0.0290797202217 -0.0903001838465 0.827 1.57636520381e-38
-0.0275492086311 -0.0903001838465 0.827 1.54877924224e-38
-0.0260186970405 -0.0903001838465 0.827 1.58554973433e-38
-0.0244289637197 -0.0900818037162 0.825 1.54863673019e-38
-0.0229021534872 -0.0900818037162 0.825 1.62224876021e-38
-0.0214271622687 -0.0903001838465 0.827 1.58533477515e-38
-0.019896650678 -0.0903001838465 0.827 1.61310108383e-38
-0.0183217227897 -0.0900818037162 0.825 1.61327960926e-38
-0.0167949125573 -0.0900818037162 0.825 1.53952436653e-38
-0.0152681023248 -0.0900818037162 0.825 1.5394171672e-38
-0.0137079798691 -0.089863423586 0.823 1.63164740914e-38
-0.0121848709947 -0.089863423586 0.823 1.64086711225e-38
-0.0106617621204 -0.089863423586 0.823 1.64090242497e-38
-0.0091164450972 -0.0896450434558 0.821 1.65934183121e-38
-0.0075785307903 -0.0894266633256 0.819 1.24464282484e-38
-0.00606282463224 -0.0894266633256 0.819 8.67508566542e-39
-0.00454711847418 -0.0894266633256 0.819 1.55896934454e-38
-0.00302400959984 -0.0892082831954 0.817 2.40974150288e-39
-0.00151200479992 -0.0892082831954 0.817 1.95997934647e-39
0.0 -0.0892082831954 0.817 1.09760611841e-38
0.00151200479992 -0.0892082831954 0.817 1.00533509869e-38
0.00302400959984 -0.0892082831954 0.817 1.56722033003e-38
0.00453601439976 -0.0892082831954 0.817 1.30832048953e-38
0.00603321376713 -0.0889899030651 0.815 9.40508509392e-39
0.00754151720891 -0.0889899030651 0.815 9.04531292359e-39
0.00902761250186 -0.0887715229349 0.813 1.63204383647e-38
0.0105063050785 -0.0885531428047 0.811 1.62235595954e-38
0.012007205804 -0.0885531428047 0.811 1.63154049006e-38
0.0135081065295 -0.0885531428047 0.811 1.6315402098e-38
0.015009007255 -0.0885531428047 0.811 1.6316125168e-38
0.0165099079805 -0.0885531428047 0.811 1.62246582134e-38
0.0180552250037 -0.0887715229349 0.813 1.72395304093e-38
0.0195598270874 -0.0887715229349 0.813 2.15716263949e-38
0.021064429171 -0.0887715229349 0.813 2.2585058056e-38
-0.0385403916259 -0.0894137085721 0.833 1.9633002837e-38
-0.0369987759609 -0.0894137085721 0.833 1.92649433876e-38
-0.0353720290586 -0.0891990298 0.831 2.0464562773e-38
-0.0338341147517 -0.0891990298 0.831 1.29041609905e-38
-0.0323739289658 -0.0894137085721 0.833 1.6040615877e-38
-0.0306842589751 -0.0889843510279 0.829 1.54877896198e-38
-0.0291500460264 -0.0889843510279 0.829 1.59480517056e-38
-0.0275492086311 -0.0887696722558 0.827 1.58558658848e-38
-0.0260186970405 -0.0887696722558 0.827 1.61324401627e-38
-0.0244881854499 -0.0887696722558 0.827 1.57629513889e-38
-0.0229576738593 -0.0887696722558 0.827 1.56703998292e-38
-0.0214789812826 -0.0889843510279 0.829 1.56703998292e-38
-0.019896650678 -0.0887696722558 0.827 1.64086711225e-38
-0.0183661390874 -0.0887696722558 0.827 1.55785433136e-38
-0.0168356274968 -0.0887696722558 0.827 1.61320926407e-38
-0.0153051159062 -0.0887696722558 0.827 1.65001661032e-38
-0.0137412920923 -0.0885549934838 0.825 1.64083067849e-38
-0.0122144818598 -0.0885549934838 0.825 1.58547938915e-38
-0.0106876716274 -0.0885549934838 0.825 1.61313639655e-38
-0.00913865324604 -0.0883403147117 0.823 1.61310108383e-38
-0.007597037581 -0.0881256359396 0.821 1.57625982617e-38
-0.0060776300648 -0.0881256359396 0.821 1.13382856267e-38
-0.0045582225486 -0.0881256359396 0.821 1.45687424168e-38
-0.00303141231612 -0.0879109571675 0.819 7.56586264261e-39
-0.00151570615806 -0.0879109571675 0.819 1.34638760309e-38
0.0 -0.0879109571675 0.819 1.20790722508e-38
0.00151570615806 -0.0879109571675 0.819 7.56549690371e-39
0.00302400959984 -0.0876962783954 0.817 1.51215350428e-38
0.00453601439976 -0.0876962783954 0.817 1.59466602162e-38
0.00604801919968 -0.0876962783954 0.817 9.03591301349e-39
0.00756002399961 -0.0876962783954 0.817 2.59053562945e-39
0.00904982065069 -0.0874815996233 0.815 1.66910411709e-38
0.0105322145855 -0.0872669208513 0.813 1.63161223655e-38
0.012007205804 -0.0870522420792 0.811 1.61320898381e-38
0.0135081065295 -0.0870522420792 0.811 1.56703830136e-38
0.015009007255 -0.0870522420792 0.811 1.64083236005e-38
0.0165099079805 -0.0870522420792 0.811 1.55792831992e-38
0.0180552250037 -0.0872669208513 0.813 1.76101107947e-38
-0.0385403916259 -0.0878720929071 0.833 1.99110134458e-38
-0.0369987759609 -0.0878720929071 0.833 1.92649433876e-38
-0.0353720290586 -0.0876611154931 0.831 2.05556766004e-38
-0.0338341147517 -0.0876611154931 0.831 1.36417442463e-38
-0.0323739289658 -0.0878720929071 0.833 1.58558686874e-38
-0.0307582861379 -0.0876611154931 0.831 1.60384620812e-38
-0.029220371831 -0.0876611154931 0.831 1.60391683357e-38
-0.0276158330776 -0.0874501380792 0.829 1.60402473355e-38
-0.0260816201289 -0.0874501380792 0.829 1.58547784772e-38
-0.0244881854499 -0.0872391606652 0.827 1.60391683357e-38
-0.0229576738593 -0.0872391606652 0.827 1.58555029485e-38
-0.0214789812826 -0.0874501380792 0.829 1.56714816316e-38
-0.0199447683338 -0.0874501380792 0.829 1.54877896198e-38
-0.0184105553851 -0.0874501380792 0.829 1.58562218147e-38
-0.0168763424363 -0.0874501380792 0.829 1.58558532732e-38
-0.0153051159062 -0.0872391606652 0.827 1.58558532732e-38
-0.0137746043156 -0.0872391606652 0.827 1.56711046823e-38
-0.0122440927249 -0.0872391606652 0.827 1.61324429653e-38
-0.0106876716274 -0.0870281832513 0.825 1.61306422968e-38
-0.00913865324604 -0.0868172058373 0.823 1.59459007125e-38
-0.007597037581 -0.0866062284234 0.821 1.66841846175e-38
-0.0060776300648 -0.0866062284234 0.821 1.6683816076e-38
-0.0045582225486 -0.0866062284234 0.821 1.65005038161e-38
-0.0030388150324 -0.0866062284234 0.821 1.53044801625e-38
-0.00151570615806 -0.0863952510095 0.819 1.63172041679e-38
0.0 -0.0863952510095 0.819 1.47491553902e-38
0.00151570615806 -0.0863952510095 0.819 1.53970429326e-38
0.00303141231612 -0.0863952510095 0.819 1.30910759888e-38
0.00454711847418 -0.0863952510095 0.819 1.15252370588e-38
0.00606282463224 -0.0863952510095 0.819 1.46594961105e-38
0.00756002399961 -0.0861842735955 0.817 1.49342669173e-38
0.00904982065069 -0.0859732961816 0.815 1.67778446043e-38
0.0105322145855 -0.0857623187676 0.813 1.61324429653e-38
0.0120368166691 -0.0857623187676 0.813 1.67785312405e-38
0.0135414187528 -0.0857623187676 0.813 1.63172069705e-38
0.0150460208364 -0.0857623187676 0.813 1.73317022171e-38
0.0165506229201 -0.0857623187676 0.813 1.55807111223e-38
0.0180552250037 -0.0857623187676 0.813 1.74260684583e-38
-0.0369987759609 -0.086330477242 0.833 1.99099596694e-38
-0.0354571602958 -0.086330477242 0.833 2.08326222224e-38
-0.0339155446308 -0.086330477242 0.833 1.32736539683e-38
-0.0323739289658 -0.086330477242 0.833 1.58555155602e-38
-0.0308323133007 -0.086330477242 0.833 1.62235595954e-38
-0.0292906976357 -0.086330477242 0.833 1.59484020302e-38
-0.0276824575241 -0.0861232011862 0.831 1.58551470187e-38
-0.0260816201289 -0.0859159251304 0.829 1.54874406965e-38
-0.0245474071801 -0.0859159251304 0.829 1.57672547765e-38
-0.0230131942314 -0.0859159251304 0.829 1.65019415483e-38
-0.0214789812826 -0.0859159251304 0.829 1.66845377447e-38
-0.0199447683338 -0.0859159251304 0.829 1.65934155095e-38
-0.0184105553851 -0.0859159251304 0.829 1.28144862966e-38
-0.0168763424363 -0.0859159251304 0.829 1.40162566752e-38
-0.0153421294876 -0.0859159251304 0.829 1.44768844999e-38
-0.0137746043156 -0.0857086490746 0.827 1.71469606327e-38
-0.0122440927249 -0.0857086490746 0.827 1.65001478863e-38
-0.0107135811343 -0.0857086490746 0.827 1.6776730572e-38
-0.00916086139487 -0.0855013730188 0.825 1.65916190448e-38
-0.00763405116239 -0.0855013730188 0.825 1.61324569783e-38
-0.00609243549736 -0.085294096963 0.823 1.585659456e-38
-0.00456932662302 -0.085294096963 0.823 1.61331590289e-38
-0.00304621774868 -0.085294096963 0.823 1.59487677691e-38
-0.0015194075162 -0.0850868209072 0.821 1.59480517056e-38
0.0 -0.0850868209072 0.821 1.70540405316e-38
0.0015194075162 -0.0850868209072 0.821 1.66856139419e-38
0.00303141231612 -0.0848795448514 0.819 1.64090270523e-38
0.00454711847418 -0.0848795448514 0.819 1.70536705888e-38
0.00606282463224 -0.0848795448514 0.819 1.622535606e-38
0.0075785307903 -0.0848795448514 0.819 1.68700220172e-38
0.00907202879953 -0.0846722687956 0.817 1.63157552253e-38
0.0105581240925 -0.0844649927398 0.815 1.70540405316e-38
0.0120368166691 -0.084257716684 0.813 1.59480517056e-38
0.0135414187528 -0.084257716684 0.813 1.61328101055e-38
0.0150460208364 -0.084257716684 0.813 1.63175572951e-38
0.0165506229201 -0.084257716684 0.813 1.59477111901e-38
0.0180552250037 -0.084257716684 0.813 1.74242677897e-38
-0.0369987759609 -0.084788861577 0.833 2.00950543809e-38
-0.0354571602958 -0.084788861577 0.833 2.01872500108e-38
-0.0339155446308 -0.084788861577 0.833 1.30892585047e-38
-0.0323739289658 -0.084788861577 0.833 1.58562442354e-38
-0.0309063404635 -0.0849924362746 0.835 1.57629485863e-38
-0.0293610234403 -0.0849924362746 0.835 1.56721850834e-38
-0.0277490819706 -0.084788861577 0.833 1.61331590289e-38
-0.0261445432172 -0.0845852868793 0.831 9.58728892674e-39
-0.0246066289103 -0.0845852868793 0.831 7.37859731974e-39
-0.0230687146034 -0.0845852868793 0.831 1.10664267182e-38
-0.0215308002966 -0.0845852868793 0.831 1.41995717377e-38
-0.0199928859897 -0.0845852868793 0.831 1.5950579648e-38
-0.0184549716828 -0.0845852868793 0.831 1.54881595626e-38
-0.0169170573759 -0.0845852868793 0.831 1.10642364887e-38
-0.0153421294876 -0.0843817121817 0.829 8.66751865371e-39
-0.0138079165388 -0.0843817121817 0.829 1.05082110671e-38
-0.0122737035901 -0.0843817121817 0.829 1.08780529682e-38
-0.0107135811343 -0.084178137484 0.827 1.21749224671e-38
-0.00918306954371 -0.084178137484 0.827 1.4570879397e-38
-0.00763405116239 -0.0839745627863 0.825 1.68707254691e-38
-0.00610724092991 -0.0839745627863 0.825 1.61327960926e-38
-0.00458043069744 -0.0839745627863 0.825 1.65015912237e-38
-0.00305362046496 -0.0839745627863 0.825 1.70529713408e-38
-0.00152310887434 -0.0837709880887 0.823 1.70540405316e-38
0.0 -0.083567413391 0.821 1.5946992324e-38
0.0015194075162 -0.083567413391 0.821 1.68685758772e-38
0.0030388150324 -0.083567413391 0.821 1.63157692382e-38
0.0045582225486 -0.083567413391 0.821 1.58558658848e-38
0.0060776300648 -0.083567413391 0.821 1.61324597809e-38
0.0075785307903 -0.0833638386933 0.819 1.59491419158e-38
0.00909423694836 -0.0833638386933 0.819 1.62246554108e-38
0.0105581240925 -0.082956689298 0.815 1.65008723576e-38
0.0120664275343 -0.082956689298 0.815 1.62235567928e-38
0.0135414187528 -0.0827531146003 0.813 1.63168118043e-38
0.0150460208364 -0.0827531146003 0.813 1.60402473355e-38
0.0165506229201 -0.0827531146003 0.813 1.58555183628e-38
0.0180552250037 -0.0827531146003 0.813 1.76101107947e-38
-0.0373541063422 -0.08404673927 0.841 1.93571362148e-38
-0.0357976852446 -0.08404673927 0.841 2.01876059406e-38
-0.0342412641471 -0.08404673927 0.841 1.41952557384e-38
-0.0326071145285 -0.0838468659305 0.839 1.54860169773e-38
-0.0309803676263 -0.083646992591 0.837 1.66838314903e-38
-0.029431349245 -0.083646992591 0.837 1.64083067849e-38
-0.0278157064172 -0.0834471192515 0.835 1.57633017135e-38
-0.0262074663056 -0.0832472459119 0.833 1.67774592472e-38
-0.0246658506406 -0.0832472459119 0.833 1.60406130744e-38
-0.0231242349755 -0.0832472459119 0.833 1.52122845326e-38
-0.0216344383245 -0.0834471192515 0.835 8.2079950522e-39
-0.0200891213013 -0.0834471192515 0.835 8.57570277574e-39
-0.0184993879804 -0.0832472459119 0.833 1.08751957206e-38
-0.0169577723154 -0.0832472459119 0.833 1.11521413426e-38
-0.015379143069 -0.0830473725724 0.831 1.5306642366e-38
-0.0138412287621 -0.0830473725724 0.831 1.42928393609e-38
-0.0122737035901 -0.0828474992329 0.829 1.34663675396e-38
-0.0107394906413 -0.0828474992329 0.829 1.2085200129e-38
-0.00918306954371 -0.0826476258934 0.827 9.59092669756e-39
-0.00765255795309 -0.0826476258934 0.827 1.45637257683e-38
-0.00612204636247 -0.0826476258934 0.827 1.2355661943e-38
-0.00458043069744 -0.0824477525538 0.825 1.51200861002e-38
-0.00305362046496 -0.0824477525538 0.825 9.49728632898e-39
-0.00152681023248 -0.0824477525538 0.825 1.20837806137e-38
0.0 -0.0822478792143 0.823 1.66880774246e-38
0.00152310887434 -0.0822478792143 0.823 1.55810586443e-38
0.00304621774868 -0.0822478792143 0.823 1.71476837027e-38
0.00456932662302 -0.0822478792143 0.823 1.58547784772e-38
0.0060776300648 -0.0820480058748 0.821 1.56717955225e-38
0.007597037581 -0.0820480058748 0.821 1.59484174445e-38
0.0091164450972 -0.0820480058748 0.821 1.60402417303e-38
0.0105840335994 -0.0816482591957 0.817 1.64086711225e-38
0.0120960383994 -0.0816482591957 0.817 1.65934155095e-38
0.013574730976 -0.0814483858562 0.815 1.65015758094e-38
0.0150830344178 -0.0814483858562 0.815 1.65001478863e-38
0.0165913378596 -0.0814483858562 0.815 1.62232092708e-38
0.0180996413014 -0.0814483858562 0.815 1.78852515443e-38
-0.0373541063422 -0.0824903181724 0.841 2.0371286742e-38
-0.0357976852446 -0.0824903181724 0.841 2.03720140159e-38
-0.0342412641471 -0.0824903181724 0.841 1.42867296996e-38
-0.0326848430495 -0.0824903181724 0.841 1.62214057997e-38
-0.0310543947891 -0.0822941461911 0.839 1.62221372775e-38
-0.0295016750496 -0.0822941461911 0.839 1.58551470187e-38
-0.0278157064172 -0.0819018022283 0.835 1.58562218147e-38
-0.026270389394 -0.0819018022283 0.835 1.58558658848e-38
-0.0247250723708 -0.0819018022283 0.835 1.60402445329e-38
-0.0231797553476 -0.0819018022283 0.835 1.66841664006e-38
-0.0216344383245 -0.0819018022283 0.835 1.66845349421e-38
-0.0200891213013 -0.0819018022283 0.835 1.71465920912e-38
-0.0185438042781 -0.0819018022283 0.835 1.65005038161e-38
-0.0169984872549 -0.0819018022283 0.835 1.49353389106e-38
-0.0154161566504 -0.0817056302469 0.833 1.24489309675e-38
-0.0138745409853 -0.0817056302469 0.833 1.00522705858e-38
-0.0123033144552 -0.0815094582655 0.831 7.93321583763e-39
-0.0107394906413 -0.0813132862841 0.829 1.12493886535e-38
-0.00920527769254 -0.0813132862841 0.829 1.05103774745e-38
-0.00767106474379 -0.0813132862841 0.829 1.62268358312e-38
-0.00612204636247 -0.0811171143028 0.827 1.47516735235e-38
-0.00459153477185 -0.0811171143028 0.827 1.60438766985e-38
-0.00306102318124 -0.0811171143028 0.827 1.24482247131e-38
-0.00153051159062 -0.0811171143028 0.827 1.23564074338e-38
0.0 -0.0809209423214 0.825 1.17978582737e-38
0.00152681023248 -0.0809209423214 0.825 7.37573026308e-39
0.00305362046496 -0.0809209423214 0.825 1.53052410676e-38
0.00458043069744 -0.0809209423214 0.825 1.6960052641e-38
0.00609243549736 -0.08072477034 0.823 1.73306302238e-38
0.0076155443717 -0.08072477034 0.823 1.622535606e-38
0.0091164450972 -0.0805285983586 0.821 1.63186292884e-38
0.0106099431064 -0.0803324263772 0.819 1.59476985784e-38
0.0120960383994 -0.0801362543958 0.817 1.61313611629e-38
0.0136080431993 -0.0801362543958 0.817 1.66852636173e-38
0.0150830344178 -0.0799400824144 0.815 1.65927176628e-38
0.0165913378596 -0.0799400824144 0.815 1.65001534915e-38
0.0180996413014 -0.0799400824144 0.815 1.67781823172e-38
0.0197041800548 -0.0803324263772 0.819 2.10195470298e-38
-0.0373541063422 -0.0809338970749 0.841 1.98177444213e-38
-0.0357976852446 -0.0809338970749 0.841 1.95415330797e-38
-0.0342412641471 -0.0809338970749 0.841 1.62231882513e-38
-0.0326848430495 -0.0809338970749 0.841 1.64076019318e-38
-0.0311284219519 -0.0809338970749 0.841 1.57622325228e-38
-0.0295016750496 -0.0807414264516 0.839 1.57629541915e-38
-0.0278823308637 -0.0805489558284 0.837 1.52104992784e-38
-0.026270389394 -0.0803564852051 0.835 1.63182607469e-38
-0.0247250723708 -0.0803564852051 0.835 1.42914170429e-38
-0.0231797553476 -0.0803564852051 0.835 1.58576539417e-38
-0.0216862573384 -0.0805489558284 0.837 1.69611246343e-38
-0.0201372389571 -0.0805489558284 0.837 1.67774592472e-38
-0.0185438042781 -0.0803564852051 0.835 1.59473580629e-38
-0.0169984872549 -0.0803564852051 0.835 1.66845349421e-38
-0.0154161566504 -0.0801640145819 0.833 1.62239071174e-38
-0.0138745409853 -0.0801640145819 0.833 1.67763676357e-38
-0.0123329253203 -0.0801640145819 0.833 1.62235567928e-38
-0.0107654001483 -0.0799715439586 0.831 1.28202526398e-38
-0.00920527769254 -0.0797790733354 0.829 1.11682885048e-38
-0.00767106474379 -0.0797790733354 0.829 1.21766796953e-38
-0.00613685179503 -0.0797790733354 0.829 1.41051900822e-38
-0.00459153477185 -0.0795866027121 0.827 1.03220275466e-38
-0.00306102318124 -0.0795866027121 0.827 1.20719396416e-38
-0.00153051159062 -0.0795866027121 0.827 1.21666239776e-38
0.0 -0.0795866027121 0.827 1.43811267693e-38
0.00153051159062 -0.0795866027121 0.827 1.54910714608e-38
0.00305362046496 -0.0793941320889 0.825 1.60449108568e-38
0.00458043069744 -0.0793941320889 0.825 1.62282315245e-38
0.00610724092991 -0.0793941320889 0.825 1.71462417666e-38
0.00763405116239 -0.0793941320889 0.825 1.66856167445e-38
0.00913865324604 -0.0792016614656 0.823 1.68703905587e-38
0.0106358526134 -0.0790091908424 0.821 1.66852664199e-38
0.0121256492645 -0.0788167202191 0.819 1.68682255526e-38
0.0136080431993 -0.0786242495959 0.817 1.61324429653e-38
0.0150830344178 -0.0784317789727 0.815 1.76065080563e-38
0.0165913378596 -0.0784317789727 0.815 1.65001534915e-38
0.0181440575991 -0.0786242495959 0.817 1.75157473561e-38
0.0197041800548 -0.0788167202191 0.819 2.17567393233e-38
0.0212198862128 -0.0788167202191 0.819 2.13861589379e-38
0.0227355923709 -0.0788167202191 0.819 1.65945113249e-38
-0.0375317715329 -0.0797550145075 0.845 1.98174137149e-38
-0.0359679477191 -0.0797550145075 0.845 2.00947040563e-38
-0.0344041239052 -0.0797550145075 0.845 1.79752737602e-38
-0.0328403000913 -0.0797550145075 0.845 1.53026822966e-38
-0.0312024491147 -0.0795662452424 0.843 1.58558658848e-38
-0.0295720008543 -0.0793774759773 0.841 1.54863673019e-38
-0.0279489553102 -0.0791887067122 0.839 1.59484174445e-38
-0.0263333124823 -0.078999937447 0.837 1.69625497548e-38
-0.024784294101 -0.078999937447 0.837 1.37367957224e-38
-0.0232352757197 -0.078999937447 0.837 8.66394534263e-39
-0.0216862573384 -0.078999937447 0.837 9.95251915459e-39
-0.0201372389571 -0.078999937447 0.837 1.1711443e-38
-0.0185438042781 -0.0788111681819 0.835 1.43864839333e-38
-0.0169984872549 -0.0788111681819 0.835 1.63186292884e-38
-0.0154531702318 -0.0788111681819 0.835 1.7699045603e-38
-0.0139078532086 -0.0788111681819 0.835 1.65001661032e-38
-0.0123329253203 -0.0786223989168 0.833 1.4286041662e-38
-0.0107654001483 -0.0784336296517 0.831 1.19894199777e-38
-0.00922748584138 -0.0784336296517 0.831 1.22695997965e-38
-0.00768957153448 -0.0784336296517 0.831 1.24514715216e-38
-0.00613685179503 -0.0782448603866 0.829 1.24503911205e-38
-0.00460263884627 -0.0782448603866 0.829 1.5120831591e-38
-0.00306842589751 -0.0782448603866 0.829 1.41106229163e-38
-0.00153051159062 -0.0780560911215 0.827 1.45709130281e-38
0.0 -0.0780560911215 0.827 1.27251703351e-38
0.00153051159062 -0.0780560911215 0.827 4.98516833228e-39
0.00306102318124 -0.0780560911215 0.827 6.00214948238e-39
0.00459153477185 -0.0780560911215 0.827 9.1339114203e-39
0.00610724092991 -0.0778673218564 0.825 1.05078551373e-38
0.00763405116239 -0.0778673218564 0.825 1.11560845965e-38
0.00916086139487 -0.0778673218564 0.825 1.18072343617e-38
0.0106358526134 -0.0774897833262 0.821 1.3927689007e-38
0.0121552601296 -0.0774897833262 0.821 1.65041345804e-38
0.0136413554225 -0.0773010140611 0.819 1.70540405316e-38
0.0151200479992 -0.077112244796 0.817 1.67781781133e-38
0.0166320527991 -0.077112244796 0.817 1.65934211147e-38
0.0181884738967 -0.0773010140611 0.819 1.61335261691e-38
0.0197041800548 -0.0773010140611 0.819 2.11120985895e-38
0.0212198862128 -0.0773010140611 0.819 2.14783573704e-38
0.0227355923709 -0.0773010140611 0.819 1.79767213015e-38
-0.0375317715329 -0.0781911906936 0.845 1.98170437721e-38
-0.0359679477191 -0.0781911906936 0.845 2.01879590678e-38
-0.0344041239052 -0.0781911906936 0.845 1.81596650199e-38
-0.0328403000913 -0.0781911906936 0.845 1.45625935191e-38
-0.0313505034402 -0.0783762586006 0.847 1.58547840824e-38
-0.0297126524636 -0.0781911906936 0.845 1.59480615147e-38
-0.0280822042032 -0.0780061227866 0.843 1.61324401627e-38
-0.0264591586591 -0.0778210548797 0.841 1.34576906995e-38
-0.0249027375615 -0.0778210548797 0.841 1.15187112118e-38
-0.0233463164639 -0.0778210548797 0.841 1.53033983601e-38
-0.0217380763524 -0.0776359869727 0.839 1.49374899038e-38
-0.0201853566129 -0.0776359869727 0.839 1.54896043013e-38
-0.0185882205758 -0.0774509190657 0.837 1.10652734495e-38
-0.0170392021945 -0.0774509190657 0.837 7.46749709561e-39
-0.0154901838131 -0.0774509190657 0.837 9.12525980358e-39
-0.0139411654318 -0.0774509190657 0.837 1.40109261358e-38
-0.0123625361854 -0.0772658511588 0.835 1.30017516195e-38
-0.0108172191622 -0.0772658511588 0.835 1.41116794954e-38
-0.00927190213905 -0.0772658511588 0.835 1.79770688235e-38
-0.00772658511588 -0.0772658511588 0.835 1.58573008145e-38
-0.0061812680927 -0.0772658511588 0.835 1.5676516497e-38
-0.00462484699511 -0.0770807832518 0.833 1.18950663482e-38
-0.00306842589751 -0.0767106474379 0.829 8.39347512084e-39
-0.00153421294876 -0.0767106474379 0.829 1.50290591532e-38
0.0 -0.0767106474379 0.829 1.74228286562e-38
0.00153421294876 -0.0767106474379 0.829 1.67785312405e-38
0.00306842589751 -0.0767106474379 0.829 1.78855766455e-38
