# .PCD v0.7 - Point Cloud Data file format
VERSION 0.7
FIELDS x y z rgb
SIZE 4 4 4 4
TYPE F F F F
COUNT 1 1 1 1
WIDTH 845
HEIGHT 1
VIEWPOINT 0 0 0 1 0 0 0
POINTS 845
DATA ascii
0.0015379143069 -0.0445995149 0.831 7.93355355056e-39
0.00306842589751 -0.044492175514 0.829 8.20761670162e-39
0.00460263884627 -0.044492175514 0.829 7.37967351696e-39
0.00613685179503 -0.044492175514 0.829 8.48672452715e-39
0.00767106474379 -0.044492175514 0.829 8.66930530926e-39
0.00920527769254 -0.044492175514 0.829 8.76366454395e-39
0.0107394906413 -0.044492175514 0.829 9.31683832313e-39
0.0122737035901 -0.044492175514 0.829 9.0388291156e-39
0.0138079165388 -0.044492175514 0.829 9.31432439368e-39
0.0153051159062 -0.0443848361279 0.827 9.68526771537e-39
0.0168356274968 -0.0443848361279 0.827 8.58108516314e-39
0.0183661390874 -0.0443848361279 0.827 9.22645737478e-39
0.019896650678 -0.0443848361279 0.827 9.22464549586e-39
0.0214271622687 -0.0443848361279 0.827 8.48672452715e-39
0.0229576738593 -0.0443848361279 0.827 4.61667868421e-39
0.0244881854499 -0.0443848361279 0.827 1.44773469284e-38
0.0260186970405 -0.0443848361279 0.827 2.35033177292e-38
0.0275492086311 -0.0443848361279 0.827 2.35033205318e-38
0.0290797202217 -0.0443848361279 0.827 2.34964373538e-38
0.0306102318124 -0.0443848361279 0.827 2.35036596461e-38
0.0322184719239 -0.044492175514 0.829 2.35039959577e-38
0.0336712549936 -0.0443848361279 0.827 2.35058414678e-38
0.0352017665842 -0.0443848361279 0.827 1.68579932712e-38
0.0367322781748 -0.0443848361279 0.827 8.83071947806e-39
0.0382627897654 -0.0443848361279 0.827 1.7601431152e-38
0.0397933013561 -0.0443848361279 0.827 1.45507217185e-38
0.0413238129467 -0.0443848361279 0.827 1.44621358335e-38
0.0428543245373 -0.0443848361279 0.827 1.6588746383e-38
0.0443848361279 -0.0443848361279 0.827 9.49505826442e-39
0.0459153477185 -0.0443848361279 0.827 8.85729930734e-39
0.0474458593092 -0.0443848361279 0.827 1.66794958728e-38
0.0489763708998 -0.0443848361279 0.827 1.21601415709e-38
0.0505068824904 -0.0443848361279 0.827 1.66805944908e-38
0.0519115479043 -0.0442774967419 0.825 1.1149555947e-38
0.0534383581368 -0.0442774967419 0.825 2.59100086054e-42
0.0549651683692 -0.0442774967419 0.825 2.35070157559e-38
-0.00616646266014 -0.043165238621 0.833 2.34979269341e-38
-0.00462484699511 -0.043165238621 0.833 2.3506945691e-38
-0.00308323133007 -0.043165238621 0.833 1.98903877337e-38
-0.00154161566504 -0.043165238621 0.833 1.06713320174e-38
0.0 -0.0430616005931 0.831 5.2397394217e-39
0.0015379143069 -0.0430616005931 0.831 4.14852728805e-39
0.00306842589751 -0.0429579625652 0.829 6.3619286592e-39
0.00460263884627 -0.0429579625652 0.829 5.81088625498e-39
0.00613685179503 -0.0429579625652 0.829 5.812332395e-39
0.00767106474379 -0.0429579625652 0.829 5.53466930819e-39
0.00920527769254 -0.0429579625652 0.829 4.15676972562e-39
0.0107394906413 -0.0429579625652 0.829 4.61774507234e-39
0.0122737035901 -0.0429579625652 0.829 3.97273159311e-39
0.0138079165388 -0.0429579625652 0.829 5.44354567165e-39
0.0153051159062 -0.0428543245373 0.827 4.15569773229e-39
0.0168356274968 -0.0428543245373 0.827 4.15928785896e-39
0.0183661390874 -0.0428543245373 0.827 4.43406427093e-39
0.019896650678 -0.0428543245373 0.827 5.62793973397e-39
0.0214271622687 -0.0428543245373 0.827 5.53720565841e-39
0.0229576738593 -0.0428543245373 0.827 6.91821051837e-42
0.0244881854499 -0.0428543245373 0.827 1.55714079018e-38
0.0260186970405 -0.0428543245373 0.827 2.3503593785e-38
0.0275492086311 -0.0428543245373 0.827 2.34968030927e-38
0.0290797202217 -0.0428543245373 0.827 2.34949912138e-38
0.0306102318124 -0.0428543245373 0.827 2.34946380866e-38
0.032140743403 -0.0428543245373 0.827 2.34939192204e-38
0.0336712549936 -0.0428543245373 0.827 2.3497565399e-38
0.0352017665842 -0.0428543245373 0.827 1.26101615662e-38
0.0367322781748 -0.0428543245373 0.827 8.10213676231e-39
0.0382627897654 -0.0428543245373 0.827 8.21121103218e-39
0.0397933013561 -0.0428543245373 0.827 8.48709026605e-39
0.0413238129467 -0.0428543245373 0.827 7.29070507746e-39
0.0428543245373 -0.0428543245373 0.827 7.56656329185e-39
0.0443848361279 -0.0428543245373 0.827 8.67184165948e-39
0.0459153477185 -0.0428543245373 0.827 7.56478784669e-39
0.0474458593092 -0.0428543245373 0.827 7.47401453477e-39
0.0489763708998 -0.0428543245373 0.827 7.28853446614e-39
0.0505068824904 -0.0428543245373 0.827 5.72300662439e-39
0.052037394081 -0.0428543245373 0.827 4.34081206203e-39
0.0535679056716 -0.0428543245373 0.827 3.97421556818e-39
0.0550984172622 -0.0428543245373 0.827 2.35095268827e-38
0.0566289288529 -0.0428543245373 0.827 2.35098309645e-38
-0.00772658511588 -0.0417235596257 0.835 2.35007883855e-38
-0.00616646266014 -0.041623622956 0.833 2.34990143417e-38
-0.00462484699511 -0.041623622956 0.833 2.35076757675e-38
-0.00308323133007 -0.041623622956 0.833 1.81376338055e-38
-0.00154161566504 -0.041623622956 0.833 2.34892542979e-38
0.0 -0.041623622956 0.833 2.15553012678e-38
0.0015379143069 -0.0415236862862 0.831 1.02163500243e-38
0.00307582861379 -0.0415236862862 0.831 5.51196967436e-39
0.00460263884627 -0.0414237496164 0.829 4.51834396577e-39
0.00613685179503 -0.0414237496164 0.829 6.91506320202e-39
0.00767106474379 -0.0414237496164 0.829 6.54663801368e-39
0.00920527769254 -0.0414237496164 0.829 6.26969099038e-39
0.0107394906413 -0.0414237496164 0.829 6.72923000617e-39
0.0122737035901 -0.0414237496164 0.829 6.72923000617e-39
0.0138079165388 -0.0414237496164 0.829 6.54628208387e-39
0.0153421294876 -0.0414237496164 0.829 5.9945516421e-39
0.0168763424363 -0.0414237496164 0.829 5.9945516421e-39
0.0184105553851 -0.0414237496164 0.829 5.99563204322e-39
0.0199447683338 -0.0414237496164 0.829 5.0751204833e-39
0.0214789812826 -0.0414237496164 0.829 5.62613906545e-39
0.0229576738593 -0.0413238129467 0.827 3.72432901953e-40
0.0244881854499 -0.0413238129467 0.827 1.20636411521e-38
0.0260186970405 -0.0413238129467 0.827 2.25697614819e-38
0.0275492086311 -0.0413238129467 0.827 2.28345340242e-38
0.0290797202217 -0.0413238129467 0.827 2.17299689174e-38
0.0306102318124 -0.0413238129467 0.827 2.2190577124e-38
0.032140743403 -0.0413238129467 0.827 2.2652971986e-38
0.0336712549936 -0.0413238129467 0.827 2.34895878069e-38
0.0352017665842 -0.0413238129467 0.827 6.25198838688e-39
0.0367322781748 -0.0413238129467 0.827 6.53839417481e-39
0.0382627897654 -0.0413238129467 0.827 4.98256471974e-39
0.0397933013561 -0.0413238129467 0.827 4.15245652895e-39
0.0413238129467 -0.0413238129467 0.827 4.88892715375e-39
0.0428543245373 -0.0413238129467 0.827 4.15280405097e-39
0.0443848361279 -0.0413238129467 0.827 4.42794900444e-39
0.0459153477185 -0.0413238129467 0.827 5.25735654599e-39
0.0474458593092 -0.0413238129467 0.827 5.71833189271e-39
0.0489763708998 -0.0413238129467 0.827 3.96448775424e-39
0.0505068824904 -0.0413238129467 0.827 3.86833065362e-39
0.052037394081 -0.0413238129467 0.827 1.04934497891e-38
0.0535679056716 -0.0413238129467 0.827 1.2972673275e-38
0.0550984172622 -0.0413238129467 0.827 2.35095100672e-38
0.0566289288529 -0.0413238129467 0.827 2.35098323658e-38
-0.00772658511588 -0.0401782426026 0.835 2.3498640195e-38
-0.0061812680927 -0.0401782426026 0.835 2.350044787e-38
-0.00463595106953 -0.0401782426026 0.835 2.35058512769e-38
-0.00309063404635 -0.0401782426026 0.835 1.56497615054e-38
-0.00154161566504 -0.0400820072909 0.833 2.34820768471e-38
0.0 -0.0400820072909 0.833 2.34841942091e-38
0.0015379143069 -0.0399857719793 0.831 2.34839041403e-38
0.00307582861379 -0.0399857719793 0.831 1.7404390371e-38
0.00461374292069 -0.0399857719793 0.831 7.45127986848e-39
0.00615165722759 -0.0399857719793 0.831 1.83679680366e-39
0.00768957153448 -0.0399857719793 0.831 5.716887154e-39
0.00922748584138 -0.0399857719793 0.831 6.45157112326e-39
0.0107394906413 -0.0398895366677 0.829 5.80439684179e-39
0.0122737035901 -0.0398895366677 0.829 6.54161295738e-39
0.0138079165388 -0.0398895366677 0.829 6.91147027276e-39
0.0153421294876 -0.0398895366677 0.829 6.63703437631e-39
0.0168763424363 -0.0398895366677 0.829 6.17784848773e-39
0.0184105553851 -0.0398895366677 0.829 6.17927500957e-39
0.0199447683338 -0.0398895366677 0.829 4.33393589046e-39
0.0214789812826 -0.0398895366677 0.829 5.99453062263e-39
0.0229576738593 -0.0397933013561 0.827 3.96732678493e-39
0.0244881854499 -0.0397933013561 0.827 1.20661256543e-38
0.0260186970405 -0.0397933013561 0.827 2.17418981713e-38
0.0275492086311 -0.0397933013561 0.827 2.29296065198e-38
0.0290797202217 -0.0397933013561 0.827 2.21923918055e-38
0.0306102318124 -0.0397933013561 0.827 2.23750034162e-38
0.032140743403 -0.0397933013561 0.827 2.28388276027e-38
0.0336712549936 -0.0397933013561 0.827 2.34860243049e-38
0.0352017665842 -0.0397933013561 0.827 6.34274768582e-39
0.0368211107702 -0.0398895366677 0.829 6.63021145409e-39
0.0383553237189 -0.0398895366677 0.829 6.63847771373e-39
0.0398895366677 -0.0398895366677 0.829 7.19094804108e-39
0.0414237496164 -0.0398895366677 0.829 7.65048005038e-39
0.0429579625652 -0.0398895366677 0.829 7.83557195934e-39
0.044492175514 -0.0398895366677 0.829 7.65116808793e-39
0.0460263884627 -0.0398895366677 0.829 6.26607844294e-39
0.0474458593092 -0.0397933013561 0.827 8.47160591801e-39
0.0489763708998 -0.0397933013561 0.827 1.3812055259e-38
0.0505068824904 -0.0397933013561 0.827 1.93441139482e-38
0.052037394081 -0.0397933013561 0.827 1.99869021655e-38
0.0535679056716 -0.0397933013561 0.827 2.11764728396e-38
0.0550984172622 -0.0397933013561 0.827 2.35076841753e-38
0.0566289288529 -0.0397933013561 0.827 2.35083848245e-38
-0.00772658511588 -0.0386329255794 0.835 2.34982702522e-38
-0.0061812680927 -0.0386329255794 0.835 2.3501865984e-38
-0.00463595106953 -0.0386329255794 0.835 2.3505471525e-38
-0.00309063404635 -0.0386329255794 0.835 1.59302944515e-38
-0.00154531702318 -0.0386329255794 0.835 2.32004452831e-38
0.0 -0.0385403916259 0.833 2.34863381958e-38
0.00154161566504 -0.0385403916259 0.833 2.23764509575e-38
0.00308323133007 -0.0385403916259 0.833 2.34860383179e-38
0.00461374292069 -0.0384478576724 0.831 2.11832915579e-38
0.00615165722759 -0.0384478576724 0.831 1.55608280984e-38
0.00768957153448 -0.0384478576724 0.831 6.4374838698e-39
0.00922748584138 -0.0384478576724 0.831 6.54161295738e-39
0.0107654001483 -0.0384478576724 0.831 6.91291220888e-39
0.0123033144552 -0.0384478576724 0.831 7.00545816336e-39
0.0138079165388 -0.0383553237189 0.829 6.45158093235e-39
0.0153421294876 -0.0383553237189 0.829 6.81962777011e-39
0.0168763424363 -0.0383553237189 0.829 6.36008875431e-39
0.0184105553851 -0.0383553237189 0.829 6.45298783601e-39
0.0199447683338 -0.0383553237189 0.829 7.4664166945e-39
0.0214789812826 -0.0383553237189 0.829 7.00616161519e-39
0.0229576738593 -0.0382627897654 0.827 2.85809675563e-39
0.0244881854499 -0.0382627897654 0.827 1.10562883238e-38
0.0260816201289 -0.0383553237189 0.829 2.22957683958e-38
0.0276158330776 -0.0383553237189 0.829 2.34845725597e-38
0.0291500460264 -0.0383553237189 0.829 2.17317639808e-38
0.0306842589751 -0.0383553237189 0.829 2.28374108899e-38
0.032140743403 -0.0382627897654 0.827 2.17310353056e-38
0.0336712549936 -0.0382627897654 0.827 2.3488912381e-38
0.0352868978214 -0.0383553237189 0.829 5.1452989117e-39
0.0368211107702 -0.0383553237189 0.829 7.0014952913e-39
0.0383553237189 -0.0383553237189 0.829 6.91576104866e-39
0.0398895366677 -0.0383553237189 0.829 6.91506320202e-39
0.0414237496164 -0.0383553237189 0.829 7.00510783874e-39
0.0429579625652 -0.0383553237189 0.829 6.0820627312e-39
0.044492175514 -0.0383553237189 0.829 8.29041942788e-39
0.0460263884627 -0.0383553237189 0.829 1.43688612038e-38
0.0475606014115 -0.0383553237189 0.829 2.12801591169e-38
0.0490948143602 -0.0383553237189 0.829 2.1002162521e-38
0.050629027309 -0.0383553237189 0.829 2.1735398949e-38
0.0521632402577 -0.0383553237189 0.829 2.18246980949e-38
0.0535679056716 -0.0382627897654 0.827 2.13604437098e-38
0.0550984172622 -0.0382627897654 0.827 2.35094568178e-38
0.0566289288529 -0.0382627897654 0.827 2.35098351684e-38
-0.00774509190657 -0.0371764411516 0.837 2.34986289846e-38
-0.00619607352526 -0.0371764411516 0.837 2.35007995959e-38
-0.00463595106953 -0.0370876085562 0.835 2.35058428691e-38
-0.00309063404635 -0.0370876085562 0.835 1.83291899042e-38
-0.00154531702318 -0.0370876085562 0.835 2.29216905847e-38
0.0 -0.0370876085562 0.835 2.24704038156e-38
0.00154161566504 -0.0369987759609 0.833 2.26537006612e-38
0.00308323133007 -0.0369987759609 0.833 2.17328387767e-38
0.00462484699511 -0.0369987759609 0.833 2.21920386783e-38
0.00616646266014 -0.0369987759609 0.833 2.32976813835e-38
0.00770807832518 -0.0369987759609 0.833 2.16428656062e-38
0.00924969399022 -0.0369987759609 0.833 9.84582849341e-39
0.0107913096553 -0.0369987759609 0.833 5.51023346557e-39
0.0123033144552 -0.0369099433655 0.831 6.54553659308e-39
0.0138079165388 -0.0368211107702 0.829 3.86901168467e-39
0.0153421294876 -0.0368211107702 0.829 6.72530637047e-39
0.0168763424363 -0.0368211107702 0.829 4.69842202883e-39
0.0184105553851 -0.0368211107702 0.829 6.63311074061e-39
0.0199447683338 -0.0368211107702 0.829 6.26537779371e-39
0.0214789812826 -0.0368211107702 0.829 6.26647080651e-39
0.0230131942314 -0.0368211107702 0.829 4.42543087109e-39
0.0245474071801 -0.0368211107702 0.829 9.21237572651e-39
0.0260816201289 -0.0368211107702 0.829 2.21124435242e-38
0.0276158330776 -0.0368211107702 0.829 2.32076353455e-38
0.0291500460264 -0.0368211107702 0.829 2.17317667834e-38
0.0306842589751 -0.0368211107702 0.829 2.23771516067e-38
0.0322184719239 -0.0368211107702 0.829 2.26534049873e-38
0.0337526848727 -0.0368211107702 0.829 2.34896438588e-38
0.0352868978214 -0.0368211107702 0.829 5.4225990622e-39
0.0368211107702 -0.0368211107702 0.829 7.27808218089e-39
0.0383553237189 -0.0368211107702 0.829 7.83520341784e-39
0.0398895366677 -0.0368211107702 0.829 7.09728805432e-39
0.0414237496164 -0.0368211107702 0.829 6.17174162902e-39
0.0429579625652 -0.0368211107702 0.829 1.50102901616e-38
0.0445995149 -0.0369099433655 0.831 2.12794710793e-38
0.0461374292069 -0.0369099433655 0.831 2.16471689938e-38
0.0475606014115 -0.0368211107702 0.829 2.20112403478e-38
0.0490948143602 -0.0368211107702 0.829 2.12740284361e-38
0.0507511721276 -0.0369099433655 0.831 2.19172622663e-38
0.0522890864345 -0.0369099433655 0.831 2.14534142577e-38
0.0538270007414 -0.0369099433655 0.831 2.23746320721e-38
0.0553649150483 -0.0369099433655 0.831 2.35098337671e-38
-0.00774509190657 -0.0356274227702 0.837 2.34986682209e-38
-0.00619607352526 -0.0356274227702 0.837 2.3500072322e-38
-0.00464705514394 -0.0356274227702 0.837 2.35043743083e-38
-0.00309803676263 -0.0356274227702 0.837 2.17407687247e-38
-0.00154901838131 -0.0356274227702 0.837 2.15430567218e-38
0.0 -0.0356274227702 0.837 2.24707933766e-38
0.00154531702318 -0.035542291533 0.835 2.27455655847e-38
0.00309063404635 -0.035542291533 0.835 2.25626190637e-38
0.00463595106953 -0.035542291533 0.835 2.21016437169e-38
0.0061812680927 -0.035542291533 0.835 2.20079935393e-38
0.00772658511588 -0.035542291533 0.835 2.28374080873e-38
0.00927190213905 -0.035542291533 0.835 2.34870962982e-38
0.0108172191622 -0.035542291533 0.835 1.81437126382e-38
0.0123329253203 -0.0354571602958 0.833 7.81858121546e-39
0.0138745409853 -0.0354571602958 0.833 5.32654285507e-39
0.0154161566504 -0.0354571602958 0.833 6.54016961996e-39
0.0169170573759 -0.0353720290586 0.831 6.91177995972e-39
0.0184549716828 -0.0353720290586 0.831 5.34055443842e-39
0.0199928859897 -0.0353720290586 0.831 5.4338220616e-39
0.0215308002966 -0.0353720290586 0.831 7.0025897054e-39
0.0230131942314 -0.0352868978214 0.829 4.42291413905e-39
0.0245474071801 -0.0352868978214 0.829 8.56737626026e-39
0.0260816201289 -0.0352868978214 0.829 2.23883171529e-38
0.0276158330776 -0.0352868978214 0.829 2.32994806507e-38
0.0291500460264 -0.0352868978214 0.829 2.24693472366e-38
0.0306842589751 -0.0352868978214 0.829 2.24675521732e-38
0.0322184719239 -0.0352868978214 0.829 2.22838811809e-38
0.0337526848727 -0.0352868978214 0.829 2.34871117125e-38
0.0352868978214 -0.0352868978214 0.829 4.77652199744e-39
0.0369099433655 -0.0353720290586 0.831 6.5369452322e-39
0.0383553237189 -0.0352868978214 0.829 5.15832398092e-39
0.0398895366677 -0.0352868978214 0.829 1.2335167953e-38
0.0414237496164 -0.0352868978214 0.829 2.0173499069e-38
0.0430616005931 -0.0353720290586 0.831 2.18293279851e-38
0.0445995149 -0.0353720290586 0.831 2.21002368133e-38
0.0461374292069 -0.0353720290586 0.831 2.28384800806e-38
0.0476753435138 -0.0353720290586 0.831 2.19168811131e-38
0.0492132578207 -0.0353720290586 0.831 2.19179531064e-38
0.0507511721276 -0.0353720290586 0.831 2.29299540418e-38
0.0522890864345 -0.0353720290586 0.831 2.22842371107e-38
0.0538270007414 -0.0353720290586 0.831 2.30210566589e-38
0.0553649150483 -0.0353720290586 0.831 2.35097889256e-38
-0.00950508770183 -0.03485198824 0.856 2.34986359911e-38
-0.0079023996275 -0.034770558361 0.854 2.3497917125e-38
-0.00622568439037 -0.0342412641471 0.841 2.34982716535e-38
-0.00466926329278 -0.0342412641471 0.841 2.35018715892e-38
-0.00310543947891 -0.034159834268 0.839 2.35015086529e-38
-0.00155271973945 -0.034159834268 0.839 1.8681790229e-38
0.0 -0.034159834268 0.839 2.23789536765e-38
0.00154901838131 -0.0340784043889 0.837 2.30218021496e-38
0.00309803676263 -0.0340784043889 0.837 2.21934862196e-38
0.00464705514394 -0.0340784043889 0.837 2.24697143768e-38
0.00619607352526 -0.0340784043889 0.837 2.18243449677e-38
0.00774509190657 -0.0340784043889 0.837 2.21927575444e-38
0.00929411028789 -0.0340784043889 0.837 2.2561170121e-38
0.0108172191622 -0.0339969745099 0.835 2.32983820327e-38
0.0123625361854 -0.0339969745099 0.835 2.31172501932e-38
0.0139078532086 -0.0339969745099 0.835 1.6482408849e-38
0.0154531702318 -0.0339969745099 0.835 6.43388393404e-39
0.0169577723154 -0.0339155446308 0.833 3.76533241389e-39
0.0184993879804 -0.0339155446308 0.833 6.17392064813e-39
0.0200410036455 -0.0339155446308 0.833 7.28025279221e-39
0.0215826193105 -0.0339155446308 0.833 7.00544274907e-39
0.0230687146034 -0.0338341147517 0.831 5.62432438393e-39
0.0246066289103 -0.0338341147517 0.831 6.08241585841e-39
0.0261445432172 -0.0338341147517 0.831 2.3032973301e-38
0.0276824575241 -0.0338341147517 0.831 2.32072794157e-38
0.029220371831 -0.0338341147517 0.831 2.15480887846e-38
0.0307582861379 -0.0338341147517 0.831 2.3298369421e-38
0.0322962004448 -0.0338341147517 0.831 2.22853034989e-38
0.0338341147517 -0.0338341147517 0.831 2.34878179669e-38
0.0353720290586 -0.0338341147517 0.831 2.20405190779e-39
0.0369099433655 -0.0338341147517 0.831 9.3892280005e-39
0.0384478576724 -0.0338341147517 0.831 1.80547918429e-38
0.0399857719793 -0.0338341147517 0.831 2.21045696281e-38
0.0415236862862 -0.0338341147517 0.831 2.29307331637e-38
0.0430616005931 -0.0338341147517 0.831 2.11804231e-38
0.0445995149 -0.0338341147517 0.831 2.17335842675e-38
0.0461374292069 -0.0338341147517 0.831 2.23767858678e-38
0.0477900856161 -0.0339155446308 0.833 2.19150944576e-38
0.0492132578207 -0.0338341147517 0.831 2.21927575444e-38
0.0507511721276 -0.0338341147517 0.831 2.21916883537e-38
0.0524149326112 -0.0339155446308 0.833 2.163708525e-38
0.0539565482763 -0.0339155446308 0.833 2.3482404751e-38
0.0554981639413 -0.0339155446308 0.833 2.35097819191e-38
-0.00950508770183 -0.0332678069564 0.856 2.34989793092e-38
-0.0079023996275 -0.0331900784355 0.854 2.35000625129e-38
-0.006321919702 -0.0331900784355 0.854 2.34997121883e-38
-0.00469147144162 -0.0328403000913 0.845 2.34972192783e-38
-0.00312024491147 -0.0327625715704 0.843 2.35004310544e-38
-0.00156012245573 -0.0327625715704 0.843 1.82168786349e-38
0.0 -0.0326848430495 0.841 2.3022883952e-38
0.00155642109759 -0.0326848430495 0.841 2.24689941094e-38
0.00310543947891 -0.0326071145285 0.839 2.29292688068e-38
0.00465815921836 -0.0326071145285 0.839 2.26526622991e-38
0.00621087895782 -0.0326071145285 0.839 2.34827746938e-38
0.00774509190657 -0.0325293860076 0.837 2.21009346599e-38
0.00929411028789 -0.0325293860076 0.837 2.30221524743e-38
0.0108431286692 -0.0325293860076 0.837 2.26537609171e-38
0.0123921470505 -0.0325293860076 0.837 2.22845874353e-38
0.0139411654318 -0.0325293860076 0.837 2.3486020101e-38
0.0154531702318 -0.0324516574867 0.835 2.17357646879e-38
0.0169984872549 -0.0324516574867 0.835 1.44555721515e-38
0.0185438042781 -0.0324516574867 0.835 7.17616294098e-39
0.0200891213013 -0.0324516574867 0.835 5.98663991097e-39
0.0216344383245 -0.0324516574867 0.835 7.3742504919e-39
0.0231242349755 -0.0323739289658 0.833 5.62577052395e-39
0.0246658506406 -0.0323739289658 0.833 4.79241692592e-39
0.0262074663056 -0.0323739289658 0.833 2.30322670466e-38
0.0277490819706 -0.0323739289658 0.833 2.20083859028e-38
0.0292906976357 -0.0323739289658 0.833 2.24689941094e-38
0.0308323133007 -0.0323739289658 0.833 2.26534077899e-38
0.0323739289658 -0.0323739289658 0.833 2.28399094051e-38
0.0339155446308 -0.0323739289658 0.833 2.30236196337e-38
0.0354571602958 -0.0323739289658 0.833 8.54966945286e-39
0.0369987759609 -0.0323739289658 0.833 2.18298184395e-38
0.0385403916259 -0.0323739289658 0.833 2.34874438202e-38
0.0400820072909 -0.0323739289658 0.833 2.16399186755e-38
0.041623622956 -0.0323739289658 0.833 2.31147334612e-38
0.0432688766489 -0.0324516574867 0.835 2.16410299052e-38
0.0448141936721 -0.0324516574867 0.835 2.29328435192e-38
0.0463595106953 -0.0324516574867 0.835 2.33916482546e-38
0.0477900856161 -0.0323739289658 0.833 2.200873903e-38
0.0493317012812 -0.0323739289658 0.833 2.20994899212e-38
0.0509954617648 -0.0324516574867 0.835 2.25611645158e-38
0.052540778788 -0.0324516574867 0.835 2.25600981277e-38
0.0540860958111 -0.0324516574867 0.835 2.34863592152e-38
0.0556314128343 -0.0324516574867 0.835 2.35098029385e-38
-0.00629971155316 -0.0314985577658 0.851 2.34964835966e-38
-0.00472478366487 -0.0314985577658 0.851 2.35011499205e-38
-0.00313505034402 -0.0313505034402 0.847 2.35018898061e-38
-0.00156382381387 -0.0312764762774 0.845 1.61017531277e-38
0.0 -0.0312764762774 0.845 2.34849439038e-38
0.00156012245573 -0.0312024491147 0.843 2.25611645158e-38
0.00311284219519 -0.0311284219519 0.841 2.23767830652e-38
0.00466926329278 -0.0311284219519 0.841 2.25600953251e-38
0.00621087895782 -0.0310543947891 0.839 2.25604456497e-38
0.00776359869727 -0.0310543947891 0.839 2.26526622991e-38
0.00931631843672 -0.0310543947891 0.839 2.25608169938e-38
0.0108431286692 -0.0309803676263 0.837 2.23767830652e-38
0.0123921470505 -0.0309803676263 0.837 2.15470350081e-38
0.0139411654318 -0.0309803676263 0.837 2.23753509382e-38
0.0154901838131 -0.0309803676263 0.837 2.28374263042e-38
0.0170392021945 -0.0309803676263 0.837 2.34867697957e-38
0.0185882205758 -0.0309803676263 0.837 1.9985472841e-38
0.0200891213013 -0.0309063404635 0.835 1.21506842075e-38
0.0216344383245 -0.0309063404635 0.835 5.60559462866e-39
0.0231797553476 -0.0309063404635 0.835 3.41345095522e-39
0.0247250723708 -0.0309063404635 0.835 4.79028274836e-39
0.026270389394 -0.0309063404635 0.835 2.28492798879e-38
0.0278157064172 -0.0309063404635 0.835 2.28381241508e-38
0.0293610234403 -0.0309063404635 0.835 2.21931106716e-38
0.0309063404635 -0.0309063404635 0.835 2.23778704728e-38
0.0324516574867 -0.0309063404635 0.835 2.15484671352e-38
0.0339969745099 -0.0309063404635 0.835 2.30250209322e-38
0.035542291533 -0.0309063404635 0.835 1.8042219393e-38
0.0370876085562 -0.0309063404635 0.835 2.30225756664e-38
0.0386329255794 -0.0309063404635 0.835 2.2470053491e-38
0.0402744779142 -0.0309803676263 0.837 2.2747360648e-38
0.0418234962955 -0.0309803676263 0.837 2.2561559682e-38
0.0433725146768 -0.0309803676263 0.837 2.26530098211e-38
0.0449215330581 -0.0309803676263 0.837 2.27473634506e-38
0.0464705514394 -0.0309803676263 0.837 2.2007640412e-38
0.0480195698208 -0.0309803676263 0.837 2.30221272509e-38
0.0495685882021 -0.0309803676263 0.837 2.22849405626e-38
0.0511176065834 -0.0309803676263 0.837 2.33916370442e-38
0.0526666249647 -0.0309803676263 0.837 2.18232365406e-38
0.054215643346 -0.0309803676263 0.837 2.34871103112e-38
0.0557646617273 -0.0309803676263 0.837 2.35098197541e-38
-0.00633672513455 -0.0300994443891 0.856 2.34953863799e-38
-0.0047414397765 -0.0300291185845 0.854 2.34975513861e-38
-0.0031424530603 -0.0298533040729 0.849 2.35008009972e-38
-0.00156752517201 -0.0297829782682 0.847 1.63844356656e-38
0.0 -0.0297126524636 0.845 2.18254015468e-38
0.00156382381387 -0.0297126524636 0.845 2.27455053288e-38
0.00312764762774 -0.0297126524636 0.845 2.28388276027e-38
0.0046803673672 -0.0296423266589 0.843 2.25618973949e-38
0.00624048982293 -0.0296423266589 0.843 2.20991395966e-38
0.00778210548797 -0.0295720008543 0.841 2.2468645186e-38
0.00933852658556 -0.0295720008543 0.841 2.25601107394e-38
0.0108690381762 -0.0295016750496 0.839 2.28355906032e-38
0.0124217579156 -0.0295016750496 0.839 2.27455599795e-38
0.0139744776551 -0.0295016750496 0.839 2.27448565276e-38
0.0154901838131 -0.029431349245 0.837 2.21916883537e-38
0.0170392021945 -0.029431349245 0.837 2.28370955978e-38
0.0185882205758 -0.029431349245 0.837 2.34842096234e-38
0.0201372389571 -0.029431349245 0.837 2.34871271268e-38
0.0216862573384 -0.029431349245 0.837 1.84178010126e-38
0.0232352757197 -0.029431349245 0.837 6.16123189054e-39
0.024784294101 -0.029431349245 0.837 0.0
0.0263333124823 -0.029431349245 0.837 2.1746878386e-38
0.0278823308637 -0.029431349245 0.837 2.33905818665e-38
0.029431349245 -0.029431349245 0.837 2.13629744548e-38
0.0309063404635 -0.0293610234403 0.835 2.28395562779e-38
0.0324516574867 -0.0293610234403 0.835 2.23774991287e-38
0.0340784043889 -0.029431349245 0.837 2.13651688882e-38
0.0356274227702 -0.029431349245 0.837 2.0068302192e-38
0.0371764411516 -0.029431349245 0.837 2.24707989818e-38
0.0387254595329 -0.029431349245 0.837 2.29306729079e-38
0.0403707132258 -0.0295016750496 0.839 2.21927393275e-38
0.0419234329653 -0.0295016750496 0.839 2.31114936591e-38
0.0435797907326 -0.0295720008543 0.841 2.23760571926e-38
0.0451362118302 -0.0295720008543 0.841 2.22842371107e-38
0.0466926329278 -0.0295720008543 0.841 2.25597450005e-38
0.0481343119231 -0.0295016750496 0.839 2.24675493706e-38
0.0496870316625 -0.0295016750496 0.839 2.3021799347e-38
0.051239751402 -0.0295016750496 0.839 2.30221496717e-38
0.0526666249647 -0.029431349245 0.837 2.21898890864e-38
0.054215643346 -0.029431349245 0.837 2.34845683558e-38
0.0557646617273 -0.029431349245 0.837 2.35098113463e-38
-0.00633672513455 -0.0285152631055 0.856 2.34925095142e-38
-0.0047414397765 -0.028448638659 0.854 2.34946577047e-38
-0.00314985577658 -0.0283487019892 0.851 2.35007897868e-38
-0.00157492788829 -0.0283487019892 0.851 1.63837111943e-38
0.0 -0.0282820775427 0.849 2.34863872412e-38
0.00157122653015 -0.0282820775427 0.849 2.27459313236e-38
0.00313505034402 -0.0282154530962 0.847 2.21930952573e-38
0.00470257551603 -0.0282154530962 0.847 2.32083387973e-38
0.00625529525549 -0.0281488286497 0.845 2.22845874353e-38
0.00781911906936 -0.0281488286497 0.845 2.22838839835e-38
0.00938294288323 -0.0281488286497 0.845 2.34831460379e-38
0.0109208571901 -0.0280822042032 0.843 2.27434398149e-38
0.0124513687807 -0.0280155797567 0.841 2.25604638666e-38
0.0140077898783 -0.0280155797567 0.841 2.24697003638e-38
0.0155271973945 -0.0279489553102 0.839 2.23767858678e-38
0.017079917134 -0.0279489553102 0.839 2.28381521768e-38
0.0186326368734 -0.0279489553102 0.839 2.22864049195e-38
0.0201853566129 -0.0279489553102 0.839 2.219172759e-38
0.0217380763524 -0.0279489553102 0.839 2.34878067565e-38
0.0232907960918 -0.0279489553102 0.839 2.25658784839e-38
0.0248435158313 -0.0279489553102 0.839 1.15042203844e-38
0.0263333124823 -0.0278823308637 0.837 2.26591306928e-38
0.0278823308637 -0.0278823308637 0.837 2.32054801484e-38
0.029431349245 -0.0278823308637 0.837 2.16395445288e-38
0.0309803676263 -0.0278823308637 0.837 2.19161748587e-38
0.0325293860076 -0.0278823308637 0.837 2.1639230638e-38
0.0340784043889 -0.0278823308637 0.837 2.13644262e-38
0.0357125540074 -0.0279489553102 0.839 2.11740163634e-38
0.0372652737469 -0.0279489553102 0.839 2.30239699584e-38
0.0389105274398 -0.0280155797567 0.841 2.28381115391e-38
0.040563183849 -0.0280822042032 0.843 2.30214266016e-38
0.0421233063048 -0.0280822042032 0.843 2.32051017979e-38
0.0436834287605 -0.0280822042032 0.843 2.30221496717e-38
0.0452435512162 -0.0280822042032 0.843 2.34852900245e-38
0.046803673672 -0.0280822042032 0.843 2.2100193373e-38
0.04847853823 -0.0281488286497 0.845 2.34834725404e-38
0.0499239185834 -0.0280822042032 0.843 2.3114713843e-38
0.0514840410392 -0.0280822042032 0.843 2.25615470703e-38
0.0530441634949 -0.0280822042032 0.843 2.19151182796e-38
0.0546042859506 -0.0280822042032 0.843 2.34914179027e-38
-0.00633672513455 -0.0269310818219 0.856 2.34968086979e-38
-0.0047414397765 -0.0268681587335 0.854 2.34921507818e-38
-0.003160959851 -0.0268681587335 0.854 2.34957745396e-38
-0.0015804799255 -0.0268681587335 0.854 1.62932755953e-38
0.0 -0.0268681587335 0.854 2.2470105339e-38
0.0015804799255 -0.0268681587335 0.854 2.29299568444e-38
0.00314985577658 -0.0267737741009 0.851 2.23764075172e-38
0.00472478366487 -0.0267737741009 0.851 2.32058332757e-38
0.00629971155316 -0.0267737741009 0.851 2.25611911405e-38
0.00787463944145 -0.0267737741009 0.851 2.29288778446e-38
0.00944956732974 -0.0267737741009 0.851 2.34820446173e-38
0.011024495218 -0.0267737741009 0.851 2.34842194325e-38
0.0125994231063 -0.0267737741009 0.851 2.3488898368e-38
0.0141410387714 -0.0267108510126 0.849 2.29306729079e-38
0.0156012245573 -0.0265220817475 0.843 2.34842012156e-38
0.0171613470131 -0.0265220817475 0.843 2.16396286068e-38
0.0187214694688 -0.0265220817475 0.843 2.34849298908e-38
0.0202334742687 -0.0264591586591 0.841 2.34834781456e-38
0.0217898953663 -0.0264591586591 0.841 2.17335786623e-38
0.0232907960918 -0.0263962355707 0.839 2.29342910605e-38
0.0248435158313 -0.0263962355707 0.839 2.26569628841e-38
0.0263962355707 -0.0263962355707 0.839 2.200873903e-38
0.0279489553102 -0.0263962355707 0.839 2.31139753587e-38
0.0295016750496 -0.0263962355707 0.839 2.27455627821e-38
0.0310543947891 -0.0263962355707 0.839 2.16385117719e-38
0.0326071145285 -0.0263962355707 0.839 2.1917246852e-38
0.0342412641471 -0.0264591586591 0.841 2.04413937042e-38
0.0357976852446 -0.0264591586591 0.841 2.22816881488e-38
0.0374429389376 -0.0265220817475 0.843 2.32998281727e-38
0.0390030613933 -0.0265220817475 0.843 2.32976757783e-38
0.0406594191607 -0.0265850048358 0.845 2.2653000012e-38
0.0422232429745 -0.0265850048358 0.845 2.25611673184e-38
0.0437870667884 -0.0265850048358 0.845 2.3114713843e-38
0.0453508906023 -0.0265850048358 0.845 2.30207077355e-38
0.0469147144162 -0.0265850048358 0.845 2.34852914258e-38
0.04847853823 -0.0265850048358 0.845 2.27458934885e-38
0.0500423620439 -0.0265850048358 0.845 2.33902147263e-38
0.0516061858578 -0.0265850048358 0.845 2.34820348082e-38
0.0531700096716 -0.0265850048358 0.845 2.20061984759e-38
0.0547338334855 -0.0265850048358 0.845 2.34924870934e-38
-0.0047414397765 -0.025287678808 0.854 2.34849565155e-38
-0.003160959851 -0.025287678808 0.854 2.34903543172e-38
-0.0015804799255 -0.025287678808 0.854 1.51873147953e-38
0.0 -0.0253469005382 0.856 2.33927328596e-38
0.0015804799255 -0.025287678808 0.854 2.22860097533e-38
0.003160959851 -0.025287678808 0.854 2.21931106716e-38
0.0047414397765 -0.025287678808 0.854 2.31143635184e-38
0.006321919702 -0.025287678808 0.854 2.23775019313e-38
0.0079023996275 -0.025287678808 0.854 2.34813467706e-38
0.00948287955299 -0.025287678808 0.854 2.32976631666e-38
0.0110633594785 -0.025287678808 0.854 6.79582671569e-39
0.012643839404 -0.025287678808 0.854 1.52681613089e-38
0.0142243193295 -0.025287678808 0.854 2.34946506982e-38
0.015804799255 -0.025287678808 0.854 2.34874494254e-38
0.0173242067712 -0.0251988462126 0.851 2.33941916113e-38
0.0188991346595 -0.0251988462126 0.851 2.29339253216e-38
0.020425944892 -0.0251396244824 0.849 2.25626190637e-38
0.0219453524082 -0.0250804027522 0.847 5.87747175411e-39
0.0235128775802 -0.0250804027522 0.847 1.26945645753e-38
0.025021181022 -0.025021181022 0.845 2.32144694781e-38
0.0265850048358 -0.025021181022 0.845 2.26544797832e-38
0.0281488286497 -0.025021181022 0.845 2.34813229485e-38
0.0297126524636 -0.025021181022 0.845 2.25604876887e-38
0.0312764762774 -0.025021181022 0.845 2.28381115391e-38
0.0328403000913 -0.025021181022 0.845 2.22853034989e-38
0.0344041239052 -0.025021181022 0.845 2.06247115693e-38
0.0360530789563 -0.0250804027522 0.847 2.34838396806e-38
0.0377094367236 -0.0251396244824 0.849 2.29306602962e-38
0.0392806632538 -0.0251396244824 0.849 2.3480648924e-38
0.0408518897839 -0.0251396244824 0.849 2.34806166941e-38
0.0424231163141 -0.0251396244824 0.849 2.27448565276e-38
0.0438907048163 -0.0250804027522 0.847 2.32054675368e-38
0.0454582299883 -0.0250804027522 0.847 2.32961988097e-38
0.0471367959045 -0.0251396244824 0.849 2.33902147263e-38
0.0487080224347 -0.0251396244824 0.849 2.34870794826e-38
0.0502792489648 -0.0251396244824 0.849 2.28367172472e-38
0.051850475495 -0.0251396244824 0.849 2.34809936434e-38
0.0534217020251 -0.0251396244824 0.849 2.26490861854e-38
0.0553167973925 -0.025287678808 0.854 2.34913996858e-38
0.056897277318 -0.025287678808 0.854 2.35098533853e-38
-0.00476364792533 -0.0238182396267 0.858 2.32055277926e-38
-0.00316836256728 -0.0237627192546 0.856 2.34835103755e-38
-0.00158418128364 -0.0237627192546 0.856 1.54646093406e-38
0.0 -0.0238182396267 0.858 2.30236196337e-38
0.00158788264178 -0.0238182396267 0.858 2.28388276027e-38
0.00317576528356 -0.0238182396267 0.858 2.25618973949e-38
0.00476364792533 -0.0238182396267 0.858 2.23764649705e-38
0.00633672513455 -0.0237627192546 0.856 2.31150837858e-38
0.00792090641819 -0.0237627192546 0.856 2.29278184629e-38
0.00950508770183 -0.0237627192546 0.856 2.34896298458e-38
0.0110892689855 -0.0237627192546 0.856 9.75465160753e-39
0.0126734502691 -0.0237627192546 0.856 2.94272677508e-44
0.0142576315527 -0.0237627192546 0.856 2.3494607258e-38
0.0158418128364 -0.0237627192546 0.856 8.17335915806e-39
0.0173852791805 -0.0237071988825 0.854 2.01300448036e-38
0.018965759106 -0.0237071988825 0.854 7.89785266959e-39
0.0205462390315 -0.0237071988825 0.854 1.62908569541e-38
0.022126718957 -0.0237071988825 0.854 7.07783663034e-39
0.0236239183244 -0.0236239183244 0.851 4.31626831943e-39
0.0251988462126 -0.0236239183244 0.851 2.34953527488e-38
0.0267737741009 -0.0236239183244 0.851 2.28385025014e-38
0.0282820775427 -0.0235683979523 0.849 2.34824103562e-38
0.0298533040729 -0.0235683979523 0.849 2.30207049329e-38
0.0314985577658 -0.0236239183244 0.851 2.34831250184e-38
0.0329957571332 -0.0235683979523 0.849 2.32994806507e-38
0.0345669836633 -0.0235683979523 0.849 2.32079856701e-38
0.0361382101935 -0.0235683979523 0.849 2.26559231206e-38
0.037798269319 -0.0236239183244 0.851 2.32072696066e-38
0.0393731972073 -0.0236239183244 0.851 2.34853054388e-38
0.0409481250955 -0.0236239183244 0.851 2.33891581473e-38
0.0425230529838 -0.0236239183244 0.851 2.34846061909e-38
0.0440979808721 -0.0236239183244 0.851 2.33880763448e-38
0.0456729087604 -0.0236239183244 0.851 2.32040480214e-38
0.0472478366487 -0.0236239183244 0.851 2.34813355602e-38
0.048822764537 -0.0236239183244 0.851 2.34817027004e-38
0.0503976924253 -0.0236239183244 0.851 2.34813621849e-38
0.0519726203136 -0.0236239183244 0.851 2.34806124902e-38
0.053736317467 -0.0237071988825 0.854 2.34813355602e-38
0.0553167973925 -0.0237071988825 0.854 2.34914179027e-38
-0.00477475199975 -0.0222821759988 0.86 2.29306729079e-38
-0.00318316799983 -0.0222821759988 0.86 2.34845767636e-38
-0.00159158399992 -0.0222821759988 0.86 1.63872901106e-38
0.0 -0.0222821759988 0.86 2.33005498415e-38
0.00159158399992 -0.0222821759988 0.86 2.21949057349e-38
0.00318316799983 -0.0222821759988 0.86 2.27458990937e-38
0.00477475199975 -0.0222821759988 0.86 2.23757292888e-38
0.00635153056711 -0.0222303569849 0.858 2.23764355432e-38
0.00793941320889 -0.0222303569849 0.858 2.32976757783e-38
0.00952729585067 -0.0222303569849 0.858 2.34881584825e-38
0.0111151784924 -0.0222303569849 0.858 1.87858604621e-38
0.0127030611342 -0.0222303569849 0.858 3.03058959009e-39
0.014290943776 -0.0222303569849 0.858 1.88692405233e-38
0.0158788264178 -0.0222303569849 0.858 7.25506164972e-39
0.01742599412 -0.0221785379709 0.856 2.18150949966e-38
0.0190101754037 -0.0221785379709 0.856 6.98774855337e-39
0.0205943566873 -0.0221785379709 0.856 4.22443282327e-39
0.0221785379709 -0.0221785379709 0.856 1.72142565902e-38
0.0237627192546 -0.0221785379709 0.856 9.36726264707e-39
0.025287678808 -0.022126718957 0.854 2.27426312657e-38
0.0268681587335 -0.022126718957 0.854 2.34856809868e-38
0.028448638659 -0.022126718957 0.854 2.21938561624e-38
0.0300994443891 -0.0221785379709 0.856 2.16410355104e-38
0.03160959851 -0.022126718957 0.854 2.26566125594e-38
0.0330734856541 -0.0220489904361 0.851 2.0263117711e-38
0.0346484135424 -0.0220489904361 0.851 1.8882394512e-38
0.0362233414307 -0.0220489904361 0.851 1.84203345603e-38
0.037931518212 -0.022126718957 0.854 1.72171278507e-38
0.0395119981375 -0.022126718957 0.854 1.79543369598e-38
0.041092478063 -0.022126718957 0.854 2.19165882417e-38
0.0426729579885 -0.022126718957 0.854 2.34870584632e-38
0.0440979808721 -0.0220489904361 0.851 2.34852914258e-38
0.0456729087604 -0.0220489904361 0.851 2.3483113808e-38
0.0472478366487 -0.0220489904361 0.851 2.34827634834e-38
0.0489948776905 -0.022126718957 0.854 2.34817083056e-38
0.050575357616 -0.022126718957 0.854 2.33887797967e-38
0.0521558375415 -0.022126718957 0.854 2.34830927885e-38
0.053736317467 -0.022126718957 0.854 2.21927547418e-38
0.0555758924622 -0.0222303569849 0.858 2.34986163729e-38
-0.00477475199975 -0.0206905919989 0.86 2.21009374625e-38
-0.00318316799983 -0.0206905919989 0.86 2.11771762915e-38
-0.00159158399992 -0.0206905919989 0.86 1.71231091316e-38
0.0 -0.0207387096547 0.862 2.32065759638e-38
0.00159528535806 -0.0207387096547 0.862 2.23782446195e-38
0.00319057071611 -0.0207387096547 0.862 2.28374052847e-38
0.00478585607417 -0.0207387096547 0.862 2.21927855703e-38
0.00636633599967 -0.0206905919989 0.86 2.28370549601e-38
0.00795791999959 -0.0206905919989 0.86 2.24664773773e-38
0.00952729585067 -0.0206424743431 0.858 2.34827704899e-38
0.0111151784924 -0.0206424743431 0.858 2.34914305144e-38
0.0127030611342 -0.0206424743431 0.858 3.76525534248e-39
0.014290943776 -0.0206424743431 0.858 1.28576701114e-39
0.0158788264178 -0.0206424743431 0.858 2.32206043628e-38
0.0174667090596 -0.0206424743431 0.858 2.01734388131e-38
0.0190545917013 -0.0206424743431 0.858 2.22013741286e-38
0.0206424743431 -0.0206424743431 0.858 2.27509535773e-38
0.0222303569849 -0.0206424743431 0.858 2.34896228394e-38
0.0238182396267 -0.0206424743431 0.858 2.23785977467e-38
0.0254061222684 -0.0206424743431 0.858 2.31186837216e-38
0.0269940049102 -0.0206424743431 0.858 2.2656629375e-38
0.028581887552 -0.0206424743431 0.858 2.01680634322e-38
0.0301697701938 -0.0206424743431 0.858 1.97078545958e-38
0.0316836256728 -0.0205943566873 0.856 2.14588330789e-38
0.0331900784355 -0.0205462390315 0.854 1.85136021834e-38
0.034770558361 -0.0205462390315 0.854 1.54830504284e-38
0.0364361695237 -0.0205943566873 0.856 1.64046479946e-38
0.0380203508073 -0.0205943566873 0.856 2.08253368717e-38
0.039604532091 -0.0205943566873 0.856 1.64892303699e-38
0.0411887133746 -0.0205943566873 0.856 1.88769798947e-38
0.0427728946582 -0.0205943566873 0.856 1.87797816293e-38
0.0443570759419 -0.0205943566873 0.856 1.98882829834e-38
0.0459412572255 -0.0205943566873 0.856 2.34885480434e-38
0.0475254385092 -0.0205943566873 0.856 2.34824103562e-38
0.0491096197928 -0.0205943566873 0.856 2.34842096234e-38
0.050575357616 -0.0205462390315 0.854 2.34827634834e-38
0.0521558375415 -0.0205462390315 0.854 2.30225182132e-38
0.053736317467 -0.0205462390315 0.854 2.21920540926e-38
0.0555758924622 -0.0206424743431 0.858 2.3495757724e-38
0.057163775104 -0.0206424743431 0.858 2.35098407736e-38
-0.00478585607417 -0.0191434242967 0.862 2.09945674834e-38
-0.00319057071611 -0.0191434242967 0.862 2.05321866343e-38
-0.00159528535806 -0.0191434242967 0.862 1.84138381406e-38
0.0 -0.0191434242967 0.862 2.2561559682e-38
0.00159528535806 -0.0191434242967 0.862 2.31161683908e-38
0.00319057071611 -0.0191434242967 0.862 2.23767858678e-38
0.00478585607417 -0.0191434242967 0.862 2.2193107869e-38
0.00636633599967 -0.019099007999 0.86 2.28370549601e-38
0.00795791999959 -0.019099007999 0.86 2.30221875067e-38
0.0095495039995 -0.019099007999 0.86 2.292925059e-38
0.0111410879994 -0.019099007999 0.86 2.32065661548e-38
0.0127326719993 -0.019099007999 0.86 1.56451708516e-38
0.0143242559993 -0.019099007999 0.86 2.05422619702e-38
0.0159158399992 -0.019099007999 0.86 2.30283406083e-38
0.0175074239991 -0.019099007999 0.86 2.3486006088e-38
0.019099007999 -0.019099007999 0.86 2.28392059532e-38
0.0206905919989 -0.019099007999 0.86 2.34835117768e-38
0.0222821759988 -0.019099007999 0.86 2.31132719069e-38
0.0238737599988 -0.019099007999 0.86 2.34813523758e-38
0.0254653439987 -0.019099007999 0.86 2.33916944975e-38
0.0270569279986 -0.019099007999 0.86 2.34831474391e-38
0.0286485119985 -0.019099007999 0.86 1.36239785844e-38
0.0302400959984 -0.019099007999 0.86 1.45431014575e-38
0.0318316799983 -0.019099007999 0.86 2.31140103912e-38
0.0333455354773 -0.0190545917013 0.858 1.3619718637e-38
0.0349334181191 -0.0190545917013 0.858 1.6582220536e-38
0.0365213007609 -0.0190545917013 0.858 1.4641741659e-38
0.0381091834027 -0.0190545917013 0.858 1.72193180802e-38
0.0396970660444 -0.0190545917013 0.858 1.93419153109e-38
0.0412849486862 -0.0190545917013 0.858 1.85989482664e-38
0.042872831328 -0.0190545917013 0.858 1.91478480853e-38
0.0444607139698 -0.0190545917013 0.858 2.00730385808e-38
0.0460485966116 -0.0190545917013 0.858 2.34867557827e-38
0.0476364792533 -0.0190545917013 0.858 2.29278016473e-38
0.0491096197928 -0.0190101754037 0.856 2.34820348082e-38
0.0506938010764 -0.0190101754037 0.856 2.34834837508e-38
0.0522779823601 -0.0190101754037 0.856 2.34827817003e-38
0.0538621636437 -0.0190101754037 0.856 2.27441362602e-38
0.0555758924622 -0.0190545917013 0.858 2.349289347e-38
0.057163775104 -0.0190545917013 0.858 2.35098435762e-38
-0.00479696014859 -0.0175888538782 0.864 2.11789755587e-38
-0.00319797343239 -0.0175888538782 0.864 1.96123939405e-38
-0.0016045387534 -0.0176499262875 0.867 1.878334373e-38
0.0 -0.0176499262875 0.867 2.10857233498e-38
0.0016045387534 -0.0176499262875 0.867 2.33005526441e-38
0.00319797343239 -0.0175888538782 0.864 2.29306729079e-38
0.00479696014859 -0.0175888538782 0.864 2.22863474662e-38
0.00638114143223 -0.0175481389386 0.862 2.30214462198e-38
0.00797642679028 -0.0175481389386 0.862 2.27452250691e-38
0.00957171214834 -0.0175481389386 0.862 2.30221650859e-38
0.0111669975064 -0.0175481389386 0.862 2.3390241351e-38
0.0127622828645 -0.0175481389386 0.862 2.31122181304e-38
0.0143575682225 -0.0175481389386 0.862 2.34842110247e-38
0.0159528535806 -0.0175481389386 0.862 2.33916762806e-38
0.0175481389386 -0.0175481389386 0.862 2.22842371107e-38
0.0191434242967 -0.0175481389386 0.862 2.23764355432e-38
0.0207387096547 -0.0175481389386 0.862 2.30228685378e-38
0.0223339950128 -0.0175481389386 0.862 2.34838494897e-38
0.0239292803708 -0.0175481389386 0.862 2.31132691043e-38
0.0255245657289 -0.0175481389386 0.862 2.29299540418e-38
0.027119851087 -0.0175481389386 0.862 2.3484559948e-38
0.028715136445 -0.0175481389386 0.862 2.25654861203e-38
0.0303104218031 -0.0175481389386 0.862 2.1369463868e-38
0.0319057071611 -0.0175481389386 0.862 2.34856403491e-38
0.0335009925192 -0.0175481389386 0.862 2.26562566296e-38
0.0350962778772 -0.0175481389386 0.862 2.34892571005e-38
0.0366915632353 -0.0175481389386 0.862 2.30239699584e-38
0.0382868485934 -0.0175481389386 0.862 2.34896130303e-38
0.0398821339514 -0.0175481389386 0.862 2.32105052047e-38
0.0413811839978 -0.0175074239991 0.86 2.34871005021e-38
0.0429727679978 -0.0175074239991 0.86 2.34892542979e-38
0.0445643519977 -0.0175074239991 0.86 2.34838663053e-38
0.0461559359976 -0.0175074239991 0.86 2.34846159999e-38
0.0477475199975 -0.0175074239991 0.86 2.34841956104e-38
0.0493391039974 -0.0175074239991 0.86 2.3390171286e-38
0.0509306879973 -0.0175074239991 0.86 2.34842418533e-38
0.0524001271787 -0.0174667090596 0.858 2.34817083056e-38
0.0539880098204 -0.0174667090596 0.858 2.26497896372e-38
0.0557054399971 -0.0175074239991 0.86 2.35004548765e-38
0.057297023997 -0.0175074239991 0.86 2.35098505827e-38
-0.00161194146968 -0.0161194146968 0.871 1.79531878951e-38
0.0 -0.0160824011154 0.869 2.13630192964e-38
0.00160824011154 -0.0160824011154 0.869 2.29331910412e-38
0.00321648022309 -0.0160824011154 0.869 2.30217741237e-38
0.00481361626021 -0.016045387534 0.867 2.25633225155e-38
0.00641815501362 -0.016045387534 0.867 2.24704178286e-38
0.00799493358098 -0.015989867162 0.864 2.26523091719e-38
0.00959392029717 -0.015989867162 0.864 2.34806096876e-38
0.0111929070134 -0.015989867162 0.864 2.31125474356e-38
0.0127918937296 -0.015989867162 0.864 2.30214266016e-38
0.0143908804458 -0.015989867162 0.864 2.3483836878e-38
0.015989867162 -0.015989867162 0.864 2.34863438009e-38
0.0175888538782 -0.015989867162 0.864 2.164424028e-38
0.0191878405943 -0.015989867162 0.864 2.13712757469e-38
0.0207868273105 -0.015989867162 0.864 2.10921384941e-38
0.0223858140267 -0.015989867162 0.864 2.18290140942e-38
0.0239848007429 -0.015989867162 0.864 2.29346413852e-38
0.0255837874591 -0.015989867162 0.864 2.17357478723e-38
0.0271827741753 -0.015989867162 0.864 2.24743835032e-38
0.0287817608915 -0.015989867162 0.864 2.33019987841e-38
0.0303807476077 -0.015989867162 0.864 2.26562762478e-38
0.0319797343239 -0.015989867162 0.864 2.34888997693e-38
0.0335787210401 -0.015989867162 0.864 2.1826867305e-38
0.0351777077563 -0.015989867162 0.864 2.2655906305e-38
0.0369043913283 -0.016045387534 0.867 2.32083359947e-38
0.0383756811887 -0.015989867162 0.864 2.30228531235e-38
0.0399746679049 -0.015989867162 0.864 2.34870836865e-38
0.0414774193095 -0.0159528535806 0.862 2.34820586302e-38
0.0430727046675 -0.0159528535806 0.862 2.30225378313e-38
0.0446679900256 -0.0159528535806 0.862 2.34820586302e-38
0.0462632753836 -0.0159528535806 0.862 2.34809796304e-38
0.0478585607417 -0.0159528535806 0.862 2.34827634834e-38
0.0494538460997 -0.0159528535806 0.862 2.34827690886e-38
0.0510491314578 -0.0159528535806 0.862 2.32969625174e-38
0.0525222719973 -0.0159158399992 0.86 2.32958653007e-38
0.0541138559972 -0.0159158399992 0.86 2.21880856153e-38
0.0557054399971 -0.0159158399992 0.86 2.34997290039e-38
0.057297023997 -0.0159158399992 0.86 2.35098645957e-38
-0.00162489622317 -0.0146240660085 0.878 1.81383372573e-38
0.0 -0.0145407854504 0.873 2.08101986444e-38
0.00161564282782 -0.0145407854504 0.873 2.21949057349e-38
0.00323128565565 -0.0145407854504 0.873 2.33905818665e-38
0.00483582440905 -0.0145074732272 0.871 2.23793011985e-38
0.00644776587873 -0.0145074732272 0.871 2.30221552768e-38
0.00804120055772 -0.0144741610039 0.869 2.17339500064e-38
0.00964944066926 -0.0144741610039 0.869 1.90585012952e-38
0.0112317712738 -0.0144408487806 0.867 2.14584785504e-38
0.0128363100272 -0.0144408487806 0.867 1.9805394778e-38
0.0144408487806 -0.0144408487806 0.867 1.97149815998e-38
0.016045387534 -0.0144408487806 0.867 2.17400204313e-38
0.0176499262875 -0.0144408487806 0.867 1.75948758778e-38
0.0191878405943 -0.0143908804458 0.864 1.61211863348e-38
0.0207868273105 -0.0143908804458 0.864 1.80512073214e-38
0.0223858140267 -0.0143908804458 0.864 1.66660742361e-38
0.0239848007429 -0.0143908804458 0.864 1.94319305204e-38
0.0255837874591 -0.0143908804458 0.864 1.75847935353e-38
0.0271827741753 -0.0143908804458 0.864 1.61065035295e-38
0.0287817608915 -0.0143908804458 0.864 2.26562314063e-38
0.0304862363147 -0.0144408487806 0.867 1.78605760796e-38
0.0320907750681 -0.0144408487806 0.867 1.89684566585e-38
0.0336953138215 -0.0144408487806 0.867 1.73978883462e-38
0.035381282454 -0.0144741610039 0.869 1.9976162614e-38
0.0369895225655 -0.0144741610039 0.869 1.97910440804e-38
0.0385977626771 -0.0144741610039 0.869 1.97917657491e-38
0.0401134688351 -0.0144408487806 0.867 2.34859836672e-38
0.0415736546211 -0.0143908804458 0.864 2.28402779466e-38
0.0431726413373 -0.0143908804458 0.864 2.34856613686e-38
0.0447716280535 -0.0143908804458 0.864 2.26573482411e-38
