# .PCD v0.7 - Point Cloud Data file format
VERSION 0.7
FIELDS x y z rgb
SIZE 4 4 4 4
TYPE F F F F
COUNT 1 1 1 1
WIDTH 845
HEIGHT 1
VIEWPOINT 0 0 0 1 0 0 0
POINTS 845
DATA ascii
0.0218935333942 -0.107783549018 0.91 1.86032642657e-38
0.0235776513476 -0.107783549018 0.91 1.83259739243e-38
0.025261769301 -0.107783549018 0.91 1.85096617322e-38
0.0269458872544 -0.107783549018 0.91 1.8510031675e-38
0.0286300052078 -0.107783549018 0.91 1.85103679866e-38
0.0303141231612 -0.107783549018 0.91 1.83256179945e-38
0.0319982411146 -0.107783549018 0.91 1.90653382304e-38
0.0337933998122 -0.108138879399 0.913 1.82334223646e-38
0.0354830698028 -0.108138879399 0.913 1.89717328943e-38
0.0371727397934 -0.108138879399 0.913 1.78664180929e-38
0.0387347129282 -0.107783549018 0.91 1.86947606476e-38
0.0404188308816 -0.107783549018 0.91 1.76798954582e-38
0.042102948835 -0.107783549018 0.91 1.90632012502e-38
0.0437870667884 -0.107783549018 0.91 1.85114609994e-38
0.0456210897465 -0.108138879399 0.913 1.94330445526e-38
0.0471553026952 -0.107783549018 0.91 1.81430274033e-38
0.0488394206486 -0.107783549018 0.91 1.85125329927e-38
0.050523538602 -0.107783549018 0.91 1.86951137748e-38
-0.0500738235881 -0.108781065036 0.933 1.84087121908e-38
-0.0483471400161 -0.108781065036 0.933 1.85916657183e-38
-0.0464705514394 -0.108431286692 0.93 2.06203142947e-38
-0.044653184593 -0.108198101129 0.928 1.0394271489e-38
-0.0427969534861 -0.107848322785 0.925 1.11376379035e-38
-0.0405520797746 -0.106449209408 0.913 1.0866056452e-38
-0.0387347129282 -0.106099431064 0.91 1.15081986707e-38
-0.036684160519 -0.105050096032 0.901 1.34453508652e-38
-0.0348223773749 -0.104467132125 0.896 7.26755983072e-39
-0.0331641689285 -0.104467132125 0.896 1.21525437306e-38
-0.0314356346774 -0.104233946562 0.894 1.01252516111e-38
-0.0297811275891 -0.104233946562 0.894 1.87880282708e-38
-0.0280322358683 -0.103884168218 0.891 1.85143350625e-38
-0.0263832808172 -0.103884168218 0.891 1.84195918721e-38
-0.0247343257662 -0.103884168218 0.891 1.82348544916e-38
-0.0230853707151 -0.103884168218 0.891 1.83277731915e-38
-0.0215085921477 -0.104233946562 0.894 1.91564506566e-38
-0.0198540850594 -0.104233946562 0.894 1.6025784534e-38
-0.0182402929107 -0.104467132125 0.896 1.28571516309e-39
-0.0165820844643 -0.104467132125 0.896 2.02084054137e-39
-0.0149238760178 -0.104467132125 0.896 2.57148918072e-39
-0.0132952784365 -0.104700317688 0.898 5.184804318e-44
-0.011633368632 -0.104700317688 0.898 4.05128277982e-39
-0.00997145882739 -0.104700317688 0.898 2.00816789871e-38
-0.00830954902282 -0.104700317688 0.898 1.83274172617e-38
-0.00666984736709 -0.105050096032 0.901 1.86029279541e-38
-0.00500238552532 -0.105050096032 0.901 1.90639341293e-38
-0.00334232639983 -0.105283281595 0.903 1.82337726892e-38
-0.00167116319991 -0.105283281595 0.903 1.85118141266e-38
0.0 -0.105633059939 0.906 1.83274200643e-38
0.00167671523712 -0.105633059939 0.906 1.85110854514e-38
0.00335343047424 -0.105633059939 0.906 1.91546976322e-38
0.00503014571137 -0.105633059939 0.906 1.81423057345e-38
0.00670686094849 -0.105633059939 0.906 1.95255933097e-38
0.00838357618561 -0.105633059939 0.906 1.90649879058e-38
0.0100602914227 -0.105633059939 0.906 1.92475841022e-38
0.0117370066599 -0.105633059939 0.906 2.00798629043e-38
0.013413721897 -0.105633059939 0.906 1.59382398138e-38
0.0150904371341 -0.105633059939 0.906 1.26267403283e-38
0.0168041659526 -0.105866245501 0.908 1.78732942645e-38
0.0184845825479 -0.105866245501 0.908 1.86954640994e-38
0.0202094154408 -0.106099431064 0.91 1.8234504167e-38
0.0218935333942 -0.106099431064 0.91 1.82345013644e-38
0.0235776513476 -0.106099431064 0.91 1.83274228669e-38
0.0253450498591 -0.106449209408 0.913 1.85082113883e-38
0.0270347198498 -0.106449209408 0.913 1.84178136243e-38
0.0287243898404 -0.106449209408 0.913 1.86933089024e-38
0.030414059831 -0.106449209408 0.913 1.87862304049e-38
0.0321037298216 -0.106449209408 0.913 1.82352230331e-38
0.033867426975 -0.106682394971 0.915 1.85089176427e-38
0.0355607983237 -0.106682394971 0.915 1.84160213636e-38
0.0371727397934 -0.106449209408 0.913 1.8510365184e-38
0.038862409784 -0.106449209408 0.913 1.86025622152e-38
0.0405520797746 -0.106449209408 0.913 1.81423239514e-38
0.0422417497652 -0.106449209408 0.913 1.84178136243e-38
0.0439314197559 -0.106449209408 0.913 1.8234851689e-38
0.0456210897465 -0.106449209408 0.913 1.9065341033e-38
0.0473107597371 -0.106449209408 0.913 1.8605782399e-38
0.0488394206486 -0.106099431064 0.91 1.87880408825e-38
0.050523538602 -0.106099431064 0.91 1.88812930914e-38
-0.0483471400161 -0.107054381464 0.933 1.785415533e-38
-0.0464705514394 -0.106710155157 0.93 2.00660671209e-38
-0.044653184593 -0.106480670953 0.928 1.34384746937e-38
-0.0427969534861 -0.106136444646 0.925 1.16004139188e-38
-0.04064091237 -0.104989023622 0.915 1.00363154015e-38
-0.0387347129282 -0.104415313111 0.91 1.06766499451e-38
-0.036684160519 -0.10338263419 0.901 1.29818868124e-38
-0.0349001058959 -0.103038407883 0.898 1.25227233446e-38
-0.0331641689285 -0.102808923678 0.896 9.93798909081e-39
-0.0315059604821 -0.102808923678 0.896 1.16918514462e-38
-0.0297811275891 -0.102579439474 0.894 1.79590088889e-38
-0.0281266205009 -0.102579439474 0.894 1.8790564621e-38
-0.0264721134126 -0.102579439474 0.894 1.82355607461e-38
-0.0248176063243 -0.102579439474 0.894 1.8328489255e-38
-0.023163099236 -0.102579439474 0.894 1.84196184967e-38
-0.0215085921477 -0.102579439474 0.894 1.95266625004e-38
-0.0198985013571 -0.102808923678 0.896 1.89749586833e-38
-0.0182402929107 -0.102808923678 0.896 3.12241387586e-39
-0.0165820844643 -0.102808923678 0.896 2.7555553392e-40
-0.0149571882411 -0.103038407883 0.898 6.0255833966e-44
-0.0132952784365 -0.103038407883 0.898 2.29594765978e-39
-0.011633368632 -0.103038407883 0.898 2.13660026608e-38
-0.00997145882739 -0.103038407883 0.898 1.88802533279e-38
-0.00830954902282 -0.103038407883 0.898 1.83274172617e-38
-0.00666984736709 -0.10338263419 0.901 1.8510365184e-38
-0.00500238552532 -0.10338263419 0.901 1.87855241504e-38
-0.00334232639983 -0.103612118395 0.903 1.88780757101e-38
-0.00167671523712 -0.103956344702 0.906 1.86958480552e-38
0.0 -0.103956344702 0.906 1.87880282708e-38
0.00167671523712 -0.103956344702 0.906 1.8143011989e-38
0.00335343047424 -0.103956344702 0.906 1.97081867035e-38
0.00503014571137 -0.103956344702 0.906 1.869584245e-38
0.00670686094849 -0.103956344702 0.906 1.93422964641e-38
0.00838357618561 -0.103956344702 0.906 1.63945348236e-38
0.0100602914227 -0.103956344702 0.906 1.52013964436e-38
0.0117629161668 -0.104185828906 0.908 1.51938952929e-38
0.0134433327621 -0.104185828906 0.908 8.26519465422e-40
0.0151237493574 -0.104185828906 0.908 1.46611804713e-38
0.0168041659526 -0.104185828906 0.908 1.79672527278e-38
0.0185252974874 -0.104415313111 0.91 1.93408335085e-38
0.0202094154408 -0.104415313111 0.91 1.79586557617e-38
0.0218935333942 -0.104415313111 0.91 1.7957558545e-38
0.0235776513476 -0.104415313111 0.91 1.81423057345e-38
0.0253450498591 -0.104759539418 0.913 1.88787917736e-38
0.0270347198498 -0.104759539418 0.913 1.86947606476e-38
0.0287243898404 -0.104759539418 0.913 1.83274200643e-38
0.030414059831 -0.104759539418 0.913 1.84181695541e-38
0.0321037298216 -0.104759539418 0.913 1.934120205e-38
0.033867426975 -0.104989023622 0.915 1.82355733577e-38
0.0355607983237 -0.104989023622 0.915 1.86958480552e-38
0.0372541696725 -0.104989023622 0.915 1.81426714734e-38
0.0389475410212 -0.104989023622 0.915 1.83274200643e-38
0.0405520797746 -0.104759539418 0.913 1.81419526073e-38
0.0422417497652 -0.104759539418 0.913 1.88780701049e-38
0.0439314197559 -0.104759539418 0.913 1.90624445491e-38
0.0456210897465 -0.104759539418 0.913 1.8418535293e-38
0.047414397765 -0.104989023622 0.915 1.8511088254e-38
0.0490004297277 -0.104759539418 0.913 1.86947606476e-38
0.0506900997183 -0.104759539418 0.913 1.84192415475e-38
-0.0483471400161 -0.105327697892 0.933 1.68385404459e-38
-0.0464705514394 -0.104989023622 0.93 1.85895343433e-38
-0.044653184593 -0.104763240776 0.928 1.2974992424e-38
-0.0427969534861 -0.104424566506 0.925 1.05862647929e-38
-0.04064091237 -0.103295652274 0.915 1.13245360862e-38
-0.038862409784 -0.103069869427 0.913 1.15085391863e-38
-0.036684160519 -0.101715172348 0.901 1.02185010174e-38
-0.0350166986772 -0.101715172348 0.901 1.25241204392e-38
-0.0331641689285 -0.101150715232 0.896 1.23372236578e-38
-0.0315059604821 -0.101150715232 0.896 1.12308732968e-38
-0.0297811275891 -0.100924932385 0.894 1.81437672888e-38
-0.0281266205009 -0.100924932385 0.894 1.8328141733e-38
-0.0264721134126 -0.100924932385 0.894 1.82344789436e-38
-0.0248176063243 -0.100924932385 0.894 1.86036342085e-38
-0.023163099236 -0.100924932385 0.894 1.81433777279e-38
-0.0215085921477 -0.100924932385 0.894 2.02613604827e-38
-0.0198985013571 -0.101150715232 0.896 2.00798657069e-38
-0.0182810078502 -0.101376498078 0.898 3.12245451352e-39
-0.0166190980456 -0.101376498078 0.898 4.06376554654e-44
-0.0149571882411 -0.101376498078 0.898 1.28800642621e-38
-0.0132952784365 -0.101376498078 0.898 2.03550386863e-38
-0.0116722328924 -0.101715172348 0.901 1.99858652046e-38
-0.0100047710506 -0.101715172348 0.901 1.86933243167e-38
-0.00833730920887 -0.101715172348 0.901 1.85111134774e-38
-0.00666984736709 -0.101715172348 0.901 1.86032838839e-38
-0.00501348959974 -0.101940955195 0.903 1.94308767439e-38
-0.00335343047424 -0.102279629464 0.906 1.95241611827e-38
-0.00167671523712 -0.102279629464 0.906 1.88809399642e-38
0.0 -0.102279629464 0.906 1.66696895862e-38
0.00168041659526 -0.102505412311 0.908 1.92533168142e-38
0.00336083319052 -0.102505412311 0.908 1.24229901303e-38
0.00504124978578 -0.102505412311 0.908 7.07886658471e-39
0.00672166638105 -0.102505412311 0.908 2.05329853744e-38
0.00840208297631 -0.102505412311 0.908 2.47955839627e-39
0.0100824995716 -0.102505412311 0.908 9.03339628145e-39
0.0117629161668 -0.102505412311 0.908 7.55754313363e-39
0.0134433327621 -0.102505412311 0.908 5.53457261859e-39
0.0151237493574 -0.102505412311 0.908 1.26207049358e-38
0.016841179534 -0.102731195157 0.91 1.86972801823e-38
0.0185252974874 -0.102731195157 0.91 1.84185324904e-38
0.0202094154408 -0.102731195157 0.91 1.87876751436e-38
0.0219657098779 -0.103069869427 0.913 1.7867150972e-38
0.0236553798685 -0.103069869427 0.913 1.86039845331e-38
0.0253450498591 -0.103069869427 0.913 1.83274172617e-38
0.0270347198498 -0.103069869427 0.913 1.87887443343e-38
0.0287243898404 -0.103069869427 0.913 1.81433777279e-38
0.0304806842775 -0.103295652274 0.915 1.90628172945e-38
0.0321740556262 -0.103295652274 0.915 1.86039873357e-38
0.033867426975 -0.103295652274 0.915 1.90656857524e-38
0.0355607983237 -0.103295652274 0.915 1.81430274033e-38
0.0372541696725 -0.103295652274 0.915 1.85107351268e-38
0.0389475410212 -0.103295652274 0.915 1.83274172617e-38
0.040774161263 -0.103634326543 0.918 1.82355761603e-38
0.0423342837187 -0.103295652274 0.915 1.8510365184e-38
0.0440276550675 -0.103295652274 0.915 1.86951263865e-38
0.0457210264162 -0.103295652274 0.915 1.83274200643e-38
0.047414397765 -0.103295652274 0.915 1.88791701242e-38
0.0491077691137 -0.103295652274 0.915 1.86954767111e-38
0.0508011404625 -0.103295652274 0.915 1.84188884202e-38
-0.0466204564441 -0.10360101432 0.933 1.88632443672e-38
-0.044653184593 -0.103045810599 0.928 1.48195944601e-38
-0.0429357544164 -0.103045810599 0.928 1.15078483461e-38
-0.040774161263 -0.101935403157 0.918 1.09557507642e-38
-0.038862409784 -0.101380199437 0.913 1.1968092215e-38
-0.0367655903981 -0.100269791995 0.903 1.09585996039e-38
-0.0349001058959 -0.0997145882739 0.898 1.17883798909e-38
-0.0331641689285 -0.0994925067855 0.896 1.21539506343e-38
-0.0315059604821 -0.0994925067855 0.896 1.14134821049e-38
-0.0298477520357 -0.0994925067855 0.896 1.83277858032e-38
-0.0281266205009 -0.0992704252972 0.894 1.89745901419e-38
-0.0264721134126 -0.0992704252972 0.894 1.81423057345e-38
-0.0248176063243 -0.0992704252972 0.894 1.85107323242e-38
-0.023163099236 -0.0992704252972 0.894 1.8050473041e-38
-0.0215567098035 -0.0994925067855 0.896 1.90620886193e-38
-0.0199429176548 -0.0997145882739 0.898 1.95249024696e-38
-0.0182810078502 -0.0997145882739 0.898 1.04897952027e-38
-0.0166190980456 -0.0997145882739 0.898 1.8519004189e-38
-0.0149571882411 -0.0997145882739 0.898 1.97132271741e-38
-0.0133396947342 -0.100047710506 0.901 1.89713405307e-38
-0.0116722328924 -0.100047710506 0.901 1.85085673181e-38
-0.0100047710506 -0.100047710506 0.901 1.91539339245e-38
-0.00833730920887 -0.100047710506 0.901 1.92486504903e-38
-0.00668465279965 -0.100269791995 0.903 1.99865686564e-38
-0.00501348959974 -0.100269791995 0.903 1.6395978161e-38
-0.00335343047424 -0.100602914227 0.906 1.33603775276e-38
-0.00167671523712 -0.100602914227 0.906 1.49230593322e-38
0.0 -0.100824995716 0.908 5.23462328101e-39
0.00168041659526 -0.100824995716 0.908 1.99887771028e-38
0.00336083319052 -0.100824995716 0.908 1.39935822647e-38
0.00504124978578 -0.100824995716 0.908 1.28122638372e-38
0.00672166638105 -0.100824995716 0.908 1.8054088391e-38
0.00840208297631 -0.100824995716 0.908 1.51856388423e-38
0.0100824995716 -0.100824995716 0.908 8.00912557674e-39
0.0117629161668 -0.100824995716 0.908 6.26717285704e-39
0.0134433327621 -0.100824995716 0.908 7.46963827967e-39
0.0151570615806 -0.101047077204 0.91 1.83343130514e-38
0.016841179534 -0.101047077204 0.91 1.86987445391e-38
0.0185863698967 -0.101380199437 0.913 1.84199660188e-38
0.0202760398873 -0.101380199437 0.913 1.82337979126e-38
0.0219657098779 -0.101380199437 0.913 1.84178136243e-38
0.0236553798685 -0.101380199437 0.913 1.88794980281e-38
0.0253450498591 -0.101380199437 0.913 1.78650125905e-38
0.0270347198498 -0.101380199437 0.913 1.83256025802e-38
0.0287873129287 -0.101602280925 0.915 1.80493940412e-38
0.0304806842775 -0.101602280925 0.915 1.88784442516e-38
0.0321740556262 -0.101602280925 0.915 1.8051182098e-38
0.033867426975 -0.101602280925 0.915 1.84185170761e-38
0.0355607983237 -0.101602280925 0.915 1.85103679866e-38
0.0372541696725 -0.101602280925 0.915 1.78667978448e-38
0.0389475410212 -0.101602280925 0.915 1.82352370461e-38
0.040774161263 -0.101935403157 0.918 1.83274200643e-38
0.0423342837187 -0.101602280925 0.915 1.84199688214e-38
0.0440276550675 -0.101602280925 0.915 1.83270851539e-38
0.0457210264162 -0.101602280925 0.915 1.86029279541e-38
0.047414397765 -0.101602280925 0.915 1.89695426648e-38
0.0491077691137 -0.101602280925 0.915 1.86936802465e-38
0.0508011404625 -0.101602280925 0.915 1.86011286868e-38
-0.0445088316256 -0.101000810227 0.925 1.37121945266e-38
-0.042473084649 -0.100236479772 0.918 1.14142275957e-38
-0.04064091237 -0.0999089095762 0.915 1.15074854098e-38
-0.038862409784 -0.099690529446 0.913 1.10475806551e-38
-0.0370505949748 -0.0993629592506 0.91 1.04043720483e-38
-0.0349001058959 -0.0980526784693 0.898 8.00729267835e-39
-0.0331641689285 -0.0978342983391 0.896 1.36254961906e-38
-0.0315059604821 -0.0978342983391 0.896 1.10461134956e-38
-0.0298477520357 -0.0978342983391 0.896 1.89738838874e-38
-0.0281266205009 -0.0976159182089 0.894 1.82366845874e-38
-0.0264721134126 -0.0976159182089 0.894 1.86972801823e-38
-0.0248176063243 -0.0976159182089 0.894 1.89735083394e-38
-0.02321491825 -0.0978342983391 0.896 1.82348671033e-38
-0.0215567098035 -0.0978342983391 0.896 1.84196156941e-38
-0.0199429176548 -0.0980526784693 0.898 1.88798889903e-38
-0.0182810078502 -0.0980526784693 0.898 1.91579024018e-38
-0.0166190980456 -0.0980526784693 0.898 1.91571807331e-38
-0.015007156576 -0.0983802486646 0.901 1.94344906926e-38
-0.0133396947342 -0.0983802486646 0.901 1.94341137434e-38
-0.0116722328924 -0.0983802486646 0.901 1.85125301901e-38
-0.0100269791995 -0.0985986287949 0.903 1.56623577773e-38
-0.00835581599956 -0.0985986287949 0.903 6.077315132e-39
-0.00668465279965 -0.0985986287949 0.903 1.62112169585e-38
-0.00503014571137 -0.0989261989902 0.906 1.28935811871e-38
-0.00335343047424 -0.0989261989902 0.906 1.52951419095e-38
-0.00168041659526 -0.0991445791204 0.908 1.40064307703e-38
0.0 -0.0991445791204 0.908 1.19659818595e-38
0.00168041659526 -0.0991445791204 0.908 2.21949225505e-38
0.00336083319052 -0.0991445791204 0.908 7.08070789089e-39
0.00504124978578 -0.0991445791204 0.908 1.83710228673e-42
0.00672166638105 -0.0991445791204 0.908 1.98094179059e-38
0.00840208297631 -0.0991445791204 0.908 1.2142104057e-38
0.0100824995716 -0.0991445791204 0.908 1.97185969498e-38
0.0117629161668 -0.0991445791204 0.908 9.21010982689e-39
0.0134729436272 -0.0993629592506 0.91 1.32621114728e-38
0.0151570615806 -0.0993629592506 0.91 8.72513023748e-39
0.0168966999061 -0.099690529446 0.913 1.96137433909e-38
0.0185863698967 -0.099690529446 0.913 1.93408489228e-38
0.0202760398873 -0.099690529446 0.913 1.9065341033e-38
0.0219657098779 -0.099690529446 0.913 1.77753154758e-38
0.0237071988825 -0.0999089095762 0.915 1.88816658368e-38
0.0254005702312 -0.0999089095762 0.915 1.81419708242e-38
0.02709394158 -0.0999089095762 0.915 1.82334223646e-38
0.0287873129287 -0.0999089095762 0.915 1.90631886386e-38
0.0304806842775 -0.0999089095762 0.915 1.83270669371e-38
0.0321740556262 -0.0999089095762 0.915 1.80519079706e-38
0.033867426975 -0.0999089095762 0.915 1.82352202305e-38
0.0355607983237 -0.0999089095762 0.915 1.87873374307e-38
0.0372541696725 -0.0999089095762 0.915 1.8050473041e-38
0.039075237877 -0.100236479772 0.918 1.80504604293e-38
0.040774161263 -0.100236479772 0.918 1.84185324904e-38
0.042473084649 -0.100236479772 0.918 1.85107155086e-38
0.0440276550675 -0.0999089095762 0.915 1.83277703889e-38
0.0457210264162 -0.0999089095762 0.915 1.86954795137e-38
0.0475698548068 -0.100236479772 0.918 1.88780729075e-38
0.0492687781928 -0.100236479772 0.918 1.91557317904e-38
0.0509677015787 -0.100236479772 0.918 1.96163568125e-38
0.0526666249647 -0.100236479772 0.918 1.71241685132e-38
0.0543655483507 -0.100236479772 0.918 1.85844910702e-38
-0.0445088316256 -0.0992889320879 0.925 1.41738887394e-38
-0.042473084649 -0.0985375563856 0.918 1.1231240437e-38
-0.04064091237 -0.0982155382274 0.915 1.06748660922e-38
-0.038862409784 -0.0980008594554 0.913 1.08614069437e-38
-0.0370505949748 -0.0976788412972 0.91 1.11444454115e-38
-0.0350166986772 -0.0967127868229 0.901 1.10511357493e-38
-0.0331641689285 -0.0961760898927 0.896 1.27085243106e-38
-0.0315059604821 -0.0961760898927 0.896 1.02159996996e-38
-0.0298477520357 -0.0961760898927 0.896 1.87898457549e-38
-0.0281895435892 -0.0961760898927 0.896 1.85128805147e-38
-0.0265313351428 -0.0961760898927 0.896 1.84181695541e-38
-0.0248731266964 -0.0961760898927 0.896 1.86947760619e-38
-0.02321491825 -0.0961760898927 0.896 1.8419981433e-38
-0.0215567098035 -0.0961760898927 0.896 1.86961955772e-38
-0.0200095421013 -0.0967127868229 0.901 1.82345013644e-38
-0.0183420802595 -0.0967127868229 0.901 1.89731426005e-38
-0.0166746184177 -0.0967127868229 0.901 1.67611831655e-38
-0.0150404687992 -0.096927465595 0.903 1.8328489255e-38
-0.0133693055993 -0.096927465595 0.903 5.41865300573e-39
-0.0116981423994 -0.096927465595 0.903 1.40853603076e-38
-0.0100269791995 -0.096927465595 0.903 1.64878991364e-38
-0.00835581599956 -0.096927465595 0.903 1.91563105267e-40
-0.00670686094849 -0.0972494837531 0.906 1.8711316989e-38
-0.00503014571137 -0.0972494837531 0.906 1.63941788938e-38
-0.00335343047424 -0.0972494837531 0.906 1.97893597197e-38
-0.00168041659526 -0.0974641625252 0.908 1.11448293672e-38
0.0 -0.0974641625252 0.908 1.14945696419e-38
0.00168041659526 -0.0974641625252 0.908 1.88652594344e-38
0.00336083319052 -0.0974641625252 0.908 4.87985935139e-39
0.0050523538602 -0.0976788412972 0.91 1.14325495731e-38
0.0067364718136 -0.0976788412972 0.91 1.86980565016e-38
0.008420589767 -0.0976788412972 0.91 6.15301187375e-39
0.0101047077204 -0.0976788412972 0.91 1.92522476235e-38
0.0117888256738 -0.0976788412972 0.91 1.82366425485e-38
0.0134729436272 -0.0976788412972 0.91 1.94362661378e-38
0.0152070299155 -0.0980008594554 0.913 1.69516896917e-38
0.0168966999061 -0.0980008594554 0.913 2.06373554853e-38
0.0185863698967 -0.0980008594554 0.913 1.02217254052e-38
0.0202760398873 -0.0980008594554 0.913 1.97168411228e-38
0.0220138275337 -0.0982155382274 0.915 4.13259732711e-39
0.0237071988825 -0.0982155382274 0.915 2.13509877478e-38
0.0254005702312 -0.0982155382274 0.915 1.82370251029e-38
0.02709394158 -0.0982155382274 0.915 1.88801958747e-38
0.0287873129287 -0.0982155382274 0.915 1.84178136243e-38
0.0304806842775 -0.0982155382274 0.915 1.8511088254e-38
0.0321740556262 -0.0982155382274 0.915 1.82359433005e-38
0.033867426975 -0.0982155382274 0.915 1.85128805147e-38
0.0356773911051 -0.0985375563856 0.918 1.86015056361e-38
0.0373763144911 -0.0985375563856 0.918 1.82330692374e-38
0.039075237877 -0.0985375563856 0.918 1.84181695541e-38
0.040774161263 -0.0985375563856 0.918 1.84188884202e-38
0.042473084649 -0.0985375563856 0.918 1.88802267033e-38
0.0441720080349 -0.0985375563856 0.918 1.83274172617e-38
0.0458709314209 -0.0985375563856 0.918 1.86958326409e-38
0.0475698548068 -0.0985375563856 0.918 1.82348544916e-38
0.0492687781928 -0.0985375563856 0.918 1.86025622152e-38
0.0509677015787 -0.0985375563856 0.918 1.841707514e-38
0.0526666249647 -0.0985375563856 0.918 1.97031252135e-38
0.0543655483507 -0.0985375563856 0.918 2.16359684152e-38
-0.04064091237 -0.0965221668787 0.915 1.16003999058e-38
-0.038862409784 -0.0963111894648 0.913 1.14170624225e-38
-0.0369691650957 -0.0957837459299 0.908 9.75683903443e-39
-0.0350944271982 -0.095256302395 0.903 1.0031646275e-38
-0.0332381960913 -0.0947288588602 0.898 1.30748251305e-38
-0.0315762862867 -0.0947288588602 0.898 1.09549716422e-38
-0.0299143764822 -0.0947288588602 0.898 1.82363160459e-38
-0.0281895435892 -0.0945178814462 0.896 1.82355761603e-38
-0.0265313351428 -0.0945178814462 0.896 1.9155734593e-38
-0.0248731266964 -0.0945178814462 0.896 1.86958298383e-38
-0.02321491825 -0.0945178814462 0.896 1.8419971624e-38
-0.0216048274593 -0.0947288588602 0.898 1.83277731915e-38
-0.0200095421013 -0.0950453249811 0.901 2.00769650191e-38
-0.018382795199 -0.095256302395 0.903 1.51931371904e-38
-0.0167116319991 -0.095256302395 0.903 1.45408860046e-38
-0.0150904371341 -0.095572768516 0.906 2.01738311767e-38
-0.013413721897 -0.095572768516 0.906 6.1638214901e-39
-0.0117370066599 -0.095572768516 0.906 1.70485936844e-38
-0.0100602914227 -0.095572768516 0.906 2.10964895259e-38
-0.00838357618561 -0.095572768516 0.906 2.02253330992e-39
-0.00670686094849 -0.095572768516 0.906 1.86209360406e-38
-0.00503014571137 -0.095572768516 0.906 1.76849387314e-38
-0.00336083319052 -0.0957837459299 0.908 1.45442379106e-38
-0.00168041659526 -0.0957837459299 0.908 8.66055139775e-39
0.0 -0.0957837459299 0.908 2.1183409267e-38
0.0016841179534 -0.0959947233438 0.91 6.9009353109e-39
0.0033682359068 -0.0959947233438 0.91 9.76414260203e-39
0.0050523538602 -0.0959947233438 0.91 1.82413537139e-38
0.0067364718136 -0.0959947233438 0.91 1.8512844081e-38
0.008420589767 -0.0959947233438 0.91 1.83324549297e-38
0.0101047077204 -0.0959947233438 0.91 1.91607736623e-38
0.0117888256738 -0.0959947233438 0.91 1.69509806347e-38
0.0134729436272 -0.0959947233438 0.91 5.87757825279e-39
0.0152070299155 -0.0963111894648 0.913 2.20407853246e-39
0.0169337134875 -0.0965221668787 0.915 2.15574746817e-38
0.0186270848362 -0.0965221668787 0.915 2.11508627089e-39
0.020320456185 -0.0965221668787 0.915 1.84330527451e-38
0.0220138275337 -0.0965221668787 0.915 7.45230702026e-39
0.0237071988825 -0.0965221668787 0.915 1.92361733288e-38
0.0254005702312 -0.0965221668787 0.915 1.84224995664e-38
0.02709394158 -0.0965221668787 0.915 1.84192415475e-38
0.0287873129287 -0.0965221668787 0.915 1.86022090879e-38
0.0304806842775 -0.0965221668787 0.915 1.85110826488e-38
0.0322795443332 -0.0968386329996 0.918 1.82348572942e-38
0.0339784677192 -0.0968386329996 0.918 1.85121672538e-38
0.0356773911051 -0.0968386329996 0.918 1.85103848022e-38
0.0373763144911 -0.0968386329996 0.918 1.87855101375e-38
0.039075237877 -0.0968386329996 0.918 1.84188856176e-38
0.040774161263 -0.0968386329996 0.918 1.86032614631e-38
0.042473084649 -0.0968386329996 0.918 1.86036370111e-38
0.0441720080349 -0.0968386329996 0.918 1.86954823163e-38
0.0458709314209 -0.0968386329996 0.918 1.88802365124e-38
0.0475698548068 -0.0968386329996 0.918 1.88802210981e-38
0.0492687781928 -0.0968386329996 0.918 1.86951109722e-38
0.0509677015787 -0.0968386329996 0.918 1.85078610636e-38
0.0526666249647 -0.0968386329996 0.918 2.34874578332e-38
0.0543655483507 -0.0968386329996 0.918 2.34889081771e-38
-0.038862409784 -0.0946215194741 0.913 1.12362654933e-38
-0.0369691650957 -0.0941033293346 0.908 1.2708855017e-38
-0.0350944271982 -0.0935851391951 0.903 1.11415517301e-38
-0.0333492368355 -0.0933778631393 0.901 8.83380653858e-39
-0.0315762862867 -0.0930669490556 0.898 1.16882641221e-38
-0.0299143764822 -0.0930669490556 0.898 1.81466217338e-38
-0.0282524666776 -0.0930669490556 0.898 1.87887443343e-38
-0.026590556873 -0.0930669490556 0.898 1.86029111385e-38
-0.0249286470685 -0.0930669490556 0.898 1.87883785954e-38
-0.0232667372639 -0.0930669490556 0.898 1.85118141266e-38
-0.0216770039431 -0.0933778631393 0.901 1.84199660188e-38
-0.020053958399 -0.0935851391951 0.903 1.87880282708e-38
-0.0184438676083 -0.0938960532788 0.906 1.78678852524e-38
-0.0167671523712 -0.0938960532788 0.906 6.88767902743e-39
-0.0150904371341 -0.0938960532788 0.906 2.25680589043e-38
-0.013413721897 -0.0938960532788 0.906 1.92854541932e-39
-0.0117370066599 -0.0938960532788 0.906 1.65895507283e-38
-0.0100602914227 -0.0938960532788 0.906 2.08199194519e-38
-0.00838357618561 -0.0938960532788 0.906 1.37753244237e-39
-0.00670686094849 -0.0938960532788 0.906 1.82457495872e-38
-0.00504124978578 -0.0941033293346 0.908 1.89742145939e-38
-0.00336083319052 -0.0941033293346 0.908 1.21467759861e-38
-0.00168041659526 -0.0941033293346 0.908 1.53829234492e-38
0.0 -0.0941033293346 0.908 1.93426608017e-38
0.0016841179534 -0.0943106053904 0.91 1.98987072427e-38
0.0033682359068 -0.0943106053904 0.91 1.40961447006e-38
0.0050523538602 -0.0943106053904 0.91 1.95309813023e-38
0.0067364718136 -0.0943106053904 0.91 6.89806545165e-39
0.008420589767 -0.0943106053904 0.91 1.81513104785e-38
0.0101047077204 -0.0943106053904 0.91 2.10025156483e-38
0.0117888256738 -0.0943106053904 0.91 2.75506488474e-40
0.0135173599249 -0.0946215194741 0.913 1.93398918359e-38
0.0152070299155 -0.0946215194741 0.913 9.94445748452e-39
0.0169337134875 -0.0948287955299 0.915 2.15539293966e-38
0.0186270848362 -0.0948287955299 0.915 1.01019045774e-39
0.020320456185 -0.0948287955299 0.915 2.00803295367e-38
0.0220138275337 -0.0948287955299 0.915 1.44595350236e-38
0.0237071988825 -0.0948287955299 0.915 1.5915390241e-38
0.0254005702312 -0.0948287955299 0.915 1.81473602181e-38
0.02709394158 -0.0948287955299 0.915 1.97096244357e-38
0.0287873129287 -0.0948287955299 0.915 1.80508513916e-38
0.0305806209472 -0.0951397096136 0.918 1.81430274033e-38
0.0322795443332 -0.0951397096136 0.918 1.90653382304e-38
0.0339784677192 -0.0951397096136 0.918 1.85121672538e-38
0.0356773911051 -0.0951397096136 0.918 1.83270851539e-38
0.0373763144911 -0.0951397096136 0.918 1.91568065864e-38
0.039075237877 -0.0951397096136 0.918 1.85110826488e-38
0.040774161263 -0.0951397096136 0.918 1.86036370111e-38
0.042473084649 -0.0951397096136 0.918 1.88784260347e-38
0.0441720080349 -0.0951397096136 0.918 1.83274172617e-38
0.0458709314209 -0.0951397096136 0.918 1.86961983798e-38
0.0475698548068 -0.0951397096136 0.918 1.87880254682e-38
0.0492687781928 -0.0951397096136 0.918 1.88791420983e-38
0.0510787423229 -0.0953469856695 0.92 1.8416018561e-38
0.052781367067 -0.0953469856695 0.92 2.34871397385e-38
-0.038649581691 -0.0924229127394 0.908 9.47954168652e-39
-0.0369691650957 -0.0924229127394 0.908 1.08596244921e-38
-0.0352110199796 -0.0922193380417 0.906 1.10465268787e-38
-0.0333492368355 -0.0917104012975 0.901 1.20617493992e-38
-0.0315762862867 -0.0914050392511 0.898 1.15074405683e-38
-0.0299143764822 -0.0914050392511 0.898 1.8882394512e-38
-0.0282524666776 -0.0914050392511 0.898 1.86050817498e-38
-0.026590556873 -0.0914050392511 0.898 1.86940277685e-38
-0.0249286470685 -0.0914050392511 0.898 2.00776684709e-38
-0.0233444657848 -0.0917104012975 0.901 1.82345013644e-38
-0.0216770039431 -0.0917104012975 0.901 1.86029279541e-38
-0.020053958399 -0.0919139759952 0.903 1.86029279541e-38
-0.0184438676083 -0.0922193380417 0.906 1.9158255529e-38
-0.0167671523712 -0.0922193380417 0.906 3.49118378363e-39
-0.0150904371341 -0.0922193380417 0.906 2.08264088651e-38
-0.013413721897 -0.0922193380417 0.906 2.66861037468e-39
-0.0117370066599 -0.0922193380417 0.906 1.12535098722e-38
-0.0100602914227 -0.0922193380417 0.906 1.90697144855e-38
-0.00838357618561 -0.0922193380417 0.906 1.45524495196e-38
-0.00672166638105 -0.0924229127394 0.908 1.87913199209e-38
-0.00504124978578 -0.0924229127394 0.908 1.8051905168e-38
-0.00336083319052 -0.0924229127394 0.908 2.0080918082e-38
-0.0016841179534 -0.092626487437 0.91 1.91600674079e-38
0.0 -0.092626487437 0.91 5.05134465226e-39
0.0016841179534 -0.092626487437 0.91 2.30251190231e-38
0.0033682359068 -0.092626487437 0.91 3.12671165825e-39
0.0050523538602 -0.092626487437 0.91 2.01825570622e-38
0.0067364718136 -0.092626487437 0.91 2.75511673278e-39
0.00844834995305 -0.0929318494835 0.913 1.84358245135e-38
0.0101380199437 -0.0929318494835 0.913 1.9989477752e-38
0.0118276899343 -0.0929318494835 0.913 2.75506488474e-40
0.0135173599249 -0.0929318494835 0.913 1.91515727366e-38
0.0152070299155 -0.0929318494835 0.913 1.95302820544e-38
0.0169337134875 -0.0931354241812 0.915 2.07259315613e-38
0.0186270848362 -0.0931354241812 0.915 3.49190124844e-39
0.020320456185 -0.0931354241812 0.915 1.36316324766e-38
0.0220138275337 -0.0931354241812 0.915 9.57572541182e-39
0.0237071988825 -0.0931354241812 0.915 4.04297868512e-39
0.0254005702312 -0.0931354241812 0.915 1.84307840429e-38
0.02709394158 -0.0931354241812 0.915 1.82359236824e-38
0.0288816975613 -0.0934407862277 0.918 1.84196156941e-38
0.0305806209472 -0.0934407862277 0.918 1.8420319146e-38
0.0322795443332 -0.0934407862277 0.918 1.85110686358e-38
0.0339784677192 -0.0934407862277 0.918 1.82355733577e-38
0.0356773911051 -0.0934407862277 0.918 1.8419971624e-38
0.0373763144911 -0.0934407862277 0.918 1.85117846993e-38
0.039075237877 -0.0934407862277 0.918 1.85121672538e-38
0.040774161263 -0.0934407862277 0.918 1.86029279541e-38
0.042473084649 -0.0934407862277 0.918 1.88794980281e-38
0.0441720080349 -0.0934407862277 0.918 1.91582401147e-38
0.0458709314209 -0.0934407862277 0.918 1.86951446034e-38
0.0475698548068 -0.0934407862277 0.918 1.80508289708e-38
0.0492687781928 -0.0934407862277 0.918 1.90639018995e-38
0.0510787423229 -0.0936443609254 0.92 1.85085645155e-38
0.052781367067 -0.0936443609254 0.92 2.34903753366e-38
-0.0368877352167 -0.0905426228046 0.906 1.26145280122e-38
-0.0352110199796 -0.0905426228046 0.906 1.08635355161e-38
-0.0334232639983 -0.0902428127953 0.903 1.22450504487e-38
-0.0316817749937 -0.0900429394558 0.901 1.19669809854e-38
-0.0300143131519 -0.0900429394558 0.901 1.86969242524e-38
-0.0283468513102 -0.0900429394558 0.901 1.83267166125e-38
-0.0266793894684 -0.0900429394558 0.901 1.86954795137e-38
-0.0250119276266 -0.0900429394558 0.901 1.89706216646e-38
-0.0233444657848 -0.0900429394558 0.901 1.88780911244e-38
-0.0216770039431 -0.0900429394558 0.901 1.86029279541e-38
-0.0201205828455 -0.0905426228046 0.906 1.88798707735e-38
-0.0184438676083 -0.0905426228046 0.906 2.00798657069e-38
-0.0167671523712 -0.0905426228046 0.906 1.46936793853e-39
-0.0151237493574 -0.0907424961441 0.908 1.9536017569e-38
-0.0134433327621 -0.0907424961441 0.908 1.44613076661e-38
-0.0117629161668 -0.0907424961441 0.908 1.47458329115e-38
-0.0100824995716 -0.0907424961441 0.908 1.77817880734e-38
-0.00840208297631 -0.0907424961441 0.908 1.93419153109e-38
-0.00672166638105 -0.0907424961441 0.908 1.97110761809e-38
-0.00504124978578 -0.0907424961441 0.908 2.57143032618e-39
-0.00336083319052 -0.0907424961441 0.908 1.7044685463e-38
-0.0016841179534 -0.0909423694836 0.91 1.38203047031e-38
0.0 -0.0909423694836 0.91 5.33553498732e-39
0.00168966999061 -0.0912421794929 0.913 2.08192790585e-38
0.00337933998122 -0.0912421794929 0.913 8.26519465422e-40
0.00506900997183 -0.0912421794929 0.913 2.23801756088e-38
0.00675867996244 -0.0912421794929 0.913 1.83670992316e-39
0.00844834995305 -0.0912421794929 0.913 1.84333652347e-38
0.0101380199437 -0.0912421794929 0.913 2.01731277249e-38
0.0118276899343 -0.0912421794929 0.913 4.96593270826e-39
0.0135173599249 -0.0912421794929 0.913 1.89628010179e-38
0.0152403421387 -0.0914420528324 0.915 2.06359191544e-38
0.0169337134875 -0.0914420528324 0.915 7.17362238687e-39
0.0186270848362 -0.0914420528324 0.915 1.24395296561e-38
0.020320456185 -0.0914420528324 0.915 9.20523330824e-39
0.0220138275337 -0.0914420528324 0.915 1.91690160999e-38
0.0237071988825 -0.0914420528324 0.915 1.10208620973e-39
0.0254838507894 -0.0917418628417 0.918 1.87091912192e-38
0.0271827741753 -0.0917418628417 0.918 1.87891002641e-38
0.0288816975613 -0.0917418628417 0.918 1.86040251708e-38
0.0305806209472 -0.0917418628417 0.918 1.86954795137e-38
0.0322795443332 -0.0917418628417 0.918 1.88784260347e-38
0.0339784677192 -0.0917418628417 0.918 1.88780729075e-38
0.0356773911051 -0.0917418628417 0.918 1.86032838839e-38
0.0373763144911 -0.0917418628417 0.918 1.8510365184e-38
0.039075237877 -0.0917418628417 0.918 1.86954823163e-38
0.040774161263 -0.0917418628417 0.918 1.9617823972e-38
0.042473084649 -0.0917418628417 0.918 1.86979836341e-38
0.0441720080349 -0.0917418628417 0.918 1.88784232321e-38
0.0459708680906 -0.0919417361813 0.92 1.95227388647e-38
0.0476734928347 -0.0919417361813 0.92 1.88809399642e-38
0.0493761175788 -0.0919417361813 0.92 1.85107183112e-38
0.0510787423229 -0.0919417361813 0.92 1.97071049011e-38
0.052781367067 -0.0919417361813 0.92 2.31201466772e-38
-0.0368877352167 -0.0888659075675 0.906 1.1688643874e-38
-0.0352110199796 -0.0888659075675 0.906 1.01249167008e-38
-0.0334232639983 -0.0885716495954 0.903 1.28896757683e-38
-0.0316817749937 -0.088375477614 0.901 1.17818834712e-38
-0.0300143131519 -0.088375477614 0.901 1.90657067719e-38
-0.0283468513102 -0.088375477614 0.901 1.96192280731e-38
-0.0266793894684 -0.088375477614 0.901 1.83270669371e-38
-0.0250119276266 -0.088375477614 0.901 1.88784260347e-38
-0.0233962847988 -0.0885716495954 0.903 1.90646081539e-38
-0.0217251215989 -0.0885716495954 0.903 1.86043376603e-38
-0.0201205828455 -0.0888659075675 0.906 1.84196156941e-38
-0.0184845825479 -0.0890620795488 0.908 1.8881309907e-38
-0.0168041659526 -0.0890620795488 0.908 1.713643548e-38
-0.0151237493574 -0.0890620795488 0.908 1.77814363475e-38
-0.0134433327621 -0.0890620795488 0.908 1.98951171161e-38
-0.0117629161668 -0.0890620795488 0.908 1.27989276797e-38
-0.0100824995716 -0.0890620795488 0.908 1.83346031202e-38
-0.008420589767 -0.0892582515302 0.91 1.88802267033e-38
-0.0067364718136 -0.0892582515302 0.91 2.07252477276e-38
-0.0050523538602 -0.0892582515302 0.91 8.26526471914e-40
-0.0033682359068 -0.0892582515302 0.91 1.83990488366e-41
-0.00168966999061 -0.0895525095023 0.913 9.95604902542e-39
0.0 -0.0895525095023 0.913 1.28915885407e-38
0.00168966999061 -0.0895525095023 0.913 1.78615205548e-38
0.00337933998122 -0.0895525095023 0.913 8.38290512652e-39
0.00506900997183 -0.0895525095023 0.913 2.10808440285e-38
0.00675867996244 -0.0895525095023 0.913 9.1835496158e-40
0.00846685674374 -0.0897486814837 0.915 1.83351131929e-38
0.0101602280925 -0.0897486814837 0.915 1.980397246e-38
0.0118535994412 -0.0897486814837 0.915 1.2154977786e-38
0.01354697079 -0.0897486814837 0.915 1.09508714429e-38
0.0152403421387 -0.0897486814837 0.915 2.16543716679e-38
0.0169892338596 -0.0900429394558 0.918 2.20406592078e-39
0.0186270848362 -0.0897486814837 0.915 1.67759542526e-38
0.020320456185 -0.0897486814837 0.915 1.04765291101e-38
0.0220860040175 -0.0900429394558 0.918 2.12826954671e-38
0.0237849274034 -0.0900429394558 0.918 1.74490385427e-39
0.0254838507894 -0.0900429394558 0.918 1.83411317698e-38
0.0271827741753 -0.0900429394558 0.918 1.84196156941e-38
0.0288816975613 -0.0900429394558 0.918 1.8234504167e-38
0.0305806209472 -0.0900429394558 0.918 1.87858744751e-38
0.0323498701378 -0.0902391114372 0.92 1.87851598128e-38
0.0340524948819 -0.0902391114372 0.92 1.99833596829e-38
0.035755119626 -0.0902391114372 0.92 1.86929585778e-38
0.0374577443701 -0.0902391114372 0.92 1.87862304049e-38
0.0391603691142 -0.0902391114372 0.92 1.87862304049e-38
0.0408629938583 -0.0902391114372 0.92 1.86029279541e-38
0.0425656186024 -0.0902391114372 0.92 1.84203219486e-38
0.0442682433465 -0.0902391114372 0.92 1.94308767439e-38
0.0459708680906 -0.0902391114372 0.92 1.93383279868e-38
0.0476734928347 -0.0902391114372 0.92 1.82362796122e-38
0.0493761175788 -0.0902391114372 0.92 1.86943836983e-38
0.0510787423229 -0.0902391114372 0.92 2.0445378997e-38
0.052781367067 -0.0902391114372 0.92 2.30279482447e-38
-0.0449900081837 -0.0899800163674 0.935 1.41742614848e-38
-0.0432596232536 -0.0899800163674 0.935 1.31669843266e-38
-0.0415292383234 -0.0899800163674 0.935 1.37201581058e-38
-0.0397988533933 -0.0899800163674 0.935 1.2707061355e-38
-0.0368877352167 -0.0871891923303 0.906 1.16918094072e-38
-0.0352110199796 -0.0871891923303 0.906 1.21546274614e-38
-0.0334232639983 -0.0869004863955 0.903 1.08613873256e-38
-0.0317521007983 -0.0869004863955 0.903 1.29797218063e-38
-0.0300809375984 -0.0869004863955 0.903 1.86972913926e-38
-0.0284097743985 -0.0869004863955 0.903 1.86976305069e-38
-0.0267386111986 -0.0869004863955 0.903 1.8418535293e-38
-0.0250674479987 -0.0869004863955 0.903 1.90624641673e-38
-0.0233962847988 -0.0869004863955 0.903 1.8787672341e-38
-0.0217251215989 -0.0869004863955 0.903 1.90646109565e-38
-0.0201649991431 -0.0873816629536 0.908 1.86043754954e-38
-0.0184845825479 -0.0873816629536 0.908 1.97110607667e-38
-0.0168041659526 -0.0873816629536 0.908 1.41811334525e-38
-0.0151237493574 -0.0873816629536 0.908 1.03070995141e-38
-0.0134433327621 -0.0873816629536 0.908 2.07313643954e-38
-0.0117629161668 -0.0873816629536 0.908 3.12242508625e-39
-0.0101047077204 -0.0875741335768 0.91 1.82485409737e-38
-0.008420589767 -0.0875741335768 0.91 1.93411866357e-38
-0.00675867996244 -0.0878628395117 0.913 2.12773228888e-38
-0.00506900997183 -0.0878628395117 0.913 1.83670992316e-39
-0.00337933998122 -0.0878628395117 0.913 1.1433346912e-38
-0.00168966999061 -0.0878628395117 0.913 6.42891913358e-40
0.0 -0.0878628395117 0.913 2.07199326025e-38
0.00169337134875 -0.0880553101349 0.915 7.44661634719e-39
0.0033867426975 -0.0880553101349 0.915 1.52990066907e-38
0.00508011404625 -0.0880553101349 0.915 1.68412897935e-38
0.006773485395 -0.0880553101349 0.915 4.42352930908e-39
0.00846685674374 -0.0880553101349 0.915 1.94306567401e-38
0.0101602280925 -0.0880553101349 0.915 1.92515469742e-38
0.0118535994412 -0.0880553101349 0.915 1.9157546472e-38
0.01354697079 -0.0880553101349 0.915 2.20407993376e-39
0.0152903104736 -0.0883440160698 0.918 1.6130582041e-38
0.0169892338596 -0.0883440160698 0.918 2.24207754292e-44
0.0186881572455 -0.0883440160698 0.918 1.96285088728e-38
0.0203870806315 -0.0883440160698 0.918 8.99989123517e-39
0.0220860040175 -0.0883440160698 0.918 2.06323038044e-38
0.0237849274034 -0.0883440160698 0.918 1.32628093195e-38
0.0254838507894 -0.0883440160698 0.918 1.86098237438e-38
0.0271827741753 -0.0883440160698 0.918 1.88794924229e-38
0.0288816975613 -0.0883440160698 0.918 1.86014846166e-38
0.0306472453938 -0.0885364866931 0.92 1.92464700699e-38
0.0324553588448 -0.0888251926279 0.923 1.90620914219e-38
0.0341635356261 -0.0888251926279 0.923 1.89716936579e-38
0.0358717124074 -0.0888251926279 0.923 1.88791294866e-38
0.0375798891887 -0.0888251926279 0.923 1.92464854842e-38
0.03928806597 -0.0888251926279 0.923 1.90617382946e-38
0.0409962427514 -0.0888251926279 0.923 1.86951263865e-38
0.0427044195327 -0.0888251926279 0.923 1.8234504167e-38
0.0442682433465 -0.0885364866931 0.92 2.00751951791e-38
0.0459708680906 -0.0885364866931 0.92 1.9155748606e-38
0.0476734928347 -0.0885364866931 0.92 1.90635361606e-38
0.0493761175788 -0.0885364866931 0.92 1.91557317904e-38
0.0510787423229 -0.0885364866931 0.92 1.89698789764e-38
0.052781367067 -0.0885364866931 0.92 2.3397809764e-38
-0.0449900081837 -0.0882496314373 0.935 1.32490948114e-38
-0.0432596232536 -0.0882496314373 0.935 1.37194490487e-38
-0.0414404057281 -0.0880608621722 0.933 1.36265345528e-38
-0.0397137221561 -0.0880608621722 0.933 1.36279820941e-38
-0.0379870385841 -0.0880608621722 0.933 1.08621314151e-38
-0.0354830698028 -0.0861731695211 0.913 1.14156499137e-38
-0.0335343047424 -0.0855124770932 0.906 1.27974605202e-38
-0.0317521007983 -0.0852293231956 0.903 1.25197988347e-38
-0.0300809375984 -0.0852293231956 0.903 1.89749558808e-38
-0.0284097743985 -0.0852293231956 0.903 1.9157546472e-38
-0.0267386111986 -0.0852293231956 0.903 1.83274200643e-38
-0.0250674479987 -0.0852293231956 0.903 1.9065341033e-38
-0.0233962847988 -0.0852293231956 0.903 1.85118267383e-38
-0.0217972980826 -0.0855124770932 0.906 1.85110826488e-38
-0.0201649991431 -0.0857012463583 0.908 1.83273780253e-38
-0.0184845825479 -0.0857012463583 0.908 1.88809427668e-38
-0.0168041659526 -0.0857012463583 0.908 1.83303053378e-38
-0.0151570615806 -0.0858900156234 0.91 2.20406171688e-39
-0.0134729436272 -0.0858900156234 0.91 2.20242457989e-38
-0.0117888256738 -0.0858900156234 0.91 1.65306695681e-39
-0.0101047077204 -0.0858900156234 0.91 1.69620831224e-38
-0.00844834995305 -0.0861731695211 0.913 1.52889103353e-38
-0.00675867996244 -0.0861731695211 0.913 1.46389124374e-38
-0.00506900997183 -0.0861731695211 0.913 1.10489581315e-39
-0.00337933998122 -0.0861731695211 0.913 1.94435542911e-38
-0.00169337134875 -0.0863619387862 0.915 1.23364725618e-38
0.0 -0.0863619387862 0.915 2.15564181026e-38
0.00169337134875 -0.0863619387862 0.915 2.02043836871e-39
0.0033867426975 -0.0863619387862 0.915 1.84339916151e-38
0.00508011404625 -0.0863619387862 0.915 7.07137524312e-39
0.006773485395 -0.0863619387862 0.915 1.37306047858e-38
0.00846685674374 -0.0863619387862 0.915 1.25166949586e-38
0.0101602280925 -0.0863619387862 0.915 9.76410476697e-39
0.0118535994412 -0.0863619387862 0.915 1.28858053819e-38
0.01354697079 -0.0863619387862 0.915 1.3811374228e-38
0.0152903104736 -0.0866450926839 0.918 6.90279623526e-39
0.0169892338596 -0.0866450926839 0.918 1.65829534151e-38
0.0186881572455 -0.0866450926839 0.918 1.83342724138e-38
0.0203870806315 -0.0866450926839 0.918 1.93419181135e-38
0.0221341216733 -0.086833861949 0.92 1.8512548407e-38
0.0237849274034 -0.0866450926839 0.918 1.9523439514e-38
0.0254838507894 -0.0866450926839 0.918 1.80508541942e-38
0.0272419959056 -0.086833861949 0.92 1.84192653695e-38
0.0289446206497 -0.086833861949 0.92 1.93405140124e-38
0.0307471820635 -0.0871170158466 0.923 1.7960065468e-38
0.0324553588448 -0.0871170158466 0.923 1.69498736089e-38
0.0341635356261 -0.0871170158466 0.923 1.85150371131e-38
0.0358717124074 -0.0871170158466 0.923 1.86954795137e-38
0.0375798891887 -0.0871170158466 0.923 1.95241611827e-38
0.03928806597 -0.0871170158466 0.923 1.99851225164e-38
0.0409962427514 -0.0871170158466 0.923 1.87891002641e-38
0.0427044195327 -0.0871170158466 0.923 1.87865793282e-38
0.044412596314 -0.0871170158466 0.923 1.93390468529e-38
0.0461207730953 -0.0871170158466 0.923 1.89731426005e-38
0.0476734928347 -0.086833861949 0.92 1.92482833501e-38
0.0493761175788 -0.086833861949 0.92 1.74937147403e-38
0.0512453034392 -0.0871170158466 0.923 2.08123664531e-38
0.0529534802205 -0.0871170158466 0.923 2.34871453437e-38
-0.0449900081837 -0.0865192465071 0.935 1.10389136241e-38
-0.0432596232536 -0.0865192465071 0.935 1.32606471159e-38
-0.0414404057281 -0.0863341786002 0.933 1.362688768e-38
-0.0397137221561 -0.0863341786002 0.933 1.38098370036e-38
-0.0377834638864 -0.0858715088327 0.928 1.35343389229e-38
-0.0354830698028 -0.0844834995305 0.913 1.36250856101e-38
-0.0336083319052 -0.0840208297631 0.908 1.3441044675e-38
-0.0318575895053 -0.0838357618561 0.906 1.3257013549e-38
-0.0301808742682 -0.0838357618561 0.906 1.91589715925e-38
-0.0285041590311 -0.0838357618561 0.906 1.83281613512e-38
-0.026827443794 -0.0838357618561 0.906 1.8234504167e-38
-0.0251507285568 -0.0838357618561 0.906 1.88791420983e-38
-0.0234740133197 -0.0838357618561 0.906 1.87876751436e-38
-0.0217972980826 -0.0838357618561 0.906 1.90624641673e-38
-0.0201649991431 -0.0840208297631 0.908 1.91579024018e-38
-0.0184845825479 -0.0840208297631 0.908 1.94344696732e-38
-0.016841179534 -0.08420589767 0.91 2.04483035069e-38
-0.0151570615806 -0.08420589767 0.91 1.10204977597e-39
-0.0134729436272 -0.08420589767 0.91 1.95432048288e-38
-0.0118276899343 -0.0844834995305 0.913 9.80908925027e-45
-0.0101602280925 -0.0846685674374 0.915 1.49310453322e-38
-0.00846685674374 -0.0846685674374 0.915 1.4365129546e-38
-0.006773485395 -0.0846685674374 0.915 1.99920014906e-38
-0.00508011404625 -0.0846685674374 0.915 1.01234285218e-39
-0.0033867426975 -0.0846685674374 0.915 1.85191190955e-38
-0.00169337134875 -0.0846685674374 0.915 1.92501106433e-38
0.0 -0.0846685674374 0.915 2.07255980522e-38
0.00169892338596 -0.0849461692979 0.918 1.56120343469e-39
0.00339784677192 -0.0849461692979 0.918 1.88918028299e-38
0.00509677015787 -0.0849461692979 0.918 7.07137664442e-39
0.00679569354383 -0.0849461692979 0.918 1.87916436208e-38
0.00846685674374 -0.0846685674374 0.915 1.22457693148e-38
0.0101602280925 -0.0846685674374 0.915 1.67708507236e-38
0.0118924637017 -0.0849461692979 0.918 1.79668996006e-38
0.0135913870877 -0.0849461692979 0.918 1.96195812003e-38
0.0152903104736 -0.0849461692979 0.918 1.94351955458e-38
0.0169892338596 -0.0849461692979 0.918 1.9067871778e-38
0.0186881572455 -0.0849461692979 0.918 1.85157405649e-38
0.0203870806315 -0.0849461692979 0.918 1.60322108888e-38
0.0221341216733 -0.0851312372049 0.92 1.80594511602e-38
0.0238367464174 -0.0851312372049 0.92 1.66729111713e-38
0.0255393711615 -0.0851312372049 0.92 1.26131112995e-38
0.0272419959056 -0.0851312372049 0.92 1.89627281504e-38
0.0290390052822 -0.0854088390653 0.923 1.89727922759e-38
0.0307471820635 -0.0854088390653 0.923 1.71299460668e-38
0.0324553588448 -0.0854088390653 0.923 1.62119204103e-38
0.0342375627889 -0.0855939069723 0.925 1.86972941952e-38
0.0359494409284 -0.0855939069723 0.925 1.8787672341e-38
0.0376613190678 -0.0855939069723 0.925 1.86933243167e-38
0.0393731972073 -0.0855939069723 0.925 1.91539339245e-38
0.0410850753467 -0.0855939069723 0.925 1.88795386657e-38
0.0427969534861 -0.0855939069723 0.925 1.86965459019e-38
0.0445088316256 -0.0855939069723 0.925 2.01709374954e-38
0.046220709765 -0.0855939069723 0.925 1.95255708889e-38
0.0479325879045 -0.0855939069723 0.925 1.77727847308e-38
0.0496444660439 -0.0855939069723 0.925 1.7771743566e-38
0.0513563441834 -0.0855939069723 0.925 2.21034555958e-38
0.0530682223228 -0.0855939069723 0.925 2.34889291966e-38
-0.0449900081837 -0.084788861577 0.935 8.91880509953e-39
-0.0432596232536 -0.084788861577 0.935 1.3903805276e-38
-0.0413071568351 -0.0843354452049 0.93 1.45491900993e-38
-0.0395860253003 -0.0843354452049 0.93 1.45477495645e-38
-0.0377834638864 -0.0841540786561 0.928 1.47328849137e-38
-0.0356773911051 -0.0832472459119 0.918 1.44555539346e-38
-0.033682359068 -0.0825217797166 0.91 1.39009340154e-38
-0.03192791531 -0.0823404131678 0.908 1.33484833063e-38
-0.0301808742682 -0.082159046619 0.906 1.9527763921e-38
-0.0285041590311 -0.082159046619 0.906 1.92504483562e-38
-0.026827443794 -0.082159046619 0.906 1.8788381398e-38
-0.0251507285568 -0.082159046619 0.906 1.92486532929e-38
-0.0234740133197 -0.082159046619 0.906 1.87876877553e-38
-0.0217972980826 -0.082159046619 0.906 1.90635389632e-38
-0.0201649991431 -0.0823404131678 0.908 1.85125175784e-38
-0.0184845825479 -0.0823404131678 0.908 1.8878779162e-38
-0.016841179534 -0.0825217797166 0.91 2.10018121964e-38
-0.0151570615806 -0.0825217797166 0.91 1.10205678246e-39
-0.0135173599249 -0.0827938295399 0.913 1.1891027806e-38
-0.0118535994412 -0.0829751960887 0.915 8.26529274511e-40
-0.0101602280925 -0.0829751960887 0.915 1.94349741406e-38
-0.00846685674374 -0.0829751960887 0.915 1.88824099263e-38
-0.006773485395 -0.0829751960887 0.915 2.18308147627e-38
-0.00508011404625 -0.0829751960887 0.915 9.1835496158e-40
