# .PCD v0.7 - Point Cloud Data file format
VERSION 0.7
FIELDS x y z rgb
SIZE 4 4 4 4
TYPE F F F F
COUNT 1 1 1 1
WIDTH 837
HEIGHT 1
VIEWPOINT 0 0 0 1 0 0 0
POINTS 837
DATA ascii
0.0240440224732 -0.0343486035331 0.928 8.73908016369e-39
0.0257614526498 -0.0343486035331 0.928 1.7687791775e-38
0.0274788828265 -0.0343486035331 0.928 1.80512017162e-38
0.0292592360915 -0.0344226306959 0.93 1.98043438041e-38
0.0309803676263 -0.0344226306959 0.93 2.16453515097e-38
0.0328069878681 -0.0345336714401 0.933 2.26559091076e-38
0.0346076986028 -0.0346076986028 0.935 2.15520964982e-38
0.0366489976167 -0.034903807254 0.943 1.71202602918e-38
0.0388420523143 -0.0353109566493 0.954 2.34882327513e-38
0.0406076001467 -0.0353109566493 0.954 1.62955442975e-38
0.0424619805745 -0.0353849838121 0.956 1.53689384906e-38
0.0443700306954 -0.0354960245563 0.959 1.38106133229e-38
0.0461448319232 -0.0354960245563 0.959 1.81459379002e-38
0.047919633151 -0.0354960245563 0.959 1.42690383064e-38
-0.055649919625 -0.034108015254 0.97 1.79575487359e-38
-0.0538547609274 -0.034108015254 0.97 1.85107183112e-38
-0.0520596022298 -0.034108015254 0.97 1.88794980281e-38
-0.0502644435323 -0.034108015254 0.97 1.61150584566e-38
-0.04831937983 -0.0340025265471 0.967 1.73136394799e-38
-0.0465297731697 -0.0340025265471 0.967 1.85107183112e-38
-0.0447401665093 -0.0340025265471 0.967 1.2061006711e-38
-0.0429505598489 -0.0340025265471 0.967 1.50109333576e-38
-0.0411609531886 -0.0340025265471 0.967 1.61165326226e-38
-0.0393713465282 -0.0340025265471 0.967 1.70370469851e-38
-0.0374651470864 -0.0338970378401 0.964 1.72221416967e-38
-0.0356810924633 -0.0338970378401 0.964 1.51005730191e-38
-0.0338267120354 -0.0338267120354 0.962 1.67590181594e-38
-0.0320463587704 -0.0338267120354 0.962 1.76827499032e-38
-0.0301716208728 -0.0337212233285 0.959 1.76827569097e-38
-0.028396819645 -0.0337212233285 0.959 1.73139926071e-38
-0.0266220184172 -0.0337212233285 0.959 1.71295831305e-38
-0.0247694886685 -0.0336157346215 0.956 1.73121919386e-38
-0.0230002394779 -0.0336157346215 0.956 1.8787672341e-38
-0.0212976147338 -0.0337212233285 0.959 1.65749744217e-38
-0.019522813506 -0.0337212233285 0.959 1.72221473018e-38
-0.0176924919061 -0.0336157346215 0.956 1.76831226486e-38
-0.0159232427154 -0.0336157346215 0.956 1.74987089681e-38
-0.0141243826597 -0.0335454088169 0.954 1.66696895862e-38
-0.0123588348273 -0.0335454088169 0.954 1.69451848643e-38
-0.0105599747715 -0.0334399201099 0.951 1.63930872823e-38
-0.00879997897629 -0.0334399201099 0.951 1.6576421963e-38
-0.00701777503219 -0.0333344314029 0.948 1.5655191537e-38
-0.00526333127414 -0.0333344314029 0.948 1.52882040808e-38
-0.0035088875161 -0.0333344314029 0.948 1.52874852147e-38
-0.00175074239991 -0.0332641055983 0.946 1.48261469317e-38
0.0 -0.0332641055983 0.946 1.61158025461e-38
0.00175074239991 -0.0332641055983 0.946 1.63909587099e-38
0.0034903807254 -0.0331586168913 0.943 1.64824270659e-38
0.0052355710881 -0.0331586168913 0.943 1.74972866501e-38
0.00694374786941 -0.0329828023797 0.938 1.73139898045e-38
0.00867968483676 -0.0329828023797 0.938 1.69459457693e-38
0.0104156218041 -0.0329828023797 0.938 1.71281496022e-38
0.0121515587715 -0.0329828023797 0.938 1.74958545231e-38
0.0138874957388 -0.0329828023797 0.938 1.75876998283e-38
0.0155734643713 -0.0328773136727 0.935 1.80490563282e-38
0.0173038493014 -0.0328773136727 0.935 1.59278351727e-38
0.018993519292 -0.0328069878681 0.933 1.62980624308e-38
0.020720202864 -0.0328069878681 0.933 1.69437779606e-38
0.022446886436 -0.0328069878681 0.933 1.74051064345e-38
0.0240440224732 -0.0326311733564 0.928 1.23372600916e-38
0.0257614526498 -0.0326311733564 0.928 1.81501992488e-38
0.0275381045567 -0.0327014991611 0.93 1.79579116722e-38
0.0292592360915 -0.0327014991611 0.93 1.94348199978e-38
0.0310803042961 -0.0328069878681 0.933 2.31187019384e-38
0.0328069878681 -0.0328069878681 0.933 2.10903826672e-38
0.034718739347 -0.0329828023797 0.938 1.90613851674e-38
0.0367655903981 -0.0332641055983 0.946 2.34870878904e-38
0.0388420523143 -0.0335454088169 0.954 1.80486905893e-38
0.0406076001467 -0.0335454088169 0.954 1.48229099323e-38
0.0424619805745 -0.0336157346215 0.956 1.39942885191e-38
0.0443700306954 -0.0337212233285 0.959 1.72254067221e-38
0.0461448319232 -0.0337212233285 0.959 1.49187405303e-38
0.047919633151 -0.0337212233285 0.959 1.39913892326e-38
-0.055649919625 -0.0323128565565 0.97 1.75894878852e-38
-0.0538547609274 -0.0323128565565 0.97 1.75902039487e-38
-0.0520596022298 -0.0323128565565 0.97 1.75894878852e-38
-0.0502644435323 -0.0323128565565 0.97 1.65760562241e-38
-0.0484692848347 -0.0323128565565 0.97 1.73139898045e-38
-0.0466741261371 -0.0323128565565 0.97 1.85125357953e-38
-0.0448789674395 -0.0323128565565 0.97 1.37201398889e-38
-0.0429505598489 -0.0322129198867 0.967 1.27049117632e-38
-0.0411609531886 -0.0322129198867 0.967 1.54722478185e-38
-0.0393713465282 -0.0322129198867 0.967 1.66693266499e-38
-0.0375817398678 -0.0322129198867 0.967 1.49176293007e-38
-0.0357921332074 -0.0322129198867 0.967 1.67604278656e-38
-0.0338970378401 -0.0321129832169 0.964 1.75894976943e-38
-0.0321129832169 -0.0321129832169 0.964 1.70377756603e-38
-0.0302660055054 -0.0320463587704 0.962 1.75902011461e-38
-0.0284856522404 -0.0320463587704 0.962 1.78671453668e-38
-0.0267052989754 -0.0320463587704 0.962 1.56547991734e-38
-0.0248472171894 -0.0319464221007 0.959 1.51913225089e-38
-0.0230724159616 -0.0319464221007 0.959 1.87876779462e-38
-0.0212976147338 -0.0319464221007 0.959 1.40860483452e-38
-0.019522813506 -0.0319464221007 0.959 1.57451997399e-38
-0.0177480122781 -0.0319464221007 0.959 1.59289043634e-38
-0.0159232427154 -0.0318464854309 0.956 1.65764247656e-38
-0.0141539935248 -0.0318464854309 0.956 1.537788438e-38
-0.0123588348273 -0.0317798609844 0.954 1.62065660489e-38
-0.0105932869948 -0.0317798609844 0.954 1.61143676165e-38
-0.00879997897629 -0.0316799243146 0.951 1.66675259814e-38
-0.00701777503219 -0.0315799876449 0.948 1.61161500681e-38
-0.00526333127414 -0.0315799876449 0.948 1.66700301017e-38
-0.0035088875161 -0.0315799876449 0.948 1.71310026458e-38
-0.00175074239991 -0.0315133631984 0.946 1.65771254148e-38
0.0 -0.0315133631984 0.946 1.7498361446e-38
0.00175074239991 -0.0315133631984 0.946 1.73136366773e-38
0.00350148479982 -0.0315133631984 0.946 1.77753000615e-38
0.00525222719973 -0.0315133631984 0.946 1.8143359511e-38
0.00695855330196 -0.0313134898588 0.94 1.70370315708e-38
0.00867968483676 -0.0312468654123 0.938 1.75909270187e-38
0.0104156218041 -0.0312468654123 0.938 1.80497569775e-38
0.0121515587715 -0.0312468654123 0.938 1.77738959605e-38
0.0138874957388 -0.0312468654123 0.938 1.80515324226e-38
0.0155734643713 -0.0311469287426 0.935 1.71295831305e-38
0.0173038493014 -0.0311469287426 0.935 1.71274125192e-38
0.018993519292 -0.0310803042961 0.933 1.83274228669e-38
0.020720202864 -0.0310803042961 0.933 1.85118267383e-38
0.022446886436 -0.0310803042961 0.933 1.70374001123e-38
0.0240958414871 -0.0309803676263 0.93 1.23328992507e-38
0.0258169730219 -0.0309803676263 0.93 1.76845701899e-38
0.0275381045567 -0.0309803676263 0.93 1.75891501722e-38
0.0293536207241 -0.0310803042961 0.933 2.10932469212e-38
0.0311469287426 -0.0311469287426 0.935 2.13687996526e-38
0.0328773136727 -0.0311469287426 0.935 1.61061560075e-38
0.0347927665098 -0.0313134898588 0.94 2.34885410369e-38
0.0367655903981 -0.0315133631984 0.946 1.8878441449e-38
0.0388420523143 -0.0317798609844 0.954 1.56569095289e-38
0.0406076001467 -0.0317798609844 0.954 1.30773460664e-38
0.0424619805745 -0.0318464854309 0.956 1.76792396505e-38
0.0443700306954 -0.0319464221007 0.959 1.62991540423e-38
0.0461448319232 -0.0319464221007 0.959 1.57441978115e-38
0.047919633151 -0.0319464221007 0.959 1.45481629475e-38
-0.055649919625 -0.0305176978589 0.97 1.72203466333e-38
-0.0538547609274 -0.0305176978589 0.97 1.71292272007e-38
-0.0522206113089 -0.0306120824914 0.973 1.74976425799e-38
-0.0504199005741 -0.0306120824914 0.973 1.54700772072e-38
-0.0484692848347 -0.0305176978589 0.97 1.72232164926e-38
-0.0466741261371 -0.0305176978589 0.97 1.7405812689e-38
-0.0448789674395 -0.0305176978589 0.97 1.8605434877e-38
-0.0429505598489 -0.0304233132263 0.967 1.02174500436e-38
-0.0411609531886 -0.0304233132263 0.967 1.53800886224e-38
-0.0393713465282 -0.0304233132263 0.967 1.61193898702e-38
-0.0375817398678 -0.0304233132263 0.967 1.51956553238e-38
-0.0357921332074 -0.0304233132263 0.967 1.73147114732e-38
-0.0340025265471 -0.0304233132263 0.967 1.74068888862e-38
-0.0321129832169 -0.0303289285938 0.964 1.70359749918e-38
-0.0303289285938 -0.0303289285938 0.964 1.74972866501e-38
-0.0285448739706 -0.0303289285938 0.964 1.79582647994e-38
-0.0267608193474 -0.0303289285938 0.964 1.77742616994e-38
-0.0249249457103 -0.0302660055054 0.962 1.72206969579e-38
-0.0231445924453 -0.0302660055054 0.962 1.78657020294e-38
-0.0213642391803 -0.0302660055054 0.962 1.66678791086e-38
-0.0195838859153 -0.0302660055054 0.962 1.54700772072e-38
-0.0177480122781 -0.0301716208728 0.959 1.51934903176e-38
-0.0159732110503 -0.0301716208728 0.959 1.59310553565e-38
-0.0141539935248 -0.0300772362403 0.956 1.59314084838e-38
-0.0123847443342 -0.0300772362403 0.956 1.62994791436e-38
-0.0106154951436 -0.0300772362403 0.956 1.65746240971e-38
-0.00882773916233 -0.0300143131519 0.954 1.53750145207e-38
-0.00706219132986 -0.0300143131519 0.954 1.58370268283e-38
-0.00527998738577 -0.0299199285194 0.951 1.61161500681e-38
-0.00351999159051 -0.0299199285194 0.951 1.54700800098e-38
-0.00175444375805 -0.0298255438868 0.948 1.5560830901e-38
0.0 -0.0298255438868 0.948 1.71288796787e-38
0.00175444375805 -0.0298255438868 0.948 1.60214503179e-38
0.0035088875161 -0.0298255438868 0.948 1.51916910504e-38
0.00525222719973 -0.0297626207984 0.946 1.5283885279e-38
0.00700296959964 -0.0297626207984 0.946 1.62040044753e-38
0.00875371199954 -0.0297626207984 0.946 1.52831818271e-38
0.0104711421762 -0.0296682361659 0.943 1.60200308025e-38
0.0121774682784 -0.0295738515333 0.94 1.64816899829e-38
0.0138874957388 -0.029510928445 0.938 1.62058471828e-38
0.0156234327062 -0.029510928445 0.938 1.85125175784e-38
0.0173038493014 -0.0294165438124 0.935 1.82355761603e-38
0.0190342342316 -0.0294165438124 0.935 1.52849852983e-38
0.0207646191617 -0.0294165438124 0.935 1.92472435867e-38
0.0224950040919 -0.0294165438124 0.935 1.84185198787e-38
0.024173570008 -0.0293536207241 0.933 1.72224976265e-38
0.02590025358 -0.0293536207241 0.933 1.70388294367e-38
0.027626937152 -0.0293536207241 0.933 1.72210781111e-38
0.0294165438124 -0.0294165438124 0.935 2.03567805003e-38
0.0312468654123 -0.029510928445 0.938 1.86021824633e-38
0.0330531281843 -0.0295738515333 0.94 2.34871061073e-38
0.034903807254 -0.0296682361659 0.943 1.97089055696e-38
0.036843318919 -0.0298255438868 0.948 1.46452953519e-38
0.0388420523143 -0.0300143131519 0.954 1.32649603126e-38
0.0406076001467 -0.0300143131519 0.954 1.40879218812e-38
0.0424619805745 -0.0300772362403 0.956 1.73129332255e-38
0.0443700306954 -0.0301716208728 0.959 1.48229253465e-38
0.0462891848906 -0.0302660055054 0.962 1.44527429299e-38
0.0480695381556 -0.0302660055054 0.962 1.67583329244e-38
-0.0558220327785 -0.0288113717566 0.973 1.65760562241e-38
-0.0540213220437 -0.0288113717566 0.973 1.63920307033e-38
-0.0522206113089 -0.0288113717566 0.973 1.65753303515e-38
-0.0504199005741 -0.0288113717566 0.973 1.62069163735e-38
-0.0486191898393 -0.0288113717566 0.973 1.70381063667e-38
-0.0466741261371 -0.0287225391613 0.97 1.74972894527e-38
-0.0448789674395 -0.0287225391613 0.97 1.74976397773e-38
-0.0429505598489 -0.028633706566 0.967 1.68548039159e-38
-0.0411609531886 -0.028633706566 0.967 1.2337524937e-38
-0.0393713465282 -0.028633706566 0.967 1.63952326703e-38
-0.0375817398678 -0.028633706566 0.967 1.73146960589e-38
-0.0357921332074 -0.028633706566 0.967 1.82355761603e-38
-0.0340025265471 -0.028633706566 0.967 1.78671481694e-38
-0.0322129198867 -0.028633706566 0.967 1.685228298e-38
-0.0303289285938 -0.0285448739706 0.964 1.76824037825e-38
-0.0285448739706 -0.0285448739706 0.964 1.74047406956e-38
-0.0267608193474 -0.0285448739706 0.964 1.81426588618e-38
-0.0249249457103 -0.0284856522404 0.962 1.7312898193e-38
-0.0231445924453 -0.0284856522404 0.962 1.72203466333e-38
-0.0213642391803 -0.0284856522404 0.962 1.6299128819e-38
-0.0195838859153 -0.0284856522404 0.962 1.60221719866e-38
-0.0177480122781 -0.028396819645 0.959 1.60225475346e-38
-0.0159732110503 -0.028396819645 0.959 1.53778815774e-38
-0.0141539935248 -0.0283079870497 0.956 1.51938434449e-38
-0.0123847443342 -0.0283079870497 0.956 1.51931371904e-38
-0.0106154951436 -0.0283079870497 0.956 1.71285265514e-38
-0.00882773916233 -0.0282487653195 0.954 1.62065688515e-38
-0.00706219132986 -0.0282487653195 0.954 1.67604432799e-38
-0.00527998738577 -0.0281599327241 0.951 1.63931097031e-38
-0.00351999159051 -0.0281599327241 0.951 1.54708030798e-38
-0.00175999579526 -0.0281599327241 0.951 1.56537622125e-38
0.0 -0.0280711001288 0.948 1.65749996451e-38
0.00175444375805 -0.0280711001288 0.948 1.63916621618e-38
0.0035088875161 -0.0280711001288 0.948 1.61157997435e-38
0.00526333127414 -0.0280711001288 0.948 1.60232509864e-38
0.00700296959964 -0.0280118783985 0.946 1.65764121539e-38
0.00875371199954 -0.0280118783985 0.946 1.67600929553e-38
0.0105044543995 -0.0280118783985 0.946 1.71288796787e-38
0.0122163325389 -0.0279230458032 0.943 1.83291899042e-38
0.0139171066039 -0.0278342132079 0.94 1.759237456e-38
0.0156234327062 -0.0277749914776 0.938 1.7128853054e-38
0.0173593696735 -0.0277749914776 0.938 1.58367115361e-38
0.0190953066409 -0.0277749914776 0.938 1.57441431609e-38
0.0208312436082 -0.0277749914776 0.938 1.76791976116e-38
0.0224950040919 -0.0276861588823 0.935 1.89720467851e-38
0.024225389022 -0.0276861588823 0.935 1.40860511478e-38
0.0259557739521 -0.0276861588823 0.935 1.74969391281e-38
0.0276861588823 -0.0276861588823 0.935 1.71277810607e-38
0.029510928445 -0.0277749914776 0.938 2.11829566476e-38
0.0313134898588 -0.0278342132079 0.94 2.3489663477e-38
0.0331586168913 -0.0279230458032 0.943 1.92461449687e-38
0.0350148479982 -0.0280118783985 0.946 1.5288143825e-38
0.036843318919 -0.0280711001288 0.948 1.38181312892e-38
0.0388420523143 -0.0282487653195 0.954 1.35372508211e-38
0.0406076001467 -0.0282487653195 0.954 1.74087217846e-38
0.0425952294675 -0.028396819645 0.959 1.46446493533e-38
0.0446013655791 -0.0285448739706 0.964 1.48279868366e-38
0.0463854202022 -0.0285448739706 0.964 1.52857462033e-38
-0.0559367748808 -0.0270661813939 0.975 1.62069191761e-38
-0.0541323627879 -0.0270661813939 0.975 1.62072666981e-38
-0.0523279506949 -0.0270661813939 0.975 1.67600901527e-38
-0.0504199005741 -0.0270106610218 0.973 1.54693541372e-38
-0.0486191898393 -0.0270106610218 0.973 1.76827499032e-38
-0.0468184791045 -0.0270106610218 0.973 1.72210879202e-38
-0.0450177683697 -0.0270106610218 0.973 1.78660691696e-38
-0.0430838087419 -0.0269273804637 0.97 1.86054320744e-38
-0.0412886500444 -0.0269273804637 0.97 1.7777466469e-38
-0.0394934913468 -0.0269273804637 0.97 1.2435181427e-38
-0.0376983326492 -0.0269273804637 0.97 1.66733063375e-38
-0.0357921332074 -0.0268440999056 0.967 1.82362894213e-38
-0.0340025265471 -0.0268440999056 0.967 1.84206904901e-38
-0.0322129198867 -0.0268440999056 0.967 1.72221318876e-38
-0.0304233132263 -0.0268440999056 0.967 1.83281193122e-38
-0.0285448739706 -0.0267608193474 0.964 1.77738693358e-38
-0.0267608193474 -0.0267608193474 0.964 1.79582619968e-38
-0.0249249457103 -0.0267052989754 0.962 1.71288796787e-38
-0.0231445924453 -0.0267052989754 0.962 1.7404737893e-38
-0.0213642391803 -0.0267052989754 0.962 1.58385065995e-38
-0.0195838859153 -0.0267052989754 0.962 1.60214657322e-38
-0.0177480122781 -0.0266220184172 0.959 1.57452389763e-38
-0.0159732110503 -0.0266220184172 0.959 1.56555474668e-38
-0.0141539935248 -0.0265387378591 0.956 1.55629931045e-38
-0.0123847443342 -0.0265387378591 0.956 1.51949350564e-38
-0.0106154951436 -0.0265387378591 0.956 1.57463109696e-38
-0.00884624595303 -0.0265387378591 0.956 1.59310581591e-38
-0.00706219132986 -0.026483217487 0.954 1.59310581591e-38
-0.0052966434974 -0.026483217487 0.954 1.62069191761e-38
-0.00353109566493 -0.026483217487 0.954 1.62065632463e-38
-0.00175999579526 -0.0263999369289 0.951 1.60232509864e-38
0.0 -0.0263166563707 0.948 1.6023253789e-38
0.00175444375805 -0.0263166563707 0.948 1.60236041136e-38
0.0035088875161 -0.0263166563707 0.948 1.56555474668e-38
0.00526333127414 -0.0263166563707 0.948 1.6300560946e-38
0.00701777503219 -0.0263166563707 0.948 1.62080149915e-38
0.00875371199954 -0.0262611359986 0.946 1.73114702699e-38
0.0105044543995 -0.0262611359986 0.946 1.42707955347e-38
0.0122551967994 -0.0262611359986 0.946 1.4733623398e-38
0.0140059391993 -0.0262611359986 0.946 1.75030445855e-38
0.0156567449294 -0.0260945748824 0.94 1.88834637027e-38
0.0173593696735 -0.0260390545103 0.938 1.98036403523e-38
0.0190953066409 -0.0260390545103 0.938 1.82355733577e-38
0.0208312436082 -0.0260390545103 0.938 1.82334069503e-38
0.0225671805756 -0.0260390545103 0.938 1.93404775787e-38
0.024225389022 -0.0259557739521 0.935 1.85110686358e-38
0.0259557739521 -0.0259557739521 0.935 1.78657020294e-38
0.0277749914776 -0.0260390545103 0.938 1.65757087021e-38
0.0295738515333 -0.0260945748824 0.94 2.15520993008e-38
0.0314134265286 -0.0261778554405 0.943 1.95241639853e-38
0.0331586168913 -0.0261778554405 0.943 1.48246853774e-38
0.0350148479982 -0.0262611359986 0.946 1.36319701895e-38
0.0369599117004 -0.0263999369289 0.951 1.28915310874e-38
0.0389234821933 -0.0265387378591 0.956 1.69502239335e-38
0.0406927313839 -0.0265387378591 0.956 1.4551385934e-38
0.0427284783606 -0.0267052989754 0.962 1.50116830523e-38
0.0446013655791 -0.0267608193474 0.964 1.48279868366e-38
0.0465297731697 -0.0268440999056 0.967 1.55666084545e-38
-0.0542989239041 -0.0253394978219 0.978 1.57462955553e-38
-0.0523279506949 -0.025261769301 0.975 1.53767899659e-38
-0.050523538602 -0.025261769301 0.975 1.57455921035e-38
-0.0487191265091 -0.025261769301 0.975 1.79589682513e-38
-0.0468184791045 -0.0252099502871 0.973 1.79582647994e-38
-0.0450177683697 -0.0252099502871 0.973 1.7314705868e-38
-0.0430838087419 -0.0251322217661 0.97 4.86731632884e-39
-0.0412886500444 -0.0251322217661 0.97 7.90146521703e-39
-0.0394934913468 -0.0251322217661 0.97 7.92168174997e-39
-0.0376983326492 -0.0251322217661 0.97 1.15118182247e-38
-0.0359031739516 -0.0251322217661 0.97 1.25119109257e-38
-0.0340025265471 -0.0250544932452 0.967 1.50066355752e-38
-0.0322129198867 -0.0250544932452 0.967 1.37277139071e-38
-0.0304233132263 -0.0250544932452 0.967 1.71339271557e-38
-0.028633706566 -0.0250544932452 0.967 1.79578976592e-38
-0.0267608193474 -0.0249767647243 0.964 1.79582647994e-38
-0.0249767647243 -0.0249767647243 0.964 1.758948228e-38
-0.0231927101011 -0.0249767647243 0.964 1.72217815629e-38
-0.021408655478 -0.0249767647243 0.964 1.67604432799e-38
-0.0195838859153 -0.0249249457103 0.962 1.62980428127e-38
-0.0178035326502 -0.0249249457103 0.962 1.58377849308e-38
-0.0159732110503 -0.0248472171894 0.959 1.59310553565e-38
-0.0141984098225 -0.0248472171894 0.959 1.5747740294e-38
-0.0124236085947 -0.0248472171894 0.959 1.547044715e-38
-0.0106154951436 -0.0247694886685 0.956 1.56541097345e-38
-0.00884624595303 -0.0247694886685 0.956 1.60228628267e-38
-0.00707699676242 -0.0247694886685 0.956 1.58388569241e-38
-0.00530774757182 -0.0247694886685 0.956 1.62994819462e-38
-0.00353109566493 -0.0247176696545 0.954 1.60243075655e-38
-0.00176554783247 -0.0247176696545 0.954 1.60232509864e-38
0.0 -0.0246399411336 0.951 1.65764247656e-38
0.00175999579526 -0.0246399411336 0.951 1.62083779278e-38
0.0035088875161 -0.0245622126127 0.948 1.63920307033e-38
0.00526333127414 -0.0245622126127 0.948 1.60236041136e-38
0.00701777503219 -0.0245622126127 0.948 1.64838367722e-38
0.00877221879024 -0.0245622126127 0.948 1.81437280525e-38
0.0105266625483 -0.0245622126127 0.948 1.31698499819e-38
0.0122551967994 -0.0245103935987 0.946 9.30021471945e-39
0.0140059391993 -0.0245103935987 0.946 9.20622402625e-39
0.0157566815992 -0.0245103935987 0.946 1.16879306131e-38
0.0173963832549 -0.0243549365569 0.94 1.3805223929e-38
0.0191360215804 -0.0243549365569 0.94 1.61158165591e-38
0.0208312436082 -0.0243031175429 0.938 1.77785412649e-38
0.0225671805756 -0.0243031175429 0.938 1.8513604986e-38
0.0243031175429 -0.0243031175429 0.938 1.86014663998e-38
0.0260390545103 -0.0243031175429 0.938 1.79582647994e-38
0.0278342132079 -0.0243549365569 0.94 1.67597398281e-38
0.0295738515333 -0.0243549365569 0.94 2.30275979201e-38
0.0314134265286 -0.0244326650778 0.943 1.46439038625e-38
0.0332641055983 -0.0245103935987 0.946 1.30798627985e-38
0.035088875161 -0.0245622126127 0.948 1.29872720024e-38
0.0369599117004 -0.0246399411336 0.951 1.70435307931e-38
0.0388420523143 -0.0247176696545 0.954 1.48279504028e-38
0.0406927313839 -0.0247694886685 0.956 1.56512833155e-38
0.0428173109559 -0.0249767647243 0.964 1.48226044492e-38
0.0446013655791 -0.0249767647243 0.964 1.77732107255e-38
0.0465297731697 -0.0250544932452 0.967 1.47350457159e-38
-0.0542989239041 -0.0235295336918 0.978 1.53778815774e-38
-0.052488959774 -0.0235295336918 0.978 1.51012946878e-38
-0.0506789956439 -0.0235295336918 0.978 1.5100225497e-38
-0.0488690315137 -0.0235295336918 0.978 1.83284724394e-38
-0.0469147144162 -0.0234573572081 0.975 1.86962236032e-38
-0.0451103023232 -0.0234573572081 0.975 2.57139389242e-39
-0.043217057635 -0.0234092395523 0.973 6.42859683494e-40
-0.0414163469002 -0.0234092395523 0.973 8.20001605875e-39
-0.0396156361654 -0.0234092395523 0.973 3.92363570011e-44
-0.0378149254306 -0.0234092395523 0.973 1.18766729045e-38
-0.0359031739516 -0.0233370630686 0.97 2.0543007461e-38
-0.034108015254 -0.0233370630686 0.97 1.58446008465e-38
-0.0323128565565 -0.0233370630686 0.97 1.01365166494e-38
-0.0304233132263 -0.0232648865848 0.967 1.52039398003e-38
-0.028633706566 -0.0232648865848 0.967 1.8237372625e-38
-0.0268440999056 -0.0232648865848 0.967 1.758875921e-38
-0.0249767647243 -0.0231927101011 0.964 1.77728127568e-38
-0.0231927101011 -0.0231927101011 0.964 1.69448345397e-38
-0.0214752799245 -0.0232648865848 0.967 1.72217787603e-38
-0.0196246008548 -0.0231927101011 0.964 1.62987462645e-38
-0.0178405462316 -0.0231927101011 0.964 1.62991120034e-38
-0.0160231793852 -0.0231445924453 0.962 1.60225251138e-38
-0.0141984098225 -0.0230724159616 0.959 1.57466612942e-38
-0.0124236085947 -0.0230724159616 0.959 1.60232509864e-38
-0.0106488073669 -0.0230724159616 0.959 1.61154466163e-38
-0.00884624595303 -0.0230002394779 0.956 1.56555600785e-38
-0.00707699676242 -0.0230002394779 0.956 1.62987588762e-38
-0.00530774757182 -0.0230002394779 0.956 1.57459424281e-38
-0.00353849838121 -0.0230002394779 0.956 1.60228600241e-38
-0.00176924919061 -0.0230002394779 0.956 1.62069163735e-38
0.0 -0.0229521218221 0.954 1.6207622628e-38
0.00175999579526 -0.0228799453383 0.951 1.62991120034e-38
0.0035088875161 -0.0228077688546 0.948 1.6299114806e-38
0.00526333127414 -0.0228077688546 0.948 1.66693238473e-38
0.00701777503219 -0.0228077688546 0.948 1.67618698018e-38
0.00877221879024 -0.0228077688546 0.948 1.78678670355e-38
0.0105266625483 -0.0228077688546 0.948 1.07727860263e-38
0.0122551967994 -0.0227596511988 0.946 9.76523841743e-39
0.0140059391993 -0.0227596511988 0.946 7.36309755742e-39
0.0157566815992 -0.0227596511988 0.946 1.15042329961e-38
0.0175074239991 -0.0227596511988 0.946 1.33532533262e-38
0.0191970939897 -0.0226874747151 0.943 9.39709489008e-39
0.0209422843524 -0.0226874747151 0.943 9.57461418213e-39
0.0226152982314 -0.0226152982314 0.94 1.14105730093e-38
0.0243031175429 -0.0225671805756 0.938 1.86919440377e-38
0.0260390545103 -0.0225671805756 0.938 1.76831226486e-38
0.0279230458032 -0.0226874747151 0.943 1.72221599135e-38
0.0296682361659 -0.0226874747151 0.943 2.29350337487e-38
0.0315133631984 -0.0227596511988 0.946 1.19709592717e-38
0.0333344314029 -0.0228077688546 0.948 1.01325117384e-38
0.035088875161 -0.0228077688546 0.948 1.69510128646e-38
0.0369599117004 -0.0228799453383 0.951 1.50130899559e-38
0.0388420523143 -0.0229521218221 0.954 1.48215184429e-38
0.0406927313839 -0.0230002394779 0.956 1.49126476846e-38
0.0430838087419 -0.0233370630686 0.97 1.56516546596e-38
0.0448789674395 -0.0233370630686 0.97 1.56509175766e-38
0.0466741261371 -0.0233370630686 0.97 1.21496290298e-38
-0.0544654850204 -0.0217861940082 0.981 1.41789628412e-38
-0.0526499688531 -0.0217861940082 0.981 1.53746585909e-38
-0.0506789956439 -0.0217195695617 0.978 1.59325042992e-38
-0.0488690315137 -0.0217195695617 0.978 1.67625886679e-38
-0.0469147144162 -0.0216529451152 0.975 1.93426439861e-38
-0.0451103023232 -0.0216529451152 0.975 1.83670992316e-39
-0.043217057635 -0.0216085288175 0.973 3.67954632321e-39
-0.0414163469002 -0.0216085288175 0.973 6.35647900947e-39
-0.0396156361654 -0.0216085288175 0.973 6.53946336554e-39
-0.0378149254306 -0.0216085288175 0.973 0.0
-0.0360142146958 -0.0216085288175 0.973 2.10049595128e-38
-0.034108015254 -0.021541904371 0.97 3.94892633479e-39
-0.0323128565565 -0.021541904371 0.97 4.77868560227e-39
-0.0305176978589 -0.021541904371 0.97 5.51880801087e-39
-0.0287225391613 -0.021541904371 0.97 9.84689908544e-39
-0.0268440999056 -0.0214752799245 0.967 1.89728595382e-38
-0.0249767647243 -0.021408655478 0.964 1.67600873501e-38
-0.0231927101011 -0.021408655478 0.964 1.657713102e-38
-0.0214752799245 -0.0214752799245 0.967 1.69448317371e-38
-0.0196856732641 -0.0214752799245 0.967 1.67597216112e-38
-0.0178405462316 -0.021408655478 0.964 1.64827773905e-38
-0.0160231793852 -0.0213642391803 0.962 1.62069163735e-38
-0.0141984098225 -0.0212976147338 0.959 1.61154213929e-38
-0.0124236085947 -0.0212976147338 0.959 1.62065632463e-38
-0.0106488073669 -0.0212976147338 0.959 1.63916775761e-38
-0.00884624595303 -0.0212309902873 0.956 1.56555474668e-38
-0.00707699676242 -0.0212309902873 0.956 1.61165059979e-38
-0.00530774757182 -0.0212309902873 0.956 1.62991120034e-38
-0.00353849838121 -0.0212309902873 0.956 1.64831571424e-38
-0.00176924919061 -0.0212309902873 0.956 1.64824270659e-38
0.0 -0.0211865739896 0.954 1.6299114806e-38
0.00175999579526 -0.0211199495431 0.951 1.62991120034e-38
0.00351999159051 -0.0211199495431 0.951 1.68522857826e-38
0.00526333127414 -0.0210533250966 0.948 1.63920307033e-38
0.00701777503219 -0.0210533250966 0.948 1.70373804941e-38
0.00877221879024 -0.0210533250966 0.948 1.82366691731e-38
0.0105266625483 -0.0210533250966 0.948 1.11408482783e-38
0.0122811063063 -0.0210533250966 0.948 6.53079633454e-39
0.0140059391993 -0.0210089087989 0.946 9.20625625612e-39
0.0157566815992 -0.0210089087989 0.946 7.4505343777e-39
0.0175074239991 -0.0210089087989 0.946 1.11437545713e-38
0.019258166399 -0.0210089087989 0.946 9.03018730797e-39
0.0209422843524 -0.0209422843524 0.943 6.99423516396e-39
0.0226152982314 -0.0208756599059 0.94 1.08595698415e-38
0.0243549365569 -0.0208756599059 0.94 1.85118687772e-38
0.0260945748824 -0.0208756599059 0.94 1.74998075861e-38
0.0279230458032 -0.0209422843524 0.943 1.77749525395e-38
0.0296682361659 -0.0209422843524 0.943 2.31201494798e-38
0.0315133631984 -0.0210089087989 0.946 9.66429027736e-39
0.0333344314029 -0.0210533250966 0.948 1.52029014381e-38
0.035088875161 -0.0210533250966 0.948 1.59357398973e-38
0.0369599117004 -0.0211199495431 0.951 1.40897057342e-38
0.0388420523143 -0.0211865739896 0.954 1.39056802133e-38
0.0408204282397 -0.0212976147338 0.959 1.53789984122e-38
0.043217057635 -0.0216085288175 0.973 1.54744156273e-38
0.0448789674395 -0.021541904371 0.97 1.38120426474e-38
0.0466741261371 -0.021541904371 0.97 1.45445854326e-38
0.0484692848347 -0.021541904371 0.97 2.20124300502e-38
-0.0508344526857 -0.0199706778408 0.981 1.61154662345e-38
-0.0488690315137 -0.0199096054315 0.978 1.73154093198e-38
-0.0470590673836 -0.0199096054315 0.978 1.77753056667e-38
-0.0451103023232 -0.0198485330222 0.975 1.60254159925e-38
-0.0433058902303 -0.0198485330222 0.975 1.20692631616e-38
-0.0415014781374 -0.0198485330222 0.975 9.94810086053e-39
-0.0396970660444 -0.0198485330222 0.975 7.26154405641e-39
-0.0378149254306 -0.0198078180827 0.973 1.83670992316e-39
-0.0360142146958 -0.0198078180827 0.973 1.64677862995e-38
-0.034213503961 -0.0198078180827 0.973 5.78567969821e-39
-0.0324127932262 -0.0198078180827 0.973 7.92018936711e-39
-0.0305176978589 -0.0197467456734 0.97 7.27340044272e-39
-0.0287225391613 -0.0197467456734 0.97 9.18382987549e-41
-0.0268440999056 -0.0196856732641 0.967 1.44509983133e-38
-0.0250544932452 -0.0196856732641 0.967 1.75934255339e-38
-0.0232648865848 -0.0196856732641 0.967 1.74976369747e-38
-0.0214752799245 -0.0196856732641 0.967 1.69437625463e-38
-0.0196856732641 -0.0196856732641 0.967 1.68508410439e-38
-0.0178960666037 -0.0196856732641 0.967 1.65746240971e-38
-0.0160564916085 -0.0196246008548 0.964 1.67600929553e-38
-0.0142428261202 -0.0195838859153 0.962 1.657713102e-38
-0.0124624728552 -0.0195838859153 0.962 1.62065632463e-38
-0.0106488073669 -0.019522813506 0.959 1.62994819462e-38
-0.00887400613907 -0.019522813506 0.959 1.59317714201e-38
-0.00709920491126 -0.019522813506 0.959 1.65767302487e-38
-0.00532440368344 -0.019522813506 0.959 1.63001657798e-38
-0.00353849838121 -0.0194617410967 0.956 1.64824270659e-38
-0.00176924919061 -0.0194617410967 0.956 1.72192732387e-38
0.0 -0.0194617410967 0.956 1.65742709698e-38
0.00176554783247 -0.0194210261571 0.954 1.62065632463e-38
0.00351999159051 -0.0193599537478 0.951 1.68529864318e-38
0.00527998738577 -0.0193599537478 0.951 1.67618698018e-38
0.00701777503219 -0.0192988813385 0.948 1.65749744217e-38
0.00877221879024 -0.0192988813385 0.948 1.75887788282e-38
0.0105266625483 -0.0192988813385 0.948 1.24287130332e-38
0.0122811063063 -0.0192988813385 0.948 1.39978310017e-38
0.0140355500644 -0.0192988813385 0.948 1.1235249552e-38
0.0157899938224 -0.0192988813385 0.948 9.29338058684e-39
0.0175444375805 -0.0192988813385 0.948 1.01267566056e-38
0.019258166399 -0.019258166399 0.946 7.45964001512e-39
0.0210089087989 -0.019258166399 0.946 9.76086496492e-39
0.0226874747151 -0.0191970939897 0.943 5.69774681827e-39
0.0244326650778 -0.0191970939897 0.943 1.76824598344e-38
0.0261778554405 -0.0191970939897 0.943 1.78668132591e-38
0.0279230458032 -0.0191970939897 0.943 1.87883912071e-38
0.0297626207984 -0.019258166399 0.946 2.34900025912e-38
0.0315133631984 -0.019258166399 0.946 1.48257839954e-38
0.0333344314029 -0.0192988813385 0.948 1.5108131623e-38
0.0351999159051 -0.0193599537478 0.951 1.35404583933e-38
0.0370765044818 -0.0194210261571 0.954 1.47390169958e-38
0.0389234821933 -0.0194617410967 0.956 1.39078284039e-38
0.0409481250955 -0.0195838859153 0.962 1.63985173139e-38
0.043217057635 -0.0198078180827 0.973 1.40936265673e-38
0.0450177683697 -0.0198078180827 0.973 1.19685154072e-38
0.0468184791045 -0.0198078180827 0.973 1.99872903251e-38
0.0486191898393 -0.0198078180827 0.973 1.98911640531e-38
-0.0488690315137 -0.0180996413014 0.978 1.74061630136e-38
-0.0470590673836 -0.0180996413014 0.978 1.73139926071e-38
-0.0451103023232 -0.0180441209293 0.975 1.63891622453e-38
-0.0433058902303 -0.0180441209293 0.975 1.46417388564e-38
-0.0415014781374 -0.0180441209293 0.975 1.28843578406e-38
-0.0396970660444 -0.0180441209293 0.975 1.50995374595e-38
-0.0378926539515 -0.0180441209293 0.975 1.73172688429e-38
-0.0360882418586 -0.0180441209293 0.975 1.25248547196e-38
-0.034213503961 -0.0180071073479 0.973 1.05862493786e-38
-0.0324127932262 -0.0180071073479 0.973 1.07692533528e-38
-0.0306120824914 -0.0180071073479 0.973 6.06838605819e-39
-0.0287225391613 -0.0179515869758 0.97 7.26727957103e-39
-0.0269273804637 -0.0179515869758 0.97 0.0
-0.0250544932452 -0.0178960666037 0.967 1.80591134473e-38
-0.0232648865848 -0.0178960666037 0.967 1.70352168893e-38
-0.021541904371 -0.0179515869758 0.97 1.67597216112e-38
-0.0197467456734 -0.0179515869758 0.97 1.65760562241e-38
-0.0178960666037 -0.0178960666037 0.967 1.67604432799e-38
-0.0160564916085 -0.0178405462316 0.964 1.63923810279e-38
-0.0142724369853 -0.0178405462316 0.964 1.64842263331e-38
-0.0124883823621 -0.0178405462316 0.964 1.64845612435e-38
-0.010704327739 -0.0178405462316 0.964 1.66686203955e-38
-0.00890176632512 -0.0178035326502 0.962 1.62998574942e-38
-0.00709920491126 -0.0177480122781 0.959 1.71299334551e-38
-0.00532440368344 -0.0177480122781 0.959 1.64838367722e-38
-0.00354960245563 -0.0177480122781 0.959 1.65749800269e-38
-0.00177480122781 -0.0177480122781 0.959 1.68504907192e-38
0.0 -0.0176924919061 0.956 1.64835256839e-38
0.00176554783247 -0.0176554783247 0.954 1.62994819462e-38
0.00351999159051 -0.0175999579526 0.951 1.63924090539e-38
0.00527998738577 -0.0175999579526 0.951 1.61147235463e-38
0.00703998318103 -0.0175999579526 0.951 1.65749604087e-38
0.00879997897629 -0.0175999579526 0.951 1.81408609958e-38
0.0105266625483 -0.0175444375805 0.948 6.98810728577e-39
0.0122811063063 -0.0175444375805 0.948 1.31630606909e-38
0.0140355500644 -0.0175444375805 0.948 1.25227709888e-38
0.0157899938224 -0.0175444375805 0.948 1.36297967756e-38
0.0175444375805 -0.0175444375805 0.948 1.36308561572e-38
0.019258166399 -0.0175074239991 0.946 1.40951119436e-38
0.0210089087989 -0.0175074239991 0.946 9.39061108208e-39
0.0227596511988 -0.0175074239991 0.946 6.98491933177e-39
0.0245103935987 -0.0175074239991 0.946 1.81441638563e-38
0.0262611359986 -0.0175074239991 0.946 1.7037384698e-38
0.0280118783985 -0.0175074239991 0.946 1.82341258164e-38
0.0297626207984 -0.0175074239991 0.946 2.34885760694e-38
0.0315799876449 -0.0175444375805 0.948 1.44545029608e-38
0.0333344314029 -0.0175444375805 0.948 1.34479222479e-38
0.0351999159051 -0.0175999579526 0.951 1.40968887901e-38
0.0371542330027 -0.0176924919061 0.956 1.42776871206e-38
0.0390456270119 -0.0177480122781 0.959 1.51960518912e-38
0.0415014781374 -0.0180441209293 0.975 1.51020527902e-38
0.0433058902303 -0.0180441209293 0.975 1.10479688148e-38
0.0451103023232 -0.0180441209293 0.975 1.96171625592e-38
0.0469147144162 -0.0180441209293 0.975 1.2519856288e-38
-0.0433058902303 -0.0162397088364 0.975 1.83309933754e-38
-0.0415014781374 -0.0162397088364 0.975 1.20595395515e-38
-0.0396970660444 -0.0162397088364 0.975 1.57481480719e-38
-0.0378926539515 -0.0162397088364 0.975 1.7963652792e-38
-0.0360882418586 -0.0162397088364 0.975 1.07717322498e-38
-0.034213503961 -0.0162063966131 0.973 1.49244662359e-38
-0.0324127932262 -0.0162063966131 0.973 1.41786545555e-38
-0.0306120824914 -0.0162063966131 0.973 1.178485002e-38
-0.0288113717566 -0.0162063966131 0.973 1.40911434664e-38
-0.0269273804637 -0.0161564282782 0.97 3.58158435016e-39
-0.0251322217661 -0.0161564282782 0.97 1.75019908091e-38
-0.0233370630686 -0.0161564282782 0.97 1.5381809417e-38
-0.021541904371 -0.0161564282782 0.97 1.74119307581e-38
-0.0197467456734 -0.0161564282782 0.97 1.722321369e-38
-0.0178960666037 -0.0161064599433 0.967 1.81430217981e-38
-0.0160564916085 -0.0160564916085 0.964 1.65749772243e-38
-0.0142724369853 -0.0160564916085 0.964 1.69455520045e-38
-0.0124883823621 -0.0160564916085 0.964 1.68519200437e-38
-0.010704327739 -0.0160564916085 0.964 1.68519172411e-38
-0.00890176632512 -0.0160231793852 0.962 1.6576421963e-38
-0.00712141306009 -0.0160231793852 0.962 1.71295803279e-38
-0.00534105979507 -0.0160231793852 0.962 1.62987616788e-38
-0.00354960245563 -0.0159732110503 0.959 1.79575221113e-38
-0.00177480122781 -0.0159732110503 0.959 1.65753275489e-38
0.0 -0.0159732110503 0.959 1.67597244138e-38
0.00176924919061 -0.0159232427154 0.956 1.61154466163e-38
0.00353109566493 -0.0158899304922 0.954 1.70377336213e-38
0.0052966434974 -0.0158899304922 0.954 1.63916621618e-38
0.00703998318103 -0.0158399621573 0.951 1.68515697191e-38
0.00879997897629 -0.0158399621573 0.951 1.84181821658e-38
0.0105599747715 -0.0158399621573 0.951 9.75287195848e-39
0.0122811063063 -0.0157899938224 0.948 1.039361428e-38
0.0140355500644 -0.0157899938224 0.948 1.09597963128e-38
0.0157899938224 -0.0157899938224 0.948 9.30564755359e-39
0.0175444375805 -0.0157899938224 0.948 8.92527629584e-39
0.019258166399 -0.0157566815992 0.946 1.25230764718e-38
0.0210089087989 -0.0157566815992 0.946 1.2805426902e-38
0.0227596511988 -0.0157566815992 0.946 1.19713572405e-38
0.0245103935987 -0.0157566815992 0.946 1.74083532431e-38
0.0262611359986 -0.0157566815992 0.946 1.78671663863e-38
0.0280118783985 -0.0157566815992 0.946 1.81433749253e-38
0.0297626207984 -0.0157566815992 0.946 2.3397472051e-38
0.0315799876449 -0.0157899938224 0.948 1.22407442585e-38
0.0333344314029 -0.0157899938224 0.948 1.40057525419e-38
0.0353109566493 -0.0158899304922 0.954 1.35383200118e-38
0.0372708257841 -0.0159732110503 0.959 1.65721662196e-38
0.0391677718305 -0.0160231793852 0.962 1.56498343729e-38
0.0412886500444 -0.0161564282782 0.97 1.27014113196e-38
0.0430838087419 -0.0161564282782 0.97 1.50080803139e-38
0.0450177683697 -0.0162063966131 0.973 1.86058398523e-38
0.0468184791045 -0.0162063966131 0.973 1.68508214257e-38
-0.0378926539515 -0.0144352967434 0.975 1.82388369819e-38
-0.0360882418586 -0.0144352967434 0.975 7.63207960025e-39
-0.0342838297657 -0.0144352967434 0.975 1.82412990633e-38
-0.0324794176727 -0.0144352967434 0.975 1.57502766443e-38
-0.0306120824914 -0.0144056858783 0.973 1.37209134056e-38
-0.0288113717566 -0.0144056858783 0.973 1.64806516207e-38
-0.0270106610218 -0.0144056858783 0.973 1.39045493655e-38
-0.0251322217661 -0.0143612695806 0.97 1.70392133925e-38
-0.0233370630686 -0.0143612695806 0.97 3.85924323308e-39
-0.021541904371 -0.0143612695806 0.97 1.621230857e-38
-0.0197467456734 -0.0143612695806 0.97 1.55611209698e-38
-0.0178960666037 -0.014316853283 0.967 1.63945348236e-38
-0.0161064599433 -0.014316853283 0.967 1.70381259849e-38
-0.014316853283 -0.014316853283 0.967 1.74047533073e-38
-0.0124883823621 -0.0142724369853 0.964 1.71292454176e-38
-0.010704327739 -0.0142724369853 0.964 1.64842137214e-38
-0.00892027311581 -0.0142724369853 0.964 1.67604432799e-38
-0.00712141306009 -0.0142428261202 0.962 1.62983959399e-38
-0.00534105979507 -0.0142428261202 0.962 1.71288768761e-38
-0.00356070653005 -0.0142428261202 0.962 1.66668099178e-38
-0.00178035326502 -0.0142428261202 0.962 1.69423178076e-38
0.0 -0.0141984098225 0.959 1.65739038297e-38
0.00177480122781 -0.0141984098225 0.959 1.66675287839e-38
0.00353109566493 -0.0141243826597 0.954 1.63930704667e-38
0.0052966434974 -0.0141243826597 0.954 1.64842109188e-38
0.00706219132986 -0.0141243826597 0.954 1.68508410439e-38
0.00879997897629 -0.0140799663621 0.951 1.84188702034e-38
0.0105599747715 -0.0140799663621 0.951 6.06903485938e-39
0.0123199705668 -0.0140799663621 0.951 1.13235243487e-38
0.0140355500644 -0.0140355500644 0.948 1.0135758547e-38
0.0157899938224 -0.0140355500644 0.948 8.0091662144e-39
0.0175444375805 -0.0140355500644 0.948 1.27042265282e-38
0.0192988813385 -0.0140355500644 0.948 9.10937748678e-39
0.0210089087989 -0.0140059391993 0.946 1.03216169662e-38
0.0227596511988 -0.0140059391993 0.946 7.36233384976e-39
0.0245103935987 -0.0140059391993 0.946 1.81444735433e-38
0.0262611359986 -0.0140059391993 0.946 1.75887942424e-38
0.0280711001288 -0.0140355500644 0.948 1.93422712407e-38
0.0298255438868 -0.0140355500644 0.948 2.33067057456e-38
0.0315799876449 -0.0140355500644 0.948 1.27031573375e-38
0.0334399201099 -0.0140799663621 0.951 1.34475761272e-38
0.0353849838121 -0.0141539935248 0.956 1.58345983781e-38
0.0372708257841 -0.0141984098225 0.959 1.67572763454e-38
0.0391677718305 -0.0142428261202 0.962 1.34414398412e-38
0.0410332563327 -0.0142724369853 0.964 1.27028014077e-38
0.0430838087419 -0.0143612695806 0.97 1.89749740976e-38
0.0450177683697 -0.0144056858783 0.973 1.27964067438e-38
0.0468184791045 -0.0144056858783 0.973 2.34961178577e-38
-0.0252099502871 -0.0126049751435 0.973 1.71335614168e-38
-0.0234092395523 -0.0126049751435 0.973 5.9815041521e-39
-0.021541904371 -0.0125661108831 0.97 1.67640978663e-38
-0.0197467456734 -0.0125661108831 0.97 1.45388625296e-38
-0.0178960666037 -0.0125272466226 0.967 1.262064468e-38
-0.0161064599433 -0.0125272466226 0.967 5.61420981162e-39
-0.014316853283 -0.0125272466226 0.967 1.72235906393e-38
-0.0125272466226 -0.0125272466226 0.967 1.74054413449e-38
-0.0107376399622 -0.0125272466226 0.967 1.78675012966e-38
-0.00892027311581 -0.0124883823621 0.964 1.76838485212e-38
-0.00713621849265 -0.0124883823621 0.964 1.76834561576e-38
-0.00535216386949 -0.0124883823621 0.964 1.685228298e-38
-0.00356810924633 -0.0124883823621 0.964 1.69434150243e-38
-0.00178035326502 -0.0124624728552 0.962 1.71281496022e-38
0.0 -0.0124624728552 0.962 1.66693238473e-38
0.00178035326502 -0.0124624728552 0.962 1.65767750902e-38
0.00353849838121 -0.0123847443342 0.956 1.67607936045e-38
0.00530774757182 -0.0123847443342 0.956 1.65774813446e-38
0.00706219132986 -0.0123588348273 0.954 1.63920307033e-38
0.00882773916233 -0.0123588348273 0.954 1.79582647994e-38
0.0105599747715 -0.0123199705668 0.951 8.00518232287e-39
0.0123199705668 -0.0123199705668 0.951 1.07750098869e-38
0.0140799663621 -0.0123199705668 0.951 7.45669728835e-39
0.0157899938224 -0.0122811063063 0.948 1.02175201085e-38
0.0175444375805 -0.0122811063063 0.948 1.01199336834e-38
0.0192988813385 -0.0122811063063 0.948 1.21550772782e-38
0.0210533250966 -0.0122811063063 0.948 9.94632541538e-39
0.0227596511988 -0.0122551967994 0.946 8.92422532199e-39
0.0245103935987 -0.0122551967994 0.946 1.94348746484e-38
0.0262611359986 -0.0122551967994 0.946 1.72214256331e-38
0.0280711001288 -0.0122811063063 0.948 2.06312163968e-38
0.0298255438868 -0.0122811063063 0.948 2.3030118856e-38
0.0315799876449 -0.0122811063063 0.948 1.13159012851e-38
0.0334399201099 -0.0123199705668 0.951 1.45449567767e-38
0.0353849838121 -0.0123847443342 0.956 1.6390620997e-38
0.0372708257841 -0.0124236085947 0.959 1.43687897376e-38
0.0392492017096 -0.0124883823621 0.964 1.17866072483e-38
0.0410332563327 -0.0124883823621 0.964 1.97111588576e-38
0.0430838087419 -0.0125661108831 0.97 9.93551299643e-39
0.0450177683697 -0.0126049751435 0.973 2.34860929685e-38
-0.021541904371 -0.0107709521855 0.97 1.63970347401e-38
-0.0197467456734 -0.0107709521855 0.97 1.41768791103e-38
-0.0179515869758 -0.0107709521855 0.97 8.29357655332e-39
-0.0161064599433 -0.0107376399622 0.967 5.7154227971e-39
-0.014316853283 -0.0107376399622 0.967 6.35218543098e-39
-0.0125272466226 -0.0107376399622 0.967 1.32588464474e-38
-0.0107376399622 -0.0107376399622 0.967 1.16043641791e-38
-0.00892027311581 -0.010704327739 0.964 1.6855564821e-38
-0.00713621849265 -0.010704327739 0.964 1.64831333203e-38
-0.00535216386949 -0.010704327739 0.964 1.65746240971e-38
-0.00356810924633 -0.010704327739 0.964 1.6944484215e-38
-0.00178405462316 -0.010704327739 0.964 1.60221747892e-38
0.0 -0.0106821195901 0.962 1.73146932563e-38
0.00178035326502 -0.0106821195901 0.962 1.70384538888e-38
0.00354960245563 -0.0106488073669 0.959 1.73153967082e-38
0.00530774757182 -0.0106154951436 0.956 1.70381007615e-38
0.00707699676242 -0.0106154951436 0.956 1.83274382812e-38
0.00884624595303 -0.0106154951436 0.956 1.82355761603e-38
0.0105932869948 -0.0105932869948 0.954 1.08639727212e-38
0.0123199705668 -0.0105599747715 0.951 6.62835753622e-39
0.0140799663621 -0.0105599747715 0.951 1.04047672145e-38
0.0158399621573 -0.0105599747715 0.951 1.04080042139e-38
0.0175999579526 -0.0105599747715 0.951 1.02257891707e-38
0.0192988813385 -0.0105266625483 0.948 9.30201538797e-39
0.0210533250966 -0.0105266625483 0.948 7.82188547724e-39
0.0228077688546 -0.0105266625483 0.948 1.01202265548e-38
0.0245622126127 -0.0105266625483 0.948 1.897565653e-38
0.0263166563707 -0.0105266625483 0.948 1.8511463802e-38
0.0280711001288 -0.0105266625483 0.948 1.9618161685e-38
0.0298255438868 -0.0105266625483 0.948 2.26623929156e-38
0.0315799876449 -0.0105266625483 0.948 1.21403314145e-38
0.0334399201099 -0.0105599747715 0.951 1.59285946764e-38
0.0354960245563 -0.0106488073669 0.959 1.38181312892e-38
0.0373874185655 -0.0106821195901 0.962 1.03143722531e-38
0.0392492017096 -0.010704327739 0.964 1.74980629695e-38
0.0411609531886 -0.0107376399622 0.967 1.48254743084e-38
0.043217057635 -0.0108042644087 0.973 1.9520223534e-38
0.0450177683697 -0.0108042644087 0.973 2.34896718848e-38
-0.0161064599433 -0.00894803330186 0.967 9.2090980894e-39
-0.014316853283 -0.00894803330186 0.967 7.92306202896e-39
-0.0125272466226 -0.00894803330186 0.967 8.2903984084e-39
-0.0107376399622 -0.00894803330186 0.967 1.11459069658e-38
-0.00894803330186 -0.00894803330186 0.967 1.57524416504e-38
-0.00715842664149 -0.00894803330186 0.967 1.62984155581e-38
-0.00535216386949 -0.00892027311581 0.964 1.63891594427e-38
-0.00356810924633 -0.00892027311581 0.964 1.63913090346e-38
-0.00178405462316 -0.00892027311581 0.964 1.6484929785e-38
0.0 -0.00892027311581 0.964 1.62994651306e-38
0.00178405462316 -0.00892027311581 0.964 1.60225251138e-38
0.00354960245563 -0.00887400613907 0.959 1.61147207437e-38
0.00532440368344 -0.00887400613907 0.959 1.61147235463e-38
0.00707699676242 -0.00884624595303 0.956 1.62976896855e-38
0.00884624595303 -0.00884624595303 0.956 1.83277731915e-38
0.0105932869948 -0.00882773916233 0.954 6.71582938896e-39
0.0123588348273 -0.00882773916233 0.954 9.94956802002e-39
0.0141243826597 -0.00882773916233 0.954 1.16076039812e-38
0.0158399621573 -0.00879997897629 0.951 1.23459004979e-38
0.0175999579526 -0.00879997897629 0.951 1.05009089008e-38
0.0193599537478 -0.00879997897629 0.951 9.56996747643e-39
0.0210533250966 -0.00877221879024 0.948 1.09536249944e-38
0.0228077688546 -0.00877221879024 0.948 1.07764462179e-38
0.0245622126127 -0.00877221879024 0.948 1.78743662578e-38
0.0263166563707 -0.00877221879024 0.948 1.74969335229e-38
0.0280711001288 -0.00877221879024 0.948 2.01706095915e-38
0.0299199285194 -0.00879997897629 0.951 2.12798059897e-38
0.0316799243146 -0.00879997897629 0.951 1.49126504872e-38
0.0334399201099 -0.00879997897629 0.951 1.42791066359e-38
0.0354960245563 -0.00887400613907 0.959 1.03172407111e-38
0.0374651470864 -0.00892027311581 0.964 1.68523306241e-38
0.0392492017096 -0.00892027311581 0.964 1.79615424365e-38
0.0411609531886 -0.00894803330186 0.967 1.40900168224e-38
-0.00178405462316 -0.00713621849265 0.964 1.61154466163e-38
0.0 -0.00713621849265 0.964 1.6023267802e-38
0.00178035326502 -0.00712141306009 0.962 1.59310525539e-38
0.00354960245563 -0.00709920491126 0.959 1.61154494189e-38
0.00532440368344 -0.00709920491126 0.959 1.59310581591e-38
0.00707699676242 -0.00707699676242 0.956 1.60218188594e-38
0.00884624595303 -0.00707699676242 0.956 1.71292454176e-38
0.0106154951436 -0.00707699676242 0.956 6.06329514087e-39
0.0123588348273 -0.00706219132986 0.954 1.23427307608e-38
0.0141243826597 -0.00706219132986 0.954 8.56448958542e-39
0.0158899304922 -0.00706219132986 0.954 8.83312410623e-39
0.0176554783247 -0.00706219132986 0.954 1.14131640102e-38
0.0193599537478 -0.00703998318103 0.951 1.12327454316e-38
0.0211199495431 -0.00703998318103 0.951 1.20671584113e-38
0.0228077688546 -0.00701777503219 0.948 1.28061878071e-38
0.0245622126127 -0.00701777503219 0.948 1.71353606841e-38
0.0263166563707 -0.00701777503219 0.948 1.68508410439e-38
0.0281599327241 -0.00703998318103 0.951 2.09070802163e-38
0.0299199285194 -0.00703998318103 0.951 2.09106955664e-38
0.0316799243146 -0.00703998318103 0.951 1.35365053303e-38
0.0335454088169 -0.00706219132986 0.954 1.00392441152e-38
0.0356070653005 -0.00712141306009 0.962 1.50076599244e-38
0.0375817398678 -0.00715842664149 0.967 2.04493867106e-38
0.0393713465282 -0.00715842664149 0.967 9.29338058684e-39
0.00178035326502 -0.00534105979507 0.962 1.51941909669e-38
0.00356070653005 -0.00534105979507 0.962 1.62998000409e-38
0.00532440368344 -0.00532440368344 0.959 1.63920180916e-38
0.00709920491126 -0.00532440368344 0.959 1.63927565759e-38
0.00884624595303 -0.00530774757182 0.956 1.67626335094e-38
0.0106154951436 -0.00530774757182 0.956 6.52321811244e-39
0.0123847443342 -0.00530774757182 0.956 5.61174352632e-39
0.0141243826597 -0.0052966434974 0.954 9.94312625098e-39
0.0158899304922 -0.0052966434974 0.954 8.46363953624e-39
0.0176554783247 -0.0052966434974 0.954 1.1141959508e-38
0.0194210261571 -0.0052966434974 0.954 1.09687464061e-38
0.0211199495431 -0.00527998738577 0.951 6.3514371376e-39
0.0228799453383 -0.00527998738577 0.951 1.38998830416e-38
0.0245622126127 -0.00526333127414 0.948 1.84181667515e-38
