# .PCD v0.7 - Point Cloud Data file format
VERSION 0.7
FIELDS x y z rgb
SIZE 4 4 4 4
TYPE F F F F
COUNT 1 1 1 1
WIDTH 854
HEIGHT 1
VIEWPOINT 0 0 0 1 0 0 0
POINTS 854
DATA ascii
0.0135414187528 -0.123377370859 0.813 2.06518435102e-38
0.0150460208364 -0.123377370859 0.813 0.0
0.0165506229201 -0.123377370859 0.813 1.38344452059e-39
0.0180552250037 -0.123377370859 0.813 1.20335244455e-39
0.0195598270874 -0.123377370859 0.813 1.48101272877e-39
0.0211162481849 -0.123680882226 0.815 2.67343784789e-39
0.0226245516267 -0.123680882226 0.815 1.33123354111e-43
0.0241328550685 -0.123680882226 0.815 2.39796919448e-39
0.0256411585103 -0.123680882226 0.815 1.91781609737e-38
0.0271494619521 -0.123680882226 0.815 1.72398863391e-38
0.0286577653939 -0.123680882226 0.815 1.76079555976e-38
0.0302400959984 -0.123984393594 0.817 1.81625643064e-38
0.0316743722774 -0.123680882226 0.815 1.80696371988e-38
0.0331826757192 -0.123680882226 0.815 1.70558440027e-38
0.034690979161 -0.123680882226 0.815 1.80685680081e-38
0.0362881151981 -0.123984393594 0.817 1.76086618521e-38
0.037800119998 -0.123984393594 0.817 1.79767213015e-38
0.039312124798 -0.123984393594 0.817 1.80689309444e-38
0.0408241295979 -0.123984393594 0.817 1.87135702769e-38
0.0424397724257 -0.124287904961 0.819 1.76083087249e-38
0.0439554785838 -0.124287904961 0.819 1.74242705923e-38
0.0454711847418 -0.124287904961 0.819 1.79760178497e-38
0.0469868908999 -0.124287904961 0.819 1.78856018689e-38
0.0485025970579 -0.124287904961 0.819 1.78856186845e-38
0.0501404480346 -0.124591416328 0.821 1.77927027872e-38
0.0515340093741 -0.124287904961 0.819 1.91745582353e-38
0.0530497155321 -0.124287904961 0.819 1.74235503249e-38
0.0546986705832 -0.124591416328 0.821 1.77930755326e-38
0.0562180780994 -0.124591416328 0.821 1.94533003219e-38
0.0577374856156 -0.124591416328 0.821 2.0833338286e-38
0.0594012460992 -0.124894927696 0.823 2.083154042e-38
0.0609243549736 -0.124894927696 0.823 2.10162876096e-38
-0.0326940964448 -0.120373718729 0.803 1.18006902979e-38
-0.0312080011519 -0.120373718729 0.803 1.23502459244e-38
-0.0297219058589 -0.120373718729 0.803 1.06925448736e-38
-0.028235810566 -0.120373718729 0.803 1.39194045305e-38
-0.026749715273 -0.120373718729 0.803 1.78848759963e-38
-0.0252636199801 -0.120373718729 0.803 1.83458737638e-38
-0.0237775246871 -0.120373718729 0.803 1.70551349457e-38
-0.0223469497663 -0.120673528738 0.805 1.82529620704e-38
-0.0208571531152 -0.120673528738 0.805 1.76086646547e-38
-0.0193673564641 -0.120673528738 0.805 1.88068519131e-38
-0.017877559813 -0.120673528738 0.805 1.91763575025e-38
-0.0164284781015 -0.120973338747 0.807 1.65977343113e-38
-0.0149349800922 -0.120973338747 0.807 1.67828668579e-38
-0.0134747943063 -0.121273148756 0.809 1.79806715619e-38
-0.0119775949389 -0.121273148756 0.809 1.88082994544e-38
-0.0104803955715 -0.121273148756 0.809 1.78848998183e-38
-0.00898319620418 -0.121273148756 0.809 1.77937747805e-38
-0.00748599683682 -0.121273148756 0.809 1.82536781339e-38
-0.00598879746946 -0.121273148756 0.809 1.79760206523e-38
-0.00449159810209 -0.121273148756 0.809 1.77927027872e-38
-0.00300180145101 -0.121572958766 0.811 1.73324477079e-38
-0.0015009007255 -0.121572958766 0.811 1.76083115274e-38
0.0 -0.121572958766 0.811 1.77015791506e-38
0.0015009007255 -0.121572958766 0.811 1.75171920948e-38
0.00300920416729 -0.121872768775 0.813 1.77916209848e-38
0.00451380625093 -0.121872768775 0.813 1.89905271093e-38
0.00601840833457 -0.121872768775 0.813 1.82526089432e-38
0.00752301041821 -0.121872768775 0.813 2.00968718651e-38
0.00902761250186 -0.121872768775 0.813 1.82543843883e-38
0.0105322145855 -0.121872768775 0.813 1.68732422011e-38
0.0120368166691 -0.121872768775 0.813 1.11614697865e-38
0.013574730976 -0.122172578784 0.815 2.10217022268e-38
0.0151200479992 -0.122472388794 0.817 6.17460868568e-39
0.0166320527991 -0.122472388794 0.817 1.41531144897e-43
0.0181440575991 -0.122472388794 0.817 1.47923307972e-39
0.019656062399 -0.122472388794 0.817 1.75652622373e-39
0.0211680671989 -0.122472388794 0.817 2.30465953234e-39
0.0226800719988 -0.122472388794 0.817 2.30322600401e-39
0.0241920767987 -0.122472388794 0.817 1.34524652575e-43
0.0257040815987 -0.122472388794 0.817 1.94550911814e-38
0.0272827108451 -0.122772198803 0.819 1.75164662222e-38
0.0287984170032 -0.122772198803 0.819 1.76083115274e-38
0.0303141231612 -0.122772198803 0.819 1.78845494937e-38
0.0318298293193 -0.122772198803 0.819 1.75161102924e-38
0.0333455354773 -0.122772198803 0.819 1.76086590495e-38
0.0348612416354 -0.122772198803 0.819 1.77005043547e-38
0.0363769477935 -0.122772198803 0.819 1.8161858052e-38
0.0378926539515 -0.122772198803 0.819 1.75168389676e-38
0.0394083601096 -0.122772198803 0.819 1.77005071573e-38
0.0409240662676 -0.122772198803 0.819 1.77930559144e-38
0.0425434104536 -0.123072008812 0.821 1.76083087249e-38
0.0439554785838 -0.122772198803 0.819 1.8068933747e-38
0.0454711847418 -0.122772198803 0.819 1.80689309444e-38
0.0471016330022 -0.123072008812 0.821 1.80685638042e-38
0.0486210405184 -0.123072008812 0.821 1.77008602845e-38
0.0501404480346 -0.123072008812 0.821 1.76090149793e-38
0.0516598555508 -0.123072008812 0.821 1.80685638042e-38
0.053179263067 -0.123072008812 0.821 1.81607664405e-38
0.0546986705832 -0.123072008812 0.821 1.66867251716e-38
0.0562180780994 -0.123072008812 0.821 1.92689090622e-38
0.0578781372249 -0.123371818821 0.823 2.13865148677e-38
0.0594012460992 -0.123371818821 0.823 2.10162904122e-38
0.0609243549736 -0.123371818821 0.823 2.09233885279e-38
-0.0312080011519 -0.118887623436 0.803 1.22580488933e-38
-0.0297219058589 -0.118887623436 0.803 1.1060604323e-38
-0.0283061363706 -0.119183732087 0.805 1.3825773971e-38
-0.0268163397195 -0.119183732087 0.805 1.85295237366e-38
-0.0253265430684 -0.119183732087 0.805 1.71473333781e-38
-0.0238367464174 -0.119183732087 0.805 1.78848998183e-38
-0.0224024701384 -0.119479840738 0.807 1.79778199195e-38
-0.0209089721291 -0.119479840738 0.807 1.98199304469e-38
-0.0194154741199 -0.119479840738 0.807 1.34595460187e-38
-0.0179219761107 -0.119479840738 0.807 1.10702578682e-43
-0.016469193041 -0.119775949389 0.809 1.24715563325e-43
-0.0149719936736 -0.119775949389 0.809 1.3592595104e-43
-0.0134747943063 -0.119775949389 0.809 1.14906474075e-43
-0.0119775949389 -0.119775949389 0.809 8.66697354861e-39
-0.0104803955715 -0.119775949389 0.809 1.86261026281e-38
-0.00898319620418 -0.119775949389 0.809 1.75179109609e-38
-0.00750450362752 -0.12007205804 0.811 1.72398835365e-38
-0.00600360290201 -0.12007205804 0.811 1.74239006495e-38
-0.00450270217651 -0.12007205804 0.811 1.77927027872e-38
-0.00300180145101 -0.12007205804 0.811 1.76083087249e-38
-0.0015009007255 -0.12007205804 0.811 1.8346226891e-38
0.0 -0.120368166691 0.813 1.88990475429e-38
0.00150460208364 -0.120368166691 0.813 1.87146562832e-38
0.00300920416729 -0.120368166691 0.813 1.92667384509e-38
0.00451380625093 -0.120368166691 0.813 1.82533151976e-38
0.00601840833457 -0.120368166691 0.813 1.65963049869e-38
0.00752301041821 -0.120368166691 0.813 7.37678263822e-39
0.00902761250186 -0.120368166691 0.813 2.11596068113e-43
0.0105581240925 -0.120664275343 0.815 1.31722055647e-43
0.0120664275343 -0.120664275343 0.815 1.4573504029e-43
0.013574730976 -0.120664275343 0.815 2.06547273824e-38
0.0151200479992 -0.120960383994 0.817 1.63157580279e-38
0.0166320527991 -0.120960383994 0.817 1.44333741825e-43
0.0181440575991 -0.120960383994 0.817 1.11117222897e-39
0.019656062399 -0.120960383994 0.817 2.67343784789e-39
0.0211680671989 -0.120960383994 0.817 2.12133886464e-39
0.0227355923709 -0.121256492645 0.819 4.63999348806e-40
0.024251298529 -0.121256492645 0.819 1.37327249504e-43
0.025767004687 -0.121256492645 0.819 1.58681678841e-38
0.0272827108451 -0.121256492645 0.819 1.78866934804e-38
0.0287984170032 -0.121256492645 0.819 1.77930531118e-38
0.0303141231612 -0.121256492645 0.819 1.79760150471e-38
0.0318298293193 -0.121256492645 0.819 1.7791974112e-38
0.0334269653564 -0.121552601296 0.821 1.77934034364e-38
0.0349463728726 -0.121552601296 0.821 1.76086618521e-38
0.0364657803888 -0.121552601296 0.821 1.75161158976e-38
0.037985187905 -0.121552601296 0.821 1.77005043547e-38
0.0395045954212 -0.121552601296 0.821 1.74228426692e-38
0.0410240029374 -0.121552601296 0.821 1.85295391509e-38
0.0425434104536 -0.121552601296 0.821 1.78848998183e-38
0.0440628179698 -0.121552601296 0.821 1.76083115274e-38
0.045582225486 -0.121552601296 0.821 1.77923300418e-38
0.0472163751045 -0.121848709947 0.823 1.81607608353e-38
0.0488579274393 -0.122144818598 0.825 1.77930559144e-38
0.0503847376718 -0.122144818598 0.825 1.78859718117e-38
0.0519115479043 -0.122144818598 0.825 1.8161482504e-38
0.0534383581368 -0.122144818598 0.825 1.8346226891e-38
0.0549651683692 -0.122144818598 0.825 1.72398989508e-38
0.0564919786017 -0.122144818598 0.825 1.9453671666e-38
0.0580187888342 -0.122144818598 0.825 2.08336914132e-38
0.0595455990667 -0.122144818598 0.825 2.16616570186e-38
-0.0314411867146 -0.118278750022 0.809 1.20744003217e-38
-0.0298699601845 -0.117986342729 0.807 1.17981721645e-38
-0.0283764621753 -0.117986342729 0.807 1.36413602905e-38
-0.026882964166 -0.117986342729 0.807 1.84373309093e-38
-0.0253894661568 -0.117986342729 0.807 1.77005043547e-38
-0.0238959681476 -0.117986342729 0.807 1.72398863391e-38
-0.0224579905105 -0.118278750022 0.809 1.96366153844e-38
-0.0209607911431 -0.118278750022 0.809 6.8214578659e-39
-0.0194635917757 -0.118278750022 0.809 1.72359711112e-43
-0.0179663924084 -0.118278750022 0.809 2.77465503727e-40
-0.016469193041 -0.118278750022 0.809 1.57142590698e-39
-0.015009007255 -0.118571157315 0.811 1.66433059387e-39
-0.0135081065295 -0.118571157315 0.811 4.64002151403e-40
-0.012007205804 -0.118571157315 0.811 1.31722055647e-43
-0.0105063050785 -0.118571157315 0.811 1.86300234612e-38
-0.00900540435302 -0.118571157315 0.811 1.83462240884e-38
-0.00750450362752 -0.118571157315 0.811 1.7517545222e-38
-0.00600360290201 -0.118571157315 0.811 1.81629272427e-38
-0.00450270217651 -0.118571157315 0.811 1.86220907106e-38
-0.00300180145101 -0.118571157315 0.811 1.96362468429e-38
-0.00150460208364 -0.118863564608 0.813 1.84387728455e-38
0.0 -0.118863564608 0.813 1.49368004649e-38
0.00150460208364 -0.118863564608 0.813 1.13415072119e-38
0.00300920416729 -0.118863564608 0.813 1.65952189806e-38
0.00451380625093 -0.118863564608 0.813 6.86636247519e-44
0.00603321376713 -0.119155971901 0.815 1.16307772539e-43
0.00754151720891 -0.119155971901 0.815 1.3592595104e-43
0.00904982065069 -0.119155971901 0.815 2.79983637067e-40
0.0105581240925 -0.119155971901 0.815 1.11080368748e-39
0.0120960383994 -0.119448379194 0.817 1.44333741825e-43
0.0136413554225 -0.119740786487 0.819 1.77063127369e-38
0.0151570615806 -0.119740786487 0.819 2.02794666601e-38
0.0166727677387 -0.119740786487 0.819 5.51168521077e-40
0.0181884738967 -0.119740786487 0.819 9.24283855382e-40
0.0197041800548 -0.119740786487 0.819 5.52234909209e-40
0.0212198862128 -0.119740786487 0.819 1.37327249504e-43
0.022791112743 -0.12003319378 0.821 1.42932443361e-43
0.0243105202592 -0.12003319378 0.821 1.91977889612e-43
0.0258299277754 -0.12003319378 0.821 1.59521112673e-38
0.0273493352916 -0.12003319378 0.821 1.7885621487e-38
0.0288687428078 -0.12003319378 0.821 1.76086646547e-38
0.030388150324 -0.12003319378 0.821 1.77927027872e-38
0.0319075578402 -0.12003319378 0.821 1.71476865053e-38
0.0334269653564 -0.12003319378 0.821 1.75164662222e-38
0.0349463728726 -0.12003319378 0.821 1.7791974112e-38
0.0364657803888 -0.12003319378 0.821 1.81611293768e-38
0.037985187905 -0.12003319378 0.821 1.80692840716e-38
0.0395045954212 -0.12003319378 0.821 1.7793058717e-38
0.0411239396072 -0.120325601073 0.823 1.77916237874e-38
0.0426470484815 -0.120325601073 0.823 1.77916209848e-38
0.0441701573558 -0.120325601073 0.823 1.76086618521e-38
0.0456932662302 -0.120325601073 0.823 1.78852557481e-38
0.0472163751045 -0.120325601073 0.823 1.8161482504e-38
0.0488579274393 -0.120618008366 0.825 1.78859746143e-38
0.0505068824904 -0.120910415659 0.827 1.82540284585e-38
0.052037394081 -0.120910415659 0.827 1.81614797014e-38
0.0535679056716 -0.120910415659 0.827 1.82536781339e-38
0.0550984172622 -0.120910415659 0.827 1.77001540301e-38
0.0566289288529 -0.120910415659 0.827 1.92692776037e-38
0.0581594404435 -0.120910415659 0.827 2.14787104976e-38
0.0596899520341 -0.120910415659 0.827 2.08326222224e-38
-0.0314411867146 -0.116781550654 0.809 1.22594950333e-38
-0.0299439873473 -0.116781550654 0.809 1.16144787515e-38
-0.0285171137846 -0.117070256589 0.811 1.27190508647e-38
-0.0269495886125 -0.116781550654 0.809 1.87135702769e-38
-0.0254523892452 -0.116781550654 0.809 1.74239174651e-38
-0.0239551898778 -0.116781550654 0.809 1.80696371988e-38
-0.0225135108825 -0.117070256589 0.811 1.84387882597e-38
-0.021012610157 -0.117070256589 0.811 2.05990874256e-43
-0.0195117094315 -0.117070256589 0.811 1.66040555687e-39
-0.018010808706 -0.117070256589 0.811 2.67236585457e-39
-0.0165099079805 -0.117070256589 0.811 1.38738357057e-39
-0.015009007255 -0.117070256589 0.811 7.43094562647e-40
-0.0135081065295 -0.117070256589 0.811 1.33123354111e-43
-0.012007205804 -0.117070256589 0.811 1.34524652575e-43
-0.0105322145855 -0.117358962524 0.813 1.8994155071e-38
-0.00902761250186 -0.117358962524 0.813 1.79778143143e-38
-0.00752301041821 -0.117358962524 0.813 1.73324505105e-38
-0.00601840833457 -0.117358962524 0.813 1.83458737638e-38
-0.00451380625093 -0.117358962524 0.813 2.00979438584e-38
-0.00300920416729 -0.117358962524 0.813 7.74343378271e-39
-0.00150460208364 -0.117358962524 0.813 1.84971397291e-43
0.0 -0.117358962524 0.813 1.33123354111e-43
0.00150460208364 -0.117358962524 0.813 1.33123354111e-43
0.00301660688356 -0.117647668459 0.815 1.24715563325e-43
0.00452491032535 -0.117647668459 0.815 1.76563606505e-43
0.00603321376713 -0.117647668459 0.815 1.75403471506e-39
0.00756002399961 -0.117936374394 0.817 1.47923027712e-39
0.00907202879953 -0.117936374394 0.817 1.20335524715e-39
0.0105840335994 -0.117936374394 0.817 1.01968005094e-39
0.0121256492645 -0.118225080329 0.819 1.27518160254e-43
0.0136413554225 -0.118225080329 0.819 1.30040483476e-38
0.0151570615806 -0.118225080329 0.819 2.12042956206e-38
0.0166727677387 -0.118225080329 0.819 7.70714155379e-44
0.0182328901944 -0.118513786264 0.821 1.34524652575e-43
0.0197522977106 -0.118513786264 0.821 9.30000452468e-39
0.0212717052268 -0.118513786264 0.821 1.62246526082e-38
0.022791112743 -0.118513786264 0.821 1.89026656956e-38
0.0243105202592 -0.118513786264 0.821 1.96391153009e-38
0.0258299277754 -0.118513786264 0.821 1.98220632232e-38
0.0274159597381 -0.118802492198 0.823 1.80692868742e-38
0.0289390686124 -0.118802492198 0.823 1.74235615353e-38
0.0304621774868 -0.118802492198 0.823 1.81614797014e-38
0.0319852863611 -0.118802492198 0.823 1.74249992675e-38
0.0335083952355 -0.118802492198 0.823 1.73327980325e-38
0.0350315041098 -0.118802492198 0.823 1.82526061406e-38
0.0365546129841 -0.118802492198 0.823 1.79771108625e-38
0.0380777218585 -0.118802492198 0.823 1.77937719779e-38
0.0396008307328 -0.118802492198 0.823 1.77937719779e-38
0.0411239396072 -0.118802492198 0.823 1.81614853066e-38
0.0426470484815 -0.118802492198 0.823 1.78845494937e-38
0.0441701573558 -0.118802492198 0.823 1.7516113095e-38
0.0456932662302 -0.118802492198 0.823 1.88997537974e-38
0.0474458593092 -0.119379904068 0.827 1.77930531118e-38
0.0489763708998 -0.119379904068 0.827 1.78852515443e-38
0.050629027309 -0.119668610003 0.829 1.87146534806e-38
0.052037394081 -0.119379904068 0.827 1.82526061406e-38
0.0535679056716 -0.119379904068 0.827 1.82529620704e-38
0.0550984172622 -0.119379904068 0.827 1.83462296936e-38
0.056765879104 -0.119668610003 0.829 1.84387882597e-38
0.0583000920528 -0.119668610003 0.829 2.16631059612e-38
-0.0315966437565 -0.11585436044 0.813 1.26290188396e-38
-0.0300920416729 -0.11585436044 0.813 1.33651097126e-38
-0.0285171137846 -0.115569355864 0.811 1.29048644423e-38
-0.0270162130591 -0.115569355864 0.811 1.88983314794e-38
-0.0254523892452 -0.115284351287 0.809 1.77934258572e-38
-0.0239551898778 -0.115284351287 0.809 1.81618328286e-38
-0.0225135108825 -0.115569355864 0.811 1.86238927804e-38
-0.021012610157 -0.115569355864 0.811 2.1720126197e-43
-0.0195117094315 -0.115569355864 0.811 1.6535321879e-43
-0.018010808706 -0.115569355864 0.811 1.01286413521e-39
-0.0165506229201 -0.11585436044 0.813 1.01428645315e-39
-0.0150460208364 -0.11585436044 0.813 1.31722055647e-43
-0.0135414187528 -0.11585436044 0.813 1.30320757182e-43
-0.0120368166691 -0.11585436044 0.813 2.00972404065e-38
-0.0105322145855 -0.11585436044 0.813 1.90834556182e-38
-0.00902761250186 -0.11585436044 0.813 1.82540284585e-38
-0.00752301041821 -0.11585436044 0.813 1.90841422545e-38
-0.00601840833457 -0.11585436044 0.813 1.93593222404e-38
-0.00451380625093 -0.11585436044 0.813 6.0255833966e-44
-0.00300920416729 -0.11585436044 0.813 1.34524652575e-43
-0.00150460208364 -0.11585436044 0.813 4.66153144545e-40
0.0 -0.116139365017 0.815 5.53232633715e-42
0.00150830344178 -0.116139365017 0.815 1.34524652575e-43
0.00302400959984 -0.116424369594 0.817 1.68155815719e-43
0.00453601439976 -0.116424369594 0.817 2.02051123623e-39
0.00604801919968 -0.116424369594 0.817 1.38728547968e-43
0.0075785307903 -0.116709374171 0.819 6.51289895055e-40
0.00909423694836 -0.116709374171 0.819 8.37811128447e-40
0.0106099431064 -0.116709374171 0.819 1.5717790342e-39
0.0121256492645 -0.116709374171 0.819 1.3592595104e-43
0.0136413554225 -0.116709374171 0.819 3.41211972168e-39
0.015194075162 -0.116994378747 0.821 2.07447748217e-38
0.0167134826782 -0.116994378747 0.821 1.76111631698e-38
0.0182773064921 -0.117279383324 0.823 2.15727053947e-38
0.0198004153664 -0.117279383324 0.823 1.33634099375e-38
0.0213235242407 -0.117279383324 0.823 1.00893489431e-43
0.0228466331151 -0.117279383324 0.823 1.3592595104e-43
0.0243105202592 -0.116994378747 0.821 1.41531144897e-43
0.0258299277754 -0.116994378747 0.821 1.3592595104e-43
0.0274159597381 -0.117279383324 0.823 1.74300887836e-38
0.0289390686124 -0.117279383324 0.823 1.81625643064e-38
0.0304621774868 -0.117279383324 0.823 1.77008574819e-38
0.0320630148821 -0.117564387901 0.825 1.78852487417e-38
0.0335898251145 -0.117564387901 0.825 1.77934090416e-38
0.035116635347 -0.117564387901 0.825 1.80685638042e-38
0.0366434455795 -0.117564387901 0.825 1.77937565636e-38
0.038170255812 -0.117564387901 0.825 1.78856018689e-38
0.0396970660444 -0.117564387901 0.825 1.78841725444e-38
0.0412238762769 -0.117564387901 0.825 1.779162659e-38
0.0427506865094 -0.117564387901 0.825 1.77916209848e-38
0.0442774967419 -0.117564387901 0.825 1.83462240884e-38
0.0458043069744 -0.117564387901 0.825 1.77015735454e-38
0.0474458593092 -0.117849392478 0.827 1.80696400014e-38
0.0490948143602 -0.118134397054 0.829 1.78838194172e-38
0.050629027309 -0.118134397054 0.829 1.88994006702e-38
0.0521632402577 -0.118134397054 0.829 1.81607636379e-38
0.0538270007414 -0.118419401631 0.831 1.79760150471e-38
0.0553649150483 -0.118419401631 0.831 1.84380693936e-38
0.0569028293552 -0.118419401631 0.831 1.96369839259e-38
0.0584407436621 -0.118419401631 0.831 2.08333410886e-38
-0.0315966437565 -0.114349758357 0.813 1.37342944047e-38
-0.0300920416729 -0.114349758357 0.813 1.43803532526e-38
-0.0285874395892 -0.114349758357 0.813 1.25360889294e-38
-0.0270828375056 -0.114349758357 0.813 1.85295419535e-38
-0.0255153123336 -0.114068455138 0.811 1.74239146625e-38
-0.0240144116081 -0.114068455138 0.811 1.83462240884e-38
-0.0225690312546 -0.114349758357 0.813 1.91759931649e-38
-0.021064429171 -0.114349758357 0.813 1.03260478719e-38
-0.0195598270874 -0.114349758357 0.813 1.90576591148e-43
-0.0180552250037 -0.114349758357 0.813 1.4573504029e-43
-0.0165506229201 -0.114349758357 0.813 3.49749523191e-39
-0.0150460208364 -0.114349758357 0.813 1.45569126552e-38
-0.0135414187528 -0.114349758357 0.813 2.06489750522e-38
-0.0120368166691 -0.114349758357 0.813 1.56736074014e-38
-0.0105322145855 -0.114349758357 0.813 1.53062514038e-38
-0.00904982065069 -0.114631061575 0.815 1.84391287753e-38
-0.00754151720891 -0.114631061575 0.815 2.00972249923e-38
-0.00603321376713 -0.114631061575 0.815 5.46506401087e-44
-0.00452491032535 -0.114631061575 0.815 1.63951920326e-43
-0.00301660688356 -0.114631061575 0.815 1.20516992866e-39
-0.00150830344178 -0.114631061575 0.815 9.26409625153e-40
0.0 -0.114912364794 0.817 1.48537637218e-43
0.00151200479992 -0.114912364794 0.817 1.69638235351e-38
0.00303141231612 -0.115193668013 0.819 2.09233436863e-38
0.00454711847418 -0.115193668013 0.819 2.1014486941e-38
0.00606282463224 -0.115193668013 0.819 4.32780240709e-39
0.0075785307903 -0.115193668013 0.819 8.54792063238e-44
0.00909423694836 -0.115193668013 0.819 1.47851000971e-39
0.0106358526134 -0.115474971231 0.821 1.5717790342e-39
0.0121552601296 -0.115474971231 0.821 1.10972188506e-39
0.0137079798691 -0.11575627445 0.823 1.40129846432e-43
0.0152310887434 -0.11575627445 0.823 2.19407424234e-38
0.0167541976177 -0.11575627445 0.823 2.12010460095e-38
0.0182773064921 -0.11575627445 0.823 8.68805047881e-44
0.0198004153664 -0.11575627445 0.823 1.4573504029e-43
0.0213235242407 -0.11575627445 0.823 2.81798318579e-40
0.0229021534872 -0.116037577668 0.825 1.02112899355e-39
0.0243697419894 -0.11575627445 0.823 1.0182521278e-39
0.0258928508638 -0.11575627445 0.823 1.21912966396e-43
0.0274159597381 -0.11575627445 0.823 3.68837310223e-39
0.0289390686124 -0.11575627445 0.823 1.94543723153e-38
0.0305362046496 -0.116037577668 0.825 1.80678477406e-38
0.032140743403 -0.116318880887 0.827 1.78841725444e-38
0.0336712549936 -0.116318880887 0.827 1.77005071573e-38
0.0352017665842 -0.116318880887 0.827 1.82536781339e-38
0.0367322781748 -0.116318880887 0.827 1.75175634389e-38
0.0382627897654 -0.116318880887 0.827 1.8161482504e-38
0.0397933013561 -0.116318880887 0.827 1.80682148808e-38
0.0413238129467 -0.116318880887 0.827 1.80678617536e-38
0.0428543245373 -0.116318880887 0.827 1.80692868742e-38
0.0443848361279 -0.116318880887 0.827 1.80696371988e-38
0.0460263884627 -0.116600184106 0.829 1.77927055898e-38
0.0475606014115 -0.116600184106 0.829 1.79767184989e-38
0.0490948143602 -0.116600184106 0.829 1.81607664405e-38
0.0507511721276 -0.116881487324 0.831 1.81611293768e-38
0.0522890864345 -0.116881487324 0.831 1.80692840716e-38
0.0539565482763 -0.117162790543 0.833 1.82536809365e-38
0.0554981639413 -0.117162790543 0.833 1.81614853066e-38
0.0570397796063 -0.117162790543 0.833 1.90834556182e-38
0.0585813952714 -0.117162790543 0.833 2.11102825067e-38
-0.0316743722774 -0.113122758134 0.815 1.32726029944e-38
-0.0300920416729 -0.112845156273 0.813 1.45633362073e-38
-0.0285874395892 -0.112845156273 0.813 1.29045169203e-38
-0.0270828375056 -0.112845156273 0.813 1.82533151976e-38
-0.0255153123336 -0.112567554413 0.811 1.75164634196e-38
-0.0240144116081 -0.112567554413 0.811 1.74253467896e-38
-0.0225690312546 -0.112845156273 0.813 1.77012232208e-38
-0.021064429171 -0.112845156273 0.813 1.99128295286e-38
-0.0195598270874 -0.112845156273 0.813 2.0372732882e-38
-0.0180552250037 -0.112845156273 0.813 2.0098322209e-38
-0.0165913378596 -0.113122758134 0.815 1.82551298791e-38
-0.0150830344178 -0.113122758134 0.815 9.76805222475e-39
-0.013574730976 -0.113122758134 0.815 1.0369608636e-43
-0.0120664275343 -0.113122758134 0.815 1.48537637218e-43
-0.0105840335994 -0.113400359994 0.817 2.02883214651e-39
-0.00907202879953 -0.113400359994 0.817 2.06507645103e-38
-0.00756002399961 -0.113400359994 0.817 1.93596585521e-38
-0.00604801919968 -0.113400359994 0.817 1.72359711112e-43
-0.00453601439976 -0.113400359994 0.817 1.47782617606e-39
-0.00303141231612 -0.113677961855 0.819 1.47851000971e-39
-0.00151570615806 -0.113677961855 0.819 1.37327249504e-43
0.0 -0.113677961855 0.819 8.02154808763e-39
0.0015194075162 -0.113955563715 0.821 2.09262429728e-38
0.0030388150324 -0.113955563715 0.821 1.85291916289e-38
0.0045582225486 -0.113955563715 0.821 1.82540312611e-38
0.0060776300648 -0.113955563715 0.821 2.0648246377e-38
0.007597037581 -0.113955563715 0.821 5.74532370373e-44
0.0091164450972 -0.113955563715 0.821 1.01540048543e-39
0.0106358526134 -0.113955563715 0.821 2.11884175077e-39
0.0121552601296 -0.113955563715 0.821 1.20335244455e-39
0.0137079798691 -0.114233165575 0.823 1.41531144897e-43
0.0152681023248 -0.114510767436 0.825 2.018838226e-38
0.0167949125573 -0.114510767436 0.825 1.30914263134e-38
0.0183217227897 -0.114510767436 0.825 1.3592595104e-43
0.0198485330222 -0.114510767436 0.825 1.20553566756e-39
0.0213753432547 -0.114510767436 0.825 1.20299931734e-39
0.0229021534872 -0.114510767436 0.825 1.75509129411e-39
0.0244289637197 -0.114510767436 0.825 2.30466233493e-39
0.0259557739521 -0.114510767436 0.825 1.3592595104e-43
0.0274825841846 -0.114510767436 0.825 8.57511423038e-39
0.0290797202217 -0.114788369296 0.827 1.90841478597e-38
0.0306102318124 -0.114788369296 0.827 1.79763709769e-38
0.0322184719239 -0.115065971157 0.829 1.78841697418e-38
0.0337526848727 -0.115065971157 0.829 1.82540340637e-38
0.0352868978214 -0.115065971157 0.829 1.7516113095e-38
0.0368211107702 -0.115065971157 0.829 1.81622111792e-38
0.0383553237189 -0.115065971157 0.829 1.72398863391e-38
0.0398895366677 -0.115065971157 0.829 1.87143059586e-38
0.0414237496164 -0.115065971157 0.829 1.80696343962e-38
0.0429579625652 -0.115065971157 0.829 1.79781702441e-38
0.044492175514 -0.115065971157 0.829 1.84384225208e-38
0.0461374292069 -0.115343573017 0.831 1.78852515443e-38
0.0476753435138 -0.115343573017 0.831 1.85295419535e-38
0.0492132578207 -0.115343573017 0.831 1.89897984341e-38
0.0508733169462 -0.115621174878 0.833 1.85298950807e-38
0.0524149326112 -0.115621174878 0.833 1.81611139625e-38
0.0539565482763 -0.115621174878 0.833 1.8345889178e-38
0.0554981639413 -0.115621174878 0.833 1.79778171169e-38
0.0570397796063 -0.115621174878 0.833 2.0098669731e-38
0.0585813952714 -0.115621174878 0.833 2.12943192379e-38
0.0604117168713 -0.116176378599 0.837 2.16613038914e-38
-0.0317521007983 -0.111888355194 0.817 1.1059547744e-38
-0.0301660688356 -0.111614454692 0.815 1.43789435463e-38
-0.0286577653939 -0.111614454692 0.815 1.22573440401e-38
-0.0271494619521 -0.111614454692 0.815 1.91745554327e-38
-0.0255782354219 -0.11134055419 0.813 1.77937719779e-38
-0.0240736333383 -0.11134055419 0.813 1.74257181337e-38
-0.0226245516267 -0.111614454692 0.815 1.8070365874e-38
-0.0211162481849 -0.111614454692 0.815 1.90841478597e-38
-0.0196079447432 -0.111614454692 0.815 9.4965380356e-39
-0.0180996413014 -0.111614454692 0.815 2.03188277327e-43
-0.0165913378596 -0.111614454692 0.815 1.14906474075e-43
-0.0151200479992 -0.111888355194 0.817 1.49938935683e-43
-0.0136080431993 -0.111888355194 0.817 1.90645254773e-40
-0.0120960383994 -0.111888355194 0.817 4.6795521437e-40
-0.0106099431064 -0.112162255696 0.819 1.34524652575e-43
-0.00909423694836 -0.112162255696 0.819 2.24931931325e-38
-0.0075785307903 -0.112162255696 0.819 1.41952557384e-38
-0.00606282463224 -0.112162255696 0.819 1.6535321879e-43
-0.00454711847418 -0.112162255696 0.819 1.02040872614e-39
-0.00303141231612 -0.112162255696 0.819 2.30466233493e-39
-0.0015194075162 -0.112436156199 0.821 1.34524652575e-43
0.0 -0.112436156199 0.821 1.42865167022e-38
0.0015194075162 -0.112436156199 0.821 1.96358740976e-38
0.0030388150324 -0.112436156199 0.821 1.79774667923e-38
0.00456932662302 -0.112710056701 0.823 1.88990475429e-38
0.00609243549736 -0.112710056701 0.823 2.07415378223e-38
0.0076155443717 -0.112710056701 0.823 6.30584308946e-44
0.00913865324604 -0.112710056701 0.823 1.5678511946e-39
0.0106617621204 -0.112710056701 0.823 1.38703044336e-39
0.0122144818598 -0.112983957203 0.825 1.5717790342e-39
0.0137746043156 -0.113257857706 0.827 1.40129846432e-43
0.0153051159062 -0.113257857706 0.827 1.4110020358e-38
0.0168356274968 -0.113257857706 0.827 1.49324550384e-38
0.0183661390874 -0.113257857706 0.827 1.6535321879e-43
0.019896650678 -0.113257857706 0.827 1.59748024933e-43
0.0214271622687 -0.113257857706 0.827 9.80936950997e-41
0.0229576738593 -0.113257857706 0.827 8.53390764774e-43
0.0244881854499 -0.113257857706 0.827 1.31722055647e-43
0.0260186970405 -0.113257857706 0.827 1.72359711112e-43
0.0275492086311 -0.113257857706 0.827 2.08312307331e-38
0.0290797202217 -0.113257857706 0.827 1.87124856719e-38
0.0306842589751 -0.113531758208 0.829 1.76987064888e-38
0.0322184719239 -0.113531758208 0.829 1.83458737638e-38
0.0338341147517 -0.11380565871 0.831 1.77930559144e-38
0.0353720290586 -0.11380565871 0.831 1.78848998183e-38
0.0369099433655 -0.11380565871 0.831 1.78852557481e-38
0.0384478576724 -0.11380565871 0.831 1.84380721962e-38
0.0399857719793 -0.11380565871 0.831 1.84380721962e-38
0.0415236862862 -0.11380565871 0.831 1.83476786362e-38
0.0430616005931 -0.11380565871 0.831 1.7701228826e-38
0.0445995149 -0.11380565871 0.831 1.79785387856e-38
0.0462484699511 -0.114079559213 0.833 1.77934230546e-38
0.0477900856161 -0.114079559213 0.833 1.89912459754e-38
0.0493317012812 -0.114079559213 0.833 1.80689365496e-38
0.0508733169462 -0.114079559213 0.833 1.84380721962e-38
0.0524149326112 -0.114079559213 0.833 1.80692840716e-38
0.0539565482763 -0.114079559213 0.833 1.8068933747e-38
0.0556314128343 -0.114353459715 0.835 1.7793058717e-38
0.0571767298575 -0.114353459715 0.835 2.00064769037e-38
0.05886269849 -0.114627360217 0.837 2.09251863938e-38
0.0604117168713 -0.114627360217 0.837 2.14772657589e-38
-0.0317521007983 -0.110376350394 0.817 1.11538593345e-38
-0.0302400959984 -0.110376350394 0.817 1.4103804198e-38
-0.0287280911985 -0.110376350394 0.817 1.35495303995e-38
-0.0272160863986 -0.110376350394 0.817 1.77919993353e-38
-0.0256411585103 -0.11010615125 0.815 1.80696400014e-38
-0.0241328550685 -0.11010615125 0.815 1.78856186845e-38
-0.0226800719988 -0.110376350394 0.817 1.78859746143e-38
-0.0211680671989 -0.110376350394 0.817 1.86228333987e-38
-0.019656062399 -0.110376350394 0.817 1.65952329936e-38
-0.0181440575991 -0.110376350394 0.817 1.58346726469e-43
-0.0166320527991 -0.110376350394 0.817 1.10974710843e-39
-0.0151570615806 -0.110646549538 0.819 2.48797739744e-39
-0.0136413554225 -0.110646549538 0.819 1.47958060174e-39
-0.0121256492645 -0.110646549538 0.819 1.20443845086e-39
-0.0106099431064 -0.110646549538 0.819 1.44333741825e-43
-0.0091164450972 -0.110916748683 0.821 1.88086974232e-38
-0.007597037581 -0.110916748683 0.821 1.50264681524e-38
-0.0060776300648 -0.110916748683 0.821 1.62550621862e-43
-0.0045582225486 -0.110916748683 0.821 1.38811644967e-39
-0.0030388150324 -0.110916748683 0.821 1.75617309652e-39
-0.0015194075162 -0.110916748683 0.821 1.28919458718e-43
0.0 -0.111186947827 0.823 3.68870801257e-39
0.00152310887434 -0.111186947827 0.823 2.17556280936e-38
0.00304621774868 -0.111186947827 0.823 1.89887292434e-38
0.00458043069744 -0.111457146971 0.825 2.06500414403e-38
0.00610724092991 -0.111457146971 0.825 1.87150094104e-38
0.00763405116239 -0.111457146971 0.825 1.07899981753e-43
0.00916086139487 -0.111457146971 0.825 8.34602154964e-40
0.0106876716274 -0.111457146971 0.825 1.38703044336e-39
0.0122440927249 -0.111727346115 0.827 1.5717790342e-39
0.0138079165388 -0.111997545259 0.829 1.47136338754e-43
0.0153421294876 -0.111997545259 0.829 1.66005242966e-39
0.0168763424363 -0.111997545259 0.829 2.12049948686e-38
0.0183661390874 -0.111727346115 0.827 7.09558827928e-39
0.019896650678 -0.111727346115 0.827 1.89175292684e-43
0.0214789812826 -0.111997545259 0.829 1.61149323397e-43
0.0230131942314 -0.111997545259 0.829 1.59748024933e-43
0.0244881854499 -0.111727346115 0.827 1.29979064565e-38
0.0260186970405 -0.111727346115 0.827 2.04649495314e-38
0.0275492086311 -0.111727346115 0.827 1.852882589e-38
0.0291500460264 -0.111997545259 0.829 1.88061302444e-38
0.0306842589751 -0.111997545259 0.829 1.76079555976e-38
0.0322184719239 -0.111997545259 0.829 1.80696400014e-38
0.0338341147517 -0.112267744403 0.831 1.78859690091e-38
0.0354571602958 -0.112537943548 0.833 1.81611293768e-38
0.0369987759609 -0.112537943548 0.833 1.80692868742e-38
0.0385403916259 -0.112537943548 0.833 1.77012106091e-38
0.0400820072909 -0.112537943548 0.833 1.7793058717e-38
0.041623622956 -0.112537943548 0.833 1.78852487417e-38
0.043165238621 -0.112537943548 0.833 1.85309740805e-38
0.044706854286 -0.112537943548 0.833 1.75161102924e-38
0.0462484699511 -0.112537943548 0.833 1.88994034727e-38
0.0477900856161 -0.112537943548 0.833 1.77005043547e-38
0.0493317012812 -0.112537943548 0.833 1.83458765664e-38
0.0509954617648 -0.112808142692 0.835 1.8161482504e-38
0.052540778788 -0.112808142692 0.835 1.78852557481e-38
0.0540860958111 -0.112808142692 0.835 1.8345879369e-38
0.0556314128343 -0.112808142692 0.835 1.72402492754e-38
0.0571767298575 -0.112808142692 0.835 2.0098332018e-38
0.05886269849 -0.113078341836 0.837 2.10177393548e-38
0.0604117168713 -0.113078341836 0.837 2.10159344824e-38
-0.0317521007983 -0.108864345594 0.817 1.19836340163e-38
-0.0302400959984 -0.108864345594 0.817 1.52097958266e-38
-0.0287984170032 -0.10913084338 0.819 1.30892641098e-38
-0.0272160863986 -0.108864345594 0.817 1.82529620704e-38
-0.0257040815987 -0.108864345594 0.817 1.81622111792e-38
-0.0241920767987 -0.108864345594 0.817 1.77005043547e-38
-0.0227355923709 -0.10913084338 0.819 1.74249992675e-38
-0.0212198862128 -0.10913084338 0.819 1.78866934804e-38
-0.019656062399 -0.108864345594 0.817 1.97288082117e-38
-0.0181440575991 -0.108864345594 0.817 7.14662216806e-44
-0.0166727677387 -0.10913084338 0.819 2.02918247113e-39
-0.0151570615806 -0.10913084338 0.819 2.5801730273e-39
-0.0136413554225 -0.10913084338 0.819 1.5717762316e-39
-0.0121552601296 -0.109397341166 0.821 1.75509129411e-39
-0.0106358526134 -0.109397341166 0.821 1.26116861789e-43
-0.0091164450972 -0.109397341166 0.821 1.08799699445e-38
-0.0076155443717 -0.109663838952 0.823 2.07407951341e-38
-0.00609243549736 -0.109663838952 0.823 9.19167714689e-41
-0.00456932662302 -0.109663838952 0.823 1.20517973775e-39
-0.00304621774868 -0.109663838952 0.823 1.47921626414e-39
-0.00152681023248 -0.109930336738 0.825 1.20442443788e-39
0.0 -0.109930336738 0.825 1.31722055647e-43
0.00152681023248 -0.109930336738 0.825 1.06939643889e-38
0.00305362046496 -0.109930336738 0.825 1.9173444203e-38
0.00458043069744 -0.109930336738 0.825 1.65945141275e-38
0.00610724092991 -0.109930336738 0.825 0.0
0.00765255795309 -0.110196834524 0.827 1.52741532611e-43
0.00916086139487 -0.109930336738 0.825 1.38596405523e-39
0.0106876716274 -0.109930336738 0.825 8.32788874751e-40
0.0122440927249 -0.110196834524 0.827 1.4573504029e-43
0.0138079165388 -0.110463332311 0.829 1.52741532611e-43
0.0153421294876 -0.110463332311 0.829 1.42932443361e-43
0.0168763424363 -0.110463332311 0.829 2.01000892463e-38
0.0184105553851 -0.110463332311 0.829 1.99124637897e-38
0.0199447683338 -0.110463332311 0.829 1.97273508613e-38
0.0214789812826 -0.110463332311 0.829 2.01879744821e-38
0.0230131942314 -0.110463332311 0.829 2.03720140159e-38
0.0245474071801 -0.110463332311 0.829 1.93582306289e-38
0.0260816201289 -0.110463332311 0.829 1.84362715277e-38
0.0276158330776 -0.110463332311 0.829 1.81607608353e-38
0.0291500460264 -0.110463332311 0.829 1.78849026209e-38
0.0307582861379 -0.110729830097 0.831 1.78845466911e-38
0.0323739289658 -0.110996327883 0.833 1.80703686766e-38
0.0339155446308 -0.110996327883 0.833 1.77941279077e-38
0.0354571602958 -0.110996327883 0.833 1.76093681065e-38
0.0369987759609 -0.110996327883 0.833 1.80696400014e-38
0.0385403916259 -0.110996327883 0.833 1.77930559144e-38
0.0400820072909 -0.110996327883 0.833 1.78852515443e-38
0.041623622956 -0.110996327883 0.833 1.77008602845e-38
0.043165238621 -0.110996327883 0.833 1.84377218716e-38
0.044706854286 -0.110996327883 0.833 1.76079555976e-38
0.0463595106953 -0.111262825669 0.835 1.85309908961e-38
0.0479048277184 -0.111262825669 0.835 1.7885621487e-38
0.0494501447416 -0.111262825669 0.835 1.81622083766e-38
0.0509954617648 -0.111262825669 0.835 1.78859746143e-38
0.052540778788 -0.111262825669 0.835 1.81618328286e-38
0.0540860958111 -0.111262825669 0.835 1.83458765664e-38
0.0556314128343 -0.111262825669 0.835 1.73324477079e-38
0.0571767298575 -0.111262825669 0.835 2.04667291804e-38
0.05886269849 -0.111529323455 0.837 2.07407923315e-38
0.0604117168713 -0.111529323455 0.837 2.17535023239e-38
-0.0318298293193 -0.107615137222 0.819 1.41945522866e-38
-0.0303141231612 -0.107615137222 0.819 1.41030965423e-38
-0.0287984170032 -0.107615137222 0.819 1.34587696993e-38
-0.0272827108451 -0.107615137222 0.819 1.69622232523e-38
-0.025767004687 -0.107615137222 0.819 1.853027203e-38
-0.024251298529 -0.107615137222 0.819 1.77005043547e-38
-0.0227355923709 -0.107615137222 0.819 1.7793058717e-38
-0.0212198862128 -0.107615137222 0.819 1.79778171169e-38
-0.0197041800548 -0.107615137222 0.819 2.01901366856e-38
-0.0181884738967 -0.107615137222 0.819 0.0
-0.0166727677387 -0.107615137222 0.819 1.66754517255e-43
-0.015194075162 -0.10787793365 0.821 1.57142870958e-39
-0.0136746676458 -0.10787793365 0.821 1.3888170989e-39
-0.0121552601296 -0.10787793365 0.821 1.5717762316e-39
-0.0106617621204 -0.108140730078 0.823 4.64352476019e-40
-0.00913865324604 -0.108140730078 0.823 1.34524652575e-43
-0.0076155443717 -0.108140730078 0.823 2.22180481791e-38
-0.00609243549736 -0.108140730078 0.823 4.62428493227e-44
-0.00458043069744 -0.108403526506 0.825 1.52741532611e-43
-0.00305362046496 -0.108403526506 0.825 1.57142590698e-39
-0.00152681023248 -0.108403526506 0.825 1.93984128624e-39
0.0 -0.108666322934 0.827 1.20335244455e-39
0.00153051159062 -0.108666322934 0.827 1.41531144897e-43
0.00306102318124 -0.108666322934 0.827 1.33123354111e-43
0.00459153477185 -0.108666322934 0.827 1.23314264861e-43
0.00612204636247 -0.108666322934 0.827 1.24715563325e-43
0.00765255795309 -0.108666322934 0.827 1.61149323397e-43
0.00918306954371 -0.108666322934 0.827 1.3592595104e-43
0.0107135811343 -0.108666322934 0.827 1.42932443361e-43
0.0122737035901 -0.108929119362 0.829 7.17881139508e-39
0.0138079165388 -0.108929119362 0.829 1.54846142775e-38
0.0153421294876 -0.108929119362 0.829 1.91759623364e-38
0.0168763424363 -0.108929119362 0.829 1.85306405715e-38
0.0184105553851 -0.108929119362 0.829 1.80696400014e-38
0.0199447683338 -0.108929119362 0.829 1.853027203e-38
0.0215308002966 -0.10919191579 0.831 1.82526061406e-38
0.0230687146034 -0.10919191579 0.831 1.7791974112e-38
0.0246066289103 -0.10919191579 0.831 1.81614853066e-38
0.0261445432172 -0.10919191579 0.831 1.77923300418e-38
0.0276824575241 -0.10919191579 0.831 1.81607608353e-38
0.0292906976357 -0.109454712218 0.833 1.80682330977e-38
0.0308323133007 -0.109454712218 0.833 1.82533250067e-38
0.0323739289658 -0.109454712218 0.833 1.7793058717e-38
0.0339969745099 -0.109717508645 0.835 1.87157380856e-38
0.035542291533 -0.109717508645 0.835 1.77934090416e-38
0.0370876085562 -0.109717508645 0.835 1.81618328286e-38
0.0386329255794 -0.109717508645 0.835 1.84384225208e-38
0.0401782426026 -0.109717508645 0.835 1.78852515443e-38
0.0417235596257 -0.109717508645 0.835 1.82540312611e-38
0.0432688766489 -0.109717508645 0.835 1.80689309444e-38
0.0448141936721 -0.109717508645 0.835 1.75168389676e-38
0.0463595106953 -0.109717508645 0.835 1.77008728962e-38
0.0479048277184 -0.109717508645 0.835 1.80700127468e-38
0.0494501447416 -0.109717508645 0.835 1.78859844233e-38
0.0509954617648 -0.109717508645 0.835 1.82547739493e-38
0.052540778788 -0.109717508645 0.835 1.80689309444e-38
0.054215643346 -0.109980305073 0.837 1.81614853066e-38
0.0557646617273 -0.109980305073 0.837 1.88072022377e-38
0.0573136801086 -0.109980305073 0.837 2.00050447767e-38
0.05886269849 -0.109980305073 0.837 2.09251863938e-38
-0.030388150324 -0.106358526134 0.821 1.2444637389e-38
-0.0288687428078 -0.106358526134 0.821 1.37357265317e-38
-0.0272827108451 -0.106099431064 0.819 1.69614945771e-38
-0.025767004687 -0.106099431064 0.819 1.84384393364e-38
-0.024251298529 -0.106099431064 0.819 1.70558440027e-38
-0.022791112743 -0.106358526134 0.821 1.87146562832e-38
-0.0212717052268 -0.106358526134 0.821 1.73328008351e-38
-0.0197041800548 -0.106099431064 0.819 1.93603760169e-38
-0.0181884738967 -0.106099431064 0.819 1.45662228822e-38
-0.0167134826782 -0.106358526134 0.821 1.33123354111e-43
-0.015194075162 -0.106358526134 0.821 1.20588879477e-39
-0.0136746676458 -0.106358526134 0.821 1.75509129411e-39
-0.0121848709947 -0.106617621204 0.823 1.84728692397e-39
-0.0106617621204 -0.106617621204 0.823 1.01860805761e-39
-0.00913865324604 -0.106617621204 0.823 1.33123354111e-43
-0.0076155443717 -0.106617621204 0.823 2.05596703011e-38
-0.00610724092991 -0.106876716274 0.825 1.86206459718e-38
-0.00458043069744 -0.106876716274 0.825 5.74532370373e-44
-0.00305362046496 -0.106876716274 0.825 1.4573504029e-43
-0.00153051159062 -0.107135811343 0.827 6.51640219671e-40
0.0 -0.107135811343 0.827 1.1129686936e-39
0.00153051159062 -0.107135811343 0.827 1.47886593952e-39
0.00306842589751 -0.107394906413 0.829 2.30513597381e-42
0.00460263884627 -0.107394906413 0.829 1.38728547968e-43
0.00613685179503 -0.107394906413 0.829 2.02952018406e-39
0.00767106474379 -0.107394906413 0.829 1.68632481405e-38
0.00920527769254 -0.107394906413 0.829 1.7513554324e-38
0.0107394906413 -0.107394906413 0.829 1.9358949495e-38
0.0123033144552 -0.107654001483 0.831 2.06482407718e-38
0.0138412287621 -0.107654001483 0.831 1.93578550809e-38
0.015379143069 -0.107654001483 0.831 1.84387784506e-38
0.0169170573759 -0.107654001483 0.831 1.78856046715e-38
0.0184993879804 -0.107913096553 0.833 1.77930531118e-38
0.0199928859897 -0.107654001483 0.831 1.81632831726e-38
0.0215308002966 -0.107654001483 0.831 1.83462240884e-38
0.0230687146034 -0.107654001483 0.831 1.78849026209e-38
0.0246066289103 -0.107654001483 0.831 1.80692840716e-38
0.0261445432172 -0.107654001483 0.831 1.82536781339e-38
0.0277490819706 -0.107913096553 0.833 1.83455108275e-38
0.0292906976357 -0.107913096553 0.833 1.74239174651e-38
0.0308323133007 -0.107913096553 0.833 1.85302692274e-38
0.0324516574867 -0.108172191622 0.835 1.76086646547e-38
0.0339969745099 -0.108172191622 0.835 1.69629421184e-38
0.035542291533 -0.108172191622 0.835 1.82540284585e-38
0.0370876085562 -0.108172191622 0.835 1.84384253234e-38
0.0386329255794 -0.108172191622 0.835 1.77005099599e-38
0.0401782426026 -0.108172191622 0.835 1.78845256716e-38
0.0418234962955 -0.108431286692 0.837 1.80692868742e-38
0.0432688766489 -0.108172191622 0.835 1.75164914456e-38
0.0448141936721 -0.108172191622 0.835 1.77015735454e-38
0.0463595106953 -0.108172191622 0.835 1.79785331804e-38
0.0479048277184 -0.108172191622 0.835 1.79781856584e-38
0.0494501447416 -0.108172191622 0.835 1.82536781339e-38
0.0511176065834 -0.108431286692 0.837 1.81614853066e-38
0.0526666249647 -0.108431286692 0.837 1.83458737638e-38
0.054215643346 -0.108431286692 0.837 1.82536809365e-38
0.0557646617273 -0.108431286692 0.837 1.73328008351e-38
0.0573136801086 -0.108431286692 0.837 2.00968844767e-38
0.05886269849 -0.108431286692 0.837 2.13861645431e-38
-0.030388150324 -0.104839118618 0.821 1.14308287786e-38
-0.0288687428078 -0.104839118618 0.821 1.42881940564e-38
-0.0273493352916 -0.104839118618 0.821 1.6500869555e-38
-0.0258299277754 -0.104839118618 0.821 1.80696400014e-38
-0.0243105202592 -0.104839118618 0.821 1.77934258572e-38
-0.0228466331151 -0.105094512329 0.823 1.77015791506e-38
-0.0212717052268 -0.104839118618 0.821 1.74246433377e-38
-0.0197522977106 -0.104839118618 0.821 1.88068547157e-38
-0.0182328901944 -0.104839118618 0.821 1.9821362574e-38
-0.0167541976177 -0.105094512329 0.823 1.38728547968e-43
-0.0152310887434 -0.105094512329 0.823 1.75332145414e-39
-0.0137079798691 -0.105094512329 0.823 1.47922747452e-39
-0.0122144818598 -0.105349906041 0.825 1.47958060174e-39
-0.0107135811343 -0.105605299753 0.827 1.38738637317e-39
-0.00918306954371 -0.105605299753 0.827 1.24715563325e-43
-0.00765255795309 -0.105605299753 0.827 1.39234795064e-38
-0.00612204636247 -0.105605299753 0.827 2.14805125674e-38
-0.00459153477185 -0.105605299753 0.827 1.64105292443e-38
-0.00306102318124 -0.105605299753 0.827 6.86636247519e-44
-0.00153421294876 -0.105860693464 0.829 1.09301280217e-43
0.0 -0.105860693464 0.829 1.3592595104e-43
0.00153421294876 -0.105860693464 0.829 1.41531144897e-43
0.00306842589751 -0.105860693464 0.829 1.38728547968e-43
0.00460263884627 -0.105860693464 0.829 1.22549688392e-38
0.00613685179503 -0.105860693464 0.829 2.18446441773e-38
0.00768957153448 -0.106116087176 0.831 2.04624103786e-38
0.00922748584138 -0.106116087176 0.831 1.85295419535e-38
0.0107654001483 -0.106116087176 0.831 1.90830912806e-38
0.0123033144552 -0.106116087176 0.831 1.82533250067e-38
0.0138412287621 -0.106116087176 0.831 1.88072022377e-38
0.0154161566504 -0.106371480887 0.833 1.83462240884e-38
0.0169577723154 -0.106371480887 0.833 1.76083115274e-38
0.0184993879804 -0.106371480887 0.833 1.78852557481e-38
0.0200410036455 -0.106371480887 0.833 1.77023092271e-38
0.0215826193105 -0.106371480887 0.833 1.81618356312e-38
0.0231242349755 -0.106371480887 0.833 1.77008602845e-38
0.0247250723708 -0.106626874599 0.835 1.81614797014e-38
0.026270389394 -0.106626874599 0.835 1.76083115274e-38
0.0278157064172 -0.106626874599 0.835 1.7793058717e-38
0.0293610234403 -0.106626874599 0.835 1.80696371988e-38
0.0309063404635 -0.106626874599 0.835 1.80696371988e-38
0.0324516574867 -0.106626874599 0.835 1.77930699274e-38
0.0339969745099 -0.106626874599 0.835 1.77930559144e-38
0.035542291533 -0.106626874599 0.835 1.83465800182e-38
0.0371764411516 -0.106882268311 0.837 1.75161158976e-38
0.0387254595329 -0.106882268311 0.837 1.80689309444e-38
0.0402744779142 -0.106882268311 0.837 1.79763653717e-38
0.0418234962955 -0.106882268311 0.837 1.8161482504e-38
0.0433725146768 -0.106882268311 0.837 1.90837919299e-38
0.0449215330581 -0.106882268311 0.837 1.76083087249e-38
0.0464705514394 -0.106882268311 0.837 1.80689309444e-38
0.0480195698208 -0.106882268311 0.837 1.91756372351e-38
0.0495685882021 -0.106882268311 0.837 1.80689169314e-38
0.0511176065834 -0.106882268311 0.837 1.85295419535e-38
0.0526666249647 -0.106882268311 0.837 1.80689309444e-38
0.054215643346 -0.106882268311 0.837 1.8714678704e-38
0.0557646617273 -0.106882268311 0.837 1.71484025689e-38
0.0573136801086 -0.106882268311 0.837 2.00053922987e-38
0.0592846533178 -0.107648449446 0.843 2.03723699457e-38
-0.030388150324 -0.103319711102 0.821 1.50246688851e-38
-0.0288687428078 -0.103319711102 0.821 1.42853031777e-38
-0.0274159597381 -0.103571403455 0.823 1.53016257175e-38
-0.0258299277754 -0.103319711102 0.821 1.85302692274e-38
-0.0243105202592 -0.103319711102 0.821 1.80692840716e-38
-0.0228466331151 -0.103571403455 0.823 1.78852557481e-38
-0.0213235242407 -0.103571403455 0.823 1.80689365496e-38
-0.0198004153664 -0.103571403455 0.823 1.79760178497e-38
-0.0182773064921 -0.103571403455 0.823 2.05571423586e-38
-0.0167949125573 -0.103823095809 0.825 0.0
-0.0152681023248 -0.103823095809 0.825 1.85269873864e-40
-0.0137412920923 -0.103823095809 0.825 1.47923307972e-39
-0.0122440927249 -0.104074788162 0.827 1.66433059387e-39
-0.0107135811343 -0.104074788162 0.827 1.66504665738e-39
-0.00918306954371 -0.104074788162 0.827 1.21912966396e-42
-0.00767106474379 -0.104326480515 0.829 1.38345713228e-39
-0.00613685179503 -0.104326480515 0.829 2.04684836061e-38
-0.00460263884627 -0.104326480515 0.829 1.95444015377e-38
-0.00306842589751 -0.104326480515 0.829 2.00028713628e-38
-0.00153421294876 -0.104326480515 0.829 1.95415050538e-38
0.0 -0.104326480515 0.829 1.82518452355e-38
0.0015379143069 -0.104578172869 0.831 1.85302426027e-38
0.00307582861379 -0.104578172869 0.831 2.10184526157e-38
0.00461374292069 -0.104578172869 0.831 1.96348007029e-38
0.00615165722759 -0.104578172869 0.831 1.92660349991e-38
0.00768957153448 -0.104578172869 0.831 1.78845256716e-38
0.00924969399022 -0.104829865222 0.833 1.77927027872e-38
0.0107913096553 -0.104829865222 0.833 1.76097604701e-38
0.0123329253203 -0.104829865222 0.833 1.78859746143e-38
0.0138745409853 -0.104829865222 0.833 1.78852557481e-38
0.0154161566504 -0.104829865222 0.833 1.78852655572e-38
0.0169577723154 -0.104829865222 0.833 1.83465954325e-38
0.0185438042781 -0.105081557576 0.835 1.7517545222e-38
0.0200410036455 -0.104829865222 0.833 1.75168193494e-38
0.0215826193105 -0.104829865222 0.833 1.82533250067e-38
