# .PCD v0.7 - Point Cloud Data file format
VERSION 0.7
FIELDS x y z rgb
SIZE 4 4 4 4
TYPE F F F F
COUNT 1 1 1 1
WIDTH 842
HEIGHT 1
VIEWPOINT 0 0 0 1 0 0 0
POINTS 842
DATA ascii
0.0757205341356 -0.0540860958111 0.835 2.34820474199e-38
0.0772658511588 -0.0540860958111 0.835 2.35004296531e-38
0.0788111681819 -0.0540860958111 0.835 2.35098183528e-38
-0.0205462390315 -0.053736317467 0.854 2.35036834681e-38
-0.018965759106 -0.053736317467 0.854 1.2690891772e-38
-0.0173852791805 -0.053736317467 0.854 1.92425043952e-38
-0.0156012245573 -0.0530441634949 0.843 1.97082203347e-38
-0.0140077898783 -0.0529183173182 0.841 1.03950183811e-38
-0.0124217579156 -0.0527924711414 0.839 1.10483345537e-38
-0.0108431286692 -0.0526666249647 0.837 1.17751039892e-38
-0.00929411028789 -0.0526666249647 0.837 2.34975668003e-38
-0.00772658511588 -0.052540778788 0.835 2.18239778275e-38
-0.00616646266014 -0.0524149326112 0.833 1.89666686016e-38
-0.00460263884627 -0.0521632402577 0.829 1.64816703647e-38
-0.00306842589751 -0.0521632402577 0.829 1.45456027753e-38
-0.00153051159062 -0.052037394081 0.827 1.73103170012e-38
0.0 -0.0519115479043 0.825 2.04388741696e-38
0.00152310887434 -0.0517857017275 0.823 2.34989526845e-38
0.00304621774868 -0.0517857017275 0.823 2.35007925894e-38
0.0045582225486 -0.0516598555508 0.821 2.34968367238e-38
0.0060776300648 -0.0516598555508 0.821 2.34993534559e-38
0.007597037581 -0.0516598555508 0.821 2.35008136089e-38
0.0091164450972 -0.0516598555508 0.821 2.34975359718e-38
0.0106358526134 -0.0516598555508 0.821 2.3497565399e-38
0.0121552601296 -0.0516598555508 0.821 2.35015114555e-38
0.0136746676458 -0.0516598555508 0.821 2.34985855443e-38
0.015194075162 -0.0516598555508 0.821 2.12750275619e-38
0.0167949125573 -0.0519115479043 0.825 1.84999128987e-38
0.0183661390874 -0.052037394081 0.827 2.34903683301e-38
0.0199928859897 -0.0522890864345 0.831 2.35011443153e-38
0.0215308002966 -0.0522890864345 0.831 2.35008052011e-38
0.0231242349755 -0.0524149326112 0.833 2.35054631172e-38
0.0246658506406 -0.0524149326112 0.833 2.35058512769e-38
0.0262074663056 -0.0524149326112 0.833 2.35029365761e-38
0.0277490819706 -0.0524149326112 0.833 2.35036400279e-38
0.0292906976357 -0.0524149326112 0.833 2.3506180582e-38
0.0308323133007 -0.0524149326112 0.833 2.3505819047e-38
0.0323739289658 -0.0524149326112 0.833 2.35069330793e-38
0.0338341147517 -0.0522890864345 0.831 2.35097763139e-38
0.0353720290586 -0.0522890864345 0.831 2.35098113463e-38
0.0369099433655 -0.0522890864345 0.831 2.31352400629e-38
0.0384478576724 -0.0522890864345 0.831 2.47956400146e-39
0.0399857719793 -0.0522890864345 0.831 2.26673170784e-38
0.0415236862862 -0.0522890864345 0.831 1.30580487853e-38
0.0429579625652 -0.0521632402577 0.829 2.93878211991e-39
0.044492175514 -0.0521632402577 0.829 9.10844001811e-44
0.0461374292069 -0.0522890864345 0.831 6.34179059897e-39
0.0476753435138 -0.0522890864345 0.831 1.45400214035e-38
0.0493317012812 -0.0524149326112 0.833 2.18347369971e-38
0.0508733169462 -0.0524149326112 0.833 2.34910591703e-38
0.0524149326112 -0.0524149326112 0.833 2.34935941192e-38
0.0539565482763 -0.0524149326112 0.833 2.34856683751e-38
0.0554981639413 -0.0524149326112 0.833 2.34838761144e-38
0.0570397796063 -0.0524149326112 0.833 2.3481343968e-38
0.0585813952714 -0.0524149326112 0.833 2.3206581569e-38
0.0601230109364 -0.0524149326112 0.833 2.34838424832e-38
0.0616646266014 -0.0524149326112 0.833 2.34820558276e-38
0.0632062422665 -0.0524149326112 0.833 2.31132564926e-38
0.0647478579315 -0.0524149326112 0.833 2.34824215665e-38
0.0662894735965 -0.0524149326112 0.833 2.34824229678e-38
0.0679939490197 -0.052540778788 0.835 2.34834977638e-38
0.0695392660429 -0.052540778788 0.835 2.34828097262e-38
0.0710845830661 -0.052540778788 0.835 2.34824117575e-38
0.0726299000892 -0.052540778788 0.835 2.34827845028e-38
0.0741752171124 -0.052540778788 0.835 2.34813691914e-38
0.0757205341356 -0.052540778788 0.835 2.28334424127e-38
0.0774509190657 -0.0526666249647 0.837 2.3502241532e-38
0.078999937447 -0.0526666249647 0.837 2.35098365697e-38
-0.0204740625478 -0.0519726203136 0.851 2.35011765452e-38
-0.0188991346595 -0.0519726203136 0.851 1.4722101922e-38
-0.0173242067712 -0.0519726203136 0.851 1.8684954361e-38
-0.0157122653015 -0.051850475495 0.849 1.95237954438e-38
-0.0140077898783 -0.0513618962206 0.841 1.16875746833e-38
-0.0124217579156 -0.051239751402 0.839 1.34468558598e-38
-0.0108431286692 -0.0511176065834 0.837 2.80259692865e-45
-0.00929411028789 -0.0511176065834 0.837 2.35008164115e-38
-0.00772658511588 -0.0509954617648 0.835 2.34863802347e-38
-0.00616646266014 -0.0508733169462 0.833 1.88740932199e-38
-0.00460263884627 -0.050629027309 0.829 1.68486956559e-38
-0.00306842589751 -0.050629027309 0.829 1.49139536948e-38
-0.00153051159062 -0.0505068824904 0.827 1.76813079671e-38
0.0 -0.0503847376718 0.825 1.77712951505e-38
0.00152310887434 -0.0502625928532 0.823 1.89616365388e-38
0.00304621774868 -0.0502625928532 0.823 2.12661096985e-38
0.0045582225486 -0.0501404480346 0.821 2.32012314115e-38
0.0060776300648 -0.0501404480346 0.821 2.34906710106e-38
0.007597037581 -0.0501404480346 0.821 2.34967750667e-38
0.0091164450972 -0.0501404480346 0.821 2.34924842908e-38
0.0106358526134 -0.0501404480346 0.821 2.21905322824e-38
0.0121552601296 -0.0501404480346 0.821 2.04381707177e-38
0.0136746676458 -0.0501404480346 0.821 2.13622766082e-38
0.015194075162 -0.0501404480346 0.821 2.19183440687e-38
0.0167949125573 -0.0503847376718 0.825 2.34849467064e-38
0.0183661390874 -0.0505068824904 0.827 2.34990143417e-38
0.0199928859897 -0.0507511721276 0.831 2.34975387744e-38
0.0215308002966 -0.0507511721276 0.831 2.35025722385e-38
0.0231242349755 -0.0508733169462 0.833 2.3507964435e-38
0.0246658506406 -0.0508733169462 0.833 2.35036526396e-38
0.0262074663056 -0.0508733169462 0.833 2.35076113077e-38
0.0277490819706 -0.0508733169462 0.833 2.35058400665e-38
0.0292906976357 -0.0508733169462 0.833 2.35087239387e-38
0.0308323133007 -0.0508733169462 0.833 2.3508687505e-38
0.0323739289658 -0.0508733169462 0.833 2.35094315944e-38
0.0338341147517 -0.0507511721276 0.831 2.35098001359e-38
0.0353720290586 -0.0507511721276 0.831 2.35040015629e-38
0.0369099433655 -0.0507511721276 0.831 2.35097749126e-38
0.0384478576724 -0.0507511721276 0.831 3.489748854e-39
0.0399857719793 -0.0507511721276 0.831 5.04467447157e-44
0.0415236862862 -0.0507511721276 0.831 9.46671560168e-39
0.0429579625652 -0.050629027309 0.829 1.72161735665e-38
0.044492175514 -0.050629027309 0.829 2.24797168452e-38
0.0461374292069 -0.0507511721276 0.831 2.34932255777e-38
0.0476753435138 -0.0507511721276 0.831 2.3489635451e-38
0.0493317012812 -0.0508733169462 0.833 2.3485686592e-38
0.0508733169462 -0.0508733169462 0.833 2.34874592345e-38
0.0524149326112 -0.0508733169462 0.833 2.34820572289e-38
0.0539565482763 -0.0508733169462 0.833 2.34831222158e-38
0.0554981639413 -0.0508733169462 0.833 2.3482766286e-38
0.0571767298575 -0.0509954617648 0.835 2.34852872219e-38
0.0587220468807 -0.0509954617648 0.835 2.33888036187e-38
0.0602673639038 -0.0509954617648 0.835 2.34856599673e-38
0.061812680927 -0.0509954617648 0.835 2.33880609306e-38
0.0633579979502 -0.0509954617648 0.835 2.3483902739e-38
0.0649033149734 -0.0509954617648 0.835 2.34820558276e-38
0.0664486319965 -0.0509954617648 0.835 2.34813355602e-38
0.0681568087778 -0.0511176065834 0.837 2.34835047703e-38
0.0697058271592 -0.0511176065834 0.837 2.3483127821e-38
0.0714251080149 -0.051239751402 0.839 2.34838550949e-38
0.0728038639218 -0.0511176065834 0.837 2.32069136768e-38
0.0743528823031 -0.0511176065834 0.837 2.34838550949e-38
0.0759019006844 -0.0511176065834 0.837 2.34809614135e-38
0.0774509190657 -0.0511176065834 0.837 2.35072946143e-38
-0.0204740625478 -0.0503976924253 0.851 2.35047680732e-38
-0.0188991346595 -0.0503976924253 0.851 2.35026016657e-38
-0.0173242067712 -0.0503976924253 0.851 1.65684177462e-38
-0.0157492788829 -0.0503976924253 0.851 1.84160059493e-38
-0.0141077265481 -0.0501608055044 0.847 1.25166094794e-38
-0.0124217579156 -0.0496870316625 0.839 1.31705744532e-38
-0.0108431286692 -0.0495685882021 0.837 2.29588740395e-39
-0.00929411028789 -0.0495685882021 0.837 2.32866699802e-38
-0.00772658511588 -0.0494501447416 0.835 2.34914277118e-38
-0.00616646266014 -0.0493317012812 0.833 2.01651949743e-38
-0.00460263884627 -0.0490948143602 0.829 1.86000174571e-38
-0.00306842589751 -0.0490948143602 0.829 1.65746100841e-38
-0.00153051159062 -0.0489763708998 0.827 1.50980674974e-38
0.0 -0.0488579274393 0.825 1.77724316036e-38
0.00152310887434 -0.0487394839789 0.823 1.92457399934e-38
0.00304621774868 -0.0487394839789 0.823 1.97092166579e-38
0.0045582225486 -0.0486210405184 0.821 1.79535382197e-38
0.0060776300648 -0.0486210405184 0.821 1.84141590379e-38
0.007597037581 -0.0486210405184 0.821 2.08083587395e-38
0.0091164450972 -0.0486210405184 0.821 2.19143335525e-38
0.0106358526134 -0.0486210405184 0.821 1.95169585086e-38
0.0121552601296 -0.0486210405184 0.821 2.06257919704e-38
0.0136746676458 -0.0486210405184 0.821 2.12728919831e-38
0.0152310887434 -0.0487394839789 0.823 2.2838171795e-38
0.0168356274968 -0.0489763708998 0.827 2.34889207888e-38
0.0184105553851 -0.0490948143602 0.829 2.34935730997e-38
0.0199447683338 -0.0490948143602 0.829 2.35000695194e-38
0.0215308002966 -0.0492132578207 0.831 2.35011008751e-38
0.0230687146034 -0.0492132578207 0.831 2.35058386652e-38
0.0246658506406 -0.0493317012812 0.833 2.35040099707e-38
0.0262074663056 -0.0493317012812 0.833 2.35061637664e-38
0.0277490819706 -0.0493317012812 0.833 2.35097637022e-38
0.0292906976357 -0.0493317012812 0.833 2.35098071424e-38
0.0308323133007 -0.0493317012812 0.833 2.35097679061e-38
0.0323739289658 -0.0493317012812 0.833 2.34996939714e-38
0.0338341147517 -0.0492132578207 0.831 2.34975611952e-38
0.0353720290586 -0.0492132578207 0.831 2.34899479406e-38
0.0369099433655 -0.0492132578207 0.831 2.34895779978e-38
0.0384478576724 -0.0492132578207 0.831 1.70309163043e-38
0.0399857719793 -0.0492132578207 0.831 2.17453930096e-38
0.0415236862862 -0.0492132578207 0.831 2.34939206217e-38
0.0430616005931 -0.0492132578207 0.831 2.34878221708e-38
0.0445995149 -0.0492132578207 0.831 2.34842152286e-38
0.0461374292069 -0.0492132578207 0.831 2.34853166492e-38
0.0476753435138 -0.0492132578207 0.831 2.34824355795e-38
0.0493317012812 -0.0493317012812 0.833 2.34802985994e-38
0.0508733169462 -0.0493317012812 0.833 2.33880791474e-38
0.0524149326112 -0.0493317012812 0.833 2.34806110889e-38
0.0540860958111 -0.0494501447416 0.835 2.3479883815e-38
0.0556314128343 -0.0494501447416 0.835 2.34827831015e-38
0.0571767298575 -0.0494501447416 0.835 2.3485297031e-38
0.0587220468807 -0.0494501447416 0.835 2.34810020512e-38
0.0602673639038 -0.0494501447416 0.835 2.34820796497e-38
0.061812680927 -0.0494501447416 0.835 2.34863788334e-38
0.0635097536339 -0.0495685882021 0.837 2.28381143417e-38
0.0650587720152 -0.0495685882021 0.837 2.33884112552e-38
0.0666077903965 -0.0495685882021 0.837 2.3483127821e-38
0.0681568087778 -0.0495685882021 0.837 2.30214266016e-38
0.0700389493917 -0.049805475123 0.841 2.34845389285e-38
0.0715953704893 -0.049805475123 0.841 2.34863690243e-38
0.0731517915869 -0.049805475123 0.841 2.22849559768e-38
0.0747082126845 -0.049805475123 0.841 2.34845641519e-38
0.0762646337821 -0.049805475123 0.841 2.32043661162e-38
-0.0190101754037 -0.0491096197928 0.856 2.35072763974e-38
-0.0173852791805 -0.0489948776905 0.854 2.06369757335e-38
-0.0157492788829 -0.048822764537 0.851 1.61942570432e-38
-0.0141410387714 -0.0487080224347 0.849 1.27946481142e-38
-0.0124513687807 -0.0482490540254 0.841 1.26170923884e-38
-0.0108690381762 -0.0481343119231 0.839 1.2340497091e-38
-0.00929411028789 -0.0480195698208 0.837 2.66323919767e-39
-0.00772658511588 -0.0479048277184 0.835 2.35003651934e-38
-0.00616646266014 -0.0477900856161 0.833 2.23789116376e-38
-0.00460263884627 -0.0475606014115 0.829 1.63859000225e-38
-0.00306842589751 -0.0475606014115 0.829 1.7124871965e-38
-0.00153051159062 -0.0474458593092 0.827 1.66664273634e-38
0.0 -0.0473311172068 0.825 1.62990741683e-38
0.00152310887434 -0.0472163751045 0.823 1.68504879166e-38
0.00304621774868 -0.0472163751045 0.823 1.8046491952e-38
0.0045582225486 -0.0471016330022 0.821 1.99801002627e-38
0.0060776300648 -0.0471016330022 0.821 1.98946687005e-38
0.007597037581 -0.0471016330022 0.821 2.00780033812e-38
0.0091164450972 -0.0471016330022 0.821 2.04453593788e-38
0.0106358526134 -0.0471016330022 0.821 2.11786224315e-38
0.0121552601296 -0.0471016330022 0.821 2.08109175105e-38
0.0137079798691 -0.0472163751045 0.823 2.28395716921e-38
0.0152310887434 -0.0472163751045 0.823 2.34864068594e-38
0.0168356274968 -0.0474458593092 0.827 2.34914038897e-38
0.0184105553851 -0.0475606014115 0.829 2.34957493162e-38
0.0199447683338 -0.0475606014115 0.829 2.34993254299e-38
0.0215308002966 -0.0476753435138 0.831 2.34971576212e-38
0.0230687146034 -0.0476753435138 0.831 2.35047722771e-38
0.0246066289103 -0.0476753435138 0.831 2.35097735113e-38
0.0261445432172 -0.0476753435138 0.831 2.35097637022e-38
0.0277490819706 -0.0477900856161 0.833 2.3509396562e-38
0.0292906976357 -0.0477900856161 0.833 2.35021700658e-38
0.0308323133007 -0.0477900856161 0.833 2.34974841237e-38
0.0322962004448 -0.0476753435138 0.831 2.3486958971e-38
0.0338341147517 -0.0476753435138 0.831 2.34798782098e-38
0.0353720290586 -0.0476753435138 0.831 2.34816746745e-38
0.0369099433655 -0.0476753435138 0.831 2.32068744404e-38
0.0384478576724 -0.0476753435138 0.831 2.3484587974e-38
0.0399857719793 -0.0476753435138 0.831 2.34835047703e-38
0.0415236862862 -0.0476753435138 0.831 2.34802859877e-38
0.0430616005931 -0.0476753435138 0.831 2.3483864904e-38
0.0445995149 -0.0476753435138 0.831 2.34874270047e-38
0.0461374292069 -0.0476753435138 0.831 2.31125530408e-38
0.0477900856161 -0.0477900856161 0.833 2.3480982433e-38
0.0494501447416 -0.0479048277184 0.835 2.34845711584e-38
0.0509954617648 -0.0479048277184 0.835 2.34849467064e-38
0.052540778788 -0.0479048277184 0.835 2.34824229678e-38
0.054215643346 -0.0480195698208 0.837 2.34828055223e-38
0.0557646617273 -0.0480195698208 0.837 2.34827985158e-38
0.0573136801086 -0.0480195698208 0.837 2.34799216501e-38
0.0590033500993 -0.0481343119231 0.839 2.34849312921e-38
0.0605560698387 -0.0481343119231 0.839 2.28374080873e-38
0.0621087895782 -0.0481343119231 0.839 2.34874592345e-38
0.0638132650013 -0.0482490540254 0.841 2.31136222315e-38
0.0653696860989 -0.0482490540254 0.841 2.34835215858e-38
0.0669261071965 -0.0482490540254 0.841 2.34856473556e-38
0.0688082478104 -0.04847853823 0.845 2.34845795662e-38
0.0703720716242 -0.04847853823 0.845 2.34828069236e-38
0.0719358954381 -0.04847853823 0.845 2.34863886425e-38
0.073499719252 -0.04847853823 0.845 2.34853054388e-38
0.0750635430659 -0.04847853823 0.845 2.3204398346e-38
0.0766273668797 -0.04847853823 0.845 2.34802565604e-38
-0.0190101754037 -0.0475254385092 0.856 2.34990227495e-38
-0.01742599412 -0.0475254385092 0.856 2.35026058696e-38
-0.0157492788829 -0.0472478366487 0.851 1.36089580661e-38
-0.0141410387714 -0.0471367959045 0.849 1.4719543151e-38
-0.012510590511 -0.0469147144162 0.845 1.16940444783e-38
-0.0108431286692 -0.0464705514394 0.837 1.46435983795e-38
-0.00929411028789 -0.0464705514394 0.837 0.0
-0.00772658511588 -0.0463595106953 0.835 2.34947838216e-38
-0.00616646266014 -0.0462484699511 0.833 2.34853236557e-38
-0.00460263884627 -0.0460263884627 0.829 1.90559607411e-38
-0.00306842589751 -0.0460263884627 0.829 1.90624697724e-38
-0.00153051159062 -0.0459153477185 0.827 1.66635000509e-38
0.0 -0.0458043069744 0.825 1.68490081455e-38
0.00152310887434 -0.0456932662302 0.823 1.66653609752e-38
0.00304621774868 -0.0456932662302 0.823 1.82312391416e-38
0.00456932662302 -0.0456932662302 0.823 1.80486583595e-38
0.0060776300648 -0.045582225486 0.821 1.91574918213e-38
0.007597037581 -0.045582225486 0.821 1.94308795465e-38
0.0091164450972 -0.045582225486 0.821 1.97078139581e-38
0.0106358526134 -0.045582225486 0.821 2.12740438504e-38
0.0121848709947 -0.0456932662302 0.823 2.10893260881e-38
0.0137079798691 -0.0456932662302 0.823 2.34885102084e-38
0.0152681023248 -0.0458043069744 0.825 2.34896578718e-38
0.0168356274968 -0.0459153477185 0.827 2.34939290295e-38
0.0184105553851 -0.0460263884627 0.829 2.34932017556e-38
0.0199447683338 -0.0460263884627 0.829 2.34870808839e-38
0.0215308002966 -0.0461374292069 0.831 2.3508673492e-38
0.0230687146034 -0.0461374292069 0.831 2.35083722128e-38
0.0246066289103 -0.0461374292069 0.831 2.35025834488e-38
0.0261445432172 -0.0461374292069 0.831 2.34967652576e-38
0.0277490819706 -0.0462484699511 0.833 2.34892374823e-38
0.0292906976357 -0.0462484699511 0.833 2.292603461e-38
0.0308323133007 -0.0462484699511 0.833 2.34813047317e-38
0.0322962004448 -0.0461374292069 0.831 2.3111849589e-38
0.0338341147517 -0.0461374292069 0.831 2.34809796304e-38
0.0353720290586 -0.0461374292069 0.831 2.33884140578e-38
0.0369099433655 -0.0461374292069 0.831 2.3297660364e-38
0.0384478576724 -0.0461374292069 0.831 2.34885228201e-38
0.0400820072909 -0.0462484699511 0.833 2.34845445337e-38
0.041623622956 -0.0462484699511 0.833 2.34899619536e-38
0.043165238621 -0.0462484699511 0.833 2.34867627892e-38
0.044706854286 -0.0462484699511 0.833 2.15530928214e-38
0.0463595106953 -0.0463595106953 0.835 2.34896368523e-38
0.0479048277184 -0.0463595106953 0.835 2.34831264197e-38
0.0494501447416 -0.0463595106953 0.835 2.3482053025e-38
0.0511176065834 -0.0464705514394 0.837 2.34874466228e-38
0.0526666249647 -0.0464705514394 0.837 2.32043927408e-38
0.0543451908809 -0.0465815921836 0.839 2.34820278017e-38
0.0558979106203 -0.0465815921836 0.839 2.34824229678e-38
0.0574506303598 -0.0465815921836 0.839 2.34813593823e-38
0.0591440017085 -0.0466926329278 0.841 2.34852956297e-38
0.0607004228061 -0.0466926329278 0.841 2.3484921483e-38
0.0624048982293 -0.046803673672 0.843 2.34845417311e-38
0.063965020685 -0.046803673672 0.843 2.34845823688e-38
0.0655251431408 -0.046803673672 0.843 2.3482081051e-38
0.0672444239965 -0.0469147144162 0.845 2.34802509552e-38
0.0689711075685 -0.0470257551603 0.847 2.34874676423e-38
0.0707051938568 -0.0471367959045 0.849 2.34838536936e-38
0.0722764203869 -0.0471367959045 0.849 2.34831334262e-38
0.0738476469171 -0.0471367959045 0.849 2.34824145601e-38
0.0754188734472 -0.0471367959045 0.849 2.30214097861e-38
0.0769900999774 -0.0471367959045 0.849 2.34849312921e-38
-0.0108172191622 -0.0448141936721 0.835 1.36269605475e-38
-0.00927190213905 -0.0448141936721 0.835 4.32308423516e-39
-0.00772658511588 -0.0448141936721 0.835 1.96985429675e-38
-0.00616646266014 -0.044706854286 0.833 2.34986233794e-38
-0.00460263884627 -0.044492175514 0.829 2.15441637476e-38
-0.00306842589751 -0.044492175514 0.829 2.11814768764e-38
-0.00153421294876 -0.044492175514 0.829 2.04424923222e-38
0.0 -0.0443848361279 0.827 1.77691875976e-38
0.00153051159062 -0.0443848361279 0.827 1.8875159608e-38
0.00305362046496 -0.0442774967419 0.825 1.78613678132e-38
0.00456932662302 -0.0441701573558 0.823 1.85982448146e-38
0.00609243549736 -0.0441701573558 0.823 1.82315922688e-38
0.0076155443717 -0.0441701573558 0.823 1.89680811105e-38
0.00913865324604 -0.0441701573558 0.823 2.03477883681e-38
0.0106617621204 -0.0441701573558 0.823 2.29295770925e-38
0.0121848709947 -0.0441701573558 0.823 2.29317841376e-38
0.0137412920923 -0.0442774967419 0.825 2.34935506789e-38
0.0152681023248 -0.0442774967419 0.825 2.34871215216e-38
0.0168356274968 -0.0443848361279 0.827 2.34867039347e-38
0.0184105553851 -0.044492175514 0.829 2.34841858013e-38
0.0199447683338 -0.044492175514 0.829 2.34997191948e-38
0.0214789812826 -0.044492175514 0.829 2.35025498177e-38
0.0230131942314 -0.044492175514 0.829 2.34924800869e-38
0.0245474071801 -0.044492175514 0.829 2.34848612272e-38
0.0261445432172 -0.0445995149 0.831 2.34823837315e-38
0.0276824575241 -0.0445995149 0.831 2.2927438711e-38
0.029220371831 -0.0445995149 0.831 2.34834851521e-38
0.0308323133007 -0.044706854286 0.833 2.34824103562e-38
0.0322962004448 -0.0445995149 0.831 2.34853166492e-38
0.0338341147517 -0.0445995149 0.831 2.33895084719e-38
0.0354571602958 -0.044706854286 0.833 2.348169149e-38
0.0369987759609 -0.044706854286 0.833 2.34856375465e-38
0.0385403916259 -0.044706854286 0.833 2.34885536486e-38
0.0401782426026 -0.0448141936721 0.835 2.34863844386e-38
0.0417235596257 -0.0448141936721 0.835 2.01694577242e-38
0.0432688766489 -0.0448141936721 0.835 9.19360953747e-39
0.0448141936721 -0.0448141936721 0.835 4.04076183095e-39
0.0464705514394 -0.0449215330581 0.837 2.34904411977e-38
0.0480195698208 -0.0449215330581 0.837 2.32976757783e-38
0.0495685882021 -0.0449215330581 0.837 2.34806251019e-38
0.051239751402 -0.0450288724442 0.839 2.34831208145e-38
0.0527924711414 -0.0450288724442 0.839 2.3482818134e-38
0.0544747384158 -0.0451362118302 0.841 2.34835103755e-38
0.0560311595134 -0.0451362118302 0.841 2.34831334262e-38
0.057587580611 -0.0451362118302 0.841 2.34824187639e-38
0.0592846533178 -0.0452435512162 0.843 2.34841928078e-38
0.0608447757736 -0.0452435512162 0.843 2.34838382793e-38
0.0625529525549 -0.0453508906023 0.845 2.3205820664e-38
0.0641167763688 -0.0453508906023 0.845 2.34863998529e-38
0.0658360572245 -0.0454582299883 0.847 2.3480259363e-38
0.0675627407965 -0.0455655693744 0.849 2.34806377136e-38
0.0691339673266 -0.0455655693744 0.849 2.34824201652e-38
0.0708717549731 -0.0456729087604 0.851 2.34809558084e-38
0.0724466828613 -0.0456729087604 0.851 2.3482780299e-38
0.0740216107496 -0.0456729087604 0.851 2.34831362288e-38
0.0755965386379 -0.0456729087604 0.851 2.34871005021e-38
0.0771714665262 -0.0456729087604 0.851 2.25586309682e-38
-0.0108172191622 -0.0432688766489 0.835 1.00330531786e-38
-0.00927190213905 -0.0432688766489 0.835 1.28928959521e-38
-0.00772658511588 -0.0432688766489 0.835 1.46936793853e-39
-0.00616646266014 -0.043165238621 0.833 2.35022443346e-38
-0.00460263884627 -0.0429579625652 0.829 2.19136875539e-38
-0.00306842589751 -0.0429579625652 0.829 2.30199019889e-38
-0.00153421294876 -0.0429579625652 0.829 2.21008772067e-38
0.0 -0.0429579625652 0.829 2.14573252817e-38
0.00153051159062 -0.0428543245373 0.827 2.05339564743e-38
0.00306102318124 -0.0428543245373 0.827 2.09027095664e-38
0.00459153477185 -0.0428543245373 0.827 2.09945100301e-38
0.00610724092991 -0.0427506865094 0.825 2.13651478688e-38
0.00763405116239 -0.0427506865094 0.825 2.30246467855e-38
0.00916086139487 -0.0427506865094 0.825 2.21023597804e-38
0.0106876716274 -0.0427506865094 0.825 2.34849551142e-38
0.0122440927249 -0.0428543245373 0.827 2.11764153864e-38
0.0137746043156 -0.0428543245373 0.827 2.34830815781e-38
0.0153051159062 -0.0428543245373 0.827 2.35007365375e-38
0.0168763424363 -0.0429579625652 0.829 2.35040015629e-38
0.0184105553851 -0.0429579625652 0.829 2.35029211618e-38
0.0199447683338 -0.0429579625652 0.829 2.32155246558e-38
0.0214789812826 -0.0429579625652 0.829 2.34841844e-38
0.0230131942314 -0.0429579625652 0.829 2.2926396145e-38
0.0245474071801 -0.0429579625652 0.829 2.34846047896e-38
0.0261445432172 -0.0430616005931 0.831 2.34842208338e-38
0.0276824575241 -0.0430616005931 0.831 2.34834977638e-38
0.029220371831 -0.0430616005931 0.831 2.33891581473e-38
0.0308323133007 -0.043165238621 0.833 2.33884266695e-38
0.0323739289658 -0.043165238621 0.833 2.34799090384e-38
0.0339155446308 -0.043165238621 0.833 2.34810020512e-38
0.0354571602958 -0.043165238621 0.833 2.34856753816e-38
0.0370876085562 -0.0432688766489 0.835 2.30264866904e-38
0.0386329255794 -0.0432688766489 0.835 1.69429792205e-38
0.0402744779142 -0.0433725146768 0.837 6.0611637659e-39
0.0418234962955 -0.0433725146768 0.837 3.94892633479e-39
0.0433725146768 -0.0433725146768 0.837 6.43177778245e-39
0.0449215330581 -0.0433725146768 0.837 2.02040473755e-39
0.0464705514394 -0.0433725146768 0.837 2.30241226999e-38
0.0481343119231 -0.0434761527047 0.839 2.34871271268e-38
0.0496870316625 -0.0434761527047 0.839 2.34838985351e-38
0.0513618962206 -0.0435797907326 0.841 2.34809852356e-38
0.0529183173182 -0.0435797907326 0.841 2.34834991651e-38
0.0546042859506 -0.0436834287605 0.843 2.34827788977e-38
0.0561644084064 -0.0436834287605 0.843 2.34820656367e-38
0.0577245308621 -0.0436834287605 0.843 2.3479939867e-38
0.0594253049271 -0.0437870667884 0.845 2.34842180312e-38
0.0611334817084 -0.0438907048163 0.847 2.34831586495e-38
0.0627010068805 -0.0438907048163 0.847 2.34852956297e-38
0.0642685320525 -0.0438907048163 0.847 2.34824453886e-38
0.0659915142663 -0.0439943428442 0.849 2.34827438652e-38
0.0675627407965 -0.0439943428442 0.849 2.3482442586e-38
0.0692968270848 -0.0440979808721 0.851 2.34870738774e-38
0.0708717549731 -0.0440979808721 0.851 2.34842180312e-38
0.0724466828613 -0.0440979808721 0.851 2.34838845221e-38
0.0740216107496 -0.0440979808721 0.851 2.34831488404e-38
0.075863036424 -0.044253437914 0.854 2.34838621014e-38
0.0774435163495 -0.044253437914 0.854 2.34852774128e-38
-0.00927190213905 -0.0417235596257 0.835 1.30747704798e-38
-0.00770807832518 -0.041623622956 0.833 1.01019045774e-39
-0.00615165722759 -0.0415236862862 0.831 2.3483339417e-38
-0.00460263884627 -0.0414237496164 0.829 2.34986135703e-38
-0.00306842589751 -0.0414237496164 0.829 2.34881696928e-38
-0.00153421294876 -0.0414237496164 0.829 2.26511797253e-38
0.0 -0.0414237496164 0.829 2.30228685378e-38
0.00153421294876 -0.0414237496164 0.829 2.34860271075e-38
0.00306102318124 -0.0413238129467 0.827 2.34906752145e-38
0.00459153477185 -0.0413238129467 0.827 2.34863718269e-38
0.00612204636247 -0.0413238129467 0.827 2.34882047253e-38
0.00765255795309 -0.0413238129467 0.827 2.34860046867e-38
0.00918306954371 -0.0413238129467 0.827 2.34856641712e-38
0.0107135811343 -0.0413238129467 0.827 2.34964387551e-38
0.0122737035901 -0.0414237496164 0.829 2.35029141553e-38
0.0138079165388 -0.0414237496164 0.829 2.35032995124e-38
0.0153421294876 -0.0414237496164 0.829 2.34895765965e-38
0.0168763424363 -0.0414237496164 0.829 2.30167798959e-38
0.0184105553851 -0.0414237496164 0.829 2.23717664167e-38
0.0199447683338 -0.0414237496164 0.829 2.24650284347e-38
0.0214789812826 -0.0414237496164 0.829 2.3482428573e-38
0.0230687146034 -0.0415236862862 0.831 2.30196637682e-38
0.0246066289103 -0.0415236862862 0.831 2.25586912241e-38
0.0261445432172 -0.0415236862862 0.831 2.34856557634e-38
0.0276824575241 -0.0415236862862 0.831 2.29299722587e-38
0.0292906976357 -0.041623622956 0.833 2.29296219341e-38
0.0308323133007 -0.041623622956 0.833 2.34820628341e-38
0.0323739289658 -0.041623622956 0.833 2.34809782291e-38
0.0339155446308 -0.041623622956 0.833 2.33001813e-38
0.0354571602958 -0.041623622956 0.833 2.34903445081e-38
0.0370876085562 -0.0417235596257 0.835 4.68361030406e-39
0.0386329255794 -0.0417235596257 0.835 6.42848473106e-40
0.0402744779142 -0.0418234962955 0.837 7.0850813434e-39
0.0419234329653 -0.0419234329653 0.839 7.63895296921e-39
0.0434761527047 -0.0419234329653 0.839 8.37615787442e-39
0.0450288724442 -0.0419234329653 0.839 4.22735032667e-39
0.0465815921836 -0.0419234329653 0.839 1.19581878375e-38
0.0481343119231 -0.0419234329653 0.839 2.34957030734e-38
0.049805475123 -0.042023369635 0.841 2.32991275235e-38
0.0514840410392 -0.0421233063048 0.843 2.34856487569e-38
0.0530441634949 -0.0421233063048 0.843 2.34856515595e-38
0.0546042859506 -0.0421233063048 0.843 2.34842362481e-38
0.0562976572994 -0.0422232429745 0.845 2.34802761786e-38
0.0578614811133 -0.0422232429745 0.845 2.34835061716e-38
0.0595659565364 -0.0423231796443 0.847 2.34849382986e-38
0.0612778346759 -0.0424231163141 0.849 2.34834865534e-38
0.062849061206 -0.0424231163141 0.849 2.32047486706e-38
0.0645720434199 -0.0425230529838 0.851 2.3483864904e-38
0.0661469713082 -0.0425230529838 0.851 2.34834851521e-38
0.0677218991965 -0.0425230529838 0.851 2.34849326934e-38
0.069541116722 -0.0426729579885 0.854 2.34802201267e-38
0.0711215966475 -0.0426729579885 0.854 2.34842222351e-38
0.072702076573 -0.0426729579885 0.854 2.34892599031e-38
0.0742825564985 -0.0426729579885 0.854 2.34835047703e-38
0.0760407016146 -0.0427728946582 0.856 2.3479897828e-38
0.0776248828983 -0.0427728946582 0.856 2.34852886232e-38
-0.00927190213905 -0.0401782426026 0.835 2.02588605662e-38
-0.00770807832518 -0.0400820072909 0.833 5.05274595072e-39
-0.00613685179503 -0.0398895366677 0.829 9.02112931469e-39
-0.00460263884627 -0.0398895366677 0.829 2.35068770273e-38
-0.00306842589751 -0.0398895366677 0.829 2.3501128901e-38
-0.00153421294876 -0.0398895366677 0.829 2.35014932386e-38
0.0 -0.0398895366677 0.829 2.34960309772e-38
0.00153421294876 -0.0398895366677 0.829 2.34878095591e-38
0.00306842589751 -0.0398895366677 0.829 2.21884093152e-38
0.00460263884627 -0.0398895366677 0.829 2.34892627056e-38
0.00613685179503 -0.0398895366677 0.829 2.35003161479e-38
0.00767106474379 -0.0398895366677 0.829 2.350221771e-38
0.00920527769254 -0.0398895366677 0.829 2.3497499538e-38
0.0107394906413 -0.0398895366677 0.829 2.34888899603e-38
0.0122737035901 -0.0398895366677 0.829 2.32005027363e-38
0.0138079165388 -0.0398895366677 0.829 2.34780691335e-38
0.0153421294876 -0.0398895366677 0.829 2.32951464346e-38
0.0168763424363 -0.0398895366677 0.829 2.34831530443e-38
0.0184105553851 -0.0398895366677 0.829 2.34845697571e-38
0.0199447683338 -0.0398895366677 0.829 2.34834907573e-38
0.0215308002966 -0.0399857719793 0.831 2.34845669545e-38
0.0230687146034 -0.0399857719793 0.831 2.31122125253e-38
0.0246066289103 -0.0399857719793 0.831 2.34846159999e-38
0.0261445432172 -0.0399857719793 0.831 2.29288778446e-38
0.0277490819706 -0.0400820072909 0.833 2.34824103562e-38
0.0292906976357 -0.0400820072909 0.833 2.32054675368e-38
0.0308323133007 -0.0400820072909 0.833 2.34802831851e-38
0.0323739289658 -0.0400820072909 0.833 2.34852816167e-38
0.0339155446308 -0.0400820072909 0.833 2.30225182132e-38
0.035542291533 -0.0401782426026 0.835 2.34925067116e-38
0.0371764411516 -0.0402744779142 0.837 9.93724640263e-39
0.0387254595329 -0.0402744779142 0.837 8.44998248141e-39
0.0403707132258 -0.0403707132258 0.839 7.54605388752e-39
0.042023369635 -0.0404669485374 0.841 7.54711186786e-39
0.0435797907326 -0.0404669485374 0.841 7.82370296135e-39
0.0451362118302 -0.0404669485374 0.841 6.90103760569e-39
0.0466926329278 -0.0404669485374 0.841 2.0204481778e-39
0.0483637961277 -0.040563183849 0.843 2.34936403621e-38
0.0499239185834 -0.040563183849 0.843 2.34860425218e-38
0.0514840410392 -0.040563183849 0.843 2.33909293885e-38
0.0531700096716 -0.0406594191607 0.845 2.34830969924e-38
0.0547338334855 -0.0406594191607 0.845 2.34798936241e-38
0.0564309061924 -0.0407556544723 0.847 2.34835103755e-38
0.0579984313644 -0.0407556544723 0.847 2.3484212426e-38
0.0597066081457 -0.0408518897839 0.849 2.34845851714e-38
0.0614221876433 -0.0409481250955 0.851 2.34828279431e-38
0.0629971155316 -0.0409481250955 0.851 2.34874704449e-38
0.0645720434199 -0.0409481250955 0.851 2.2743407585e-38
0.066380156871 -0.041092478063 0.854 2.34849340947e-38
0.0679606367965 -0.041092478063 0.854 2.34802705734e-38
0.069541116722 -0.041092478063 0.854 2.34842222351e-38
0.0712881577637 -0.0411887133746 0.856 2.3483503369e-38
0.0730426015218 -0.0412849486862 0.858 2.34863844386e-38
0.0746304841636 -0.0412849486862 0.858 2.34809852356e-38
0.076396031996 -0.0413811839978 0.86 2.34867235528e-38
0.0779876159959 -0.0413811839978 0.86 2.34859864698e-38
-0.00927190213905 -0.0386329255794 0.835 2.07187190781e-38
-0.00770807832518 -0.0385403916259 0.833 1.86918473481e-38
-0.00613685179503 -0.0383553237189 0.829 4.86728129637e-39
-0.00460263884627 -0.0383553237189 0.829 2.35076435376e-38
-0.00306842589751 -0.0383553237189 0.829 2.35076379324e-38
-0.00153421294876 -0.0383553237189 0.829 2.35032756903e-38
0.0 -0.0383553237189 0.829 2.34989484806e-38
0.00153421294876 -0.0383553237189 0.829 2.35025568242e-38
0.00306842589751 -0.0383553237189 0.829 2.34982436275e-38
0.00460263884627 -0.0383553237189 0.829 2.34899605523e-38
0.00613685179503 -0.0383553237189 0.829 2.34831236171e-38
0.00767106474379 -0.0383553237189 0.829 2.32047668875e-38
0.00922748584138 -0.0384478576724 0.831 2.34823963432e-38
0.0107654001483 -0.0384478576724 0.831 2.22835084355e-38
0.0123033144552 -0.0384478576724 0.831 2.33884112552e-38
0.0138079165388 -0.0383553237189 0.829 2.23774893196e-38
0.0153421294876 -0.0383553237189 0.829 2.34813593823e-38
0.0168763424363 -0.0383553237189 0.829 2.32958681033e-38
0.0184549716828 -0.0384478576724 0.831 2.32962156253e-38
0.0199928859897 -0.0384478576724 0.831 2.34835019677e-38
0.0215308002966 -0.0384478576724 0.831 2.29303099716e-38
0.0230687146034 -0.0384478576724 0.831 2.34838621014e-38
0.0246066289103 -0.0384478576724 0.831 2.3480259363e-38
0.0262074663056 -0.0385403916259 0.833 2.32976659692e-38
0.0277490819706 -0.0385403916259 0.833 2.34820348082e-38
0.0293610234403 -0.0386329255794 0.835 2.34824215665e-38
0.0309063404635 -0.0386329255794 0.835 2.34846033883e-38
0.0324516574867 -0.0386329255794 0.835 2.34824061523e-38
0.0340784043889 -0.0387254595329 0.837 2.34820908601e-38
0.0356274227702 -0.0387254595329 0.837 2.34881766993e-38
0.0372652737469 -0.0388179934863 0.839 2.34860369166e-38
0.0388179934863 -0.0388179934863 0.839 5.51014658506e-39
0.0404669485374 -0.0389105274398 0.841 7.45207160212e-39
0.0421233063048 -0.0390030613933 0.843 7.73079827446e-39
0.0436834287605 -0.0390030613933 0.843 7.82335263673e-39
0.0452435512162 -0.0390030613933 0.843 7.82080647742e-39
0.0469147144162 -0.0390955953468 0.845 2.11226685838e-39
0.04847853823 -0.0390955953468 0.845 2.02583112572e-38
0.0500423620439 -0.0390955953468 0.845 2.28464282455e-38
0.0516061858578 -0.0390955953468 0.845 2.348169149e-38
0.0531700096716 -0.0390955953468 0.845 2.34845753623e-38
0.0548633810204 -0.0391881293003 0.847 2.348169149e-38
0.0565641550854 -0.0392806632538 0.849 2.34849382986e-38
0.0581353816156 -0.0392806632538 0.849 2.34845711584e-38
0.060058237169 -0.0395119981375 0.854 2.34813495732e-38
0.0616387170945 -0.0395119981375 0.854 2.34846033883e-38
0.0633672513455 -0.039604532091 0.856 2.34838621014e-38
0.0649514326292 -0.039604532091 0.856 2.34838578975e-38
0.0665356139128 -0.039604532091 0.856 2.34838466871e-38
0.0682789535964 -0.0396970660444 0.858 2.34870920943e-38
0.0698668362382 -0.0396970660444 0.858 2.34845991844e-38
0.07145471888 -0.0396970660444 0.858 2.34842222351e-38
0.0732128639962 -0.0397895999979 0.86 2.3484226439e-38
0.0748044479961 -0.0397895999979 0.86 2.34867389671e-38
0.076396031996 -0.0397895999979 0.86 2.34831586495e-38
0.0779876159959 -0.0397895999979 0.86 2.34878193682e-38
-0.00927190213905 -0.0370876085562 0.835 2.16410299052e-38
-0.00770807832518 -0.0369987759609 0.833 2.03524574946e-38
-0.00613685179503 -0.0368211107702 0.829 1.68483046936e-38
-0.00460263884627 -0.0368211107702 0.829 2.34821272939e-38
-0.00306842589751 -0.0368211107702 0.829 2.34831880768e-38
-0.00153421294876 -0.0368211107702 0.829 2.34802383435e-38
0.0 -0.0368211107702 0.829 2.34773572739e-38
0.00153421294876 -0.0368211107702 0.829 2.34795138722e-38
0.00306842589751 -0.0368211107702 0.829 2.23735390593e-38
0.00460263884627 -0.0368211107702 0.829 2.29306757105e-38
0.00613685179503 -0.0368211107702 0.829 2.2745928521e-38
0.00767106474379 -0.0368211107702 0.829 2.34834935599e-38
0.00922748584138 -0.0369099433655 0.831 2.30203700226e-38
0.0107654001483 -0.0369099433655 0.831 2.32969625174e-38
0.0123033144552 -0.0369099433655 0.831 2.34842068208e-38
0.0138412287621 -0.0369099433655 0.831 2.25615442677e-38
0.015379143069 -0.0369099433655 0.831 2.34853390699e-38
0.0169170573759 -0.0369099433655 0.831 2.32036920916e-38
0.0184549716828 -0.0369099433655 0.831 2.3484240452e-38
0.0199928859897 -0.0369099433655 0.831 2.34863592152e-38
0.0215308002966 -0.0369099433655 0.831 2.32061864029e-38
0.0230687146034 -0.0369099433655 0.831 2.34809796304e-38
0.0246658506406 -0.0369987759609 0.833 2.3480606885e-38
0.026270389394 -0.0370876085562 0.835 2.34813383628e-38
0.0278157064172 -0.0370876085562 0.835 2.32973100394e-38
0.0293610234403 -0.0370876085562 0.835 2.34842152286e-38
0.0309803676263 -0.0371764411516 0.837 2.34838635027e-38
0.0325293860076 -0.0371764411516 0.837 2.34917822403e-38
0.034159834268 -0.0372652737469 0.839 2.23789690908e-38
0.0357976852446 -0.0373541063422 0.841 2.1830792342e-38
0.0373541063422 -0.0373541063422 0.841 2.34982996794e-38
0.0389105274398 -0.0373541063422 0.841 4.31626831943e-39
0.040563183849 -0.0374429389376 0.843 6.80239880549e-39
0.0422232429745 -0.0375317715329 0.845 7.45385685636e-39
0.0437870667884 -0.0375317715329 0.845 5.79144604139e-39
0.0453508906023 -0.0375317715329 0.845 8.91893542029e-39
0.0470257551603 -0.0376206041283 0.847 1.40731956357e-38
0.0485932803324 -0.0376206041283 0.847 2.21957296984e-38
0.0502792489648 -0.0377094367236 0.849 2.3401772636e-38
0.0519726203136 -0.037798269319 0.851 2.34870920943e-38
0.0535475482019 -0.037798269319 0.851 2.34802957968e-38
0.0551224760902 -0.037798269319 0.851 2.34806419175e-38
0.0566974039784 -0.037798269319 0.851 2.34845893753e-38
0.0582723318667 -0.037798269319 0.851 2.34856501582e-38
0.0603395403876 -0.0381091834027 0.858 2.34842236364e-38
0.0619274230293 -0.0381091834027 0.858 2.34835201845e-38
0.0635153056711 -0.0381091834027 0.858 2.34860271075e-38
0.0651031883129 -0.0381091834027 0.858 2.34870752787e-38
0.0666910709547 -0.0381091834027 0.858 2.34823753237e-38
0.0684381119964 -0.038198015998 0.86 2.34838452858e-38
0.0700296959964 -0.038198015998 0.86 2.34831376301e-38
0.0716212799963 -0.038198015998 0.86 2.34831306236e-38
0.0733831264706 -0.0382868485934 0.862 2.34813467706e-38
0.0749784118287 -0.0382868485934 0.862 2.34867095398e-38
0.0765736971867 -0.0382868485934 0.862 2.34824397834e-38
-0.0108172191622 -0.035542291533 0.835 2.07158492188e-38
-0.00927190213905 -0.035542291533 0.835 2.0994622134e-38
-0.00770807832518 -0.0354571602958 0.833 2.04439300544e-38
-0.00613685179503 -0.0352868978214 0.829 1.93357846301e-38
-0.00460263884627 -0.0352868978214 0.829 2.15452203266e-38
-0.00306842589751 -0.0352868978214 0.829 2.30235930091e-38
-0.00153421294876 -0.0352868978214 0.829 2.33888036187e-38
0.0 -0.0352868978214 0.829 2.31104174619e-38
0.00153421294876 -0.0352868978214 0.829 2.34810006499e-38
0.00306842589751 -0.0352868978214 0.829 2.32051144095e-38
0.00461374292069 -0.0353720290586 0.831 2.29299750613e-38
0.00615165722759 -0.0353720290586 0.831 2.30214490224e-38
0.00768957153448 -0.0353720290586 0.831 2.31125474356e-38
0.00922748584138 -0.0353720290586 0.831 2.34824383821e-38
0.0107913096553 -0.0354571602958 0.833 2.32065787664e-38
0.0123033144552 -0.0353720290586 0.831 2.34860215023e-38
0.0138412287621 -0.0353720290586 0.831 2.32061864029e-38
0.015379143069 -0.0353720290586 0.831 2.34831404327e-38
0.0169170573759 -0.0353720290586 0.831 2.33891553447e-38
0.0184993879804 -0.0354571602958 0.833 2.34817125095e-38
0.0200410036455 -0.0354571602958 0.833 2.32948087216e-38
0.0215826193105 -0.0354571602958 0.833 2.33881057721e-38
0.0231797553476 -0.035542291533 0.835 2.34809936434e-38
0.0247250723708 -0.035542291533 0.835 2.34838494897e-38
0.0263962355707 -0.0357125540074 0.839 2.34835117768e-38
0.0279489553102 -0.0357125540074 0.839 2.34878459929e-38
0.0295016750496 -0.0357125540074 0.839 2.34892711134e-38
0.0311284219519 -0.0357976852446 0.841 2.19233635198e-38
0.0326848430495 -0.0357976852446 0.841 1.30729852256e-38
0.0342412641471 -0.0357976852446 0.841 7.71425314349e-39
0.0358828164819 -0.0358828164819 0.843 1.46936793853e-39
0.0374429389376 -0.0358828164819 0.843 2.34980054068e-38
0.0390030613933 -0.0358828164819 0.843 1.85081987766e-38
0.0406594191607 -0.0359679477191 0.845 4.22446084924e-39
0.0422232429745 -0.0359679477191 0.845 1.26856719352e-38
0.0437870667884 -0.0359679477191 0.845 1.8227738698e-38
0.0454582299883 -0.0360530789563 0.847 1.49187783654e-38
0.0470257551603 -0.0360530789563 0.847 1.63849233175e-38
0.0487080224347 -0.0361382101935 0.849 9.46270788807e-39
0.0503976924253 -0.0362233414307 0.851 1.7569547408e-38
0.0519726203136 -0.0362233414307 0.851 2.34900474328e-38
0.0535475482019 -0.0362233414307 0.851 2.34835089742e-38
0.0553167973925 -0.0363510382865 0.854 2.34853054388e-38
0.056897277318 -0.0363510382865 0.854 2.34835047703e-38
0.0584777572435 -0.0363510382865 0.854 2.34838410819e-38
0.0603395403876 -0.0365213007609 0.858 2.34827760951e-38
0.0620717759968 -0.0366064319981 0.86 2.3485606718e-38
0.0636633599967 -0.0366064319981 0.86 2.34842068208e-38
0.0652549439966 -0.0366064319981 0.86 2.34831432353e-38
0.0668465279965 -0.0366064319981 0.86 2.3484573961e-38
0.0685972703964 -0.0366915632353 0.862 2.3487813763e-38
0.0701925557545 -0.0366915632353 0.862 2.34813257511e-38
0.0719544022288 -0.0367766944725 0.864 2.34842432545e-38
0.073553388945 -0.0367766944725 0.864 2.34856655725e-38
0.0751523756612 -0.0367766944725 0.864 2.34881766993e-38
0.0767513623774 -0.0367766944725 0.864 2.34799034332e-38
-0.0108172191622 -0.0339969745099 0.835 2.00740825481e-38
-0.00927190213905 -0.0339969745099 0.835 2.12718956598e-38
-0.00772658511588 -0.0339969745099 0.835 2.07172995627e-38
-0.00615165722759 -0.0338341147517 0.831 2.00719273511e-38
-0.00461374292069 -0.0338341147517 0.831 2.1177179094e-38
-0.00307582861379 -0.0338341147517 0.831 2.34878179669e-38
-0.00153421294876 -0.0337526848727 0.829 2.30203546083e-38
0.0 -0.0337526848727 0.829 2.34809600122e-38
0.0015379143069 -0.0338341147517 0.831 2.34849396999e-38
0.00307582861379 -0.0338341147517 0.831 2.32994778481e-38
0.00461374292069 -0.0338341147517 0.831 2.34860243049e-38
0.00615165722759 -0.0338341147517 0.831 2.29307205521e-38
0.00768957153448 -0.0338341147517 0.831 2.34878221708e-38
0.00924969399022 -0.0339155446308 0.833 2.3484587974e-38
0.0107913096553 -0.0339155446308 0.833 2.34831502417e-38
0.0123329253203 -0.0339155446308 0.833 2.34835145793e-38
0.0138745409853 -0.0339155446308 0.833 2.3481681681e-38
0.0154531702318 -0.0339969745099 0.835 2.34827845028e-38
0.0169984872549 -0.0339969745099 0.835 2.30218315769e-38
0.0185438042781 -0.0339969745099 0.835 2.34853026362e-38
0.0201372389571 -0.0340784043889 0.837 2.33898615991e-38
0.0216862573384 -0.0340784043889 0.837 2.34831586495e-38
0.0232907960918 -0.034159834268 0.839 2.34853166492e-38
0.0248435158313 -0.034159834268 0.839 2.34882019227e-38
0.0264591586591 -0.0342412641471 0.841 2.34885592538e-38
0.0280155797567 -0.0342412641471 0.841 1.81437252499e-38
0.0295720008543 -0.0342412641471 0.841 6.88772947418e-39
0.0312024491147 -0.0343226940261 0.843 4.5917748079e-39
0.0327625715704 -0.0343226940261 0.843 5.14323479906e-39
0.0343226940261 -0.0343226940261 0.843 8.00344050887e-39
0.0359679477191 -0.0344041239052 0.845 1.83674355432e-39
0.0375317715329 -0.0344041239052 0.845 2.34840064351e-38
0.0390955953468 -0.0344041239052 0.845 2.34961038448e-38
0.0407556544723 -0.0344855537843 0.847 2.12746492113e-38
0.0423231796443 -0.0344855537843 0.847 1.92497925486e-38
0.0439943428442 -0.0345669836633 0.849 9.56599899917e-39
0.0455655693744 -0.0345669836633 0.849 6.61221457791e-39
0.0472478366487 -0.0346484135424 0.851 6.43608257133e-39
0.048822764537 -0.0346484135424 0.851 2.47961304691e-39
0.0503976924253 -0.0346484135424 0.851 8.00379363609e-39
0.0521558375415 -0.034770558361 0.854 2.34957282968e-38
0.053736317467 -0.034770558361 0.854 2.34874606358e-38
0.0554463449273 -0.03485198824 0.856 2.34816970952e-38
0.057163775104 -0.0349334181191 0.858 2.34867305593e-38
0.0588886079969 -0.0350148479982 0.86 2.34845753623e-38
0.0606208436061 -0.0350962778772 0.862 2.3484611796e-38
0.0622161289642 -0.0350962778772 0.862 2.3488175298e-38
0.0638114143223 -0.0350962778772 0.862 2.34849312921e-38
0.0654066996803 -0.0350962778772 0.862 2.34853040375e-38
0.0670019850384 -0.0350962778772 0.862 2.34806391149e-38
0.0689951663964 -0.0352998525749 0.867 2.34853278596e-38
0.0705997051498 -0.0352998525749 0.867 2.34863760308e-38
0.0723708050195 -0.035381282454 0.869 2.34881879097e-38
0.073979045131 -0.035381282454 0.869 2.34849439038e-38
0.0757612490751 -0.035462712333 0.871 2.34856669738e-38
0.0777285209262 -0.0356255720912 0.875 2.3484212426e-38
0.0793478651121 -0.0356255720912 0.875 2.34903627249e-38
-0.0108690381762 -0.0326071145285 0.839 2.10878617312e-38
-0.00931631843672 -0.0326071145285 0.839 2.06258171938e-38
-0.00774509190657 -0.0325293860076 0.837 2.10892265959e-38
-0.00616646266014 -0.0323739289658 0.833 2.11800293351e-38
-0.00462484699511 -0.0323739289658 0.833 2.03474380435e-38
-0.00307582861379 -0.0322962004448 0.831 2.33916342416e-38
-0.0015379143069 -0.0322962004448 0.831 2.34806096876e-38
0.0 -0.0322962004448 0.831 2.3388058128e-38
0.0015379143069 -0.0322962004448 0.831 2.34820586302e-38
0.00307582861379 -0.0322962004448 0.831 2.34845711584e-38
0.00462484699511 -0.0323739289658 0.833 2.34853096427e-38
0.00616646266014 -0.0323739289658 0.833 2.34885354317e-38
0.00770807832518 -0.0323739289658 0.833 1.9988341299e-38
0.00927190213905 -0.0324516574867 0.835 1.83291899042e-38
0.0108172191622 -0.0324516574867 0.835 1.77756559914e-38
0.0123625361854 -0.0324516574867 0.835 2.26594810174e-38
0.0139078532086 -0.0324516574867 0.835 2.33009295933e-38
0.0154531702318 -0.0324516574867 0.835 2.3297312842e-38
0.0170392021945 -0.0325293860076 0.837 2.34853012349e-38
0.0185882205758 -0.0325293860076 0.837 2.34838536936e-38
0.0202334742687 -0.0326848430495 0.841 2.34885662603e-38
0.0217898953663 -0.0326848430495 0.841 2.24758310446e-38
0.023401836836 -0.0327625715704 0.843 1.42722122475e-38
0.0249619592917 -0.0327625715704 0.843 8.26528994251e-39
0.0265220817475 -0.0327625715704 0.843 6.88773087547e-39
0.0280822042032 -0.0327625715704 0.843 3.39791335785e-39
0.0296423266589 -0.0327625715704 0.843 5.32864059887e-39
0.0312764762774 -0.0328403000913 0.845 8.18855764121e-39
0.0328403000913 -0.0328403000913 0.845 7.72900461243e-39
0.0344041239052 -0.0328403000913 0.845 8.18926109303e-39
0.0359679477191 -0.0328403000913 0.845 3.94898518933e-39
0.0376206041283 -0.0329180286122 0.847 1.24212300994e-38
0.0391881293003 -0.0329180286122 0.847 2.35018323529e-38
0.0408518897839 -0.0329957571332 0.849 1.50961771458e-38
0.0424231163141 -0.0329957571332 0.849 3.76528757234e-39
0.0440979808721 -0.0330734856541 0.851 5.97659820618e-39
0.0456729087604 -0.0330734856541 0.851 8.0045139035e-39
0.047414397765 -0.0331900784355 0.854 2.66322938858e-39
0.0489948776905 -0.0331900784355 0.854 1.44366700365e-38
0.050575357616 -0.0331900784355 0.854 2.34897125225e-38
0.0522779823601 -0.0332678069564 0.856 2.34860271075e-38
0.0538621636437 -0.0332678069564 0.856 2.34867095398e-38
0.0555758924622 -0.0333455354773 0.858 2.34835019677e-38
0.057297023997 -0.0334232639983 0.86 2.34878081578e-38
0.0588886079969 -0.0334232639983 0.86 2.34835061716e-38
0.0607614952154 -0.0335787210401 0.864 2.34831488404e-38
0.0623604819316 -0.0335787210401 0.864 2.3485644553e-38
0.0639594686478 -0.0335787210401 0.864 2.34802803825e-38
0.0657860888896 -0.0336953138215 0.867 2.34849747323e-38
0.067390627643 -0.0336953138215 0.867 2.34863802347e-38
0.0689951663964 -0.0336953138215 0.867 2.34856837894e-38
0.0707625649079 -0.0337730423424 0.869 2.34856473556e-38
0.0725373661358 -0.0338507708634 0.871 2.34842306429e-38
0.0743195700798 -0.0339284993843 0.873 2.34845823688e-38
0.0759352129077 -0.0339284993843 0.873 2.34860285088e-38
0.0777285209262 -0.0340062279052 0.875 2.34806222993e-38
0.0793478651121 -0.0340062279052 0.875 2.34936109348e-38
-0.0124809796459 -0.0312024491147 0.843 2.0896646148e-38
-0.0108949476832 -0.0311284219519 0.841 2.14537673849e-38
-0.00933852658556 -0.0311284219519 0.841 1.859789449e-38
-0.00776359869727 -0.0310543947891 0.839 2.09052627322e-38
-0.00621087895782 -0.0310543947891 0.839 2.08109175105e-38
-0.00464705514394 -0.0309803676263 0.837 2.0070832937e-38
-0.00309063404635 -0.0309063404635 0.835 2.34841914065e-38
-0.00154161566504 -0.0308323133007 0.833 2.25611967457e-38
0.0 -0.0308323133007 0.833 2.33898363757e-38
0.00154161566504 -0.0308323133007 0.833 2.34856459543e-38
0.00308323133007 -0.0308323133007 0.833 2.34871411398e-38
0.00462484699511 -0.0308323133007 0.833 1.42665215744e-38
0.00616646266014 -0.0308323133007 0.833 7.07138785481e-39
0.00772658511588 -0.0309063404635 0.835 3.30608907208e-39
0.00927190213905 -0.0309063404635 0.835 3.30612970973e-39
0.0108172191622 -0.0309063404635 0.835 1.83701820882e-40
