# .PCD v0.7 - Point Cloud Data file format
VERSION 0.7
FIELDS x y z rgb
SIZE 4 4 4 4
TYPE F F F F
COUNT 1 1 1 1
WIDTH 855
HEIGHT 1
VIEWPOINT 0 0 0 1 0 0 0
POINTS 855
DATA ascii
-0.0130287806505 -0.156345367806 0.88 1.50127088028e-38
-0.0114001830692 -0.156345367806 0.88 1.15135880646e-38
-0.00977158548786 -0.156345367806 0.88 6.34490008026e-39
-0.00814298790655 -0.156345367806 0.88 4.68364954041e-39
-0.00651439032524 -0.156345367806 0.88 4.90454462514e-44
-0.00488579274393 -0.156345367806 0.88 5.59008785985e-40
-0.00325719516262 -0.156345367806 0.88 1.29656121321e-39
-0.00162859758131 -0.156345367806 0.88 1.39199664512e-39
0.0 -0.156345367806 0.88 1.85297059054e-39
0.00162859758131 -0.156345367806 0.88 2.12919874772e-39
0.00325719516262 -0.156345367806 0.88 1.57674383466e-39
0.00488579274393 -0.156345367806 0.88 2.40542270101e-39
0.00651439032524 -0.156345367806 0.88 2.12884281791e-39
0.00816149469725 -0.156700698187 0.882 2.31251100763e-39
0.0097937936367 -0.156700698187 0.882 5.81233519759e-39
0.0114260925761 -0.156700698187 0.882 7.00977416263e-39
0.0130583915156 -0.156700698187 0.882 5.99744532343e-39
0.014690690455 -0.156700698187 0.882 6.63918677075e-39
0.0163785097666 -0.157233693759 0.885 6.91471007481e-39
0.0180163607432 -0.157233693759 0.885 6.17749816311e-39
0.0196542117199 -0.157233693759 0.885 4.24068087896e-39
0.0212920626966 -0.157233693759 0.885 2.67801168608e-39
0.0229299136732 -0.157233693759 0.885 1.10388407566e-39
0.0245677646499 -0.157233693759 0.885 0.0
0.0262056156265 -0.157233693759 0.885 2.75506488474e-40
0.0278434666032 -0.157233693759 0.885 5.60198067992e-39
0.0294813175799 -0.157233693759 0.885 1.69394647639e-38
0.0310136798495 -0.156700698187 0.882 1.99919412347e-38
0.032645978789 -0.156700698187 0.882 2.11904998372e-38
0.0342782777284 -0.156700698187 0.882 2.22006916963e-38
0.0358291467888 -0.156345367806 0.88 2.14606071227e-38
0.0374577443701 -0.156345367806 0.88 2.16442711086e-38
0.0390863419515 -0.156345367806 0.88 2.19194132594e-38
0.0407149395328 -0.156345367806 0.88 2.12758557293e-38
0.0424397724257 -0.156700698187 0.882 2.2380354975e-38
0.0442219763698 -0.157233693759 0.885 2.34900124003e-38
0.0458598273464 -0.157233693759 0.885 1.89731005616e-38
0.0474976783231 -0.157233693759 0.885 8.26581122554e-40
0.0492465700439 -0.157589024141 0.887 6.51913472872e-40
0.0510028644811 -0.157944354522 0.889 4.52089292768e-39
0.052648118174 -0.157944354522 0.889 4.79315120631e-39
0.0542933718669 -0.157944354522 0.889 5.32493416443e-44
0.0559386255599 -0.157944354522 0.889 2.12799419156e-38
0.0575838792528 -0.157944354522 0.889 1.72210753085e-38
-0.0480880449463 -0.15752980241 0.896 1.60214559231e-38
-0.0461707414302 -0.156650729852 0.891 1.62987588762e-38
-0.0445217863791 -0.156650729852 0.891 1.51913197063e-38
-0.0427765960164 -0.156299100829 0.889 1.51952881836e-38
-0.0411313423234 -0.156299100829 0.889 1.52856859475e-38
-0.0394860886305 -0.156299100829 0.889 1.53775312527e-38
-0.0378408349376 -0.156299100829 0.889 1.56537594099e-38
-0.0361141513656 -0.155947471806 0.887 1.53778815774e-38
-0.0344725990308 -0.155947471806 0.887 1.53778815774e-38
-0.032831046696 -0.155947471806 0.887 1.54715191433e-38
-0.0311894943612 -0.155947471806 0.887 1.55619421307e-38
-0.0295479420264 -0.155947471806 0.887 1.52874880173e-38
-0.0278434666032 -0.155595842783 0.885 1.52871320875e-38
-0.0262056156265 -0.155595842783 0.885 1.51952909862e-38
-0.0245677646499 -0.155595842783 0.885 1.56541153397e-38
-0.0229299136732 -0.155595842783 0.885 1.5838138058e-38
-0.0213401803524 -0.155947471806 0.887 1.56530587607e-38
-0.0196542117199 -0.155595842783 0.885 1.56537594099e-38
-0.0179552883339 -0.155068399248 0.882 1.58385094021e-38
-0.0162859758131 -0.154716770224 0.88 1.59307050319e-38
-0.0146573782318 -0.154716770224 0.88 1.63916775761e-38
-0.0130287806505 -0.154716770224 0.88 1.65757058995e-38
-0.0114001830692 -0.154716770224 0.88 1.65771674538e-38
-0.00977158548786 -0.154716770224 0.88 1.73143555434e-38
-0.00814298790655 -0.154716770224 0.88 1.62090869849e-38
-0.00651439032524 -0.154716770224 0.88 1.34482599608e-38
-0.00487468866951 -0.154365141201 0.878 9.57821131529e-39
-0.00324979244634 -0.154365141201 0.878 6.71125695207e-39
-0.00162489622317 -0.154365141201 0.878 4.49998975849e-39
0.0 -0.154365141201 0.878 6.58610278233e-44
0.00162489622317 -0.154365141201 0.878 6.58610278233e-44
0.00324979244634 -0.154365141201 0.878 1.88038839629e-40
0.00487468866951 -0.154365141201 0.878 1.84973359109e-39
0.00649958489268 -0.154365141201 0.878 1.57171877836e-39
0.00812448111586 -0.154365141201 0.878 2.4933051342e-39
0.00977158548786 -0.154716770224 0.88 1.11613142424e-39
0.0114001830692 -0.154716770224 0.88 2.68201519579e-39
0.0130287806505 -0.154716770224 0.88 3.42137529803e-39
0.0146573782318 -0.154716770224 0.88 6.36370410435e-39
0.0162859758131 -0.154716770224 0.88 7.10090340436e-39
0.0179145733944 -0.154716770224 0.88 6.73319708213e-39
0.0195431709757 -0.154716770224 0.88 7.56042980847e-39
0.021171768557 -0.154716770224 0.88 7.83486850751e-39
0.0228003661383 -0.154716770224 0.88 6.72958313339e-39
0.0244289637197 -0.154716770224 0.88 7.0973034686e-39
0.026057561301 -0.154716770224 0.88 5.62502783576e-39
0.0277490819706 -0.155068399248 0.882 5.16622029777e-39
0.0293813809101 -0.155068399248 0.882 5.6051938573e-44
0.0309433540449 -0.154716770224 0.88 0.0
0.0325719516262 -0.154716770224 0.88 1.83670992316e-40
0.0342782777284 -0.155068399248 0.882 9.74785530998e-39
0.0358291467888 -0.154716770224 0.88 1.80490535256e-38
0.0374577443701 -0.154716770224 0.88 2.10053700932e-38
0.0390863419515 -0.154716770224 0.88 2.31244374531e-38
0.0407149395328 -0.154716770224 0.88 2.34889362031e-38
0.0424397724257 -0.155068399248 0.882 2.34914108962e-38
0.0442219763698 -0.155595842783 0.885 2.349827866e-38
0.0458598273464 -0.155595842783 0.885 9.29583285915e-39
0.0474976783231 -0.155595842783 0.885 1.96181785005e-44
0.0492465700439 -0.155947471806 0.887 4.24430183419e-39
0.0510028644811 -0.156299100829 0.889 4.42724555261e-39
0.052648118174 -0.156299100829 0.889 3.50241799342e-39
0.0542933718669 -0.156299100829 0.889 1.19647206909e-39
0.0559386255599 -0.156299100829 0.889 2.20231135497e-38
0.0575838792528 -0.156299100829 0.889 1.6023601311e-38
-0.0480880449463 -0.155871593964 0.896 1.70330644949e-38
-0.046326198472 -0.155523666299 0.894 1.97070908881e-38
-0.0445217863791 -0.155001774801 0.891 1.44544609218e-38
-0.042872831328 -0.155001774801 0.891 1.57463109696e-38
-0.0412238762769 -0.155001774801 0.891 1.54686324685e-38
-0.0394860886305 -0.154653847136 0.889 1.59289043634e-38
-0.0378408349376 -0.154653847136 0.889 1.60218188594e-38
-0.0361955812446 -0.154653847136 0.889 1.54700772072e-38
-0.0344725990308 -0.154305919471 0.887 1.53778815774e-38
-0.032831046696 -0.154305919471 0.887 1.52853328203e-38
-0.0311894943612 -0.154305919471 0.887 1.55608435127e-38
-0.0295479420264 -0.154305919471 0.887 1.58385094021e-38
-0.0278434666032 -0.153957991806 0.885 1.51953049991e-38
-0.0262056156265 -0.153957991806 0.885 1.57459550398e-38
-0.0245677646499 -0.153957991806 0.885 1.52856859475e-38
-0.0229299136732 -0.153957991806 0.885 1.54700393722e-38
-0.0213401803524 -0.154305919471 0.887 1.63913146397e-38
-0.0196542117199 -0.153957991806 0.885 1.5838138058e-38
-0.0179552883339 -0.153436100308 0.882 1.54700940228e-38
-0.0162859758131 -0.153088172643 0.88 1.68519326554e-38
-0.0146573782318 -0.153088172643 0.88 1.56541153397e-38
-0.0130287806505 -0.153088172643 0.88 1.56555446642e-38
-0.0114001830692 -0.153088172643 0.88 1.58385065995e-38
-0.00977158548786 -0.153088172643 0.88 1.52853356229e-38
-0.00814298790655 -0.153088172643 0.88 1.54700828124e-38
-0.00651439032524 -0.153088172643 0.88 1.6299114806e-38
-0.00487468866951 -0.152740244978 0.878 1.72214410474e-38
-0.00324979244634 -0.152740244978 0.878 1.72207221813e-38
-0.00162489622317 -0.152740244978 0.878 1.67615390953e-38
0.0 -0.152740244978 0.878 1.52900047494e-38
0.00162489622317 -0.152740244978 0.878 1.3171667466e-38
0.00323868837192 -0.15221835348 0.875 9.94628758032e-39
0.00485803255789 -0.15221835348 0.875 7.08220728025e-39
0.00647737674385 -0.15221835348 0.875 5.97367369628e-39
0.00809672092981 -0.15221835348 0.875 7.34754034187e-40
0.00971606511577 -0.15221835348 0.875 9.29203814291e-40
0.0113354093017 -0.15221835348 0.875 9.31742967108e-40
0.0129547534877 -0.15221835348 0.875 3.96878553663e-39
0.0145740976737 -0.15221835348 0.875 2.49690226736e-39
0.0161934418596 -0.15221835348 0.875 3.3259552804e-39
0.0178127860456 -0.15221835348 0.875 4.43301049449e-39
0.0194321302315 -0.15221835348 0.875 4.89001596266e-39
0.0210514744175 -0.15221835348 0.875 8.29799764997e-39
0.0226708186035 -0.15221835348 0.875 8.39201076394e-39
0.0242901627894 -0.15221835348 0.875 8.02390927554e-39
0.0259095069754 -0.15221835348 0.875 6.08710039918e-39
0.0276232357939 -0.152740244978 0.878 6.17643878148e-39
0.0292481320171 -0.152740244978 0.878 7.46500979084e-39
0.0308730282403 -0.152740244978 0.878 7.09875241122e-39
0.0324979244634 -0.152740244978 0.878 6.91435975019e-39
0.0342005492075 -0.153088172643 0.88 5.89911340759e-39
0.0358291467888 -0.153088172643 0.88 9.18663247242e-41
0.0374577443701 -0.153088172643 0.88 0.0
0.0390863419515 -0.153088172643 0.88 4.68504523369e-39
0.0407149395328 -0.153088172643 0.88 2.33996398598e-38
0.0424397724257 -0.153436100308 0.882 2.34939738711e-38
0.0440720713651 -0.153436100308 0.882 2.15484391092e-38
0.0458598273464 -0.153957991806 0.885 1.55611938373e-38
0.0474976783231 -0.153957991806 0.885 3.30609187467e-39
0.0492465700439 -0.154305919471 0.887 4.79350713612e-39
0.0510028644811 -0.154653847136 0.889 4.88569996339e-39
0.052648118174 -0.154653847136 0.889 3.50324616081e-44
0.0542933718669 -0.154653847136 0.889 1.63017758718e-38
0.0559386255599 -0.154653847136 0.889 2.03600581374e-38
0.0575838792528 -0.154653847136 0.889 1.57455893009e-38
-0.0480880449463 -0.154213385518 0.896 1.80511610785e-38
-0.046326198472 -0.153869159211 0.894 1.83266773761e-38
-0.0446716913837 -0.153869159211 0.894 1.50083171334e-38
-0.0430171842954 -0.153869159211 0.894 1.57459550398e-38
-0.0413626772071 -0.153869159211 0.894 1.58377877334e-38
-0.0395749212258 -0.15335281975 0.891 1.5745960645e-38
-0.0379259661748 -0.15335281975 0.891 1.55608435127e-38
-0.0361955812446 -0.153008593443 0.889 1.57455921035e-38
-0.0345503275517 -0.153008593443 0.889 1.58381534723e-38
-0.032831046696 -0.152664367136 0.887 1.56533950723e-38
-0.0311894943612 -0.152664367136 0.887 1.58388597267e-38
-0.0295479420264 -0.152664367136 0.887 1.53775312527e-38
-0.0279063896916 -0.152664367136 0.887 1.56537594099e-38
-0.0262648373568 -0.152664367136 0.887 1.56541097345e-38
-0.0245677646499 -0.152320140829 0.885 1.55611994425e-38
-0.0229299136732 -0.152320140829 0.885 1.57459452307e-38
-0.0213401803524 -0.152664367136 0.887 1.54700772072e-38
-0.0196542117199 -0.152320140829 0.885 1.54686450802e-38
-0.0179552883339 -0.151803801369 0.882 1.57452417789e-38
-0.0163229893945 -0.151803801369 0.882 1.62994819462e-38
-0.0146573782318 -0.151459575062 0.88 1.55611994425e-38
-0.0130287806505 -0.151459575062 0.88 1.56555446642e-38
-0.0114001830692 -0.151459575062 0.88 1.57473899694e-38
-0.00977158548786 -0.151459575062 0.88 1.57463109696e-38
-0.00814298790655 -0.151459575062 0.88 1.54700772072e-38
-0.00651439032524 -0.151459575062 0.88 1.53778815774e-38
-0.00487468866951 -0.151115348755 0.878 1.58367073322e-38
-0.00324979244634 -0.151115348755 0.878 1.60221747892e-38
-0.00162489622317 -0.151115348755 0.878 1.60221747892e-38
0.0 -0.151115348755 0.878 1.64835256839e-38
0.00161934418596 -0.150599009294 0.875 1.63916803786e-38
0.00323868837192 -0.150599009294 0.875 1.68537375278e-38
0.00484692848347 -0.150254782988 0.873 1.6761551707e-38
0.00646257131129 -0.150254782988 0.873 1.5196355973e-38
0.00807821413911 -0.150254782988 0.873 9.85050182379e-39
0.00969385696694 -0.150254782988 0.873 5.32867002614e-39
0.0113094997948 -0.150254782988 0.873 2.20410655843e-39
0.0129251426226 -0.150254782988 0.873 2.77017088219e-40
0.0145407854504 -0.150254782988 0.873 1.75611844588e-39
0.0161564282782 -0.150254782988 0.873 2.1284924933e-39
0.0177720711061 -0.150254782988 0.873 2.58946643872e-39
0.0193877139339 -0.150254782988 0.873 4.06457689835e-39
0.0210033567617 -0.150254782988 0.873 3.32630280242e-39
0.0225671805756 -0.149910556681 0.871 3.69618674247e-39
0.0241791220453 -0.149910556681 0.871 7.10126914326e-39
0.0257910635149 -0.149910556681 0.871 8.11540425617e-39
0.027465928073 -0.150254782988 0.873 1.0049355885e-38
0.0290815709008 -0.150254782988 0.873 9.21851201248e-39
0.0307675395333 -0.150599009294 0.875 8.11181553081e-39
0.0323868837192 -0.150599009294 0.875 9.21780295546e-39
0.0341228206866 -0.151115348755 0.878 8.29547811533e-39
0.0357477169098 -0.151115348755 0.878 1.01393893113e-38
0.0373726131329 -0.151115348755 0.878 9.21851201248e-39
0.0390863419515 -0.151459575062 0.88 2.77095140543e-39
0.0407149395328 -0.151459575062 0.88 4.06376554654e-44
0.0423435371141 -0.151459575062 0.88 2.22947020077e-38
0.0440720713651 -0.151803801369 0.882 2.11829440359e-38
0.0458598273464 -0.152320140829 0.885 1.71306901563e-38
0.0474976783231 -0.152320140829 0.885 2.84692840687e-39
0.0492465700439 -0.152664367136 0.887 4.79315681151e-39
0.0510028644811 -0.153008593443 0.889 5.06793042088e-39
0.052648118174 -0.153008593443 0.889 3.50324616081e-44
0.0542933718669 -0.153008593443 0.889 2.10969799803e-38
0.0559386255599 -0.153008593443 0.889 1.99873127459e-38
0.0575838792528 -0.153008593443 0.889 1.84185324904e-38
-0.0480880449463 -0.152555177071 0.896 1.15989523645e-38
-0.0464298364999 -0.152555177071 0.896 1.20577276726e-38
-0.0446716913837 -0.152214652122 0.894 1.5007339027e-38
-0.0430171842954 -0.152214652122 0.894 1.69448541578e-38
-0.0413626772071 -0.152214652122 0.894 1.52853328203e-38
-0.0397081701189 -0.152214652122 0.894 1.61158025461e-38
-0.0380536630306 -0.152214652122 0.894 1.63941943081e-38
-0.0362770111237 -0.151703864699 0.891 1.50148625985e-38
-0.0345503275517 -0.15136333975 0.889 1.60286585972e-38
-0.0329050738588 -0.15136333975 0.889 1.55655154417e-38
-0.0312598201658 -0.15136333975 0.889 1.49197802938e-38
-0.0295479420264 -0.151022814801 0.887 1.584137786e-38
-0.0279063896916 -0.151022814801 0.887 1.54707974746e-38
-0.0262648373568 -0.151022814801 0.887 1.57459424281e-38
-0.0245677646499 -0.150682289853 0.885 1.58385037969e-38
-0.0229299136732 -0.150682289853 0.885 1.59310525539e-38
-0.0213401803524 -0.151022814801 0.887 1.58395477642e-38
-0.0196542117199 -0.150682289853 0.885 1.56548412123e-38
-0.0180163607432 -0.150682289853 0.885 1.59317770253e-38
-0.0163229893945 -0.150171502429 0.882 1.56530405438e-38
-0.014690690455 -0.150171502429 0.882 1.59303491021e-38
-0.0130287806505 -0.149830977481 0.88 1.62072540865e-38
-0.0114001830692 -0.149830977481 0.88 1.55626581942e-38
-0.00977158548786 -0.149830977481 0.88 1.59314210954e-38
-0.00814298790655 -0.149830977481 0.88 1.52856859475e-38
-0.00651439032524 -0.149830977481 0.88 1.62994791436e-38
-0.00487468866951 -0.149490452532 0.878 1.55604805764e-38
-0.00324979244634 -0.149490452532 0.878 1.61143676165e-38
-0.00162489622317 -0.149490452532 0.878 1.53782473163e-38
0.0 -0.148979665109 0.875 1.57470368422e-38
0.00161934418596 -0.148979665109 0.875 1.57463109696e-38
0.00323128565565 -0.14863914016 0.873 1.537788438e-38
0.00484692848347 -0.14863914016 0.873 1.46417654811e-38
0.00646257131129 -0.14863914016 0.873 1.47335869642e-38
0.00805970734842 -0.148298615211 0.871 1.49172761734e-38
0.0096716488181 -0.148298615211 0.871 1.55630113214e-38
0.0112835902878 -0.148298615211 0.871 1.42747906366e-38
0.0128955317575 -0.148298615211 0.871 1.04082998879e-38
0.0145074732272 -0.148298615211 0.871 5.7017391176e-39
0.0161194146968 -0.148298615211 0.871 1.83675336341e-39
0.0177313561665 -0.148298615211 0.871 5.184804318e-44
0.0193432976362 -0.148298615211 0.871 2.30858597063e-39
0.0209552391059 -0.148298615211 0.871 2.68308859042e-39
0.0225153615616 -0.147958090262 0.869 3.69579858279e-39
0.0241236016732 -0.147958090262 0.869 5.16696018336e-39
0.0257318417847 -0.147958090262 0.869 4.61774507234e-39
0.0273400818963 -0.147958090262 0.869 7.28924072056e-39
0.0289483220078 -0.147958090262 0.869 1.00497118148e-38
0.0306972137286 -0.14863914016 0.873 1.12450025893e-38
0.0323128565565 -0.14863914016 0.873 1.09677080439e-38
0.0340062279052 -0.148979665109 0.875 1.1338986276e-38
0.0356255720912 -0.148979665109 0.875 8.29690043327e-39
0.0373726131329 -0.149490452532 0.878 6.36370410435e-39
0.0389975093561 -0.149490452532 0.878 3.41813269339e-39
0.0406224055793 -0.149490452532 0.878 3.78350585368e-44
0.0423435371141 -0.149830977481 0.88 2.3118451106e-38
0.0440720713651 -0.150171502429 0.882 2.06316031551e-38
0.0457043703046 -0.150171502429 0.882 1.99873127459e-38
0.0474976783231 -0.150682289853 0.885 2.47956540276e-39
0.0492465700439 -0.151022814801 0.887 4.33434366832e-39
0.0510028644811 -0.15136333975 0.889 3.50276551544e-39
0.052648118174 -0.15136333975 0.889 1.3794213927e-39
0.0542933718669 -0.15136333975 0.889 2.12855891484e-38
0.0559386255599 -0.15136333975 0.889 2.02620667371e-38
0.0575838792528 -0.15136333975 0.889 1.60196510507e-38
-0.0481953843324 -0.151233792215 0.898 1.74940678675e-38
-0.0464298364999 -0.150896968625 0.896 1.71281467996e-38
-0.0447716280535 -0.150896968625 0.896 1.55586799078e-38
-0.0431134196071 -0.150896968625 0.896 1.53775284502e-38
-0.0414552111606 -0.150896968625 0.896 1.61151004956e-38
-0.0397081701189 -0.150560145034 0.894 1.64874731417e-38
-0.0380536630306 -0.150560145034 0.894 2.93874568614e-39
-0.0363991559423 -0.150560145034 0.894 7.34683969264e-40
-0.0346280560726 -0.150054909648 0.891 2.66323359248e-39
-0.0329791010215 -0.150054909648 0.891 1.3446927326e-38
-0.0312598201658 -0.149718086057 0.889 1.62141456723e-38
-0.0296145664729 -0.149718086057 0.889 1.55611938373e-38
-0.0279063896916 -0.149381262467 0.887 1.62984085516e-38
-0.0262648373568 -0.149381262467 0.887 1.51924365412e-38
-0.024623285022 -0.149381262467 0.887 1.58374374087e-38
-0.0229817326872 -0.149381262467 0.887 1.6022169184e-38
-0.0213401803524 -0.149381262467 0.887 1.59310525539e-38
-0.0196986280176 -0.149381262467 0.887 1.54707974746e-38
-0.0180163607432 -0.149044438876 0.885 1.56541097345e-38
-0.0163229893945 -0.14853920349 0.882 1.58367073322e-38
-0.014690690455 -0.14853920349 0.882 1.67597398281e-38
-0.0130583915156 -0.14853920349 0.882 1.53782375072e-38
-0.0114001830692 -0.148202379899 0.88 1.58385094021e-38
-0.00977158548786 -0.148202379899 0.88 1.54700828124e-38
-0.00814298790655 -0.148202379899 0.88 1.56541153397e-38
-0.00651439032524 -0.148202379899 0.88 1.54686450802e-38
-0.00487468866951 -0.147865556309 0.878 1.57434242948e-38
-0.00324979244634 -0.147865556309 0.878 1.65746240971e-38
-0.00162489622317 -0.147865556309 0.878 1.54711506019e-38
0.0 -0.147360320923 0.875 1.5655191537e-38
0.00161564282782 -0.147023497332 0.873 1.6115469037e-38
0.00323128565565 -0.147023497332 0.873 1.59317770253e-38
0.00484692848347 -0.147023497332 0.873 1.50995318543e-38
0.00646257131129 -0.147023497332 0.873 1.49172761734e-38
0.00805970734842 -0.146686673741 0.871 1.43630233944e-38
0.0096716488181 -0.146686673741 0.871 1.50087403255e-38
0.0112835902878 -0.146686673741 0.871 1.49179796253e-38
0.0128955317575 -0.146686673741 0.871 1.55633644486e-38
0.0145074732272 -0.146686673741 0.871 1.61172612978e-38
0.0161194146968 -0.146686673741 0.871 1.53807710548e-38
0.017690641227 -0.146349850151 0.869 1.19738277296e-38
0.0192988813385 -0.146349850151 0.869 6.34530365422e-39
0.0209071214501 -0.146349850151 0.869 3.85715389707e-39
0.0224635425477 -0.14601302656 0.867 1.19430706297e-39
0.0240680813011 -0.14601302656 0.867 2.03412905471e-39
0.0256726200545 -0.14601302656 0.867 3.69795938503e-39
0.0272771588079 -0.14601302656 0.867 3.05329903301e-39
0.0288816975613 -0.14601302656 0.867 6.46129193071e-39
0.0305565621193 -0.146349850151 0.869 1.17070695475e-38
0.0322388293937 -0.146686673741 0.871 1.02322855904e-38
0.0339284993843 -0.147023497332 0.873 7.28671978462e-39
0.0356255720912 -0.147360320923 0.875 5.3524290416e-39
0.0372449162771 -0.147360320923 0.875 2.59018250223e-39
0.0389975093561 -0.147865556309 0.878 4.05955464466e-39
0.0406224055793 -0.147865556309 0.878 4.62428493227e-44
0.0423435371141 -0.148202379899 0.88 2.24722633387e-38
0.0439721346954 -0.148202379899 0.88 2.04472160993e-38
0.0457043703046 -0.14853920349 0.882 2.05386886592e-38
0.047336669244 -0.14853920349 0.882 2.75508310162e-39
0.0492465700439 -0.149381262467 0.887 4.4272483552e-39
0.0510028644811 -0.149718086057 0.889 4.7644147787e-44
0.052648118174 -0.149718086057 0.889 1.61148580709e-38
0.0542933718669 -0.149718086057 0.889 2.06362722816e-38
0.0559386255599 -0.149718086057 0.889 1.94315801957e-38
0.0575838792528 -0.149718086057 0.889 1.81390561234e-38
-0.0483563934114 -0.15007156576 0.901 1.75800473374e-38
-0.0465334745278 -0.149571882411 0.898 1.89629817854e-38
-0.0448715647232 -0.149571882411 0.898 1.53695971008e-38
-0.0432096549187 -0.149571882411 0.898 1.68522857826e-38
-0.0414552111606 -0.149238760178 0.896 1.75898676371e-38
-0.0397970027142 -0.149238760178 0.896 1.37753244237e-39
-0.0381387942678 -0.149238760178 0.896 1.54142831076e-44
-0.0363991559423 -0.148905637946 0.894 6.0255833966e-44
-0.034744648854 -0.148905637946 0.894 5.184804318e-44
-0.0329791010215 -0.148405954597 0.891 3.36311631438e-44
-0.0313301459705 -0.148405954597 0.891 9.85917025609e-39
-0.0296145664729 -0.148072832364 0.889 1.57513850713e-38
-0.0279693127799 -0.148072832364 0.889 1.65771464343e-38
-0.0262648373568 -0.147739710132 0.887 1.5746308167e-38
-0.024623285022 -0.147739710132 0.887 1.62987588762e-38
-0.0229817326872 -0.147739710132 0.887 1.60221719866e-38
-0.0213401803524 -0.147739710132 0.887 1.5746308167e-38
-0.0196986280176 -0.147739710132 0.887 1.57459452307e-38
-0.0180570756828 -0.147739710132 0.887 1.57455921035e-38
-0.0163785097666 -0.147406587899 0.885 1.59292574906e-38
-0.0147406587899 -0.147406587899 0.885 1.61140144892e-38
-0.0130583915156 -0.14690690455 0.882 1.57463109696e-38
-0.0114260925761 -0.14690690455 0.882 1.54707974746e-38
-0.00977158548786 -0.146573782318 0.88 1.62101659847e-38
-0.00814298790655 -0.146573782318 0.88 1.62083625135e-38
-0.00651439032524 -0.146573782318 0.88 1.39092226959e-38
-0.00487468866951 -0.146240660085 0.878 1.42819806991e-38
-0.00324979244634 -0.146240660085 0.878 1.46482464865e-38
-0.00162489622317 -0.146240660085 0.878 1.45560550605e-38
0.0 -0.145740976737 0.875 1.52928914242e-38
0.00161564282782 -0.145407854504 0.873 1.52903676857e-38
0.00323128565565 -0.145407854504 0.873 1.52856831449e-38
0.00484692848347 -0.145407854504 0.873 1.51917120699e-38
0.00646257131129 -0.145407854504 0.873 1.5100225497e-38
0.00805970734842 -0.145074732272 0.871 1.54711534044e-38
0.0096716488181 -0.145074732272 0.871 1.4641032602e-38
0.0112835902878 -0.145074732272 0.871 1.482541125e-38
0.0128955317575 -0.145074732272 0.871 1.50101752551e-38
0.0144741610039 -0.144741610039 0.869 1.48268784095e-38
0.0160824011154 -0.144741610039 0.869 1.50101752551e-38
0.017690641227 -0.144741610039 0.869 1.59314084838e-38
0.0192544650409 -0.144408487806 0.867 1.65764275682e-38
0.0208590037943 -0.144408487806 0.867 1.584137786e-38
0.0223858140267 -0.143908804458 0.864 1.28028933544e-38
0.0239848007429 -0.143908804458 0.864 7.54740473924e-39
0.0255837874591 -0.143908804458 0.864 4.68439783379e-39
0.0271827741753 -0.143908804458 0.864 2.11227526617e-39
0.0288816975613 -0.144408487806 0.867 1.93837132415e-39
0.0304862363147 -0.144408487806 0.867 9.77488775865e-39
0.0321648022309 -0.144741610039 0.869 6.91828198459e-39
0.0338507708634 -0.145074732272 0.871 4.52447744915e-39
0.0355441422121 -0.145407854504 0.873 3.04398039822e-39
0.0371597850399 -0.145407854504 0.873 3.6907763291e-39
0.0388642604631 -0.145740976737 0.875 4.33469399293e-39
0.0406224055793 -0.146240660085 0.878 4.90454462514e-44
0.0422473018025 -0.146240660085 0.878 1.86933817699e-38
0.0439721346954 -0.146573782318 0.88 2.12780487614e-38
0.0457043703046 -0.14690690455 0.882 2.15521147151e-38
0.047336669244 -0.14690690455 0.882 1.74488703869e-39
0.0492465700439 -0.147739710132 0.887 3.96591567738e-39
0.0510028644811 -0.148072832364 0.889 2.94272677508e-44
0.052648118174 -0.148072832364 0.889 2.06349676728e-38
0.0542933718669 -0.148072832364 0.889 2.01699089423e-38
0.0559386255599 -0.148072832364 0.889 1.841707514e-38
0.0574543317179 -0.147739710132 0.887 1.72138880487e-38
0.0590958840527 -0.147739710132 0.887 1.83209362563e-38
-0.0484637327975 -0.148733524792 0.903 1.69321696041e-38
-0.0466889315697 -0.148404103918 0.901 1.92370715611e-38
-0.0450214697279 -0.148404103918 0.901 1.60138973192e-38
-0.0432096549187 -0.147909972606 0.898 1.59314084838e-38
-0.0415477451141 -0.147909972606 0.898 1.79593620161e-38
-0.0397970027142 -0.147580551732 0.896 8.26519465422e-40
-0.0381387942678 -0.147580551732 0.896 4.7644147787e-44
-0.0364805858214 -0.147580551732 0.896 2.75565343009e-40
-0.034744648854 -0.147251130857 0.894 5.46506401087e-44
-0.0330901417657 -0.147251130857 0.894 6.44597293589e-44
-0.0313301459705 -0.146756999546 0.891 3.78350585368e-44
-0.0296811909194 -0.146756999546 0.891 1.66773294654e-38
-0.0279693127799 -0.146427578671 0.889 1.52871376927e-38
-0.026324059087 -0.146427578671 0.889 1.58363556063e-38
-0.024623285022 -0.146098157797 0.887 1.62980456153e-38
-0.0229817326872 -0.146098157797 0.887 1.58385037969e-38
-0.0213882980082 -0.146427578671 0.889 1.58388569241e-38
-0.0196986280176 -0.146098157797 0.887 1.60225251138e-38
-0.0180570756828 -0.146098157797 0.887 1.5746308167e-38
-0.016415523348 -0.146098157797 0.887 1.57459424281e-38
-0.0147406587899 -0.145768736923 0.885 1.58377877334e-38
-0.0131028078133 -0.145768736923 0.885 1.6300213424e-38
-0.0114260925761 -0.145274605611 0.882 1.51945440941e-38
-0.0097937936367 -0.145274605611 0.882 1.60228978592e-38
-0.00814298790655 -0.144945184737 0.88 1.77760595653e-38
-0.00651439032524 -0.144945184737 0.88 6.42848473106e-40
-0.00488579274393 -0.144945184737 0.88 0.0
-0.00324979244634 -0.144615763862 0.878 1.54142831076e-44
-0.00162489622317 -0.144615763862 0.878 1.68155815719e-44
0.0 -0.144615763862 0.878 1.12103877146e-44
0.00161934418596 -0.144121632551 0.875 1.61105869132e-38
0.00323868837192 -0.144121632551 0.875 1.464213122e-38
0.00485803255789 -0.144121632551 0.875 1.5100225497e-38
0.00646257131129 -0.143792211676 0.873 1.47328652955e-38
0.00805970734842 -0.143462790802 0.871 1.46410354046e-38
0.0096716488181 -0.143462790802 0.871 1.50073039946e-38
0.0112835902878 -0.143462790802 0.871 1.50094437773e-38
0.0128955317575 -0.143462790802 0.871 1.46424717355e-38
0.0144741610039 -0.143133369927 0.869 1.4641032602e-38
0.0160824011154 -0.143133369927 0.869 1.51016422098e-38
0.0176499262875 -0.142803949053 0.867 1.53778815774e-38
0.0192544650409 -0.142803949053 0.867 1.49179950396e-38
0.0208590037943 -0.142803949053 0.867 1.60232509864e-38
0.0223858140267 -0.142309817741 0.864 1.48254308682e-38
0.0239848007429 -0.142309817741 0.864 1.61158137565e-38
0.0255837874591 -0.142309817741 0.864 1.67604657007e-38
0.0271827741753 -0.142309817741 0.864 1.45520837807e-38
0.0287817608915 -0.142309817741 0.864 1.21571105623e-38
0.0304862363147 -0.142803949053 0.867 0.0
0.0320907750681 -0.142803949053 0.867 1.11182943795e-39
0.0337730423424 -0.143133369927 0.869 3.22944785517e-39
0.035462712333 -0.143462790802 0.871 3.68933018908e-39
0.0371597850399 -0.143792211676 0.873 3.68932738649e-39
0.0387754278677 -0.143792211676 0.873 4.42759587722e-39
0.0404836046491 -0.144121632551 0.875 3.50324616081e-44
0.0422473018025 -0.144615763862 0.878 1.26210734773e-38
0.0439721346954 -0.144945184737 0.88 2.12805696973e-38
0.0457043703046 -0.145274605611 0.882 2.21967624554e-38
0.0474976783231 -0.145768736923 0.885 1.65303893084e-39
0.0492465700439 -0.146098157797 0.887 4.05667077242e-39
0.0510028644811 -0.146427578671 0.889 6.30584308946e-44
0.052648118174 -0.146427578671 0.889 2.10993958189e-38
0.0542933718669 -0.146427578671 0.889 1.90610348428e-38
0.0559386255599 -0.146427578671 0.889 1.81401547414e-38
0.0574543317179 -0.146098157797 0.887 1.8501280566e-38
0.0590958840527 -0.146098157797 0.887 1.93256322227e-38
-0.0503014571137 -0.147550940867 0.906 1.77604827316e-38
-0.0484637327975 -0.147062361592 0.903 1.7393140747e-38
-0.0466889315697 -0.146736642076 0.901 1.73931589638e-38
-0.0450214697279 -0.146736642076 0.901 1.69347381842e-38
-0.0433540078861 -0.146736642076 0.901 1.56537271801e-38
-0.0415477451141 -0.146248062802 0.898 1.80508289708e-38
-0.0398858353096 -0.146248062802 0.898 3.5833780122e-39
-0.0381387942678 -0.145922343285 0.896 2.52233723578e-44
-0.0364805858214 -0.145922343285 0.896 1.83738254642e-40
-0.0348223773749 -0.145922343285 0.896 1.83717235165e-40
-0.0330901417657 -0.145596623769 0.894 7.34742823799e-40
-0.0314356346774 -0.145596623769 0.894 2.38220738935e-44
-0.0296811909194 -0.145108044495 0.891 1.66676689138e-38
-0.0280322358683 -0.145108044495 0.891 1.58399583447e-38
-0.026324059087 -0.144782324979 0.889 1.58374346061e-38
-0.0246788053941 -0.144782324979 0.889 1.59285540388e-38
-0.0230335517011 -0.144782324979 0.889 1.6023253789e-38
-0.0213882980082 -0.144782324979 0.889 1.59310581591e-38
-0.0196986280176 -0.144456605462 0.887 1.60221719866e-38
-0.0180570756828 -0.144456605462 0.887 1.61140144892e-38
-0.016415523348 -0.144456605462 0.887 1.60232706046e-38
-0.0147739710132 -0.144456605462 0.887 1.65760716384e-38
-0.0131028078133 -0.144130885946 0.885 1.56537622125e-38
-0.0114649568366 -0.144130885946 0.885 1.54700828124e-38
-0.0097937936367 -0.143642306672 0.882 1.62991344242e-38
-0.00816149469725 -0.143642306672 0.882 1.78668132591e-38
-0.00651439032524 -0.143316587155 0.88 1.46936793853e-39
-0.00488579274393 -0.143316587155 0.88 3.08285662151e-44
-0.00325719516262 -0.143316587155 0.88 7.34742823799e-40
-0.00162489622317 -0.142990867639 0.878 7.34742823799e-40
0.0 -0.142990867639 0.878 5.6051938573e-44
0.00162489622317 -0.142990867639 0.878 1.59293681932e-38
0.00323868837192 -0.142502288365 0.875 1.47368505884e-38
0.00485803255789 -0.142502288365 0.875 1.54686478828e-38
0.00647737674385 -0.142502288365 0.875 1.48257994097e-38
0.00807821413911 -0.142176568848 0.873 1.49172733708e-38
0.0096716488181 -0.141850849332 0.871 1.5100225497e-38
0.0112835902878 -0.141850849332 0.871 1.4733233837e-38
0.0128955317575 -0.141850849332 0.871 1.45499187745e-38
0.0144741610039 -0.141525129816 0.869 1.43651743876e-38
0.0160824011154 -0.141525129816 0.869 1.51934903176e-38
0.0175888538782 -0.140710831025 0.864 1.50080228607e-38
0.0191878405943 -0.140710831025 0.864 1.50076711348e-38
0.0207868273105 -0.140710831025 0.864 1.5100225497e-38
0.0223858140267 -0.140710831025 0.864 1.46406822774e-38
0.0239292803708 -0.140385111509 0.862 1.61165354252e-38
0.0255245657289 -0.140385111509 0.862 1.51005856308e-38
0.027119851087 -0.140385111509 0.862 1.63913146397e-38
0.028715136445 -0.140385111509 0.862 1.74966014152e-38
0.0303807476077 -0.140710831025 0.864 1.53819047053e-38
0.0319797343239 -0.140710831025 0.864 5.51022786037e-40
0.0337730423424 -0.141525129816 0.869 3.04544475511e-39
0.035462712333 -0.141850849332 0.871 3.046829238e-39
0.0371597850399 -0.142176568848 0.873 3.41418523561e-39
0.0387754278677 -0.142176568848 0.873 4.98006340198e-39
0.0403910706956 -0.142176568848 0.873 2.80259692865e-44
0.0422473018025 -0.142990867639 0.878 5.34158299149e-39
0.0439721346954 -0.143316587155 0.88 2.22950705492e-38
0.0457043703046 -0.143642306672 0.882 2.21981847733e-38
0.0474976783231 -0.144130885946 0.885 1.28569694621e-39
0.0492465700439 -0.144456605462 0.887 6.0255833966e-44
0.0511176065834 -0.145108044495 0.891 1.47337383045e-38
0.052648118174 -0.144782324979 0.889 1.98987296635e-38
0.0542933718669 -0.144782324979 0.889 1.90617382946e-38
0.0560644717366 -0.145108044495 0.891 1.81386903845e-38
0.0577134267877 -0.145108044495 0.891 2.20962290997e-38
0.0600286263038 -0.146736642076 0.901 2.19042371971e-38
-0.0503014571137 -0.14587422563 0.906 2.01586102728e-38
-0.0484637327975 -0.145391198392 0.903 2.0068208305e-38
-0.0467925695976 -0.145391198392 0.903 2.07157371149e-38
-0.0450214697279 -0.145069180234 0.901 1.59234603189e-38
-0.0433540078861 -0.145069180234 0.901 1.59314084838e-38
-0.0416865460443 -0.145069180234 0.901 1.63913272514e-38
-0.0398858353096 -0.144586152997 0.898 1.75912997641e-38
-0.038223925505 -0.144586152997 0.898 2.57139389242e-39
-0.0364805858214 -0.144264134839 0.896 2.38220738935e-44
-0.0348223773749 -0.144264134839 0.896 3.50324616081e-44
-0.0330901417657 -0.143942116681 0.894 1.54142831076e-44
-0.0314356346774 -0.143942116681 0.894 1.96181785005e-44
-0.0296811909194 -0.143459089444 0.891 1.73126403541e-38
-0.0280322358683 -0.143459089444 0.891 1.5563361646e-38
-0.0263832808172 -0.143459089444 0.891 1.59310707708e-38
-0.0246788053941 -0.143137071286 0.889 1.55629987097e-38
-0.0230335517011 -0.143137071286 0.889 1.54708030798e-38
-0.0213882980082 -0.143137071286 0.889 1.59317742227e-38
-0.0197430443153 -0.143137071286 0.889 1.54711534044e-38
-0.0180977906223 -0.143137071286 0.889 1.58385065995e-38
-0.016415523348 -0.142815053127 0.887 1.55629987097e-38
-0.0147739710132 -0.142815053127 0.887 1.56533950723e-38
-0.0131324186784 -0.142815053127 0.887 1.58377877334e-38
-0.0114649568366 -0.142493034969 0.885 1.56533950723e-38
-0.00982710585995 -0.142493034969 0.885 1.60232509864e-38
-0.00816149469725 -0.142010007732 0.882 1.80508261682e-38
-0.0065291957578 -0.142010007732 0.882 2.29588740395e-39
-0.00489689681835 -0.142010007732 0.882 7.00649232162e-45
-0.00325719516262 -0.141687989574 0.88 3.67402240466e-40
-0.00162859758131 -0.141687989574 0.88 1.83722840359e-40
0.0 -0.141365971416 0.878 4.90454462514e-44
0.00162489622317 -0.141365971416 0.878 1.23394685379e-38
0.00323868837192 -0.140882944179 0.875 1.5290021565e-38
0.00485803255789 -0.140882944179 0.875 1.5100225497e-38
0.00647737674385 -0.140882944179 0.875 1.51920679997e-38
0.00807821413911 -0.140560926021 0.873 1.49154769062e-38
0.0096716488181 -0.140238907862 0.871 1.50998695672e-38
0.0112835902878 -0.140238907862 0.871 1.50076711348e-38
0.0128955317575 -0.140238907862 0.871 1.51916910504e-38
0.0144741610039 -0.139916889704 0.869 1.45481335203e-38
0.0160824011154 -0.139916889704 0.869 1.51023862993e-38
0.0175888538782 -0.139111844309 0.864 1.47328821111e-38
0.0191878405943 -0.139111844309 0.864 1.51924211269e-38
0.0207387096547 -0.138789826151 0.862 1.54693807619e-38
0.0223339950128 -0.138789826151 0.862 1.45484894501e-38
0.0239292803708 -0.138789826151 0.862 1.51023862993e-38
0.0255245657289 -0.138789826151 0.862 1.52874880173e-38
0.027119851087 -0.138789826151 0.862 1.54693751567e-38
0.028715136445 -0.138789826151 0.862 1.67590335737e-38
0.0303807476077 -0.139111844309 0.864 2.24758506627e-38
0.0319797343239 -0.139111844309 0.864 3.30607786169e-39
0.0337730423424 -0.139916889704 0.869 3.92363570011e-44
0.035462712333 -0.140238907862 0.871 3.50636825379e-39
0.0371597850399 -0.140560926021 0.873 3.59713175662e-39
0.0387754278677 -0.140560926021 0.873 3.78187614356e-39
0.0403910706956 -0.140560926021 0.873 2.38220738935e-44
0.042102948835 -0.140882944179 0.875 2.30236700805e-39
0.0439721346954 -0.141687989574 0.88 2.18348154698e-38
0.0457043703046 -0.142010007732 0.882 2.15546006185e-38
0.0476050177091 -0.142815053127 0.887 1.19386145005e-39
0.0493576107881 -0.143137071286 0.889 3.64337600724e-44
0.0512897197369 -0.143942116681 0.894 2.13720842962e-38
0.0529442268251 -0.143942116681 0.894 1.90646347786e-38
0.0545987339134 -0.143942116681 0.894 1.83241732557e-38
0.0565049333552 -0.144586152997 0.898 1.91528619312e-38
0.0583611644621 -0.145069180234 0.901 2.31117444916e-38
0.0600286263038 -0.145069180234 0.901 2.21836547096e-38
-0.0484637327975 -0.143720035193 0.903 2.09901519919e-38
-0.0467925695976 -0.143720035193 0.903 1.96094470098e-38
-0.0451214063976 -0.143720035193 0.903 1.61053474582e-38
-0.0434502431977 -0.143720035193 0.903 1.55611994425e-38
-0.0416865460443 -0.143401718393 0.901 1.56530405438e-38
-0.0400190842026 -0.143401718393 0.901 1.67608160253e-38
-0.038223925505 -0.142924243193 0.898 1.83295864717e-38
-0.0365620157004 -0.142924243193 0.898 1.25255791909e-38
-0.0348223773749 -0.142605926393 0.896 8.55827903063e-39
-0.0331641689285 -0.142605926393 0.896 1.08571091614e-38
-0.0314356346774 -0.142287609593 0.894 1.7685289056e-38
-0.0297811275891 -0.142287609593 0.894 1.59343175794e-38
-0.0281266205009 -0.142287609593 0.894 1.61157997435e-38
-0.0263832808172 -0.141810134393 0.891 1.5837800345e-38
-0.0247343257662 -0.141810134393 0.891 1.61161696863e-38
-0.0230853707151 -0.141810134393 0.891 1.65771464343e-38
-0.021436415664 -0.141810134393 0.891 1.63934782446e-38
-0.0197430443153 -0.141491817593 0.889 1.70388504562e-38
-0.0180977906223 -0.141491817593 0.889 1.63005637486e-38
-0.0164525369294 -0.141491817593 0.889 1.59321511719e-38
-0.0148072832364 -0.141491817593 0.889 1.59314084838e-38
-0.0131324186784 -0.141173500793 0.887 1.62991120034e-38
-0.0114908663436 -0.141173500793 0.887 1.61132984257e-38
-0.00984931400879 -0.141173500793 0.887 1.61143704191e-38
-0.00818925488329 -0.140855183993 0.885 1.77760623679e-38
-0.0065291957578 -0.140377708793 0.882 6.7179817834e-39
-0.00489689681835 -0.140377708793 0.882 0.0
-0.0032645978789 -0.140377708793 0.882 1.83738254642e-40
-0.00163229893945 -0.140377708793 0.882 9.1892949395e-41
0.0 -0.140059391993 0.88 4.62428493227e-44
0.00162489622317 -0.139741075193 0.878 9.11947664482e-39
0.00324979244634 -0.139741075193 0.878 1.60275866039e-38
0.00485803255789 -0.139263599993 0.875 1.51030925537e-38
0.00647737674385 -0.139263599993 0.875 1.60232509864e-38
0.00807821413911 -0.138945283193 0.873 1.56545034994e-38
0.0096716488181 -0.138626966393 0.871 1.51002353061e-38
0.0112835902878 -0.138626966393 0.871 1.53768053801e-38
0.0128955317575 -0.138626966393 0.871 1.53771234749e-38
0.0144741610039 -0.138308649593 0.869 1.51924183243e-38
0.0160824011154 -0.138308649593 0.869 1.47328849137e-38
0.0176499262875 -0.137990332793 0.867 1.49179950396e-38
0.0191878405943 -0.137512857593 0.864 1.51002198919e-38
0.0207387096547 -0.137194540793 0.862 1.51924183243e-38
0.0223339950128 -0.137194540793 0.862 1.5100225497e-38
0.0239292803708 -0.137194540793 0.862 1.50094690007e-38
0.0255245657289 -0.137194540793 0.862 1.51931217761e-38
0.027119851087 -0.137194540793 0.862 1.58377877334e-38
0.028715136445 -0.137194540793 0.862 1.58374107841e-38
0.0303104218031 -0.137194540793 0.862 2.14617043394e-38
0.0319057071611 -0.137194540793 0.862 1.7774264502e-38
0.0336953138215 -0.137990332793 0.867 1.56121044118e-39
0.035462712333 -0.138626966393 0.871 1.3833422258e-39
0.0370746538027 -0.138626966393 0.871 2.67876838725e-39
0.0386865952724 -0.138626966393 0.871 3.41453836283e-39
0.0402985367421 -0.138626966393 0.871 2.80259692865e-44
0.0420067135234 -0.138945283193 0.873 8.27243936728e-40
0.0438721980256 -0.139741075193 0.878 2.12812703466e-38
0.0457043703046 -0.140377708793 0.882 2.17386737835e-38
0.0476050177091 -0.141173500793 0.887 9.1835496158e-40
0.0493576107881 -0.141491817593 0.889 5.6051938573e-44
0.0514044618392 -0.142605926393 0.896 2.1007200189e-38
0.0530626702856 -0.142605926393 0.896 1.86937068712e-38
0.0548430235506 -0.142924243193 0.898 1.84171003634e-38
0.0566937026203 -0.143401718393 0.901 1.92454261025e-38
0.058490711997 -0.143720035193 0.903 2.32968742356e-38
0.0601618751969 -0.143720035193 0.903 2.34758845092e-38
-0.0484637327975 -0.142048871993 0.903 1.92345268031e-38
-0.0467925695976 -0.142048871993 0.903 1.85916657183e-38
-0.0451214063976 -0.142048871993 0.903 1.70262443752e-38
-0.0434502431977 -0.142048871993 0.903 1.58370814789e-38
-0.0417790799978 -0.142048871993 0.903 1.59285512362e-38
-0.0400190842026 -0.141734256551 0.901 1.69455800304e-38
-0.0383516223608 -0.141734256551 0.901 5.42582765387e-39
-0.0365620157004 -0.141262333388 0.898 9.28873107853e-39
-0.0349001058959 -0.141262333388 0.898 1.12295140373e-38
-0.0331641689285 -0.140947717946 0.896 1.22447169397e-38
-0.0315059604821 -0.140947717946 0.896 1.04958712328e-38
-0.0297811275891 -0.140633102504 0.894 1.55652071561e-38
-0.0281266205009 -0.140633102504 0.894 1.65774967589e-38
-0.0264721134126 -0.140633102504 0.894 1.72217815629e-38
-0.0247343257662 -0.140161179342 0.891 1.51060030506e-38
-0.0230853707151 -0.140161179342 0.891 1.04068957868e-38
-0.021436415664 -0.140161179342 0.891 5.79074539215e-39
-0.0197874606129 -0.140161179342 0.891 8.46188511057e-39
-0.0181385055618 -0.140161179342 0.891 1.49252103253e-38
-0.0164525369294 -0.1398465639 0.889 1.63995963137e-38
-0.0148072832364 -0.1398465639 0.889 1.48297468675e-38
-0.0131620295435 -0.1398465639 0.889 1.52928914242e-38
-0.0114908663436 -0.139531948458 0.887 1.55698356449e-38
-0.00984931400879 -0.139531948458 0.887 1.52006929917e-38
-0.00818925488329 -0.139217333016 0.885 1.71346334102e-38
-0.00655140390664 -0.139217333016 0.885 1.24330318351e-38
-0.00491355292998 -0.139217333016 0.885 9.1835496158e-41
-0.00327570195332 -0.139217333016 0.885 1.83738254642e-40
-0.00163229893945 -0.138745409853 0.882 3.67385424884e-40
0.0 -0.138430794411 0.88 3.50324616081e-44
0.00162859758131 -0.138430794411 0.88 2.8570275649e-39
0.00324979244634 -0.13811617897 0.878 1.62144987995e-38
0.00487468866951 -0.13811617897 0.878 1.49186984914e-38
0.00647737674385 -0.137644255807 0.875 1.50108969238e-38
0.00807821413911 -0.137329640365 0.873 1.48264874472e-38
0.00969385696694 -0.137329640365 0.873 1.53764522529e-38
0.0112835902878 -0.137015024923 0.871 1.49158300334e-38
0.0128955317575 -0.137015024923 0.871 1.54693541372e-38
0.0145074732272 -0.137015024923 0.871 1.49154741036e-38
0.0160824011154 -0.136700409481 0.869 1.49176264981e-38
0.017690641227 -0.136700409481 0.869 1.44573672149e-38
0.0191878405943 -0.135913870877 0.864 1.51005337827e-38
0.0207387096547 -0.135599255435 0.862 1.54686352711e-38
0.0223339950128 -0.135599255435 0.862 1.51913393245e-38
0.0239292803708 -0.135599255435 0.862 1.55629959071e-38
0.0255245657289 -0.135599255435 0.862 1.51012946878e-38
0.027119851087 -0.135599255435 0.862 1.59307022293e-38
0.028715136445 -0.135599255435 0.862 1.63001882006e-38
0.0303104218031 -0.135599255435 0.862 1.96199595509e-38
0.0319057071611 -0.135599255435 0.862 1.97089055696e-38
0.0336953138215 -0.136385794039 0.867 1.58399583447e-38
0.035462712333 -0.137015024923 0.871 7.34683969264e-40
0.0370746538027 -0.137015024923 0.871 2.30600477886e-39
0.0386865952724 -0.137015024923 0.871 2.49867490992e-39
0.0402985367421 -0.137015024923 0.871 3.36311631438e-44
0.0420067135234 -0.137329640365 0.873 3.67341984632e-40
0.0438721980256 -0.13811617897 0.878 2.13723771675e-38
0.0457043703046 -0.138745409853 0.882 2.13702513978e-38
0.0476050177091 -0.139531948458 0.887 7.34683969264e-40
0.0494686515323 -0.140161179342 0.891 1.15184001235e-38
0.0515192039415 -0.141262333388 0.898 1.94377290934e-38
0.0531811137461 -0.141262333388 0.898 1.85085673181e-38
0.0550262407785 -0.141734256551 0.901 1.83238201285e-38
0.056819548797 -0.142048871993 0.903 1.93365273183e-38
0.0586850332993 -0.142520795155 0.906 2.12696129446e-38
-0.0487320812626 -0.141154994002 0.908 1.80349130228e-38
-0.0469480266394 -0.140844079918 0.906 1.84955520579e-38
-0.0452713114023 -0.140844079918 0.906 1.65667179711e-38
-0.0435945961652 -0.140844079918 0.906 1.58388569241e-38
-0.0417790799978 -0.140377708793 0.903 1.57455921035e-38
-0.0401079167979 -0.140377708793 0.903 1.76838513238e-38
-0.0383516223608 -0.140066794709 0.901 2.47955839627e-39
-0.0365620157004 -0.139600423583 0.898 7.00649232162e-45
-0.0349001058959 -0.139600423583 0.898 3.92363570011e-44
-0.0331641689285 -0.1392895095 0.896 8.40779078595e-45
-0.0315059604821 -0.1392895095 0.896 2.66246708222e-44
-0.0298477520357 -0.1392895095 0.896 9.30962864253e-39
-0.0281266205009 -0.138978595416 0.894 1.70424616024e-38
-0.0264721134126 -0.138978595416 0.894 1.66729419999e-38
-0.0248176063243 -0.138978595416 0.894 6.42848473106e-40
-0.023163099236 -0.138978595416 0.894 2.66246708222e-44
-0.0215085921477 -0.138978595416 0.894 1.96181785005e-44
-0.0197874606129 -0.13851222429 0.891 2.52233723578e-44
-0.0181385055618 -0.13851222429 0.891 1.54142831076e-44
-0.0164895505108 -0.13851222429 0.891 8.01203747495e-39
-0.0148405954597 -0.13851222429 0.891 7.00649232162e-45
-0.0131620295435 -0.138201310207 0.889 2.80259692865e-44
-0.0115167758506 -0.138201310207 0.889 2.80259692865e-44
-0.00984931400879 -0.137890396123 0.887 3.08285662151e-44
-0.00820776167399 -0.137890396123 0.887 1.42781579568e-38
-0.00656620933919 -0.137890396123 0.887 1.58446372803e-38
-0.00491355292998 -0.137579482039 0.885 2.02038091548e-39
-0.00327570195332 -0.137579482039 0.885 7.28675201449e-44
-0.00163785097666 -0.137579482039 0.885 1.83717235165e-40
0.0 -0.137113110914 0.882 3.50324616081e-44
0.00162859758131 -0.13680219683 0.88 1.82168800362e-44
0.00325719516262 -0.13680219683 0.88 1.64918045552e-38
0.00487468866951 -0.136491282746 0.878 1.4734679977e-38
0.00649958489268 -0.136491282746 0.878 1.54700772072e-38
0.00809672092981 -0.136024911621 0.875 1.49190712368e-38
0.00971606511577 -0.136024911621 0.875 1.54679262141e-38
0.0113094997948 -0.135713997537 0.873 1.53768025775e-38
0.0129251426226 -0.135713997537 0.873 1.51927714515e-38
0.0145074732272 -0.135403083453 0.871 1.53757333868e-38
0.0161194146968 -0.135403083453 0.871 1.4917992237e-38
0.017690641227 -0.13509216937 0.869 1.51027366239e-38
0.0191878405943 -0.13431488416 0.864 1.54708128889e-38
0.0207868273105 -0.13431488416 0.864 1.53778815774e-38
0.0223858140267 -0.13431488416 0.864 1.54700828124e-38
0.0239292803708 -0.134003970077 0.862 1.54693513346e-38
0.0255245657289 -0.134003970077 0.862 1.51030925537e-38
0.027119851087 -0.134003970077 0.862 1.57466640968e-38
0.028715136445 -0.134003970077 0.862 1.60221719866e-38
0.0303104218031 -0.134003970077 0.862 1.9343718782e-38
0.0319057071611 -0.134003970077 0.862 1.98947065356e-38
0.0336953138215 -0.134781255286 0.867 1.97092713085e-38
0.035462712333 -0.135403083453 0.871 1.39020606594e-38
0.0371597850399 -0.135713997537 0.873 9.1835496158e-40
0.0387754278677 -0.135713997537 0.873 2.5008833563e-39
0.0403910706956 -0.135713997537 0.873 0.0
0.042102948835 -0.136024911621 0.875 8.40779078595e-45
0.0439721346954 -0.13680219683 0.88 2.18298212421e-38
0.0457043703046 -0.137113110914 0.882 2.2291125894e-38
0.0476050177091 -0.137890396123 0.887 1.1020259539e-39
0.0494686515323 -0.13851222429 0.891 1.90644428007e-38
0.0515192039415 -0.139600423583 0.898 1.85128861199e-38
0.0533587789368 -0.140066794709 0.901 1.81412547607e-38
0.055331602825 -0.140844079918 0.906 1.87844535584e-38
0.0570083180621 -0.140844079918 0.906 1.84156528221e-38
0.0588145808341 -0.141154994002 0.908 2.06213736764e-38
-0.0487320812626 -0.139474577407 0.908 1.86827837496e-38
-0.0469480266394 -0.139167364681 0.906 1.86842186793e-38
-0.0452713114023 -0.139167364681 0.906 1.66581891297e-38
-0.0435945961652 -0.139167364681 0.906 1.56541125371e-38
-0.041917880928 -0.139167364681 0.906 1.58377877334e-38
-0.0401079167979 -0.138706545593 0.903 1.71295957422e-38
-0.038436753598 -0.138706545593 0.903 1.13259612067e-38
-0.036684160519 -0.138399332867 0.901 7.00649232162e-45
-0.0350166986772 -0.138399332867 0.901 1.83736853344e-40
-0.0333492368355 -0.138399332867 0.901 4.59230730132e-40
-0.0315762862867 -0.137938513779 0.898 5.04467447157e-44
-0.0299143764822 -0.137938513779 0.898 3.8719081686e-39
-0.0282524666776 -0.137938513779 0.898 1.96242881619e-38
-0.0265313351428 -0.137631301053 0.896 3.58301927979e-39
-0.0248731266964 -0.137631301053 0.896 3.64337600724e-44
-0.02321491825 -0.137631301053 0.896 6.42914334134e-40
-0.0215567098035 -0.137631301053 0.896 5.51073232782e-40
-0.0198985013571 -0.137631301053 0.896 1.83729846851e-40
-0.0181995779711 -0.137324088328 0.894 9.18985545889e-41
-0.0165450708829 -0.137324088328 0.894 5.6051938573e-44
-0.0148405954597 -0.136863269239 0.891 6.44597293589e-44
-0.0131916404086 -0.136863269239 0.891 5.184804318e-44
-0.0115167758506 -0.136556056514 0.889 6.0255833966e-44
-0.00987152215763 -0.136556056514 0.889 5.46506401087e-44
