# .PCD v0.7 - Point Cloud Data file format
VERSION 0.7
FIELDS x y z rgb
SIZE 4 4 4 4
TYPE F F F F
COUNT 1 1 1 1
WIDTH 853
HEIGHT 1
VIEWPOINT 0 0 0 1 0 0 0
POINTS 853
DATA ascii
0.00982710585995 -0.129390227156 0.885 6.16571324303e-44
0.0114649568366 -0.129390227156 0.885 7.00649232162e-44
0.0131324186784 -0.129682634449 0.887 3.50324616081e-44
0.0147739710132 -0.129682634449 0.887 2.14678322176e-38
0.016415523348 -0.129682634449 0.887 1.28569694621e-39
0.0180570756828 -0.129682634449 0.887 3.58810879581e-39
0.0196986280176 -0.129682634449 0.887 1.59336309431e-38
0.0213401803524 -0.129682634449 0.887 1.67712879287e-38
0.0229817326872 -0.129682634449 0.887 1.6401057868e-38
0.0246788053941 -0.129975041742 0.889 1.84268057566e-38
0.026324059087 -0.129975041742 0.889 1.86069118456e-38
0.0279693127799 -0.129975041742 0.889 1.8234851689e-38
0.0297811275891 -0.130706059975 0.894 1.8142302932e-38
0.0314356346774 -0.130706059975 0.894 1.80493940412e-38
0.0331641689285 -0.130998467268 0.896 1.81419736268e-38
0.0348223773749 -0.130998467268 0.896 1.7773165884e-38
0.0364805858214 -0.130998467268 0.896 1.7864995775e-38
0.038223925505 -0.131290874561 0.898 1.83256179945e-38
0.0398858353096 -0.131290874561 0.898 1.86933243167e-38
0.0416865460443 -0.1317294855 0.901 1.86951081696e-38
0.0433540078861 -0.1317294855 0.901 1.90649430642e-38
0.0450214697279 -0.1317294855 0.901 1.8784803883e-38
0.0466889315697 -0.1317294855 0.901 1.87862304049e-38
0.0483563934114 -0.1317294855 0.901 1.8602918145e-38
-0.0480880449463 -0.129340258821 0.896 1.87810764291e-38
-0.0464298364999 -0.129340258821 0.896 1.1962321668e-38
-0.0446716913837 -0.129051552886 0.894 1.19713306158e-38
-0.0430171842954 -0.129051552886 0.894 6.79584212997e-39
-0.0412238762769 -0.128618493984 0.891 9.94048480338e-39
-0.0395749212258 -0.128618493984 0.891 0.0
-0.0377557037004 -0.128041082114 0.887 1.21636322053e-38
-0.0360327214865 -0.127752376179 0.885 1.22450252253e-38
-0.0342782777284 -0.127319317277 0.882 1.21525016916e-38
-0.0323868837192 -0.126308846505 0.875 1.20613570356e-38
-0.0306972137286 -0.12602014057 0.873 1.22446720981e-38
-0.0290149464543 -0.125731434635 0.871 1.27964067438e-38
-0.0274030049846 -0.125731434635 0.871 1.2152151367e-38
-0.0257318417847 -0.1254427287 0.869 1.15074377657e-38
-0.0241236016732 -0.1254427287 0.869 1.84228554962e-38
-0.0225671805756 -0.125731434635 0.871 1.7867178998e-38
-0.0209552391059 -0.125731434635 0.871 1.89713377281e-38
-0.0193432976362 -0.125731434635 0.871 1.9620678417e-38
-0.0177313561665 -0.125731434635 0.871 2.75514475875e-39
-0.0161194146968 -0.125731434635 0.871 5.04467447157e-44
-0.0145074732272 -0.125731434635 0.871 4.34402523941e-44
-0.0128955317575 -0.125731434635 0.871 3.78350585368e-44
-0.0113094997948 -0.12602014057 0.873 6.71444630738e-39
-0.00969385696694 -0.12602014057 0.873 2.08142413905e-38
-0.00809672092981 -0.126308846505 0.875 1.85132518588e-38
-0.00647737674385 -0.126308846505 0.875 1.86961955772e-38
-0.00487468866951 -0.126741905407 0.878 2.06333996198e-38
-0.00324979244634 -0.126741905407 0.878 1.56120343469e-39
-0.00162859758131 -0.127030611342 0.88 2.66246708222e-44
0.0 -0.127030611342 0.88 6.42910130238e-40
0.00162859758131 -0.127030611342 0.88 4.7644147787e-44
0.00325719516262 -0.127030611342 0.88 1.37758008652e-39
0.00489689681835 -0.127319317277 0.882 6.52035245708e-39
0.0065291957578 -0.127319317277 0.882 6.42848473106e-40
0.00818925488329 -0.127752376179 0.885 2.75589165083e-40
0.00982710585995 -0.127752376179 0.885 4.59243341818e-40
0.0114908663436 -0.128041082114 0.887 7.28675201449e-44
0.0131324186784 -0.128041082114 0.887 2.38220738935e-44
0.0147739710132 -0.128041082114 0.887 2.06380715489e-38
0.0164525369294 -0.128329788049 0.889 1.9162218401e-38
0.0180977906223 -0.128329788049 0.889 1.75999667951e-38
0.0197430443153 -0.128329788049 0.889 2.02038091548e-39
0.0213882980082 -0.128329788049 0.889 1.26116861789e-44
0.0230335517011 -0.128329788049 0.889 5.04467447157e-44
0.0246788053941 -0.128329788049 0.889 7.00649232162e-44
0.026324059087 -0.128329788049 0.889 1.95282417638e-38
0.0281895435892 -0.129340258821 0.896 1.77767630171e-38
0.0298477520357 -0.129340258821 0.896 1.82348572942e-38
0.0315059604821 -0.129340258821 0.896 1.81423057345e-38
0.0331641689285 -0.129340258821 0.896 1.84188884202e-38
0.0348223773749 -0.129340258821 0.896 1.86958326409e-38
0.0365620157004 -0.129628964756 0.898 1.81430274033e-38
0.038223925505 -0.129628964756 0.898 1.95248870553e-38
0.0398858353096 -0.129628964756 0.898 1.83267194151e-38
0.0416865460443 -0.130062023658 0.901 1.89727894733e-38
0.0433540078861 -0.130062023658 0.901 1.8143011989e-38
0.0450214697279 -0.130062023658 0.901 1.89717328943e-38
0.0467925695976 -0.130350729593 0.903 1.8511088254e-38
0.0484637327975 -0.130350729593 0.903 1.82355761603e-38
-0.0567973406482 -0.132527128179 0.93 1.95150429336e-38
-0.054957765653 -0.132242123602 0.928 1.89611657026e-38
-0.0532403354763 -0.132242123602 0.928 1.8592067891e-38
-0.0513563441834 -0.131814616737 0.925 1.90540858037e-38
-0.0495371266579 -0.131529612161 0.923 1.89644279254e-38
-0.0465334745278 -0.127967054951 0.898 1.23293147293e-38
-0.0447716280535 -0.127682050375 0.896 1.33535630132e-38
-0.0431134196071 -0.127682050375 0.896 3.03057137321e-39
-0.0413626772071 -0.127397045798 0.894 6.71517778517e-39
-0.0395749212258 -0.126969538933 0.891 9.1835496158e-40
-0.0377557037004 -0.126399529779 0.887 1.28054114877e-38
-0.0361141513656 -0.126399529779 0.887 1.25223183694e-38
-0.0342782777284 -0.125687018338 0.882 1.22446749007e-38
-0.0323868837192 -0.124689502319 0.875 1.24290661605e-38
-0.0306972137286 -0.124404497742 0.873 1.22450252253e-38
-0.0290815709008 -0.124404497742 0.873 1.26134349994e-38
-0.0274030049846 -0.124119493166 0.871 1.24294192877e-38
-0.0257318417847 -0.123834488589 0.869 1.04936585826e-38
-0.0241236016732 -0.123834488589 0.869 1.91589715925e-38
-0.0225671805756 -0.124119493166 0.871 1.81437700914e-38
-0.0209552391059 -0.124119493166 0.871 1.84181695541e-38
-0.0193432976362 -0.124119493166 0.871 1.98940198994e-38
-0.0177313561665 -0.124119493166 0.871 1.75931298599e-38
-0.0161194146968 -0.124119493166 0.871 6.34670775528e-39
-0.0145407854504 -0.124404497742 0.873 1.07617157684e-38
-0.0129251426226 -0.124404497742 0.873 1.7409775561e-38
-0.0113094997948 -0.124404497742 0.873 1.8152054568e-38
-0.00971606511577 -0.124689502319 0.875 4.13654338359e-39
-0.00809672092981 -0.124689502319 0.875 2.01657050469e-38
-0.00649958489268 -0.125117009184 0.878 1.98961863068e-38
-0.00487468866951 -0.125117009184 0.878 9.7589676068e-39
-0.00324979244634 -0.125117009184 0.878 4.7644147787e-44
-0.00162859758131 -0.125402013761 0.88 4.59275571682e-40
0.0 -0.125402013761 0.88 4.62428493227e-44
0.00162859758131 -0.125402013761 0.88 2.29588740395e-39
0.00325719516262 -0.125402013761 0.88 1.98983569181e-38
0.00489689681835 -0.125687018338 0.882 2.1186221673e-38
0.00655140390664 -0.126114525203 0.885 4.49993931174e-39
0.00818925488329 -0.126114525203 0.885 2.94272677508e-44
0.00984931400879 -0.126399529779 0.887 8.26589530345e-40
0.0114908663436 -0.126399529779 0.887 5.5108444317e-40
0.0131620295435 -0.126684534356 0.889 3.08285662151e-44
0.0148072832364 -0.126684534356 0.889 2.23876038919e-38
0.0164525369294 -0.126684534356 0.889 1.93441139482e-38
0.0180977906223 -0.126684534356 0.889 7.34683969264e-40
0.0197430443153 -0.126684534356 0.889 4.62428493227e-44
0.0213882980082 -0.126684534356 0.889 2.75566744308e-40
0.0230335517011 -0.126684534356 0.889 3.67413450854e-40
0.0246788053941 -0.126684534356 0.889 5.6051938573e-44
0.0265313351428 -0.127682050375 0.896 1.77715109505e-38
0.0281895435892 -0.127682050375 0.896 1.83317542804e-38
0.0298477520357 -0.127682050375 0.896 1.84199660188e-38
0.0315762862867 -0.127967054951 0.898 1.82348699059e-38
0.0332381960913 -0.127967054951 0.898 1.82352048162e-38
0.0349001058959 -0.127967054951 0.898 1.8234851689e-38
0.0365620157004 -0.127967054951 0.898 1.84188856176e-38
0.038223925505 -0.127967054951 0.898 1.83270697397e-38
0.0400190842026 -0.128394561817 0.901 1.83281389304e-38
0.0416865460443 -0.128394561817 0.901 1.81430217981e-38
0.0433540078861 -0.128394561817 0.901 1.8419971624e-38
0.0451214063976 -0.128679566393 0.903 1.84185198787e-38
0.0467925695976 -0.128679566393 0.903 1.89709902061e-38
0.0484637327975 -0.128679566393 0.903 1.86958326409e-38
0.0503014571137 -0.129107073258 0.906 1.9157156911e-38
-0.0567973406482 -0.130805996644 0.93 1.85913069859e-38
-0.054957765653 -0.130524693426 0.928 1.90522851352e-38
-0.0530682223228 -0.130102738598 0.925 1.89611685052e-38
-0.0510787423229 -0.129399480551 0.92 1.93299440181e-38
-0.0492687781928 -0.129118177333 0.918 1.9517195328e-38
-0.0467925695976 -0.127008403193 0.903 1.19598091398e-38
-0.0448715647232 -0.126305145147 0.898 1.33535461976e-38
-0.0431134196071 -0.126023841928 0.896 3.39791335785e-39
-0.0413626772071 -0.12574253871 0.894 9.4817543368e-39
-0.0395749212258 -0.125320583882 0.891 3.30607786169e-39
-0.0378408349376 -0.125039280663 0.889 1.33564146556e-38
-0.0361141513656 -0.124757977445 0.887 1.23372180526e-38
-0.0343948705098 -0.124476674226 0.885 1.23368705306e-38
-0.0324979244634 -0.123492112961 0.878 1.27971101956e-38
-0.0307675395333 -0.123070158133 0.875 1.21528548189e-38
-0.0290815709008 -0.122788854915 0.873 1.24294164851e-38
-0.0274030049846 -0.122507551696 0.871 1.23372208552e-38
-0.0257910635149 -0.122507551696 0.871 1.1599640402e-38
-0.0241791220453 -0.122507551696 0.871 1.88816882576e-38
-0.0225671805756 -0.122507551696 0.871 1.75902207643e-38
-0.0209552391059 -0.122507551696 0.871 1.92482805475e-38
-0.0193432976362 -0.122507551696 0.871 1.77731953113e-38
-0.0177313561665 -0.122507551696 0.871 1.99858525929e-38
-0.0161564282782 -0.122788854915 0.873 1.87019661243e-38
-0.0145407854504 -0.122788854915 0.873 1.46489107019e-38
-0.0129547534877 -0.123070158133 0.875 3.67341984632e-39
-0.0113354093017 -0.123070158133 0.875 1.26116861789e-44
-0.00971606511577 -0.123070158133 0.875 5.6051938573e-44
-0.00812448111586 -0.123492112961 0.878 1.74105813076e-38
-0.00649958489268 -0.123492112961 0.878 2.13731366713e-38
-0.00487468866951 -0.123492112961 0.878 1.19386145005e-39
-0.00325719516262 -0.12377341618 0.88 6.44597293589e-44
-0.00162859758131 -0.12377341618 0.88 2.75584961188e-40
0.0 -0.12377341618 0.88 4.06376554654e-44
0.00162859758131 -0.12377341618 0.88 2.04462225787e-38
0.0032645978789 -0.124054719398 0.882 1.91593513444e-38
0.00491355292998 -0.124476674226 0.885 1.91560849177e-38
0.00655140390664 -0.124476674226 0.885 1.90671543132e-38
0.00820776167399 -0.124757977445 0.887 2.93877231082e-39
0.00984931400879 -0.124757977445 0.887 1.83738254642e-40
0.0115167758506 -0.125039280663 0.889 1.46944921384e-39
0.0131620295435 -0.125039280663 0.889 3.78350585368e-44
0.0148405954597 -0.125320583882 0.891 2.33921597286e-38
0.0164895505108 -0.125320583882 0.891 5.51730441762e-39
0.0181385055618 -0.125320583882 0.891 2.52233723578e-44
0.0198540850594 -0.12574253871 0.894 5.5110266005e-40
0.0215085921477 -0.12574253871 0.894 1.10210162401e-39
0.023163099236 -0.12574253871 0.894 1.10210722921e-39
0.0248731266964 -0.126023841928 0.896 4.90454462514e-44
0.0265313351428 -0.126023841928 0.896 1.93374465701e-38
0.0281895435892 -0.126023841928 0.896 1.76853100755e-38
0.0299143764822 -0.126305145147 0.898 1.84188884202e-38
0.0315762862867 -0.126305145147 0.898 1.86036342085e-38
0.0332381960913 -0.126305145147 0.898 1.86032670683e-38
0.0349001058959 -0.126305145147 0.898 1.85110826488e-38
0.0365620157004 -0.126305145147 0.898 1.82352202305e-38
0.0383516223608 -0.126727099975 0.901 1.83278110266e-38
0.0400190842026 -0.126727099975 0.901 1.85128861199e-38
0.0417790799978 -0.127008403193 0.903 1.79586151241e-38
0.0434502431977 -0.127008403193 0.903 1.95223703232e-38
0.0451214063976 -0.127008403193 0.903 1.8509308605e-38
0.0469480266394 -0.127430358021 0.906 1.97081867035e-38
0.0486247418765 -0.127430358021 0.906 1.90645801279e-38
0.0503014571137 -0.127430358021 0.906 1.93401272541e-38
-0.0567973406482 -0.12908486511 0.93 1.90537144596e-38
-0.054957765653 -0.128807263249 0.928 1.92373980636e-38
-0.0530682223228 -0.128390860458 0.925 1.93292405663e-38
-0.0510787423229 -0.127696855807 0.92 2.08040371351e-38
-0.0492687781928 -0.127419253947 0.918 2.00686230893e-38
-0.0473107597371 -0.126725249296 0.913 1.19590622477e-38
-0.0450214697279 -0.125059638133 0.901 1.36283099979e-38
-0.0432096549187 -0.124643235342 0.898 1.65303893084e-39
-0.0414552111606 -0.124365633482 0.896 3.95113057728e-39
-0.0397081701189 -0.124088031621 0.894 2.38772290011e-39
-0.0378408349376 -0.12339402697 0.889 1.3994991971e-38
-0.0361141513656 -0.12311642511 0.887 1.18773539356e-38
-0.0343948705098 -0.122838823249 0.885 1.22436155191e-38
-0.032645978789 -0.122422420459 0.882 1.26120098789e-38
-0.0307675395333 -0.121450813947 0.875 1.23368705306e-38
-0.0291481953473 -0.121450813947 0.875 1.23375585681e-38
-0.027465928073 -0.121173212087 0.873 1.25216149175e-38
-0.0257910635149 -0.120895610226 0.871 1.10457659736e-38
-0.0241791220453 -0.120895610226 0.871 1.91572143642e-38
-0.0225671805756 -0.120895610226 0.871 1.79590229019e-38
-0.0209552391059 -0.120895610226 0.871 1.77738959605e-38
-0.0193432976362 -0.120895610226 0.871 1.8509308605e-38
-0.0177720711061 -0.121173212087 0.873 2.00784265734e-38
-0.0161564282782 -0.121173212087 0.873 1.56120343469e-39
-0.0145740976737 -0.121450813947 0.875 3.64337600724e-44
-0.0129547534877 -0.121450813947 0.875 5.74532370373e-44
-0.0113742735622 -0.121867216738 0.878 1.46945201644e-39
-0.00974937733903 -0.121867216738 0.878 7.28675201449e-44
-0.00812448111586 -0.121867216738 0.878 1.26229330004e-38
-0.00649958489268 -0.121867216738 0.878 2.12838094994e-38
-0.00488579274393 -0.122144818598 0.88 3.12240686937e-39
-0.00325719516262 -0.122144818598 0.88 5.88545355016e-44
-0.00162859758131 -0.122144818598 0.88 5.51080239274e-40
0.0 -0.122422420459 0.882 2.24207754292e-44
0.00163229893945 -0.122422420459 0.882 2.07285099504e-38
0.00327570195332 -0.122838823249 0.885 1.77746176292e-38
0.00492465700439 -0.12311642511 0.887 1.86022118905e-38
0.00656620933919 -0.12311642511 0.887 2.00813034391e-38
0.00820776167399 -0.12311642511 0.887 2.84692980817e-39
0.00987152215763 -0.12339402697 0.889 9.19013571858e-41
0.0115167758506 -0.12339402697 0.889 5.51087245767e-40
0.0131916404086 -0.123671628831 0.891 5.6051938573e-44
0.0148405954597 -0.123671628831 0.891 2.09951378118e-38
0.0164895505108 -0.123671628831 0.891 0.0
0.0181385055618 -0.123671628831 0.891 4.06376554654e-44
0.0198540850594 -0.124088031621 0.894 2.75587763785e-40
0.0215567098035 -0.124365633482 0.896 6.42925544521e-40
0.02321491825 -0.124365633482 0.896 5.6051938573e-44
0.0248731266964 -0.124365633482 0.896 4.9685447286e-39
0.0265313351428 -0.124365633482 0.896 1.99884421925e-38
0.0282524666776 -0.124643235342 0.898 1.80504758436e-38
0.0299143764822 -0.124643235342 0.898 1.84178192295e-38
0.0315762862867 -0.124643235342 0.898 1.85114371773e-38
0.0332381960913 -0.124643235342 0.898 1.85110686358e-38
0.0350166986772 -0.125059638133 0.901 1.85121616486e-38
0.036684160519 -0.125059638133 0.901 1.82370194978e-38
0.0383516223608 -0.125059638133 0.901 1.80526310406e-38
0.0401079167979 -0.125337239993 0.903 1.89727922759e-38
0.0417790799978 -0.125337239993 0.903 1.79579144748e-38
0.0434502431977 -0.125337239993 0.903 1.94301732921e-38
0.0452713114023 -0.125753642784 0.906 1.85107183112e-38
0.0469480266394 -0.125753642784 0.906 1.87862304049e-38
0.0486247418765 -0.125753642784 0.906 1.8970618862e-38
0.0503014571137 -0.125753642784 0.906 1.92464854842e-38
0.0520929144531 -0.126031244645 0.908 1.91560877203e-38
-0.0547801004623 -0.126678982319 0.925 1.94221452532e-38
-0.0529534802205 -0.126405081817 0.923 1.93310272218e-38
-0.0510787423229 -0.125994231063 0.92 1.9791300518e-38
-0.0492687781928 -0.125720330561 0.918 1.97931151995e-38
-0.0473107597371 -0.125035579305 0.913 1.18661505544e-38
-0.0451214063976 -0.123666076794 0.903 1.38127040602e-38
-0.0433540078861 -0.123392176291 0.901 1.28569694621e-39
-0.0415477451141 -0.122981325538 0.898 1.41872291008e-38
-0.0397970027142 -0.122707425035 0.896 1.03110792017e-38
-0.0379259661748 -0.12202267378 0.891 1.27992752017e-38
-0.0361955812446 -0.121748773277 0.889 1.27063607058e-38
-0.0344725990308 -0.121474872775 0.887 1.25205751541e-38
-0.032645978789 -0.120790121519 0.882 1.28900387046e-38
-0.0308730282403 -0.120242320515 0.878 1.23358139516e-38
-0.0291481953473 -0.119831469761 0.875 1.32591771538e-38
-0.027465928073 -0.119557569259 0.873 1.26141636746e-38
-0.0258502852452 -0.119557569259 0.873 1.14141883594e-38
-0.0242346424173 -0.119557569259 0.873 1.88788338126e-38
-0.0226189995895 -0.119557569259 0.873 1.88802533279e-38
-0.0210033567617 -0.119557569259 0.873 1.79575487359e-38
-0.0193877139339 -0.119557569259 0.873 1.86944257373e-38
-0.0177720711061 -0.119557569259 0.873 2.03546701448e-38
-0.0161934418596 -0.119831469761 0.875 1.19386145005e-39
-0.0146240660085 -0.120242320515 0.878 5.46506401087e-44
-0.0129991697854 -0.120242320515 0.878 9.184278291e-40
-0.0113742735622 -0.120242320515 0.878 4.59251749609e-40
-0.00974937733903 -0.120242320515 0.878 6.86636247519e-44
-0.00814298790655 -0.120516221017 0.88 3.13434312969e-39
-0.00651439032524 -0.120516221017 0.88 2.13763582565e-38
-0.00488579274393 -0.120516221017 0.88 4.59180984036e-39
-0.00325719516262 -0.120516221017 0.88 8.26588129047e-40
-0.00163229893945 -0.120790121519 0.882 3.67413450854e-40
0.0 -0.121200972273 0.885 3.50324616081e-44
0.00163785097666 -0.121200972273 0.885 2.05416159717e-38
0.00327570195332 -0.121200972273 0.885 1.9156833211e-38
0.00492465700439 -0.121474872775 0.887 2.0447937768e-38
0.00656620933919 -0.121474872775 0.887 1.58435442674e-38
0.00822626846469 -0.121748773277 0.889 1.65303893084e-39
0.00987152215763 -0.121748773277 0.889 2.75593368979e-40
0.0115426853575 -0.12202267378 0.891 6.42925544521e-40
0.0132360567063 -0.122433524533 0.894 6.44597293589e-44
0.0148905637946 -0.122433524533 0.894 1.17975079491e-38
0.0165450708829 -0.122433524533 0.894 1.63999802695e-38
0.0181995779711 -0.122433524533 0.894 3.12240686937e-39
0.0198985013571 -0.122707425035 0.896 1.54142831076e-44
0.0215567098035 -0.122707425035 0.896 4.34402523941e-44
0.02321491825 -0.122707425035 0.896 1.04884065159e-38
0.0248731266964 -0.122707425035 0.896 2.08149826774e-38
0.0265313351428 -0.122707425035 0.896 1.86951109722e-38
0.0282524666776 -0.122981325538 0.898 1.80504632319e-38
0.0299143764822 -0.122981325538 0.898 1.94333976798e-38
0.0316817749937 -0.123392176291 0.901 1.85082113883e-38
0.0334232639983 -0.123666076794 0.903 1.86936648322e-38
0.0350944271982 -0.123666076794 0.903 1.85121616486e-38
0.0367655903981 -0.123666076794 0.903 1.7959727755e-38
0.038436753598 -0.123666076794 0.903 1.83274200643e-38
0.0402411656909 -0.124076927547 0.906 1.8142302932e-38
0.041917880928 -0.124076927547 0.906 1.90635389632e-38
0.0435945961652 -0.124076927547 0.906 1.93386937257e-38
0.0452713114023 -0.124076927547 0.906 1.8786226201e-38
0.0470516646673 -0.124350828049 0.908 1.8510379197e-38
0.0487320812626 -0.124350828049 0.908 1.93390496555e-38
0.0504124978578 -0.124350828049 0.908 1.94315984126e-38
0.0520929144531 -0.124350828049 0.908 1.96167099398e-38
-0.0547801004623 -0.12496710418 0.925 1.85898846679e-38
-0.0529534802205 -0.124696905035 0.923 1.93288748274e-38
-0.0510787423229 -0.124291606319 0.92 1.79459585963e-38
-0.0492687781928 -0.124021407175 0.918 2.04355951311e-38
-0.047414397765 -0.123616108459 0.915 1.14966617805e-38
-0.0451214063976 -0.121994913594 0.903 1.3072634901e-38
-0.0433540078861 -0.121724714449 0.901 1.17858491459e-38
-0.0415477451141 -0.121319415733 0.898 1.21567798559e-38
-0.0397970027142 -0.121049216589 0.896 1.27964039412e-38
-0.0380536630306 -0.120779017445 0.894 1.21517407866e-38
-0.0362770111237 -0.120373718729 0.891 1.04926216217e-38
-0.0345503275517 -0.120103519584 0.889 1.24290815747e-38
-0.0327570195332 -0.119563121296 0.885 1.22464573524e-38
-0.0308730282403 -0.118617424291 0.878 1.23372208552e-38
-0.0291481953473 -0.118212125575 0.875 1.26138091461e-38
-0.027465928073 -0.117941926431 0.873 1.24294038734e-38
-0.0258502852452 -0.117941926431 0.873 1.15974880076e-38
-0.0242346424173 -0.117941926431 0.873 1.94330599669e-38
-0.0226708186035 -0.118212125575 0.875 1.77742616994e-38
-0.0210514744175 -0.118212125575 0.875 1.86954823163e-38
-0.0194321302315 -0.118212125575 0.875 1.86936774439e-38
-0.0178127860456 -0.118212125575 0.875 2.05386886592e-38
-0.0162489622317 -0.118617424291 0.878 1.65303893084e-39
-0.0146240660085 -0.118617424291 0.878 5.6051938573e-44
-0.0129991697854 -0.118617424291 0.878 1.10210722921e-39
-0.0114001830692 -0.118887623436 0.88 5.51087245767e-40
-0.00977158548786 -0.118887623436 0.88 6.58610278233e-44
-0.00814298790655 -0.118887623436 0.88 3.22298646795e-44
-0.00651439032524 -0.118887623436 0.88 2.22064720525e-38
-0.00488579274393 -0.118887623436 0.88 3.67343245801e-39
-0.0032645978789 -0.11915782258 0.882 3.67414852152e-40
-0.00163229893945 -0.11915782258 0.882 5.51087245767e-40
0.0 -0.119563121296 0.885 6.0255833966e-44
0.0016415523348 -0.11983332044 0.887 1.16000860149e-38
0.0032831046696 -0.11983332044 0.887 1.90725212863e-38
0.00493576107881 -0.120103519584 0.889 1.92551342983e-38
0.00658101477175 -0.120103519584 0.889 7.34683969264e-40
0.00822626846469 -0.120103519584 0.889 3.78350585368e-44
0.00989373030646 -0.120373718729 0.891 1.19394692926e-39
0.011581549618 -0.120779017445 0.894 8.26596536837e-40
0.0132360567063 -0.120779017445 0.894 6.44597293589e-44
0.0149238760178 -0.121049216589 0.896 8.30542593313e-40
0.0165820844643 -0.121049216589 0.896 2.00874341199e-38
0.0182402929107 -0.121049216589 0.896 1.79600626654e-38
0.0198985013571 -0.121049216589 0.896 1.59360930245e-38
0.0215567098035 -0.121049216589 0.896 1.82402564972e-38
0.02321491825 -0.121049216589 0.896 1.95281268573e-38
0.0248731266964 -0.121049216589 0.896 1.89709719892e-38
0.0265313351428 -0.121049216589 0.896 1.81430091864e-38
0.0282524666776 -0.121319415733 0.898 1.84178136243e-38
0.0300143131519 -0.121724714449 0.901 1.8510365184e-38
0.0316817749937 -0.121724714449 0.901 1.97074832517e-38
0.0334232639983 -0.121994913594 0.903 1.8233419562e-38
0.0350944271982 -0.121994913594 0.903 1.8051905168e-38
0.0368877352167 -0.12240021231 0.906 1.81426714734e-38
0.0385644504538 -0.12240021231 0.906 1.86951081696e-38
0.0402411656909 -0.12240021231 0.906 1.84185198787e-38
0.041917880928 -0.12240021231 0.906 1.8234128619e-38
0.0436908314768 -0.122670411454 0.908 1.86929585778e-38
0.0453712480721 -0.122670411454 0.908 1.86936774439e-38
0.0470516646673 -0.122670411454 0.908 1.82334223646e-38
0.0487320812626 -0.122670411454 0.908 1.8784803883e-38
0.0504124978578 -0.122670411454 0.908 1.95227234505e-38
0.0520929144531 -0.122670411454 0.908 1.83259683191e-38
-0.0547801004623 -0.12325522604 0.925 1.87742745264e-38
-0.0529534802205 -0.122988728254 0.923 1.93270769615e-38
-0.0510787423229 -0.122588981575 0.92 1.92348771277e-38
-0.0492687781928 -0.122322483789 0.918 1.97905564285e-38
-0.047414397765 -0.12192273711 0.915 1.20491082857e-38
-0.0454711847418 -0.121256492645 0.91 1.26113120322e-38
-0.0434502431977 -0.120323750394 0.903 1.30733411554e-38
-0.0416865460443 -0.120057252608 0.901 1.24297696123e-38
-0.0398858353096 -0.119657505929 0.898 1.27056572539e-38
-0.0381387942678 -0.119391008143 0.896 1.26141636746e-38
-0.0363991559423 -0.119124510357 0.894 1.02196276614e-38
-0.0346280560726 -0.118724763678 0.891 7.3626603523e-39
-0.032831046696 -0.118191768105 0.887 1.07771174398e-38
-0.0308730282403 -0.116992528068 0.878 1.19738305322e-38
-0.0292481320171 -0.116992528068 0.878 1.22457482954e-38
-0.0275288511614 -0.116592781389 0.875 1.2796759871e-38
-0.0258502852452 -0.116326283603 0.873 1.12280188519e-38
-0.0242346424173 -0.116326283603 0.873 1.90638500514e-38
-0.0226708186035 -0.116592781389 0.875 1.76827695214e-38
-0.0210514744175 -0.116592781389 0.875 1.80493940412e-38
-0.0194321302315 -0.116592781389 0.875 1.80486849841e-38
-0.0178738584549 -0.116992528068 0.878 1.98018522955e-38
-0.0162489622317 -0.116992528068 0.878 9.57350295245e-39
-0.0146573782318 -0.117259025854 0.88 1.12103877146e-44
-0.0130287806505 -0.117259025854 0.88 6.42931149715e-40
-0.0114001830692 -0.117259025854 0.88 5.51087245767e-40
-0.0097937936367 -0.11752552364 0.882 8.26596536837e-40
-0.00816149469725 -0.11752552364 0.882 2.24207754292e-44
-0.0065291957578 -0.11752552364 0.882 2.34932423933e-38
-0.00489689681835 -0.11752552364 0.882 1.83670992316e-39
-0.0032645978789 -0.11752552364 0.882 6.72623262876e-44
-0.00163785097666 -0.117925270319 0.885 1.01025631877e-39
0.0 -0.118191768105 0.887 4.59243341818e-40
0.0016415523348 -0.118191768105 0.887 5.88545355016e-44
0.00329050738588 -0.118458265892 0.889 5.88545355016e-44
0.00493576107881 -0.118458265892 0.889 1.82168800362e-44
0.00658101477175 -0.118458265892 0.889 2.94272677508e-44
0.00824477525538 -0.118724763678 0.891 4.90454462514e-44
0.00989373030646 -0.118724763678 0.891 4.7644147787e-44
0.011581549618 -0.119124510357 0.894 4.62428493227e-44
0.0132656675714 -0.119391008143 0.896 4.31705725046e-39
0.0149238760178 -0.119391008143 0.896 1.57407253939e-38
0.0165820844643 -0.119391008143 0.896 1.79647920477e-38
0.0182402929107 -0.119391008143 0.896 1.98018200656e-38
0.0198985013571 -0.119391008143 0.896 1.9526665303e-38
0.0215567098035 -0.119391008143 0.896 1.8328141733e-38
0.02321491825 -0.119391008143 0.896 1.83277703889e-38
0.0248731266964 -0.119391008143 0.896 1.83267138099e-38
0.026590556873 -0.119657505929 0.898 1.85107323242e-38
0.0283468513102 -0.120057252608 0.901 1.8510031675e-38
0.0300143131519 -0.120057252608 0.901 1.84178164269e-38
0.0317521007983 -0.120323750394 0.903 1.83259683191e-38
0.0334232639983 -0.120323750394 0.903 1.86032810813e-38
0.0352110199796 -0.120723497073 0.906 1.78664447176e-38
0.0368877352167 -0.120723497073 0.906 1.83274172617e-38
0.0385644504538 -0.120723497073 0.906 1.84188702034e-38
0.0402411656909 -0.120723497073 0.906 1.84181695541e-38
0.041917880928 -0.120723497073 0.906 1.84199688214e-38
0.0436908314768 -0.120989994859 0.908 1.85125147758e-38
0.0453712480721 -0.120989994859 0.908 1.86039873357e-38
0.0470516646673 -0.120989994859 0.908 1.86025622152e-38
0.0487320812626 -0.120989994859 0.908 1.92482973631e-38
0.0504124978578 -0.120989994859 0.908 1.9803624938e-38
0.0520929144531 -0.120989994859 0.908 1.90632040528e-38
0.0537733310484 -0.120989994859 0.908 1.48138547416e-38
-0.0547801004623 -0.121543347901 0.925 2.0435909022e-38
-0.0529534802205 -0.121280551473 0.923 1.8684616648e-38
-0.0510787423229 -0.120886356831 0.92 1.77622763936e-38
-0.0492687781928 -0.120623560403 0.918 2.07125309441e-38
-0.047414397765 -0.120229365761 0.915 1.20505544258e-38
-0.0456210897465 -0.119966569333 0.913 1.26134588215e-38
-0.0436908314768 -0.119309578264 0.908 1.24294164851e-38
-0.0417790799978 -0.118652587194 0.903 1.25216121149e-38
-0.0398858353096 -0.117995596124 0.898 1.2705319541e-38
-0.0381387942678 -0.117732799696 0.896 1.26141636746e-38
-0.0363991559423 -0.117470003268 0.894 1.20628073795e-38
-0.0346280560726 -0.117075808626 0.891 9.57641064676e-39
-0.032831046696 -0.116550215771 0.887 5.60919036052e-39
-0.0311191685565 -0.116287419343 0.885 1.30741398955e-38
-0.0292481320171 -0.115367631845 0.878 1.25219680447e-38
-0.0275288511614 -0.114973437203 0.875 1.3073719506e-38
-0.0259095069754 -0.114973437203 0.875 1.08606516439e-38
-0.0242901627894 -0.114973437203 0.875 1.90649851032e-38
-0.0226708186035 -0.114973437203 0.875 1.8051571659e-38
-0.0210514744175 -0.114973437203 0.875 1.78667978448e-38
-0.0194987546781 -0.115367631845 0.878 1.85121644512e-38
-0.0178738584549 -0.115367631845 0.878 1.91575366629e-38
-0.0162859758131 -0.115630428273 0.88 1.6025784534e-38
-0.0146573782318 -0.115630428273 0.88 1.2857067553e-39
-0.0130583915156 -0.115893224701 0.882 9.18451651174e-40
-0.0114260925761 -0.115893224701 0.882 6.42917136731e-40
-0.00982710585995 -0.116287419343 0.885 1.19393011368e-39
-0.00818925488329 -0.116287419343 0.885 2.94272677508e-44
-0.00655140390664 -0.116287419343 0.885 2.29301698418e-38
-0.00491355292998 -0.116287419343 0.885 7.54665364326e-39
-0.00327570195332 -0.116287419343 0.885 2.94272677508e-44
-0.0016415523348 -0.116550215771 0.887 8.26614753717e-40
0.0 -0.116550215771 0.887 1.01026472656e-39
0.00164525369294 -0.116813012199 0.889 5.51094252259e-40
0.00329050738588 -0.116813012199 0.889 6.42914334134e-40
0.00493576107881 -0.116813012199 0.889 6.0255833966e-44
0.00659582020431 -0.117075808626 0.891 8.00373338025e-39
0.00824477525538 -0.117075808626 0.891 4.13265758294e-39
0.00989373030646 -0.117075808626 0.891 1.36140952263e-38
0.011581549618 -0.117470003268 0.894 1.87008675063e-38
0.0132656675714 -0.117732799696 0.896 2.01731431392e-38
0.0149238760178 -0.117732799696 0.896 1.91564506566e-38
0.0165820844643 -0.117732799696 0.896 1.83281249174e-38
0.0182402929107 -0.117732799696 0.896 1.86025622152e-38
0.0198985013571 -0.117732799696 0.896 1.84174829179e-38
0.0216048274593 -0.117995596124 0.898 1.82341482372e-38
0.0232667372639 -0.117995596124 0.898 1.80504604293e-38
0.0249286470685 -0.117995596124 0.898 1.93408461202e-38
0.026590556873 -0.117995596124 0.898 1.84181667515e-38
0.0283468513102 -0.118389790766 0.901 1.83263242489e-38
0.0300809375984 -0.118652587194 0.903 1.86029279541e-38
0.0317521007983 -0.118652587194 0.903 1.89699182128e-38
0.0335343047424 -0.119046781836 0.906 1.87876751436e-38
0.0352110199796 -0.119046781836 0.906 1.8050149341e-38
0.0368877352167 -0.119046781836 0.906 1.86947760619e-38
0.0385644504538 -0.119046781836 0.906 1.95263121758e-38
0.0402411656909 -0.119046781836 0.906 1.78678796472e-38
0.041917880928 -0.119046781836 0.906 1.82352230331e-38
0.0436908314768 -0.119309578264 0.908 1.85110686358e-38
0.0453712480721 -0.119309578264 0.908 1.85103623814e-38
0.0470516646673 -0.119309578264 0.908 1.91575310577e-38
0.0487320812626 -0.119309578264 0.908 1.86036370111e-38
0.0504124978578 -0.119309578264 0.908 1.88798707735e-38
0.0520929144531 -0.119309578264 0.908 1.88802239007e-38
0.0537733310484 -0.119309578264 0.908 1.45358371263e-38
-0.0547801004623 -0.119831469761 0.925 1.82232629507e-38
-0.0529534802205 -0.119572374691 0.923 1.64708649523e-38
-0.0510787423229 -0.119183732087 0.92 1.66541519888e-38
-0.0492687781928 -0.118924637017 0.918 2.04363336154e-38
-0.047414397765 -0.118535994412 0.915 1.14995358436e-38
-0.0456210897465 -0.118276899343 0.913 1.26134588215e-38
-0.0436908314768 -0.117629161668 0.908 1.27971242086e-38
-0.0417790799978 -0.116981423994 0.903 1.26123630061e-38
-0.0400190842026 -0.116722328924 0.901 1.23375711798e-38
-0.0381387942678 -0.11607459125 0.896 1.31673374538e-38
-0.0363991559423 -0.11581549618 0.894 9.48350736118e-39
-0.0346280560726 -0.115426853575 0.891 6.35138248696e-39
-0.032831046696 -0.114908663436 0.887 1.19706692029e-38
-0.0311191685565 -0.114649568366 0.885 1.3166634002e-38
-0.0293813809101 -0.114260925761 0.882 1.25226813057e-38
-0.0275288511614 -0.113354093017 0.875 1.27989248771e-38
-0.0259095069754 -0.113354093017 0.875 1.07695616385e-38
-0.0242901627894 -0.113354093017 0.875 1.8881295894e-38
-0.0227485471244 -0.113742735622 0.878 1.82363188485e-38
-0.0211236509012 -0.113742735622 0.878 1.85117875019e-38
-0.0194987546781 -0.113742735622 0.878 1.78671818006e-38
-0.0179145733944 -0.114001830692 0.88 1.96185078057e-38
-0.0162859758131 -0.114001830692 0.88 1.96192560991e-38
-0.014690690455 -0.114260925761 0.882 3.12243909924e-39
-0.0130583915156 -0.114260925761 0.882 4.59248947012e-40
-0.0114649568366 -0.114649568366 0.885 6.42924143223e-40
-0.00982710585995 -0.114649568366 0.885 9.18434835592e-40
-0.00818925488329 -0.114649568366 0.885 5.32493416443e-44
-0.00655140390664 -0.114649568366 0.885 1.92445138572e-38
-0.00492465700439 -0.114908663436 0.887 2.04526068945e-38
-0.0032831046696 -0.114908663436 0.887 2.29588740395e-39
-0.0016415523348 -0.114908663436 0.887 5.04467447157e-44
0.0 -0.115167758506 0.889 5.184804318e-44
0.00164525369294 -0.115167758506 0.889 4.90454462514e-44
0.00329050738588 -0.115167758506 0.889 4.62428493227e-44
0.00494686515323 -0.115426853575 0.891 1.74492627505e-39
0.00659582020431 -0.115426853575 0.891 2.13652249402e-38
0.00827253544143 -0.11581549618 0.894 1.86962208006e-38
0.00992704252972 -0.11581549618 0.894 1.99883861405e-38
0.011607459125 -0.11607459125 0.896 1.9340492993e-38
0.0132656675714 -0.11607459125 0.896 1.82348572942e-38
0.0149238760178 -0.11607459125 0.896 1.82345013644e-38
0.0165820844643 -0.11607459125 0.896 1.87883968123e-38
0.0182402929107 -0.11607459125 0.896 1.85121616486e-38
0.0198985013571 -0.11607459125 0.896 1.82348671033e-38
0.0216048274593 -0.11633368632 0.898 1.82345013644e-38
0.0232667372639 -0.11633368632 0.898 1.84188856176e-38
0.0249286470685 -0.11633368632 0.898 1.89713433333e-38
0.026590556873 -0.11633368632 0.898 1.84199660188e-38
0.0284097743985 -0.116981423994 0.903 1.82352370461e-38
0.0300809375984 -0.116981423994 0.903 1.84199688214e-38
0.0318575895053 -0.117370066599 0.906 1.84181695541e-38
0.0335343047424 -0.117370066599 0.906 1.8233419562e-38
0.0352110199796 -0.117370066599 0.906 1.80511792954e-38
0.0368877352167 -0.117370066599 0.906 1.8234504167e-38
0.0385644504538 -0.117370066599 0.906 1.83277703889e-38
0.0403299982863 -0.117629161668 0.908 1.88813127096e-38
0.0420104148815 -0.117629161668 0.908 1.84203345603e-38
0.0436908314768 -0.117629161668 0.908 1.86951446034e-38
0.0453712480721 -0.117629161668 0.908 1.88798735761e-38
0.0471553026952 -0.117888256738 0.91 1.85121798655e-38
0.0488394206486 -0.117888256738 0.91 1.84199660188e-38
0.050523538602 -0.117888256738 0.91 1.92475812996e-38
0.0522076565554 -0.117888256738 0.91 1.84163688856e-38
0.0538917745088 -0.117888256738 0.91 1.74867769116e-38
-0.0547801004623 -0.118119591622 0.925 1.79459529911e-38
-0.0529534802205 -0.11786419791 0.923 1.91448745299e-38
-0.0510787423229 -0.117481107343 0.92 1.81332057023e-38
-0.0492687781928 -0.117225713631 0.918 2.00700692293e-38
-0.0475698548068 -0.117225713631 0.918 1.21434717243e-38
-0.0456210897465 -0.116587229352 0.913 1.22446945189e-38
-0.0437870667884 -0.116204138785 0.91 1.25205751541e-38
-0.0417790799978 -0.115310260794 0.903 1.2795327744e-38
-0.0400190842026 -0.115054867082 0.901 1.29815210735e-38
-0.038223925505 -0.114671776515 0.898 1.35364674953e-38
-0.0364805858214 -0.114416382803 0.896 9.11473465081e-39
-0.034744648854 -0.114160989092 0.894 6.16481781331e-39
-0.0329050738588 -0.113522504813 0.889 1.15103945054e-38
-0.0311894943612 -0.113267111101 0.887 9.94304777827e-39
-0.0293813809101 -0.112628626822 0.882 1.2983335755e-38
-0.0276232357939 -0.112117839399 0.878 1.27989248771e-38
-0.0259095069754 -0.111734748831 0.875 1.08620879748e-38
-0.0242901627894 -0.111734748831 0.875 1.89746027535e-38
-0.0227485471244 -0.112117839399 0.878 1.76838513238e-38
-0.0211236509012 -0.112117839399 0.878 1.86958298383e-38
-0.0194987546781 -0.112117839399 0.878 1.77742462851e-38
-0.0179145733944 -0.11237323311 0.88 1.8051182098e-38
-0.0163229893945 -0.112628626822 0.882 2.10018121964e-38
-0.014690690455 -0.112628626822 0.882 1.83670992316e-39
-0.0131028078133 -0.113011717389 0.885 4.60682475341e-40
-0.0114649568366 -0.113011717389 0.885 1.46943800345e-39
-0.00984931400879 -0.113267111101 0.887 5.51080239274e-40
-0.00820776167399 -0.113267111101 0.887 6.44597293589e-44
-0.00656620933919 -0.113267111101 0.887 1.05971458754e-38
-0.00492465700439 -0.113267111101 0.887 1.98090395553e-38
-0.0032831046696 -0.113267111101 0.887 1.86987445391e-38
-0.00164525369294 -0.113522504813 0.889 6.71013030811e-39
0.0 -0.113522504813 0.889 5.51016199934e-39
0.00164525369294 -0.113522504813 0.889 5.14285784977e-39
0.00329791010215 -0.113777898524 0.891 1.44509857016e-38
0.00494686515323 -0.113777898524 0.891 2.00798657069e-38
0.00661802835314 -0.114160989092 0.894 2.01709753304e-38
0.00827253544143 -0.114160989092 0.894 1.89695454674e-38
0.00992704252972 -0.114160989092 0.894 1.82345013644e-38
0.011607459125 -0.114416382803 0.896 1.869584245e-38
0.0132656675714 -0.114416382803 0.896 1.82345013644e-38
0.0149238760178 -0.114416382803 0.896 1.84192261332e-38
0.0166190980456 -0.114671776515 0.898 1.87887471369e-38
0.0182810078502 -0.114671776515 0.898 1.78657132398e-38
0.0199429176548 -0.114671776515 0.898 1.94337662213e-38
0.0216048274593 -0.114671776515 0.898 1.80508289708e-38
0.0232667372639 -0.114671776515 0.898 1.90656591278e-38
0.0250119276266 -0.115054867082 0.901 1.8510365184e-38
0.0267386111986 -0.115310260794 0.903 1.85110826488e-38
0.0284097743985 -0.115310260794 0.903 1.82355873707e-38
0.0300809375984 -0.115310260794 0.903 1.81430217981e-38
0.0318575895053 -0.115693351361 0.906 1.88802210981e-38
0.0335343047424 -0.115693351361 0.906 1.87883757928e-38
0.0352110199796 -0.115693351361 0.906 1.78664152903e-38
0.0369691650957 -0.115948745073 0.908 1.87891002641e-38
0.038649581691 -0.115948745073 0.908 1.84199660188e-38
0.0403299982863 -0.115948745073 0.908 1.81433777279e-38
0.0420104148815 -0.115948745073 0.908 1.86965459019e-38
0.0436908314768 -0.115948745073 0.908 1.86965515071e-38
0.0453712480721 -0.115948745073 0.908 1.82352202305e-38
0.0471553026952 -0.116204138785 0.91 1.86958270357e-38
0.0488394206486 -0.116204138785 0.91 1.82355733577e-38
0.050523538602 -0.116204138785 0.91 1.93383307894e-38
0.0522076565554 -0.116204138785 0.91 1.91539367271e-38
0.0538917745088 -0.116204138785 0.91 1.7115481864e-38
-0.0510787423229 -0.115778482599 0.92 1.64683468189e-38
-0.0493761175788 -0.115778482599 0.92 1.63754169087e-38
-0.0475698548068 -0.115526790245 0.918 1.36178577127e-38
-0.0457210264162 -0.115149251715 0.915 8.09696036579e-39
-0.0439314197559 -0.114897559361 0.913 1.28893660813e-38
-0.0420104148815 -0.114268328478 0.908 1.03121610042e-38
-0.0400190842026 -0.113387405241 0.901 1.28914736342e-38
-0.038223925505 -0.11300986671 0.898 1.27056306293e-38
-0.0364805858214 -0.112758174357 0.896 1.25212617903e-38
-0.034744648854 -0.112506482003 0.894 1.1966993597e-38
-0.0329050738588 -0.11187725112 0.889 1.05833977362e-38
-0.0311894943612 -0.111625558766 0.887 6.44609625016e-39
-0.0294813175799 -0.111373866413 0.885 1.29851882716e-38
-0.0276232357939 -0.110492943176 0.878 1.27049243748e-38
-0.0259983395707 -0.110492943176 0.878 1.10461289099e-38
-0.0243734433476 -0.110492943176 0.878 1.91593485418e-38
-0.0227485471244 -0.110492943176 0.878 1.79604284043e-38
-0.0211236509012 -0.110492943176 0.878 1.8142302932e-38
-0.0195431709757 -0.110744635529 0.88 1.84185380956e-38
-0.0179552883339 -0.110996327883 0.882 1.81423085371e-38
-0.0163229893945 -0.110996327883 0.882 2.06319534798e-38
-0.0147406587899 -0.111373866413 0.885 1.01019045774e-39
-0.0131028078133 -0.111373866413 0.885 6.58610278233e-44
-0.0114908663436 -0.111625558766 0.887 1.01026472656e-39
-0.00984931400879 -0.111625558766 0.887 5.51080239274e-40
-0.00820776167399 -0.111625558766 0.887 6.44597293589e-44
-0.00656620933919 -0.111625558766 0.887 1.29008020781e-39
-0.00492465700439 -0.111625558766 0.887 1.95339072135e-38
-0.00329050738588 -0.11187725112 0.889 1.86972549589e-38
-0.00164525369294 -0.11187725112 0.889 2.02642331445e-38
0.0 -0.112128943473 0.891 1.97114265056e-38
0.00164895505108 -0.112128943473 0.891 1.98043438041e-38
0.00330901417657 -0.112506482003 0.894 1.93430139289e-38
0.00496352126486 -0.112506482003 0.894 1.82348572942e-38
0.00661802835314 -0.112506482003 0.894 1.89713433333e-38
0.00827253544143 -0.112506482003 0.894 1.80501073021e-38
0.00994925067855 -0.112758174357 0.896 1.81419526073e-38
0.011607459125 -0.112758174357 0.896 1.90631886386e-38
0.0132656675714 -0.112758174357 0.896 1.83274354786e-38
0.0149238760178 -0.112758174357 0.896 1.85110854514e-38
0.0166190980456 -0.11300986671 0.898 1.8694757845e-38
0.0182810078502 -0.11300986671 0.898 1.8510031675e-38
0.0199429176548 -0.11300986671 0.898 1.82352202305e-38
0.0216048274593 -0.11300986671 0.898 1.82348544916e-38
0.0232667372639 -0.11300986671 0.898 1.81423057345e-38
0.0250119276266 -0.113387405241 0.901 1.82352230331e-38
0.0267386111986 -0.113639097594 0.903 1.81430246007e-38
0.0284097743985 -0.113639097594 0.903 1.85121644512e-38
0.0301808742682 -0.114016636124 0.906 1.86032838839e-38
0.0318575895053 -0.114016636124 0.906 1.8234851689e-38
0.0335343047424 -0.114016636124 0.906 1.8510365184e-38
0.0352110199796 -0.114016636124 0.906 1.83277731915e-38
0.0369691650957 -0.114268328478 0.908 1.8602918145e-38
0.038649581691 -0.114268328478 0.908 1.84185324904e-38
0.0403299982863 -0.114268328478 0.908 1.84174478854e-38
0.0420104148815 -0.114268328478 0.908 1.87858576595e-38
0.0436908314768 -0.114268328478 0.908 1.87880282708e-38
0.0454711847418 -0.114520020831 0.91 1.85121644512e-38
0.0471553026952 -0.114520020831 0.91 1.8419971624e-38
0.0488394206486 -0.114520020831 0.91 1.86032838839e-38
0.050523538602 -0.114520020831 0.91 1.92461295544e-38
0.0523797697089 -0.114897559361 0.913 1.87844255325e-38
0.0540694396995 -0.114897559361 0.913 1.85909482535e-38
-0.0493761175788 -0.114075857855 0.92 1.99764120452e-38
-0.0475698548068 -0.113827866859 0.918 1.31590501747e-38
-0.0457210264162 -0.113455880366 0.915 1.24301619759e-38
-0.0439314197559 -0.113207889371 0.913 8.0033242011e-39
-0.042102948835 -0.112835902878 0.91 9.48244097305e-39
-0.0401079167979 -0.111967934394 0.903 1.04050783027e-38
-0.0383516223608 -0.111719943399 0.901 1.26159811587e-38
-0.0365620157004 -0.111347956906 0.898 1.24294136825e-38
-0.0348223773749 -0.11109996591 0.896 1.30740642254e-38
-0.0329791010215 -0.110479988422 0.891 1.15985992373e-38
-0.0312598201658 -0.110231997427 0.889 6.62261361381e-39
-0.0295479420264 -0.109984006431 0.887 1.28879731906e-38
-0.0277490819706 -0.109364028943 0.882 1.26138147513e-38
-0.0259983395707 -0.108868046952 0.878 1.1137255349e-38
-0.0243734433476 -0.108868046952 0.878 1.87898429523e-38
-0.0228003661383 -0.109116037948 0.88 1.86979948445e-38
-0.021171768557 -0.109116037948 0.88 1.83277731915e-38
-0.0195431709757 -0.109116037948 0.88 1.84189150449e-38
-0.0179552883339 -0.109364028943 0.882 1.85107351268e-38
-0.0163229893945 -0.109364028943 0.882 2.100075842e-38
-0.0147406587899 -0.109736015436 0.885 2.66322938858e-39
-0.0131028078133 -0.109736015436 0.885 3.08285662151e-44
-0.0114908663436 -0.109984006431 0.887 1.19394692926e-39
-0.00984931400879 -0.109984006431 0.887 5.51087245767e-40
-0.00820776167399 -0.109984006431 0.887 1.83752267627e-40
-0.00656620933919 -0.109984006431 0.887 3.64337600724e-44
-0.00493576107881 -0.110231997427 0.889 1.98101241603e-38
-0.00329050738588 -0.110231997427 0.889 1.85143350625e-38
-0.00164525369294 -0.110231997427 0.889 1.85110854514e-38
0.0 -0.110479988422 0.891 1.90639075047e-38
0.00164895505108 -0.110479988422 0.891 1.87855101375e-38
0.00330901417657 -0.110851974915 0.894 1.87862304049e-38
0.00496352126486 -0.110851974915 0.894 1.8234504167e-38
0.0066328337857 -0.11109996591 0.896 1.92482973631e-38
0.00829104223213 -0.11109996591 0.896 1.84188884202e-38
0.00994925067855 -0.11109996591 0.896 1.86954823163e-38
0.011607459125 -0.11109996591 0.896 1.83263242489e-38
0.0132656675714 -0.11109996591 0.896 1.83274200643e-38
0.0149238760178 -0.11109996591 0.896 1.85114343747e-38
0.0166190980456 -0.111347956906 0.898 1.85110826488e-38
0.0182810078502 -0.111347956906 0.898 1.86933243167e-38
0.0199429176548 -0.111347956906 0.898 1.89731383966e-38
0.0216048274593 -0.111347956906 0.898 1.85110826488e-38
0.0232667372639 -0.111347956906 0.898 1.87883940097e-38
0.0250119276266 -0.111719943399 0.901 1.83270851539e-38
0.0267386111986 -0.111967934394 0.903 1.86025622152e-38
0.0284097743985 -0.111967934394 0.903 1.91564506566e-38
0.0301808742682 -0.112339920887 0.906 1.86958452526e-38
0.0318575895053 -0.112339920887 0.906 1.85107155086e-38
0.0336083319052 -0.112587911883 0.908 1.86025622152e-38
0.0352887485005 -0.112587911883 0.908 1.84178318412e-38
0.0369691650957 -0.112587911883 0.908 1.86022118905e-38
0.038649581691 -0.112587911883 0.908 1.86926236675e-38
0.0404188308816 -0.112835902878 0.91 1.906138797e-38
0.042102948835 -0.112835902878 0.91 1.90624991997e-38
0.0437870667884 -0.112835902878 0.91 1.92468540257e-38
0.0454711847418 -0.112835902878 0.91 1.93390468529e-38
0.0473107597371 -0.113207889371 0.913 1.91539367271e-38
0.0488394206486 -0.112835902878 0.91 1.87880408825e-38
0.050523538602 -0.112835902878 0.91 1.90632040528e-38
0.0523797697089 -0.113207889371 0.913 2.04432083857e-38
0.0540694396995 -0.113207889371 0.913 2.08994823761e-38
-0.0492687781928 -0.112128943473 0.918 2.08054902816e-38
-0.0475698548068 -0.112128943473 0.918 1.23292740916e-38
-0.0457210264162 -0.111762509017 0.915 1.30737167034e-38
-0.0439314197559 -0.11151821938 0.913 1.18780209536e-38
-0.042102948835 -0.111151784924 0.91 8.55905675128e-39
-0.0401079167979 -0.110296771194 0.903 9.94089538383e-39
-0.0383516223608 -0.110052481557 0.901 1.05923856646e-38
-0.0365620157004 -0.109686047101 0.898 1.28940043792e-38
-0.0348223773749 -0.109441757464 0.896 1.24304856758e-38
-0.0329791010215 -0.108831033371 0.891 1.28896729657e-38
-0.0312598201658 -0.108586743734 0.889 1.32591841603e-38
-0.0295479420264 -0.108342454097 0.887 1.26145308148e-38
-0.0278434666032 -0.108098164459 0.885 1.24294318994e-38
-0.026057561301 -0.107487440366 0.88 1.16893333128e-38
-0.0244289637197 -0.107487440366 0.88 1.8880962385e-38
-0.0228003661383 -0.107487440366 0.88 1.869584245e-38
-0.021171768557 -0.107487440366 0.88 1.83277703889e-38
-0.0195431709757 -0.107487440366 0.88 1.78667978448e-38
-0.0179552883339 -0.107731730004 0.882 1.76827527058e-38
-0.0163785097666 -0.108098164459 0.885 2.03549938448e-38
-0.0147406587899 -0.108098164459 0.885 1.24312339692e-38
-0.0131324186784 -0.108342454097 0.887 1.83689209196e-40
-0.0114908663436 -0.108342454097 0.887 8.26614753717e-40
-0.00984931400879 -0.108342454097 0.887 4.59251749609e-40
-0.00822626846469 -0.108586743734 0.889 9.18433434294e-40
-0.00658101477175 -0.108586743734 0.889 3.78350585368e-44
-0.00493576107881 -0.108586743734 0.889 2.02675514193e-38
-0.00329050738588 -0.108586743734 0.889 1.74998201977e-38
-0.00164895505108 -0.108831033371 0.891 1.91564408475e-38
0.0 -0.109197467827 0.894 1.83263242489e-38
0.00165450708829 -0.109197467827 0.894 1.85103623814e-38
0.00331641689285 -0.109441757464 0.896 1.89713433333e-38
0.00497462533928 -0.109441757464 0.896 1.84196184967e-38
0.0066328337857 -0.109441757464 0.896 1.84196184967e-38
0.00829104223213 -0.109441757464 0.896 1.84199688214e-38
0.00994925067855 -0.109441757464 0.896 1.8419633911e-38
0.011607459125 -0.109441757464 0.896 1.8419971624e-38
0.0132656675714 -0.109441757464 0.896 1.8511811324e-38
0.0149571882411 -0.109686047101 0.898 1.83267194151e-38
0.0166190980456 -0.109686047101 0.898 1.8234504167e-38
0.0182810078502 -0.109686047101 0.898 1.93394027828e-38
0.0199429176548 -0.109686047101 0.898 1.84170947582e-38
0.0216048274593 -0.109686047101 0.898 1.8970618862e-38
0.0233444657848 -0.110052481557 0.901 1.86958298383e-38
0.0250674479987 -0.110296771194 0.903 1.82355733577e-38
0.0267386111986 -0.110296771194 0.903 1.85103623814e-38
0.0284097743985 -0.110296771194 0.903 1.87851570103e-38
0.0301808742682 -0.11066320565 0.906 1.84160213636e-38
0.0318575895053 -0.11066320565 0.906 1.95234451192e-38
0.0336083319052 -0.110907495287 0.908 1.86936774439e-38
0.0352887485005 -0.110907495287 0.908 1.95259464369e-38
0.0370505949748 -0.111151784924 0.91 1.8511421763e-38
0.0387347129282 -0.111151784924 0.91 1.88784232321e-38
0.0404188308816 -0.111151784924 0.91 1.93383279868e-38
0.0422417497652 -0.11151821938 0.913 1.8418535293e-38
0.0439314197559 -0.11151821938 0.913 1.86954795137e-38
0.0456210897465 -0.11151821938 0.913 1.91535835999e-38
0.0473107597371 -0.11151821938 0.913 1.94305264193e-38
0.0490004297277 -0.11151821938 0.913 1.89706244672e-38
0.0506900997183 -0.11151821938 0.913 1.86004126233e-38
-0.0535271907321 -0.11223443218 0.933 1.84983952925e-38
-0.0516339460438 -0.111873549762 0.93 1.85913069859e-38
-0.049912814509 -0.111873549762 0.93 2.06199639701e-38
-0.0476734928347 -0.110670608366 0.92 1.24200333906e-38
