# .PCD v0.7 - Point Cloud Data file format
VERSION 0.7
FIELDS x y z rgb
SIZE 4 4 4 4
TYPE F F F F
COUNT 1 1 1 1
WIDTH 855
HEIGHT 1
VIEWPOINT 0 0 0 1 0 0 0
POINTS 855
DATA ascii
-0.0282006476636 -0.129129281407 0.802 1.33662363565e-38
-0.0267164030498 -0.129129281407 0.802 1.58569476873e-38
-0.0252321584359 -0.129129281407 0.802 1.24453562551e-38
-0.0236886920918 -0.128807263249 0.8 7.98740124665e-44
-0.0222081488361 -0.128807263249 0.8 1.30741146722e-41
-0.0207276055803 -0.128807263249 0.8 3.83648894861e-40
-0.0191989446688 -0.128485245091 0.798 6.59889663731e-40
-0.0177221027712 -0.128485245091 0.798 8.43915184558e-40
-0.016204545934 -0.128163226933 0.796 5.70205160715e-40
-0.0147314053946 -0.128163226933 0.796 2.13644205949e-39
-0.0132582648551 -0.128163226933 0.796 1.67690584629e-39
-0.0117851243157 -0.128163226933 0.796 2.59706708159e-39
-0.0103119837762 -0.128163226933 0.796 3.0576864985e-39
-0.00883884323675 -0.128163226933 0.796 7.5567542026e-40
-0.00736570269729 -0.128163226933 0.796 1.52293117103e-41
-0.00587775672528 -0.127841208775 0.794 1.91977889612e-43
-0.00440831754396 -0.127841208775 0.794 1.81708712037e-38
-0.00293887836264 -0.127841208775 0.794 2.18460482783e-38
-0.00146943918132 -0.127841208775 0.794 1.65929825082e-38
0.0 -0.127841208775 0.794 1.94536254232e-38
0.00146943918132 -0.127841208775 0.794 1.20703996146e-38
0.00293887836264 -0.127841208775 0.794 1.96283715456e-38
0.00440831754396 -0.127841208775 0.794 2.15683865928e-38
0.00587775672528 -0.127841208775 0.794 1.52026057641e-38
0.00734719590659 -0.127841208775 0.794 1.23473746639e-38
0.00881663508791 -0.127841208775 0.794 6.51323526218e-42
0.0102860742692 -0.127841208775 0.794 2.59853143848e-39
0.0117259025854 -0.127519190617 0.792 1.6137479232e-38
0.0131916404086 -0.127519190617 0.792 9.40789749994e-39
0.0146573782318 -0.127519190617 0.792 1.00482894968e-38
0.016123116055 -0.127519190617 0.792 9.21318147313e-39
0.0176332701758 -0.127841208775 0.794 1.02219818428e-39
0.0190545917013 -0.127519190617 0.792 9.40124133223e-40
0.0205203295245 -0.127519190617 0.792 1.82558487452e-38
0.0219860673477 -0.127519190617 0.792 6.82396338756e-39
0.0234518051709 -0.127519190617 0.792 3.97568272767e-39
0.0249175429941 -0.127519190617 0.792 2.02791303485e-38
0.0263832808172 -0.127519190617 0.792 1.08748061597e-38
0.0279193444451 -0.127841208775 0.794 5.91037143946e-39
0.0294628107892 -0.128163226933 0.796 1.92230123336e-41
0.0310136798495 -0.128485245091 0.798 1.25545566418e-38
0.0324905217471 -0.128485245091 0.798 2.07433412934e-38
0.0341376261192 -0.129129281407 0.802 1.89894453069e-38
0.035755119626 -0.129612308644 0.805 1.91745554327e-38
0.0374299841841 -0.130256344961 0.809 2.05578458105e-38
0.0389271835515 -0.130256344961 0.809 8.82818032525e-44
0.0407241929281 -0.131222399435 0.815 3.5071810069e-39
0.0424397724257 -0.131866435751 0.819 1.09301280217e-43
0.0439554785838 -0.131866435751 0.819 1.41168362737e-38
0.045582225486 -0.132188453909 0.821 2.05617988734e-38
0.0474458593092 -0.133154508384 0.827 1.98213569688e-38
0.0490948143602 -0.133476526542 0.829 1.94525968701e-38
0.0507511721276 -0.1337985447 0.831 1.92685531324e-38
0.0522890864345 -0.1337985447 0.831 1.99135722168e-38
0.0538270007414 -0.1337985447 0.831 1.94515052586e-38
0.0558979106203 -0.135086617332 0.839 1.99121232742e-38
0.0577245308621 -0.135730653649 0.843 1.9911770147e-38
0.0592846533178 -0.135730653649 0.843 1.95437008885e-38
0.0608447757736 -0.135730653649 0.843 1.94515052586e-38
0.0624048982293 -0.135730653649 0.843 2.06504085805e-38
-0.0312857296728 -0.128122511993 0.805 1.96337034862e-38
-0.0297219058589 -0.127804195193 0.803 2.000322449e-38
-0.028235810566 -0.127804195193 0.803 1.30896536708e-38
-0.0267164030498 -0.127645036793 0.802 1.48427929562e-38
-0.0252321584359 -0.127645036793 0.802 1.65015912237e-38
-0.0236886920918 -0.127326719993 0.8 6.0835270881e-39
-0.0222081488361 -0.127326719993 0.8 1.93939707463e-42
-0.0207276055803 -0.127326719993 0.8 1.27181848622e-41
-0.0191989446688 -0.127008403193 0.798 1.06703272864e-40
-0.0177221027712 -0.127008403193 0.798 1.07434750663e-40
-0.016204545934 -0.126690086393 0.796 6.59886861134e-40
-0.0147314053946 -0.126690086393 0.796 8.44624241581e-40
-0.0132582648551 -0.126690086393 0.796 4.78012333449e-40
-0.0117851243157 -0.126690086393 0.796 9.38631750359e-40
-0.0102860742692 -0.126371769593 0.794 1.76981753967e-39
-0.00881663508791 -0.126371769593 0.794 2.5974174062e-39
-0.00734719590659 -0.126371769593 0.794 1.12790513394e-41
-0.00586295129272 -0.126053452793 0.792 1.12555851953e-38
-0.00439721346954 -0.126053452793 0.792 1.35484345841e-38
-0.00293147564636 -0.126053452793 0.792 2.21200413645e-38
-0.00146573782318 -0.126053452793 0.792 1.77915901562e-38
0.0 -0.126053452793 0.792 1.81628697895e-38
0.00146573782318 -0.126053452793 0.792 1.72355254983e-38
0.00293147564636 -0.126053452793 0.792 2.1013416349e-38
0.00439721346954 -0.126053452793 0.792 2.0554233263e-38
0.00586295129272 -0.126053452793 0.792 1.24435555866e-38
0.0073286891159 -0.126053452793 0.792 8.30829859498e-42
0.00879442693908 -0.126053452793 0.792 4.8414301423e-40
0.0102601647623 -0.126053452793 0.792 1.57690876748e-38
0.0116962917203 -0.125735135993 0.79 7.10480461928e-39
0.0131583281854 -0.125735135993 0.79 3.88524152349e-39
0.0146203646504 -0.125735135993 0.79 1.58537611346e-38
0.0160824011154 -0.125735135993 0.79 9.21458277159e-39
0.0175444375805 -0.125735135993 0.79 2.20858650962e-41
0.0190064740455 -0.125735135993 0.79 1.50405652149e-38
0.0204685105106 -0.125735135993 0.79 9.32041303551e-39
0.0219305469756 -0.125735135993 0.79 1.86814945551e-39
0.0233925834406 -0.125735135993 0.79 1.63248048107e-38
0.0248546199057 -0.125735135993 0.79 1.19876627494e-38
0.0263166563707 -0.125735135993 0.79 4.15970124201e-39
0.0278490186404 -0.126053452793 0.792 1.78020956908e-41
0.0293887836264 -0.126371769593 0.794 7.95345479135e-39
0.0310136798495 -0.127008403193 0.798 2.11114007428e-38
0.0324905217471 -0.127008403193 0.798 1.9081628325e-38
0.0341376261192 -0.127645036793 0.802 1.87146562832e-38
0.035755119626 -0.128122511993 0.805 1.94522087104e-38
0.0374299841841 -0.128759145593 0.809 2.12046515504e-38
0.0389271835515 -0.128759145593 0.809 7.14662216806e-44
0.0407241929281 -0.129714095993 0.815 3.41498817963e-39
0.0424397724257 -0.130350729593 0.819 1.1350517561e-43
0.0439554785838 -0.130350729593 0.819 1.13431173038e-38
0.045582225486 -0.130669046393 0.821 2.08380270306e-38
0.0474458593092 -0.131623996793 0.827 2.01901394882e-38
0.0492132578207 -0.132260630393 0.831 1.9451502456e-38
0.0507511721276 -0.132260630393 0.831 2.00061237765e-38
0.0524149326112 -0.132578947193 0.833 1.97291613389e-38
0.0539565482763 -0.132578947193 0.833 1.94522087104e-38
0.0561644084064 -0.134170531193 0.843 1.97291641415e-38
0.0577245308621 -0.134170531193 0.843 1.99121232742e-38
0.0592846533178 -0.134170531193 0.843 1.98199248418e-38
0.0608447757736 -0.134170531193 0.843 1.96358965183e-38
0.0625529525549 -0.134488847993 0.845 2.06503973701e-38
-0.0297219058589 -0.1263180999 0.803 2.00032272926e-38
-0.028235810566 -0.1263180999 0.803 1.41038013954e-38
-0.0267164030498 -0.126160792179 0.802 1.52112027302e-38
-0.0252321584359 -0.126160792179 0.802 1.5026818477e-38
-0.0236886920918 -0.125846176738 0.8 1.57622451344e-38
-0.0222081488361 -0.125846176738 0.8 1.49518546143e-42
-0.0207276055803 -0.125846176738 0.8 2.91100137785e-40
-0.0191989446688 -0.125531561296 0.798 4.76194849341e-40
-0.0177221027712 -0.125531561296 0.798 1.34412548698e-41
-0.016204545934 -0.125216945854 0.796 1.16363824478e-41
-0.0147314053946 -0.125216945854 0.796 1.30657068814e-41
-0.0132582648551 -0.125216945854 0.796 1.99630380526e-40
-0.0117555134506 -0.124902330412 0.794 6.59889663731e-40
-0.0102860742692 -0.124902330412 0.794 7.52801357109e-40
-0.00881663508791 -0.124902330412 0.794 1.58039141456e-39
-0.00734719590659 -0.124902330412 0.794 1.37327249504e-43
-0.00586295129272 -0.12458771497 0.792 2.08347928338e-38
-0.00438610939512 -0.124273099528 0.79 2.03680441374e-38
-0.00292407293008 -0.124273099528 0.79 2.02776057358e-38
-0.00146203646504 -0.124273099528 0.79 1.76975952591e-38
0.0 -0.124273099528 0.79 1.49295431402e-38
0.00146203646504 -0.124273099528 0.79 1.96308168114e-38
0.00292407293008 -0.124273099528 0.79 2.04609460217e-38
0.00438610939512 -0.124273099528 0.79 1.45614963024e-38
0.00584814586016 -0.124273099528 0.79 5.42582765387e-42
0.0073101823252 -0.124273099528 0.79 8.50404597746e-40
0.00877221879024 -0.124273099528 0.79 1.641589902e-38
0.0102342552553 -0.124273099528 0.79 9.77887305149e-39
0.0116962917203 -0.124273099528 0.79 9.13385396706e-39
0.0131583281854 -0.124273099528 0.79 1.71455509265e-38
0.0146203646504 -0.124273099528 0.79 8.94448109129e-39
0.0160824011154 -0.124273099528 0.79 1.45076430012e-41
0.0175444375805 -0.124273099528 0.79 1.05305575737e-38
0.0189824152176 -0.124115791807 0.789 1.2180297848e-38
0.0204426010036 -0.124115791807 0.789 1.59986245672e-41
0.0219027867896 -0.124115791807 0.789 1.6879434539e-38
0.0233629725755 -0.124115791807 0.789 1.09778240176e-38
0.0248231583615 -0.124115791807 0.789 2.04998474683e-39
0.0263166563707 -0.124273099528 0.79 2.4626419212e-41
0.0277786928358 -0.124273099528 0.79 4.81808170729e-39
0.0293147564636 -0.12458771497 0.792 2.15702194912e-38
0.0310136798495 -0.125531561296 0.798 1.98188458419e-38
0.0324905217471 -0.125531561296 0.798 1.94518527806e-38
0.034265322975 -0.126632715342 0.805 1.87139360158e-38
0.0360216174121 -0.127576561668 0.811 1.96362468429e-38
0.0374299841841 -0.127261946226 0.809 2.13890330011e-38
0.0389271835515 -0.127261946226 0.809 7.84727140022e-44
0.0408241295979 -0.128520407993 0.817 3.41393440319e-39
0.0424397724257 -0.128835023435 0.819 7.34825500409e-40
0.0439554785838 -0.128835023435 0.819 7.00741297472e-39
0.045582225486 -0.129149638877 0.821 2.16674247631e-38
0.0474458593092 -0.130093485203 0.827 1.93600256923e-38
0.0493317012812 -0.131037331528 0.833 2.00046748339e-38
0.0509954617648 -0.13135194697 0.835 1.93596697624e-38
0.052540778788 -0.13135194697 0.835 2.06496911157e-38
0.054215643346 -0.131666562412 0.837 1.94533031245e-38
0.0561644084064 -0.132610408737 0.843 2.00979438584e-38
0.0577245308621 -0.132610408737 0.843 1.95440512131e-38
0.0594253049271 -0.132925024179 0.845 1.95436980859e-38
0.060989128741 -0.132925024179 0.845 1.95440540157e-38
0.0627010068805 -0.133239639621 0.847 2.09273387882e-38
-0.0297219058589 -0.124832004607 0.803 2.02801673094e-38
-0.028235810566 -0.124832004607 0.803 1.31811080138e-38
-0.0267164030498 -0.124676547566 0.802 1.52104838641e-38
-0.0252321584359 -0.124676547566 0.802 1.47480735878e-38
-0.0236886920918 -0.124365633482 0.8 1.59484174445e-38
-0.0222081488361 -0.124365633482 0.8 1.21694952381e-38
-0.0207276055803 -0.124365633482 0.8 2.98196313208e-42
-0.0191989446688 -0.124054719398 0.798 5.72004427944e-40
-0.0177221027712 -0.124054719398 0.798 1.76333373167e-39
-0.016204545934 -0.123743805314 0.796 1.4878258419e-39
-0.0147314053946 -0.123743805314 0.796 1.48640072136e-39
-0.0132582648551 -0.123743805314 0.796 3.81495099122e-40
-0.0117555134506 -0.123432891231 0.794 1.99980705142e-40
-0.0102860742692 -0.123432891231 0.794 1.59425726286e-41
-0.00879442693908 -0.123121977147 0.792 1.63083115278e-41
-0.0073286891159 -0.123121977147 0.792 7.33439616228e-42
-0.00584814586016 -0.122811063063 0.79 1.4937843031e-38
-0.00438610939512 -0.122811063063 0.79 1.7328086867e-38
-0.00292037157194 -0.122655606022 0.789 1.70511538567e-38
-0.00146018578597 -0.122655606022 0.789 1.87128387991e-38
0.0 -0.122655606022 0.789 2.02787043538e-38
0.00146018578597 -0.122655606022 0.789 2.00946802343e-38
0.00292037157194 -0.122655606022 0.789 1.5022559931e-38
0.00438055735791 -0.122655606022 0.789 2.56157359279e-42
0.00584074314388 -0.122655606022 0.789 3.14559415506e-39
0.00730092892985 -0.122655606022 0.789 1.47542925504e-38
0.00876111471582 -0.122655606022 0.789 1.11614515696e-38
0.0102213005018 -0.122655606022 0.789 2.35193934252e-41
0.0116814862878 -0.122655606022 0.789 1.60471753551e-38
0.0131416720737 -0.122655606022 0.789 1.25386659172e-38
0.0146018578597 -0.122655606022 0.789 6.97145986002e-42
0.0160620436457 -0.122655606022 0.789 1.4029284547e-38
0.0175222294316 -0.122655606022 0.789 1.33745376486e-38
0.0189824152176 -0.122655606022 0.789 1.23608537538e-41
0.0204426010036 -0.122655606022 0.789 1.42126024121e-38
0.0219027867896 -0.122655606022 0.789 1.51219400181e-38
0.0233629725755 -0.122655606022 0.789 1.12374748139e-39
0.0248231583615 -0.122655606022 0.789 2.67676032655e-41
0.0262833441475 -0.122655606022 0.789 2.51284203739e-39
0.0277786928358 -0.122811063063 0.79 2.23077733197e-38
0.0292407293008 -0.122811063063 0.79 2.01879688769e-38
0.0310136798495 -0.124054719398 0.798 1.92671041898e-38
0.0324905217471 -0.124054719398 0.798 1.88986846066e-38
0.0346058479238 -0.126386575026 0.813 1.89912305611e-38
0.0360216174121 -0.126075660942 0.811 1.93600228897e-38
0.0375225181376 -0.126075660942 0.811 2.20344024101e-38
0.0390234188631 -0.126075660942 0.811 2.24207754292e-44
0.0409240662676 -0.127319317277 0.819 3.22737533474e-39
0.0424397724257 -0.127319317277 0.819 1.47382266635e-39
0.0440628179698 -0.127630231361 0.821 1.52741532611e-43
0.0456932662302 -0.127941145444 0.823 2.1760704998e-38
0.0476753435138 -0.129184801779 0.831 1.98210094468e-38
0.0493317012812 -0.129495715863 0.833 1.9544416952e-38
0.0509954617648 -0.129806629947 0.835 2.04663760532e-38
0.0526666249647 -0.13011754403 0.837 1.96366125818e-38
0.054215643346 -0.13011754403 0.837 1.93611074947e-38
0.0561644084064 -0.131050286282 0.843 1.93611074947e-38
0.0578614811133 -0.131361200365 0.845 2.01901394882e-38
0.0594253049271 -0.131361200365 0.845 2.00979438584e-38
0.060989128741 -0.131361200365 0.845 2.00975907312e-38
0.0629971155316 -0.132293942616 0.851 2.08347900312e-38
0.0647996769455 -0.132760313742 0.854 1.38243068115e-38
-0.0314411867146 -0.124267547491 0.809 2.00939753811e-38
-0.0297959330217 -0.12365312204 0.805 2.06489498288e-38
-0.0283061363706 -0.12365312204 0.805 1.24435555866e-38
-0.026749715273 -0.123345909315 0.803 1.49328179747e-38
-0.0252636199801 -0.123345909315 0.803 1.45640424617e-38
-0.0237775246871 -0.123345909315 0.803 1.53034011627e-38
-0.0222914293942 -0.123345909315 0.803 1.63164712888e-38
-0.0208053341012 -0.123345909315 0.803 6.6366812491e-39
-0.0192951799804 -0.123192302952 0.802 4.09459411276e-42
-0.0177221027712 -0.122577877501 0.798 1.48817896911e-41
-0.0162452608736 -0.122577877501 0.798 1.30474900013e-41
-0.0147314053946 -0.122270664775 0.796 3.83643289667e-40
-0.0132582648551 -0.122270664775 0.796 1.02721763538e-39
-0.0117555134506 -0.121963452049 0.794 9.34315751089e-40
-0.0102860742692 -0.121963452049 0.794 1.0562147045e-40
-0.00879442693908 -0.121656239324 0.792 6.57349109615e-42
-0.0073286891159 -0.121656239324 0.792 1.94595375014e-39
-0.00584814586016 -0.121349026598 0.79 1.47527455168e-38
-0.00438610939512 -0.121349026598 0.79 1.64090270523e-38
-0.00292037157194 -0.121195420236 0.789 1.299851462e-38
-0.00146018578597 -0.121195420236 0.789 1.48424370264e-38
0.0 -0.121195420236 0.789 1.77919615003e-38
0.00146018578597 -0.121195420236 0.789 1.62231938565e-38
0.00292037157194 -0.121195420236 0.789 2.02689695333e-39
0.00438055735791 -0.121195420236 0.789 1.5261541575e-41
0.00582593771132 -0.12088820751 0.787 1.35579199735e-38
0.00728242213916 -0.12088820751 0.787 1.31833318745e-38
0.00873890656699 -0.12088820751 0.787 5.99416768633e-39
0.0101953909948 -0.12088820751 0.787 1.29110581815e-38
0.0116518754226 -0.12088820751 0.787 7.29107081636e-39
0.0131083598505 -0.12088820751 0.787 9.87775287503e-42
0.0145648442783 -0.12088820751 0.787 9.23188740633e-39
0.0160213287061 -0.12088820751 0.787 1.41099348788e-38
0.017477813134 -0.12088820751 0.787 5.53512893408e-42
0.0189342975618 -0.12088820751 0.787 1.39385112351e-38
0.0203907819896 -0.12088820751 0.787 1.53095542642e-38
0.0218472664175 -0.12088820751 0.787 6.18617500321e-39
0.0233037508453 -0.12088820751 0.787 2.78725411176e-39
0.0247602352731 -0.12088820751 0.787 2.39173621891e-41
0.0262833441475 -0.121195420236 0.789 2.12039537038e-38
0.0277786928358 -0.121349026598 0.79 2.08333537002e-38
0.0292407293008 -0.121349026598 0.79 1.85313244051e-38
0.0307027657658 -0.121349026598 0.79 1.94533031245e-38
0.0330198159611 -0.124574760217 0.811 1.91738393692e-38
0.0345207166866 -0.124574760217 0.811 1.99117603379e-38
0.0361104500074 -0.124881972942 0.813 1.98206338988e-38
0.0376150520911 -0.124881972942 0.813 2.22177216765e-38
0.0391196541747 -0.124881972942 0.813 0.0
0.0409240662676 -0.125803611119 0.819 2.21392966067e-39
0.0424397724257 -0.125803611119 0.819 1.4573504029e-43
0.0440628179698 -0.126110823845 0.821 1.50337563057e-38
0.0458043069744 -0.126725249296 0.825 2.13875686442e-38
0.0476753435138 -0.127646887472 0.831 2.01897737493e-38
0.0493317012812 -0.127954100198 0.833 2.00046720313e-38
0.0511176065834 -0.128568525649 0.837 2.00975879286e-38
0.0526666249647 -0.128568525649 0.837 1.95440638248e-38
0.0546042859506 -0.129490163826 0.843 2.00057482285e-38
0.0561644084064 -0.129490163826 0.843 1.96362496455e-38
0.0579984313644 -0.130104589277 0.847 2.01901394882e-38
0.0595659565364 -0.130104589277 0.847 1.96369657091e-38
0.0611334817084 -0.130104589277 0.847 2.00057426233e-38
0.06321919702 -0.131179833816 0.854 2.06500414403e-38
0.0647996769455 -0.131179833816 0.854 1.26246734131e-38
-0.0314411867146 -0.122770348124 0.809 1.91734498082e-38
-0.0298699601845 -0.122466836756 0.807 2.12014019393e-38
-0.0283764621753 -0.122466836756 0.807 1.2534307879e-38
-0.0268163397195 -0.122163325389 0.805 1.4933542446e-38
-0.0253265430684 -0.122163325389 0.805 1.52101279343e-38
-0.0237775246871 -0.121859814022 0.803 1.48417209628e-38
-0.0222914293942 -0.121859814022 0.803 1.36435337044e-38
-0.0208053341012 -0.121859814022 0.803 1.54856708565e-38
-0.0192951799804 -0.121708058338 0.802 3.64337600724e-44
-0.0177221027712 -0.121101035603 0.798 1.11080088488e-39
-0.0162452608736 -0.121101035603 0.798 7.67491168911e-42
-0.014768418976 -0.121101035603 0.798 9.33935999205e-40
-0.0132582648551 -0.120797524236 0.796 7.4990767578e-40
-0.0117851243157 -0.120797524236 0.796 4.74041053601e-40
-0.0102860742692 -0.120494012868 0.794 1.39600716132e-39
-0.00879442693908 -0.120190501501 0.792 3.83280353365e-40
-0.0073286891159 -0.120190501501 0.792 2.59350638219e-39
-0.00584814586016 -0.119886990133 0.79 1.49360423625e-38
-0.00438610939512 -0.119886990133 0.79 1.66845223304e-38
-0.00292037157194 -0.11973523445 0.789 1.40119406759e-38
-0.00146018578597 -0.11973523445 0.789 1.4196704681e-38
0.0 -0.11973523445 0.789 1.52104964758e-38
0.00146018578597 -0.11973523445 0.789 7.74331607364e-39
0.00291296885566 -0.119431723082 0.787 5.57664940758e-40
0.00436945328349 -0.119431723082 0.787 1.31497988022e-39
0.00582593771132 -0.119431723082 0.787 7.54966363237e-40
0.00728242213916 -0.119431723082 0.787 1.95705343528e-41
0.00873890656699 -0.119431723082 0.787 6.27699876187e-39
0.0101953909948 -0.119431723082 0.787 1.60456325255e-38
0.0116518754226 -0.119431723082 0.787 3.51132744906e-39
0.0130750476272 -0.119128211715 0.785 6.6522819049e-39
0.0145278306969 -0.119128211715 0.785 1.77005071573e-38
0.0159806137666 -0.119128211715 0.785 3.70677074977e-40
0.0174333968363 -0.119128211715 0.785 1.15378949878e-38
0.018886179906 -0.119128211715 0.785 1.5400307958e-38
0.0203907819896 -0.119431723082 0.787 1.02897486365e-39
0.0218472664175 -0.119431723082 0.787 2.24056414058e-39
0.0233037508453 -0.119431723082 0.787 1.201753563e-41
0.0247602352731 -0.119431723082 0.787 2.01962743729e-38
0.0262833441475 -0.11973523445 0.789 2.02816190546e-38
0.0277435299334 -0.11973523445 0.789 1.93596585521e-38
0.0292407293008 -0.119886990133 0.79 1.99142756687e-38
0.0307027657658 -0.119886990133 0.79 1.93611046921e-38
0.0330198159611 -0.123073859491 0.811 1.91738421718e-38
0.0345207166866 -0.123073859491 0.811 2.0280184125e-38
0.0361104500074 -0.123377370859 0.813 1.90834444079e-38
0.0376150520911 -0.123377370859 0.813 2.07400440381e-38
0.0391196541747 -0.123377370859 0.813 5.52850779884e-39
0.0409240662676 -0.124287904961 0.819 1.40129846432e-43
0.0426470484815 -0.124894927696 0.823 1.5479301955e-38
0.0443848361279 -0.125501950431 0.827 1.88018815074e-38
0.0460263884627 -0.125805461798 0.829 2.10194895766e-38
0.0477900856161 -0.126412484533 0.833 1.98217128986e-38
0.0494501447416 -0.1267159959 0.835 1.97284634923e-38
0.0511176065834 -0.127019507268 0.837 1.96358937157e-38
0.0526666249647 -0.127019507268 0.837 2.09266353364e-38
0.0546042859506 -0.12793004137 0.843 1.91759875597e-38
0.0562976572994 -0.128233552738 0.845 1.98210066442e-38
0.0581353816156 -0.128840575472 0.849 1.97288138169e-38
0.059847259755 -0.12914408684 0.851 1.96362496455e-38
0.0614221876433 -0.12914408684 0.851 1.99121232742e-38
0.06321919702 -0.129599353891 0.854 2.08348026429e-38
0.0649514326292 -0.129902865258 0.856 1.29930972001e-38
-0.0315189152356 -0.121572958766 0.811 2.00939781837e-38
-0.0299439873473 -0.121273148756 0.809 2.05556766004e-38
-0.0284467879799 -0.121273148756 0.809 1.26272069607e-38
-0.026882964166 -0.120973338747 0.807 1.43803672655e-38
-0.0253894661568 -0.120973338747 0.807 1.45651144551e-38
-0.0238367464174 -0.120673528738 0.805 1.49346228471e-38
-0.0223469497663 -0.120673528738 0.805 1.53937933214e-38
-0.0208571531152 -0.120673528738 0.805 1.55781901863e-38
-0.0193192388083 -0.120373718729 0.803 1.36438994433e-38
-0.0178109353665 -0.120223813724 0.802 3.64757990264e-42
-0.0162859758131 -0.119924003715 0.8 1.16602045216e-41
-0.014768418976 -0.119624193705 0.798 1.3927435372e-39
-0.0132915770784 -0.119624193705 0.798 2.90336430122e-40
-0.0117851243157 -0.119324383696 0.796 1.05293566609e-41
-0.0102860742692 -0.119024573687 0.794 1.3079719866e-41
-0.00881663508791 -0.119024573687 0.794 1.01986502234e-41
-0.0073286891159 -0.118724763678 0.792 4.53176840506e-39
-0.00586295129272 -0.118724763678 0.792 1.54885098872e-38
-0.00438610939512 -0.118424953668 0.79 1.60391655331e-38
-0.00292407293008 -0.118424953668 0.79 1.39186856644e-38
-0.00146018578597 -0.118275048664 0.789 1.43796638137e-38
0.0 -0.118275048664 0.789 1.56718347588e-38
0.00145648442783 -0.117975238654 0.787 6.72918936852e-39
0.00291296885566 -0.117975238654 0.787 9.50360618505e-42
0.00436945328349 -0.117975238654 0.787 2.92914819296e-40
0.00581113227877 -0.117675428645 0.785 1.49253700734e-39
0.00726391534846 -0.117675428645 0.785 2.13897280451e-39
0.00871669841815 -0.117675428645 0.785 8.47520725507e-40
0.0101694814878 -0.117675428645 0.785 2.10222795618e-41
0.0116222645575 -0.117675428645 0.785 2.24403936077e-41
0.0130750476272 -0.117675428645 0.785 8.21957117882e-39
0.0145278306969 -0.117675428645 0.785 9.03958721807e-39
0.0159398988271 -0.117375618636 0.783 8.76372199719e-39
0.0173889805386 -0.117375618636 0.783 1.69650875064e-38
0.018886179906 -0.117675428645 0.785 2.86460858959e-39
0.0203907819896 -0.117975238654 0.787 3.52698976199e-39
0.0218472664175 -0.117975238654 0.787 1.99390758489e-41
0.0233037508453 -0.117975238654 0.787 1.85435941745e-38
0.0247602352731 -0.117975238654 0.787 1.97302333322e-38
0.0262833441475 -0.118275048664 0.789 2.01894206221e-38
0.0277435299334 -0.118275048664 0.789 1.94518555832e-38
0.0292037157194 -0.118275048664 0.789 1.92671069924e-38
0.0306639015054 -0.118275048664 0.789 1.94525744493e-38
0.0330198159611 -0.121572958766 0.811 2.0281616252e-38
0.0345207166866 -0.121572958766 0.811 2.1847868565e-38
0.0361104500074 -0.121872768775 0.813 3.78007547504e-39
0.0377075860445 -0.122172578784 0.815 1.56766047788e-38
0.0394083601096 -0.122772198803 0.819 9.7723864409e-39
0.0411239396072 -0.123371818821 0.823 8.47708079111e-39
0.0428543245373 -0.12397143884 0.827 1.35424580462e-38
0.0445995149 -0.124571058859 0.831 1.63951920326e-43
0.0462484699511 -0.124870868868 0.833 1.34614321664e-38
0.0477900856161 -0.124870868868 0.833 2.1022055354e-38
0.0494501447416 -0.125170678877 0.835 2.05578458105e-38
0.0511176065834 -0.125470488886 0.837 1.9820277969e-38
0.0527924711414 -0.125770298896 0.839 1.98199304469e-38
0.0546042859506 -0.126369918914 0.843 2.07429573376e-38
0.0564309061924 -0.126969538933 0.847 1.98217128986e-38
0.0581353816156 -0.127269348942 0.849 1.96369685117e-38
0.059847259755 -0.127569158951 0.851 1.97295144661e-38
0.0614221876433 -0.127569158951 0.851 2.00975935338e-38
0.06321919702 -0.128018873965 0.854 2.10199029596e-38
0.0649514326292 -0.128318683975 0.856 1.28087031378e-38
-0.0315189152356 -0.12007205804 0.811 2.04631138304e-38
-0.0299439873473 -0.119775949389 0.809 2.06478778355e-38
-0.0284467879799 -0.119775949389 0.809 1.21662302127e-38
-0.026882964166 -0.119479840738 0.807 1.47491708045e-38
-0.0253894661568 -0.119479840738 0.807 1.46573254992e-38
-0.0238959681476 -0.119479840738 0.807 1.51175791772e-38
-0.0223469497663 -0.119183732087 0.805 1.49328207773e-38
-0.0208571531152 -0.119183732087 0.805 1.47495239317e-38
-0.0193192388083 -0.118887623436 0.803 1.60398970109e-38
-0.0178331435154 -0.118887623436 0.803 7.74302320226e-39
-0.0163266907526 -0.11873956911 0.802 1.40129846432e-43
-0.0148054325574 -0.118443460459 0.8 9.1364659874e-42
-0.0132915770784 -0.118147351808 0.798 6.24698855396e-42
-0.0117851243157 -0.117851243157 0.796 1.16391850447e-41
-0.0103119837762 -0.117851243157 0.796 1.48676926286e-39
-0.00881663508791 -0.117555134506 0.794 5.49729387555e-42
-0.00734719590659 -0.117555134506 0.794 5.45192683776e-39
-0.00586295129272 -0.117259025854 0.792 1.52119286028e-38
-0.00438610939512 -0.116962917203 0.79 1.58547938915e-38
-0.00292407293008 -0.116962917203 0.79 1.37342944047e-38
-0.00146018578597 -0.116814862878 0.789 1.44718468319e-38
0.0 -0.116814862878 0.789 1.58547784772e-38
0.00145648442783 -0.116518754226 0.787 4.05588184138e-39
0.00291296885566 -0.116518754226 0.787 1.12818539363e-41
0.00436945328349 -0.116518754226 0.787 3.85816703586e-40
0.00581113227877 -0.116222645575 0.785 9.36116419615e-40
0.00726391534846 -0.116222645575 0.785 8.4536412717e-40
0.00871669841815 -0.116222645575 0.785 1.12339435418e-39
0.0101694814878 -0.116222645575 0.785 1.30634367779e-39
0.0116222645575 -0.116222645575 0.785 3.14951638946e-39
0.0130750476272 -0.116222645575 0.785 6.62770733373e-40
0.0145278306969 -0.116222645575 0.785 2.31802791969e-41
0.0159398988271 -0.115926536924 0.783 7.01596509924e-39
0.0173889805386 -0.115926536924 0.783 5.3514271132e-39
0.018886179906 -0.116222645575 0.785 1.68268339986e-39
0.0203389629757 -0.116222645575 0.785 2.42690881036e-41
0.0217917460454 -0.116222645575 0.785 1.59650256339e-38
0.0233037508453 -0.116518754226 0.787 2.10224182903e-38
0.0247602352731 -0.116518754226 0.787 1.97288138169e-38
0.0262833441475 -0.116814862878 0.789 1.98202807716e-38
0.0276732041288 -0.116518754226 0.787 1.99124764014e-38
0.028981634231 -0.115926536924 0.783 1.98206338988e-38
0.0304307159426 -0.115926536924 0.783 1.98213597714e-38
0.0330198159611 -0.12007205804 0.811 2.12035655441e-38
0.0345207166866 -0.12007205804 0.811 1.86217249717e-38
0.0361104500074 -0.120368166691 0.813 5.74532370373e-44
0.037800119998 -0.120960383994 0.817 1.34614321664e-38
0.0396008307328 -0.121848709947 0.823 1.65934155095e-38
0.0413238129467 -0.122440927249 0.827 2.10130057686e-38
0.0429579625652 -0.122737035901 0.829 8.12753109308e-44
0.044706854286 -0.123329253203 0.833 1.52741532611e-43
0.0462484699511 -0.123329253203 0.833 1.35622359727e-38
0.0479048277184 -0.123625361854 0.835 2.05600010075e-38
0.0496870316625 -0.124217579156 0.839 1.96366153844e-38
0.0514840410392 -0.124809796459 0.843 1.99124764014e-38
0.0531700096716 -0.12510590511 0.845 2.00975879286e-38
0.0549929285553 -0.125698122412 0.849 2.0651114835e-38
0.0566974039784 -0.125994231063 0.851 1.97288082117e-38
0.0582723318667 -0.125994231063 0.851 2.02819847935e-38
0.060058237169 -0.12643839404 0.854 1.97291613389e-38
0.0616387170945 -0.12643839404 0.854 2.04656501806e-38
0.0633672513455 -0.126734502691 0.856 2.10184554183e-38
0.0651031883129 -0.127030611342 0.858 1.31756905939e-38
-0.0315189152356 -0.118571157315 0.811 1.93574921446e-38
-0.0299439873473 -0.118278750022 0.809 2.18460706991e-38
-0.0284467879799 -0.118278750022 0.809 1.26282845592e-38
-0.0269495886125 -0.118278750022 0.809 1.41970578082e-38
-0.0253894661568 -0.117986342729 0.807 1.4381449068e-38
-0.0238959681476 -0.117986342729 0.807 1.45644082006e-38
-0.0224024701384 -0.117986342729 0.807 1.4932833389e-38
-0.0208571531152 -0.117693935436 0.805 1.43810931381e-38
-0.0193673564641 -0.117693935436 0.805 1.43821679341e-38
-0.0178331435154 -0.117401528143 0.803 1.56703830136e-38
-0.0163266907526 -0.117255324496 0.802 6.72623262876e-44
-0.0148054325574 -0.116962917203 0.8 4.71525722858e-40
-0.0133248893016 -0.116962917203 0.8 2.13319525094e-39
-0.0118147351808 -0.11667050991 0.798 6.94203259227e-42
-0.0103119837762 -0.116378102617 0.796 2.31473486829e-39
-0.00883884323675 -0.116378102617 0.796 2.61482293443e-42
-0.00734719590659 -0.116085695324 0.794 6.28204063375e-39
-0.00586295129272 -0.115793288031 0.792 1.55807083197e-38
-0.00438610939512 -0.115500880738 0.79 1.53023291694e-38
-0.00292407293008 -0.115500880738 0.79 1.31807703009e-38
-0.00146018578597 -0.115354677092 0.789 1.44696944374e-38
0.0 -0.115354677092 0.789 1.58547840824e-38
0.00146018578597 -0.115354677092 0.789 1.66061294904e-39
0.00291296885566 -0.115062269799 0.787 2.89302271855e-40
0.00436945328349 -0.115062269799 0.787 5.67688428673e-40
0.00582593771132 -0.115062269799 0.787 4.76208862325e-40
0.00728242213916 -0.115062269799 0.787 1.02794631058e-39
0.00873890656699 -0.115062269799 0.787 9.38631750359e-40
0.0101694814878 -0.114769862506 0.785 1.39924275948e-39
0.0116222645575 -0.114769862506 0.785 7.5567542026e-40
0.0130750476272 -0.114769862506 0.785 1.39889243486e-39
0.0144908171155 -0.114477455213 0.783 8.46811668484e-40
0.0159398988271 -0.114477455213 0.783 7.54987382714e-40
0.0173889805386 -0.114477455213 0.783 1.13166762031e-39
0.018886179906 -0.114769862506 0.785 4.84130402544e-40
0.0203389629757 -0.114769862506 0.785 1.31041346892e-38
0.0217917460454 -0.114769862506 0.785 2.12046641621e-38
0.0233037508453 -0.115062269799 0.787 2.02819665766e-38
0.0247602352731 -0.115062269799 0.787 2.00053922987e-38
0.0262833441475 -0.115354677092 0.789 1.9820277969e-38
0.0276732041288 -0.115062269799 0.787 1.92671069924e-38
0.028981634231 -0.114477455213 0.783 1.96362496455e-38
0.0304307159426 -0.114477455213 0.783 1.97295172687e-38
0.0330198159611 -0.118571157315 0.811 2.1848581826e-38
0.0346058479238 -0.118863564608 0.813 7.28675201449e-44
0.0361992826028 -0.119155971901 0.815 1.91977889612e-43
0.0378926539515 -0.119740786487 0.819 8.57581628091e-39
0.0396008307328 -0.120325601073 0.823 2.35098856151e-38
0.0413238129467 -0.120910415659 0.827 0.0
0.0430616005931 -0.121495230245 0.831 2.12102777638e-39
0.044706854286 -0.121787637538 0.833 1.40129846432e-43
0.0463595106953 -0.122080044831 0.835 2.07454936878e-38
0.0480195698208 -0.122372452124 0.837 2.0466731983e-38
0.0496870316625 -0.122664859417 0.839 1.98206549183e-38
0.0514840410392 -0.123249674003 0.843 1.97288082117e-38
0.0532958558484 -0.123834488589 0.847 1.96369685117e-38
0.0549929285553 -0.124126895882 0.849 1.99124764014e-38
0.0566974039784 -0.124419303175 0.851 2.05578486131e-38
0.0584777572435 -0.124857914114 0.854 1.97291613389e-38
0.060058237169 -0.124857914114 0.854 2.00050223559e-38
0.0616387170945 -0.124857914114 0.854 2.03730860092e-38
0.06321919702 -0.124857914114 0.854 2.04652816391e-38
0.0651031883129 -0.1254427287 0.858 1.22523133787e-38
-0.0315189152356 -0.117070256589 0.811 1.9264940585e-38
-0.0299439873473 -0.116781550654 0.809 2.15687551343e-38
-0.0284467879799 -0.116781550654 0.809 1.23513431411e-38
-0.0270162130591 -0.117070256589 0.811 1.39201079823e-38
-0.0254523892452 -0.116781550654 0.809 1.42878044955e-38
-0.0239551898778 -0.116781550654 0.809 1.4748802263e-38
-0.0224579905105 -0.116781550654 0.809 1.46573226966e-38
-0.0209089721291 -0.11649284472 0.807 1.48420712875e-38
-0.0193673564641 -0.116204138785 0.805 1.46580317536e-38
-0.017877559813 -0.116204138785 0.805 1.59487649665e-38
-0.0163470482224 -0.11591543285 0.803 1.43811085524e-38
-0.0148424461388 -0.115771079882 0.802 6.16571324303e-44
-0.0133248893016 -0.115482373947 0.8 6.53065340209e-40
-0.0118147351808 -0.115193668013 0.798 1.05405670487e-41
-0.0103378932832 -0.115193668013 0.798 7.30356759606e-42
-0.00883884323675 -0.114904962078 0.796 5.17779782568e-42
-0.00736570269729 -0.114904962078 0.796 8.03410792577e-39
-0.00587775672528 -0.114616256143 0.794 1.49371367766e-38
-0.00439721346954 -0.114327550208 0.792 1.4012659542e-38
-0.00292407293008 -0.114038844273 0.79 1.36417484502e-38
-0.00146203646504 -0.114038844273 0.79 1.47480735878e-38
0.0 -0.113894491306 0.789 1.59473454512e-38
0.00146018578597 -0.113894491306 0.789 1.40129846432e-44
0.00292037157194 -0.113894491306 0.789 7.5028182247e-40
0.00436945328349 -0.113605785371 0.787 9.35747878119e-40
0.00582593771132 -0.113605785371 0.787 1.2119774366e-39
0.00728242213916 -0.113605785371 0.787 9.35747878119e-40
0.00873890656699 -0.113605785371 0.787 4.78009530852e-40
0.0101694814878 -0.113317079436 0.785 5.7272889925e-40
0.0116222645575 -0.113317079436 0.785 4.8016472789e-40
0.0130750476272 -0.113317079436 0.785 1.30847925664e-39
0.0144908171155 -0.113028373501 0.783 1.76658334281e-39
0.0159398988271 -0.113028373501 0.783 3.05876549832e-39
0.0173889805386 -0.113028373501 0.783 2.98756832594e-42
0.018886179906 -0.113317079436 0.785 1.16372582593e-38
0.0203389629757 -0.113317079436 0.785 2.15727236116e-38
0.0217917460454 -0.113317079436 0.785 2.03734335313e-38
0.0233037508453 -0.113605785371 0.787 1.9176340687e-38
0.0248231583615 -0.113894491306 0.789 1.9451502456e-38
0.0262833441475 -0.113894491306 0.789 1.92671069924e-38
0.0277435299334 -0.113894491306 0.789 1.92678132468e-38
0.0292037157194 -0.113894491306 0.789 1.97295172687e-38
0.0315189152356 -0.117070256589 0.811 2.19411333856e-38
0.0330198159611 -0.117070256589 0.811 1.67792346923e-38
0.034690979161 -0.117647668459 0.815 1.31722055647e-43
0.0361992826028 -0.117647668459 0.815 3.69011351493e-39
0.0378926539515 -0.118225080329 0.819 5.53263322152e-39
0.0396008307328 -0.118802492198 0.823 2.35098856151e-38
0.0413238129467 -0.119379904068 0.827 3.50324616081e-44
0.0430616005931 -0.119957315938 0.831 4.83868359731e-42
0.0448141936721 -0.120534727808 0.835 1.66042237245e-39
0.0463595106953 -0.120534727808 0.835 2.22191664152e-38
0.0480195698208 -0.120823433743 0.837 1.98202807716e-38
0.0496870316625 -0.121112139677 0.839 2.02819819909e-38
0.0516061858578 -0.121978257482 0.845 2.00986473102e-38
0.0534217020251 -0.122555669352 0.849 1.98213569688e-38
0.0551224760902 -0.122844375287 0.851 2.04652942508e-38
0.0566974039784 -0.122844375287 0.851 2.00968746676e-38
0.0584777572435 -0.123277434189 0.854 2.08351431584e-38
0.0601988887783 -0.123566140124 0.856 1.99124735988e-38
0.0616387170945 -0.123277434189 0.854 2.0189786361e-38
0.06321919702 -0.123277434189 0.854 2.03745335506e-38
0.0652549439966 -0.124143551994 0.86 1.10559351966e-38
-0.0315189152356 -0.115569355864 0.811 1.94489843227e-38
-0.0299439873473 -0.115284351287 0.809 2.12010516147e-38
-0.0284467879799 -0.115284351287 0.809 1.22595006385e-38
-0.0270162130591 -0.115569355864 0.811 1.43796638137e-38
-0.0254523892452 -0.115284351287 0.809 1.49328389942e-38
-0.0239551898778 -0.115284351287 0.809 1.41034356565e-38
-0.0224579905105 -0.115284351287 0.809 1.49328389942e-38
-0.0209089721291 -0.11499934671 0.807 1.49335396434e-38
-0.0193673564641 -0.114714342134 0.805 1.49331865162e-38
-0.017877559813 -0.114714342134 0.805 1.50264681524e-38
-0.0163470482224 -0.114429337557 0.803 1.53948905381e-38
-0.0148424461388 -0.114286835268 0.802 1.16155745669e-38
-0.0133582015249 -0.114286835268 0.802 8.75391150664e-42
-0.0118443460459 -0.114001830692 0.8 1.3063282635e-39
-0.0103378932832 -0.113716826115 0.798 1.85804749488e-39
-0.00886105138558 -0.113716826115 0.798 4.07217333733e-42
-0.00736570269729 -0.113431821538 0.796 8.58979843699e-39
-0.00587775672528 -0.113146816962 0.794 1.49364333247e-38
-0.00439721346954 -0.112861812385 0.792 1.41034356565e-38
-0.00293147564636 -0.112861812385 0.792 1.4286750719e-38
-0.00146203646504 -0.112576807808 0.79 1.46573128875e-38
0.0 -0.11243430552 0.789 1.53019886538e-38
0.00146018578597 -0.11243430552 0.789 1.68155815719e-44
0.00292037157194 -0.11243430552 0.789 1.02830924688e-39
0.00438055735791 -0.11243430552 0.789 1.57894947844e-39
0.00582593771132 -0.112149300943 0.787 5.68757619402e-40
0.00728242213916 -0.112149300943 0.787 8.46792050305e-40
0.00873890656699 -0.112149300943 0.787 1.39959588669e-39
0.0101953909948 -0.112149300943 0.787 1.67475064925e-39
0.0116518754226 -0.112149300943 0.787 1.85842724676e-39
0.0131083598505 -0.112149300943 0.787 2.5030665793e-39
0.0145278306969 -0.111864296366 0.785 1.52335156057e-41
0.0159806137666 -0.111864296366 0.785 1.00893489431e-43
0.0174333968363 -0.111864296366 0.785 3.23132279251e-39
0.018886179906 -0.111864296366 0.785 2.03745643791e-38
0.0203907819896 -0.112149300943 0.787 1.98210094468e-38
0.0218472664175 -0.112149300943 0.787 1.90838087455e-38
0.0233037508453 -0.112149300943 0.787 2.05574926833e-38
0.0248546199057 -0.112576807808 0.79 1.93593026222e-38
0.0263166563707 -0.112576807808 0.79 1.97291641415e-38
0.0277786928358 -0.112576807808 0.79 1.9820277969e-38
0.030388150324 -0.116994378747 0.821 2.17563735844e-38
0.0316743722774 -0.116139365017 0.815 1.61328059016e-38
0.0331826757192 -0.116139365017 0.815 2.38220738935e-44
0.034690979161 -0.116139365017 0.815 2.31584890057e-39
0.0361992826028 -0.116139365017 0.815 4.60988378795e-39
0.037985187905 -0.116994378747 0.821 2.67636936428e-39
0.0396970660444 -0.117564387901 0.825 2.14758378357e-38
0.0414237496164 -0.118134397054 0.829 9.18476874546e-40
0.043165238621 -0.118704406208 0.833 1.37327249504e-43
0.0448141936721 -0.118989410784 0.835 1.98278561911e-38
0.0465815921836 -0.119559419938 0.839 2.03748866778e-38
0.0481343119231 -0.119559419938 0.839 1.96362468429e-38
0.0499239185834 -0.120129429091 0.843 1.95444197546e-38
0.0517283306764 -0.120699438245 0.847 2.09277045271e-38
0.0534217020251 -0.120984442822 0.849 1.94522213221e-38
0.0551224760902 -0.121269447398 0.851 2.00050279611e-38
0.056897277318 -0.121696954263 0.854 2.06504141857e-38
0.0586147074946 -0.12198195884 0.856 2.02823351181e-38
0.0603395403876 -0.122266963417 0.858 2.01890702975e-38
0.0619274230293 -0.122266963417 0.858 2.02816316663e-38
0.0636633599967 -0.122551967994 0.86 2.03745335506e-38
0.0654066996803 -0.12283697257 0.862 2.03723699457e-38
-0.0315966437565 -0.114349758357 0.813 1.95418834044e-38
-0.0300180145101 -0.114068455138 0.811 2.15709061275e-38
-0.0285171137846 -0.114068455138 0.811 1.29048644423e-38
-0.0270162130591 -0.114068455138 0.811 1.45644082006e-38
-0.0255153123336 -0.114068455138 0.811 1.42867479164e-38
-0.0240144116081 -0.114068455138 0.811 1.44722153734e-38
-0.0225135108825 -0.114068455138 0.811 1.49324830644e-38
-0.0209607911431 -0.11378715192 0.809 1.47484295176e-38
-0.0194154741199 -0.113505848701 0.807 1.55781901863e-38
-0.0179219761107 -0.113505848701 0.807 1.46573128875e-38
-0.0163877631619 -0.113224545482 0.805 1.49331682993e-38
-0.0148609529295 -0.112943242264 0.803 1.58536980761e-38
-0.0133582015249 -0.112802590655 0.802 2.5808134207e-39
-0.0118443460459 -0.112521287436 0.8 1.90304739246e-40
-0.0103638027902 -0.112521287436 0.8 1.39672602744e-39
-0.00886105138558 -0.112239984217 0.798 2.27570870606e-42
-0.00736570269729 -0.111958680999 0.796 9.0496891787e-39
-0.00589256215783 -0.111958680999 0.796 1.45683766779e-38
-0.00440831754396 -0.11167737778 0.794 1.50260884005e-38
-0.00293887836264 -0.11167737778 0.794 1.34577103177e-38
-0.00146573782318 -0.111396074562 0.792 1.42881702344e-38
0.0 -0.111114771343 0.79 1.41974067315e-38
0.00146203646504 -0.111114771343 0.79 1.12103877146e-44
0.00292037157194 -0.110974119734 0.789 9.37565362227e-40
0.00438055735791 -0.110974119734 0.789 1.39672602744e-39
0.00584074314388 -0.110974119734 0.789 1.4889216573e-39
0.00730092892985 -0.110974119734 0.789 1.39817356875e-39
0.00876111471582 -0.110974119734 0.789 1.67439892334e-39
0.0101953909948 -0.110692816515 0.787 1.95097600384e-39
0.0116518754226 -0.110692816515 0.787 5.68407294786e-40
0.0131083598505 -0.110692816515 0.787 1.12103877146e-43
0.0145278306969 -0.110411513297 0.785 4.79721917575e-39
0.0159806137666 -0.110411513297 0.785 1.39190261799e-38
0.0174333968363 -0.110411513297 0.785 1.15223055424e-38
0.018886179906 -0.110411513297 0.785 2.07411874976e-38
0.0203907819896 -0.110692816515 0.787 1.96369657091e-38
0.0218472664175 -0.110692816515 0.787 1.98199248418e-38
0.0233629725755 -0.110974119734 0.789 1.99124764014e-38
0.0248546199057 -0.111114771343 0.79 2.00053922987e-38
0.0263832808172 -0.111396074562 0.792 2.04656501806e-38
0.0278490186404 -0.111396074562 0.792 2.03741832259e-38
0.030388150324 -0.115474971231 0.821 2.17556547183e-38
0.0319075578402 -0.115474971231 0.821 5.46506401087e-44
0.0333455354773 -0.115193668013 0.819 5.62446171118e-39
0.0348612416354 -0.115193668013 0.819 5.61577225941e-39
0.0365546129841 -0.11575627445 0.823 3.96705072913e-39
0.0382627897654 -0.116318880887 0.827 1.61149323397e-43
0.0398895366677 -0.116600184106 0.829 2.04602467737e-38
0.041623622956 -0.117162790543 0.833 1.91977889612e-43
0.0432688766489 -0.117444093761 0.835 1.50387785594e-38
0.0449215330581 -0.11772539698 0.837 2.16656423114e-38
0.0466926329278 -0.118288003417 0.841 1.97295172687e-38
0.0482490540254 -0.118288003417 0.841 2.02823351181e-38
0.0500423620439 -0.118850609854 0.845 2.02812659274e-38
0.0517283306764 -0.119131913073 0.847 2.02823351181e-38
0.0534217020251 -0.119413216291 0.849 2.00979438584e-38
0.0551224760902 -0.11969451951 0.851 2.00975907312e-38
0.056897277318 -0.120116474338 0.854 2.04667291804e-38
0.0586147074946 -0.120397777557 0.856 1.91752855092e-38
0.0604801919968 -0.120960383994 0.86 2.00050419741e-38
0.0620717759968 -0.120960383994 0.86 1.97288110143e-38
0.0636633599967 -0.120960383994 0.86 2.0651114835e-38
0.0654066996803 -0.121241687212 0.862 2.12946695625e-38
0.067390627643 -0.121944945259 0.867 2.0463116633e-38
0.0689951663964 -0.121944945259 0.867 2.23041551671e-38
-0.0317521007983 -0.113400359994 0.817 1.92645902603e-38
-0.0302400959984 -0.113400359994 0.817 2.11099293794e-38
-0.0286577653939 -0.113122758134 0.815 1.26272041581e-38
-0.0270828375056 -0.112845156273 0.813 1.42867479164e-38
-0.0255782354219 -0.112845156273 0.813 1.43771428778e-38
-0.0240144116081 -0.112567554413 0.811 1.42874513683e-38
-0.0225135108825 -0.112567554413 0.811 1.44718650488e-38
-0.021012610157 -0.112567554413 0.811 1.52097776097e-38
-0.0195117094315 -0.112567554413 0.811 1.41052054965e-38
-0.018010808706 -0.112567554413 0.811 1.45651298694e-38
-0.0164284781015 -0.112012350692 0.807 1.46569569577e-38
-0.0148979665109 -0.111734748831 0.805 1.55781873838e-38
-0.0133748576365 -0.111457146971 0.803 1.61317170927e-38
-0.011873956911 -0.111318346041 0.802 6.0255833966e-44
-0.0103638027902 -0.11104074418 0.8 1.70509997139e-41
-0.00888325953442 -0.11104074418 0.8 2.62603332214e-42
-0.00738420948799 -0.11076314232 0.798 9.96804834417e-39
-0.00589256215783 -0.110485540459 0.796 1.49367892546e-38
-0.00441942161837 -0.110485540459 0.796 1.48420712875e-38
-0.00294628107892 -0.110485540459 0.796 1.35509821448e-38
-0.00146943918132 -0.110207938599 0.794 1.50264415277e-38
0.0 -0.109930336738 0.792 1.21680308812e-38
0.00146573782318 -0.109930336738 0.792 7.14662216806e-44
0.00292407293008 -0.109652734878 0.79 8.46436120495e-40
0.00438610939512 -0.109652734878 0.79 1.94917393401e-39
0.00584814586016 -0.109652734878 0.79 1.67475485315e-39
0.00730092892985 -0.109513933948 0.789 2.59419582104e-39
0.00876111471582 -0.109513933948 0.789 1.21306064031e-39
0.0102213005018 -0.109513933948 0.789 1.9127724038e-42
0.0116814862878 -0.109513933948 0.789 1.1083205866e-39
0.0131083598505 -0.109236332087 0.787 1.34605997951e-38
0.0145648442783 -0.109236332087 0.787 1.53930898696e-38
0.0160213287061 -0.109236332087 0.787 1.33647565853e-38
0.017477813134 -0.109236332087 0.787 1.1891441189e-38
0.0189342975618 -0.109236332087 0.787 2.03738272961e-38
0.0203907819896 -0.109236332087 0.787 1.94525744493e-38
0.0219027867896 -0.109513933948 0.789 2.08347928338e-38
0.0233629725755 -0.109513933948 0.789 2.14787259119e-38
0.0249804660824 -0.110207938599 0.794 9.22253514038e-39
0.0265165297102 -0.110485540459 0.796 1.90917372922e-38
0.0280599960544 -0.11076314232 0.798 2.22184461478e-38
0.0295368379519 -0.11076314232 0.798 8.02173866422e-39
0.0318298293193 -0.113677961855 0.819 1.33123354111e-43
0.0333455354773 -0.113677961855 0.819 2.35098127476e-38
0.0350315041098 -0.114233165575 0.823 6.44681231367e-39
0.0366434455795 -0.114510767436 0.825 3.22593339862e-39
0.0383553237189 -0.115065971157 0.829 1.30320757182e-43
0.0399857719793 -0.115343573017 0.831 2.35052220939e-38
0.0417235596257 -0.115898776738 0.835 2.09262569858e-38
0.0433725146768 -0.116176378599 0.837 2.07425944013e-38
0.0450288724442 -0.116453980459 0.839 2.05567738171e-38
0.0466926329278 -0.11673158232 0.841 1.9820277969e-38
0.0483637961277 -0.11700918418 0.843 2.03741804233e-38
0.0500423620439 -0.11728678604 0.845 2.04663760532e-38
0.0517283306764 -0.117564387901 0.847 1.96366125818e-38
0.0534217020251 -0.117841989761 0.849 2.00057426233e-38
0.0553167973925 -0.118535994412 0.854 1.98213737844e-38
0.057030526211 -0.118813596273 0.856 2.02823477298e-38
0.0587516577458 -0.119091198133 0.858 2.00979438584e-38
0.0606208436061 -0.119646401854 0.862 2.06511176376e-38
0.0622161289642 -0.119646401854 0.862 2.03748866778e-38
0.0638114143223 -0.119646401854 0.862 2.0189786361e-38
0.065558455364 -0.119924003715 0.864 2.04659977026e-38
0.067390627643 -0.120340406505 0.867 2.00954075082e-38
0.0689951663964 -0.120340406505 0.867 2.1476190963e-38
-0.0335083952355 -0.112710056701 0.823 1.99095897266e-38
-0.0319852863611 -0.112710056701 0.823 1.92631651398e-38
-0.0303141231612 -0.112162255696 0.819 2.08311900954e-38
-0.0287280911985 -0.111888355194 0.817 1.36410099659e-38
-0.0271494619521 -0.111614454692 0.815 1.41949054138e-38
-0.0255782354219 -0.11134055419 0.813 1.44718468319e-38
-0.0240736333383 -0.11134055419 0.813 1.51172162409e-38
-0.0225690312546 -0.11134055419 0.813 1.44714937047e-38
-0.021012610157 -0.111066653687 0.811 1.51172288526e-38
-0.0195117094315 -0.111066653687 0.811 1.4658028951e-38
-0.018010808706 -0.111066653687 0.811 1.42892534381e-38
-0.016469193041 -0.110792753185 0.809 1.51175819798e-38
-0.0149349800922 -0.110518852683 0.807 1.46573283018e-38
-0.0134081698598 -0.11024495218 0.805 1.62232064682e-38
-0.0118887623436 -0.109971051678 0.803 1.17081289291e-38
-0.0103897122971 -0.109834101427 0.802 5.15257445332e-42
-0.00888325953442 -0.109560200925 0.8 4.08338372504e-42
-0.00738420948799 -0.109286300422 0.798 9.32629148257e-39
-0.00589256215783 -0.10901239992 0.796 1.45669291366e-38
-0.00441942161837 -0.10901239992 0.796 1.42881520175e-38
-0.00294628107892 -0.10901239992 0.796 1.42885233616e-38
-0.00147314053946 -0.10901239992 0.796 1.50260701836e-38
0.0 -0.108738499418 0.794 9.95496442041e-39
0.00146943918132 -0.108738499418 0.794 2.26870221374e-42
0.00293147564636 -0.108464598915 0.792 1.39853650505e-39
0.00439721346954 -0.108464598915 0.792 1.85662517693e-39
0.00586295129272 -0.108464598915 0.792 1.02938264151e-39
0.0073101823252 -0.108190698413 0.79 1.34524652575e-43
0.00877221879024 -0.108190698413 0.79 6.49857768024e-40
0.0102213005018 -0.108053748162 0.789 1.21713099196e-38
0.0116814862878 -0.108053748162 0.789 1.54863448811e-38
0.0131416720737 -0.108053748162 0.789 1.45625963217e-38
0.0145648442783 -0.10777984766 0.787 1.38275494162e-38
0.0160213287061 -0.10777984766 0.787 1.22609467785e-38
0.017477813134 -0.10777984766 0.787 1.36442497679e-38
0.0189342975618 -0.10777984766 0.787 2.07433076622e-38
0.0204426010036 -0.108053748162 0.789 1.93607543675e-38
0.0219305469756 -0.108190698413 0.79 2.16649192414e-38
0.0233925834406 -0.108190698413 0.79 1.45662060666e-38
