# .PCD v0.7 - Point Cloud Data file format
VERSION 0.7
FIELDS x y z rgb
SIZE 4 4 4 4
TYPE F F F F
COUNT 1 1 1 1
WIDTH 843
HEIGHT 1
VIEWPOINT 0 0 0 1 0 0 0
POINTS 843
DATA ascii
0.0110633594785 -0.0363510382865 0.854 1.99859100462e-38
0.0125994231063 -0.0362233414307 0.851 2.0537208888e-38
0.0141410387714 -0.0361382101935 0.849 1.92453868662e-38
0.0157122653015 -0.0361382101935 0.849 1.94294165909e-38
0.0170392021945 -0.0356274227702 0.837 1.95205318197e-38
0.0184993879804 -0.0354571602958 0.833 1.9704939895e-38
0.0199447683338 -0.0352868978214 0.829 1.94294137883e-38
0.0214271622687 -0.0352017665842 0.827 1.90599236131e-38
0.0229576738593 -0.0352017665842 0.827 1.91506969251e-38
0.0244881854499 -0.0352017665842 0.827 2.09034858858e-38
0.0259557739521 -0.035116635347 0.825 1.48236582256e-38
0.0274825841846 -0.035116635347 0.825 1.37753244237e-39
0.0289390686124 -0.0350315041098 0.823 5.08345680787e-39
0.0304621774868 -0.0350315041098 0.823 9.31900893445e-39
0.0319852863611 -0.0350315041098 0.823 3.32810767485e-39
0.0335083952355 -0.0350315041098 0.823 2.59163424744e-39
0.0350315041098 -0.0350315041098 0.823 4.06244832599e-39
0.0366434455795 -0.035116635347 0.825 5.07009682831e-39
0.038170255812 -0.035116635347 0.825 7.64976118427e-39
0.0397933013561 -0.0352017665842 0.827 6.63703437631e-39
0.0413238129467 -0.0352017665842 0.827 7.00510783874e-39
0.0429579625652 -0.0352868978214 0.829 7.74302600486e-39
0.044492175514 -0.0352868978214 0.829 6.72493082249e-39
0.0461374292069 -0.0353720290586 0.831 8.10751214322e-39
0.0477900856161 -0.0354571602958 0.833 7.64940805706e-39
0.0493317012812 -0.0354571602958 0.833 8.47951905044e-39
0.0511176065834 -0.0356274227702 0.837 7.28059050514e-39
0.0526666249647 -0.0356274227702 0.837 1.28574318906e-39
0.0543451908809 -0.0357125540074 0.839 2.34932942413e-38
0.0560311595134 -0.0357976852446 0.841 2.34853166492e-38
0.0577245308621 -0.0358828164819 0.843 2.34820123874e-38
0.0595659565364 -0.0360530789563 0.847 2.34860172984e-38
0.0612778346759 -0.0361382101935 0.849 2.34888703421e-38
0.0629971155316 -0.0362233414307 0.851 2.34881668902e-38
0.0647996769455 -0.0363510382865 0.854 2.12708208639e-38
0.066380156871 -0.0363510382865 0.854 2.27495466736e-38
0.0681197951965 -0.0364361695237 0.856 2.27480640998e-38
0.0697039764801 -0.0364361695237 0.856 2.34885718655e-38
0.0712881577637 -0.0364361695237 0.856 2.34867487762e-38
0.0730426015218 -0.0365213007609 0.858 2.34838677066e-38
0.0746304841636 -0.0365213007609 0.858 2.3489250094e-38
0.0762183668053 -0.0365213007609 0.858 2.35098575892e-38
-0.0139615229016 -0.0383941879794 0.943 2.07183505366e-38
-0.0117629161668 -0.0369691650957 0.908 1.98907562752e-38
-0.0100824995716 -0.0369691650957 0.908 2.13630164938e-38
-0.00838357618561 -0.0368877352167 0.906 1.59263315794e-38
-0.00668465279965 -0.0367655903981 0.903 1.92375227792e-38
-0.00498572941369 -0.0365620157004 0.898 9.65852813807e-39
-0.00331641689285 -0.0364805858214 0.896 1.87952309449e-38
-0.0016415523348 -0.0361141513656 0.887 1.55654593898e-38
0.0 -0.0359105766679 0.882 1.62022346354e-38
0.00162489622317 -0.0357477169098 0.878 2.07212428166e-38
0.00323128565565 -0.0355441422121 0.873 1.9613795239e-38
0.00483582440905 -0.035462712333 0.871 1.97978571935e-38
0.00641815501362 -0.0352998525749 0.867 2.00758579933e-38
0.00793941320889 -0.0349334181191 0.858 2.1456993174e-38
0.00950508770183 -0.03485198824 0.856 1.52838460426e-38
0.0110633594785 -0.034770558361 0.854 2.00759098413e-38
0.0125994231063 -0.0346484135424 0.851 1.93354160886e-38
0.0141410387714 -0.0345669836633 0.849 1.97041972068e-38
0.0156382381387 -0.0344041239052 0.845 1.94290662663e-38
0.0171613470131 -0.0343226940261 0.843 1.89684286325e-38
0.0185882205758 -0.0340784043889 0.837 1.91528381091e-38
0.0199447683338 -0.0337526848727 0.829 1.90599208105e-38
0.0214789812826 -0.0337526848727 0.829 1.93357720184e-38
0.0229576738593 -0.0336712549936 0.827 1.93354343055e-38
0.0244881854499 -0.0336712549936 0.827 1.92450183247e-38
0.0259557739521 -0.0335898251145 0.825 2.09967324895e-38
0.0274825841846 -0.0335898251145 0.825 1.51906190571e-38
0.0290093944171 -0.0335898251145 0.825 1.40885524655e-38
0.0305362046496 -0.0335898251145 0.825 9.29558342802e-39
0.0319852863611 -0.0335083952355 0.823 1.13249592783e-38
0.0335083952355 -0.0335083952355 0.823 1.22422380427e-38
0.035116635347 -0.0335898251145 0.825 1.12237631084e-38
0.0366434455795 -0.0335898251145 0.825 1.23326512209e-38
0.0382627897654 -0.0336712549936 0.827 1.19667553763e-38
0.0397933013561 -0.0336712549936 0.827 1.21518402788e-38
0.0414237496164 -0.0337526848727 0.829 1.12298769736e-38
0.0429579625652 -0.0337526848727 0.829 1.04908517817e-38
0.0445995149 -0.0338341147517 0.831 1.11358862804e-38
0.0461374292069 -0.0338341147517 0.831 1.07707177097e-38
0.0477900856161 -0.0339155446308 0.833 9.84946346163e-39
0.0494501447416 -0.0339969745099 0.835 1.15053890673e-38
0.0511176065834 -0.0340784043889 0.837 8.9232107819e-39
0.0527924711414 -0.034159834268 0.839 4.31632016747e-39
0.0544747384158 -0.0342412641471 0.841 2.34897209302e-38
0.0562976572994 -0.0344041239052 0.845 2.34878375851e-38
0.0578614811133 -0.0344041239052 0.845 2.34856487569e-38
0.0597066081457 -0.0345669836633 0.849 2.34867824074e-38
0.0614221876433 -0.0346484135424 0.851 2.34885088071e-38
0.06321919702 -0.034770558361 0.854 2.05314831825e-38
0.0649514326292 -0.03485198824 0.856 1.98868718759e-38
0.0665356139128 -0.03485198824 0.856 1.68498237012e-38
0.0682789535964 -0.0349334181191 0.858 2.34871915865e-38
0.0697039764801 -0.03485198824 0.856 2.34903234886e-38
0.0712881577637 -0.03485198824 0.856 2.3486743171e-38
0.0732128639962 -0.0350148479982 0.86 2.34842474584e-38
0.0748044479961 -0.0350148479982 0.86 2.34939374373e-38
-0.0192988813385 -0.036843318919 0.948 2.34983150937e-38
-0.0175074239991 -0.0367655903981 0.946 1.97041972068e-38
-0.0157067132643 -0.0366489976167 0.943 2.04388769721e-38
-0.0139615229016 -0.0366489976167 0.943 2.05343096015e-38
-0.0122163325389 -0.0366489976167 0.943 2.09063347256e-38
-0.0104711421762 -0.0366489976167 0.943 2.06290668049e-38
-0.00840208297631 -0.0352887485005 0.908 1.7956431901e-38
-0.00670686094849 -0.0352110199796 0.906 2.34845767636e-38
-0.00501348959974 -0.0350944271982 0.903 1.24236207146e-38
-0.00332381960913 -0.0349001058959 0.898 1.43637240437e-38
-0.00165820844643 -0.0348223773749 0.896 1.91557373956e-38
0.0 -0.0342782777284 0.882 1.55583393923e-38
0.00162489622317 -0.0341228206866 0.878 1.1966688114e-38
0.00323868837192 -0.0340062279052 0.875 2.04471740604e-38
0.00483582440905 -0.0338507708634 0.871 1.97049244807e-38
0.00643296044618 -0.0337730423424 0.869 1.97981921039e-38
0.00797642679028 -0.0335009925192 0.862 1.99829392934e-38
0.00950508770183 -0.0332678069564 0.856 2.04442649647e-38
0.0110633594785 -0.0331900784355 0.854 1.95201604756e-38
0.0125994231063 -0.0330734856541 0.851 1.96116750744e-38
0.0141410387714 -0.0329957571332 0.849 1.94276299354e-38
0.0156382381387 -0.0328403000913 0.845 1.93358112548e-38
0.0171613470131 -0.0327625715704 0.843 1.92446708027e-38
0.0185882205758 -0.0325293860076 0.837 1.98911065998e-38
0.0199928859897 -0.0322962004448 0.831 1.91524695676e-38
0.0214789812826 -0.0322184719239 0.829 1.94287131391e-38
0.0230131942314 -0.0322184719239 0.829 1.93354315029e-38
0.0244881854499 -0.032140743403 0.827 1.99811512366e-38
0.0260186970405 -0.032140743403 0.827 1.9060627065e-38
0.0274825841846 -0.0320630148821 0.825 2.02573527691e-38
0.0290093944171 -0.0320630148821 0.825 2.34893103498e-38
0.0305362046496 -0.0320630148821 0.825 2.26562762478e-38
0.0320630148821 -0.0320630148821 0.825 2.28399416349e-38
0.0335898251145 -0.0320630148821 0.825 2.24682948614e-38
0.035116635347 -0.0320630148821 0.825 2.26534049873e-38
0.0366434455795 -0.0320630148821 0.825 2.0903129956e-38
0.0382627897654 -0.032140743403 0.827 2.08134230322e-38
0.0397933013561 -0.032140743403 0.827 2.04442831816e-38
0.0414237496164 -0.0322184719239 0.829 2.20108872206e-38
0.0430616005931 -0.0322962004448 0.831 2.09063347256e-38
0.0445995149 -0.0322962004448 0.831 2.15535062044e-38
0.0462484699511 -0.0323739289658 0.833 2.0815586637e-38
0.0480195698208 -0.0325293860076 0.837 2.12772878563e-38
0.0495685882021 -0.0325293860076 0.837 2.20123291567e-38
0.051239751402 -0.0326071145285 0.839 2.21956512257e-38
0.0529183173182 -0.0326848430495 0.841 2.23829291603e-38
0.0546042859506 -0.0327625715704 0.843 2.29332218698e-38
0.0564309061924 -0.0329180286122 0.847 2.34831432353e-38
0.0582723318667 -0.0330734856541 0.851 2.34863858399e-38
0.059847259755 -0.0330734856541 0.851 2.34860383179e-38
0.0616387170945 -0.0331900784355 0.854 1.98875206771e-38
0.0633672513455 -0.0332678069564 0.856 2.34846286116e-38
0.0651031883129 -0.0333455354773 0.858 1.92454134909e-38
0.0666910709547 -0.0333455354773 0.858 2.34939192204e-38
0.0685972703964 -0.0335009925192 0.862 2.34914599416e-38
0.0701925557545 -0.0335009925192 0.862 2.34885424382e-38
0.0717878411125 -0.0335009925192 0.862 2.34892542979e-38
0.0733831264706 -0.0335009925192 0.862 2.34842054195e-38
-0.0192988813385 -0.035088875161 0.948 2.34993562585e-38
-0.0175074239991 -0.0350148479982 0.946 1.93375838973e-38
-0.0157067132643 -0.034903807254 0.943 2.18232911913e-38
-0.0139615229016 -0.034903807254 0.943 1.34367567017e-38
-0.0121774682784 -0.0347927665098 0.94 2.09060418542e-38
-0.0103823095809 -0.0346076986028 0.935 2.12722459845e-38
-0.00865192465071 -0.0346076986028 0.935 1.7770283413e-38
-0.00672166638105 -0.0336083319052 0.908 2.09056340763e-38
-0.00503014571137 -0.0335343047424 0.906 1.69430184568e-38
-0.00333492368355 -0.0333492368355 0.901 1.28828542474e-38
-0.00166190980456 -0.0332381960913 0.898 1.66596955255e-38
0.0 -0.0331641689285 0.896 2.04464734111e-38
0.00162859758131 -0.0325719516262 0.88 1.32605868601e-38
0.00323868837192 -0.0323868837192 0.875 1.27996437432e-38
0.00484692848347 -0.0323128565565 0.873 1.94315928074e-38
0.00646257131129 -0.0323128565565 0.873 1.95201660808e-38
0.00804120055772 -0.0321648022309 0.869 1.99818827144e-38
0.00964944066926 -0.0321648022309 0.869 2.06261549067e-38
0.0110633594785 -0.03160959851 0.854 1.9888942995e-38
0.0125994231063 -0.0314985577658 0.851 1.88744407419e-38
0.0141410387714 -0.031424530603 0.849 1.96130973923e-38
0.0156752517201 -0.0313505034402 0.847 1.94297851324e-38
0.0172020619526 -0.0312764762774 0.845 1.9890403148e-38
0.0186770531711 -0.0311284219519 0.841 1.93365329235e-38
0.0200410036455 -0.0308323133007 0.833 1.94287103365e-38
0.0215308002966 -0.0307582861379 0.831 1.97042364431e-38
0.0230131942314 -0.0306842589751 0.829 1.98864066448e-38
0.0244881854499 -0.0306102318124 0.827 1.98885898678e-38
0.0260186970405 -0.0306102318124 0.827 1.94298005467e-38
0.0274825841846 -0.0305362046496 0.825 1.80443423602e-38
0.0290093944171 -0.0305362046496 0.825 2.34828139301e-38
0.0305362046496 -0.0305362046496 0.825 2.34892556992e-38
0.0320630148821 -0.0305362046496 0.825 2.32980134912e-38
0.0335898251145 -0.0305362046496 0.825 2.3484198413e-38
0.035116635347 -0.0305362046496 0.825 2.19147413304e-38
0.0366434455795 -0.0305362046496 0.825 2.25612065548e-38
0.0382627897654 -0.0306102318124 0.827 2.24700703066e-38
0.0398895366677 -0.0306842589751 0.829 2.34834935599e-38
0.0415236862862 -0.0307582861379 0.831 2.24696975612e-38
0.043165238621 -0.0308323133007 0.833 2.34838312728e-38
0.0448141936721 -0.0309063404635 0.835 2.34838719105e-38
0.0463595106953 -0.0309063404635 0.835 2.32998463896e-38
0.0480195698208 -0.0309803676263 0.837 2.34889011706e-38
0.0496870316625 -0.0310543947891 0.839 2.34853054388e-38
0.0513618962206 -0.0311284219519 0.841 2.34842180312e-38
0.0531700096716 -0.0312764762774 0.845 2.34863564126e-38
0.0548633810204 -0.0313505034402 0.847 2.34824131588e-38
0.0566974039784 -0.0314985577658 0.851 2.34881809032e-38
0.0584777572435 -0.03160959851 0.854 2.34827985158e-38
0.060058237169 -0.03160959851 0.854 2.04428398442e-38
0.0616387170945 -0.03160959851 0.854 1.93326022813e-38
0.0633672513455 -0.0316836256728 0.856 2.2281012723e-38
0.0651031883129 -0.0317576528356 0.858 2.34917892468e-38
0.0666910709547 -0.0317576528356 0.858 2.34896242407e-38
0.0691543247964 -0.0321648022309 0.869 2.34910479599e-38
0.0707625649079 -0.0321648022309 0.869 2.34838635027e-38
0.0725373661358 -0.0322388293937 0.871 2.34871131138e-38
0.0741493076054 -0.0322388293937 0.871 2.34806110889e-38
-0.0175074239991 -0.0332641055983 0.946 2.33030931982e-38
-0.0157067132643 -0.0331586168913 0.943 2.2561170121e-38
-0.0139615229016 -0.0331586168913 0.943 5.70169287475e-39
-0.0121774682784 -0.0330531281843 0.94 1.65736277739e-38
-0.0103823095809 -0.0328773136727 0.935 2.09095969484e-38
-0.00849461692979 -0.0322795443332 0.918 1.92428701341e-38
-0.0067364718136 -0.0319982411146 0.91 1.83216523198e-38
-0.00504124978578 -0.03192791531 0.908 1.98003627152e-38
-0.00335343047424 -0.0318575895053 0.906 2.09970828141e-38
-0.00166746184177 -0.0316817749937 0.901 1.38112537163e-38
0.0 -0.0316817749937 0.901 1.49183453642e-38
0.00166190980456 -0.0315762862867 0.898 1.80522779134e-38
0.00324979244634 -0.0308730282403 0.878 1.60225096995e-38
0.00485803255789 -0.0307675395333 0.875 1.39913738183e-38
0.00647737674385 -0.0307675395333 0.875 2.0531851724e-38
0.00805970734842 -0.030626887924 0.871 2.00755427011e-38
0.0096716488181 -0.030626887924 0.871 1.87822605263e-38
0.0112835902878 -0.030626887924 0.871 2.11782300679e-38
0.012643839404 -0.0300291185845 0.854 1.97038468822e-38
0.0141410387714 -0.0298533040729 0.849 1.96113219472e-38
0.0156752517201 -0.0297829782682 0.847 1.91517689184e-38
0.0172020619526 -0.0297126524636 0.845 1.96123785262e-38
0.0187214694688 -0.0296423266589 0.843 1.95194626289e-38
0.0201372389571 -0.029431349245 0.837 1.93354343055e-38
0.0216344383245 -0.0293610234403 0.835 1.91510472497e-38
0.0230131942314 -0.0291500460264 0.829 2.04410601952e-38
0.0245474071801 -0.0291500460264 0.829 1.93357818275e-38
0.0260816201289 -0.0291500460264 0.829 1.96130945897e-38
0.0275492086311 -0.0290797202217 0.827 1.86897117692e-38
0.0290797202217 -0.0290797202217 0.827 2.34795559112e-38
0.0306102318124 -0.0290797202217 0.827 2.3490372534e-38
0.032140743403 -0.0290797202217 0.827 2.34845725597e-38
0.0336712549936 -0.0290797202217 0.827 2.34845669545e-38
0.0352017665842 -0.0290797202217 0.827 2.31125502382e-38
0.0367322781748 -0.0290797202217 0.827 2.34813355602e-38
0.0383553237189 -0.0291500460264 0.829 2.34834767443e-38
0.0399857719793 -0.029220371831 0.831 2.32054521225e-38
0.0417235596257 -0.0293610234403 0.835 2.34845795662e-38
0.0432688766489 -0.0293610234403 0.835 2.3485311044e-38
0.0449215330581 -0.029431349245 0.837 2.34838494897e-38
0.0464705514394 -0.029431349245 0.837 2.34853068401e-38
0.0481343119231 -0.0295016750496 0.839 2.34874326099e-38
0.0501608055044 -0.0297829782682 0.847 1.98004173658e-38
0.0516061858578 -0.0297126524636 0.845 1.61139009841e-38
0.0531700096716 -0.0297126524636 0.845 2.34892977381e-38
0.0551224760902 -0.0299236298775 0.851 2.34852900245e-38
0.0566974039784 -0.0299236298775 0.851 2.34849481077e-38
0.0584777572435 -0.0300291185845 0.854 2.25633603505e-38
0.060058237169 -0.0300291185845 0.854 1.85050094213e-38
0.0617830700619 -0.0300994443891 0.856 2.26522937576e-38
0.0635153056711 -0.0301697701938 0.858 2.34889530187e-38
0.0652549439966 -0.0302400959984 0.86 2.34899633549e-38
0.0678569987686 -0.0306972137286 0.873 2.3489273916e-38
0.0694726415964 -0.0306972137286 0.873 2.28388304053e-38
0.0709254246661 -0.030626887924 0.871 2.34860215023e-38
0.0725373661358 -0.030626887924 0.871 2.34885284253e-38
0.0741493076054 -0.030626887924 0.871 2.34849411012e-38
-0.0193599537478 -0.0316799243146 0.951 2.34928752531e-38
-0.0175444375805 -0.0315799876449 0.948 2.34946899346e-38
-0.0157566815992 -0.0315133631984 0.946 2.05314985967e-38
-0.0139615229016 -0.0314134265286 0.943 1.51019785214e-38
-0.0122163325389 -0.0314134265286 0.943 1.20625145082e-38
-0.0104378299529 -0.0313134898588 0.94 1.7231049751e-38
-0.00849461692979 -0.0305806209472 0.918 2.08163321278e-38
-0.00675867996244 -0.030414059831 0.913 1.8413835338e-38
-0.00504124978578 -0.0302474987147 0.908 1.9520181495e-38
-0.00336083319052 -0.0302474987147 0.908 2.09041837324e-38
-0.00167116319991 -0.0300809375984 0.903 1.94326339722e-38
0.0 -0.0300143131519 0.901 1.4082868799e-38
0.00166190980456 -0.0299143764822 0.898 1.38105979086e-38
0.00332381960913 -0.0299143764822 0.898 2.19212153293e-38
0.00487468866951 -0.0292481320171 0.878 1.28839052212e-38
0.00647737674385 -0.0291481953473 0.875 1.85039388292e-38
0.00807821413911 -0.0290815709008 0.873 1.98893311547e-38
0.00969385696694 -0.0290815709008 0.873 2.02570276678e-38
0.0113094997948 -0.0290815709008 0.873 1.95198101509e-38
0.0128955317575 -0.0290149464543 0.871 1.93354315029e-38
0.0141743509946 -0.0283487019892 0.851 1.96119805574e-38
0.0156752517201 -0.0282154530962 0.847 1.95190842783e-38
0.0172020619526 -0.0281488286497 0.845 1.97027342512e-38
0.0187214694688 -0.0280822042032 0.843 1.9796390034e-38
0.0201372389571 -0.0278823308637 0.837 1.93354315029e-38
0.0216862573384 -0.0278823308637 0.837 1.96145393284e-38
0.0230687146034 -0.0276824575241 0.831 1.94287103365e-38
0.0245474071801 -0.0276158330776 0.829 1.93347308537e-38
0.0260816201289 -0.0276158330776 0.829 2.04406496147e-38
0.0276158330776 -0.0276158330776 0.829 1.91517507015e-38
0.0290797202217 -0.0275492086311 0.827 2.2744116642e-38
0.0306102318124 -0.0275492086311 0.827 2.34864180698e-38
0.032140743403 -0.0275492086311 0.827 2.34845767636e-38
0.0336712549936 -0.0275492086311 0.827 2.3484573961e-38
0.0352868978214 -0.0276158330776 0.829 2.34860102919e-38
0.0368211107702 -0.0276158330776 0.829 2.34845753623e-38
0.0385403916259 -0.0277490819706 0.833 2.34888731447e-38
0.0401782426026 -0.0278157064172 0.835 2.34820502225e-38
0.0418234962955 -0.0278823308637 0.837 2.34907074444e-38
0.0433725146768 -0.0278823308637 0.837 2.34831488404e-38
0.0450288724442 -0.0279489553102 0.839 2.34853026362e-38
0.0465815921836 -0.0279489553102 0.839 2.34845585467e-38
0.04847853823 -0.0281488286497 0.845 2.34942933671e-38
0.0503976924253 -0.0283487019892 0.851 3.21424236553e-39
0.0519726203136 -0.0283487019892 0.851 1.83672253485e-39
0.0535475482019 -0.0283487019892 0.851 2.34993590611e-38
0.0553167973925 -0.028448638659 0.854 2.14591427658e-38
0.056897277318 -0.028448638659 0.854 2.00755174778e-38
0.0584777572435 -0.028448638659 0.854 2.09960598662e-38
0.0603395403876 -0.028581887552 0.858 2.34881907123e-38
0.0619274230293 -0.028581887552 0.858 2.34906724119e-38
0.0635153056711 -0.028581887552 0.858 2.34867697957e-38
0.06662074515 -0.0292481320171 0.878 2.3487104706e-38
0.0680124558104 -0.0291481953473 0.875 2.12701202147e-38
0.0696317999964 -0.0291481953473 0.875 2.32082967584e-38
0.0712511441823 -0.0291481953473 0.875 2.34900039925e-38
0.0728704883683 -0.0291481953473 0.875 2.34827788977e-38
0.0744898325543 -0.0291481953473 0.875 2.34842138273e-38
-0.0193599537478 -0.0299199285194 0.951 2.34907116483e-38
-0.0175444375805 -0.0298255438868 0.948 2.34986387937e-38
-0.0157899938224 -0.0298255438868 0.948 2.03467219799e-38
-0.0140059391993 -0.0297626207984 0.946 2.09063375282e-38
-0.0122551967994 -0.0297626207984 0.946 9.38124480315e-39
-0.0104378299529 -0.0295738515333 0.94 1.02207697196e-38
-0.00869819162745 -0.0295738515333 0.94 1.81466427533e-38
-0.00695855330196 -0.0295738515333 0.94 2.08149280267e-38
-0.00506900997183 -0.0287243898404 0.913 1.92468231971e-38
-0.0033682359068 -0.0286300052078 0.91 1.58349192754e-38
-0.00168041659526 -0.0285670821194 0.908 1.98886879587e-38
0.0 -0.0285041590311 0.906 1.77681310186e-38
0.00166746184177 -0.0283468513102 0.901 1.32512934487e-38
0.00332381960913 -0.0282524666776 0.898 2.06290275686e-38
0.00498572941369 -0.0282524666776 0.898 1.7032323208e-38
0.00651439032524 -0.0276861588823 0.88 2.02559430628e-38
0.00812448111586 -0.0276232357939 0.878 1.98911486388e-38
0.00974937733903 -0.0276232357939 0.878 1.90581243459e-38
0.0113742735622 -0.0276232357939 0.878 2.03510127558e-38
0.0129251426226 -0.027465928073 0.873 1.93358140574e-38
0.0145074732272 -0.0274030049846 0.871 2.02587975078e-38
0.0161194146968 -0.0274030049846 0.871 2.04413937042e-38
0.0172427768921 -0.0266479279242 0.847 1.93354315029e-38
0.0187658857665 -0.0265850048358 0.845 1.96145239142e-38
0.0201372389571 -0.0263333124823 0.837 1.97981893013e-38
0.0216862573384 -0.0263333124823 0.837 1.9337920209e-38
0.0231797553476 -0.026270389394 0.835 1.94286865144e-38
0.0246066289103 -0.0261445432172 0.831 2.05336089522e-38
0.0261445432172 -0.0261445432172 0.831 1.90577558044e-38
0.0276824575241 -0.0261445432172 0.831 1.94265635472e-38
0.0291500460264 -0.0260816201289 0.829 2.25622505222e-38
0.0306842589751 -0.0260816201289 0.829 2.34842110247e-38
0.0322184719239 -0.0260816201289 0.829 2.34863746295e-38
0.0338341147517 -0.0261445432172 0.831 2.34870654697e-38
0.0354571602958 -0.0262074663056 0.833 2.34824159614e-38
0.0370876085562 -0.026270389394 0.835 2.3485297031e-38
0.0386329255794 -0.026270389394 0.835 2.34852816167e-38
0.0402744779142 -0.0263333124823 0.837 2.34831362288e-38
0.0419234329653 -0.0263962355707 0.839 2.34842236364e-38
0.0436834287605 -0.0265220817475 0.843 2.34853180505e-38
0.0452435512162 -0.0265220817475 0.843 2.34856921972e-38
0.0469147144162 -0.0265850048358 0.845 2.34928262076e-38
0.0487080224347 -0.0267108510126 0.849 1.95259464369e-38
0.0503976924253 -0.0267737741009 0.851 1.32594672226e-38
0.0521558375415 -0.0268681587335 0.854 8.99987862348e-39
0.053736317467 -0.0268681587335 0.854 2.34960898318e-38
0.0553167973925 -0.0268681587335 0.854 1.92486308721e-38
0.057163775104 -0.0269940049102 0.858 1.63930676641e-38
0.0588886079969 -0.0270569279986 0.86 2.3490039025e-38
0.0604801919968 -0.0270569279986 0.86 2.34896340497e-38
0.0622161289642 -0.027119851087 0.862 2.33909476054e-38
0.0644776587873 -0.0274030049846 0.871 2.30235930091e-38
0.0663931116244 -0.0275288511614 0.875 2.18200513892e-38
0.0682456413732 -0.0276232357939 0.878 2.34871131138e-38
0.0698705375964 -0.0276232357939 0.878 2.3490025012e-38
0.0714954338195 -0.0276232357939 0.878 2.34845767636e-38
0.0731203300427 -0.0276232357939 0.878 2.34824215665e-38
0.0747452262659 -0.0276232357939 0.878 2.34885242214e-38
-0.0194210261571 -0.0282487653195 0.954 2.34935801062e-38
-0.0176554783247 -0.0282487653195 0.954 2.35007743725e-38
-0.0157899938224 -0.0280711001288 0.948 1.79503292462e-38
-0.0140355500644 -0.0280711001288 0.948 2.30228895572e-38
-0.0122551967994 -0.0280118783985 0.946 8.45932353697e-39
-0.0105044543995 -0.0280118783985 0.946 1.63927944109e-38
-0.00875371199954 -0.0280118783985 0.946 6.43534829094e-39
-0.00700296959964 -0.0280118783985 0.946 1.98975805988e-38
-0.0050523538602 -0.0269458872544 0.91 1.90645927396e-38
-0.0033682359068 -0.0269458872544 0.91 1.83284724394e-38
-0.00168041659526 -0.0268866655242 0.908 1.75909045979e-38
0.0 -0.026827443794 0.906 2.07201680207e-38
0.00166746184177 -0.0266793894684 0.901 1.62965406207e-38
0.00332381960913 -0.026590556873 0.898 2.20105593168e-38
0.00498572941369 -0.026590556873 0.898 1.28828388331e-38
0.0065291957578 -0.0261167830312 0.882 1.72078120186e-38
0.00814298790655 -0.026057561301 0.88 2.06272493208e-38
0.00974937733903 -0.0259983395707 0.878 1.89691545051e-38
0.0113742735622 -0.0259983395707 0.878 1.9892187001e-38
0.0129547534877 -0.0259095069754 0.875 1.92439617456e-38
0.0145074732272 -0.0257910635149 0.871 1.93365105027e-38
0.016045387534 -0.0256726200545 0.867 1.97038440796e-38
0.0175481389386 -0.0255245657289 0.862 2.00755174778e-38
0.019099007999 -0.0254653439987 0.86 1.91528254974e-38
0.0203297095803 -0.025021181022 0.845 1.988818209e-38
0.0217380763524 -0.0248435158313 0.839 1.98878738043e-38
0.0231797553476 -0.0247250723708 0.835 1.8967712569e-38
0.0247250723708 -0.0247250723708 0.835 1.93365133053e-38
0.0262074663056 -0.0246658506406 0.833 1.90584466446e-38
0.0277490819706 -0.0246658506406 0.833 2.07172995627e-38
0.0292906976357 -0.0246658506406 0.833 2.13615549395e-38
0.0308323133007 -0.0246658506406 0.833 2.3488536833e-38
0.0324516574867 -0.0247250723708 0.835 2.34871033047e-38
0.0340784043889 -0.024784294101 0.837 2.34867109411e-38
0.0356274227702 -0.024784294101 0.837 2.34860004828e-38
0.0371764411516 -0.024784294101 0.837 2.3482404751e-38
0.0390030613933 -0.0249619592917 0.843 2.34860299101e-38
0.040563183849 -0.0249619592917 0.843 2.34856487569e-38
0.0422232429745 -0.025021181022 0.845 2.34870752787e-38
0.0438907048163 -0.0250804027522 0.847 2.3489236081e-38
0.0454582299883 -0.0250804027522 0.847 2.34888633356e-38
0.0472478366487 -0.0251988462126 0.851 1.8689053159e-38
0.048822764537 -0.0251988462126 0.851 4.04076183095e-39
0.050575357616 -0.025287678808 0.854 2.13633724236e-38
0.0521558375415 -0.025287678808 0.854 2.34884835837e-38
0.0539880098204 -0.0254061222684 0.858 2.34889305979e-38
0.0557054399971 -0.0254653439987 0.86 2.23775019313e-38
0.057297023997 -0.0254653439987 0.86 2.34910423547e-38
0.0588886079969 -0.0254653439987 0.86 2.34870991008e-38
0.0604801919968 -0.0254653439987 0.86 2.19179909415e-38
0.0622161289642 -0.0255245657289 0.862 1.82359264849e-38
0.0644776587873 -0.0257910635149 0.871 2.20090893547e-38
0.0663931116244 -0.0259095069754 0.875 2.34914361196e-38
0.0682456413732 -0.0259983395707 0.878 2.34852886232e-38
0.0700296959964 -0.026057561301 0.88 2.12726187299e-38
0.0714954338195 -0.0259983395707 0.878 2.20094578962e-38
0.0731203300427 -0.0259983395707 0.878 2.34885914837e-38
0.0761073260612 -0.0264721134126 0.894 2.34838733118e-38
0.0781097608145 -0.026590556873 0.898 2.35098211554e-38
-0.0157899938224 -0.0263166563707 0.948 2.12679496034e-38
-0.0140355500644 -0.0263166563707 0.948 2.24697171794e-38
-0.0122811063063 -0.0263166563707 0.948 1.17829554645e-38
-0.0105044543995 -0.0262611359986 0.946 1.45485104696e-38
-0.00875371199954 -0.0262611359986 0.946 1.0679574455e-38
-0.00700296959964 -0.0262611359986 0.946 8.74487593414e-39
-0.0052355710881 -0.0261778554405 0.943 1.98972400832e-38
-0.0033682359068 -0.025261769301 0.91 1.83241592428e-38
-0.0016841179534 -0.025261769301 0.91 1.98915045686e-38
0.0 -0.0252062489289 0.908 1.85092679673e-38
0.00167116319991 -0.0250674479987 0.903 1.90627920711e-38
0.00332381960913 -0.0249286470685 0.898 1.86940151568e-38
0.00498572941369 -0.0249286470685 0.898 1.2796731845e-38
0.00656620933919 -0.024623285022 0.887 1.5368893649e-38
0.00816149469725 -0.0244844840917 0.882 2.03510575974e-38
0.00977158548786 -0.0244289637197 0.88 1.98900500208e-38
0.0113742735622 -0.0243734433476 0.878 1.90605822234e-38
0.0129991697854 -0.0243734433476 0.878 1.95223282843e-38
0.0145074732272 -0.0241791220453 0.871 1.94304983933e-38
0.016045387534 -0.0240680813011 0.867 2.0258817126e-38
0.0175481389386 -0.0239292803708 0.862 1.92446680001e-38
0.019099007999 -0.0238737599988 0.86 1.9152119243e-38
0.0206905919989 -0.0238737599988 0.86 1.96127260482e-38
0.0217898953663 -0.0233463164639 0.841 1.98878667978e-38
0.0232352757197 -0.0232352757197 0.837 1.97045447288e-38
0.024784294101 -0.0232352757197 0.837 1.95202207314e-38
0.0263333124823 -0.0232352757197 0.837 1.94269110693e-38
0.0278823308637 -0.0232352757197 0.837 2.04399868005e-38
0.029431349245 -0.0232352757197 0.837 2.22831581109e-38
0.0309803676263 -0.0232352757197 0.837 2.28381143417e-38
0.0325293860076 -0.0232352757197 0.837 2.34799188475e-38
0.0340784043889 -0.0232352757197 0.837 2.34867123424e-38
0.0357125540074 -0.0232907960918 0.839 2.34838340754e-38
0.0373541063422 -0.0233463164639 0.841 2.34871103112e-38
0.0390030613933 -0.023401836836 0.843 2.34871271268e-38
0.0406594191607 -0.0234573572081 0.845 2.34903501133e-38
0.0422232429745 -0.0234573572081 0.845 1.76827527058e-38
0.0440979808721 -0.0236239183244 0.851 2.34995762623e-38
0.0458339178395 -0.0237071988825 0.854 8.1755115525e-39
0.0475254385092 -0.0237627192546 0.856 2.12726986039e-38
0.0491096197928 -0.0237627192546 0.856 1.30762376393e-38
0.0508122445369 -0.0238182396267 0.858 2.34933012478e-38
0.0524001271787 -0.0238182396267 0.858 2.34892725147e-38
0.0542397021739 -0.0239292803708 0.862 2.34849382986e-38
0.055834987532 -0.0239292803708 0.862 2.34892599031e-38
0.057563521783 -0.0239848007429 0.864 2.34910395521e-38
0.0591625084992 -0.0239848007429 0.864 1.75837173381e-38
0.0609724726294 -0.0240680813011 0.867 2.12726761831e-38
0.0631544232525 -0.0242901627894 0.875 2.15560355482e-38
0.0647737674385 -0.0242901627894 0.875 2.34910928014e-38
0.06662074515 -0.0243734433476 0.878 2.16356783464e-38
0.068401098415 -0.0244289637197 0.88 2.21012905897e-38
0.0704275919963 -0.0245677646499 0.885 2.09070830189e-38
0.072065442973 -0.0245677646499 0.885 2.29321400674e-38
0.0738698550659 -0.024623285022 0.887 2.28334802477e-38
0.0761073260612 -0.0248176063243 0.894 2.34878445916e-38
0.077935796982 -0.0248731266964 0.896 2.35098015372e-38
0.0795940054284 -0.0248731266964 0.896 2.3509851984e-38
-0.0194210261571 -0.0247176696545 0.954 2.34874690436e-38
-0.0175999579526 -0.0246399411336 0.951 2.34921605909e-38
-0.0158399621573 -0.0246399411336 0.951 1.90574054798e-38
-0.0140355500644 -0.0245622126127 0.948 2.19161510366e-38
-0.0122811063063 -0.0245622126127 0.948 1.86011132725e-38
-0.0105044543995 -0.0245103935987 0.946 1.06734437742e-38
-0.00875371199954 -0.0245103935987 0.946 1.15165251862e-38
-0.0069807614508 -0.0244326650778 0.943 1.0959402548e-38
-0.0052355710881 -0.0244326650778 0.943 1.27110480491e-38
-0.0034903807254 -0.0244326650778 0.943 1.94369555766e-38
-0.0016841179534 -0.0235776513476 0.91 1.85085519038e-38
0.0 -0.0235258323337 0.908 1.98922080204e-38
0.00167116319991 -0.0233962847988 0.903 1.79564627296e-38
0.00333492368355 -0.0233444657848 0.901 1.85064023119e-38
0.00500238552532 -0.0233444657848 0.901 1.62994651306e-38
0.00658101477175 -0.0230335517011 0.889 2.0262432476e-38
0.00820776167399 -0.0229817326872 0.887 1.66653133311e-38
0.00982710585995 -0.0229299136732 0.885 2.01619593761e-38
0.0114001830692 -0.0228003661383 0.88 1.94294165909e-38
0.0129991697854 -0.0227485471244 0.878 1.96130973923e-38
0.0145074732272 -0.0225671805756 0.871 1.91524695676e-38
0.0161194146968 -0.0225671805756 0.871 2.02580786417e-38
0.0176499262875 -0.0224635425477 0.867 1.97052902196e-38
0.0191434242967 -0.0223339950128 0.862 1.97978389767e-38
0.0206905919989 -0.0222821759988 0.86 1.96134729403e-38
0.0222303569849 -0.0222303569849 0.858 2.07165554732e-38
0.0233463164639 -0.0217898953663 0.841 1.93364908845e-38
0.0249027375615 -0.0217898953663 0.841 1.97045741561e-38
0.0263962355707 -0.0217380763524 0.839 1.98885898678e-38
0.0279489553102 -0.0217380763524 0.839 1.94294165909e-38
0.0295016750496 -0.0217380763524 0.839 2.19136721396e-38
0.0310543947891 -0.0217380763524 0.839 2.34867557827e-38
0.0326071145285 -0.0217380763524 0.839 2.34863886425e-38
0.0342412641471 -0.0217898953663 0.841 2.34852928271e-38
0.0357976852446 -0.0217898953663 0.841 2.34849326934e-38
0.0374429389376 -0.0218417143803 0.843 2.3482790108e-38
0.0390955953468 -0.0218935333942 0.845 2.34903445081e-38
0.0406594191607 -0.0218935333942 0.845 1.92439617456e-38
0.0423231796443 -0.0219453524082 0.847 3.489748854e-39
0.0440979808721 -0.0220489904361 0.851 2.08986009593e-38
0.0458339178395 -0.022126718957 0.854 7.62234618111e-39
0.0475254385092 -0.0221785379709 0.856 2.17246523911e-38
0.0492243618951 -0.0222303569849 0.858 2.34936179413e-38
0.0509306879973 -0.0222821759988 0.86 2.34842208338e-38
0.0525222719973 -0.0222821759988 0.86 2.34899493419e-38
0.0542397021739 -0.0223339950128 0.862 2.3485672579e-38
0.0559645350669 -0.0223858140267 0.864 2.34824439873e-38
0.057563521783 -0.0223858140267 0.864 2.21881108387e-38
0.059367933876 -0.0224635425477 0.867 2.10861017004e-38
0.0613944274573 -0.0226189995895 0.873 2.3487146745e-38
0.0633709527037 -0.0227485471244 0.878 2.34936039283e-38
0.0649958489268 -0.0227485471244 0.878 2.33905622483e-38
0.0667725008337 -0.0228003661383 0.88 2.19119317269e-38
0.0685565554569 -0.0228521851523 0.882 2.348606214e-38
0.0705867503963 -0.0229817326872 0.887 2.10903952789e-38
0.0722283027311 -0.0229817326872 0.887 2.3486409662e-38
0.0742029772985 -0.0230853707151 0.891 2.34881388643e-38
0.0762775885356 -0.02321491825 0.896 2.34871215216e-38
0.077935796982 -0.02321491825 0.896 2.35098127476e-38
0.0795940054284 -0.02321491825 0.896 2.35098505827e-38
-0.0194210261571 -0.0229521218221 0.954 2.34849691272e-38
-0.0175999579526 -0.0228799453383 0.951 2.34907158522e-38
-0.0158399621573 -0.0228799453383 0.951 2.05318068824e-38
-0.0140355500644 -0.0228077688546 0.948 2.22838615627e-38
-0.0122811063063 -0.0228077688546 0.948 2.10871736937e-38
-0.0105266625483 -0.0228077688546 0.948 1.2232487808e-38
-0.00875371199954 -0.0227596511988 0.946 8.46328640903e-39
-0.0069807614508 -0.0226874747151 0.943 1.53829612843e-38
-0.0052355710881 -0.0226874747151 0.943 1.19727613415e-38
-0.0034903807254 -0.0226874747151 0.943 8.10130579232e-39
-0.0016841179534 -0.0218935333942 0.91 2.02657339352e-38
0.0 -0.0218454157384 0.908 1.7310005913e-38
0.00167671523712 -0.0217972980826 0.906 1.85989678846e-38
0.00334232639983 -0.0217251215989 0.903 1.96127442651e-38
0.00500238552532 -0.0216770039431 0.901 1.76791793947e-38
0.00658101477175 -0.0213882980082 0.889 1.76802359737e-38
0.00822626846469 -0.0213882980082 0.889 1.79614667664e-38
0.00982710585995 -0.0212920626966 0.885 1.87808956616e-38
0.0114260925761 -0.0212198862128 0.882 2.05368319387e-38
0.0129991697854 -0.0211236509012 0.878 1.93397348905e-38
0.0145074732272 -0.0209552391059 0.871 1.94290606611e-38
0.0161194146968 -0.0209552391059 0.871 1.96134449143e-38
0.017690641227 -0.0209071214501 0.869 1.94276117185e-38
0.0192544650409 -0.0208590037943 0.867 1.94283361898e-38
0.0207387096547 -0.0207387096547 0.862 1.96127260482e-38
0.0222821759988 -0.0206905919989 0.86 2.03484764056e-38
0.0235128775802 -0.0203778272361 0.847 1.94261655785e-38
0.0249619592917 -0.0202815919245 0.843 1.9796390034e-38
0.0264591586591 -0.0202334742687 0.841 1.97059936714e-38
0.0280155797567 -0.0202334742687 0.841 1.87843975065e-38
0.0295720008543 -0.0202334742687 0.841 2.11764728396e-38
0.0311284219519 -0.0202334742687 0.841 2.34846145986e-38
0.0326848430495 -0.0202334742687 0.841 2.34849565155e-38
0.0343226940261 -0.0202815919245 0.843 2.34852956297e-38
0.0358828164819 -0.0202815919245 0.843 2.34852998336e-38
0.0375317715329 -0.0203297095803 0.845 2.34860467257e-38
0.0390955953468 -0.0203297095803 0.845 2.34849453051e-38
0.0407556544723 -0.0203778272361 0.847 2.34889235914e-38
0.0426729579885 -0.0205462390315 0.854 4.13259732711e-39
0.0443570759419 -0.0205943566873 0.856 8.46475356852e-39
0.0459412572255 -0.0205943566873 0.856 2.34997304052e-38
0.0476364792533 -0.0206424743431 0.858 2.34889165849e-38
0.0493391039974 -0.0206905919989 0.86 2.34867235528e-38
0.0510491314578 -0.0207387096547 0.862 2.34896382536e-38
0.0526444168159 -0.0207387096547 0.862 2.34870920943e-38
0.0543655483507 -0.0207868273105 0.864 1.99815295872e-38
0.0561588563692 -0.0208590037943 0.867 2.34921353675e-38
0.0580298929086 -0.0209552391059 0.871 2.04378203931e-38
0.0599157348806 -0.0210514744175 0.875 2.16385748303e-38
0.0617460564805 -0.0211236509012 0.878 2.34835341975e-38
0.0635153056711 -0.021171768557 0.88 2.1456993174e-38
0.0651439032524 -0.021171768557 0.88 2.22817708254e-38
0.0669242565174 -0.0212198862128 0.882 2.23725217166e-38
0.0689451980615 -0.0213401803524 0.887 2.29299750613e-38
0.0707459087963 -0.0213882980082 0.889 2.08163293252e-38
0.0725540222474 -0.021436415664 0.891 2.34946745203e-38
0.0744528189729 -0.0215085921477 0.894 2.34896298458e-38
0.0762775885356 -0.0215567098035 0.896 2.34885354317e-38
0.077935796982 -0.0215567098035 0.896 2.35098505827e-38
0.0795940054284 -0.0215567098035 0.896 2.35098702009e-38
0.0812522138748 -0.0215567098035 0.896 2.35098730035e-38
-0.0159232427154 -0.0212309902873 0.956 2.25608562302e-38
-0.0140355500644 -0.0210533250966 0.948 2.03466771384e-38
-0.0122811063063 -0.0210533250966 0.948 2.10867827314e-38
-0.0105266625483 -0.0210533250966 0.948 2.10893386998e-38
-0.00875371199954 -0.0210089087989 0.946 8.7394388961e-39
-0.0069807614508 -0.0209422843524 0.943 1.51017304916e-38
-0.0052355710881 -0.0209422843524 0.943 1.23390607601e-38
-0.0034903807254 -0.0209422843524 0.943 1.17898456491e-38
-0.0017451903627 -0.0209422843524 0.943 1.32542179586e-38
0.0 -0.0201649991431 0.908 1.97092769137e-38
0.00168041659526 -0.0201649991431 0.908 1.71281187736e-38
0.00334232639983 -0.020053958399 0.903 2.02599143427e-38
0.00501348959974 -0.020053958399 0.903 1.6483803141e-38
0.00659582020431 -0.0197874606129 0.891 1.88766085506e-38
0.00822626846469 -0.0197430443153 0.889 1.08621286125e-38
0.00982710585995 -0.0196542117199 0.885 1.41844503259e-38
0.0114649568366 -0.0196542117199 0.885 1.23369097669e-38
0.0130287806505 -0.0195431709757 0.88 2.00801894068e-38
0.0145407854504 -0.0193877139339 0.873 1.92454134909e-38
0.0161194146968 -0.0193432976362 0.871 1.96134449143e-38
0.017690641227 -0.0192988813385 0.869 2.0165860591e-38
0.0192988813385 -0.0192988813385 0.869 1.96134449143e-38
0.0207868273105 -0.0191878405943 0.864 1.96137980415e-38
0.0223339950128 -0.0191434242967 0.862 1.96127260482e-38
0.0236239183244 -0.0188991346595 0.851 1.97052804105e-38
0.025021181022 -0.0187658857665 0.845 2.07208714725e-38
0.0265850048358 -0.0187658857665 0.845 1.94297655142e-38
0.0281488286497 -0.0187658857665 0.845 2.00740559235e-38
0.0296423266589 -0.0187214694688 0.843 2.154596862e-38
0.0312024491147 -0.0187214694688 0.843 2.34845907766e-38
0.0327625715704 -0.0187214694688 0.843 2.34867655918e-38
0.0344041239052 -0.0187658857665 0.845 2.3484212426e-38
0.0359679477191 -0.0187658857665 0.845 2.34856529608e-38
0.0376206041283 -0.0188103020641 0.847 2.34842152286e-38
0.0393731972073 -0.0188991346595 0.851 2.34892388836e-38
0.041092478063 -0.018965759106 0.854 2.34932325842e-38
0.0427728946582 -0.0190101754037 0.856 3.67341984632e-39
0.0444607139698 -0.0190545917013 0.858 1.02085041542e-38
0.0460485966116 -0.0190545917013 0.858 2.34971492134e-38
0.0477475199975 -0.019099007999 0.86 2.3486367623e-38
0.0494538460997 -0.0191434242967 0.862 2.34899563484e-38
0.0510491314578 -0.0191434242967 0.862 2.29303225833e-38
0.0527665616345 -0.0191878405943 0.864 2.10885777947e-38
0.0543655483507 -0.0191878405943 0.864 2.02592501272e-38
0.0564179514389 -0.0193432976362 0.871 2.34899773679e-38
0.0582963906946 -0.0194321302315 0.875 2.31104146593e-38
0.0602581105085 -0.0195431709757 0.88 2.2838505304e-38
0.0618867080898 -0.0195431709757 0.88 2.0999631776e-38
0.0635153056711 -0.0195431709757 0.88 2.07216323776e-38
0.0656620933919 -0.0196986280176 0.887 2.34806699435e-38
0.0674554014104 -0.0197430443153 0.889 2.34824383821e-38
0.0692561121452 -0.0197874606129 0.891 2.14577330596e-38
0.0709050671963 -0.0197874606129 0.891 2.34903304951e-38
0.0725540222474 -0.0197874606129 0.891 2.34888731447e-38
0.0744528189729 -0.0198540850594 0.894 2.34907046418e-38
0.0762775885356 -0.0198985013571 0.896 2.34888759473e-38
0.077935796982 -0.0198985013571 0.896 2.35098491814e-38
0.0795940054284 -0.0198985013571 0.896 2.35098575892e-38
0.0812522138748 -0.0198985013571 0.896 2.35098225567e-38
-0.0122811063063 -0.0192988813385 0.948 1.98900402117e-38
-0.0105266625483 -0.0192988813385 0.948 2.19150972602e-38
-0.00877221879024 -0.0192988813385 0.948 2.02606542283e-38
-0.00701777503219 -0.0192988813385 0.948 1.12329878562e-38
-0.00525222719973 -0.019258166399 0.946 1.08671676817e-38
-0.00350148479982 -0.019258166399 0.946 1.48294119571e-38
-0.0017451903627 -0.0191970939897 0.943 1.41811558733e-38
0.0 -0.0184845825479 0.908 1.05805264757e-38
0.00168041659526 -0.0184845825479 0.908 2.01688299425e-38
0.00336083319052 -0.0184845825479 0.908 1.8509252553e-38
0.00501348959974 -0.018382795199 0.903 1.75880529556e-38
0.0066328337857 -0.0182402929107 0.896 1.82341258164e-38
0.00822626846469 -0.0180977906223 0.889 1.69437849671e-38
0.00984931400879 -0.0180570756828 0.887 1.09586444455e-38
0.0114649568366 -0.0180163607432 0.885 8.56442932959e-39
0.0130583915156 -0.0179552883339 0.882 1.95277765327e-38
0.0146240660085 -0.0178738584549 0.878 1.93364908845e-38
0.0161564282782 -0.0177720711061 0.873 2.07194253325e-38
0.0177313561665 -0.0177313561665 0.871 1.93361377573e-38
0.0193432976362 -0.0177313561665 0.871 1.92450631662e-38
0.0208590037943 -0.0176499262875 0.867 1.97063075623e-38
0.0223858140267 -0.0175888538782 0.864 1.94304885842e-38
0.0238182396267 -0.0174667090596 0.858 1.96134477169e-38
0.0251988462126 -0.0173242067712 0.851 2.0627602448e-38
0.0266479279242 -0.0172427768921 0.847 1.92432232614e-38
0.0281488286497 -0.0172020619526 0.845 2.12704102835e-38
0.0297126524636 -0.0172020619526 0.845 1.97031434303e-38
0.0312764762774 -0.0172020619526 0.845 2.34870724761e-38
0.0329180286122 -0.0172427768921 0.847 2.34863886425e-38
0.0345669836633 -0.0172834918317 0.849 2.34838747131e-38
0.0361382101935 -0.0172834918317 0.849 2.34885158136e-38
0.037798269319 -0.0173242067712 0.851 2.34856137244e-38
0.039604532091 -0.01742599412 0.856 2.3487438215e-38
0.0411887133746 -0.01742599412 0.856 2.34910633742e-38
0.0429727679978 -0.0175074239991 0.86 9.93330034615e-39
0.0445643519977 -0.0175074239991 0.86 2.34846762558e-38
0.0462632753836 -0.0175481389386 0.862 2.34917878455e-38
0.0478585607417 -0.0175481389386 0.862 2.34899493419e-38
0.0495685882021 -0.0175888538782 0.864 2.08101986444e-38
0.0511675749183 -0.0175888538782 0.864 1.96159910736e-38
0.0529497788624 -0.0176499262875 0.867 2.00787642863e-38
0.0546801637925 -0.017690641227 0.869 1.92429247848e-38
0.056871367811 -0.0178738584549 0.878 2.34899521445e-38
0.0586295129272 -0.0179145733944 0.88 2.25586940267e-38
0.0603950607596 -0.0179552883339 0.882 2.22838993978e-38
0.0620273596991 -0.0179552883339 0.882 2.21084512249e-38
0.0638761880897 -0.0180163607432 0.885 2.09982220698e-38
0.0658101477175 -0.0180977906223 0.889 2.34813986187e-38
0.0678347906197 -0.0181995779711 0.894 2.15427610478e-38
0.0696447547499 -0.0182402929107 0.896 2.34928206024e-38
0.0713029631963 -0.0182402929107 0.896 2.34892655082e-38
0.0729611716427 -0.0182402929107 0.896 2.34892823238e-38
0.0746193800891 -0.0182402929107 0.896 2.34881907123e-38
0.0762775885356 -0.0182402929107 0.896 2.34874578332e-38
0.077935796982 -0.0182402929107 0.896 2.35098449775e-38
0.0795940054284 -0.0182402929107 0.896 2.3509865997e-38
-0.0105932869948 -0.0176554783247 0.954 2.02559430628e-38
-0.00882773916233 -0.0176554783247 0.954 2.09938640315e-38
-0.00703998318103 -0.0175999579526 0.951 1.93408461202e-38
-0.00525222719973 -0.0175074239991 0.946 1.03092547111e-38
-0.00350148479982 -0.0175074239991 0.946 1.13249592783e-38
-0.0017451903627 -0.017451903627 0.943 8.92430239341e-39
0.0 -0.017451903627 0.943 1.75999093419e-38
0.0017451903627 -0.017451903627 0.943 6.98925354792e-39
0.00336083319052 -0.0168041659526 0.908 2.10886772869e-38
0.00501348959974 -0.0167116319991 0.903 1.60195781831e-38
0.00664763921826 -0.0166190980456 0.898 1.81405106712e-38
0.00827253544143 -0.0165450708829 0.894 1.7497304867e-38
0.00987152215763 -0.0164525369294 0.889 1.76824009799e-38
0.0114908663436 -0.016415523348 0.887 1.68551416288e-38
0.0131028078133 -0.0163785097666 0.885 1.94294726428e-38
0.0146240660085 -0.0162489622317 0.878 1.96137980415e-38
0.0161934418596 -0.0161934418596 0.875 1.97960439133e-38
0.0177720711061 -0.0161564282782 0.873 1.9610579259e-38
0.0193432976362 -0.0161194146968 0.871 1.95198255652e-38
0.0209071214501 -0.0160824011154 0.869 1.94286865144e-38
0.0224635425477 -0.016045387534 0.867 1.96134477169e-38
0.0238737599988 -0.0159158399992 0.86 1.98875332888e-38
0.0254061222684 -0.0158788264178 0.858 1.99801002627e-38
0.0267737741009 -0.0157492788829 0.851 1.97963942379e-38
0.0282820775427 -0.0157122653015 0.849 2.04417594431e-38
0.0297829782682 -0.0156752517201 0.847 1.99811386249e-38
0.0313505034402 -0.0156752517201 0.847 2.34845991844e-38
0.0330734856541 -0.0157492788829 0.851 2.34856683751e-38
0.0346484135424 -0.0157492788829 0.851 2.34842222351e-38
0.0363510382865 -0.015804799255 0.854 2.34852760115e-38
0.0380203508073 -0.0158418128364 0.856 2.34878207695e-38
0.0396970660444 -0.0158788264178 0.858 2.34867347632e-38
0.0413811839978 -0.0159158399992 0.86 2.34878445916e-38
0.0429727679978 -0.0159158399992 0.86 2.34892725147e-38
0.0446679900256 -0.0159528535806 0.862 2.34899857757e-38
0.0462632753836 -0.0159528535806 0.862 2.34849368973e-38
0.0479696014859 -0.015989867162 0.864 1.95176619604e-38
0.0497407013555 -0.016045387534 0.867 2.08120581675e-38
0.0514636835694 -0.0160824011154 0.869 2.01767206541e-38
0.0531940684996 -0.0161194146968 0.871 1.99840897594e-38
0.0552464715878 -0.0162489622317 0.878 2.3486771197e-38
0.0570009153459 -0.0162859758131 0.88 2.11821985451e-38
0.0587627618202 -0.0163229893945 0.882 2.23743251877e-38
0.0606004861364 -0.0163785097666 0.885 2.2838519317e-38
0.062238337113 -0.0163785097666 0.885 2.20137612837e-38
0.0640205410571 -0.016415523348 0.887 2.19187112089e-38
0.0658101477175 -0.0164525369294 0.889 2.23750006136e-38
0.0679865463034 -0.0165820844643 0.896 2.34950262462e-38
0.0698002117917 -0.0166190980456 0.898 2.3489635451e-38
0.0713029631963 -0.0165820844643 0.896 2.34870948969e-38
0.0729611716427 -0.0165820844643 0.896 2.34888969667e-38
0.0746193800891 -0.0165820844643 0.896 2.34903459094e-38
0.0762775885356 -0.0165820844643 0.896 2.3485672579e-38
0.077935796982 -0.0165820844643 0.896 2.3509837971e-38
0.0795940054284 -0.0165820844643 0.896 2.35098645957e-38
-0.0105932869948 -0.0158899304922 0.954 2.00751517389e-38
-0.00882773916233 -0.0158899304922 0.954 2.00744328727e-38
-0.00703998318103 -0.0158399621573 0.951 2.08105671859e-38
-0.00526333127414 -0.0157899938224 0.948 1.81419680216e-38
-0.00350148479982 -0.0157566815992 0.946 1.30768808353e-38
-0.0017451903627 -0.0157067132643 0.943 1.1138381993e-38
0.0 -0.0157067132643 0.943 1.1145574858e-38
0.0017451903627 -0.0157067132643 0.943 6.62729815458e-39
0.0035088875161 -0.0157899938224 0.948 1.73100661688e-38
0.00500238552532 -0.015007156576 0.901 1.97110285368e-38
0.00666984736709 -0.015007156576 0.901 1.76794750687e-38
0.00830954902282 -0.0149571882411 0.898 1.84192387449e-38
0.00989373030646 -0.0148405954597 0.891 1.74983586434e-38
0.0115167758506 -0.0148072832364 0.889 2.09953101716e-38
0.0131324186784 -0.0147739710132 0.887 1.73989995758e-38
0.014690690455 -0.014690690455 0.882 1.99836553569e-38
0.0162489622317 -0.0146240660085 0.878 2.02566465147e-38
0.0178127860456 -0.0145740976737 0.875 1.96127260482e-38
0.0193877139339 -0.0145407854504 0.873 1.9703841277e-38
0.0209071214501 -0.0144741610039 0.869 1.97970962885e-38
0.0224635425477 -0.0144408487806 0.867 1.97978389767e-38
0.0239292803708 -0.0143575682225 0.862 1.95194570237e-38
0.0254653439987 -0.0143242559993 0.86 2.0073002147e-38
0.0267737741009 -0.0141743509946 0.851 1.97985452311e-38
0.0283487019892 -0.0141743509946 0.851 2.00740559235e-38
0.0299236298775 -0.0141743509946 0.851 2.03477729538e-38
0.03160959851 -0.0142243193295 0.854 2.24707961792e-38
0.0331900784355 -0.0142243193295 0.854 2.34914417248e-38
0.034770558361 -0.0142243193295 0.854 2.34838677066e-38
0.0364361695237 -0.0142576315527 0.856 2.34852788141e-38
0.0381091834027 -0.014290943776 0.858 2.34896018199e-38
0.0397895999979 -0.0143242559993 0.86 2.34838564962e-38
0.0414774193095 -0.0143575682225 0.862 2.34856557634e-38
0.0431726413373 -0.0143908804458 0.864 2.34860102919e-38
0.0447716280535 -0.0143908804458 0.864 2.34910367495e-38
0.0463706147697 -0.0143908804458 0.864 2.28420954307e-38
0.0482472033463 -0.0144741610039 0.869 2.03492583302e-38
0.0498554434579 -0.0144741610039 0.869 2.3493240992e-38
0.0515821270299 -0.0145074732272 0.871 2.15545753952e-38
0.0534383581368 -0.0145740976737 0.875 2.23771656197e-38
0.0553723177646 -0.0146573782318 0.88 2.3391325956e-38
0.0571304628807 -0.014690690455 0.882 2.16428333763e-38
0.0589626351597 -0.0147406587899 0.885 2.2464372627e-38
0.0607374363875 -0.0147739710132 0.887 2.22824798825e-38
0.0623789887223 -0.0147739710132 0.887 2.3119389976e-38
0.0640205410571 -0.0147739710132 0.887 2.25669322603e-38
0.066328337857 -0.0149238760178 0.896 2.20069846044e-38
0.0681383019871 -0.0149571882411 0.898 2.34921437753e-38
