# .PCD v0.7 - Point Cloud Data file format
VERSION 0.7
FIELDS x y z rgb
SIZE 4 4 4 4
TYPE F F F F
COUNT 1 1 1 1
WIDTH 843
HEIGHT 1
VIEWPOINT 0 0 0 1 0 0 0
POINTS 843
DATA ascii
0.0251396244824 -0.0455655693744 0.849 7.98975402677e-39
0.0267108510126 -0.0455655693744 0.849 6.97959019371e-39
0.0282820775427 -0.0455655693744 0.849 4.13266318814e-39
0.0298533040729 -0.0455655693744 0.849 8.26537682302e-40
0.0313505034402 -0.0454582299883 0.847 3.67370010601e-40
0.0329180286122 -0.0454582299883 0.847 2.3500781379e-38
0.0344855537843 -0.0454582299883 0.847 1.27020447065e-38
0.0360530789563 -0.0454582299883 0.847 4.68361030406e-39
0.0376206041283 -0.0454582299883 0.847 6.62447593947e-39
0.0391881293003 -0.0454582299883 0.847 6.90033415386e-39
0.0407556544723 -0.0454582299883 0.847 6.90104040829e-39
0.0423231796443 -0.0454582299883 0.847 1.83675336341e-39
0.0438907048163 -0.0454582299883 0.847 1.54665823689e-38
0.0454582299883 -0.0454582299883 0.847 2.2663113183e-38
0.0469147144162 -0.0453508906023 0.845 2.30235902065e-38
0.04847853823 -0.0453508906023 0.845 2.25611673184e-38
0.0500423620439 -0.0453508906023 0.845 2.25604666692e-38
0.0516061858578 -0.0453508906023 0.845 2.26508644331e-38
0.0531700096716 -0.0453508906023 0.845 2.33870197658e-38
0.0547338334855 -0.0453508906023 0.845 2.33887825993e-38
0.0562976572994 -0.0453508906023 0.845 2.28374052847e-38
0.0578614811133 -0.0453508906023 0.845 2.27455627821e-38
0.0592846533178 -0.0452435512162 0.843 2.34809698213e-38
0.0608447757736 -0.0452435512162 0.843 2.31114670345e-38
0.0624048982293 -0.0452435512162 0.843 2.32948115242e-38
0.063965020685 -0.0452435512162 0.843 2.34831348275e-38
0.0655251431408 -0.0452435512162 0.843 2.32958624981e-38
0.0670852655965 -0.0452435512162 0.843 2.32047612823e-38
0.0686453880522 -0.0452435512162 0.843 2.34828153314e-38
0.0700389493917 -0.0451362118302 0.841 2.34813327576e-38
0.0714251080149 -0.0450288724442 0.839 2.34791845671e-38
0.0729778277543 -0.0450288724442 0.839 2.33887825993e-38
0.0745305474938 -0.0450288724442 0.839 2.30200042837e-38
0.0764460003309 -0.0452435512162 0.843 2.34885172149e-38
0.0780061227866 -0.0452435512162 0.843 2.35098281619e-38
0.0795662452424 -0.0452435512162 0.843 2.35098491814e-38
-0.0127622828645 -0.0446679900256 0.862 2.35058274548e-38
-0.0111669975064 -0.0446679900256 0.862 2.35065589326e-38
-0.0094273591809 -0.0439943428442 0.849 1.90563334865e-38
-0.00785613265075 -0.0439943428442 0.849 2.34838705092e-38
-0.0062849061206 -0.0439943428442 0.849 2.3482442586e-38
-0.00471367959045 -0.0439943428442 0.849 2.34852858206e-38
-0.0031424530603 -0.0439943428442 0.849 2.34867697957e-38
-0.00157122653015 -0.0439943428442 0.849 1.86032264306e-38
0.0 -0.0439943428442 0.849 1.66663572984e-38
0.00157122653015 -0.0439943428442 0.849 1.509268511e-38
0.00314985577658 -0.0440979808721 0.851 1.67597636502e-38
0.00472478366487 -0.0440979808721 0.851 1.84311792091e-38
0.00629971155316 -0.0440979808721 0.851 2.09182639794e-38
0.00787463944145 -0.0440979808721 0.851 2.09092031835e-38
0.00944956732974 -0.0440979808721 0.851 2.34874438202e-38
0.011024495218 -0.0440979808721 0.851 2.34863732282e-38
0.0125698122412 -0.0439943428442 0.849 2.02617262216e-38
0.0141410387714 -0.0439943428442 0.849 5.14278778485e-39
0.0157492788829 -0.0440979808721 0.851 3.489748854e-39
0.0173242067712 -0.0440979808721 0.851 6.4289051206e-40
0.0188991346595 -0.0440979808721 0.851 2.20407993376e-39
0.0204740625478 -0.0440979808721 0.851 1.92857484659e-39
0.022126718957 -0.044253437914 0.854 4.5917748079e-39
0.0236239183244 -0.0440979808721 0.851 3.21426058241e-39
0.0251988462126 -0.0440979808721 0.851 5.41834051617e-39
0.0267737741009 -0.0440979808721 0.851 6.34536391005e-39
0.0283487019892 -0.0440979808721 0.851 7.08146599336e-39
0.0299236298775 -0.0440979808721 0.851 6.90068728108e-39
0.0314985577658 -0.0440979808721 0.851 1.01021147721e-39
0.0330734856541 -0.0440979808721 0.851 2.34879524916e-38
0.0346484135424 -0.0440979808721 0.851 2.33949581216e-38
0.0362233414307 -0.0440979808721 0.851 5.6938876423e-39
0.037798269319 -0.0440979808721 0.851 2.11227806877e-39
0.0393731972073 -0.0440979808721 0.851 5.60204233705e-39
0.0408518897839 -0.0439943428442 0.849 6.5225272723e-39
0.0424231163141 -0.0439943428442 0.849 3.76527636195e-39
0.0439943428442 -0.0439943428442 0.849 9.18495091426e-41
0.0455655693744 -0.0439943428442 0.849 2.34939682659e-38
0.0471367959045 -0.0439943428442 0.849 2.27466571962e-38
0.0487080224347 -0.0439943428442 0.849 2.32065395301e-38
0.0502792489648 -0.0439943428442 0.849 2.2654474178e-38
0.051850475495 -0.0439943428442 0.849 2.34838312728e-38
0.0532958558484 -0.0438907048163 0.847 2.311325369e-38
0.0548633810204 -0.0438907048163 0.847 2.34816858849e-38
0.0564309061924 -0.0438907048163 0.847 2.25622477196e-38
0.0579984313644 -0.0438907048163 0.847 2.30235930091e-38
0.0595659565364 -0.0438907048163 0.847 2.28384646664e-38
0.060989128741 -0.0437870667884 0.845 2.29310288377e-38
0.0625529525549 -0.0437870667884 0.845 2.19154475848e-38
0.063965020685 -0.0436834287605 0.843 2.34802607643e-38
0.0655251431408 -0.0436834287605 0.843 2.31118201617e-38
0.0670852655965 -0.0436834287605 0.843 2.32029466008e-38
0.0686453880522 -0.0436834287605 0.843 2.34817111082e-38
0.0700389493917 -0.0435797907326 0.841 2.34806222993e-38
0.0715953704893 -0.0435797907326 0.841 2.30196483539e-38
0.0731517915869 -0.0435797907326 0.841 2.3482804121e-38
0.0747082126845 -0.0435797907326 0.841 2.25583002618e-38
0.0764460003309 -0.0436834287605 0.843 2.34903192847e-38
0.0781911906936 -0.0437870667884 0.845 2.35098141489e-38
0.0797550145075 -0.0437870667884 0.845 2.35098645957e-38
-0.0143908804458 -0.0431726413373 0.864 2.34997219974e-38
-0.0127622828645 -0.0430727046675 0.862 2.35047652706e-38
-0.0111669975064 -0.0430727046675 0.862 2.35080218882e-38
-0.00952729585067 -0.042872831328 0.858 1.68468585536e-38
-0.00792090641819 -0.0427728946582 0.856 2.292925059e-38
-0.006321919702 -0.0426729579885 0.854 2.31118467864e-38
-0.0047414397765 -0.0426729579885 0.854 2.29274359085e-38
-0.003160959851 -0.0426729579885 0.854 2.34885228201e-38
-0.00157492788829 -0.0425230529838 0.851 2.14541064992e-38
0.0 -0.0425230529838 0.851 1.03774951438e-38
0.0015804799255 -0.0426729579885 0.854 1.33245154973e-38
0.003160959851 -0.0426729579885 0.854 1.05676317272e-38
0.0047414397765 -0.0426729579885 0.854 3.48978949166e-39
0.006321919702 -0.0426729579885 0.854 1.19389508122e-39
0.0079023996275 -0.0426729579885 0.854 1.28571936699e-39
0.00948287955299 -0.0426729579885 0.854 2.34996841623e-38
0.0110633594785 -0.0426729579885 0.854 2.26562622348e-38
0.012643839404 -0.0426729579885 0.854 3.03057137321e-39
0.0142243193295 -0.0426729579885 0.854 2.76376274431e-39
0.015804799255 -0.0426729579885 0.854 7.08220728025e-39
0.0173852791805 -0.0426729579885 0.854 4.685849579e-39
0.018965759106 -0.0426729579885 0.854 1.02932168502e-38
0.0205462390315 -0.0426729579885 0.854 2.28485217854e-38
0.0221785379709 -0.0427728946582 0.856 2.29379022067e-38
0.0237627192546 -0.0427728946582 0.856 2.15556726119e-38
0.025287678808 -0.0426729579885 0.854 5.60698751933e-39
0.0268681587335 -0.0426729579885 0.854 6.97954395086e-39
0.028448638659 -0.0426729579885 0.854 6.89996701366e-39
0.0300291185845 -0.0426729579885 0.854 7.08363240079e-39
0.0314985577658 -0.0425230529838 0.851 6.42862486091e-40
0.0330734856541 -0.0425230529838 0.851 1.92419284616e-38
0.0346484135424 -0.0425230529838 0.851 2.34971562199e-38
0.0362233414307 -0.0425230529838 0.851 1.78617727885e-38
0.037798269319 -0.0425230529838 0.851 2.04489495055e-38
0.0393731972073 -0.0425230529838 0.851 1.85214956977e-38
0.041092478063 -0.0426729579885 0.854 1.8154880987e-38
0.0426729579885 -0.0426729579885 0.854 1.84318406219e-38
0.044253437914 -0.0426729579885 0.854 1.9906976305e-38
0.0456729087604 -0.0425230529838 0.851 2.34003306999e-38
0.0472478366487 -0.0425230529838 0.851 2.2746304069e-38
0.048822764537 -0.0425230529838 0.851 2.29299750613e-38
0.0503976924253 -0.0425230529838 0.851 2.25618945923e-38
0.0519726203136 -0.0425230529838 0.851 2.34834963625e-38
0.0535475482019 -0.0425230529838 0.851 2.34849130752e-38
0.0549929285553 -0.0424231163141 0.849 2.28352556929e-38
0.0565641550854 -0.0424231163141 0.849 2.34802747773e-38
0.0581353816156 -0.0424231163141 0.849 2.25605087082e-38
0.0597066081457 -0.0424231163141 0.849 2.27466599988e-38
0.0611334817084 -0.0423231796443 0.847 2.29299750613e-38
0.0627010068805 -0.0423231796443 0.847 2.34827915093e-38
0.0641167763688 -0.0422232429745 0.845 2.29285499407e-38
0.0656806001826 -0.0422232429745 0.845 2.34838592988e-38
0.0670852655965 -0.0421233063048 0.843 2.34856123231e-38
0.0686453880522 -0.0421233063048 0.843 2.25568737399e-38
0.070205510508 -0.0421233063048 0.843 2.34824145601e-38
0.0717656329637 -0.0421233063048 0.843 2.27451956419e-38
0.0733257554194 -0.0421233063048 0.843 2.28381115391e-38
0.0748858778752 -0.0421233063048 0.843 2.26526594965e-38
0.0764460003309 -0.0421233063048 0.843 2.349289347e-38
0.0781911906936 -0.0422232429745 0.845 2.35098211554e-38
0.0797550145075 -0.0422232429745 0.845 2.3509851984e-38
-0.0143908804458 -0.0415736546211 0.864 2.35021952892e-38
-0.0127918937296 -0.0415736546211 0.864 2.35033177292e-38
-0.0111669975064 -0.0414774193095 0.862 2.35072749961e-38
-0.0095495039995 -0.0413811839978 0.86 1.77702385715e-38
-0.00795791999959 -0.0413811839978 0.86 2.32061864029e-38
-0.00635153056711 -0.0412849486862 0.858 2.33902441536e-38
-0.00476364792533 -0.0412849486862 0.858 2.34834865534e-38
-0.00317576528356 -0.0412849486862 0.858 2.34813257511e-38
-0.00158418128364 -0.0411887133746 0.856 2.34921535844e-38
0.0 -0.0411887133746 0.856 3.39791335785e-39
0.00158418128364 -0.0411887133746 0.856 6.25284458024e-39
0.00316836256728 -0.0411887133746 0.856 6.99181091761e-39
0.00475254385092 -0.0411887133746 0.856 7.08579740691e-39
0.00633672513455 -0.0411887133746 0.856 6.62697445464e-39
0.00792090641819 -0.0411887133746 0.856 1.10206238766e-39
0.00950508770183 -0.0411887133746 0.856 2.34951271397e-38
0.0110892689855 -0.0411887133746 0.856 1.55618972891e-38
0.0126734502691 -0.0411887133746 0.856 4.77547102359e-39
0.0142576315527 -0.0411887133746 0.856 8.2764316666e-39
0.0158418128364 -0.0411887133746 0.856 7.36058923317e-39
0.01742599412 -0.0411887133746 0.856 1.28573898517e-39
0.0190101754037 -0.0411887133746 0.856 2.34793373086e-38
0.0206424743431 -0.0412849486862 0.858 2.33949357008e-38
0.0222303569849 -0.0412849486862 0.858 2.34856627699e-38
0.0238182396267 -0.0412849486862 0.858 2.3489959151e-38
0.0254061222684 -0.0412849486862 0.858 2.34885564512e-38
0.0269940049102 -0.0412849486862 0.858 4.77544580022e-39
0.0285152631055 -0.0411887133746 0.856 7.36022629687e-39
0.0300994443891 -0.0411887133746 0.856 6.80992377824e-39
0.0316836256728 -0.0411887133746 0.856 4.41320594329e-39
0.0331900784355 -0.041092478063 0.854 6.71055350024e-39
0.034770558361 -0.041092478063 0.854 2.35010826582e-38
0.0363510382865 -0.041092478063 0.854 1.98932561917e-38
0.0380203508073 -0.0411887133746 0.856 6.0611637659e-39
0.039604532091 -0.0411887133746 0.856 3.85712867369e-39
0.0411887133746 -0.0411887133746 0.856 3.85717351525e-39
0.0427728946582 -0.0411887133746 0.856 2.93877651471e-39
0.0443570759419 -0.0411887133746 0.856 3.30610869025e-39
0.0459412572255 -0.0411887133746 0.856 1.60997815007e-38
0.0475254385092 -0.0411887133746 0.856 2.34843623649e-38
0.0489948776905 -0.041092478063 0.854 2.34849775349e-38
0.050575357616 -0.041092478063 0.854 2.25619128092e-38
0.0521558375415 -0.041092478063 0.854 2.28377612145e-38
0.0535475482019 -0.0409481250955 0.851 2.30217741237e-38
0.0551224760902 -0.0409481250955 0.851 2.30203700226e-38
0.0566974039784 -0.0409481250955 0.851 2.3483165656e-38
0.0582723318667 -0.0409481250955 0.851 2.2838129756e-38
0.059847259755 -0.0409481250955 0.851 2.29295770925e-38
0.0612778346759 -0.0408518897839 0.849 2.31125684551e-38
0.062849061206 -0.0408518897839 0.849 2.34842236364e-38
0.0644202877362 -0.0408518897839 0.849 2.21895205449e-38
0.0656806001826 -0.0406594191607 0.845 2.34795559112e-38
0.0672444239965 -0.0406594191607 0.845 2.34805914708e-38
0.0688082478104 -0.0406594191607 0.845 2.29274359085e-38
0.0703720716242 -0.0406594191607 0.845 2.3483475343e-38
0.0719358954381 -0.0406594191607 0.845 2.32980162938e-38
0.0738476469171 -0.0408518897839 0.849 2.21905869331e-38
0.0754188734472 -0.0408518897839 0.849 2.34806194967e-38
0.0769900999774 -0.0408518897839 0.849 2.34943368074e-38
0.0785613265075 -0.0408518897839 0.849 2.3509851984e-38
-0.0143908804458 -0.0399746679049 0.864 2.35040169772e-38
-0.0127918937296 -0.0399746679049 0.864 2.35007995959e-38
-0.0111669975064 -0.0398821339514 0.862 2.35058218496e-38
-0.00957171214834 -0.0398821339514 0.862 1.72213990085e-38
-0.00795791999959 -0.0397895999979 0.86 2.30203518057e-38
-0.00636633599967 -0.0397895999979 0.86 2.32058304731e-38
-0.00477475199975 -0.0397895999979 0.86 2.34842026169e-38
-0.00318316799983 -0.0397895999979 0.86 2.32033165436e-38
-0.00159158399992 -0.0397895999979 0.86 2.34907172535e-38
0.0 -0.0397895999979 0.86 1.18733252025e-38
0.00159158399992 -0.0397895999979 0.86 2.93880874458e-39
0.00318316799983 -0.0397895999979 0.86 6.62623176645e-39
0.00477475199975 -0.0397895999979 0.86 6.4418629275e-39
0.00636633599967 -0.0397895999979 0.86 6.53513195199e-39
0.00795791999959 -0.0397895999979 0.86 1.9285650375e-39
0.0095495039995 -0.0397895999979 0.86 1.70289082436e-38
0.0111151784924 -0.0396970660444 0.858 2.33982175418e-38
0.0127030611342 -0.0396970660444 0.858 6.24486138289e-39
0.014290943776 -0.0396970660444 0.858 6.89674682979e-39
0.0158788264178 -0.0396970660444 0.858 6.99216404483e-39
0.0174667090596 -0.0396970660444 0.858 3.30611709804e-39
0.0190545917013 -0.0396970660444 0.858 1.02052979833e-38
0.0206424743431 -0.0396970660444 0.858 2.34939626607e-38
0.0222821759988 -0.0397895999979 0.86 2.34892823238e-38
0.0238737599988 -0.0397895999979 0.86 2.34935955205e-38
0.0254653439987 -0.0397895999979 0.86 1.86028312645e-38
0.0270569279986 -0.0397895999979 0.86 4.31626831943e-39
0.0286485119985 -0.0397895999979 0.86 7.17727977586e-39
0.0302400959984 -0.0397895999979 0.86 6.90211940811e-39
0.0318316799983 -0.0397895999979 0.86 6.4418629275e-39
0.0333455354773 -0.0396970660444 0.858 1.74490105167e-39
0.0349334181191 -0.0396970660444 0.858 2.34958600188e-38
0.0365213007609 -0.0396970660444 0.858 2.75506488474e-39
0.0381091834027 -0.0396970660444 0.858 4.59206908058e-40
0.0397895999979 -0.0397895999979 0.86 7.08109885316e-39
0.0413811839978 -0.0397895999979 0.86 6.0702035423e-39
0.0429727679978 -0.0397895999979 0.86 6.53187953825e-39
0.0445643519977 -0.0397895999979 0.86 3.39795960069e-39
0.0461559359976 -0.0397895999979 0.86 1.68155815719e-44
0.0476364792533 -0.0396970660444 0.858 2.34907438781e-38
0.0492243618951 -0.0396970660444 0.858 2.33895252874e-38
0.0506938010764 -0.039604532091 0.856 2.29285247174e-38
0.0521558375415 -0.0395119981375 0.854 2.3205482951e-38
0.053736317467 -0.0395119981375 0.854 2.34831684586e-38
0.0553167973925 -0.0395119981375 0.854 2.34831222158e-38
0.056897277318 -0.0395119981375 0.854 2.31154229e-38
0.0584777572435 -0.0395119981375 0.854 2.29306729079e-38
0.059847259755 -0.0393731972073 0.851 2.34816942926e-38
0.0614221876433 -0.0393731972073 0.851 2.34817041017e-38
0.0629971155316 -0.0393731972073 0.851 2.34816886874e-38
0.0645720434199 -0.0393731972073 0.851 2.34816970952e-38
0.0661469713082 -0.0393731972073 0.851 2.34809698213e-38
0.0677218991965 -0.0393731972073 0.851 2.34845669545e-38
0.0692968270848 -0.0393731972073 0.851 2.3022874143e-38
0.0707051938568 -0.0392806632538 0.849 2.3480259363e-38
0.0722764203869 -0.0392806632538 0.849 2.33877078033e-38
0.0740216107496 -0.0393731972073 0.851 2.32040003773e-38
0.0755965386379 -0.0393731972073 0.851 2.26512119552e-38
0.0771714665262 -0.0393731972073 0.851 2.34975682016e-38
-0.0143908804458 -0.0383756811887 0.864 2.34993688702e-38
-0.0127918937296 -0.0383756811887 0.864 2.35001101571e-38
-0.0111929070134 -0.0383756811887 0.864 2.35054897419e-38
-0.00957171214834 -0.0382868485934 0.862 1.80536680015e-38
-0.00797642679028 -0.0382868485934 0.862 2.34806096876e-38
-0.00638114143223 -0.0382868485934 0.862 2.34831376301e-38
-0.00478585607417 -0.0382868485934 0.862 2.34824061523e-38
-0.00319057071611 -0.0382868485934 0.862 2.28345550436e-38
-0.00159528535806 -0.0382868485934 0.862 2.34860299101e-38
0.0 -0.0382868485934 0.862 2.34910745846e-38
0.00159528535806 -0.0382868485934 0.862 3.03057137321e-39
0.00319057071611 -0.0382868485934 0.862 6.89674682979e-39
0.00478585607417 -0.0382868485934 0.862 6.62410599668e-39
0.00638114143223 -0.0382868485934 0.862 6.90104040829e-39
0.00797642679028 -0.0382868485934 0.862 5.79721378587e-39
0.00957171214834 -0.0382868485934 0.862 6.42873696478e-40
0.0111669975064 -0.0382868485934 0.862 2.34994109091e-38
0.0127326719993 -0.038198015998 0.86 1.25140212812e-38
0.0143242559993 -0.038198015998 0.86 4.68363132353e-39
0.0159158399992 -0.038198015998 0.86 6.06773025051e-39
0.0175074239991 -0.038198015998 0.86 6.62375006687e-39
0.019099007999 -0.038198015998 0.86 2.66329384831e-39
0.0206905919989 -0.038198015998 0.86 4.50002619225e-39
0.0223339950128 -0.0382868485934 0.862 8.54080343748e-39
0.0239292803708 -0.0382868485934 0.862 9.1836364963e-39
0.0255245657289 -0.0382868485934 0.862 4.59181684685e-39
0.027119851087 -0.0382868485934 0.862 3.94900340621e-39
0.028715136445 -0.0382868485934 0.862 4.95917704837e-39
0.0303104218031 -0.0382868485934 0.862 3.94897678154e-39
0.0319057071611 -0.0382868485934 0.862 3.21426478631e-39
0.0335009925192 -0.0382868485934 0.862 6.42852677001e-40
0.0350962778772 -0.0382868485934 0.862 2.19091179196e-38
0.0366915632353 -0.0382868485934 0.862 2.22039525178e-38
0.0382868485934 -0.0382868485934 0.862 9.83793918306e-39
0.0398821339514 -0.0382868485934 0.862 8.90807535719e-39
0.0414774193095 -0.0382868485934 0.862 7.25507286011e-39
0.0429727679978 -0.038198015998 0.86 7.16324437044e-39
0.0445643519977 -0.038198015998 0.86 1.16696674902e-38
0.0461559359976 -0.038198015998 0.86 1.96121262925e-38
0.0477475199975 -0.038198015998 0.86 2.321058648e-38
0.0493391039974 -0.038198015998 0.86 2.34820628341e-38
0.0508122445369 -0.0381091834027 0.858 2.34823991458e-38
0.0524001271787 -0.0381091834027 0.858 2.28377612145e-38
0.0538621636437 -0.0380203508073 0.856 2.32051144095e-38
0.0554463449273 -0.0380203508073 0.856 2.32965659499e-38
0.057030526211 -0.0380203508073 0.856 2.32072640014e-38
0.0586147074946 -0.0380203508073 0.856 2.3115436913e-38
0.060058237169 -0.037931518212 0.854 2.34816942926e-38
0.0616387170945 -0.037931518212 0.854 2.33877288228e-38
0.06321919702 -0.037931518212 0.854 2.34820334069e-38
0.0647996769455 -0.037931518212 0.854 2.34813804018e-38
0.066380156871 -0.037931518212 0.854 2.34824159614e-38
0.0679606367965 -0.037931518212 0.854 2.33912811144e-38
0.069541116722 -0.037931518212 0.854 2.31132691043e-38
0.0711215966475 -0.037931518212 0.854 2.34817209173e-38
0.072702076573 -0.037931518212 0.854 2.32040578305e-38
0.0742825564985 -0.037931518212 0.854 2.34820726432e-38
0.075863036424 -0.037931518212 0.854 2.27433977759e-38
0.0774435163495 -0.037931518212 0.854 2.35011639335e-38
-0.0144408487806 -0.0369043913283 0.867 2.35004352583e-38
-0.0128363100272 -0.0369043913283 0.867 2.35000849337e-38
-0.0112317712738 -0.0369043913283 0.867 2.35036680539e-38
-0.00959392029717 -0.0367766944725 0.864 2.10064687112e-38
-0.00799493358098 -0.0367766944725 0.864 2.27426943241e-38
-0.00639594686478 -0.0367766944725 0.864 2.34863620178e-38
-0.00479696014859 -0.0367766944725 0.864 2.27451956419e-38
-0.00319057071611 -0.0366915632353 0.862 2.26529944068e-38
-0.00159528535806 -0.0366915632353 0.862 2.2929959647e-38
0.0 -0.0367766944725 0.864 2.34910773872e-38
0.0015989867162 -0.0367766944725 0.864 5.42044666776e-39
0.00319797343239 -0.0367766944725 0.864 4.22738956303e-39
0.00479696014859 -0.0367766944725 0.864 7.08472821619e-39
0.00639594686478 -0.0367766944725 0.864 7.3623885004e-39
0.00799493358098 -0.0367766944725 0.864 6.44187694048e-39
0.00959392029717 -0.0367766944725 0.864 1.10205678246e-39
0.0111929070134 -0.0367766944725 0.864 2.20042702892e-38
0.0127918937296 -0.0367766944725 0.864 2.34982492327e-38
0.0143908804458 -0.0367766944725 0.864 1.79550586286e-38
0.015989867162 -0.0367766944725 0.864 6.42849454015e-39
0.0175888538782 -0.0367766944725 0.864 6.06114274643e-39
0.0191434242967 -0.0366915632353 0.862 2.20409254545e-39
0.0207387096547 -0.0366915632353 0.862 2.38775793257e-39
0.0223339950128 -0.0366915632353 0.862 1.74492066985e-39
0.0239292803708 -0.0366915632353 0.862 3.9490090114e-39
0.0255837874591 -0.0367766944725 0.864 1.92378731038e-38
0.0271827741753 -0.0367766944725 0.864 1.35229337547e-38
0.0287817608915 -0.0367766944725 0.864 1.6474225266e-38
0.0303807476077 -0.0367766944725 0.864 1.78600365797e-38
0.0319797343239 -0.0367766944725 0.864 1.9615988271e-38
0.0335787210401 -0.0367766944725 0.864 2.04482488563e-38
0.0351777077563 -0.0367766944725 0.864 2.10960985636e-38
0.0367766944725 -0.0367766944725 0.864 2.34881935149e-38
0.0383756811887 -0.0367766944725 0.864 2.34907186548e-38
0.0398821339514 -0.0366915632353 0.862 2.3487813763e-38
0.0414774193095 -0.0366915632353 0.862 2.25665847383e-38
0.0430727046675 -0.0366915632353 0.862 2.34881598838e-38
0.0446679900256 -0.0366915632353 0.862 2.3486743171e-38
0.0462632753836 -0.0366915632353 0.862 2.34878123617e-38
0.0478585607417 -0.0366915632353 0.862 2.34824117575e-38
0.0494538460997 -0.0366915632353 0.862 2.34820390121e-38
0.0509306879973 -0.0366064319981 0.86 2.33916370442e-38
0.0525222719973 -0.0366064319981 0.86 2.26537553119e-38
0.0541138559972 -0.0366064319981 0.86 2.34813621849e-38
0.0557054399971 -0.0366064319981 0.86 2.33887825993e-38
0.057297023997 -0.0366064319981 0.86 2.34860299101e-38
0.0587516577458 -0.0365213007609 0.858 2.23778704728e-38
0.0601988887783 -0.0364361695237 0.856 2.34856137244e-38
0.0617830700619 -0.0364361695237 0.856 2.34834851521e-38
0.0633672513455 -0.0364361695237 0.856 2.28384800806e-38
0.0649514326292 -0.0364361695237 0.856 2.32969597148e-38
0.0665356139128 -0.0364361695237 0.856 2.34834949612e-38
0.0681197951965 -0.0364361695237 0.856 2.33895056693e-38
0.0697039764801 -0.0364361695237 0.856 2.3481343968e-38
0.0712881577637 -0.0364361695237 0.856 2.34806265032e-38
0.0728723390474 -0.0364361695237 0.856 2.34813257511e-38
0.074456520331 -0.0364361695237 0.856 2.33880763448e-38
0.0760407016146 -0.0364361695237 0.856 2.31096943919e-38
0.0776248828983 -0.0364361695237 0.856 2.35059017236e-38
-0.0144741610039 -0.035381282454 0.869 2.3504734442e-38
-0.0128659208924 -0.035381282454 0.869 2.35040688252e-38
-0.0112576807808 -0.035381282454 0.869 2.35008164115e-38
-0.00962723252043 -0.0352998525749 0.867 2.34968451316e-38
-0.00802269376702 -0.0352998525749 0.867 2.20022580246e-38
-0.00641815501362 -0.0352998525749 0.867 2.34827873054e-38
-0.00479696014859 -0.0351777077563 0.864 2.3297326855e-38
-0.00319797343239 -0.0351777077563 0.864 2.34874508267e-38
-0.0015989867162 -0.0351777077563 0.864 2.28385025014e-38
0.0 -0.0352998525749 0.867 2.34878389864e-38
0.0016045387534 -0.0352998525749 0.867 2.1182901997e-38
0.00320907750681 -0.0352998525749 0.867 5.41835172656e-39
0.00481361626021 -0.0352998525749 0.867 7.91015046491e-39
0.00643296044618 -0.035381282454 0.869 7.26909985773e-39
0.00802269376702 -0.0352998525749 0.867 6.80919370174e-39
0.00962723252043 -0.0352998525749 0.867 3.12246011871e-39
0.0112317712738 -0.0352998525749 0.867 3.3979539955e-39
0.0128363100272 -0.0352998525749 0.867 2.34953765708e-38
0.0144408487806 -0.0352998525749 0.867 2.34863718269e-38
0.016045387534 -0.0352998525749 0.867 2.34918018585e-38
0.0176499262875 -0.0352998525749 0.867 2.29343078761e-38
0.0192544650409 -0.0352998525749 0.867 2.10025128457e-38
0.0208590037943 -0.0352998525749 0.867 2.14627272873e-38
0.0224635425477 -0.0352998525749 0.867 2.19233957497e-38
0.0240680813011 -0.0352998525749 0.867 2.24765499107e-38
0.0256726200545 -0.0352998525749 0.867 2.34910423547e-38
0.0271827741753 -0.0351777077563 0.864 2.34896144316e-38
0.0287817608915 -0.0351777077563 0.864 2.34906640041e-38
0.0304862363147 -0.0352998525749 0.867 2.34863788334e-38
0.0320907750681 -0.0352998525749 0.867 2.34863844386e-38
0.0336953138215 -0.0352998525749 0.867 2.32058360783e-38
0.0352998525749 -0.0352998525749 0.867 2.34834949612e-38
0.0369043913283 -0.0352998525749 0.867 2.32983792301e-38
0.0385089300817 -0.0352998525749 0.867 2.31154229e-38
0.0399746679049 -0.0351777077563 0.864 2.3021799347e-38
0.0414774193095 -0.0350962778772 0.862 2.2282416824e-38
0.0430727046675 -0.0350962778772 0.862 2.34828069236e-38
0.0446679900256 -0.0350962778772 0.862 2.29306602962e-38
0.0463706147697 -0.0351777077563 0.864 2.32065339249e-38
0.0479696014859 -0.0351777077563 0.864 2.32040634357e-38
0.0495685882021 -0.0351777077563 0.864 2.34791775606e-38
0.0510491314578 -0.0350962778772 0.862 2.34838284702e-38
0.0526444168159 -0.0350962778772 0.862 2.34827788977e-38
0.0543655483507 -0.0351777077563 0.864 2.33898615991e-38
0.0559645350669 -0.0351777077563 0.864 2.33895056693e-38
0.05743027289 -0.0350962778772 0.862 2.28381549794e-38
0.0590255582481 -0.0350962778772 0.862 2.2929959647e-38
0.0604801919968 -0.0350148479982 0.86 2.34834977638e-38
0.0620717759968 -0.0350148479982 0.86 2.34827690886e-38
0.0636633599967 -0.0350148479982 0.86 2.3484226439e-38
0.0651031883129 -0.0349334181191 0.858 2.32040452188e-38
0.0666910709547 -0.0349334181191 0.858 2.30200042837e-38
0.0682789535964 -0.0349334181191 0.858 2.3483489356e-38
0.0698668362382 -0.0349334181191 0.858 2.34831292223e-38
0.07145471888 -0.0349334181191 0.858 2.34813677901e-38
0.0730426015218 -0.0349334181191 0.858 2.34835061716e-38
0.0746304841636 -0.0349334181191 0.858 2.34838564962e-38
0.0762183668053 -0.0349334181191 0.858 2.34849172791e-38
-0.0146240660085 -0.0341228206866 0.878 2.35000709207e-38
-0.0129991697854 -0.0341228206866 0.878 2.34993646663e-38
-0.0112835902878 -0.0338507708634 0.871 2.35040379967e-38
-0.0096716488181 -0.0338507708634 0.871 2.35018771944e-38
-0.00805970734842 -0.0338507708634 0.871 2.20000874133e-38
-0.00643296044618 -0.0337730423424 0.869 2.34845641519e-38
-0.00482472033463 -0.0337730423424 0.869 2.28356060175e-38
-0.00321648022309 -0.0337730423424 0.869 2.32036472501e-38
-0.00160824011154 -0.0337730423424 0.869 2.32958624981e-38
0.0 -0.0337730423424 0.869 2.32980162938e-38
0.00160824011154 -0.0337730423424 0.869 2.34950108319e-38
0.00321648022309 -0.0337730423424 0.869 4.31626831943e-39
0.00482472033463 -0.0337730423424 0.869 8.1806262919e-39
0.00643296044618 -0.0337730423424 0.869 6.9017634783e-39
0.00804120055772 -0.0337730423424 0.869 7.36093955779e-39
0.00964944066926 -0.0337730423424 0.869 6.89996421107e-39
0.0112576807808 -0.0337730423424 0.869 2.84694101855e-39
0.0128659208924 -0.0337730423424 0.869 2.34861097841e-38
0.0144741610039 -0.0337730423424 0.869 2.34867445723e-38
0.0160824011154 -0.0337730423424 0.869 2.29299750613e-38
0.017690641227 -0.0337730423424 0.869 2.30196483539e-38
0.0192988813385 -0.0337730423424 0.869 2.34838326741e-38
0.0209071214501 -0.0337730423424 0.869 2.34849382986e-38
0.0225153615616 -0.0337730423424 0.869 2.34842418533e-38
0.0241236016732 -0.0337730423424 0.869 2.34823935406e-38
0.0257318417847 -0.0337730423424 0.869 2.34870808839e-38
0.0273400818963 -0.0337730423424 0.869 2.32079828675e-38
0.0289483220078 -0.0337730423424 0.869 2.31140145951e-38
0.0305565621193 -0.0337730423424 0.869 2.30221650859e-38
0.0321648022309 -0.0337730423424 0.869 2.34834949612e-38
0.0337730423424 -0.0337730423424 0.869 2.34816998978e-38
0.0352998525749 -0.0336953138215 0.867 2.33877260202e-38
0.0369043913283 -0.0336953138215 0.867 2.34831530443e-38
0.0385977626771 -0.0337730423424 0.869 2.34845767636e-38
0.0402060027886 -0.0337730423424 0.869 2.34820838536e-38
0.0417180075885 -0.0336953138215 0.867 2.3205820664e-38
0.0433225463419 -0.0336953138215 0.867 2.32980289055e-38
0.0449270850953 -0.0336953138215 0.867 2.34856501582e-38
0.0465316238487 -0.0336953138215 0.867 2.32079884727e-38
0.0479696014859 -0.0335787210401 0.864 2.3297660364e-38
0.0495685882021 -0.0335787210401 0.864 2.34852872219e-38
0.051345240109 -0.0336953138215 0.867 2.28345396294e-38
0.0529497788624 -0.0336953138215 0.867 2.3203313741e-38
0.0545543176158 -0.0336953138215 0.867 2.34816662667e-38
0.0561588563692 -0.0336953138215 0.867 2.33909448028e-38
0.0577633951226 -0.0336953138215 0.867 2.34845697571e-38
0.0591625084992 -0.0335787210401 0.864 2.29288582264e-38
0.0606208436061 -0.0335009925192 0.862 2.33898587965e-38
0.0622161289642 -0.0335009925192 0.862 2.33887797967e-38
0.0638114143223 -0.0335009925192 0.862 2.34849340947e-38
0.0652549439966 -0.0334232639983 0.86 2.34838550949e-38
0.0668465279965 -0.0334232639983 0.86 2.34824215665e-38
0.0684381119964 -0.0334232639983 0.86 2.34845641519e-38
0.0700296959964 -0.0334232639983 0.86 2.32051144095e-38
0.0716212799963 -0.0334232639983 0.86 2.34827845028e-38
0.0732128639962 -0.0334232639983 0.86 2.34827760951e-38
0.0748044479961 -0.0334232639983 0.86 2.33877134085e-38
0.076396031996 -0.0334232639983 0.86 2.34842110247e-38
-0.0129991697854 -0.0324979244634 0.878 2.34982954755e-38
-0.0113354093017 -0.0323868837192 0.875 2.35004408635e-38
-0.00971606511577 -0.0323868837192 0.875 2.3504762468e-38
-0.00809672092981 -0.0323868837192 0.875 2.06171725836e-38
-0.00646257131129 -0.0323128565565 0.873 2.34827774964e-38
-0.00484692848347 -0.0323128565565 0.873 2.34820502225e-38
-0.00322388293937 -0.0322388293937 0.871 2.32955121735e-38
-0.00161194146968 -0.0322388293937 0.871 2.23749851993e-38
0.0 -0.0322388293937 0.871 2.34860271075e-38
0.00161194146968 -0.0322388293937 0.871 2.28446079588e-38
0.00322388293937 -0.0322388293937 0.871 3.03057137321e-39
0.00483582440905 -0.0322388293937 0.871 7.90585408382e-39
0.00644776587873 -0.0322388293937 0.871 6.62517238481e-39
0.00805970734842 -0.0322388293937 0.871 6.80810629413e-39
0.0096716488181 -0.0322388293937 0.871 6.713054818e-39
0.0112835902878 -0.0322388293937 0.871 2.20409534804e-39
0.0128955317575 -0.0322388293937 0.871 2.33806774889e-38
0.0145074732272 -0.0322388293937 0.871 2.34871131138e-38
0.0161194146968 -0.0322388293937 0.871 2.34817209173e-38
0.0177313561665 -0.0322388293937 0.871 2.34806391149e-38
0.0193432976362 -0.0322388293937 0.871 2.34838522923e-38
0.0209552391059 -0.0322388293937 0.871 2.32047640849e-38
0.0225671805756 -0.0322388293937 0.871 2.34813257511e-38
0.0241791220453 -0.0322388293937 0.871 2.34820306043e-38
0.0257910635149 -0.0322388293937 0.871 2.34838424832e-38
0.0274030049846 -0.0322388293937 0.871 2.30232637039e-38
0.0290149464543 -0.0322388293937 0.871 2.32990882872e-38
0.030626887924 -0.0322388293937 0.871 2.32069164794e-38
0.0322388293937 -0.0322388293937 0.871 2.30221552768e-38
0.0338507708634 -0.0322388293937 0.871 2.34816830823e-38
0.035462712333 -0.0322388293937 0.871 2.34813355602e-38
0.0370746538027 -0.0322388293937 0.871 2.29267352592e-38
0.0386865952724 -0.0322388293937 0.871 2.34817012991e-38
0.0402985367421 -0.0322388293937 0.871 2.34816886874e-38
0.0419104782118 -0.0322388293937 0.871 2.3485616527e-38
0.0434224830117 -0.0321648022309 0.869 2.32086891219e-38
0.0450307231232 -0.0321648022309 0.869 2.29292533926e-38
0.0466389632348 -0.0321648022309 0.869 2.34817153121e-38
0.0482472033463 -0.0321648022309 0.869 2.33902147263e-38
0.0498554434579 -0.0321648022309 0.869 2.31150263326e-38
0.0514636835694 -0.0321648022309 0.869 2.34853180505e-38
0.053071923681 -0.0321648022309 0.869 2.34877815332e-38
0.0546801637925 -0.0321648022309 0.869 2.3484545935e-38
0.056288403904 -0.0321648022309 0.869 2.33898587965e-38
0.0578966440156 -0.0321648022309 0.869 2.3482442586e-38
0.059367933876 -0.0320907750681 0.867 2.33887769941e-38
0.0609724726294 -0.0320907750681 0.867 2.34824103562e-38
0.0625770113828 -0.0320907750681 0.867 2.3203299728e-38
0.0639594686478 -0.0319797343239 0.864 2.34809908408e-38
0.0654066996803 -0.0319057071611 0.862 2.32980162938e-38
0.0670019850384 -0.0319057071611 0.862 2.32050961927e-38
0.0685972703964 -0.0319057071611 0.862 2.34820488212e-38
0.0701925557545 -0.0319057071611 0.862 2.34816942926e-38
0.0717878411125 -0.0319057071611 0.862 2.34827718912e-38
0.0733831264706 -0.0319057071611 0.862 2.3485644553e-38
0.0749784118287 -0.0319057071611 0.862 2.34824117575e-38
0.0765736971867 -0.0319057071611 0.862 2.34874550306e-38
-0.0130287806505 -0.0309433540449 0.88 2.35000765259e-38
-0.0113742735622 -0.0308730282403 0.878 2.34990003287e-38
-0.00974937733903 -0.0308730282403 0.878 2.35062058054e-38
-0.00812448111586 -0.0308730282403 0.878 1.87775759856e-38
-0.00647737674385 -0.0307675395333 0.875 2.26529972094e-38
-0.00485803255789 -0.0307675395333 0.875 2.34838116546e-38
-0.00323868837192 -0.0307675395333 0.875 2.30210706718e-38
-0.00161564282782 -0.0306972137286 0.873 2.29310134234e-38
0.0 -0.0306972137286 0.873 2.34852760115e-38
0.00161564282782 -0.0306972137286 0.873 1.93408335085e-38
0.00323128565565 -0.0306972137286 0.873 4.68361731055e-39
0.00484692848347 -0.0306972137286 0.873 7.35844104263e-39
0.00646257131129 -0.0306972137286 0.873 6.62517238481e-39
0.00807821413911 -0.0306972137286 0.873 6.53046002291e-39
0.00969385696694 -0.0306972137286 0.873 3.58163339561e-39
0.0112835902878 -0.030626887924 0.871 1.37756046834e-39
0.0128955317575 -0.030626887924 0.871 2.34875713384e-38
0.0145074732272 -0.030626887924 0.871 2.33895252874e-38
0.0161194146968 -0.030626887924 0.871 2.31093314556e-38
0.0177313561665 -0.030626887924 0.871 2.34853138466e-38
0.0193432976362 -0.030626887924 0.871 2.32043927408e-38
0.0210033567617 -0.0306972137286 0.873 2.34817307264e-38
0.0226189995895 -0.0306972137286 0.873 2.32043955434e-38
0.0242346424173 -0.0306972137286 0.873 2.34816942926e-38
0.0258502852452 -0.0306972137286 0.873 2.34820390121e-38
0.027465928073 -0.0306972137286 0.873 2.33902147263e-38
0.0290815709008 -0.0306972137286 0.873 2.34834963625e-38
0.0306972137286 -0.0306972137286 0.873 2.31140300094e-38
0.0323128565565 -0.0306972137286 0.873 2.2838129756e-38
0.0339284993843 -0.0306972137286 0.873 2.30225027989e-38
0.0355441422121 -0.0306972137286 0.873 2.3486006088e-38
0.0371597850399 -0.0306972137286 0.873 2.34813257511e-38
0.0387754278677 -0.0306972137286 0.873 2.34852591959e-38
0.0403910706956 -0.0306972137286 0.873 2.32980134912e-38
0.0420067135234 -0.0306972137286 0.873 2.31132564926e-38
0.0435224196815 -0.030626887924 0.871 2.34846005857e-38
0.0451343611511 -0.030626887924 0.871 2.30225336274e-38
0.0467463026208 -0.030626887924 0.871 2.34824495925e-38
0.0483582440905 -0.030626887924 0.871 2.33898587965e-38
0.0499701855602 -0.030626887924 0.871 2.21009094365e-38
0.0515821270299 -0.030626887924 0.871 2.27452096549e-38
0.0531940684996 -0.030626887924 0.871 2.34831110054e-38
0.0548060099692 -0.030626887924 0.871 2.34838326741e-38
0.0564179514389 -0.030626887924 0.871 2.32058304731e-38
0.0580298929086 -0.030626887924 0.871 2.29271150111e-38
0.0596418343783 -0.030626887924 0.871 2.34838396806e-38
0.0611131242387 -0.0305565621193 0.869 2.34816830823e-38
0.0627213643502 -0.0305565621193 0.869 2.3487066871e-38
0.0643296044618 -0.0305565621193 0.869 2.34827718912e-38
0.0659378445733 -0.0305565621193 0.869 2.34842040182e-38
0.067390627643 -0.0304862363147 0.867 2.34842082221e-38
0.0687564287964 -0.0303807476077 0.864 2.34824075536e-38
0.0703554155126 -0.0303807476077 0.864 2.3480982433e-38
0.0719544022288 -0.0303807476077 0.864 2.34834949612e-38
0.073553388945 -0.0303807476077 0.864 2.34835019677e-38
0.0751523756612 -0.0303807476077 0.864 2.34816942926e-38
0.0767513623774 -0.0303807476077 0.864 2.34885606551e-38
-0.0130287806505 -0.0293147564636 0.88 2.35004576791e-38
-0.0114001830692 -0.0293147564636 0.88 2.34979353418e-38
-0.00977158548786 -0.0293147564636 0.88 2.35062254236e-38
-0.00814298790655 -0.0293147564636 0.88 2.02541311839e-38
-0.00649958489268 -0.0292481320171 0.878 2.34838578975e-38
-0.00487468866951 -0.0292481320171 0.878 2.34860257062e-38
-0.00325719516262 -0.0293147564636 0.88 2.29306757105e-38
-0.00162489622317 -0.0292481320171 0.878 2.32068898547e-38
0.0 -0.0292481320171 0.878 2.34874508267e-38
0.00162489622317 -0.0292481320171 0.878 2.34907130496e-38
0.00324979244634 -0.0292481320171 0.878 3.21424236553e-39
0.00487468866951 -0.0292481320171 0.878 8.26554497884e-40
0.00649958489268 -0.0292481320171 0.878 2.93876250173e-39
0.00812448111586 -0.0292481320171 0.878 2.75511393019e-39
0.00971606511577 -0.0291481953473 0.875 1.30540845119e-38
0.0113354093017 -0.0291481953473 0.875 2.34878950383e-38
0.0129251426226 -0.0290815709008 0.873 2.33934937647e-38
0.0145407854504 -0.0290815709008 0.873 2.34827648847e-38
0.0161564282782 -0.0290815709008 0.873 2.34831236171e-38
0.0177720711061 -0.0290815709008 0.873 2.3021423799e-38
0.0193877139339 -0.0290815709008 0.873 2.32979714523e-38
0.0210033567617 -0.0290815709008 0.873 2.31136194289e-38
0.0226708186035 -0.0291481953473 0.875 2.34838424832e-38
0.0242901627894 -0.0291481953473 0.875 2.30200014811e-38
0.0259095069754 -0.0291481953473 0.875 2.34824383821e-38
0.0275288511614 -0.0291481953473 0.875 2.3297326855e-38
0.0291481953473 -0.0291481953473 0.875 2.34820754458e-38
0.0307675395333 -0.0291481953473 0.875 2.34838621014e-38
0.0323868837192 -0.0291481953473 0.875 2.34817181147e-38
0.0340062279052 -0.0291481953473 0.875 2.34838424832e-38
0.0356255720912 -0.0291481953473 0.875 2.34838480884e-38
0.0372449162771 -0.0291481953473 0.875 2.32980134912e-38
0.0388642604631 -0.0291481953473 0.875 2.34827732925e-38
0.0404836046491 -0.0291481953473 0.875 2.34838382793e-38
0.042102948835 -0.0291481953473 0.875 2.34816858849e-38
0.043722293021 -0.0291481953473 0.875 2.34838410819e-38
0.0453416372069 -0.0291481953473 0.875 2.32043955434e-38
0.0469609813929 -0.0291481953473 0.875 2.34852956297e-38
0.0485803255789 -0.0291481953473 0.875 2.32057996445e-38
0.0500849276625 -0.0290815709008 0.873 2.31157872376e-38
0.0517005704903 -0.0290815709008 0.873 2.34845725597e-38
0.0533162133182 -0.0290815709008 0.873 2.34827957132e-38
0.054931856146 -0.0290815709008 0.873 2.34834921586e-38
0.0565474989738 -0.0290815709008 0.873 2.34845613493e-38
0.0581631418016 -0.0290815709008 0.873 2.33894706368e-38
0.0597787846294 -0.0290815709008 0.873 2.34838256676e-38
0.0613944274573 -0.0290815709008 0.873 2.34827578782e-38
0.0630100702851 -0.0290815709008 0.873 2.34824089549e-38
0.0644776587873 -0.0290149464543 0.871 2.34813495732e-38
0.066089600257 -0.0290149464543 0.871 2.34827746938e-38
0.0677015417267 -0.0290149464543 0.871 2.34820712419e-38
0.0693134831964 -0.0290149464543 0.871 2.34830969924e-38
0.0709254246661 -0.0290149464543 0.871 2.34831600508e-38
0.072703927252 -0.0290815709008 0.873 2.34817027004e-38
0.0747452262659 -0.0292481320171 0.878 2.34853138466e-38
0.076370122489 -0.0292481320171 0.878 2.32022599646e-38
0.0779950187122 -0.0292481320171 0.878 2.34896242407e-38
-0.0130583915156 -0.0277490819706 0.882 2.34997177935e-38
-0.0114260925761 -0.0277490819706 0.882 2.35022093022e-38
-0.0097937936367 -0.0277490819706 0.882 2.35054799328e-38
-0.00816149469725 -0.0277490819706 0.882 1.82290713329e-38
-0.0065291957578 -0.0277490819706 0.882 2.32980162938e-38
-0.00489689681835 -0.0277490819706 0.882 2.32987351599e-38
-0.0032645978789 -0.0277490819706 0.882 2.33887797967e-38
-0.00163785097666 -0.0278434666032 0.885 2.34809754265e-38
0.0 -0.0278434666032 0.885 2.24682948614e-38
0.00163785097666 -0.0278434666032 0.885 2.3488898368e-38
0.00327570195332 -0.0278434666032 0.885 1.5928184096e-38
0.00491355292998 -0.0278434666032 0.885 1.61104467834e-38
0.00655140390664 -0.0278434666032 0.885 1.97117347912e-38
0.00818925488329 -0.0278434666032 0.885 2.34006179661e-38
0.00982710585995 -0.0278434666032 0.885 2.34892809225e-38
0.0114649568366 -0.0278434666032 0.885 2.34831390314e-38
0.0131028078133 -0.0278434666032 0.885 2.34856501582e-38
0.0147406587899 -0.0278434666032 0.885 2.3482428573e-38
0.0162489622317 -0.0276232357939 0.878 2.34846174012e-38
0.0178738584549 -0.0276232357939 0.878 2.32998337779e-38
0.0194987546781 -0.0276232357939 0.878 2.34838550949e-38
0.0211236509012 -0.0276232357939 0.878 2.34874368137e-38
0.0227485471244 -0.0276232357939 0.878 2.28388304053e-38
0.0243734433476 -0.0276232357939 0.878 2.34874564319e-38
0.0259983395707 -0.0276232357939 0.878 2.34856641712e-38
0.0276232357939 -0.0276232357939 0.878 2.26562566296e-38
0.0292481320171 -0.0276232357939 0.878 2.33927272544e-38
0.0308730282403 -0.0276232357939 0.878 2.29342910605e-38
0.0324979244634 -0.0276232357939 0.878 2.34885354317e-38
0.0341228206866 -0.0276232357939 0.878 2.14616763135e-38
0.0357477169098 -0.0276232357939 0.878 2.3303754611e-38
0.0373726131329 -0.0276232357939 0.878 1.8422074973e-38
0.0389975093561 -0.0276232357939 0.878 1.88820567991e-38
0.0406224055793 -0.0276232357939 0.878 2.34849859427e-38
0.0422473018025 -0.0276232357939 0.878 2.32044137603e-38
0.0438721980256 -0.0276232357939 0.878 2.34820572289e-38
0.0454970942488 -0.0276232357939 0.878 2.34813257511e-38
0.047121990472 -0.0276232357939 0.878 2.26522965602e-38
0.0487468866951 -0.0276232357939 0.878 2.34824201652e-38
0.0501996697648 -0.0275288511614 0.875 2.32998309753e-38
0.0518190139508 -0.0275288511614 0.875 2.34852998336e-38
0.0534383581368 -0.0275288511614 0.875 2.32051326264e-38
0.0550577023227 -0.0275288511614 0.875 2.33880791474e-38
0.0566770465087 -0.0275288511614 0.875 2.34838564962e-38
0.0582963906946 -0.0275288511614 0.875 2.34824103562e-38
0.0599157348806 -0.0275288511614 0.875 2.3483489356e-38
0.0613944274573 -0.027465928073 0.873 2.30203546083e-38
0.0630100702851 -0.027465928073 0.873 2.34860467257e-38
0.0647737674385 -0.0275288511614 0.875 2.32047612823e-38
0.0663931116244 -0.0275288511614 0.875 2.34853152479e-38
0.0680124558104 -0.0275288511614 0.875 2.34820558276e-38
0.0696317999964 -0.0275288511614 0.875 2.34856319413e-38
0.0712511441823 -0.0275288511614 0.875 2.34831236171e-38
0.0728704883683 -0.0275288511614 0.875 2.34834655339e-38
0.0747452262659 -0.0276232357939 0.878 2.34856473556e-38
0.076370122489 -0.0276232357939 0.878 2.34802383435e-38
0.0779950187122 -0.0276232357939 0.878 2.34925193233e-38
0.0796199149354 -0.0276232357939 0.878 2.35098393723e-38
-0.0114908663436 -0.0262648373568 0.887 2.34975639978e-38
-0.00984931400879 -0.0262648373568 0.887 2.35051155952e-38
-0.00820776167399 -0.0262648373568 0.887 1.70334022078e-38
-0.00656620933919 -0.0262648373568 0.887 2.34845767636e-38
-0.00491355292998 -0.0262056156265 0.885 2.32079884727e-38
-0.00327570195332 -0.0262056156265 0.885 2.34820558276e-38
-0.0016415523348 -0.0262648373568 0.887 2.31132663017e-38
0.0 -0.0262648373568 0.887 2.34824369808e-38
0.0016415523348 -0.0262648373568 0.887 2.30203546083e-38
0.0032831046696 -0.0262648373568 0.887 2.34849439038e-38
0.00492465700439 -0.0262648373568 0.887 2.3026837015e-38
0.00656620933919 -0.0262648373568 0.887 2.13716288742e-38
0.00820776167399 -0.0262648373568 0.887 2.34892164628e-38
0.00984931400879 -0.0262648373568 0.887 2.05361074674e-38
0.0114908663436 -0.0262648373568 0.887 2.17404212027e-38
0.0131324186784 -0.0262648373568 0.887 2.01727381639e-38
0.0147739710132 -0.0262648373568 0.887 1.82380522547e-38
0.016415523348 -0.0262648373568 0.887 2.21974294735e-38
0.0180163607432 -0.0262056156265 0.885 1.97974732378e-38
0.0196542117199 -0.0262056156265 0.885 1.4915433466e-38
0.0212198862128 -0.0261167830312 0.882 2.34888731447e-38
0.0228521851523 -0.0261167830312 0.882 1.13972943051e-38
0.0244844840917 -0.0261167830312 0.882 2.34829204288e-38
0.0261167830312 -0.0261167830312 0.882 1.08599173635e-38
0.0277490819706 -0.0261167830312 0.882 2.13555559808e-38
0.0293813809101 -0.0261167830312 0.882 1.15943056588e-38
0.0310136798495 -0.0261167830312 0.882 1.72221599135e-38
0.032645978789 -0.0261167830312 0.882 1.75654359983e-38
0.0342782777284 -0.0261167830312 0.882 9.93339983834e-39
0.0359105766679 -0.0261167830312 0.882 1.44635581515e-38
0.0375428756073 -0.0261167830312 0.882 7.82975236682e-39
0.0391751745468 -0.0261167830312 0.882 1.787446575e-38
0.0408074734862 -0.0261167830312 0.882 2.27527934821e-38
0.0423435371141 -0.026057561301 0.88 2.34845501389e-38
0.0439721346954 -0.026057561301 0.88 2.34831292223e-38
0.0457043703046 -0.0261167830312 0.882 2.34813285537e-38
0.047229329858 -0.026057561301 0.88 2.32976659692e-38
0.0488579274393 -0.026057561301 0.88 2.34820502225e-38
0.0503717829183 -0.0259983395707 0.878 2.32990700703e-38
0.0519966791415 -0.0259983395707 0.878 2.34845641519e-38
0.0536215753646 -0.0259983395707 0.878 2.34820628341e-38
0.0552464715878 -0.0259983395707 0.878 2.34824467899e-38
0.056871367811 -0.0259983395707 0.878 2.34820544263e-38
0.0582963906946 -0.0259095069754 0.875 2.34827760951e-38
0.0599157348806 -0.0259095069754 0.875 2.34806377136e-38
0.0615350790666 -0.0259095069754 0.875 2.34817167134e-38
0.0631544232525 -0.0259095069754 0.875 2.34806643383e-38
0.0647737674385 -0.0259095069754 0.875 2.34863998529e-38
0.0663931116244 -0.0259095069754 0.875 2.34860172984e-38
0.0680124558104 -0.0259095069754 0.875 2.34863648204e-38
0.0696317999964 -0.0259095069754 0.875 2.34834907573e-38
0.0714954338195 -0.0259983395707 0.878 2.34831264197e-38
0.0731203300427 -0.0259983395707 0.878 2.34849340947e-38
0.0747452262659 -0.0259983395707 0.878 2.34820628341e-38
0.076370122489 -0.0259983395707 0.878 2.34809796304e-38
0.0779950187122 -0.0259983395707 0.878 2.34957689344e-38
0.0796199149354 -0.0259983395707 0.878 2.35098351684e-38
-0.00984931400879 -0.024623285022 0.887 2.35011863543e-38
-0.00820776167399 -0.024623285022 0.887 1.82341132047e-38
-0.00656620933919 -0.024623285022 0.887 2.33902259367e-38
-0.00492465700439 -0.024623285022 0.887 2.28384800806e-38
-0.0032831046696 -0.024623285022 0.887 2.34827718912e-38
-0.0016415523348 -0.024623285022 0.887 2.34824131588e-38
0.0 -0.024623285022 0.887 2.3483513178e-38
0.0016415523348 -0.024623285022 0.887 2.25615624846e-38
0.0032831046696 -0.024623285022 0.887 2.3489250094e-38
0.00493576107881 -0.0246788053941 0.889 1.17807820506e-38
0.00658101477175 -0.0246788053941 0.889 1.74118831139e-38
0.00822626846469 -0.0246788053941 0.889 2.31208669446e-38
0.00987152215763 -0.0246788053941 0.889 1.36186466437e-38
0.0115167758506 -0.0246788053941 0.889 2.0451219609e-38
0.0131620295435 -0.0246788053941 0.889 2.10071455384e-38
0.0148072832364 -0.0246788053941 0.889 1.37269501994e-38
0.0164525369294 -0.0246788053941 0.889 2.27525006108e-38
0.0180977906223 -0.0246788053941 0.889 2.29342882579e-38
0.0197430443153 -0.0246788053941 0.889 9.48309117553e-39
0.0213401803524 -0.024623285022 0.887 2.34968143031e-38
0.0229299136732 -0.0245677646499 0.885 1.41653520292e-38
0.0245677646499 -0.0245677646499 0.885 1.24208363346e-38
0.0262056156265 -0.0245677646499 0.885 2.01706698474e-38
0.0278434666032 -0.0245677646499 0.885 2.05322468901e-38
0.0294813175799 -0.0245677646499 0.885 1.02221485973e-38
0.0311191685565 -0.0245677646499 0.885 2.22957683958e-38
0.0327570195332 -0.0245677646499 0.885 1.82255344555e-38
0.0342782777284 -0.0244844840917 0.882 2.06358490895e-38
0.0359105766679 -0.0244844840917 0.882 1.47414566564e-38
0.0375428756073 -0.0244844840917 0.882 1.71317663535e-38
0.0391751745468 -0.0244844840917 0.882 1.83281991862e-38
0.0408074734862 -0.0244844840917 0.882 2.09193079467e-38
0.0424397724257 -0.0244844840917 0.882 2.31187019384e-38
0.0440720713651 -0.0244844840917 0.882 2.34849705285e-38
0.0457043703046 -0.0244844840917 0.882 2.34834865534e-38
0.0474976783231 -0.0245677646499 0.885 2.292852752e-38
0.0491355292998 -0.0245677646499 0.885 2.34838480884e-38
0.0504865250206 -0.0244289637197 0.88 2.28377990496e-38
0.0521151226019 -0.0244289637197 0.88 2.34852900245e-38
0.0537437201832 -0.0244289637197 0.88 2.34834865534e-38
0.0553723177646 -0.0244289637197 0.88 2.34820712419e-38
0.0570009153459 -0.0244289637197 0.88 2.34824075536e-38
0.0586295129272 -0.0244289637197 0.88 2.34824201652e-38
0.0602581105085 -0.0244289637197 0.88 2.34831586495e-38
0.0618867080898 -0.0244289637197 0.88 2.34856347439e-38
0.0635153056711 -0.0244289637197 0.88 2.34842082221e-38
0.0651439032524 -0.0244289637197 0.88 2.31129005628e-38
