# .PCD v0.7 - Point Cloud Data file format
VERSION 0.7
FIELDS x y z rgb
SIZE 4 4 4 4
TYPE F F F F
COUNT 1 1 1 1
WIDTH 857
HEIGHT 1
VIEWPOINT 0 0 0 1 0 0 0
POINTS 857
DATA ascii
0.0389271835515 -0.148222737369 0.809 2.35098772074e-38
0.0404243829188 -0.148222737369 0.809 2.7612179863e-39
0.0420252203141 -0.148589171825 0.811 3.06638155547e-39
0.0435261210396 -0.148589171825 0.811 1.41797391605e-41
0.0452491032535 -0.149322040736 0.815 1.83520310692e-38
0.0473311172068 -0.151154213015 0.825 1.9267457317e-38
0.0492132578207 -0.152253516383 0.831 1.94525716467e-38
0.0507511721276 -0.152253516383 0.831 1.89912305611e-38
0.0522890864345 -0.152253516383 0.831 1.85288202848e-38
0.0538270007414 -0.152253516383 0.831 1.92653091265e-38
0.0558979106203 -0.153719254206 0.839 1.98177626382e-38
-0.0135414187528 -0.147451004197 0.813 1.06863090954e-38
-0.012007205804 -0.147088271099 0.811 1.89894733328e-38
-0.0105063050785 -0.147088271099 0.811 1.95400855384e-38
-0.00900540435302 -0.147088271099 0.811 2.08318963498e-38
-0.00750450362752 -0.147088271099 0.811 2.02776239527e-38
-0.00600360290201 -0.147088271099 0.811 2.06467792175e-38
-0.00450270217651 -0.147088271099 0.811 2.12003061239e-38
-0.00300180145101 -0.147088271099 0.811 2.09237262408e-38
-0.0015009007255 -0.147088271099 0.811 2.12928759005e-38
0.0 -0.147088271099 0.811 2.04631138304e-38
0.0015009007255 -0.147088271099 0.811 2.03709055888e-38
0.00300180145101 -0.147088271099 0.811 2.09240919797e-38
0.00450270217651 -0.147088271099 0.811 2.08318963498e-38
0.00600360290201 -0.147088271099 0.811 1.94496849719e-38
0.00750450362752 -0.147088271099 0.811 2.06482253575e-38
0.00900540435302 -0.147088271099 0.811 2.08318935472e-38
0.0105063050785 -0.147088271099 0.811 2.07396937135e-38
0.0119775949389 -0.146725538002 0.809 2.2215183925e-38
0.0134747943063 -0.146725538002 0.809 2.02787197681e-38
0.0149719936736 -0.146725538002 0.809 2.10162693927e-38
0.016469193041 -0.146725538002 0.809 1.99091959617e-38
0.0179219761107 -0.146362804904 0.807 2.20279003852e-38
0.0194154741199 -0.146362804904 0.807 1.7789790889e-38
0.0209089721291 -0.146362804904 0.807 1.30885144152e-38
0.0224579905105 -0.146725538002 0.809 2.11052812724e-38
0.0240144116081 -0.147088271099 0.811 1.74177517519e-38
0.0255153123336 -0.147088271099 0.811 9.18761338135e-41
0.0270162130591 -0.147088271099 0.811 7.5497196843e-40
0.0284467879799 -0.146725538002 0.809 1.03192880081e-39
0.0299439873473 -0.146725538002 0.809 1.73356552801e-38
0.0314411867146 -0.146725538002 0.809 1.78841697418e-38
0.0328569562029 -0.146362804904 0.807 1.55749279635e-38
0.0343504542122 -0.146362804904 0.807 1.8979018245e-38
0.035755119626 -0.146000071806 0.805 1.9815198262e-38
0.0372449162771 -0.146000071806 0.805 1.65001815174e-38
0.0387347129282 -0.146000071806 0.805 2.35098856151e-38
0.0404243829188 -0.146725538002 0.809 7.34683969264e-40
0.0420252203141 -0.147088271099 0.811 1.77779092793e-39
0.0435261210396 -0.147088271099 0.811 2.50033684989e-41
0.0452491032535 -0.147813737295 0.815 1.96398776073e-38
0.0475606014115 -0.150352868978 0.829 1.93589340808e-38
0.0493317012812 -0.151078335174 0.833 1.90841478597e-38
0.0507511721276 -0.150715602076 0.831 1.87139332132e-38
0.0522890864345 -0.150715602076 0.831 1.91741924964e-38
0.0539565482763 -0.151078335174 0.833 1.88979811548e-38
0.0560311595134 -0.152529267564 0.841 1.98177626382e-38
-0.0134747943063 -0.145228338634 0.809 1.74214385681e-38
-0.0119775949389 -0.145228338634 0.809 1.90819814523e-38
-0.0104803955715 -0.145228338634 0.809 1.99095673058e-38
-0.00898319620418 -0.145228338634 0.809 2.00943257057e-38
-0.00748599683682 -0.145228338634 0.809 2.0370549659e-38
-0.00598879746946 -0.145228338634 0.809 1.99095645032e-38
-0.00449159810209 -0.145228338634 0.809 2.06456651852e-38
-0.00299439873473 -0.145228338634 0.809 2.0738991663e-38
-0.00149719936736 -0.145228338634 0.809 2.03709153979e-38
0.0 -0.145228338634 0.809 2.14783447587e-38
0.00149719936736 -0.145228338634 0.809 2.12013851237e-38
0.00299439873473 -0.145228338634 0.809 2.11084832394e-38
0.00449159810209 -0.145228338634 0.809 2.11088391692e-38
0.00598879746946 -0.145228338634 0.809 2.12017536652e-38
0.00748599683682 -0.145228338634 0.809 2.05556653901e-38
0.00898319620418 -0.145228338634 0.809 2.1293230429e-38
0.0104544860646 -0.144869306895 0.807 2.12935835562e-38
0.0119479840738 -0.144869306895 0.807 2.16627262093e-38
0.013441482083 -0.144869306895 0.807 1.98184632875e-38
0.0149349800922 -0.144869306895 0.807 2.0000356032e-38
0.0164284781015 -0.144869306895 0.807 2.10152156162e-38
0.0179219761107 -0.144869306895 0.807 2.00939781837e-38
0.0193673564641 -0.144510275155 0.805 1.78830402953e-38
0.0208571531152 -0.144510275155 0.805 1.93592619846e-38
0.0223469497663 -0.144510275155 0.805 2.07378804333e-38
0.0238959681476 -0.144869306895 0.807 1.21644127286e-38
0.0253894661568 -0.144869306895 0.807 4.0105162049e-42
0.0269495886125 -0.145228338634 0.809 3.8976416136e-40
0.0283764621753 -0.144869306895 0.807 2.60032930441e-39
0.0298699601845 -0.144869306895 0.807 1.46616414985e-38
0.0313634581937 -0.144869306895 0.807 1.54859917539e-38
0.0327755263239 -0.144510275155 0.805 1.86159544246e-38
0.034265322975 -0.144510275155 0.805 1.72316396976e-38
0.035755119626 -0.144510275155 0.805 1.48399034787e-38
0.0372449162771 -0.144510275155 0.805 1.68718577182e-38
0.0387347129282 -0.144510275155 0.805 2.35098814113e-38
0.0402245095793 -0.144510275155 0.805 6.43624792455e-40
0.0418179442583 -0.144869306895 0.807 2.2115292364e-41
0.0436334604256 -0.145946402113 0.813 1.43012247309e-38
0.0451380625093 -0.145946402113 0.813 2.01897709467e-38
0.0479048277184 -0.149895751248 0.835 2.00954201198e-38
0.0494501447416 -0.149895751248 0.835 1.93585837561e-38
0.0511176065834 -0.150254782988 0.837 1.86210215198e-38
0.0526666249647 -0.150254782988 0.837 1.94497031888e-38
0.054215643346 -0.150254782988 0.837 2.00954229224e-38
-0.0149349800922 -0.143375808886 0.807 1.25237827263e-38
-0.013441482083 -0.143375808886 0.807 1.8897625225e-38
-0.0119479840738 -0.143375808886 0.807 1.8803236563e-38
-0.0104544860646 -0.143375808886 0.807 1.99099456564e-38
-0.00896098805535 -0.143375808886 0.807 1.98181003512e-38
-0.00746749004612 -0.143375808886 0.807 2.07386217202e-38
-0.0059739920369 -0.143375808886 0.807 2.05545835876e-38
-0.00448049402767 -0.143375808886 0.807 2.1476190963e-38
-0.00298699601845 -0.143375808886 0.807 2.08318935472e-38
-0.00149349800922 -0.143375808886 0.807 2.12924989512e-38
0.0 -0.143375808886 0.807 2.10169882588e-38
0.00149349800922 -0.143375808886 0.807 2.08322466745e-38
0.00298699601845 -0.143375808886 0.807 2.1016284807e-38
0.00448049402767 -0.143375808886 0.807 2.19389529652e-38
0.0059739920369 -0.143375808886 0.807 2.11091894939e-38
0.00746749004612 -0.143375808886 0.807 2.05542178487e-38
0.00896098805535 -0.143375808886 0.807 2.17524079098e-38
0.0104285765576 -0.143020478504 0.805 2.03701965318e-38
0.0119183732087 -0.143020478504 0.805 2.15690900447e-38
0.0134081698598 -0.143020478504 0.805 2.12010347991e-38
0.0148979665109 -0.143020478504 0.805 1.41030825293e-38
0.0163877631619 -0.143020478504 0.805 1.23524151345e-38
0.017877559813 -0.143020478504 0.805 1.18910151943e-38
0.0193673564641 -0.143020478504 0.805 1.30889109826e-38
0.0208571531152 -0.143020478504 0.805 2.07393125603e-38
0.0223469497663 -0.143020478504 0.805 1.72340765557e-38
0.0238367464174 -0.143020478504 0.805 9.18985545889e-41
0.0253265430684 -0.143020478504 0.805 1.58438231258e-39
0.026882964166 -0.143375808886 0.807 5.68763224596e-40
0.0283061363706 -0.143020478504 0.805 3.79851936542e-39
0.0297959330217 -0.143020478504 0.805 2.06496378664e-38
0.0312857296728 -0.143020478504 0.805 1.84340672852e-38
0.0327755263239 -0.143020478504 0.805 1.66855887186e-38
0.034265322975 -0.143020478504 0.805 1.7423254651e-38
0.0356662870307 -0.142665148123 0.803 2.14790426053e-38
0.0371523823236 -0.142665148123 0.803 2.2308821491e-38
0.0386384776166 -0.142665148123 0.803 2.35098828126e-38
0.0401245729095 -0.142665148123 0.803 7.00649232162e-44
0.0417143062304 -0.143020478504 0.805 1.60182427457e-41
0.0432041028815 -0.143020478504 0.805 1.85349845967e-38
0.0464705514394 -0.148705764606 0.837 1.96344447731e-38
0.0480195698208 -0.148705764606 0.837 2.00028713628e-38
0.0495685882021 -0.148705764606 0.837 1.97277137976e-38
0.0511176065834 -0.148705764606 0.837 1.89890809693e-38
0.0527924711414 -0.149061094988 0.839 1.94497031888e-38
0.0543451908809 -0.149061094988 0.839 1.92653119291e-38
-0.0163470482224 -0.14117905283 0.803 1.4827556638e-38
-0.0148609529295 -0.14117905283 0.803 2.00918355984e-38
-0.0134081698598 -0.141530681853 0.805 1.90808982485e-38
-0.0119183732087 -0.141530681853 0.805 2.00936054383e-38
-0.0104285765576 -0.141530681853 0.805 1.98181003512e-38
-0.00893877990651 -0.141530681853 0.805 2.00939725785e-38
-0.00744898325543 -0.141530681853 0.805 2.01854521449e-38
-0.00595918660434 -0.141530681853 0.805 2.08311774837e-38
-0.00446938995326 -0.141530681853 0.805 2.12921486266e-38
-0.00297959330217 -0.141530681853 0.805 2.05553122628e-38
-0.00148979665109 -0.141530681853 0.805 2.06485812873e-38
0.0 -0.141530681853 0.805 2.07400468407e-38
0.00148979665109 -0.141530681853 0.805 2.19389529652e-38
0.00297959330217 -0.141530681853 0.805 2.07393419876e-38
0.00446938995326 -0.141530681853 0.805 2.05553094603e-38
0.00595918660434 -0.141530681853 0.805 2.09230199864e-38
0.00744898325543 -0.141530681853 0.805 2.12921514291e-38
0.00893877990651 -0.141530681853 0.805 2.12917954993e-38
0.0104285765576 -0.141530681853 0.805 2.10159190681e-38
0.0119183732087 -0.141530681853 0.805 2.00943257057e-38
0.0134081698598 -0.141530681853 0.805 2.01843983684e-38
0.0148609529295 -0.14117905283 0.803 1.40104889307e-38
0.0163470482224 -0.14117905283 0.803 1.51186763939e-38
0.0178331435154 -0.14117905283 0.803 1.32707406688e-38
0.0193192388083 -0.14117905283 0.803 1.72316158756e-38
0.0208053341012 -0.14117905283 0.803 2.10141169982e-38
0.0222914293942 -0.14117905283 0.803 1.29951949439e-38
0.0238367464174 -0.141530681853 0.805 2.24347884138e-42
0.0253265430684 -0.141530681853 0.805 2.13790081119e-39
0.0268163397195 -0.141530681853 0.805 1.37873755905e-41
0.028235810566 -0.14117905283 0.803 7.57529758517e-39
0.0297219058589 -0.14117905283 0.803 1.5576742645e-38
0.0312080011519 -0.14117905283 0.803 1.91691099869e-38
0.0326940964448 -0.14117905283 0.803 1.93581927939e-38
0.0341801917378 -0.14117905283 0.803 1.86209766783e-38
0.0356662870307 -0.14117905283 0.803 2.29527489639e-38
0.0371523823236 -0.14117905283 0.803 2.34126481134e-38
0.0386384776166 -0.14117905283 0.803 2.35098856151e-38
0.0401245729095 -0.14117905283 0.803 8.54792063238e-44
0.0416106682025 -0.14117905283 0.803 1.37466244299e-38
0.0430967634954 -0.14117905283 0.803 1.27237227937e-38
0.046803673672 -0.148211633295 0.843 1.92707069281e-38
0.0482490540254 -0.147860004271 0.841 1.89897844211e-38
0.0496870316625 -0.147508375248 0.839 2.00043062924e-38
0.051239751402 -0.147508375248 0.839 1.88979517275e-38
0.0529183173182 -0.147860004271 0.841 1.88968797342e-38
0.0544747384158 -0.147860004271 0.841 1.95418988186e-38
0.0561644084064 -0.148211633295 0.843 1.99121078599e-38
-0.0163266907526 -0.139518993704 0.802 1.57513332233e-38
-0.0148424461388 -0.139518993704 0.802 1.88954574163e-38
-0.0133748576365 -0.139692957537 0.803 1.93553215333e-38
-0.0118887623436 -0.139692957537 0.803 2.00928865722e-38
-0.0104026670506 -0.139692957537 0.803 2.0554580785e-38
-0.00891657175768 -0.139692957537 0.803 2.00014098085e-38
-0.00744898325543 -0.140040885202 0.805 2.07386245228e-38
-0.00595918660434 -0.140040885202 0.805 2.09229905591e-38
-0.00446938995326 -0.140040885202 0.805 2.0831526407e-38
-0.00297959330217 -0.140040885202 0.805 2.10155687435e-38
-0.00148979665109 -0.140040885202 0.805 2.12932276264e-38
0.0 -0.140040885202 0.805 2.10162721953e-38
0.00148979665109 -0.140040885202 0.805 2.08318935472e-38
0.00297959330217 -0.140040885202 0.805 2.1016284807e-38
0.00445828587884 -0.139692957537 0.803 2.02787197681e-38
0.00594438117178 -0.139692957537 0.803 2.22137349824e-38
0.00743047646473 -0.139692957537 0.803 2.10159190681e-38
0.00891657175768 -0.139692957537 0.803 2.1108833564e-38
0.0104026670506 -0.139692957537 0.803 2.1016284807e-38
0.0118887623436 -0.139692957537 0.803 2.16620073432e-38
0.0133748576365 -0.139692957537 0.803 1.38268459643e-38
0.0148609529295 -0.139692957537 0.803 1.57596751531e-38
0.0163470482224 -0.139692957537 0.803 1.27153612458e-38
0.0178331435154 -0.139692957537 0.803 1.68700850757e-38
0.0193192388083 -0.139692957537 0.803 2.07396811018e-38
0.0207794245943 -0.139518993704 0.802 1.65876505676e-38
0.0222636692081 -0.139518993704 0.802 1.96181785005e-44
0.0237775246871 -0.139692957537 0.803 2.04033260301e-39
0.0252636199801 -0.139692957537 0.803 3.0573193583e-39
0.026749715273 -0.139692957537 0.803 1.52391207995e-41
0.028235810566 -0.139692957537 0.803 1.05212193208e-38
0.0297219058589 -0.139692957537 0.803 1.91770035011e-38
0.0312080011519 -0.139692957537 0.803 1.64097277016e-38
0.0326940964448 -0.139692957537 0.803 1.46587618301e-38
0.0341801917378 -0.139692957537 0.803 1.69621784107e-38
0.035621870733 -0.139518993704 0.802 1.96376243193e-38
0.0369210474399 -0.138823138374 0.798 2.2865177619e-38
0.0383978893375 -0.138823138374 0.798 2.35098856151e-38
0.0399746679049 -0.139171066039 0.8 8.96831017168e-44
0.0416106682025 -0.139692957537 0.803 1.90813340524e-38
0.0453508906023 -0.146999438504 0.845 3.68392678221e-39
0.046803673672 -0.146651510839 0.843 2.03788523524e-38
0.0482490540254 -0.146303583174 0.841 1.97269977341e-38
0.049805475123 -0.146303583174 0.841 1.93571516291e-38
0.0513618962206 -0.146303583174 0.841 1.93578578835e-38
0.0529183173182 -0.146303583174 0.841 1.93585865587e-38
0.0546042859506 -0.146651510839 0.843 1.9266400738e-38
0.0561644084064 -0.146651510839 0.843 1.98192087782e-38
-0.0177665190688 -0.137690522784 0.8 9.11323806405e-39
-0.0162859758131 -0.137690522784 0.8 1.98163403203e-38
-0.0148054325574 -0.137690522784 0.8 2.06467820201e-38
-0.0133248893016 -0.137690522784 0.8 1.96333349447e-38
-0.011873956911 -0.13803474909 0.802 2.00017601331e-38
-0.0103897122971 -0.13803474909 0.802 2.02783568318e-38
-0.00891657175768 -0.138206862244 0.803 2.07393307772e-38
-0.00743047646473 -0.138206862244 0.803 2.05553122628e-38
-0.00594438117178 -0.138206862244 0.803 2.0555679403e-38
-0.00445828587884 -0.138206862244 0.803 2.06467792175e-38
-0.00297219058589 -0.138206862244 0.803 2.03705524616e-38
-0.00148609529295 -0.138206862244 0.803 2.07386217202e-38
0.0 -0.138206862244 0.803 2.17538526485e-38
0.00148609529295 -0.138206862244 0.803 2.03712713277e-38
0.00297219058589 -0.138206862244 0.803 2.0739325172e-38
0.00445828587884 -0.138206862244 0.803 2.11088391692e-38
0.0059369784555 -0.13803474909 0.802 2.14772629563e-38
0.00742122306938 -0.13803474909 0.802 2.05556653901e-38
0.00890546768326 -0.13803474909 0.802 2.1384347059e-38
0.0103897122971 -0.13803474909 0.802 2.10155659409e-38
0.011873956911 -0.13803474909 0.802 1.88035896903e-38
0.0133582015249 -0.13803474909 0.802 1.36427671942e-38
0.0148424461388 -0.13803474909 0.802 1.84387924636e-38
0.0163266907526 -0.13803474909 0.802 1.52093824435e-38
0.0178109353665 -0.13803474909 0.802 2.03701727097e-38
0.0192951799804 -0.13803474909 0.802 2.073897765e-38
0.0207276055803 -0.137690522784 0.8 1.29937614156e-38
0.0222081488361 -0.137690522784 0.8 2.61762553136e-42
0.023747913822 -0.13803474909 0.802 2.04677997725e-39
0.0252321584359 -0.13803474909 0.802 3.05696623109e-39
0.0267164030498 -0.13803474909 0.802 2.68962845035e-39
0.0282006476636 -0.13803474909 0.802 1.67510657906e-39
0.0296108651147 -0.137690522784 0.8 1.45202546873e-41
0.0310914083705 -0.137690522784 0.8 9.50360618505e-42
0.0325719516262 -0.137690522784 0.8 1.70790256832e-41
0.0341376261192 -0.13803474909 0.802 1.81496177099e-41
0.0354442055423 -0.137346296477 0.798 1.60154401488e-41
0.0369210474399 -0.137346296477 0.798 1.67216945748e-41
0.0383978893375 -0.137346296477 0.798 1.21728331311e-38
0.0398747312351 -0.137346296477 0.798 1.75541499405e-39
0.0413515731327 -0.137346296477 0.798 1.89008075738e-38
0.0453508906023 -0.14543561469 0.845 2.02039072457e-39
0.046803673672 -0.145091388383 0.843 2.08347872286e-38
0.0483637961277 -0.145091388383 0.843 1.93578550809e-38
0.049805475123 -0.144747162076 0.841 1.91745456236e-38
0.0513618962206 -0.144747162076 0.841 1.89897984341e-38
0.0530441634949 -0.145091388383 0.843 1.99121106625e-38
0.0546042859506 -0.145091388383 0.843 1.92660349991e-38
0.0561644084064 -0.145091388383 0.843 1.98195619055e-38
-0.0177221027712 -0.135869454579 0.798 1.81570894333e-38
-0.0162452608736 -0.135869454579 0.798 1.87146562832e-38
-0.014768418976 -0.135869454579 0.798 1.97255515941e-38
-0.0132915770784 -0.135869454579 0.798 2.02790728953e-38
-0.0118443460459 -0.136209979528 0.8 2.01865101252e-38
-0.0103638027902 -0.136209979528 0.8 2.05549311097e-38
-0.00890546768326 -0.136550504477 0.802 1.972518025e-38
-0.00742122306938 -0.136550504477 0.802 2.05545835876e-38
-0.0059369784555 -0.136550504477 0.802 2.11999501941e-38
-0.00445828587884 -0.136720766951 0.803 2.06467792175e-38
-0.00297219058589 -0.136720766951 0.803 2.02769176982e-38
-0.00148424461388 -0.136550504477 0.802 2.13839939318e-38
0.0 -0.136550504477 0.802 2.12010291939e-38
0.00148424461388 -0.136550504477 0.802 2.10166407368e-38
0.00296848922775 -0.136550504477 0.802 2.12935835562e-38
0.00445273384163 -0.136550504477 0.802 2.06482309627e-38
0.00592217302295 -0.136209979528 0.8 2.12003257421e-38
0.00740271627868 -0.136209979528 0.8 2.15698117134e-38
0.00888325953442 -0.136209979528 0.8 2.10162904122e-38
0.0103638027902 -0.136209979528 0.8 2.00939613681e-38
0.0118443460459 -0.136209979528 0.8 2.04627607032e-38
0.0133248893016 -0.136209979528 0.8 2.23066578862e-38
0.0148054325574 -0.136209979528 0.8 1.47523797779e-38
0.0162859758131 -0.136209979528 0.8 1.65999203369e-38
0.0177665190688 -0.136209979528 0.8 2.15679970319e-38
0.0192470623246 -0.136209979528 0.8 1.65872974404e-38
0.0206757865664 -0.135869454579 0.798 6.86636247519e-44
0.022152628464 -0.135869454579 0.798 1.67549894263e-39
0.0236294703616 -0.135869454579 0.798 2.96512092584e-39
0.0251063122592 -0.135869454579 0.798 2.5977859477e-39
0.0266497786033 -0.136209979528 0.8 2.41518975131e-39
0.028130321859 -0.136209979528 0.8 2.4148338215e-39
0.0296108651147 -0.136209979528 0.8 6.62407797071e-40
0.0310136798495 -0.135869454579 0.798 6.92053246993e-39
0.0324905217471 -0.135869454579 0.798 7.74597994202e-39
0.0339673636447 -0.135869454579 0.798 4.9866074658e-39
0.0354442055423 -0.135869454579 0.798 5.27292076804e-39
0.0368285134865 -0.13552892963 0.796 4.71973437717e-39
0.0383016540259 -0.13552892963 0.796 1.67766394876e-39
0.0397747945654 -0.13552892963 0.796 1.41096616256e-38
0.0413515731327 -0.135869454579 0.798 1.01379235531e-38
0.0452435512162 -0.143531265927 0.843 1.21912966396e-43
0.046803673672 -0.143531265927 0.843 2.11110013728e-38
0.0483637961277 -0.143531265927 0.843 1.9635871295e-38
0.0499239185834 -0.143531265927 0.843 1.88975986003e-38
0.0514840410392 -0.143531265927 0.843 1.99124735988e-38
0.0530441634949 -0.143531265927 0.843 1.92663853237e-38
0.0547338334855 -0.143871790876 0.845 1.90819968665e-38
0.0562976572994 -0.143871790876 0.845 2.01876213549e-38
-0.0177221027712 -0.134392612681 0.798 2.13861897665e-38
-0.0162452608736 -0.134392612681 0.798 1.94482360293e-38
-0.014768418976 -0.134392612681 0.798 1.98173940967e-38
-0.0132915770784 -0.134392612681 0.798 2.09233731136e-38
-0.0118147351808 -0.134392612681 0.798 2.01865269408e-38
-0.0103638027902 -0.134729436272 0.8 1.96326342955e-38
-0.00888325953442 -0.134729436272 0.8 2.0278000902e-38
-0.00740271627868 -0.134729436272 0.8 2.02783568318e-38
-0.0059369784555 -0.135066259863 0.802 2.0278000902e-38
-0.00445273384163 -0.135066259863 0.802 2.01850625839e-38
-0.00296848922775 -0.135066259863 0.802 2.06467792175e-38
-0.00148054325574 -0.134729436272 0.8 2.05545835876e-38
0.0 -0.134729436272 0.8 2.10152184188e-38
0.00148054325574 -0.134729436272 0.8 2.02780037045e-38
0.00296108651147 -0.134729436272 0.8 2.10166379342e-38
0.00443052569279 -0.134392612681 0.798 2.1108833564e-38
0.00590736759039 -0.134392612681 0.798 2.1292145824e-38
0.00738420948799 -0.134392612681 0.798 2.07386217202e-38
0.00886105138558 -0.134392612681 0.798 2.07386273254e-38
0.0103378932832 -0.134392612681 0.798 1.76046961774e-38
0.0118147351808 -0.134392612681 0.798 2.30413684801e-38
0.0132915770784 -0.134392612681 0.798 1.94478674878e-38
0.014768418976 -0.134392612681 0.798 1.65908721528e-38
0.0162452608736 -0.134392612681 0.798 1.69628272119e-38
0.0177221027712 -0.134392612681 0.798 2.11091866913e-38
0.0191989446688 -0.134392612681 0.798 1.39157345298e-38
0.0206757865664 -0.134392612681 0.798 8.22562198559e-43
0.022152628464 -0.134392612681 0.798 2.04750865245e-39
0.0236294703616 -0.134392612681 0.798 3.05696623109e-39
0.0251063122592 -0.134392612681 0.798 2.68962845035e-39
0.0265831541568 -0.134392612681 0.798 2.68962845035e-39
0.0280599960544 -0.134392612681 0.798 3.05696903368e-39
0.0295368379519 -0.134392612681 0.798 1.74139360162e-41
0.0310136798495 -0.134392612681 0.798 1.78891947981e-38
0.0324090918681 -0.134055789091 0.796 1.10649203223e-38
0.0338822324075 -0.134055789091 0.796 4.16548159817e-39
0.035355372947 -0.134055789091 0.796 4.25660523471e-39
0.0368285134865 -0.134055789091 0.796 4.71974698886e-39
0.0383016540259 -0.134055789091 0.796 1.85041462214e-41
0.0397747945654 -0.134055789091 0.796 2.07415476314e-38
0.0412479351048 -0.134055789091 0.796 8.26519465422e-40
0.0452435512162 -0.141971143472 0.843 1.14906474075e-43
0.046803673672 -0.141971143472 0.843 2.14797824909e-38
0.0483637961277 -0.141971143472 0.843 1.88975859886e-38
0.0499239185834 -0.141971143472 0.843 1.98199122301e-38
0.0514840410392 -0.141971143472 0.843 1.90819968665e-38
0.0531700096716 -0.142307967062 0.845 1.92663853237e-38
0.0547338334855 -0.142307967062 0.845 1.95426148822e-38
0.0562976572994 -0.142307967062 0.845 1.97280697274e-38
-0.0191989446688 -0.132915770784 0.798 1.76083115274e-38
-0.0177221027712 -0.132915770784 0.798 1.80750125797e-38
-0.0162452608736 -0.132915770784 0.798 1.93621318438e-38
-0.014768418976 -0.132915770784 0.798 2.15716095793e-38
-0.0132915770784 -0.132915770784 0.798 2.09244395017e-38
-0.0118147351808 -0.132915770784 0.798 2.12925017538e-38
-0.0103378932832 -0.132915770784 0.798 2.03712713277e-38
-0.00886105138558 -0.132915770784 0.798 2.12006788693e-38
-0.00738420948799 -0.132915770784 0.798 2.00946802343e-38
-0.00590736759039 -0.132915770784 0.798 2.14761937656e-38
-0.00444162976721 -0.133248893016 0.8 2.0186156998e-38
-0.00296108651147 -0.133248893016 0.8 2.01865213356e-38
-0.0014768418976 -0.132915770784 0.798 2.03701965318e-38
0.0 -0.132915770784 0.798 2.083154042e-38
0.0014768418976 -0.132915770784 0.798 2.08318907446e-38
0.00294628107892 -0.132582648551 0.796 2.083154042e-38
0.00441942161837 -0.132582648551 0.796 2.09222927125e-38
0.00589256215783 -0.132582648551 0.796 2.13836253903e-38
0.00736570269729 -0.132582648551 0.796 2.02783540292e-38
0.00883884323675 -0.132582648551 0.796 2.11088363666e-38
0.0103119837762 -0.132582648551 0.796 1.47426855952e-38
0.0117851243157 -0.132582648551 0.796 1.92624224516e-38
0.0132249526319 -0.132249526319 0.794 1.3180710045e-38
0.0146943918132 -0.132249526319 0.794 1.65894526374e-38
0.016204545934 -0.132582648551 0.796 2.22097510909e-38
0.0176776864735 -0.132582648551 0.796 1.64040047986e-38
0.019150827013 -0.132582648551 0.796 1.74960661192e-39
0.0206239675524 -0.132582648551 0.796 2.1282178388e-39
0.0220971080919 -0.132582648551 0.796 2.59706427899e-39
0.0235702486313 -0.132582648551 0.796 2.59707689068e-39
0.0251063122592 -0.132915770784 0.798 2.59707969327e-39
0.0265831541568 -0.132915770784 0.798 3.05876830091e-39
0.0280599960544 -0.132915770784 0.798 2.9648813038e-40
0.0294628107892 -0.132582648551 0.796 6.28566999677e-39
0.0309359513286 -0.132582648551 0.796 1.7058362136e-38
0.0324090918681 -0.132582648551 0.796 4.71115142408e-40
0.0338822324075 -0.132582648551 0.796 1.75230004769e-38
0.035355372947 -0.132582648551 0.796 7.37641409673e-39
0.0368285134865 -0.132582648551 0.796 3.70632093296e-39
0.0383016540259 -0.132582648551 0.796 5.75652007846e-40
0.0397747945654 -0.132582648551 0.796 2.1663076534e-38
0.0412479351048 -0.132582648551 0.796 1.28569834751e-39
0.0452435512162 -0.140411021016 0.843 9.10844001811e-44
0.046803673672 -0.140411021016 0.843 2.12936101809e-38
0.0483637961277 -0.140411021016 0.843 1.94500507108e-38
0.0499239185834 -0.140411021016 0.843 1.96355209703e-38
0.0514840410392 -0.140411021016 0.843 1.99117603379e-38
0.0531700096716 -0.140744143248 0.845 1.9450403838e-38
0.0547338334855 -0.140744143248 0.845 1.92667384509e-38
0.0562976572994 -0.140744143248 0.845 2.0004656617e-38
-0.0220971080919 -0.131109508012 0.796 1.78685676847e-38
-0.0206239675524 -0.131109508012 0.796 8.10354927117e-39
-0.019150827013 -0.131109508012 0.796 1.23818732308e-41
-0.0176776864735 -0.131109508012 0.796 1.16700136109e-41
-0.016204545934 -0.131109508012 0.796 1.99530888335e-41
-0.0147314053946 -0.131109508012 0.796 3.88459832749e-39
-0.0132582648551 -0.131109508012 0.796 1.14363583024e-38
-0.0117851243157 -0.131109508012 0.796 1.68725443545e-38
-0.0103119837762 -0.131109508012 0.796 1.90855547633e-38
-0.00883884323675 -0.131109508012 0.796 2.06521700127e-38
-0.00736570269729 -0.131109508012 0.796 2.14779636055e-38
-0.00590736759039 -0.131438928886 0.798 2.16612884771e-38
-0.00443052569279 -0.131438928886 0.798 2.09237262408e-38
-0.00295368379519 -0.131438928886 0.798 2.07396937135e-38
-0.0014768418976 -0.131438928886 0.798 2.08318907446e-38
0.0 -0.131438928886 0.798 2.09240919797e-38
0.00147314053946 -0.131109508012 0.796 1.99102931784e-38
0.00294628107892 -0.131109508012 0.796 2.02776477747e-38
0.00441942161837 -0.131109508012 0.796 2.09222927125e-38
0.00589256215783 -0.131109508012 0.796 2.06471323447e-38
0.00736570269729 -0.131109508012 0.796 2.08318767317e-38
0.00883884323675 -0.131109508012 0.796 1.96330000344e-38
0.0102860742692 -0.130780087137 0.794 2.06474224135e-38
0.0117555134506 -0.130780087137 0.794 1.53976889312e-38
0.0131916404086 -0.130450666263 0.792 1.66874468403e-38
0.0146573782318 -0.130450666263 0.792 2.21193533269e-38
0.0161638309945 -0.130780087137 0.794 2.13814379634e-38
0.0176332701758 -0.130780087137 0.794 1.54830798557e-38
0.0191027093571 -0.130780087137 0.794 4.48415508584e-44
0.0205721485385 -0.130780087137 0.794 2.39117569952e-41
0.0220971080919 -0.131109508012 0.796 8.67224803603e-39
0.0235702486313 -0.131109508012 0.796 9.3252629295e-40
0.0250433891708 -0.131109508012 0.796 4.88105886287e-40
0.0265165297102 -0.131109508012 0.796 2.1382539384e-39
0.0279896702497 -0.131109508012 0.796 1.77586554384e-41
0.0294628107892 -0.131109508012 0.796 1.59510308662e-38
0.0308582228077 -0.130780087137 0.794 1.21691393083e-38
0.032327661989 -0.130780087137 0.794 2.17117184062e-41
0.0337971011703 -0.130780087137 0.794 1.93636564566e-38
0.0352665403517 -0.130780087137 0.794 7.37535751769e-39
0.0368285134865 -0.131109508012 0.796 1.85069488183e-41
0.0383016540259 -0.131109508012 0.796 1.30112229958e-38
0.0397747945654 -0.131109508012 0.796 2.02812659274e-38
0.0412479351048 -0.131109508012 0.796 4.59180283387e-40
0.0452435512162 -0.13885089856 0.843 1.0369608636e-43
0.046803673672 -0.13885089856 0.843 2.21244484481e-38
0.0483637961277 -0.13885089856 0.843 1.92663657055e-38
0.0500423620439 -0.139180319435 0.845 1.92663881263e-38
0.0516061858578 -0.139180319435 0.845 1.92663881263e-38
0.0532958558484 -0.139509740309 0.847 1.94500507108e-38
0.0548633810204 -0.139509740309 0.847 1.95433239392e-38
0.0564309061924 -0.139509740309 0.847 2.0464562773e-38
-0.0220971080919 -0.129636367472 0.796 1.36343439891e-38
-0.0206239675524 -0.129636367472 0.796 1.11369316491e-39
-0.019150827013 -0.129636367472 0.796 1.12987816217e-39
-0.0176776864735 -0.129636367472 0.796 2.59671395438e-39
-0.016204545934 -0.129636367472 0.796 1.7380304853e-41
-0.0147314053946 -0.129636367472 0.796 1.73985217331e-41
-0.0132582648551 -0.129636367472 0.796 1.7048197117e-41
-0.0117555134506 -0.129310647956 0.794 1.31021406414e-41
-0.0102860742692 -0.129310647956 0.794 1.27532173238e-41
-0.00881663508791 -0.129310647956 0.794 1.63545543771e-41
-0.00734719590659 -0.129310647956 0.794 4.71291565884e-39
-0.00587775672528 -0.129310647956 0.794 1.27242314651e-38
-0.00440831754396 -0.129310647956 0.794 1.77037133282e-38
-0.00293887836264 -0.129310647956 0.794 1.92699656413e-38
-0.00146943918132 -0.129310647956 0.794 2.09283953673e-38
0.0 -0.129310647956 0.794 2.11109887611e-38
0.00146943918132 -0.129310647956 0.794 2.18456755329e-38
0.00293887836264 -0.129310647956 0.794 2.12917800851e-38
0.00440831754396 -0.129310647956 0.794 2.09222744956e-38
0.00587775672528 -0.129310647956 0.794 2.00925138268e-38
0.00734719590659 -0.129310647956 0.794 1.99088610514e-38
0.00881663508791 -0.129310647956 0.794 1.6493700512e-38
0.0102860742692 -0.129310647956 0.794 1.3270798122e-38
0.0117259025854 -0.12898492844 0.792 1.36482000283e-38
0.0131916404086 -0.12898492844 0.792 1.33651615606e-38
0.0146573782318 -0.12898492844 0.792 2.24885268086e-38
0.016123116055 -0.12898492844 0.792 1.68652982401e-38
0.0175888538782 -0.12898492844 0.792 3.31689168194e-39
0.0190545917013 -0.12898492844 0.792 5.55474711258e-42
0.0205203295245 -0.12898492844 0.792 1.14342115131e-38
0.0219860673477 -0.12898492844 0.792 1.53945402135e-38
0.0235110269011 -0.129310647956 0.794 2.77313182584e-39
0.0249175429941 -0.12898492844 0.792 1.46637966955e-38
0.0263832808172 -0.12898492844 0.792 2.58981676333e-39
0.0278490186404 -0.12898492844 0.792 2.28271519839e-41
0.0293147564636 -0.12898492844 0.792 1.80736308994e-38
0.0307027657658 -0.128659208924 0.79 2.58655734311e-39
0.0321648022309 -0.128659208924 0.79 1.09897630805e-38
0.0336268386959 -0.128659208924 0.79 1.75175746493e-38
0.0351777077563 -0.12898492844 0.792 3.23448552315e-39
0.0366434455795 -0.12898492844 0.792 1.63517517802e-41
0.0395749212258 -0.12898492844 0.792 2.00028615537e-38
0.0453508906023 -0.137616495621 0.845 9.52882955741e-44
0.0469147144162 -0.137616495621 0.845 2.11096070808e-38
0.04847853823 -0.137616495621 0.845 1.95429680094e-38
0.0501608055044 -0.137942215137 0.847 1.96351650405e-38
0.0517283306764 -0.137942215137 0.847 1.93589396859e-38
0.0534217020251 -0.138267934653 0.849 1.98195619055e-38
0.0549929285553 -0.138267934653 0.849 1.98206310962e-38
0.0566974039784 -0.13859365417 0.851 1.98192087782e-38
-0.0250433891708 -0.128163226933 0.796 2.11063154307e-38
-0.0235702486313 -0.128163226933 0.796 2.20253948636e-38
-0.0220971080919 -0.128163226933 0.796 1.51150035907e-38
-0.0206239675524 -0.128163226933 0.796 1.0544770944e-41
-0.019150827013 -0.128163226933 0.796 2.78466030831e-41
-0.0176776864735 -0.128163226933 0.796 2.50596026063e-39
-0.016204545934 -0.128163226933 0.796 2.69106478128e-39
-0.0147314053946 -0.128163226933 0.796 3.24136169471e-39
-0.0132249526319 -0.127841208775 0.794 2.87437704119e-39
-0.0117555134506 -0.127841208775 0.794 2.41340169447e-39
-0.0102860742692 -0.127841208775 0.794 1.58615215254e-39
-0.00881663508791 -0.127841208775 0.794 1.12824144557e-40
-0.00734719590659 -0.127841208775 0.794 1.77474450507e-41
-0.00586295129272 -0.127519190617 0.792 1.66880634116e-41
-0.00439721346954 -0.127519190617 0.792 9.8749502781e-42
-0.00293147564636 -0.127519190617 0.792 1.24070966031e-41
-0.00146573782318 -0.127519190617 0.792 2.06761588411e-41
0.0 -0.127519190617 0.792 8.029423385e-39
0.00146573782318 -0.127519190617 0.792 1.50283374845e-38
0.00293147564636 -0.127519190617 0.792 1.89926080375e-38
0.00439721346954 -0.127519190617 0.792 1.89930032037e-38
0.00586295129272 -0.127519190617 0.792 2.16631241781e-38
0.0073286891159 -0.127519190617 0.792 1.81582230838e-38
0.00879442693908 -0.127519190617 0.792 2.31302654534e-38
0.0102601647623 -0.127519190617 0.792 1.88010715569e-38
0.0116962917203 -0.127197172458 0.79 1.46594905053e-38
0.0131583281854 -0.127197172458 0.79 1.95436742638e-38
0.0146203646504 -0.127197172458 0.79 2.09237360499e-38
0.016123116055 -0.127519190617 0.792 1.52976025896e-38
0.0175444375805 -0.127197172458 0.79 3.36311631438e-44
0.0190064740455 -0.127197172458 0.79 2.03216303296e-41
0.0204685105106 -0.127197172458 0.79 1.63186867416e-38
0.0219860673477 -0.127519190617 0.792 2.5797176053e-39
0.0234518051709 -0.127519190617 0.792 1.06105506966e-38
0.0248546199057 -0.127197172458 0.79 1.61328283224e-38
0.0263166563707 -0.127197172458 0.79 4.79664464338e-42
0.0277786928358 -0.127197172458 0.79 9.78584731394e-39
0.0292407293008 -0.127197172458 0.79 1.65945295417e-38
0.0307027657658 -0.127197172458 0.79 9.48959320041e-42
0.0321648022309 -0.127197172458 0.79 1.78935710532e-38
0.0336268386959 -0.127197172458 0.79 7.00977696522e-39
0.035088875161 -0.127197172458 0.79 2.32555008984e-39
0.036550911626 -0.127197172458 0.79 5.09394272428e-39
0.0453508906023 -0.136052671807 0.845 1.07899981753e-43
0.0469147144162 -0.136052671807 0.845 2.07422412741e-38
0.04847853823 -0.136052671807 0.845 1.93592900106e-38
0.0501608055044 -0.136374689965 0.847 1.95426176848e-38
0.051850475495 -0.136696708123 0.849 1.91741924964e-38
0.0535475482019 -0.137018726281 0.851 1.9819564708e-38
0.0551224760902 -0.137018726281 0.851 2.0188687743e-38
-0.0250433891708 -0.126690086393 0.796 1.98188192173e-38
-0.0235702486313 -0.126690086393 0.796 2.14769126317e-38
-0.0220971080919 -0.126690086393 0.796 1.64990548735e-38
-0.0206239675524 -0.126690086393 0.796 1.18003792096e-38
-0.019150827013 -0.126690086393 0.796 1.1978299273e-41
-0.0176776864735 -0.126690086393 0.796 2.31760753015e-41
-0.016204545934 -0.126690086393 0.796 2.41196956744e-39
-0.0146943918132 -0.126371769593 0.794 2.1382539384e-39
-0.0132249526319 -0.126371769593 0.794 2.68926271145e-39
-0.0117555134506 -0.126371769593 0.794 2.23080269548e-39
-0.0102860742692 -0.126371769593 0.794 2.50666931766e-39
-0.00879442693908 -0.126053452793 0.792 2.78217720743e-39
-0.0073286891159 -0.126053452793 0.792 2.87437143599e-39
-0.00586295129272 -0.126053452793 0.792 3.24243649063e-39
-0.00439721346954 -0.126053452793 0.792 2.96513634012e-39
-0.00293147564636 -0.126053452793 0.792 2.0435373726e-39
-0.00146573782318 -0.126053452793 0.792 2.02739861819e-41
0.0 -0.126053452793 0.792 1.77530502445e-41
0.00146573782318 -0.126053452793 0.792 1.38322171414e-41
0.00292407293008 -0.125735135993 0.79 4.83588100038e-42
0.00438610939512 -0.125735135993 0.79 3.78058694898e-39
0.00586295129272 -0.126053452793 0.792 2.17588875139e-38
0.0073286891159 -0.126053452793 0.792 1.98173912941e-38
0.00877221879024 -0.125735135993 0.79 1.27132677059e-38
0.0102342552553 -0.125735135993 0.79 1.46443564819e-38
0.0116962917203 -0.125735135993 0.79 1.61263837508e-38
0.0131583281854 -0.125735135993 0.79 2.08297257385e-38
0.0146203646504 -0.125735135993 0.79 2.16598395345e-38
0.0160824011154 -0.125735135993 0.79 6.35862720002e-39
0.0175444375805 -0.125735135993 0.79 4.83588100038e-42
0.0190064740455 -0.125735135993 0.79 1.28189003867e-38
0.0204685105106 -0.125735135993 0.79 1.59487915912e-38
0.0219305469756 -0.125735135993 0.79 2.86720239305e-39
0.0233925834406 -0.125735135993 0.79 1.54928665242e-38
0.0248546199057 -0.125735135993 0.79 1.04220900661e-38
0.0263166563707 -0.125735135993 0.79 1.05994215842e-41
0.0277435299334 -0.125575977593 0.789 1.63254760327e-38
0.0292037157194 -0.125575977593 0.789 6.46199117864e-39
0.0307027657658 -0.125735135993 0.79 3.88931089423e-39
0.0321648022309 -0.125735135993 0.79 1.95447672766e-38
0.0336268386959 -0.125735135993 0.79 3.13830319915e-39
0.035088875161 -0.125735135993 0.79 1.99376745504e-41
0.036550911626 -0.125735135993 0.79 1.74300887836e-38
0.0455655693744 -0.135125481593 0.849 1.02338396304e-38
0.048822764537 -0.135443798393 0.851 1.97280669248e-38
0.0503976924253 -0.135443798393 0.851 1.94518555832e-38
0.0519726203136 -0.135443798393 0.851 2.03723797548e-38
0.053736317467 -0.135921273593 0.854 1.94518555832e-38
0.0554463449273 -0.136239590393 0.856 1.9359287208e-38
0.057163775104 -0.136557907193 0.858 2.00957760497e-38
-0.0250433891708 -0.125216945854 0.796 1.94503912263e-38
-0.0235702486313 -0.125216945854 0.796 2.08318963498e-38
-0.0220971080919 -0.125216945854 0.796 1.47480735878e-38
-0.0206239675524 -0.125216945854 0.796 1.76072002978e-38
-0.019150827013 -0.125216945854 0.796 1.24439367398e-38
-0.0176776864735 -0.125216945854 0.796 7.59924157203e-42
-0.016204545934 -0.125216945854 0.796 2.13936236548e-41
-0.0146943918132 -0.124902330412 0.794 1.30814014242e-39
-0.0132249526319 -0.124902330412 0.794 1.76874834894e-39
-0.0117259025854 -0.12458771497 0.792 1.49180552954e-39
-0.0102601647623 -0.12458771497 0.792 1.12554674862e-39
-0.00879442693908 -0.12458771497 0.792 1.21774237848e-39
-0.0073286891159 -0.12458771497 0.792 1.86274885122e-39
-0.00586295129272 -0.12458771497 0.792 1.58508576441e-39
-0.00438610939512 -0.124273099528 0.79 2.138256741e-39
-0.00292407293008 -0.124273099528 0.79 3.05661730777e-39
-0.00146203646504 -0.124273099528 0.79 3.24208336342e-39
0.0 -0.124273099528 0.79 3.24208056082e-39
0.00146203646504 -0.124273099528 0.79 3.42647742574e-39
0.00292407293008 -0.124273099528 0.79 1.12860578317e-41
0.00438610939512 -0.124273099528 0.79 1.06084109138e-38
0.00584814586016 -0.124273099528 0.79 1.5391612901e-38
0.0073101823252 -0.124273099528 0.79 1.96286658183e-38
0.00877221879024 -0.124273099528 0.79 1.99045268352e-38
0.0102213005018 -0.124115791807 0.789 2.01843409152e-38
0.0116814862878 -0.124115791807 0.789 2.00946774317e-38
0.0131583281854 -0.124273099528 0.79 2.05570722937e-38
0.0146203646504 -0.124273099528 0.79 1.87113744422e-38
0.0160824011154 -0.124273099528 0.79 6.58610278233e-44
0.0175444375805 -0.124273099528 0.79 6.52011563764e-40
0.0189824152176 -0.124115791807 0.789 1.8714678704e-38
0.0204426010036 -0.124115791807 0.789 6.35972021282e-39
0.0219305469756 -0.124273099528 0.79 1.27364339721e-38
0.0233629725755 -0.124115791807 0.789 1.62293581684e-38
0.0248231583615 -0.124115791807 0.789 9.29181393515e-40
0.0262833441475 -0.124115791807 0.789 4.80731553119e-39
0.0277435299334 -0.124115791807 0.789 1.73360378345e-38
0.0292037157194 -0.124115791807 0.789 4.03153568186e-42
0.0306639015054 -0.124115791807 0.789 1.48586948911e-38
0.0321240872913 -0.124115791807 0.789 1.51183232667e-38
0.0335842730773 -0.124115791807 0.789 3.14197880502e-39
0.0350444588633 -0.124115791807 0.789 2.4647438689e-41
0.0365046446493 -0.124115791807 0.789 1.94561841942e-38
0.0379648304352 -0.124115791807 0.789 1.8343705955e-38
0.0487080224347 -0.133554255063 0.849 2.0098294183e-38
0.0502792489648 -0.133554255063 0.849 1.98206310962e-38
0.0521558375415 -0.134340793667 0.854 1.95426204874e-38
0.0539880098204 -0.134970024551 0.858 1.95426176848e-38
0.0555758924622 -0.134970024551 0.858 1.98191905614e-38
0.057163775104 -0.134970024551 0.858 2.03727202703e-38
-0.0250433891708 -0.123743805314 0.796 1.91720246877e-38
-0.0235702486313 -0.123743805314 0.796 2.22137742187e-38
-0.022152628464 -0.124054719398 0.798 1.34569718334e-38
-0.0206239675524 -0.123743805314 0.796 1.63168538433e-38
-0.019150827013 -0.123743805314 0.796 1.77894559786e-38
-0.0176776864735 -0.123743805314 0.796 1.28130597747e-38
-0.016204545934 -0.123743805314 0.796 1.15046603921e-42
-0.0146943918132 -0.123432891231 0.794 1.45328663735e-41
-0.0132249526319 -0.123432891231 0.794 2.04067031594e-39
-0.0117259025854 -0.123121977147 0.792 1.21377390123e-39
-0.0102601647623 -0.123121977147 0.792 1.76694768041e-39
-0.00879442693908 -0.123121977147 0.792 2.41230307647e-39
-0.0073101823252 -0.122811063063 0.79 2.0424457611e-39
-0.00584814586016 -0.122811063063 0.79 1.86129710601e-39
-0.00438610939512 -0.122811063063 0.79 1.49178871396e-39
-0.00292407293008 -0.122811063063 0.79 1.49395652268e-39
-0.00146203646504 -0.122811063063 0.79 1.58508296182e-39
0.0 -0.122811063063 0.79 1.86239572401e-39
0.00146203646504 -0.122811063063 0.79 1.12771455734e-39
0.00292407293008 -0.122811063063 0.79 3.02680468294e-42
0.00438055735791 -0.122655606022 0.789 1.99150281659e-38
0.00584074314388 -0.122655606022 0.789 2.01865269408e-38
0.00730092892985 -0.122655606022 0.789 2.19378711628e-38
0.00876111471582 -0.122655606022 0.789 1.98159297398e-38
0.0102213005018 -0.122655606022 0.789 2.00961263743e-38
0.0116814862878 -0.122655606022 0.789 1.79752555433e-38
0.0131416720737 -0.122655606022 0.789 2.00028559485e-38
0.0146018578597 -0.122655606022 0.789 1.10619930098e-38
0.0160620436457 -0.122655606022 0.789 9.1364659874e-42
0.0175222294316 -0.122655606022 0.789 1.07920272555e-38
0.0189824152176 -0.122655606022 0.789 1.82540284585e-38
0.0204426010036 -0.122655606022 0.789 4.69377532312e-40
0.0219027867896 -0.122655606022 0.789 7.02355172913e-39
0.0233629725755 -0.122655606022 0.789 8.94050981145e-39
0.0248231583615 -0.122655606022 0.789 6.65476640708e-42
0.0262833441475 -0.122655606022 0.789 1.54039345184e-38
0.0277435299334 -0.122655606022 0.789 9.77746334523e-39
0.0292037157194 -0.122655606022 0.789 2.20984767824e-41
0.0306639015054 -0.122655606022 0.789 1.6879420526e-38
0.0321240872913 -0.122655606022 0.789 2.03631508031e-39
0.0335842730773 -0.122655606022 0.789 2.82193484746e-41
0.0349556262679 -0.122344691938 0.787 1.043337192e-38
0.0364121106958 -0.122344691938 0.787 1.90844953817e-38
0.0487080224347 -0.131983028533 0.849 2.06521966374e-38
0.0502792489648 -0.131983028533 0.849 1.92663853237e-38
0.0521558375415 -0.132760313742 0.854 1.95436980859e-38
0.0538621636437 -0.133071227826 0.856 1.96344615887e-38
0.0555758924622 -0.133382141909 0.858 2.00043034898e-38
-0.0236886920918 -0.122885090226 0.8 2.12928787031e-38
-0.0222081488361 -0.122885090226 0.8 1.4562959258e-38
-0.0207276055803 -0.122885090226 0.8 1.60398970109e-38
-0.0191989446688 -0.122577877501 0.798 1.65019415483e-38
-0.0176776864735 -0.122270664775 0.796 1.7422128007e-38
-0.016204545934 -0.122270664775 0.796 1.19833285332e-38
-0.0147314053946 -0.122270664775 0.796 4.75880958485e-42
-0.0132249526319 -0.121963452049 0.794 1.74125347177e-41
-0.0117259025854 -0.121656239324 0.792 1.99997520724e-40
-0.0102601647623 -0.121656239324 0.792 1.63237258109e-41
-0.00879442693908 -0.121656239324 0.792 1.59537830163e-41
-0.0073101823252 -0.121349026598 0.79 4.75139671597e-40
-0.00584814586016 -0.121349026598 0.79 1.03047705561e-39
-0.00438610939512 -0.121349026598 0.79 1.76694768041e-39
-0.00292407293008 -0.121349026598 0.79 2.41194714666e-39
-0.00146203646504 -0.121349026598 0.79 1.5836354205e-39
0.0 -0.121349026598 0.79 1.76874834894e-39
0.00146203646504 -0.121349026598 0.79 2.13680779838e-39
0.00292407293008 -0.121349026598 0.79 4.89053164049e-43
0.00438055735791 -0.121195420236 0.789 1.6139690481e-38
0.00584074314388 -0.121195420236 0.789 1.82529172288e-38
0.00730092892985 -0.121195420236 0.789 1.65008877719e-38
0.00876111471582 -0.121195420236 0.789 1.78831159654e-38
0.0102213005018 -0.121195420236 0.789 1.82533095924e-38
0.0116814862878 -0.121195420236 0.789 2.00039279418e-38
0.0131416720737 -0.121195420236 0.789 1.92645482214e-38
0.0146018578597 -0.121195420236 0.789 1.84356227265e-39
0.0160213287061 -0.12088820751 0.787 1.88824968068e-41
0.017477813134 -0.12088820751 0.787 8.9466685182e-39
0.0189342975618 -0.12088820751 0.787 9.03671595751e-39
0.0203907819896 -0.12088820751 0.787 7.30122462503e-39
0.0218472664175 -0.12088820751 0.787 1.10718595523e-38
0.0233037508453 -0.12088820751 0.787 7.65452559905e-39
0.0247602352731 -0.12088820751 0.787 9.37212235014e-40
0.026216719701 -0.12088820751 0.787 1.77041365203e-38
0.0276732041288 -0.12088820751 0.787 2.49364004453e-39
0.0291296885566 -0.12088820751 0.787 1.30133753902e-38
0.0306639015054 -0.121195420236 0.789 1.5216276832e-38
0.0321240872913 -0.121195420236 0.789 1.40105463839e-39
0.0335842730773 -0.121195420236 0.789 1.70636114001e-41
0.0349556262679 -0.12088820751 0.787 1.84438665654e-38
0.0364121106958 -0.12088820751 0.787 1.86202774303e-38
0.0418234962955 -0.128568525649 0.837 3.75547988439e-42
0.0433725146768 -0.128568525649 0.837 1.88122244914e-38
0.0452435512162 -0.129490163826 0.843 6.86636247519e-44
0.048822764537 -0.130719014728 0.851 2.06503945675e-38
0.0503976924253 -0.130719014728 0.851 2.02805344496e-38
0.0521558375415 -0.131179833816 0.854 2.10184526157e-38
0.0538621636437 -0.131487046542 0.856 1.94507962016e-38
0.0555758924622 -0.131794259268 0.858 2.00957732471e-38
-0.0236886920918 -0.12140454697 0.8 2.07411454587e-38
-0.0222081488361 -0.12140454697 0.8 1.51172162409e-38
-0.0207794245943 -0.121708058338 0.802 1.56707781798e-38
-0.0192470623246 -0.12140454697 0.8 1.61320898381e-38
-0.0177221027712 -0.121101035603 0.798 1.63168510407e-38
-0.0162452608736 -0.121101035603 0.798 1.7052267889e-38
-0.0147314053946 -0.120797524236 0.796 1.0971670916e-38
-0.0132249526319 -0.120494012868 0.794 1.26425147451e-41
-0.0117555134506 -0.120494012868 0.794 1.40108406566e-39
-0.0102601647623 -0.120190501501 0.792 2.59526220917e-39
-0.00879442693908 -0.120190501501 0.792 3.05515575347e-39
-0.0073286891159 -0.120190501501 0.792 2.89299469258e-40
-0.00584814586016 -0.119886990133 0.79 1.12123074935e-39
-0.00438610939512 -0.119886990133 0.79 4.7729066474e-40
-0.00292407293008 -0.119886990133 0.79 2.95063009842e-40
-0.00146203646504 -0.119886990133 0.79 1.21342637921e-39
0.0 -0.119886990133 0.79 2.02496035886e-40
0.00146203646504 -0.119886990133 0.79 9.38631750359e-40
0.00292407293008 -0.119886990133 0.79 2.65265799297e-42
0.00438055735791 -0.11973523445 0.789 1.54950343329e-38
0.00584074314388 -0.11973523445 0.789 1.63186390975e-38
0.00730092892985 -0.11973523445 0.789 1.53041284366e-38
0.00876111471582 -0.11973523445 0.789 1.49346326562e-38
0.0102213005018 -0.11973523445 0.789 1.60409662016e-38
0.0116814862878 -0.11973523445 0.789 1.76993959276e-38
0.0131416720737 -0.11973523445 0.789 1.28151757354e-38
0.0146018578597 -0.11973523445 0.789 7.34420525153e-42
0.0160213287061 -0.119431723082 0.787 2.41808623523e-39
0.017477813134 -0.119431723082 0.787 2.32372279665e-39
0.0189342975618 -0.119431723082 0.787 1.12734741715e-39
0.0203907819896 -0.119431723082 0.787 1.12914668437e-39
0.0217917460454 -0.119128211715 0.785 2.35263999175e-41
0.0232445291151 -0.119128211715 0.785 1.04128246806e-39
0.0246973121848 -0.119128211715 0.785 8.51133272948e-40
0.0261500952545 -0.119128211715 0.785 7.56843542659e-39
0.0276732041288 -0.119431723082 0.787 2.50019672005e-39
0.0291296885566 -0.119431723082 0.787 1.36576587929e-38
0.0305861729845 -0.119431723082 0.787 4.80212652298e-39
0.0320426574123 -0.119431723082 0.787 1.13347809793e-39
0.0334991418401 -0.119431723082 0.787 3.97374613319e-40
0.0349556262679 -0.119431723082 0.787 1.96380377024e-38
0.0364121106958 -0.119431723082 0.787 1.88028722254e-38
0.0378685951236 -0.119431723082 0.787 1.82511417837e-38
0.0418234962955 -0.127019507268 0.837 9.24856986454e-44
0.0433725146768 -0.127019507268 0.837 1.77934034364e-38
0.0452435512162 -0.12793004137 0.843 1.00893489431e-43
0.0470257551603 -0.128537064105 0.847 1.96377280154e-38
0.0485932803324 -0.128537064105 0.847 1.9727696982e-38
0.0502792489648 -0.128840575472 0.849 1.94511521314e-38
0.0521558375415 -0.129599353891 0.854 1.89912277585e-38
0.0538621636437 -0.129902865258 0.856 2.14783573704e-38
0.0555758924622 -0.130206376626 0.858 1.88968825368e-38
-0.023747913822 -0.120223813724 0.802 2.03727202703e-38
-0.0222636692081 -0.120223813724 0.802 1.63161083525e-38
-0.0207794245943 -0.120223813724 0.802 1.60399124251e-38
-0.0192470623246 -0.119924003715 0.8 1.65941399808e-38
-0.0177665190688 -0.119924003715 0.8 1.65945169301e-38
-0.0162859758131 -0.119924003715 0.8 1.59487915912e-38
-0.014768418976 -0.119624193705 0.798 1.74224811342e-38
-0.0132582648551 -0.119324383696 0.796 9.40258517746e-39
-0.0117555134506 -0.119024573687 0.794 1.12846565332e-41
-0.0102860742692 -0.119024573687 0.794 5.74543580761e-40
-0.00879442693908 -0.118724763678 0.792 1.95026974941e-39
-0.0073286891159 -0.118724763678 0.792 2.41160382854e-39
-0.00586295129272 -0.118724763678 0.792 2.59454894825e-39
-0.00438610939512 -0.118424953668 0.79 2.68494390958e-39
