# .PCD v0.7 - Point Cloud Data file format
VERSION 0.7
FIELDS x y z rgb
SIZE 4 4 4 4
TYPE F F F F
COUNT 1 1 1 1
WIDTH 843
HEIGHT 1
VIEWPOINT 0 0 0 1 0 0 0
POINTS 843
DATA ascii
0.051850475495 -0.094273591809 0.849 2.35083581998e-38
0.0534217020251 -0.094273591809 0.849 2.35098183528e-38
0.0549929285553 -0.094273591809 0.849 2.35098309645e-38
0.0565641550854 -0.094273591809 0.849 2.3509823958e-38
0.0581353816156 -0.094273591809 0.849 8.26533478407e-40
0.0597066081457 -0.094273591809 0.849 2.35080583219e-38
-0.00477475199975 -0.0939034559951 0.86 2.34946492969e-38
-0.00316836256728 -0.0934666957347 0.856 2.35029632007e-38
-0.00158418128364 -0.0934666957347 0.856 2.15466818809e-38
0.0 -0.0934666957347 0.856 1.90624389439e-38
0.00158418128364 -0.0934666957347 0.856 2.57142191839e-39
0.003160959851 -0.0932483156044 0.854 1.05121585249e-38
0.0047414397765 -0.0932483156044 0.854 2.00924928073e-38
0.006321919702 -0.0932483156044 0.854 6.0255833966e-44
0.0079023996275 -0.0932483156044 0.854 2.21240378677e-38
0.00948287955299 -0.0932483156044 0.854 9.21407830414e-39
0.0110633594785 -0.0932483156044 0.854 7.01413780605e-39
0.012643839404 -0.0932483156044 0.854 7.66167222122e-39
0.0142243193295 -0.0932483156044 0.854 7.38471538883e-39
0.0157492788829 -0.0929207454091 0.851 8.58073764112e-39
0.0173242067712 -0.0929207454091 0.851 8.94842574647e-39
0.0188991346595 -0.0929207454091 0.851 5.32493416443e-44
0.0204740625478 -0.0929207454091 0.851 2.349123153e-38
0.0220489904361 -0.0929207454091 0.851 2.35097973333e-38
0.0236239183244 -0.0929207454091 0.851 2.35098393723e-38
0.0251988462126 -0.0929207454091 0.851 2.04496921937e-38
0.0267737741009 -0.0929207454091 0.851 2.35079896583e-38
0.0283487019892 -0.0929207454091 0.851 1.78628475844e-38
0.0299236298775 -0.0929207454091 0.851 2.35097258671e-38
0.0314985577658 -0.0929207454091 0.851 2.35029730098e-38
0.0330734856541 -0.0929207454091 0.851 2.35069120598e-38
0.0346484135424 -0.0929207454091 0.851 2.35022149074e-38
0.0362233414307 -0.0929207454091 0.851 2.35004044297e-38
0.037798269319 -0.0929207454091 0.851 2.35025778437e-38
0.0393731972073 -0.0929207454091 0.851 2.35000667168e-38
0.0408518897839 -0.0927023652789 0.849 2.35018449646e-38
0.0424231163141 -0.0927023652789 0.849 2.35065729456e-38
0.0439943428442 -0.0927023652789 0.849 2.35051226017e-38
0.0455655693744 -0.0927023652789 0.849 2.35058036327e-38
0.0471367959045 -0.0927023652789 0.849 2.35062030028e-38
0.0487080224347 -0.0927023652789 0.849 2.35072469701e-38
0.0502792489648 -0.0927023652789 0.849 2.3506851804e-38
0.051850475495 -0.0927023652789 0.849 2.35090700594e-38
0.0534217020251 -0.0927023652789 0.849 2.35097917282e-38
0.0549929285553 -0.0927023652789 0.849 2.35098127476e-38
0.0565641550854 -0.0927023652789 0.849 2.35098169515e-38
0.0581353816156 -0.0927023652789 0.849 1.14216811022e-38
0.0597066081457 -0.0927023652789 0.849 2.34932998465e-38
-0.00475254385092 -0.091882514451 0.856 2.34982688509e-38
-0.00316836256728 -0.091882514451 0.856 2.34986486028e-38
-0.00158418128364 -0.091882514451 0.856 1.98928932554e-38
0.0 -0.091882514451 0.856 2.27488278075e-38
0.0015804799255 -0.0916678356789 0.854 2.20405190779e-39
0.003160959851 -0.0916678356789 0.854 2.86467164802e-39
0.0047414397765 -0.0916678356789 0.854 2.00978709909e-38
0.006321919702 -0.0916678356789 0.854 1.19744877412e-39
0.0079023996275 -0.0916678356789 0.854 1.90802186188e-38
0.00944956732974 -0.0913458175208 0.851 1.53858479591e-38
0.011024495218 -0.0913458175208 0.851 8.93262190239e-39
0.0125994231063 -0.0913458175208 0.851 7.6602260812e-39
0.0141743509946 -0.0913458175208 0.851 7.75382861472e-39
0.0157492788829 -0.0913458175208 0.851 8.39564012696e-39
0.0173242067712 -0.0913458175208 0.851 8.02863585526e-39
0.0188991346595 -0.0913458175208 0.851 3.60073169238e-39
0.0204740625478 -0.0913458175208 0.851 8.65886843829e-39
0.0219971714221 -0.0911311387487 0.849 2.3506542117e-38
0.0235683979523 -0.0911311387487 0.849 2.350800227e-38
0.0251988462126 -0.0913458175208 0.851 2.3490710247e-38
0.0267737741009 -0.0913458175208 0.851 2.35011359075e-38
0.0283487019892 -0.0913458175208 0.851 1.71312801029e-38
0.0299236298775 -0.0913458175208 0.851 2.35097987346e-38
0.0314985577658 -0.0913458175208 0.851 2.35097608996e-38
0.0330734856541 -0.0913458175208 0.851 2.35036596461e-38
0.0346484135424 -0.0913458175208 0.851 2.35029323722e-38
0.0362233414307 -0.0913458175208 0.851 2.35032840981e-38
0.037798269319 -0.0913458175208 0.851 2.3503621811e-38
0.0393731972073 -0.0913458175208 0.851 2.35069148624e-38
0.0408518897839 -0.0911311387487 0.849 2.35097566957e-38
0.0424231163141 -0.0911311387487 0.849 2.35065070845e-38
0.0439943428442 -0.0911311387487 0.849 2.350438692e-38
0.0455655693744 -0.0911311387487 0.849 2.3505471525e-38
0.0471367959045 -0.0911311387487 0.849 2.35065659391e-38
0.0487080224347 -0.0911311387487 0.849 2.35097735113e-38
0.0502792489648 -0.0911311387487 0.849 2.35068812312e-38
0.051850475495 -0.0911311387487 0.849 2.35058358626e-38
0.0534217020251 -0.0911311387487 0.849 2.35098183528e-38
0.0549929285553 -0.0911311387487 0.849 2.35083469894e-38
0.0565641550854 -0.0911311387487 0.849 2.35098155502e-38
0.0581353816156 -0.0911311387487 0.849 2.35083399829e-38
0.0597066081457 -0.0911311387487 0.849 6.42849173755e-39
0.0612778346759 -0.0911311387487 0.849 2.35097931294e-38
-0.00475254385092 -0.0902983331674 0.856 2.35011345062e-38
-0.00316836256728 -0.0902983331674 0.856 2.35011541244e-38
-0.0015804799255 -0.0900873557534 0.854 1.79578724359e-38
0.0 -0.0900873557534 0.854 2.34877703228e-38
0.0015804799255 -0.0900873557534 0.854 3.03057137321e-39
0.003160959851 -0.0900873557534 0.854 1.75251290493e-39
0.00472478366487 -0.0897708896325 0.851 1.00486272098e-38
0.00629971155316 -0.0897708896325 0.851 2.11804301065e-39
0.00787463944145 -0.0897708896325 0.851 1.54871436212e-38
0.00944956732974 -0.0897708896325 0.851 1.53866060616e-38
0.011024495218 -0.0897708896325 0.851 9.21204221747e-39
0.0125994231063 -0.0897708896325 0.851 8.30379622302e-39
0.0141743509946 -0.0897708896325 0.851 8.30414654763e-39
0.0157492788829 -0.0897708896325 0.851 8.12048116051e-39
0.0172834918317 -0.0895599122186 0.849 7.75240909938e-39
0.0188547183618 -0.0895599122186 0.849 7.19780039057e-39
0.020425944892 -0.0895599122186 0.849 3.92363570011e-44
0.0219971714221 -0.0895599122186 0.849 2.3500433857e-38
0.0235683979523 -0.0895599122186 0.849 2.3509795932e-38
0.0251396244824 -0.0895599122186 0.849 2.26638180361e-38
0.0267108510126 -0.0895599122186 0.849 2.34979157237e-38
0.0283487019892 -0.0897708896325 0.851 1.46470932178e-38
0.0299236298775 -0.0897708896325 0.851 2.35096319801e-38
0.0314985577658 -0.0897708896325 0.851 2.35083553972e-38
0.0330734856541 -0.0897708896325 0.851 2.35040562135e-38
0.0346484135424 -0.0897708896325 0.851 2.35025848501e-38
0.0362233414307 -0.0897708896325 0.851 2.35047260342e-38
0.0377094367236 -0.0895599122186 0.849 2.35032854994e-38
0.0392806632538 -0.0895599122186 0.849 2.35058246522e-38
0.0408518897839 -0.0895599122186 0.849 2.35036554422e-38
0.0424231163141 -0.0895599122186 0.849 2.35043813148e-38
0.0439943428442 -0.0895599122186 0.849 2.35058232509e-38
0.0455655693744 -0.0895599122186 0.849 2.35025848501e-38
0.0471367959045 -0.0895599122186 0.849 2.35069288754e-38
0.0487080224347 -0.0895599122186 0.849 2.35054701237e-38
0.0502792489648 -0.0895599122186 0.849 2.35054406964e-38
0.051850475495 -0.0895599122186 0.849 2.35080008687e-38
0.0534217020251 -0.0895599122186 0.849 2.35097973333e-38
0.0549929285553 -0.0895599122186 0.849 2.35097945307e-38
0.0564309061924 -0.0893489348046 0.847 2.35098351684e-38
0.0579984313644 -0.0893489348046 0.847 2.35098169515e-38
0.0595659565364 -0.0893489348046 0.847 2.84697464972e-39
-0.003160959851 -0.0885068758279 0.854 2.35025596268e-38
-0.0015804799255 -0.0885068758279 0.854 1.94344668706e-38
0.0 -0.0885068758279 0.854 2.16298601552e-38
0.0015804799255 -0.0885068758279 0.854 1.8881295894e-38
0.00314985577658 -0.0881959617442 0.851 3.6734394645e-39
0.00472478366487 -0.0881959617442 0.851 4.34226240594e-39
0.00629971155316 -0.0881959617442 0.851 3.51431081349e-39
0.00787463944145 -0.0881959617442 0.851 6.27010157083e-39
0.00944956732974 -0.0881959617442 0.851 7.00985683924e-39
0.011024495218 -0.0881959617442 0.851 7.10633343591e-39
0.0125698122412 -0.0879886856884 0.849 6.82686968057e-39
0.0141410387714 -0.0879886856884 0.849 9.1285220264e-39
0.0157122653015 -0.0879886856884 0.849 7.56370884687e-39
0.0172834918317 -0.0879886856884 0.849 8.48854201125e-39
0.0188103020641 -0.0877814096326 0.847 8.4895985903e-39
0.0203778272361 -0.0877814096326 0.847 7.70714155379e-44
0.0219453524082 -0.0877814096326 0.847 2.35019935022e-38
0.0235128775802 -0.0877814096326 0.847 2.35097342749e-38
0.0250804027522 -0.0877814096326 0.847 2.3505443499e-38
0.0266479279242 -0.0877814096326 0.847 1.92454443194e-38
0.0282820775427 -0.0879886856884 0.849 2.08181496119e-38
0.0298533040729 -0.0879886856884 0.849 2.33949160826e-38
0.031424530603 -0.0879886856884 0.849 2.3509424588e-38
0.0330734856541 -0.0881959617442 0.851 2.35036820668e-38
0.0345669836633 -0.0879886856884 0.849 2.35039847473e-38
0.0361382101935 -0.0879886856884 0.849 2.35058022314e-38
0.0377094367236 -0.0879886856884 0.849 2.34972066666e-38
0.0392806632538 -0.0879886856884 0.849 2.35047736783e-38
0.0407556544723 -0.0877814096326 0.847 2.35011653348e-38
0.0423231796443 -0.0877814096326 0.847 2.3504049207e-38
0.0438907048163 -0.0877814096326 0.847 2.35036750604e-38
0.0454582299883 -0.0877814096326 0.847 2.35076085051e-38
0.0470257551603 -0.0877814096326 0.847 2.35054617159e-38
0.0485932803324 -0.0877814096326 0.847 2.35044163472e-38
0.0501608055044 -0.0877814096326 0.847 2.35091205062e-38
0.0517283306764 -0.0877814096326 0.847 2.3505471525e-38
0.0532958558484 -0.0877814096326 0.847 2.35083469894e-38
0.0548633810204 -0.0877814096326 0.847 2.35047680732e-38
0.0564309061924 -0.0877814096326 0.847 2.35097903269e-38
0.0579984313644 -0.0877814096326 0.847 2.3509823958e-38
0.0595659565364 -0.0877814096326 0.847 4.04434915502e-39
0.060989128741 -0.0875741335768 0.845 2.34965536616e-38
-0.003160959851 -0.0869263959024 0.854 2.35025876527e-38
-0.0015804799255 -0.0869263959024 0.854 2.21999994548e-38
0.0 -0.0869263959024 0.854 1.28788703558e-38
0.0015804799255 -0.0869263959024 0.854 2.34896522666e-38
0.00314985577658 -0.086621033856 0.851 2.75507048993e-39
0.00472478366487 -0.086621033856 0.851 4.15823688511e-39
0.00629971155316 -0.086621033856 0.851 5.26421590198e-39
0.00787463944145 -0.086621033856 0.851 4.71105473448e-39
0.0094273591809 -0.0864174591583 0.849 1.39240302167e-39
0.0109985857111 -0.0864174591583 0.849 5.98922110275e-39
0.0125698122412 -0.0864174591583 0.849 1.56471102487e-38
0.0141410387714 -0.0864174591583 0.849 2.34933292738e-38
0.0157122653015 -0.0864174591583 0.849 9.1158458805e-39
0.0172834918317 -0.0864174591583 0.849 7.00800152007e-39
0.0188103020641 -0.0862138844606 0.847 8.58109076833e-39
0.0203778272361 -0.0862138844606 0.847 6.16571324303e-44
0.0219453524082 -0.0862138844606 0.847 2.31091534907e-38
0.0235128775802 -0.0862138844606 0.847 2.35097847217e-38
0.0250804027522 -0.0862138844606 0.847 2.21207181916e-38
0.0266479279242 -0.0862138844606 0.847 2.31061421003e-38
0.0282154530962 -0.0862138844606 0.847 1.74900012994e-38
0.0297829782682 -0.0862138844606 0.847 1.99724267523e-38
0.0313505034402 -0.0862138844606 0.847 2.35097763139e-38
0.0329957571332 -0.0864174591583 0.849 2.35072806013e-38
0.0345669836633 -0.0864174591583 0.849 2.35039959577e-38
0.0360530789563 -0.0862138844606 0.847 2.35022050983e-38
0.0376206041283 -0.0862138844606 0.847 2.35044191498e-38
0.0391881293003 -0.0862138844606 0.847 2.35079714414e-38
0.0407556544723 -0.0862138844606 0.847 2.35018729905e-38
0.0423231796443 -0.0862138844606 0.847 2.35047708758e-38
0.0438907048163 -0.0862138844606 0.847 2.35018561749e-38
0.0454582299883 -0.0862138844606 0.847 2.35040281876e-38
0.0470257551603 -0.0862138844606 0.847 2.35036456331e-38
0.0485932803324 -0.0862138844606 0.847 2.35058246522e-38
0.0501608055044 -0.0862138844606 0.847 2.35075860844e-38
0.0517283306764 -0.0862138844606 0.847 2.35036512383e-38
0.0532958558484 -0.0862138844606 0.847 2.35072820026e-38
0.0548633810204 -0.0862138844606 0.847 2.35098211554e-38
0.0562976572994 -0.086010309763 0.845 2.35098183528e-38
0.0578614811133 -0.086010309763 0.845 2.35098407736e-38
0.0594253049271 -0.086010309763 0.845 2.19399633014e-38
0.060989128741 -0.086010309763 0.845 2.00476260331e-38
-0.003160959851 -0.0853459159769 0.854 2.3502241532e-38
-0.0015804799255 -0.0853459159769 0.854 2.34921647948e-38
0.0 -0.0853459159769 0.854 1.38948033347e-38
0.00157492788829 -0.0850461059677 0.851 2.34899941834e-38
0.00314985577658 -0.0850461059677 0.851 4.6857626985e-39
0.00472478366487 -0.0850461059677 0.851 3.40737492508e-39
0.00629971155316 -0.0850461059677 0.851 6.5552882291e-40
0.00787463944145 -0.0850461059677 0.851 8.54792063238e-44
0.0094273591809 -0.0848462326281 0.849 1.93405952877e-38
0.0109985857111 -0.0848462326281 0.849 2.35097735113e-38
0.0125698122412 -0.0848462326281 0.849 2.35098071424e-38
0.0141410387714 -0.0848462326281 0.849 2.35098225567e-38
0.0156752517201 -0.0846463592886 0.847 2.35094456074e-38
0.0172427768921 -0.0846463592886 0.847 4.31668870896e-39
0.0188103020641 -0.0846463592886 0.847 7.47727956019e-39
0.0203297095803 -0.0844464859491 0.845 6.55027858709e-39
0.0218935333942 -0.0844464859491 0.845 2.38220738935e-44
0.0234573572081 -0.0844464859491 0.845 2.35000541051e-38
0.025021181022 -0.0844464859491 0.845 2.35097973333e-38
0.0265850048358 -0.0844464859491 0.845 2.35097805178e-38
0.0282154530962 -0.0846463592886 0.847 2.35097735113e-38
0.0297829782682 -0.0846463592886 0.847 2.35094147789e-38
0.0313505034402 -0.0846463592886 0.847 2.35097637022e-38
0.0329180286122 -0.0846463592886 0.847 2.35065295053e-38
0.0344855537843 -0.0846463592886 0.847 2.35043813148e-38
0.0360530789563 -0.0846463592886 0.847 2.35014834296e-38
0.0376206041283 -0.0846463592886 0.847 2.3502950589e-38
0.0391881293003 -0.0846463592886 0.847 2.35061763781e-38
0.0406594191607 -0.0844464859491 0.845 2.35068826325e-38
0.0422232429745 -0.0844464859491 0.845 2.35044219524e-38
0.0437870667884 -0.0844464859491 0.845 2.35079826518e-38
0.0454582299883 -0.0846463592886 0.847 2.3505847073e-38
0.0470257551603 -0.0846463592886 0.847 2.35097805178e-38
0.04847853823 -0.0844464859491 0.845 2.35076211168e-38
0.0500423620439 -0.0844464859491 0.845 2.35098057411e-38
0.0516061858578 -0.0844464859491 0.845 2.35098001359e-38
0.0531700096716 -0.0844464859491 0.845 2.35090560465e-38
0.0547338334855 -0.0844464859491 0.845 2.35097623009e-38
0.0562976572994 -0.0844464859491 0.845 2.35072259507e-38
0.0578614811133 -0.0844464859491 0.845 2.14713620885e-38
0.0594253049271 -0.0844464859491 0.845 1.85149964754e-38
0.060989128741 -0.0844464859491 0.845 5.98222722211e-39
0.0625529525549 -0.0844464859491 0.845 2.35098421749e-38
-0.0015804799255 -0.0837654360515 0.854 2.34961024435e-38
0.0 -0.0837654360515 0.854 1.74864994545e-38
0.00157492788829 -0.0834711780794 0.851 2.25565402309e-38
0.00314985577658 -0.0834711780794 0.851 1.83266773761e-38
0.00472478366487 -0.0834711780794 0.851 3.30610028246e-39
0.00629971155316 -0.0834711780794 0.851 8.92402914021e-39
0.00787463944145 -0.0834711780794 0.851 2.35018589775e-38
0.0094273591809 -0.083275006098 0.849 2.35076337285e-38
0.0109726762041 -0.0830788341166 0.847 2.3126958389e-38
0.0125402013761 -0.0830788341166 0.847 2.3503997359e-38
0.0141077265481 -0.0830788341166 0.847 2.34931737297e-38
0.0156382381387 -0.0828826621352 0.845 2.35022345255e-38
0.0172020619526 -0.0828826621352 0.845 1.42690901545e-38
0.0187658857665 -0.0828826621352 0.845 8.00818670677e-39
0.0203297095803 -0.0828826621352 0.845 6.82902067371e-39
0.0218935333942 -0.0828826621352 0.845 8.40779078595e-44
0.0234573572081 -0.0828826621352 0.845 2.35065743469e-38
0.025021181022 -0.0828826621352 0.845 2.35097945307e-38
0.0265850048358 -0.0828826621352 0.845 2.35098071424e-38
0.0281488286497 -0.0828826621352 0.845 2.34985995573e-38
0.0297126524636 -0.0828826621352 0.845 2.35032826968e-38
0.0313505034402 -0.0830788341166 0.847 2.35098141489e-38
0.0329180286122 -0.0830788341166 0.847 2.35033205318e-38
0.0344855537843 -0.0830788341166 0.847 2.35058260535e-38
0.0359679477191 -0.0828826621352 0.845 2.35007827803e-38
0.0375317715329 -0.0828826621352 0.845 2.35040141746e-38
0.0390955953468 -0.0828826621352 0.845 2.35029491877e-38
0.0406594191607 -0.0828826621352 0.845 2.35054491042e-38
0.0422232429745 -0.0828826621352 0.845 2.35069190663e-38
0.0437870667884 -0.0828826621352 0.845 2.35054925445e-38
0.0453508906023 -0.0828826621352 0.845 2.35083666076e-38
0.0469147144162 -0.0828826621352 0.845 2.35098141489e-38
0.04847853823 -0.0828826621352 0.845 2.35050777601e-38
0.0500423620439 -0.0828826621352 0.845 2.17446923604e-38
0.0516061858578 -0.0828826621352 0.845 1.50995921101e-38
0.0531700096716 -0.0828826621352 0.845 7.0767800513e-39
0.0547338334855 -0.0828826621352 0.845 4.68369998716e-39
0.0562976572994 -0.0828826621352 0.845 4.68373081573e-39
0.0578614811133 -0.0828826621352 0.845 1.39724871176e-38
0.0594253049271 -0.0828826621352 0.845 1.64767910435e-38
0.060989128741 -0.0828826621352 0.845 1.2708601382e-38
0.0625529525549 -0.0828826621352 0.845 2.35023438268e-38
0.0 -0.0818962501911 0.851 1.84066606898e-38
0.00157492788829 -0.0818962501911 0.851 1.7485783391e-38
0.00314985577658 -0.0818962501911 0.851 2.34918060624e-38
0.00471367959045 -0.0817037795678 0.849 3.76530298663e-39
0.0062849061206 -0.0817037795678 0.849 2.34944601217e-38
0.00785613265075 -0.0817037795678 0.849 2.34968353225e-38
0.00940515103207 -0.0815113089446 0.847 2.34964962083e-38
0.0109726762041 -0.0815113089446 0.847 2.35051085887e-38
0.012510590511 -0.0813188383213 0.845 2.2744116642e-38
0.0140744143248 -0.0813188383213 0.845 2.3509851984e-38
0.0156382381387 -0.0813188383213 0.845 2.35098617931e-38
0.0172020619526 -0.0813188383213 0.845 2.35097805178e-38
0.0187658857665 -0.0813188383213 0.845 1.83670992316e-39
0.0203297095803 -0.0813188383213 0.845 7.38795238828e-39
0.0218935333942 -0.0813188383213 0.845 2.66246708222e-44
0.0234573572081 -0.0813188383213 0.845 2.34984061781e-38
0.025021181022 -0.0813188383213 0.845 2.35098085437e-38
0.0265850048358 -0.0813188383213 0.845 2.35087015179e-38
0.0281488286497 -0.0813188383213 0.845 2.34904622171e-38
0.0297126524636 -0.0813188383213 0.845 2.35097594983e-38
0.0312764762774 -0.0813188383213 0.845 2.35098295632e-38
0.0328403000913 -0.0813188383213 0.845 2.35098365697e-38
0.0344041239052 -0.0813188383213 0.845 2.35058036327e-38
0.0359679477191 -0.0813188383213 0.845 2.3509396562e-38
0.0375317715329 -0.0813188383213 0.845 2.35061707729e-38
0.0390955953468 -0.0813188383213 0.845 2.35076225181e-38
0.0406594191607 -0.0813188383213 0.845 2.35097889256e-38
0.0422232429745 -0.0813188383213 0.845 2.35003960219e-38
0.0437870667884 -0.0813188383213 0.845 2.04528773451e-38
0.0453508906023 -0.0813188383213 0.845 1.26035152076e-38
0.0469147144162 -0.0813188383213 0.845 6.6122285909e-39
0.04847853823 -0.0813188383213 0.845 2.75512233798e-39
0.0500423620439 -0.0813188383213 0.845 9.46275553222e-39
0.0516061858578 -0.0813188383213 0.845 1.57331303563e-38
0.0531700096716 -0.0813188383213 0.845 2.25656038294e-38
0.0547338334855 -0.0813188383213 0.845 2.35097454853e-38
0.0562976572994 -0.0813188383213 0.845 2.35097538931e-38
0.0578614811133 -0.0813188383213 0.845 2.35098085437e-38
0.0594253049271 -0.0813188383213 0.845 2.35098155502e-38
0.060989128741 -0.0813188383213 0.845 2.35098197541e-38
0.0625529525549 -0.0813188383213 0.845 2.28590287213e-38
0.063965020685 -0.0811263676981 0.843 2.3508044309e-38
0.0 -0.0803213223028 0.851 1.95137341208e-38
0.00157492788829 -0.0803213223028 0.851 1.80425851319e-38
0.0031424530603 -0.0801325530377 0.849 2.34913898767e-38
0.00471367959045 -0.0801325530377 0.849 3.21424236553e-39
0.0062849061206 -0.0801325530377 0.849 1.09615689554e-38
0.00783762586006 -0.0799437837726 0.847 2.35011008751e-38
0.00940515103207 -0.0799437837726 0.847 2.3497203864e-38
0.0109467666971 -0.0797550145075 0.845 2.34882187383e-38
0.012510590511 -0.0797550145075 0.845 2.34893173563e-38
0.0140744143248 -0.0797550145075 0.845 2.35031916124e-38
0.0156012245573 -0.0795662452424 0.843 2.35098281619e-38
0.0171613470131 -0.0795662452424 0.843 2.35097244658e-38
0.0187658857665 -0.0797550145075 0.845 2.05419634937e-38
0.0202815919245 -0.0795662452424 0.843 8.45406586514e-39
0.0218417143803 -0.0795662452424 0.843 5.45665622008e-42
0.023401836836 -0.0795662452424 0.843 1.32639233517e-38
0.0249619592917 -0.0795662452424 0.843 2.35094596204e-38
0.0265850048358 -0.0797550145075 0.845 2.35098365697e-38
0.0281488286497 -0.0797550145075 0.845 2.34954031955e-38
0.0297126524636 -0.0797550145075 0.845 2.35097763139e-38
0.0312764762774 -0.0797550145075 0.845 2.35069120598e-38
0.0328403000913 -0.0797550145075 0.845 2.35097987346e-38
0.0344041239052 -0.0797550145075 0.845 2.35097931294e-38
0.0359679477191 -0.0797550145075 0.845 2.34971576212e-38
0.0375317715329 -0.0797550145075 0.845 1.86997352572e-38
0.0390955953468 -0.0797550145075 0.845 1.14014071161e-38
0.0406594191607 -0.0797550145075 0.845 4.49998555459e-39
0.0422232429745 -0.0797550145075 0.845 1.92859306347e-39
0.0437870667884 -0.0797550145075 0.845 1.11169365213e-38
0.0453508906023 -0.0797550145075 0.845 1.93262782213e-38
0.0469147144162 -0.0797550145075 0.845 2.34925333363e-38
0.0483637961277 -0.0795662452424 0.843 2.35022541437e-38
0.0499239185834 -0.0795662452424 0.843 2.35097903269e-38
0.0514840410392 -0.0795662452424 0.843 2.35097833204e-38
0.0530441634949 -0.0795662452424 0.843 2.35097931294e-38
0.0546042859506 -0.0795662452424 0.843 2.350977211e-38
0.0561644084064 -0.0795662452424 0.843 2.3508363805e-38
0.0577245308621 -0.0795662452424 0.843 2.35098421749e-38
0.0592846533178 -0.0795662452424 0.843 2.35098043398e-38
0.0608447757736 -0.0795662452424 0.843 2.35097875243e-38
0.0624048982293 -0.0795662452424 0.843 2.35097973333e-38
0.063965020685 -0.0795662452424 0.843 2.3506570143e-38
0.0 -0.0785613265075 0.849 2.03452772412e-38
0.00157122653015 -0.0785613265075 0.849 1.27852958483e-38
0.0031424530603 -0.0785613265075 0.849 2.34902940613e-38
0.00471367959045 -0.0785613265075 0.849 2.09052781465e-38
0.00627010068805 -0.0783762586006 0.847 3.58159415925e-39
0.00783762586006 -0.0783762586006 0.847 2.33132091718e-38
0.00940515103207 -0.0783762586006 0.847 2.34932199725e-38
0.0109467666971 -0.0781911906936 0.845 2.0258507439e-38
0.012510590511 -0.0781911906936 0.845 2.35091233088e-38
0.0140744143248 -0.0781911906936 0.845 1.87073064728e-38
0.0156012245573 -0.0780061227866 0.843 2.34986906417e-38
0.0171613470131 -0.0780061227866 0.843 2.34986724248e-38
0.0187214694688 -0.0780061227866 0.843 2.35097889256e-38
0.0202815919245 -0.0780061227866 0.843 4.40846254799e-39
0.0218417143803 -0.0780061227866 0.843 5.53831969069e-39
0.023401836836 -0.0780061227866 0.843 1.82168800362e-44
0.0249619592917 -0.0780061227866 0.843 2.35036049954e-38
0.0265220817475 -0.0780061227866 0.843 2.3509786123e-38
0.0281488286497 -0.0781911906936 0.845 1.92485902345e-38
0.0297126524636 -0.0781911906936 0.845 1.62879590689e-38
0.0312764762774 -0.0781911906936 0.845 1.39688297286e-38
0.0328403000913 -0.0781911906936 0.845 2.35096824269e-38
0.0344041239052 -0.0781911906936 0.845 2.33228711247e-38
0.0359679477191 -0.0781911906936 0.845 5.41833771357e-39
0.0374429389376 -0.0780061227866 0.843 1.13985484672e-38
0.0390030613933 -0.0780061227866 0.843 1.93298515324e-38
0.040563183849 -0.0780061227866 0.843 2.34971730355e-38
0.0421233063048 -0.0780061227866 0.843 2.350583306e-38
0.0436834287605 -0.0780061227866 0.843 2.35043827161e-38
0.0452435512162 -0.0780061227866 0.843 2.35040351941e-38
0.046803673672 -0.0780061227866 0.843 2.35065239001e-38
0.0483637961277 -0.0780061227866 0.843 2.35054477029e-38
0.0499239185834 -0.0780061227866 0.843 2.35076491428e-38
0.0514840410392 -0.0780061227866 0.843 2.35036470344e-38
0.0530441634949 -0.0780061227866 0.843 2.35036652513e-38
0.0546042859506 -0.0780061227866 0.843 2.35061917924e-38
0.0561644084064 -0.0780061227866 0.843 2.35079896583e-38
0.0577245308621 -0.0780061227866 0.843 2.35051254043e-38
0.0592846533178 -0.0780061227866 0.843 2.35098085437e-38
0.0608447757736 -0.0780061227866 0.843 2.35098183528e-38
0.0624048982293 -0.0780061227866 0.843 2.35097665048e-38
0.063965020685 -0.0780061227866 0.843 2.35065435183e-38
0.0655251431408 -0.0780061227866 0.843 2.35098225567e-38
0.00314985577658 -0.0771714665262 0.851 2.22893294293e-38
0.00471367959045 -0.0769900999774 0.849 2.34867655918e-38
0.00627010068805 -0.0768087334286 0.847 1.744874427e-39
0.00783762586006 -0.0768087334286 0.847 5.184804318e-44
0.00938294288323 -0.0766273668797 0.845 2.35026268891e-38
0.0109467666971 -0.0766273668797 0.845 1.85938713621e-38
0.012510590511 -0.0766273668797 0.845 2.35018771944e-38
0.0140744143248 -0.0766273668797 0.845 2.35097791165e-38
0.0156012245573 -0.0764460003309 0.843 2.1740436617e-38
0.0171613470131 -0.0764460003309 0.843 2.35098197541e-38
0.0187214694688 -0.0764460003309 0.843 2.35098001359e-38
0.0202815919245 -0.0764460003309 0.843 2.35065631365e-38
0.0218417143803 -0.0764460003309 0.843 3.94897397894e-39
0.023401836836 -0.0764460003309 0.843 6.72623262876e-44
0.0249619592917 -0.0764460003309 0.843 2.35037871642e-38
0.0265220817475 -0.0764460003309 0.843 2.350977211e-38
0.0280822042032 -0.0764460003309 0.843 2.35098015372e-38
0.0296423266589 -0.0764460003309 0.843 2.35057938236e-38
0.0312024491147 -0.0764460003309 0.843 2.35098197541e-38
0.0328403000913 -0.0766273668797 0.845 2.35098071424e-38
0.0344041239052 -0.0766273668797 0.845 2.35098113463e-38
0.0358828164819 -0.0764460003309 0.843 2.35036400279e-38
0.0374429389376 -0.0764460003309 0.843 2.35097945307e-38
0.0390030613933 -0.0764460003309 0.843 2.35076505441e-38
0.040563183849 -0.0764460003309 0.843 2.35025806463e-38
0.0421233063048 -0.0764460003309 0.843 2.35014890347e-38
0.0436834287605 -0.0764460003309 0.843 2.35018267477e-38
0.0452435512162 -0.0764460003309 0.843 2.35011317036e-38
0.046803673672 -0.0764460003309 0.843 2.35047358433e-38
0.0482490540254 -0.0762646337821 0.841 2.35011331049e-38
0.049805475123 -0.0762646337821 0.841 2.35029463852e-38
0.0513618962206 -0.0762646337821 0.841 2.3504011372e-38
0.0529183173182 -0.0762646337821 0.841 2.35044037356e-38
0.0544747384158 -0.0762646337821 0.841 2.35058302574e-38
0.0560311595134 -0.0762646337821 0.841 2.3509786123e-38
0.057587580611 -0.0762646337821 0.841 2.35097763139e-38
0.0591440017085 -0.0762646337821 0.841 2.35051296082e-38
0.0607004228061 -0.0762646337821 0.841 2.35098211554e-38
0.0622568439037 -0.0762646337821 0.841 2.35098015372e-38
0.0638132650013 -0.0762646337821 0.841 2.35043967291e-38
0.00157122653015 -0.0754188734472 0.849 9.4708942737e-39
0.0031424530603 -0.0754188734472 0.849 2.14578087297e-38
0.00470257551603 -0.0752412082565 0.847 2.3117234779e-38
0.00627010068805 -0.0752412082565 0.847 1.482541125e-38
0.00783762586006 -0.0752412082565 0.847 1.28575439945e-39
0.00938294288323 -0.0750635430659 0.845 1.82335807113e-38
0.0109467666971 -0.0750635430659 0.845 2.34932998465e-38
0.012510590511 -0.0750635430659 0.845 1.90639075047e-38
0.0140411021016 -0.0748858778752 0.843 2.35098687996e-38
0.0156012245573 -0.0748858778752 0.843 2.23058325214e-38
0.0171613470131 -0.0748858778752 0.843 2.35015086529e-38
0.0187214694688 -0.0748858778752 0.843 1.88856090907e-38
0.0202815919245 -0.0748858778752 0.843 2.35091064932e-38
0.0218417143803 -0.0748858778752 0.843 9.47415929912e-39
0.023401836836 -0.0748858778752 0.843 1.16307772539e-43
0.0249619592917 -0.0748858778752 0.843 2.34930209881e-38
0.0265220817475 -0.0748858778752 0.843 2.35098281619e-38
0.0280822042032 -0.0748858778752 0.843 2.35098351684e-38
0.0296423266589 -0.0748858778752 0.843 2.35040001616e-38
0.0312024491147 -0.0748858778752 0.843 2.20950464038e-38
0.0327625715704 -0.0748858778752 0.843 2.34679153248e-38
0.0343226940261 -0.0748858778752 0.843 2.35098407736e-38
0.0358828164819 -0.0748858778752 0.843 2.3509758097e-38
0.0374429389376 -0.0748858778752 0.843 2.35040071681e-38
0.0390030613933 -0.0748858778752 0.843 2.34993660676e-38
0.040563183849 -0.0748858778752 0.843 2.34975359718e-38
0.0421233063048 -0.0748858778752 0.843 2.34982730548e-38
0.0436834287605 -0.0748858778752 0.843 2.35018533723e-38
0.0451362118302 -0.0747082126845 0.841 2.35015128568e-38
0.0466926329278 -0.0747082126845 0.841 2.35061679703e-38
0.0482490540254 -0.0747082126845 0.841 2.35011359075e-38
0.0496870316625 -0.0745305474938 0.839 2.35000597103e-38
0.051239751402 -0.0745305474938 0.839 2.350438692e-38
0.0529183173182 -0.0747082126845 0.841 2.35011260984e-38
0.0544747384158 -0.0747082126845 0.841 2.35072203455e-38
0.0560311595134 -0.0747082126845 0.841 2.35043743083e-38
0.057587580611 -0.0747082126845 0.841 2.35047582641e-38
0.0591440017085 -0.0747082126845 0.841 2.35094778373e-38
0.0607004228061 -0.0747082126845 0.841 2.35098113463e-38
0.0622568439037 -0.0747082126845 0.841 2.35098113463e-38
0.0638132650013 -0.0747082126845 0.841 2.35083343777e-38
0.00312764762774 -0.073499719252 0.845 2.16414587025e-38
0.00469147144162 -0.073499719252 0.845 2.19179629155e-38
0.00627010068805 -0.0736736830845 0.847 2.34874746488e-38
0.00783762586006 -0.0736736830845 0.847 3.39798202147e-39
0.00938294288323 -0.073499719252 0.845 7.84727140022e-44
0.0109467666971 -0.073499719252 0.845 2.35001185649e-38
0.0124809796459 -0.0733257554194 0.843 2.35000849337e-38
0.0140411021016 -0.0733257554194 0.843 2.35079756453e-38
0.0156012245573 -0.0733257554194 0.843 2.35097945307e-38
0.0171613470131 -0.0733257554194 0.843 1.91600127572e-38
0.0187214694688 -0.0733257554194 0.843 2.34957689344e-38
0.0202815919245 -0.0733257554194 0.843 2.34921830116e-38
0.0218417143803 -0.0733257554194 0.843 2.35098421749e-38
0.023401836836 -0.0733257554194 0.843 1.65303893084e-39
0.0249619592917 -0.0733257554194 0.843 7.70714155379e-44
0.0265220817475 -0.0733257554194 0.843 2.35097791165e-38
0.0280822042032 -0.0733257554194 0.843 2.35098141489e-38
0.0296423266589 -0.0733257554194 0.843 1.86164827141e-38
0.0312024491147 -0.0733257554194 0.843 2.34910801898e-38
0.0327625715704 -0.0733257554194 0.843 2.34891982459e-38
0.0343226940261 -0.0733257554194 0.843 2.35093152867e-38
0.0358828164819 -0.0733257554194 0.843 2.3502603067e-38
0.0374429389376 -0.0733257554194 0.843 2.35033093215e-38
0.0390030613933 -0.0733257554194 0.843 2.35022331242e-38
0.040563183849 -0.0733257554194 0.843 2.35014792257e-38
0.042023369635 -0.0731517915869 0.841 2.349900173e-38
0.0434761527047 -0.0729778277543 0.839 2.35033093215e-38
0.0449215330581 -0.0728038639218 0.837 2.35047176264e-38
0.0462484699511 -0.0724559362567 0.833 2.34989821118e-38
0.0477900856161 -0.0724559362567 0.833 2.34950234436e-38
0.0493317012812 -0.0724559362567 0.833 2.3503326137e-38
0.0508733169462 -0.0724559362567 0.833 2.35054729263e-38
0.052540778788 -0.0726299000892 0.835 2.35011359075e-38
0.0543451908809 -0.0729778277543 0.839 2.35025918566e-38
0.0558979106203 -0.0729778277543 0.839 2.34997219974e-38
0.0574506303598 -0.0729778277543 0.839 2.35054603146e-38
0.0590033500993 -0.0729778277543 0.839 2.35040323915e-38
0.0605560698387 -0.0729778277543 0.839 2.3509795932e-38
0.0621087895782 -0.0729778277543 0.839 2.35098407736e-38
0.0636615093176 -0.0729778277543 0.839 2.35098169515e-38
0.0650587720152 -0.0728038639218 0.837 2.35062324301e-38
0.00312764762774 -0.0719358954381 0.845 1.85042863513e-38
0.00469147144162 -0.0719358954381 0.845 2.07176526899e-38
0.00625529525549 -0.0719358954381 0.845 2.34899955847e-38
0.00781911906936 -0.0719358954381 0.845 1.65303893084e-39
0.00938294288323 -0.0719358954381 0.845 1.20725365948e-39
0.0109467666971 -0.0719358954381 0.845 7.42688186092e-44
0.0124809796459 -0.0717656329637 0.843 2.35026577177e-38
0.0140411021016 -0.0717656329637 0.843 2.35097637022e-38
0.0156012245573 -0.0717656329637 0.843 2.35098085437e-38
0.0171613470131 -0.0717656329637 0.843 2.3504748455e-38
0.0187214694688 -0.0717656329637 0.843 2.35098043398e-38
0.0202334742687 -0.0715953704893 0.841 2.35098001359e-38
0.0217898953663 -0.0715953704893 0.841 2.35098141489e-38
0.0233463164639 -0.0715953704893 0.841 7.64282195427e-39
0.0249027375615 -0.0715953704893 0.841 4.48415508584e-44
0.0264591586591 -0.0715953704893 0.841 2.35097875243e-38
0.0280155797567 -0.0715953704893 0.841 2.35098001359e-38
0.0295720008543 -0.0715953704893 0.841 1.54790273005e-38
0.0312024491147 -0.0717656329637 0.843 2.34578946395e-38
0.0327625715704 -0.0717656329637 0.843 2.34860172984e-38
0.0343226940261 -0.0717656329637 0.843 2.35098043398e-38
0.0358828164819 -0.0717656329637 0.843 2.35043911239e-38
0.0374429389376 -0.0717656329637 0.843 2.34982968768e-38
0.0390030613933 -0.0717656329637 0.843 2.35007883855e-38
0.040563183849 -0.0717656329637 0.843 2.35032700851e-38
0.0419234329653 -0.0714251080149 0.839 2.35029225631e-38
0.0433725146768 -0.0712548455405 0.837 2.35011401114e-38
0.0445995149 -0.0707440581172 0.831 2.34978933029e-38
0.0461374292069 -0.0707440581172 0.831 2.34968717563e-38
0.0476753435138 -0.0707440581172 0.831 2.35011331049e-38
0.0492132578207 -0.0707440581172 0.831 2.34989849144e-38
0.0507511721276 -0.0707440581172 0.831 2.35008037998e-38
0.0522890864345 -0.0707440581172 0.831 2.349683252e-38
0.0538270007414 -0.0707440581172 0.831 2.34950542722e-38
0.0557646617273 -0.0712548455405 0.837 2.34975471822e-38
0.0574506303598 -0.0714251080149 0.839 2.35018561749e-38
0.05886269849 -0.0712548455405 0.837 2.3500433857e-38
0.0604117168713 -0.0712548455405 0.837 2.35011681374e-38
0.0619607352526 -0.0712548455405 0.837 2.35086931102e-38
0.0635097536339 -0.0712548455405 0.837 2.35098393723e-38
0.0650587720152 -0.0712548455405 0.837 2.35048199212e-38
0.00313505034402 -0.0705386327405 0.847 1.94259021344e-38
0.00470257551603 -0.0705386327405 0.847 1.35246475427e-38
0.00625529525549 -0.0703720716242 0.845 2.34928598388e-38
0.00781911906936 -0.0703720716242 0.845 6.52892980498e-39
0.00938294288323 -0.0703720716242 0.845 5.06257605945e-39
0.0109208571901 -0.070205510508 0.843 4.02172659261e-43
0.0124809796459 -0.070205510508 0.843 2.04506114455e-38
0.0140411021016 -0.070205510508 0.843 2.35097623009e-38
0.0155642109759 -0.0700389493917 0.841 2.3509786123e-38
0.0171206320735 -0.0700389493917 0.841 2.35090588491e-38
0.0186770531711 -0.0700389493917 0.841 2.0085166819e-38
0.0202334742687 -0.0700389493917 0.841 1.05734569249e-38
0.0217898953663 -0.0700389493917 0.841 3.48985675399e-39
0.0233463164639 -0.0700389493917 0.841 5.17095668658e-39
0.0249027375615 -0.0700389493917 0.841 4.90454462514e-44
0.0264591586591 -0.0700389493917 0.841 2.35023522346e-38
0.0280155797567 -0.0700389493917 0.841 2.35097889256e-38
0.0295720008543 -0.0700389493917 0.841 2.08235348019e-38
0.0311284219519 -0.0700389493917 0.841 2.35097174593e-38
0.0326848430495 -0.0700389493917 0.841 2.35018954113e-38
0.0342412641471 -0.0700389493917 0.841 2.35097623009e-38
0.0357976852446 -0.0700389493917 0.841 2.35054883406e-38
0.0373541063422 -0.0700389493917 0.841 2.3509424588e-38
0.0389105274398 -0.0700389493917 0.841 2.35025876527e-38
0.0404669485374 -0.0700389493917 0.841 2.35011148881e-38
0.0418234962955 -0.0697058271592 0.837 2.35007589582e-38
0.0429579625652 -0.0690395826941 0.829 2.34942807554e-38
0.044492175514 -0.0690395826941 0.829 2.35011443153e-38
0.0460263884627 -0.0690395826941 0.829 2.35029365761e-38
0.0475606014115 -0.0690395826941 0.829 2.3504720429e-38
0.0490948143602 -0.0690395826941 0.829 2.35094021672e-38
0.050629027309 -0.0690395826941 0.829 2.35098057411e-38
0.0521632402577 -0.0690395826941 0.829 2.35083399829e-38
0.0536974532065 -0.0690395826941 0.829 2.35065449196e-38
0.0554981639413 -0.0693727049266 0.833 2.34986387937e-38
0.0571767298575 -0.0695392660429 0.835 2.34968115005e-38
0.05886269849 -0.0697058271592 0.837 2.34957451123e-38
0.0604117168713 -0.0697058271592 0.837 2.35007547544e-38
0.061812680927 -0.0695392660429 0.835 2.35029800163e-38
0.0633579979502 -0.0695392660429 0.835 2.35098253593e-38
0.0649033149734 -0.0695392660429 0.835 2.35098127476e-38
0.0664486319965 -0.0695392660429 0.835 2.35098127476e-38
0.00470257551603 -0.0689711075685 0.847 1.33438520148e-38
0.00625529525549 -0.0688082478104 0.845 2.34867796048e-38
0.00781911906936 -0.0688082478104 0.845 1.78660495514e-38
0.0093607347344 -0.0686453880522 0.843 4.59184627412e-39
0.0109208571901 -0.0686453880522 0.843 2.77529963456e-39
0.0124513687807 -0.0684825282941 0.841 8.12753109308e-44
0.0140077898783 -0.0684825282941 0.841 1.99910051674e-38
0.0155271973945 -0.068319668536 0.839 9.93416074341e-39
0.017079917134 -0.068319668536 0.839 3.49276865219e-39
0.0186770531711 -0.0684825282941 0.841 4.98549903872e-39
0.0201853566129 -0.068319668536 0.839 6.91978978174e-39
0.0217380763524 -0.068319668536 0.839 7.38184693088e-39
0.0232907960918 -0.068319668536 0.839 8.30162981559e-39
0.0248435158313 -0.068319668536 0.839 2.6755327891e-39
0.0263962355707 -0.068319668536 0.839 1.30738344125e-38
0.0279489553102 -0.068319668536 0.839 2.35083581998e-38
0.0295016750496 -0.068319668536 0.839 2.35097903269e-38
0.0310543947891 -0.068319668536 0.839 2.35097917282e-38
0.0326071145285 -0.068319668536 0.839 2.35087141296e-38
0.034159834268 -0.068319668536 0.839 2.35029225631e-38
0.0357125540074 -0.068319668536 0.839 2.35098197541e-38
0.0372652737469 -0.068319668536 0.839 2.35007785764e-38
0.0388179934863 -0.068319668536 0.839 2.34855534686e-38
0.0403707132258 -0.068319668536 0.839 2.2099470303e-38
0.0414237496164 -0.0675053697453 0.829 2.3488968433e-38
0.0428543245373 -0.0673425099872 0.827 2.34975569913e-38
0.0443848361279 -0.0673425099872 0.827 2.35047316394e-38
0.0459153477185 -0.0673425099872 0.827 2.35036484357e-38
0.0474458593092 -0.0673425099872 0.827 2.35036442318e-38
0.0489763708998 -0.0673425099872 0.827 2.35018729905e-38
0.0505068824904 -0.0673425099872 0.827 2.35083455881e-38
0.052037394081 -0.0673425099872 0.827 2.35029617994e-38
0.0535679056716 -0.0673425099872 0.827 2.35011555257e-38
0.0550984172622 -0.0673425099872 0.827 2.35014974425e-38
0.056765879104 -0.0675053697453 0.829 2.35000681181e-38
0.0585813952714 -0.0678310892616 0.833 2.3494311584e-38
0.059978657969 -0.0676682295035 0.831 2.34972122718e-38
0.0615165722759 -0.0676682295035 0.831 2.35058246522e-38
0.0630544865828 -0.0676682295035 0.831 2.35043532888e-38
0.0645924008897 -0.0676682295035 0.831 2.35098225567e-38
0.00781911906936 -0.0672444239965 0.845 2.34885956876e-38
0.0093607347344 -0.0670852655965 0.843 3.12243629664e-39
0.0108949476832 -0.0669261071965 0.841 4.24971645146e-39
0.0124513687807 -0.0669261071965 0.841 1.57604038283e-39
0.0140077898783 -0.0669261071965 0.841 1.58181793639e-39
0.0155271973945 -0.0667669487965 0.839 7.93537103467e-39
0.017079917134 -0.0667669487965 0.839 8.02756386194e-39
0.0186326368734 -0.0667669487965 0.839 8.67113540505e-39
0.0201853566129 -0.0667669487965 0.839 8.39599045158e-39
0.0217380763524 -0.0667669487965 0.839 8.39634357879e-39
0.0232907960918 -0.0667669487965 0.839 8.85588259459e-39
0.0248435158313 -0.0667669487965 0.839 8.02611632062e-39
0.0263962355707 -0.0667669487965 0.839 4.48415508584e-44
0.0278823308637 -0.0666077903965 0.837 2.34978694808e-38
0.029431349245 -0.0666077903965 0.837 2.3509795932e-38
0.0310543947891 -0.0667669487965 0.839 2.35098281619e-38
0.0326071145285 -0.0667669487965 0.839 2.35098085437e-38
0.0340784043889 -0.0666077903965 0.837 2.35039931551e-38
0.0356274227702 -0.0666077903965 0.837 2.35021840788e-38
0.0371764411516 -0.0666077903965 0.837 1.79570905113e-38
0.0387254595329 -0.0666077903965 0.837 2.34816746745e-38
0.0398895366677 -0.0659711567966 0.829 2.34917430039e-38
0.0413238129467 -0.0658119983966 0.827 2.35007715699e-38
0.0427506865094 -0.0656528399966 0.825 2.35000470986e-38
0.0442774967419 -0.0656528399966 0.825 2.35076197155e-38
0.0458043069744 -0.0656528399966 0.825 2.34975597939e-38
0.0473311172068 -0.0656528399966 0.825 2.35018856022e-38
0.0488579274393 -0.0656528399966 0.825 2.35025946592e-38
0.0503847376718 -0.0656528399966 0.825 2.35015268698e-38
0.0519115479043 -0.0656528399966 0.825 2.35040351941e-38
0.0534383581368 -0.0656528399966 0.825 2.34957829474e-38
0.0549651683692 -0.0656528399966 0.825 2.34989779079e-38
0.0564919786017 -0.0656528399966 0.825 2.34986191755e-38
0.0581594404435 -0.0658119983966 0.827 2.34989723027e-38
0.0596899520341 -0.0658119983966 0.827 2.3496804494e-38
0.0612204636247 -0.0658119983966 0.827 2.3498987717e-38
0.0627509752153 -0.0658119983966 0.827 2.35043911239e-38
0.064281486806 -0.0658119983966 0.827 2.35065953664e-38
0.00931631843672 -0.0652142290571 0.839 2.20405190779e-39
0.0108690381762 -0.0652142290571 0.839 3.41778236877e-39
0.0124217579156 -0.0652142290571 0.839 4.15786554102e-39
0.0139744776551 -0.0652142290571 0.839 5.17563001696e-39
0.0154901838131 -0.0650587720152 0.837 9.50340019418e-39
0.0170392021945 -0.0650587720152 0.837 8.67113260245e-39
0.0185882205758 -0.0650587720152 0.837 8.30270881541e-39
0.0201372389571 -0.0650587720152 0.837 8.95059355519e-39
0.0217380763524 -0.0652142290571 0.839 7.75240349418e-39
0.0232907960918 -0.0652142290571 0.839 8.48888953327e-39
0.0248435158313 -0.0652142290571 0.839 8.76403448674e-39
0.0263333124823 -0.0650587720152 0.837 4.48415508584e-44
0.0278823308637 -0.0650587720152 0.837 2.35012760374e-38
0.029431349245 -0.0650587720152 0.837 2.35097805178e-38
0.0309803676263 -0.0650587720152 0.837 2.35098169515e-38
0.0325293860076 -0.0650587720152 0.837 1.53788961175e-38
0.0340784043889 -0.0650587720152 0.837 2.00581708041e-38
0.0356274227702 -0.0650587720152 0.837 2.12560385664e-38
0.0370876085562 -0.0649033149734 0.835 2.23779097092e-38
0.0386329255794 -0.0649033149734 0.835 2.34871145151e-38
0.0397933013561 -0.064281486806 0.827 1.96127414625e-38
0.0412238762769 -0.0641260297641 0.825 2.35054491042e-38
0.0426470484815 -0.0639705727222 0.823 2.3505067951e-38
0.0441701573558 -0.0639705727222 0.823 2.35083413842e-38
0.0456932662302 -0.0639705727222 0.823 2.35047512576e-38
0.0472163751045 -0.0639705727222 0.823 2.35029491877e-38
0.0488579274393 -0.0641260297641 0.825 2.35054911432e-38
0.0503847376718 -0.0641260297641 0.825 2.35040295889e-38
0.0517857017275 -0.0639705727222 0.823 2.35011274997e-38
0.0533088106019 -0.0639705727222 0.823 2.35058092379e-38
0.0548319194762 -0.0639705727222 0.823 2.34989751053e-38
0.0563550283506 -0.0639705727222 0.823 2.3498640195e-38
0.0578781372249 -0.0639705727222 0.823 2.34982562392e-38
0.0594012460992 -0.0639705727222 0.823 2.35000513025e-38
0.0609243549736 -0.0639705727222 0.823 2.35036554422e-38
0.0624474638479 -0.0639705727222 0.823 2.34989933222e-38
0.0639705727222 -0.0639705727222 0.823 2.34990283546e-38
0.0654936815966 -0.0639705727222 0.823 2.35098603918e-38
0.00931631843672 -0.0636615093176 0.839 1.23375711798e-38
0.0108690381762 -0.0636615093176 0.839 4.14059453745e-39
0.0124217579156 -0.0636615093176 0.839 4.62064435886e-39
0.0139744776551 -0.0636615093176 0.839 3.88594637661e-39
0.0154901838131 -0.0635097536339 0.837 1.01498261823e-38
0.0170392021945 -0.0635097536339 0.837 8.85552666478e-39
0.0185882205758 -0.0635097536339 0.837 8.94916002687e-39
0.0201372389571 -0.0635097536339 0.837 8.94844396335e-39
0.0216862573384 -0.0635097536339 0.837 8.58073764112e-39
0.0232352757197 -0.0635097536339 0.837 8.67365493969e-39
0.024784294101 -0.0635097536339 0.837 8.67435839152e-39
0.0263333124823 -0.0635097536339 0.837 3.50324616081e-44
0.0278823308637 -0.0635097536339 0.837 2.34800926085e-38
0.029431349245 -0.0635097536339 0.837 2.35079462181e-38
0.0309803676263 -0.0635097536339 0.837 2.35097875243e-38
0.0325293860076 -0.0635097536339 0.837 2.35098001359e-38
0.0339969745099 -0.0633579979502 0.835 2.3133470223e-38
0.035542291533 -0.0633579979502 0.835 1.52702114086e-38
0.0370876085562 -0.0633579979502 0.835 2.03563881367e-38
0.0385403916259 -0.0632062422665 0.833 2.21942190987e-38
0.0396970660444 -0.0625992195316 0.825 2.34888913616e-38
0.0411239396072 -0.0624474638479 0.823 2.35000470986e-38
0.0426470484815 -0.0624474638479 0.823 2.35022709593e-38
0.0441701573558 -0.0624474638479 0.823 2.35072777987e-38
0.0456932662302 -0.0624474638479 0.823 2.35029337735e-38
0.0472163751045 -0.0624474638479 0.823 2.35065505248e-38
0.0487394839789 -0.0624474638479 0.823 2.35061987989e-38
0.0502625928532 -0.0624474638479 0.823 2.35065351105e-38
0.0517857017275 -0.0624474638479 0.823 2.35014680153e-38
0.0533088106019 -0.0624474638479 0.823 2.34957128825e-38
0.0548319194762 -0.0624474638479 0.823 2.35007869842e-38
0.0563550283506 -0.0624474638479 0.823 2.34961122525e-38
0.0578781372249 -0.0624474638479 0.823 2.3496442959e-38
0.0594012460992 -0.0624474638479 0.823 2.34982660483e-38
0.0609243549736 -0.0624474638479 0.823 2.34953751695e-38
0.0624474638479 -0.0624474638479 0.823 2.35047680732e-38
0.0639705727222 -0.0624474638479 0.823 2.34997248e-38
0.0654936815966 -0.0624474638479 0.823 2.35098351684e-38
0.00929411028789 -0.0619607352526 0.837 1.91582681407e-38
0.0108431286692 -0.0619607352526 0.837 3.12244890833e-39
0.0123921470505 -0.0619607352526 0.837 4.43659781856e-39
0.0139411654318 -0.0619607352526 0.837 2.96149016152e-39
0.0154901838131 -0.0619607352526 0.837 9.31865300464e-39
0.0170392021945 -0.0619607352526 0.837 8.94879709056e-39
0.0185882205758 -0.0619607352526 0.837 8.12011261901e-39
0.0201372389571 -0.0619607352526 0.837 8.94843135166e-39
0.0216862573384 -0.0619607352526 0.837 9.1339086177e-39
0.0232352757197 -0.0619607352526 0.837 8.58180963444e-39
0.024784294101 -0.0619607352526 0.837 8.02827992545e-39
0.0263333124823 -0.0619607352526 0.837 5.9074118971e-39
0.0278823308637 -0.0619607352526 0.837 1.0369608636e-43
0.029431349245 -0.0619607352526 0.837 2.35033149266e-38
0.0309803676263 -0.0619607352526 0.837 2.35097917282e-38
0.0325293860076 -0.0619607352526 0.837 2.35054645185e-38
0.0339969745099 -0.061812680927 0.835 1.43518074015e-38
0.035542291533 -0.061812680927 0.835 1.1871172808e-38
0.0369987759609 -0.0616646266014 0.833 1.55697725865e-38
0.0383553237189 -0.0613685179503 0.829 1.70312666289e-38
0.0396008307328 -0.0609243549736 0.823 2.29231325209e-38
0.0411239396072 -0.0609243549736 0.823 2.35004324557e-38
0.0425434104536 -0.060776300648 0.821 2.35047764809e-38
0.0440628179698 -0.060776300648 0.821 2.35079672375e-38
0.045582225486 -0.060776300648 0.821 2.35036918759e-38
0.0471016330022 -0.060776300648 0.821 2.35026002644e-38
0.0486210405184 -0.060776300648 0.821 2.3501156927e-38
0.0502625928532 -0.0609243549736 0.823 2.35051113913e-38
0.0517857017275 -0.0609243549736 0.823 2.35029281683e-38
0.0533088106019 -0.0609243549736 0.823 2.34975513861e-38
0.0548319194762 -0.0609243549736 0.823 2.34964709849e-38
0.0563550283506 -0.0609243549736 0.823 2.3502603067e-38
0.0577374856156 -0.060776300648 0.821 2.34954326228e-38
0.0592568931318 -0.060776300648 0.821 2.34989863157e-38
0.0609243549736 -0.0609243549736 0.823 2.34974827224e-38
0.0624474638479 -0.0609243549736 0.823 2.35029814176e-38
0.0639705727222 -0.0609243549736 0.823 2.35011513218e-38
0.0654936815966 -0.0609243549736 0.823 2.35083511933e-38
0.00774509190657 -0.0604117168713 0.837 1.25155206705e-38
0.00929411028789 -0.0604117168713 0.837 1.98043704288e-38
0.0108431286692 -0.0604117168713 0.837 1.56120343469e-39
0.0123921470505 -0.0604117168713 0.837 3.79017743567e-39
0.0139411654318 -0.0604117168713 0.837 4.06818944579e-39
0.0154901838131 -0.0604117168713 0.837 8.12299649125e-39
0.0170392021945 -0.0604117168713 0.837 9.5934448309e-39
0.0185438042781 -0.0602673639038 0.835 8.39669670601e-39
0.0200891213013 -0.0602673639038 0.835 8.58073483852e-39
0.0216344383245 -0.0602673639038 0.835 8.67148853226e-39
0.0232352757197 -0.0604117168713 0.837 8.3963407762e-39
0.024784294101 -0.0604117168713 0.837 8.02791698915e-39
0.026270389394 -0.0602673639038 0.835 8.4895957877e-39
0.0278157064172 -0.0602673639038 0.835 8.82818032525e-44
0.029431349245 -0.0604117168713 0.837 2.35036176071e-38
0.0309803676263 -0.0604117168713 0.837 2.35098001359e-38
0.0324516574867 -0.0602673639038 0.835 2.3506917665e-38
