# .PCD v0.7 - Point Cloud Data file format
VERSION 0.7
FIELDS x y z rgb
SIZE 4 4 4 4
TYPE F F F F
COUNT 1 1 1 1
WIDTH 840
HEIGHT 1
VIEWPOINT 0 0 0 1 0 0 0
POINTS 840
DATA ascii
-0.0193432976362 -0.0773731905448 0.871 1.76068597822e-38
-0.0177313561665 -0.0773731905448 0.871 1.40133896185e-38
-0.0161194146968 -0.0773731905448 0.871 1.28209406773e-38
-0.0145074732272 -0.0773731905448 0.871 1.06125965923e-38
-0.0128955317575 -0.0773731905448 0.871 1.5217708959e-38
-0.0112835902878 -0.0773731905448 0.871 1.5303778112e-38
-0.00964944066926 -0.0771955253541 0.869 1.49353234964e-38
-0.00804120055772 -0.0771955253541 0.869 1.31811262307e-38
-0.00643296044618 -0.0771955253541 0.869 1.04214384623e-38
-0.00482472033463 -0.0771955253541 0.869 7.6667098892e-39
-0.00321648022309 -0.0771955253541 0.869 1.12526690932e-38
-0.00160824011154 -0.0771955253541 0.869 1.00504573056e-38
0.0 -0.0771955253541 0.869 8.12087352408e-39
0.0016045387534 -0.0770178601634 0.867 8.8587888876e-39
0.00320907750681 -0.0770178601634 0.867 1.32845294457e-38
0.00481361626021 -0.0770178601634 0.867 1.09788707875e-38
0.00641815501362 -0.0770178601634 0.867 1.02366842663e-38
0.00802269376702 -0.0770178601634 0.867 1.09760443685e-38
0.00959392029717 -0.0767513623774 0.864 1.25480392027e-38
0.0111669975064 -0.0765736971867 0.862 1.23635680689e-38
0.0127622828645 -0.0765736971867 0.862 1.30046635177e-38
0.0143242559993 -0.076396031996 0.86 1.41099194645e-38
0.0159158399992 -0.076396031996 0.86 8.94768586088e-39
0.0174667090596 -0.0762183668053 0.858 1.39273260707e-38
0.0190545917013 -0.0762183668053 0.858 1.71473529963e-38
0.0206424743431 -0.0762183668053 0.858 1.24536575472e-38
0.0222303569849 -0.0762183668053 0.858 1.20056259944e-38
0.0237627192546 -0.0760407016146 0.856 9.69602548368e-39
0.0253469005382 -0.0760407016146 0.856 1.61425561364e-38
0.0269310818219 -0.0760407016146 0.856 1.5672187886e-38
0.0285152631055 -0.0760407016146 0.856 1.53044549391e-38
0.0300291185845 -0.075863036424 0.854 1.62264280533e-38
0.03160959851 -0.075863036424 0.854 1.68689262018e-38
0.0331900784355 -0.075863036424 0.854 1.77908923096e-38
0.034770558361 -0.075863036424 0.854 1.7145182385e-38
0.0362233414307 -0.0755965386379 0.851 1.71455327096e-38
0.037798269319 -0.0755965386379 0.851 1.74239006495e-38
0.0393731972073 -0.0755965386379 0.851 1.74217496564e-38
0.0408518897839 -0.0754188734472 0.849 1.72380814667e-38
0.0424231163141 -0.0754188734472 0.849 1.80685483899e-38
0.0439943428442 -0.0754188734472 0.849 1.73292008993e-38
0.0455655693744 -0.0754188734472 0.849 1.78834536783e-38
0.0471367959045 -0.0754188734472 0.849 1.70554908755e-38
0.0487080224347 -0.0754188734472 0.849 1.89930452426e-38
0.0502792489648 -0.0754188734472 0.849 2.03741776208e-38
0.0519726203136 -0.0755965386379 0.851 2.08347900312e-38
-0.0356255720912 -0.0761091767402 0.875 2.01879744821e-38
-0.0340062279052 -0.0761091767402 0.875 1.56714816316e-38
-0.0323868837192 -0.0761091767402 0.875 1.66874286234e-38
-0.0307675395333 -0.0761091767402 0.875 1.71466047029e-38
-0.0291481953473 -0.0761091767402 0.875 1.71462417666e-38
-0.0275288511614 -0.0761091767402 0.875 1.71458858368e-38
-0.0258502852452 -0.0759352129077 0.873 1.74239006495e-38
-0.0242346424173 -0.0759352129077 0.873 1.69614903732e-38
-0.0226189995895 -0.0759352129077 0.873 1.72380814667e-38
-0.0210033567617 -0.0759352129077 0.873 1.72384373965e-38
-0.0193877139339 -0.0759352129077 0.873 1.70529895577e-38
-0.0177720711061 -0.0759352129077 0.873 1.7698336546e-38
-0.0161194146968 -0.0757612490751 0.871 1.49368032675e-38
-0.0145074732272 -0.0757612490751 0.871 1.65066344969e-38
-0.0128955317575 -0.0757612490751 0.871 1.89901487587e-38
-0.0112835902878 -0.0757612490751 0.871 1.7974573111e-38
-0.0096716488181 -0.0757612490751 0.871 1.76079401834e-38
-0.00805970734842 -0.0757612490751 0.871 1.77927055898e-38
-0.00643296044618 -0.0755872852426 0.869 1.70558412001e-38
-0.00482472033463 -0.0755872852426 0.869 1.77015609338e-38
-0.00321648022309 -0.0755872852426 0.869 1.83447653367e-38
-0.00160824011154 -0.0755872852426 0.869 1.85277244694e-38
0.0 -0.0755872852426 0.869 1.83444318276e-38
0.00160824011154 -0.0755872852426 0.869 1.77008574819e-38
0.00321648022309 -0.0755872852426 0.869 1.68739610672e-38
0.00481361626021 -0.07541332141 0.867 1.68750596852e-38
0.00641815501362 -0.07541332141 0.867 1.65048352296e-38
0.00802269376702 -0.07541332141 0.867 1.69658105764e-38
0.00959392029717 -0.0751523756612 0.864 1.58612258515e-38
0.0111669975064 -0.0749784118287 0.862 1.64122892752e-38
0.0127622828645 -0.0749784118287 0.862 1.80692546443e-38
0.0143575682225 -0.0749784118287 0.862 1.82500683891e-38
0.0159158399992 -0.0748044479961 0.86 1.86177691061e-38
0.0175074239991 -0.0748044479961 0.86 1.81596678225e-38
0.019099007999 -0.0748044479961 0.86 1.75121278022e-38
0.0206905919989 -0.0748044479961 0.86 1.44765285701e-38
0.0222821759988 -0.0748044479961 0.86 1.45748604859e-38
0.0238182396267 -0.0746304841636 0.858 1.55871949303e-38
0.0254061222684 -0.0746304841636 0.858 1.70587124607e-38
0.0269310818219 -0.074456520331 0.856 1.74221027836e-38
0.0285152631055 -0.074456520331 0.856 1.73302827017e-38
0.0300994443891 -0.074456520331 0.856 1.72380814667e-38
0.0316836256728 -0.074456520331 0.856 1.70533230668e-38
0.0332678069564 -0.074456520331 0.856 1.6685985286e-38
0.034770558361 -0.0742825564985 0.854 1.77916083731e-38
0.0363510382865 -0.0742825564985 0.854 1.677710612e-38
0.037931518212 -0.0742825564985 0.854 1.79770716261e-38
0.0393731972073 -0.0740216107496 0.851 1.71462235497e-38
0.0409481250955 -0.0740216107496 0.851 1.75153942289e-38
0.0425230529838 -0.0740216107496 0.851 1.73309959627e-38
0.0440979808721 -0.0740216107496 0.851 1.75157473561e-38
0.0456729087604 -0.0740216107496 0.851 1.76079401834e-38
0.0472478366487 -0.0740216107496 0.851 1.55821586636e-38
0.048822764537 -0.0740216107496 0.851 1.7241712231e-38
0.0503976924253 -0.0740216107496 0.851 2.11120957869e-38
0.0519726203136 -0.0740216107496 0.851 2.11106482456e-38
0.0535475482019 -0.0740216107496 0.851 2.09266325338e-38
-0.0357477169098 -0.0747452262659 0.878 2.01872528134e-38
-0.0341228206866 -0.0747452262659 0.878 1.54870763589e-38
-0.0323868837192 -0.0744898325543 0.875 1.67792515079e-38
-0.0307675395333 -0.0744898325543 0.875 1.63175572951e-38
-0.0291481953473 -0.0744898325543 0.875 1.70533202642e-38
-0.0275288511614 -0.0744898325543 0.875 1.73292008993e-38
-0.0258502852452 -0.0743195700798 0.873 1.72395304093e-38
-0.0242346424173 -0.0743195700798 0.873 1.68707254691e-38
-0.0226708186035 -0.0744898325543 0.875 1.677710612e-38
-0.0210514744175 -0.0744898325543 0.875 1.73295540265e-38
-0.0194321302315 -0.0744898325543 0.875 1.70529741434e-38
-0.0178127860456 -0.0744898325543 0.875 1.77912552459e-38
-0.0161934418596 -0.0744898325543 0.875 1.08787536174e-38
-0.0145407854504 -0.0743195700798 0.873 1.73349490256e-38
-0.0129251426226 -0.0743195700798 0.873 1.28169876143e-38
-0.0113094997948 -0.0743195700798 0.873 1.47556420008e-38
-0.0096716488181 -0.0741493076054 0.871 1.26358557748e-38
-0.00805970734842 -0.0741493076054 0.871 1.2822051907e-38
-0.00644776587873 -0.0741493076054 0.871 1.65033680702e-38
-0.00483582440905 -0.0741493076054 0.871 1.22555868119e-38
-0.00322388293937 -0.0741493076054 0.871 1.81561099257e-38
-0.00161194146968 -0.0741493076054 0.871 1.39197604603e-38
0.0 -0.0741493076054 0.871 1.44772768634e-38
0.00160824011154 -0.073979045131 0.869 8.8576972761e-39
0.00321648022309 -0.073979045131 0.869 1.18050637504e-38
0.00482472033463 -0.073979045131 0.869 1.41103048216e-38
0.00643296044618 -0.073979045131 0.869 1.40198916434e-38
0.00804120055772 -0.073979045131 0.869 9.77747875952e-39
0.00959392029717 -0.073553388945 0.864 1.57648095106e-38
0.0111929070134 -0.073553388945 0.864 1.77898329279e-38
0.0127918937296 -0.073553388945 0.864 1.07829608544e-38
0.0143575682225 -0.0733831264706 0.862 1.60385013176e-38
0.0159528535806 -0.0733831264706 0.862 1.43846664492e-38
0.0175481389386 -0.0733831264706 0.862 1.2079129704e-38
0.019099007999 -0.0732128639962 0.86 1.66860245224e-38
0.0206905919989 -0.0732128639962 0.86 1.77919769146e-38
0.0222821759988 -0.0732128639962 0.86 1.74235475223e-38
0.0238737599988 -0.0732128639962 0.86 1.71473109574e-38
0.0254653439987 -0.0732128639962 0.86 1.70540433342e-38
0.0269940049102 -0.0730426015218 0.858 1.77919615003e-38
0.028581887552 -0.0730426015218 0.858 1.70536874044e-38
0.0301697701938 -0.0730426015218 0.858 1.71458886394e-38
0.0317576528356 -0.0730426015218 0.858 1.66852608147e-38
0.0332678069564 -0.0728723390474 0.856 1.76075898587e-38
0.03485198824 -0.0728723390474 0.856 1.73313518925e-38
0.0363510382865 -0.072702076573 0.854 1.68700248198e-38
0.037931518212 -0.072702076573 0.854 1.70533370797e-38
0.0395119981375 -0.072702076573 0.854 1.73302798991e-38
0.0409481250955 -0.0724466828613 0.851 1.7330635829e-38
0.0425230529838 -0.0724466828613 0.851 1.73309959627e-38
0.0440979808721 -0.0724466828613 0.851 1.75146879745e-38
0.0456729087604 -0.0724466828613 0.851 1.66852790316e-38
0.047414397765 -0.072702076573 0.854 1.45676704235e-38
0.0489948776905 -0.072702076573 0.854 1.95476791748e-38
0.050575357616 -0.072702076573 0.854 2.03748810726e-38
0.0521558375415 -0.072702076573 0.854 2.08333410886e-38
-0.0357477169098 -0.0731203300427 0.878 2.01865269408e-38
-0.0341228206866 -0.0731203300427 0.878 1.51182854317e-38
-0.0324979244634 -0.0731203300427 0.878 1.70558566144e-38
-0.0308730282403 -0.0731203300427 0.878 1.67781753107e-38
-0.0292481320171 -0.0731203300427 0.878 1.74217496564e-38
-0.0275288511614 -0.0728704883683 0.875 1.70529671369e-38
-0.0259095069754 -0.0728704883683 0.875 1.67785452535e-38
-0.0242901627894 -0.0728704883683 0.875 1.71466075055e-38
-0.0226708186035 -0.0728704883683 0.875 1.69614903732e-38
-0.0210514744175 -0.0728704883683 0.875 1.69618435004e-38
-0.0194321302315 -0.0728704883683 0.875 1.6961846303e-38
-0.0178127860456 -0.0728704883683 0.875 1.81596678225e-38
-0.0161934418596 -0.0728704883683 0.875 9.03591581609e-39
-0.0145740976737 -0.0728704883683 0.875 1.12537228696e-38
-0.0129547534877 -0.0728704883683 0.875 1.06047381105e-38
-0.0113354093017 -0.0728704883683 0.875 9.40944453344e-39
-0.00969385696694 -0.072703927252 0.873 4.80649997548e-39
-0.00807821413911 -0.072703927252 0.873 2.14151896382e-39
-0.00644776587873 -0.0725373661358 0.871 1.10693708462e-38
-0.00483582440905 -0.0725373661358 0.871 1.43796918397e-38
-0.00322388293937 -0.0725373661358 0.871 1.62192435961e-38
-0.00161194146968 -0.0725373661358 0.871 9.95394147253e-39
0.0 -0.0725373661358 0.871 1.18943656989e-38
0.00161194146968 -0.0725373661358 0.871 1.39254861658e-38
0.00321648022309 -0.0723708050195 0.869 1.24503939231e-38
0.00482472033463 -0.0723708050195 0.869 1.30021243648e-38
0.00643296044618 -0.0723708050195 0.869 7.4754466618e-39
0.00804120055772 -0.0723708050195 0.869 1.19004865706e-38
0.00959392029717 -0.0719544022288 0.864 9.67884136061e-39
0.0111929070134 -0.0719544022288 0.864 1.39162432012e-38
0.0127918937296 -0.0719544022288 0.864 1.36420819592e-38
0.0143575682225 -0.0717878411125 0.862 1.52105385148e-38
0.0159528535806 -0.0717878411125 0.862 1.55839285036e-38
0.0175481389386 -0.0717878411125 0.862 1.59509355779e-38
0.0191434242967 -0.0717878411125 0.862 1.49360423625e-38
0.0207387096547 -0.0717878411125 0.862 1.66870754962e-38
0.0223339950128 -0.0717878411125 0.862 1.70543964614e-38
0.0238737599988 -0.0716212799963 0.86 1.7054746786e-38
0.0254653439987 -0.0716212799963 0.86 1.73299267719e-38
0.0270569279986 -0.0716212799963 0.86 1.80681602302e-38
0.0286485119985 -0.0716212799963 0.86 1.74221027836e-38
0.0302400959984 -0.0716212799963 0.86 1.70529867551e-38
0.0318316799983 -0.0716212799963 0.86 1.65934155095e-38
0.0334232639983 -0.0716212799963 0.86 1.76065080563e-38
0.03485198824 -0.0712881577637 0.856 1.72391562626e-38
0.0364361695237 -0.0712881577637 0.856 1.66849104901e-38
0.037931518212 -0.0711215966475 0.854 1.75153942289e-38
0.0395119981375 -0.0711215966475 0.854 1.72388031354e-38
0.041092478063 -0.0711215966475 0.854 1.76064912407e-38
0.0426729579885 -0.0711215966475 0.854 1.6962193825e-38
0.044253437914 -0.0711215966475 0.854 1.56714395927e-38
0.0458339178395 -0.0711215966475 0.854 1.63154189136e-38
0.047414397765 -0.0711215966475 0.854 1.74246433377e-38
0.0489948776905 -0.0711215966475 0.854 1.86257004554e-38
0.050575357616 -0.0711215966475 0.854 2.13886826765e-38
0.0521558375415 -0.0711215966475 0.854 2.08333565028e-38
-0.0341228206866 -0.0714954338195 0.878 1.51175623616e-38
-0.0324979244634 -0.0714954338195 0.878 1.65033708727e-38
-0.0308730282403 -0.0714954338195 0.878 1.7053690207e-38
-0.0292481320171 -0.0714954338195 0.878 1.70529713408e-38
-0.0276232357939 -0.0714954338195 0.878 1.68707254691e-38
-0.0259095069754 -0.0712511441823 0.875 1.67781823172e-38
-0.0242901627894 -0.0712511441823 0.875 1.71466047029e-38
-0.0227485471244 -0.0714954338195 0.878 1.71469578301e-38
-0.0211236509012 -0.0714954338195 0.878 1.68707310743e-38
-0.0194987546781 -0.0714954338195 0.878 1.71469606327e-38
-0.0178127860456 -0.0712511441823 0.875 1.69625707743e-38
-0.0161934418596 -0.0712511441823 0.875 1.71476837027e-38
-0.0145740976737 -0.0712511441823 0.875 1.7793406239e-38
-0.0129547534877 -0.0712511441823 0.875 1.72387877211e-38
-0.0113354093017 -0.0712511441823 0.875 1.8067121868e-38
-0.00971606511577 -0.0712511441823 0.875 1.76111659724e-38
-0.00809672092981 -0.0712511441823 0.875 1.71505549633e-38
-0.00647737674385 -0.0712511441823 0.875 1.72416743959e-38
-0.00484692848347 -0.0710882844242 0.873 1.69639958949e-38
-0.00323128565565 -0.0710882844242 0.873 1.88046658875e-38
-0.00161564282782 -0.0710882844242 0.873 1.32733064463e-38
0.0 -0.0709254246661 0.871 1.82519026887e-38
0.00161194146968 -0.0709254246661 0.871 1.69621966276e-38
0.00322388293937 -0.0709254246661 0.871 1.78845200665e-38
0.00483582440905 -0.0709254246661 0.871 1.80674693901e-38
0.00644776587873 -0.0709254246661 0.871 1.8069267256e-38
0.00805970734842 -0.0709254246661 0.871 1.71469606327e-38
0.00964944066926 -0.0707625649079 0.869 1.79767213015e-38
0.0112576807808 -0.0707625649079 0.869 1.75161004833e-38
0.0128363100272 -0.0705997051498 0.867 1.74239006495e-38
0.0144408487806 -0.0705997051498 0.867 1.79770716261e-38
0.015989867162 -0.0703554155126 0.864 1.69632770287e-38
0.0175888538782 -0.0703554155126 0.864 1.72395065872e-38
0.0191878405943 -0.0703554155126 0.864 1.6593784051e-38
0.0207868273105 -0.0703554155126 0.864 1.69622232523e-38
0.0223858140267 -0.0703554155126 0.864 1.70536874044e-38
0.0239292803708 -0.0701925557545 0.862 1.77916055705e-38
0.0255245657289 -0.0701925557545 0.862 1.65001633006e-38
0.027119851087 -0.0701925557545 0.862 1.68685758772e-38
0.028715136445 -0.0701925557545 0.862 1.8251866255e-38
0.0303104218031 -0.0701925557545 0.862 1.67774620498e-38
0.0319057071611 -0.0701925557545 0.862 1.74231817834e-38
0.0334232639983 -0.0700296959964 0.86 1.70533202642e-38
0.0350148479982 -0.0700296959964 0.86 1.70529671369e-38
0.0364361695237 -0.0697039764801 0.856 1.79749234356e-38
0.0380203508073 -0.0697039764801 0.856 1.78841543276e-38
0.039604532091 -0.0697039764801 0.856 1.58565721393e-38
0.0411887133746 -0.0697039764801 0.856 1.54870931745e-38
0.0427728946582 -0.0697039764801 0.856 1.63161503914e-38
0.0443570759419 -0.0697039764801 0.856 1.72387877211e-38
0.0458339178395 -0.069541116722 0.854 1.81628922103e-38
0.047414397765 -0.069541116722 0.854 1.52123013482e-38
0.0489948776905 -0.069541116722 0.854 1.65966931466e-38
0.050575357616 -0.069541116722 0.854 2.12053704166e-38
0.0521558375415 -0.069541116722 0.854 2.15719753182e-38
-0.0342782777284 -0.0701888543963 0.882 1.63143104865e-38
-0.0325719516262 -0.0700296959964 0.88 1.68700220172e-38
-0.0309433540449 -0.0700296959964 0.88 1.7791974112e-38
-0.0293147564636 -0.0700296959964 0.88 1.6870377947e-38
-0.0276232357939 -0.0698705375964 0.878 1.72384373965e-38
-0.0259983395707 -0.0698705375964 0.878 1.69622204497e-38
-0.0243734433476 -0.0698705375964 0.878 1.67778263874e-38
-0.0228003661383 -0.0700296959964 0.88 1.67778263874e-38
-0.0211236509012 -0.0698705375964 0.878 1.68700248198e-38
-0.0194987546781 -0.0698705375964 0.878 1.71469578301e-38
-0.0178738584549 -0.0698705375964 0.878 1.73313518925e-38
-0.0162489622317 -0.0698705375964 0.878 1.72384345939e-38
-0.0146240660085 -0.0698705375964 0.878 1.72388003328e-38
-0.0129991697854 -0.0698705375964 0.878 1.7053676194e-38
-0.0113742735622 -0.0698705375964 0.878 1.80674918108e-38
-0.00974937733903 -0.0698705375964 0.878 1.70543964614e-38
-0.00809672092981 -0.0696317999964 0.875 1.8069267256e-38
-0.00647737674385 -0.0696317999964 0.875 1.76068625848e-38
-0.00485803255789 -0.0696317999964 0.875 1.79763555626e-38
-0.00323868837192 -0.0696317999964 0.875 1.8069267256e-38
-0.00161564282782 -0.0694726415964 0.873 1.83458639547e-38
0.0 -0.0694726415964 0.873 1.83462142793e-38
0.00161564282782 -0.0694726415964 0.873 1.83469303428e-38
0.00323128565565 -0.0694726415964 0.873 1.78866752635e-38
0.00483582440905 -0.0693134831964 0.871 1.72405883896e-38
0.00644776587873 -0.0693134831964 0.871 1.72387877211e-38
0.00805970734842 -0.0693134831964 0.871 1.68700276224e-38
0.0096716488181 -0.0693134831964 0.871 1.69625735769e-38
0.0112576807808 -0.0691543247964 0.869 1.72377311421e-38
0.0128659208924 -0.0691543247964 0.869 1.70540433342e-38
0.0144741610039 -0.0691543247964 0.869 1.6593784051e-38
0.0160824011154 -0.0691543247964 0.869 1.71473109574e-38
0.0176499262875 -0.0689951663964 0.867 1.67781753107e-38
0.0192544650409 -0.0689951663964 0.867 1.78838040029e-38
0.0207868273105 -0.0687564287964 0.864 1.65015884211e-38
0.0223858140267 -0.0687564287964 0.864 1.69625707743e-38
0.0239848007429 -0.0687564287964 0.864 1.69618435004e-38
0.0255837874591 -0.0687564287964 0.864 1.76072101069e-38
0.027119851087 -0.0685972703964 0.862 1.67774592472e-38
0.028715136445 -0.0685972703964 0.862 1.71455172953e-38
0.0303104218031 -0.0685972703964 0.862 1.75157473561e-38
0.0319057071611 -0.0685972703964 0.862 1.74220971784e-38
0.0335009925192 -0.0685972703964 0.862 1.75142956109e-38
0.0350962778772 -0.0685972703964 0.862 1.69622204497e-38
0.0365213007609 -0.0682789535964 0.858 1.54870903719e-38
0.0381091834027 -0.0682789535964 0.858 1.55789328745e-38
0.0396970660444 -0.0682789535964 0.858 1.55800076705e-38
0.0412849486862 -0.0682789535964 0.858 1.76090121767e-38
0.042872831328 -0.0682789535964 0.858 1.78848998183e-38
0.0444607139698 -0.0682789535964 0.858 1.6776730572e-38
0.0460485966116 -0.0682789535964 0.858 1.65934183121e-38
0.0476364792533 -0.0682789535964 0.858 1.33673349745e-38
0.0493391039974 -0.0684381119964 0.86 1.82558459426e-38
0.0509306879973 -0.0684381119964 0.86 2.15734270634e-38
0.0525222719973 -0.0684381119964 0.86 2.00057258077e-38
-0.0361141513656 -0.0689451980615 0.887 1.99095897266e-38
-0.0343948705098 -0.0687897410197 0.885 1.66834657514e-38
-0.032645978789 -0.0685565554569 0.882 1.67767557953e-38
-0.0310136798495 -0.0685565554569 0.882 1.71455383148e-38
-0.0293813809101 -0.0685565554569 0.882 1.69625889912e-38
-0.0276861588823 -0.068401098415 0.88 1.76086618521e-38
-0.0259983395707 -0.0682456413732 0.878 1.74242677897e-38
-0.0243734433476 -0.0682456413732 0.878 1.7884175347e-38
-0.0228003661383 -0.068401098415 0.88 1.82533095924e-38
-0.021171768557 -0.068401098415 0.88 1.82536627196e-38
-0.0195431709757 -0.068401098415 0.88 1.84387728455e-38
-0.0179145733944 -0.068401098415 0.88 1.81622111792e-38
-0.0162489622317 -0.0682456413732 0.878 1.84387784506e-38
-0.0146240660085 -0.0682456413732 0.878 1.75175480246e-38
-0.0129991697854 -0.0682456413732 0.878 1.69654574491e-38
-0.0113742735622 -0.0682456413732 0.878 1.64126213829e-38
-0.00974937733903 -0.0682456413732 0.878 1.59516362271e-38
-0.00812448111586 -0.0682456413732 0.878 1.56754080699e-38
-0.00649958489268 -0.0682456413732 0.878 1.44750796274e-38
-0.00487468866951 -0.0682456413732 0.878 1.28173827805e-38
-0.00324979244634 -0.0682456413732 0.878 9.40763125323e-39
-0.00161934418596 -0.0680124558104 0.875 8.02651288809e-39
0.0 -0.0680124558104 0.875 6.36736149334e-39
0.00161934418596 -0.0680124558104 0.875 4.98444245968e-39
0.00323868837192 -0.0680124558104 0.875 5.17919912414e-42
0.00484692848347 -0.0678569987686 0.873 1.50351912353e-38
0.00646257131129 -0.0678569987686 0.873 1.714803683e-38
0.00807821413911 -0.0678569987686 0.873 1.66859796808e-38
0.00969385696694 -0.0678569987686 0.873 1.70543964614e-38
0.0112835902878 -0.0677015417267 0.871 1.76983393486e-38
0.0128955317575 -0.0677015417267 0.871 1.68707282717e-38
0.0145074732272 -0.0677015417267 0.871 1.714803683e-38
0.0160824011154 -0.0675460846849 0.869 1.68707254691e-38
0.017690641227 -0.0675460846849 0.869 1.74231957964e-38
0.0192988813385 -0.0675460846849 0.869 1.78841543276e-38
0.0209071214501 -0.0675460846849 0.869 1.67781655016e-38
0.0225153615616 -0.0675460846849 0.869 1.75157445535e-38
0.0240680813011 -0.067390627643 0.867 1.73309959627e-38
0.0256726200545 -0.067390627643 0.867 1.68707310743e-38
0.0271827741753 -0.0671574420802 0.864 1.68710968132e-38
0.0287817608915 -0.0671574420802 0.864 1.73317022171e-38
0.0303104218031 -0.0670019850384 0.862 1.66863300054e-38
0.0319057071611 -0.0670019850384 0.862 1.61331590289e-38
0.0335009925192 -0.0670019850384 0.862 1.63157720408e-38
0.0350962778772 -0.0670019850384 0.862 1.64083207979e-38
0.0366064319981 -0.0668465279965 0.86 1.7238805938e-38
0.038198015998 -0.0668465279965 0.86 1.71469606327e-38
0.0397895999979 -0.0668465279965 0.86 1.71469452185e-38
0.0413811839978 -0.0668465279965 0.86 1.53026766914e-38
0.042872831328 -0.0666910709547 0.858 1.622535606e-38
0.0444607139698 -0.0666910709547 0.858 1.5670755759e-38
0.0460485966116 -0.0666910709547 0.858 1.55774867345e-38
0.0477475199975 -0.0668465279965 0.86 1.47491680019e-38
0.0493391039974 -0.0668465279965 0.86 1.77948733985e-38
0.0510491314578 -0.0670019850384 0.862 2.27712485829e-38
0.0527665616345 -0.0671574420802 0.864 1.77012078065e-38
0.0543655483507 -0.0671574420802 0.864 1.95433603729e-38
-0.0361141513656 -0.0673036457267 0.887 2.03716370666e-38
-0.0343948705098 -0.067151890043 0.885 1.69604057682e-38
-0.0327570195332 -0.067151890043 0.885 1.81596678225e-38
-0.0311191685565 -0.067151890043 0.885 1.71465920912e-38
-0.0294813175799 -0.067151890043 0.885 1.78848759963e-38
-0.0277490819706 -0.0669242565174 0.882 1.38347899253e-38
-0.026057561301 -0.0667725008337 0.88 1.45741177977e-38
-0.0244289637197 -0.0667725008337 0.88 1.48449537584e-38
-0.0228521851523 -0.0669242565174 0.882 1.24489309675e-38
-0.0212198862128 -0.0669242565174 0.882 9.03813827545e-39
-0.0195875872734 -0.0669242565174 0.882 6.45776205987e-39
-0.0179145733944 -0.0667725008337 0.88 4.80112739717e-39
-0.0162859758131 -0.0667725008337 0.88 2.40658017354e-39
-0.0146573782318 -0.0667725008337 0.88 1.16630071186e-41
-0.0130287806505 -0.0667725008337 0.88 1.09469436033e-41
-0.0114001830692 -0.0667725008337 0.88 3.78736362835e-39
-0.00977158548786 -0.0667725008337 0.88 6.26330947717e-39
-0.00814298790655 -0.0667725008337 0.88 2.030942502e-39
-0.00649958489268 -0.06662074515 0.878 1.79366203434e-43
-0.00487468866951 -0.06662074515 0.878 3.69087161739e-39
-0.00324979244634 -0.06662074515 0.878 6.35265066207e-39
-0.00162489622317 -0.06662074515 0.878 1.09525487972e-41
0.0 -0.0663931116244 0.875 9.87651132459e-39
0.00161934418596 -0.0663931116244 0.875 1.04562088811e-40
0.00323868837192 -0.0663931116244 0.875 1.34370509744e-41
0.00485803255789 -0.0663931116244 0.875 7.48743336886e-39
0.00647737674385 -0.0663931116244 0.875 1.81636306946e-38
0.00807821413911 -0.0662413559407 0.873 1.72395037846e-38
0.00969385696694 -0.0662413559407 0.873 1.7146238964e-38
0.0112835902878 -0.066089600257 0.871 1.73288477721e-38
0.0128955317575 -0.066089600257 0.871 1.79760024354e-38
0.0145074732272 -0.066089600257 0.871 1.67781823172e-38
0.0161194146968 -0.066089600257 0.871 1.68703751444e-38
0.0177313561665 -0.066089600257 0.871 1.67778263874e-38
0.0192988813385 -0.0659378445733 0.869 1.67774592472e-38
0.0209071214501 -0.0659378445733 0.869 1.74228258536e-38
0.0225153615616 -0.0659378445733 0.869 1.71473109574e-38
0.0241236016732 -0.0659378445733 0.869 1.69611274369e-38
0.0256726200545 -0.0657860888896 0.867 1.69618435004e-38
0.0272771588079 -0.0657860888896 0.867 1.61335261691e-38
0.0288816975613 -0.0657860888896 0.867 1.56722033003e-38
0.0303807476077 -0.065558455364 0.864 1.56725508223e-38
0.0319797343239 -0.065558455364 0.864 1.68700220172e-38
0.0335787210401 -0.065558455364 0.864 1.68700374315e-38
0.0350962778772 -0.0654066996803 0.862 1.47505749055e-38
0.0366064319981 -0.0652549439966 0.86 1.45644110032e-38
0.038198015998 -0.0652549439966 0.86 1.50250332227e-38
0.0397895999979 -0.0652549439966 0.86 1.52094272851e-38
0.0413811839978 -0.0652549439966 0.86 1.57625814461e-38
0.0429727679978 -0.0652549439966 0.86 1.57640079679e-38
0.0445643519977 -0.0652549439966 0.86 1.5393796124e-38
0.0461559359976 -0.0652549439966 0.86 1.53019760421e-38
0.0477475199975 -0.0652549439966 0.86 1.45644082006e-38
0.0494538460997 -0.0654066996803 0.862 1.93607515649e-38
0.0510491314578 -0.0654066996803 0.862 2.17567393233e-38
0.0527665616345 -0.065558455364 0.864 1.61320870355e-38
0.0543655483507 -0.065558455364 0.864 2.22170140208e-38
-0.0361141513656 -0.0656620933919 0.887 2.03709153979e-38
-0.0344725990308 -0.0656620933919 0.887 1.81589461538e-38
-0.032831046696 -0.0656620933919 0.887 1.64083236005e-38
-0.0311191685565 -0.0655140390664 0.885 1.74231957964e-38
-0.0294813175799 -0.0655140390664 0.885 1.85306237559e-38
-0.0278434666032 -0.0655140390664 0.885 4.33897355844e-39
-0.0261167830312 -0.065291957578 0.882 1.68155815719e-43
-0.0244844840917 -0.065291957578 0.882 1.09609565879e-41
-0.0229299136732 -0.0655140390664 0.885 9.89316715813e-42
-0.0212920626966 -0.0655140390664 0.885 1.09853447864e-38
-0.0196542117199 -0.0655140390664 0.885 9.37828806339e-40
-0.0179552883339 -0.065291957578 0.882 8.49685731634e-40
-0.0163229893945 -0.065291957578 0.882 1.76946721505e-39
-0.014690690455 -0.065291957578 0.882 2.96513634012e-39
-0.0130287806505 -0.0651439032524 0.88 1.31427362579e-39
-0.0114001830692 -0.0651439032524 0.88 1.28163416157e-38
-0.00977158548786 -0.0651439032524 0.88 7.92536716493e-39
-0.00814298790655 -0.0651439032524 0.88 4.42768275773e-39
-0.00651439032524 -0.0651439032524 0.88 1.09539500956e-41
-0.00488579274393 -0.0651439032524 0.88 1.78817328838e-38
-0.00325719516262 -0.0651439032524 0.88 1.33643656231e-38
-0.00162489622317 -0.0649958489268 0.878 7.56952984069e-39
0.0 -0.0649958489268 0.878 8.94880970225e-39
0.00162489622317 -0.0649958489268 0.878 7.53915389388e-40
0.00324979244634 -0.0649958489268 0.878 1.49215585415e-39
0.00487468866951 -0.0649958489268 0.878 1.02448930727e-41
0.00649958489268 -0.0649958489268 0.878 1.85349117292e-38
0.00809672092981 -0.0647737674385 0.875 1.70543908562e-38
0.00971606511577 -0.0647737674385 0.875 1.73299071538e-38
0.0113354093017 -0.0647737674385 0.875 1.71455200979e-38
0.0129251426226 -0.0646257131129 0.873 1.76997658704e-38
0.0145407854504 -0.0646257131129 0.873 1.69625735769e-38
0.0161194146968 -0.0644776587873 0.871 1.70529713408e-38
0.0177313561665 -0.0644776587873 0.871 1.74224811342e-38
0.0193432976362 -0.0644776587873 0.871 1.65937868536e-38
0.0209552391059 -0.0644776587873 0.871 1.69632770287e-38
0.0225671805756 -0.0644776587873 0.871 1.56718109367e-38
0.0241236016732 -0.0643296044618 0.869 1.60395410811e-38
0.0257318417847 -0.0643296044618 0.869 1.6316476894e-38
0.0272771588079 -0.0641815501362 0.867 1.63179104223e-38
0.0288816975613 -0.0641815501362 0.867 1.55803579951e-38
0.0303807476077 -0.0639594686478 0.864 1.40130392939e-38
0.0319797343239 -0.0639594686478 0.864 1.53945374109e-38
0.0335787210401 -0.0639594686478 0.864 1.39193765045e-38
0.0351777077563 -0.0639594686478 0.864 1.52094272851e-38
0.0366915632353 -0.0638114143223 0.862 1.47484491358e-38
0.0382868485934 -0.0638114143223 0.862 1.49321173255e-38
0.0398821339514 -0.0638114143223 0.862 1.54863673019e-38
0.0414774193095 -0.0638114143223 0.862 1.5209764998e-38
0.0429727679978 -0.0636633599967 0.86 1.46573072823e-38
0.0445643519977 -0.0636633599967 0.86 1.53026977109e-38
0.0461559359976 -0.0636633599967 0.86 1.59477111901e-38
0.0478585607417 -0.0638114143223 0.862 1.41967172927e-38
0.0494538460997 -0.0638114143223 0.862 2.03738469143e-38
0.0510491314578 -0.0638114143223 0.862 1.7516113095e-38
0.0527665616345 -0.0639594686478 0.864 1.69611442525e-38
0.0543655483507 -0.0639594686478 0.864 2.26761915016e-38
-0.0361141513656 -0.0640205410571 0.887 1.95422365316e-38
-0.0344725990308 -0.0640205410571 0.887 1.90801919941e-38
-0.032831046696 -0.0640205410571 0.887 1.66852664199e-38
-0.0311894943612 -0.0640205410571 0.887 1.64101214664e-38
-0.0295479420264 -0.0640205410571 0.887 1.76079401834e-38
-0.0279063896916 -0.0640205410571 0.887 1.81614642872e-38
-0.0262056156265 -0.0638761880897 0.885 5.18200172107e-42
-0.0245677646499 -0.0638761880897 0.885 9.44414909121e-40
-0.0229817326872 -0.0640205410571 0.887 9.78510182316e-39
-0.0212920626966 -0.0638761880897 0.885 5.91500833608e-39
-0.0196542117199 -0.0638761880897 0.885 9.13351345153e-39
-0.0180163607432 -0.0638761880897 0.885 3.23741423694e-39
-0.0163785097666 -0.0638761880897 0.885 2.78182408021e-39
-0.0147406587899 -0.0638761880897 0.885 3.14953180375e-39
-0.0130583915156 -0.0636596586385 0.882 8.50404597746e-40
-0.0114260925761 -0.0636596586385 0.882 1.18033037195e-38
-0.0097937936367 -0.0636596586385 0.882 9.31400209504e-39
-0.00816149469725 -0.0636596586385 0.882 7.65950721509e-39
-0.0065291957578 -0.0636596586385 0.882 1.66610323643e-39
-0.00489689681835 -0.0636596586385 0.882 5.07847799442e-39
-0.00325719516262 -0.0635153056711 0.88 1.12623997097e-38
-0.00162859758131 -0.0635153056711 0.88 1.58684537489e-38
0.0 -0.0635153056711 0.88 6.36296141617e-39
0.00162859758131 -0.0635153056711 0.88 1.94450480753e-39
0.00324979244634 -0.0633709527037 0.878 1.31247435857e-39
0.00487468866951 -0.0633709527037 0.878 3.01559429523e-42
0.00649958489268 -0.0633709527037 0.878 1.6875847215e-38
0.00812448111586 -0.0633709527037 0.878 1.7423532108e-38
0.00971606511577 -0.0631544232525 0.875 1.74221027836e-38
0.0113354093017 -0.0631544232525 0.875 1.71455172953e-38
0.0129547534877 -0.0631544232525 0.875 1.71465920912e-38
0.0145740976737 -0.0631544232525 0.875 1.66852636173e-38
0.0161564282782 -0.0630100702851 0.873 1.64998003643e-38
0.0177720711061 -0.0630100702851 0.873 1.69625497548e-38
0.0193877139339 -0.0630100702851 0.873 1.64104717911e-38
0.0210033567617 -0.0630100702851 0.873 1.70540433342e-38
0.0225671805756 -0.0628657173177 0.871 1.66841818149e-38
0.0241791220453 -0.0628657173177 0.871 1.79752737602e-38
0.0257910635149 -0.0628657173177 0.871 1.50268338913e-38
0.0273400818963 -0.0627213643502 0.869 1.49353389106e-38
0.0289483220078 -0.0627213643502 0.869 1.42892632472e-38
0.0305565621193 -0.0627213643502 0.869 1.53030480355e-38
0.0321648022309 -0.0627213643502 0.869 1.47495085174e-38
0.0337730423424 -0.0627213643502 0.869 1.48406251474e-38
0.0352998525749 -0.0625770113828 0.867 1.58551498213e-38
0.0366915632353 -0.0622161289642 0.862 1.47488050656e-38
0.0382868485934 -0.0622161289642 0.862 1.54863701045e-38
0.0398821339514 -0.0622161289642 0.862 1.53945402135e-38
0.0414774193095 -0.0622161289642 0.862 1.53952464679e-38
0.0430727046675 -0.0622161289642 0.862 1.52104992784e-38
0.0446679900256 -0.0622161289642 0.862 1.53026977109e-38
0.0462632753836 -0.0622161289642 0.862 1.49342879368e-38
0.0478585607417 -0.0622161289642 0.862 1.66877943623e-38
0.0494538460997 -0.0622161289642 0.862 2.24935967065e-38
0.0511675749183 -0.0623604819316 0.864 1.67785452535e-38
0.0527665616345 -0.0623604819316 0.864 1.7610473731e-38
0.0543655483507 -0.0623604819316 0.864 2.01894206221e-38
-0.0345503275517 -0.0625196403316 0.889 1.88046841044e-38
-0.0329050738588 -0.0625196403316 0.889 1.64079536577e-38
-0.0312598201658 -0.0625196403316 0.889 1.65948630508e-38
-0.0296145664729 -0.0625196403316 0.889 1.72398835365e-38
-0.0279693127799 -0.0625196403316 0.889 1.91752644897e-38
-0.0262648373568 -0.0623789887223 0.887 1.47911537065e-39
-0.024623285022 -0.0623789887223 0.887 1.03446234844e-39
-0.0230335517011 -0.0625196403316 0.889 1.21522424514e-39
-0.0213401803524 -0.0623789887223 0.887 1.77670632292e-41
-0.0196986280176 -0.0623789887223 0.887 1.61335317743e-38
-0.0180570756828 -0.0623789887223 0.887 2.48796058186e-39
-0.016415523348 -0.0623789887223 0.887 1.13093754381e-39
-0.0147406587899 -0.062238337113 0.885 3.05698304667e-39
-0.0131028078133 -0.062238337113 0.885 1.70341841323e-41
-0.0114649568366 -0.062238337113 0.885 6.45850054417e-39
-0.00982710585995 -0.062238337113 0.885 3.22590537265e-39
-0.00818925488329 -0.062238337113 0.885 6.92381010704e-39
-0.00655140390664 -0.062238337113 0.885 8.85519175444e-39
-0.00491355292998 -0.062238337113 0.885 1.16700136109e-41
-0.0032645978789 -0.0620273596991 0.882 7.57314939463e-39
-0.00163229893945 -0.0620273596991 0.882 3.23450514132e-39
0.0 -0.0618867080898 0.88 1.57630340655e-38
0.00162859758131 -0.0618867080898 0.88 1.54870763589e-38
0.00325719516262 -0.0618867080898 0.88 3.23619790987e-39
0.00487468866951 -0.0617460564805 0.878 1.70397893262e-41
0.00649958489268 -0.0617460564805 0.878 1.05212613597e-38
0.00812448111586 -0.0617460564805 0.878 1.78859521935e-38
0.00974937733903 -0.0617460564805 0.878 1.7053690207e-38
0.0113742735622 -0.0617460564805 0.878 1.71455229005e-38
0.0129991697854 -0.0617460564805 0.878 1.65012198796e-38
0.0146240660085 -0.0617460564805 0.878 1.74235293055e-38
0.0161934418596 -0.0615350790666 0.875 1.74220971784e-38
0.0178127860456 -0.0615350790666 0.875 1.65948630508e-38
0.0194321302315 -0.0615350790666 0.875 1.77930531118e-38
0.0210514744175 -0.0615350790666 0.875 1.71462515757e-38
0.0226189995895 -0.0613944274573 0.873 1.73295512239e-38
0.0242346424173 -0.0613944274573 0.873 1.63171803458e-38
0.0257910635149 -0.061253775848 0.871 1.56718319562e-38
0.0274030049846 -0.061253775848 0.871 1.52111999276e-38
0.0289483220078 -0.0611131242387 0.869 1.47495211291e-38
0.0305565621193 -0.0611131242387 0.869 1.48420740901e-38
0.0321648022309 -0.0611131242387 0.869 1.54874434991e-38
0.0337730423424 -0.0611131242387 0.869 1.48424426315e-38
0.035381282454 -0.0611131242387 0.869 1.46566038305e-38
0.0367766944725 -0.0607614952154 0.864 1.46569569577e-38
0.0383756811887 -0.0607614952154 0.864 1.52101279343e-38
0.0399746679049 -0.0607614952154 0.864 1.50264681524e-38
0.0414774193095 -0.0606208436061 0.862 1.53023291694e-38
0.0430727046675 -0.0606208436061 0.862 1.52097804123e-38
0.0446679900256 -0.0606208436061 0.862 1.52094118708e-38
0.0462632753836 -0.0606208436061 0.862 1.67788787625e-38
0.0478585607417 -0.0606208436061 0.862 1.71473333781e-38
0.0495685882021 -0.0607614952154 0.864 2.17553043937e-38
0.0511675749183 -0.0607614952154 0.864 1.73324449053e-38
0.0527665616345 -0.0607614952154 0.864 2.02830567868e-38
0.0543655483507 -0.0607614952154 0.864 1.93593054248e-38
-0.0363991559423 -0.0612167622666 0.894 1.88043155629e-38
-0.0346280560726 -0.0610113368898 0.891 1.99110134458e-38
-0.0329791010215 -0.0610113368898 0.891 1.677710612e-38
-0.0313301459705 -0.0610113368898 0.891 1.68714499404e-38
-0.0296811909194 -0.0610113368898 0.891 1.74239006495e-38
-0.0280322358683 -0.0610113368898 0.891 1.80685638042e-38
-0.026324059087 -0.0608743866387 0.889 1.13407827406e-38
-0.0246788053941 -0.0608743866387 0.889 1.56048596987e-41
-0.0230335517011 -0.0608743866387 0.889 2.14077767693e-39
-0.0213882980082 -0.0608743866387 0.889 1.55964519079e-41
-0.0197430443153 -0.0608743866387 0.889 1.49332705941e-38
-0.0180570756828 -0.0607374363875 0.887 7.92171397984e-39
-0.016415523348 -0.0607374363875 0.887 7.73986467553e-39
-0.0147739710132 -0.0607374363875 0.887 1.56697594358e-38
-0.0131324186784 -0.0607374363875 0.887 7.92823562289e-39
-0.0114908663436 -0.0607374363875 0.887 1.40170778361e-38
-0.00984931400879 -0.0607374363875 0.887 9.68601180485e-39
-0.00820776167399 -0.0607374363875 0.887 9.5070295572e-39
-0.00656620933919 -0.0607374363875 0.887 5.35537036708e-39
-0.00491355292998 -0.0606004861364 0.885 6.63126663183e-40
-0.00327570195332 -0.0606004861364 0.885 1.17096885743e-38
-0.00163785097666 -0.0606004861364 0.885 1.01821289145e-39
0.0 -0.0603950607596 0.882 1.11625782136e-38
0.00163229893945 -0.0603950607596 0.882 1.41106831722e-38
0.00325719516262 -0.0602581105085 0.88 4.15848491494e-39
0.00488579274393 -0.0602581105085 0.88 2.22900202695e-39
0.00651439032524 -0.0602581105085 0.88 9.51481657277e-42
0.00814298790655 -0.0602581105085 0.88 1.82565493944e-38
0.00974937733903 -0.0601211602573 0.878 1.6963292443e-38
0.0113742735622 -0.0601211602573 0.878 1.69622232523e-38
0.0129991697854 -0.0601211602573 0.878 1.76990568134e-38
0.0146240660085 -0.0601211602573 0.878 1.7330983351e-38
0.0161934418596 -0.0599157348806 0.875 1.81611139625e-38
0.0178127860456 -0.0599157348806 0.875 1.63182733586e-38
0.0194321302315 -0.0599157348806 0.875 1.68736135452e-38
0.0210514744175 -0.0599157348806 0.875 1.61328227172e-38
0.0226708186035 -0.0599157348806 0.875 1.81593146953e-38
0.0242901627894 -0.0599157348806 0.875 1.53019760421e-38
0.0258502852452 -0.0597787846294 0.873 1.48420712875e-38
0.027465928073 -0.0597787846294 0.873 1.50271716042e-38
0.0290815709008 -0.0597787846294 0.873 1.49342697199e-38
0.030626887924 -0.0596418343783 0.871 1.52108524056e-38
0.0322388293937 -0.0596418343783 0.871 1.47502273835e-38
0.0338507708634 -0.0596418343783 0.871 1.56703858162e-38
0.035381282454 -0.0595048841271 0.869 1.54856414293e-38
0.0369895225655 -0.0595048841271 0.869 1.53026949083e-38
0.0383756811887 -0.0591625084992 0.864 1.51179323044e-38
0.0399746679049 -0.0591625084992 0.864 1.53945247992e-38
0.0415736546211 -0.0591625084992 0.864 1.63157692382e-38
0.0431726413373 -0.0591625084992 0.864 1.58547994967e-38
0.0447716280535 -0.0591625084992 0.864 1.82508096759e-38
0.0463706147697 -0.0591625084992 0.864 1.84380721962e-38
0.0479696014859 -0.0591625084992 0.864 1.68714695586e-38
0.0495685882021 -0.0591625084992 0.864 2.13879610078e-38
0.051345240109 -0.059367933876 0.867 1.64104717911e-38
0.053071923681 -0.0595048841271 0.869 2.09269982727e-38
0.0546801637925 -0.0595048841271 0.869 2.10180896794e-38
-0.0363991559423 -0.0595622551783 0.894 1.90808982485e-38
-0.034744648854 -0.0595622551783 0.894 1.94500409017e-38
-0.0329791010215 -0.0593623818388 0.891 1.61320926407e-38
-0.0313301459705 -0.0593623818388 0.891 1.66870754962e-38
-0.0297811275891 -0.0595622551783 0.894 1.62260805313e-38
-0.0281266205009 -0.0595622551783 0.894 1.69654434362e-38
-0.0263832808172 -0.0593623818388 0.891 1.7517892744e-38
-0.0247343257662 -0.0593623818388 0.891 6.6225365424e-42
-0.0230853707151 -0.0593623818388 0.891 2.38907375183e-41
-0.021436415664 -0.0593623818388 0.891 1.04358578235e-38
-0.0197874606129 -0.0593623818388 0.891 1.15292027334e-38
-0.0180977906223 -0.0592291329458 0.889 8.66648869934e-39
-0.0164525369294 -0.0592291329458 0.889 7.64874524288e-39
-0.0148072832364 -0.0592291329458 0.889 6.63318360813e-39
-0.0131620295435 -0.0592291329458 0.889 1.18973336491e-38
-0.0115167758506 -0.0592291329458 0.889 8.06727525912e-42
-0.00987152215763 -0.0592291329458 0.889 1.40180293177e-39
-0.00820776167399 -0.0590958840527 0.887 2.04498631521e-39
-0.00656620933919 -0.0590958840527 0.887 9.4080236168e-40
-0.00492465700439 -0.0590958840527 0.887 1.31101000167e-39
-0.0032831046696 -0.0590958840527 0.887 4.62035148748e-39
-0.0016415523348 -0.0590958840527 0.887 3.69624419571e-39
0.0 -0.0590958840527 0.887 1.21487111793e-39
0.00163785097666 -0.0589626351597 0.885 1.81299995314e-41
0.0032645978789 -0.0587627618202 0.882 2.23189430698e-39
0.00489689681835 -0.0587627618202 0.882 2.87402111138e-39
0.00651439032524 -0.0586295129272 0.88 6.9602494723e-42
0.00814298790655 -0.0586295129272 0.88 1.77066714693e-38
0.00977158548786 -0.0586295129272 0.88 1.74235447197e-38
0.0114001830692 -0.0586295129272 0.88 1.69614903732e-38
0.0130287806505 -0.0586295129272 0.88 1.75157445535e-38
0.0146573782318 -0.0586295129272 0.88 1.71466047029e-38
0.0162489622317 -0.0584962640342 0.878 1.72395304093e-38
0.0178738584549 -0.0584962640342 0.878 1.76093625013e-38
0.0194987546781 -0.0584962640342 0.878 1.69643490221e-38
0.0211236509012 -0.0584962640342 0.878 1.5949147521e-38
0.0227485471244 -0.0584962640342 0.878 1.71458704225e-38
0.0243734433476 -0.0584962640342 0.878 1.45655054173e-38
0.0259095069754 -0.0582963906946 0.875 1.54881623652e-38
0.0275288511614 -0.0582963906946 0.875 1.46573283018e-38
0.0291481953473 -0.0582963906946 0.875 1.52115810808e-38
0.0306972137286 -0.0581631418016 0.873 1.49342669173e-38
0.0322388293937 -0.0580298929086 0.871 1.49335396434e-38
0.0338507708634 -0.0580298929086 0.871 1.53026822966e-38
0.035381282454 -0.0578966440156 0.869 1.43796638137e-38
0.0369895225655 -0.0578966440156 0.869 1.51179154889e-38
0.0385089300817 -0.0577633951226 0.867 1.60398942083e-38
0.0399746679049 -0.057563521783 0.864 1.56703858162e-38
0.0415736546211 -0.057563521783 0.864 1.64083236005e-38
0.0431726413373 -0.057563521783 0.864 1.77916083731e-38
0.0447716280535 -0.057563521783 0.864 1.77919615003e-38
0.0463706147697 -0.057563521783 0.864 1.79763653717e-38
0.0479696014859 -0.057563521783 0.864 1.71476865053e-38
0.0497407013555 -0.0577633951226 0.867 2.22173727532e-38
0.051345240109 -0.0577633951226 0.867 2.04663536324e-38
0.0529497788624 -0.0577633951226 0.867 1.88990349313e-38
-0.0364805858214 -0.0580372956249 0.896 1.90805479239e-38
-0.034744648854 -0.05790774809 0.894 1.94482360293e-38
-0.0330901417657 -0.05790774809 0.894 1.62228589462e-38
-0.0314356346774 -0.05790774809 0.894 1.6778162699e-38
-0.0297811275891 -0.05790774809 0.894 1.68707310743e-38
-0.0281266205009 -0.05790774809 0.894 1.68732422011e-38
-0.0264721134126 -0.05790774809 0.894 1.81614797014e-38
-0.0248176063243 -0.05790774809 0.894 2.76984017575e-39
-0.023163099236 -0.05790774809 0.894 1.4975914909e-39
-0.0215085921477 -0.05790774809 0.894 1.30777160092e-39
-0.0197874606129 -0.0577134267877 0.891 6.65287465415e-40
-0.0181385055618 -0.0577134267877 0.891 2.04642685003e-39
-0.0164895505108 -0.0577134267877 0.891 2.1386224799e-39
-0.0148405954597 -0.0577134267877 0.891 2.69611225835e-39
-0.0131916404086 -0.0577134267877 0.891 9.143675668e-39
-0.0115167758506 -0.0575838792528 0.889 6.93239165883e-39
-0.00987152215763 -0.0575838792528 0.889 2.0442618439e-39
-0.00822626846469 -0.0575838792528 0.889 4.80184626328e-39
-0.00658101477175 -0.0575838792528 0.889 9.22364356746e-39
-0.00493576107881 -0.0575838792528 0.889 4.79858404046e-39
-0.0032831046696 -0.0574543317179 0.887 1.33777550299e-38
-0.0016415523348 -0.0574543317179 0.887 4.2503148059e-39
0.0 -0.0574543317179 0.887 3.24136449731e-39
0.0016415523348 -0.0574543317179 0.887 3.42610187775e-39
0.00327570195332 -0.0573247841831 0.885 3.24243649063e-39
0.00489689681835 -0.0571304628807 0.882 2.87437143599e-39
0.0065291957578 -0.0571304628807 0.882 1.55908467141e-41
0.00816149469725 -0.0571304628807 0.882 1.03415350226e-38
0.00977158548786 -0.0570009153459 0.88 1.75175578337e-38
0.0114001830692 -0.0570009153459 0.88 1.76079457886e-38
0.0130287806505 -0.0570009153459 0.88 1.64104745937e-38
0.0146573782318 -0.0570009153459 0.88 1.74239006495e-38
0.0162859758131 -0.0570009153459 0.88 1.68700220172e-38
0.0179145733944 -0.0570009153459 0.88 1.72391506574e-38
0.0195431709757 -0.0570009153459 0.88 1.548815676e-38
0.021171768557 -0.0570009153459 0.88 1.71476893079e-38
0.0227485471244 -0.056871367811 0.878 1.58562162095e-38
0.0243734433476 -0.056871367811 0.878 1.44733097875e-38
0.0259983395707 -0.056871367811 0.878 1.54878120406e-38
0.0276232357939 -0.056871367811 0.878 1.44740104367e-38
0.0292481320171 -0.056871367811 0.878 1.5579639129e-38
0.0307675395333 -0.0566770465087 0.875 1.52115530548e-38
0.0323868837192 -0.0566770465087 0.875 1.49342402926e-38
0.0339284993843 -0.0565474989738 0.873 1.53948751238e-38
0.035462712333 -0.0564179514389 0.871 1.502538635e-38
0.0370746538027 -0.0564179514389 0.871 1.56703830136e-38
0.0385977626771 -0.056288403904 0.869 1.61324625835e-38
0.0402060027886 -0.056288403904 0.869 1.81600181471e-38
0.0417180075885 -0.0561588563692 0.867 1.86213718444e-38
0.0433225463419 -0.0561588563692 0.867 1.80674693901e-38
0.0449270850953 -0.0561588563692 0.867 1.76086590495e-38
0.0466389632348 -0.056288403904 0.869 1.76086590495e-38
0.0483582440905 -0.0564179514389 0.871 1.76079457886e-38
0.0499701855602 -0.0564179514389 0.871 2.18485874312e-38
0.0515821270299 -0.0564179514389 0.871 1.72384373965e-38
0.0531940684996 -0.0564179514389 0.871 1.68682283552e-38
-0.0348223773749 -0.0563790871785 0.896 1.96329846201e-38
-0.0330901417657 -0.0562532410017 0.894 1.61292353932e-38
-0.0314356346774 -0.0562532410017 0.894 1.74217496564e-38
-0.0298477520357 -0.0563790871785 0.896 1.77912426342e-38
-0.0281895435892 -0.0563790871785 0.896 1.6686332808e-38
-0.0265313351428 -0.0563790871785 0.896 1.86199369148e-38
-0.0248176063243 -0.0562532410017 0.894 1.40133896185e-38
-0.023163099236 -0.0562532410017 0.894 8.05466357294e-42
-0.0215567098035 -0.0563790871785 0.896 3.24137710899e-39
-0.0198985013571 -0.0563790871785 0.896 2.87402391397e-39
-0.0181995779711 -0.0562532410017 0.894 2.87222184415e-39
-0.0165450708829 -0.0562532410017 0.894 2.68963125295e-39
-0.0148905637946 -0.0562532410017 0.894 1.13918558657e-40
-0.0132360567063 -0.0562532410017 0.894 1.36558581244e-38
-0.011581549618 -0.0562532410017 0.894 6.83692960225e-39
-0.00989373030646 -0.0560644717366 0.891 1.08903353492e-38
-0.00824477525538 -0.0560644717366 0.891 1.26341013492e-38
-0.00659582020431 -0.0560644717366 0.891 7.84287692823e-39
-0.00494686515323 -0.0560644717366 0.891 9.49914164814e-39
-0.00329050738588 -0.0559386255599 0.889 9.78109130696e-39
-0.00164525369294 -0.0559386255599 0.889 4.98793729805e-39
0.0 -0.0559386255599 0.889 3.0587809126e-39
0.0016415523348 -0.0558127793831 0.887 3.9774833962e-39
0.0032831046696 -0.0558127793831 0.887 3.70234124532e-39
0.00492465700439 -0.0558127793831 0.887 3.33427899328e-39
0.00655140390664 -0.0556869332064 0.885 2.04570518132e-39
0.00818925488329 -0.0556869332064 0.885 3.88022347368e-40
0.0097937936367 -0.0554981639413 0.882 1.91791867241e-38
0.0114260925761 -0.0554981639413 0.882 1.70554880729e-38
0.0130583915156 -0.0554981639413 0.882 1.71469550275e-38
0.014690690455 -0.0554981639413 0.882 1.71476584794e-38
0.0162859758131 -0.0553723177646 0.88 1.77926747612e-38
0.0179145733944 -0.0553723177646 0.88 1.62253588626e-38
0.0195431709757 -0.0553723177646 0.88 1.6686332808e-38
0.021171768557 -0.0553723177646 0.88 1.68710813989e-38
0.0228003661383 -0.0553723177646 0.88 1.53034249848e-38
0.0244289637197 -0.0553723177646 0.88 1.43811141576e-38
0.0259983395707 -0.0552464715878 0.878 1.50268338913e-38
0.0276232357939 -0.0552464715878 0.878 1.53030480355e-38
0.0292481320171 -0.0552464715878 0.878 1.5302679494e-38
0.0307675395333 -0.0550577023227 0.875 1.53034011627e-38
0.0323868837192 -0.0550577023227 0.875 1.539559399e-38
0.0340062279052 -0.0550577023227 0.875 1.54877896198e-38
0.0356255720912 -0.0550577023227 0.875 1.55778370591e-38
0.0371597850399 -0.054931856146 0.873 1.622390992e-38
0.0386865952724 -0.0548060099692 0.871 1.80685483899e-38
0.0402985367421 -0.0548060099692 0.871 1.76086464378e-38
0.0418142429001 -0.0546801637925 0.869 1.74239006495e-38
0.0434224830117 -0.0546801637925 0.869 1.77916055705e-38
0.0450307231232 -0.0546801637925 0.869 1.76075660367e-38
0.0467463026208 -0.0548060099692 0.871 1.78856046715e-38
0.0484692848347 -0.054931856146 0.873 1.65934337263e-38
0.0501996697648 -0.0550577023227 0.875 2.12024963534e-38
0.0518190139508 -0.0550577023227 0.875 1.93600060741e-38
0.0534383581368 -0.0550577023227 0.875 1.6042451578e-38
-0.0348223773749 -0.054720878732 0.896 1.88028694228e-38
-0.0331641689285 -0.054720878732 0.896 1.5855134407e-38
-0.0315059604821 -0.054720878732 0.896 1.71462543783e-38
-0.0298477520357 -0.054720878732 0.896 1.72395065872e-38
-0.0281895435892 -0.054720878732 0.896 1.72405827844e-38
-0.0265313351428 -0.054720878732 0.896 1.73317022171e-38
-0.0248731266964 -0.054720878732 0.896 1.96351650405e-38
