# .PCD v0.7 - Point Cloud Data file format
VERSION 0.7
FIELDS x y z rgb
SIZE 4 4 4 4
TYPE F F F F
COUNT 1 1 1 1
WIDTH 852
HEIGHT 1
VIEWPOINT 0 0 0 1 0 0 0
POINTS 852
DATA ascii
0.0144741610039 -0.0160824011154 0.869 2.34903851457e-38
0.0161194146968 -0.0161194146968 0.871 2.34874466228e-38
0.0177313561665 -0.0161194146968 0.871 2.34849032661e-38
0.0193432976362 -0.0161194146968 0.871 2.34838550949e-38
0.0209552391059 -0.0161194146968 0.871 2.34838677066e-38
0.0226189995895 -0.0161564282782 0.873 2.34845851714e-38
0.0242346424173 -0.0161564282782 0.873 2.34845725597e-38
0.0259983395707 -0.0162489622317 0.878 1.67540015109e-38
0.0275288511614 -0.0161934418596 0.875 2.34864573061e-38
0.0291481953473 -0.0161934418596 0.875 9.47376413295e-39
0.0308730282403 -0.0162489622317 0.878 1.86044175343e-38
0.0324979244634 -0.0162489622317 0.878 1.68545334653e-38
0.0342005492075 -0.0162859758131 0.88 1.32667329552e-38
0.0358291467888 -0.0162859758131 0.88 2.11830042918e-38
0.0374577443701 -0.0162859758131 0.88 2.34935983231e-38
0.0390863419515 -0.0162859758131 0.88 1.68489633039e-38
0.0407149395328 -0.0162859758131 0.88 1.84307714312e-38
0.0423435371141 -0.0162859758131 0.88 1.22602461293e-38
0.0439721346954 -0.0162859758131 0.88 2.34961388772e-38
0.0456007322767 -0.0162859758131 0.88 4.22443282327e-39
0.047229329858 -0.0162859758131 0.88 2.34819044874e-38
0.0489689681835 -0.0163229893945 0.882 2.18308343809e-38
0.0506012671229 -0.0163229893945 0.882 1.19479527535e-38
0.0522335660624 -0.0163229893945 0.882 2.34943087814e-38
0.0540490822297 -0.0163785097666 0.885 2.34863760308e-38
0.0558127793831 -0.016415523348 0.887 2.34834963625e-38
0.0575838792528 -0.0164525369294 0.889 2.34845837701e-38
0.0592291329458 -0.0164525369294 0.889 2.34816858849e-38
0.0608743866387 -0.0164525369294 0.889 2.34881809032e-38
0.0625196403316 -0.0164525369294 0.889 2.34842236364e-38
0.0641648940246 -0.0164525369294 0.889 2.34860186997e-38
0.0659582020431 -0.0164895505108 0.891 2.34856459543e-38
0.0676071570942 -0.0164895505108 0.891 2.34860257062e-38
0.0692561121452 -0.0164895505108 0.891 2.34896284445e-38
0.0711438047963 -0.0165450708829 0.894 2.34856627699e-38
0.0727983118846 -0.0165450708829 0.894 2.32054647342e-38
0.0744528189729 -0.0165450708829 0.894 2.34827831015e-38
0.0762775885356 -0.0165820844643 0.896 2.34838522923e-38
0.077935796982 -0.0165820844643 0.896 2.22831230784e-38
-0.00974937733903 -0.0146240660085 0.878 2.03463142021e-38
-0.00812448111586 -0.0146240660085 0.878 2.20995277563e-38
-0.00644776587873 -0.0145074732272 0.871 2.06240445512e-38
-0.00483582440905 -0.0145074732272 0.871 2.32987351599e-38
-0.00322388293937 -0.0145074732272 0.871 2.34842054195e-38
-0.00161194146968 -0.0145074732272 0.871 2.33894832485e-38
0.0 -0.0145074732272 0.871 2.32050961927e-38
0.00161194146968 -0.0145074732272 0.871 2.31129187797e-38
0.00323128565565 -0.0145407854504 0.873 2.34874578332e-38
0.00483582440905 -0.0145074732272 0.871 2.3490372534e-38
0.00644776587873 -0.0145074732272 0.871 3.58161658003e-39
0.00805970734842 -0.0145074732272 0.871 7.07925334309e-39
0.00969385696694 -0.0145407854504 0.873 1.77646137595e-38
0.0112835902878 -0.0145074732272 0.871 2.348895442e-38
0.0128955317575 -0.0145074732272 0.871 2.34921409727e-38
0.0145407854504 -0.0145407854504 0.873 2.34885200175e-38
0.0161564282782 -0.0145407854504 0.873 2.34838635027e-38
0.0177720711061 -0.0145407854504 0.873 2.06308240332e-38
0.0194321302315 -0.0145740976737 0.875 2.34870808839e-38
0.0210514744175 -0.0145740976737 0.875 1.5645811245e-38
0.0226708186035 -0.0145740976737 0.875 1.85970719278e-38
0.0242901627894 -0.0145740976737 0.875 2.26602447251e-38
0.026057561301 -0.0146573782318 0.88 1.52775191801e-38
0.0276861588823 -0.0146573782318 0.88 1.51031317901e-38
0.0293147564636 -0.0146573782318 0.88 1.67522260657e-38
0.0309433540449 -0.0146573782318 0.88 2.34843231286e-38
0.0325719516262 -0.0146573782318 0.88 1.45416314954e-38
0.0342782777284 -0.014690690455 0.882 2.34885060045e-38
0.0359105766679 -0.014690690455 0.882 2.3026489493e-38
0.0375428756073 -0.014690690455 0.882 2.34924772843e-38
0.0393084234398 -0.0147406587899 0.885 1.40813399823e-38
0.0408074734862 -0.014690690455 0.882 2.28377766288e-38
0.0424397724257 -0.014690690455 0.882 1.75019711909e-38
0.0440720713651 -0.014690690455 0.882 2.33060036951e-38
0.0457043703046 -0.014690690455 0.882 1.8233419562e-38
0.0476050177091 -0.0147739710132 0.887 9.73564439516e-39
0.0492465700439 -0.0147739710132 0.887 2.10010961329e-38
0.0508881223787 -0.0147739710132 0.887 8.35711282699e-39
0.0525296747135 -0.0147739710132 0.887 2.34803994929e-38
0.0541712270483 -0.0147739710132 0.887 2.34914179027e-38
0.0559386255599 -0.0148072832364 0.889 2.34842208338e-38
0.0577134267877 -0.0148405954597 0.891 2.3486771197e-38
0.0593623818388 -0.0148405954597 0.891 2.34824187639e-38
0.0610113368898 -0.0148405954597 0.891 2.34896284445e-38
0.0626602919409 -0.0148405954597 0.891 2.34828265418e-38
0.064309246992 -0.0148405954597 0.891 2.34867473749e-38
0.0659582020431 -0.0148405954597 0.891 2.34849368973e-38
0.0678347906197 -0.0148905637946 0.894 2.34860172984e-38
0.0696447547499 -0.0149238760178 0.896 2.34856571647e-38
0.0714621215963 -0.0149571882411 0.898 2.34867347632e-38
0.0731240314008 -0.0149571882411 0.898 2.34827718912e-38
0.0747859412054 -0.0149571882411 0.898 2.34845823688e-38
0.0767032447216 -0.015007156576 0.901 2.27427069358e-38
0.0783707065634 -0.015007156576 0.901 2.18214582929e-38
-0.00974937733903 -0.0129991697854 0.878 1.91492073448e-38
-0.00812448111586 -0.0129991697854 0.878 2.21002508263e-38
-0.00649958489268 -0.0129991697854 0.878 2.09013180771e-38
-0.00487468866951 -0.0129991697854 0.878 2.34842362481e-38
-0.00324979244634 -0.0129991697854 0.878 2.27434131902e-38
-0.00161934418596 -0.0129547534877 0.875 2.34831432353e-38
0.0 -0.0129547534877 0.875 2.34834963625e-38
0.00161934418596 -0.0129547534877 0.875 2.34856627699e-38
0.00323128565565 -0.0129251426226 0.873 2.30228713404e-38
0.00483582440905 -0.0128955317575 0.871 2.34870948969e-38
0.00644776587873 -0.0128955317575 0.871 2.18308315783e-38
0.00809672092981 -0.0129547534877 0.875 2.34943003736e-38
0.00974937733903 -0.0129991697854 0.878 2.34910647755e-38
0.0113354093017 -0.0129547534877 0.875 2.32094304088e-38
0.0129547534877 -0.0129547534877 0.875 2.02602618647e-38
0.0146240660085 -0.0129991697854 0.878 2.25619100066e-38
0.0162489622317 -0.0129991697854 0.878 2.12661125011e-38
0.0178738584549 -0.0129991697854 0.878 7.35042701671e-39
0.0194987546781 -0.0129991697854 0.878 2.33978644146e-38
0.0211236509012 -0.0129991697854 0.878 2.34903473107e-38
0.0227485471244 -0.0129991697854 0.878 1.35303340119e-38
0.0243734433476 -0.0129991697854 0.878 2.34921269597e-38
0.026057561301 -0.0130287806505 0.88 1.85046240642e-38
0.0276861588823 -0.0130287806505 0.88 2.12805150467e-38
0.0293813809101 -0.0130583915156 0.882 2.34899605523e-38
0.0310136798495 -0.0130583915156 0.882 1.93376693766e-38
0.032645978789 -0.0130583915156 0.882 2.25698623754e-38
0.0343948705098 -0.0131028078133 0.885 1.33387933274e-38
0.0360327214865 -0.0131028078133 0.885 2.34950220423e-38
0.0376705724632 -0.0131028078133 0.885 2.34935801062e-38
0.0393972560352 -0.0131324186784 0.887 9.6588700549e-39
0.04103880837 -0.0131324186784 0.887 2.11776261083e-38
0.0426803607048 -0.0131324186784 0.887 2.35007589582e-38
0.0443219130396 -0.0131324186784 0.887 6.8901733387e-39
0.0459634653743 -0.0131324186784 0.887 2.34883448552e-38
0.0477123570952 -0.0131620295435 0.889 2.57140790541e-39
0.0493576107881 -0.0131620295435 0.889 2.34971786407e-38
0.0511176065834 -0.0131916404086 0.891 2.30243328947e-38
0.0527665616345 -0.0131916404086 0.891 2.34885172149e-38
0.0544155166855 -0.0131916404086 0.891 2.22899908422e-38
0.0560644717366 -0.0131916404086 0.891 2.34863830373e-38
0.05790774809 -0.0132360567063 0.894 2.34852998336e-38
0.0595622551783 -0.0132360567063 0.894 2.16366970904e-38
0.0612167622666 -0.0132360567063 0.894 2.34799230514e-38
0.0628712693549 -0.0132360567063 0.894 2.34838803182e-38
0.0645257764432 -0.0132360567063 0.894 2.34863620178e-38
0.066328337857 -0.0132656675714 0.896 2.34863914451e-38
0.0681383019871 -0.0132952784365 0.898 2.34878165656e-38
0.0698002117917 -0.0132952784365 0.898 2.34856473556e-38
0.0717008591963 -0.0133396947342 0.901 2.32980317081e-38
0.0735311807962 -0.0133693055993 0.903 2.34838564962e-38
0.0754521856705 -0.013413721897 0.906 2.17310787458e-38
0.0771289009076 -0.013413721897 0.906 2.24668487214e-38
0.0788056161447 -0.013413721897 0.906 2.34824215665e-38
-0.00974937733903 -0.0113742735622 0.878 2.27412846179e-38
-0.00812448111586 -0.0113742735622 0.878 2.21920414809e-38
-0.00649958489268 -0.0113742735622 0.878 2.20083438639e-38
-0.00487468866951 -0.0113742735622 0.878 2.34813677901e-38
-0.00324979244634 -0.0113742735622 0.878 2.302036722e-38
-0.00162489622317 -0.0113742735622 0.878 2.34806377136e-38
0.0 -0.0113742735622 0.878 2.34845767636e-38
0.00162489622317 -0.0113742735622 0.878 2.30221524743e-38
0.00324979244634 -0.0113742735622 0.878 2.34863704256e-38
0.00488579274393 -0.0114001830692 0.88 2.31150669702e-38
0.00651439032524 -0.0114001830692 0.88 2.34892472914e-38
0.00814298790655 -0.0114001830692 0.88 1.64799103339e-38
0.00977158548786 -0.0114001830692 0.88 1.86021123983e-38
0.0113742735622 -0.0113742735622 0.878 2.29350043215e-38
0.0129991697854 -0.0113742735622 0.878 1.4630220183e-38
0.0146240660085 -0.0113742735622 0.878 2.34845767636e-38
0.0162489622317 -0.0113742735622 0.878 2.34889348018e-38
0.0178738584549 -0.0113742735622 0.878 1.2606244937e-38
0.0194987546781 -0.0113742735622 0.878 2.34892514953e-38
0.021171768557 -0.0114001830692 0.88 2.34892683108e-38
0.0228003661383 -0.0114001830692 0.88 2.04464874241e-38
0.0244289637197 -0.0114001830692 0.88 2.34957843487e-38
0.0262056156265 -0.0114649568366 0.885 1.64813550726e-38
0.0278434666032 -0.0114649568366 0.885 1.34424964202e-38
0.0294813175799 -0.0114649568366 0.885 2.34950794956e-38
0.0311191685565 -0.0114649568366 0.885 6.71727552898e-39
0.032831046696 -0.0114908663436 0.887 2.35003988245e-38
0.0344725990308 -0.0114908663436 0.887 6.52929133999e-39
0.0361141513656 -0.0114908663436 0.887 2.33127439407e-38
0.0377557037004 -0.0114908663436 0.887 2.34910703807e-38
0.0394860886305 -0.0115167758506 0.889 2.30253922763e-38
0.0411313423234 -0.0115167758506 0.889 5.69383859685e-39
0.0427765960164 -0.0115167758506 0.889 2.17379885486e-38
0.0444218497093 -0.0115167758506 0.889 1.24232619822e-38
0.0460671034023 -0.0115167758506 0.889 2.34868496697e-38
0.0478196964812 -0.0115426853575 0.891 2.19237334626e-38
0.0494686515323 -0.0115426853575 0.891 2.34925151194e-38
0.0512897197369 -0.011581549618 0.894 2.33912628975e-38
0.0529442268251 -0.011581549618 0.894 2.09902907205e-38
0.0545987339134 -0.011581549618 0.894 1.86868853502e-38
0.0562532410017 -0.011581549618 0.894 2.34889418083e-38
0.0580372956249 -0.011607459125 0.896 2.3486729158e-38
0.0596955040713 -0.011607459125 0.896 2.34864124646e-38
0.0614906627689 -0.011633368632 0.898 2.3487438215e-38
0.0631525725735 -0.011633368632 0.898 2.34845949805e-38
0.064814482378 -0.011633368632 0.898 2.3487104706e-38
0.0666984736709 -0.0116722328924 0.901 2.34878179669e-38
0.0685176911964 -0.0116981423994 0.903 2.34820334069e-38
0.0704220399591 -0.0117370066599 0.906 2.34816998978e-38
0.0722579135962 -0.0117629161668 0.908 2.24686423834e-38
0.0739383301915 -0.0117629161668 0.908 2.21005465002e-38
0.0756187467868 -0.0117629161668 0.908 2.25601429693e-38
0.0774694258564 -0.0117888256738 0.91 2.19161776613e-38
0.0791535438098 -0.0117888256738 0.91 2.34885830759e-38
-0.00820776167399 -0.00984931400879 0.887 2.3203299728e-38
-0.00651439032524 -0.00977158548786 0.88 2.09927920382e-38
-0.00488579274393 -0.00977158548786 0.88 2.34813313563e-38
-0.00324979244634 -0.00974937733903 0.878 2.3485672579e-38
-0.00162489622317 -0.00974937733903 0.878 2.34820614328e-38
0.0 -0.00977158548786 0.88 2.33898615991e-38
0.00162859758131 -0.00977158548786 0.88 2.31136222315e-38
0.0032645978789 -0.0097937936367 0.882 2.32065339249e-38
0.00489689681835 -0.0097937936367 0.882 2.34842068208e-38
0.00655140390664 -0.00982710585995 0.885 2.34892837251e-38
0.00818925488329 -0.00982710585995 0.885 1.76762702991e-38
0.0097937936367 -0.0097937936367 0.882 1.75844838484e-38
0.0114260925761 -0.0097937936367 0.882 2.3498250634e-38
0.0130583915156 -0.0097937936367 0.882 1.08481030161e-38
0.014690690455 -0.0097937936367 0.882 1.86818504849e-38
0.0162859758131 -0.00977158548786 0.88 2.34860116932e-38
0.0179145733944 -0.00977158548786 0.88 2.34863522087e-38
0.0195431709757 -0.00977158548786 0.88 2.34913968832e-38
0.021171768557 -0.00977158548786 0.88 1.07652007977e-38
0.0228521851523 -0.0097937936367 0.882 1.08365885466e-38
0.024623285022 -0.00984931400879 0.887 2.24716117349e-38
0.0262648373568 -0.00984931400879 0.887 2.76223953288e-39
0.0279693127799 -0.00987152215763 0.889 1.03216169662e-38
0.0296145664729 -0.00987152215763 0.889 2.11841379422e-38
0.0312598201658 -0.00987152215763 0.889 1.47382518868e-38
0.0329050738588 -0.00987152215763 0.889 1.92447408676e-38
0.0345503275517 -0.00987152215763 0.889 1.28961567737e-38
0.0362770111237 -0.00989373030646 0.891 1.82219583419e-38
0.0379259661748 -0.00989373030646 0.891 1.99841500153e-38
0.0395749212258 -0.00989373030646 0.891 1.92392982244e-38
0.0412238762769 -0.00989373030646 0.891 2.34895709913e-38
0.042872831328 -0.00989373030646 0.891 2.12804870207e-38
0.0446716913837 -0.00992704252972 0.894 2.3492879457e-38
0.046326198472 -0.00992704252972 0.894 2.25629693883e-38
0.0479807055603 -0.00992704252972 0.894 2.23742817474e-38
0.0497462533928 -0.00994925067855 0.896 2.2281735793e-38
0.0514044618392 -0.00994925067855 0.896 1.99732927548e-38
0.0530626702856 -0.00994925067855 0.896 2.34806783513e-38
0.054720878732 -0.00994925067855 0.896 2.34906948327e-38
0.0563790871785 -0.00994925067855 0.896 2.34867165463e-38
0.0581668431598 -0.00997145882739 0.898 2.34888843551e-38
0.0598287529643 -0.00997145882739 0.898 2.34870514567e-38
0.0616960881456 -0.0100047710506 0.901 2.34870822852e-38
0.0633635499874 -0.0100047710506 0.901 2.34870836865e-38
0.0651753647966 -0.0100269791995 0.903 2.34856473556e-38
0.0670686094849 -0.0100602914227 0.906 2.3480996446e-38
0.068745324722 -0.0100602914227 0.906 2.31125530408e-38
0.0707329540428 -0.0101047077204 0.91 2.22846028496e-38
0.0724170719962 -0.0101047077204 0.91 2.28367172472e-38
0.0741011899496 -0.0101047077204 0.91 2.29281996161e-38
0.075785307903 -0.0101047077204 0.91 2.17293061033e-38
0.077724819568 -0.0101380199437 0.913 2.3485658566e-38
0.0794144895587 -0.0101380199437 0.913 2.34921675974e-38
-0.00820776167399 -0.00820776167399 0.887 2.23760796134e-38
-0.00656620933919 -0.00820776167399 0.887 2.09939032679e-38
-0.00491355292998 -0.00818925488329 0.885 2.34820165913e-38
-0.00327570195332 -0.00818925488329 0.885 2.34827929106e-38
-0.00163785097666 -0.00818925488329 0.885 2.34824215665e-38
0.0 -0.00818925488329 0.885 2.34845949805e-38
0.00163785097666 -0.00818925488329 0.885 2.30210706718e-38
0.00327570195332 -0.00818925488329 0.885 2.34813495732e-38
0.00492465700439 -0.00820776167399 0.887 2.34827690886e-38
0.00656620933919 -0.00820776167399 0.887 2.34820656367e-38
0.00820776167399 -0.00820776167399 0.887 2.34860327127e-38
0.00982710585995 -0.00818925488329 0.885 1.89690550129e-38
0.0114649568366 -0.00818925488329 0.885 2.02678050543e-38
0.0131028078133 -0.00818925488329 0.885 2.34982870678e-38
0.0147406587899 -0.00818925488329 0.885 9.38013497476e-39
0.0163229893945 -0.00816149469725 0.882 2.34896999108e-38
0.0179552883339 -0.00816149469725 0.882 2.34870724761e-38
0.0195875872734 -0.00816149469725 0.882 2.34878095591e-38
0.0212920626966 -0.00818925488329 0.885 2.00787642863e-38
0.0229817326872 -0.00820776167399 0.887 1.26088303327e-38
0.0247343257662 -0.00824477525538 0.891 1.62134828581e-38
0.0263832808172 -0.00824477525538 0.891 1.64856738744e-38
0.0280322358683 -0.00824477525538 0.891 2.34939556542e-38
0.0296811909194 -0.00824477525538 0.891 5.69380776829e-39
0.0313301459705 -0.00824477525538 0.891 2.34936039283e-38
0.0330901417657 -0.00827253544143 0.894 9.00640447043e-39
0.034744648854 -0.00827253544143 0.894 2.34964597746e-38
0.0363991559423 -0.00827253544143 0.894 2.14598840527e-38
0.0380536630306 -0.00827253544143 0.894 2.25698217378e-38
0.0397081701189 -0.00827253544143 0.894 2.34895793991e-38
0.0413626772071 -0.00827253544143 0.894 1.98943309876e-38
0.0431134196071 -0.00829104223213 0.896 2.12701230173e-38
0.0447716280535 -0.00829104223213 0.896 2.14501982777e-38
0.0464298364999 -0.00829104223213 0.896 2.1267966419e-38
0.0481953843324 -0.00830954902282 0.898 2.34846244077e-38
0.0498572941369 -0.00830954902282 0.898 2.32058360783e-38
0.0515192039415 -0.00830954902282 0.898 2.34910325456e-38
0.0533587789368 -0.00833730920887 0.901 2.34870598645e-38
0.0550262407785 -0.00833730920887 0.901 2.34903192847e-38
0.0566937026203 -0.00833730920887 0.901 2.34856557634e-38
0.058490711997 -0.00835581599956 0.903 2.34849565155e-38
0.0601618751969 -0.00835581599956 0.903 2.34863760308e-38
0.0620384637735 -0.00838357618561 0.906 2.34852858206e-38
0.0637151790106 -0.00838357618561 0.906 2.34860102919e-38
0.0655362472152 -0.00840208297631 0.908 2.34824215665e-38
0.0672166638105 -0.00840208297631 0.908 2.19154475848e-38
0.0688970804057 -0.00840208297631 0.908 2.15474161613e-38
0.0709661396056 -0.00844834995305 0.913 2.27459537443e-38
0.0726558095962 -0.00844834995305 0.913 2.08087889382e-38
0.0743454795868 -0.00844834995305 0.913 2.34795475034e-38
0.0762017106937 -0.00846685674374 0.915 2.34910773872e-38
0.0778950820425 -0.00846685674374 0.915 2.34870752787e-38
-0.00820776167399 -0.00656620933919 0.887 2.15473881353e-38
-0.00656620933919 -0.00656620933919 0.887 2.08998957591e-38
-0.00491355292998 -0.00655140390664 0.885 2.3020019698e-38
-0.00327570195332 -0.00655140390664 0.885 2.30225056015e-38
-0.00163785097666 -0.00655140390664 0.885 2.34849326934e-38
0.0 -0.00656620933919 0.887 2.30229161819e-38
0.0016415523348 -0.00656620933919 0.887 2.34827620821e-38
0.0032831046696 -0.00656620933919 0.887 2.33887797967e-38
0.00493576107881 -0.00658101477175 0.889 2.3481343968e-38
0.00656620933919 -0.00656620933919 0.887 2.34809754265e-38
0.00820776167399 -0.00656620933919 0.887 2.34877969475e-38
0.00987152215763 -0.00658101477175 0.889 2.34845907766e-38
0.0115167758506 -0.00658101477175 0.889 6.70399121953e-39
0.0131324186784 -0.00656620933919 0.887 2.34942989723e-38
0.0147739710132 -0.00656620933919 0.887 9.74962935384e-39
0.016415523348 -0.00656620933919 0.887 1.99872118524e-38
0.0180570756828 -0.00656620933919 0.887 1.59278477844e-38
0.0197430443153 -0.00658101477175 0.889 1.95158893178e-38
0.021436415664 -0.00659582020431 0.891 2.34906878262e-38
0.0230853707151 -0.00659582020431 0.891 3.489748854e-39
0.0248176063243 -0.00661802835314 0.894 2.28475646986e-38
0.0264721134126 -0.00661802835314 0.894 2.34914249092e-38
0.0281266205009 -0.00661802835314 0.894 2.34906976353e-38
0.0297811275891 -0.00661802835314 0.894 2.00737420326e-38
0.0314356346774 -0.00661802835314 0.894 2.34900053938e-38
0.0331641689285 -0.0066328337857 0.896 2.34900053938e-38
0.0348223773749 -0.0066328337857 0.896 1.97989530089e-38
0.0364805858214 -0.0066328337857 0.896 2.27438209681e-38
0.0381387942678 -0.0066328337857 0.896 1.97895979404e-38
0.0397970027142 -0.0066328337857 0.896 2.00693839944e-38
0.0414552111606 -0.0066328337857 0.896 2.13723715623e-38
0.0432096549187 -0.00664763921826 0.898 2.34921577883e-38
0.0448715647232 -0.00664763921826 0.898 2.17386163303e-38
0.0465334745278 -0.00664763921826 0.898 1.81426560592e-38
0.0483563934114 -0.00666984736709 0.901 2.34835061716e-38
0.0501348959974 -0.00668465279965 0.903 2.08973888362e-38
0.0518060591973 -0.00668465279965 0.903 2.34888843551e-38
0.0534772223972 -0.00668465279965 0.903 2.3489973164e-38
0.0551483855971 -0.00668465279965 0.903 2.34852802154e-38
0.0570083180621 -0.00670686094849 0.906 2.34874634384e-38
0.0586850332993 -0.00670686094849 0.906 2.34845795662e-38
0.0604949974294 -0.00672166638105 0.908 2.34838466871e-38
0.0621754140247 -0.00672166638105 0.908 2.21913324238e-38
0.0639964822292 -0.0067364718136 0.91 2.23775173456e-38
0.0656806001826 -0.0067364718136 0.91 2.15466692692e-38
0.0675867996244 -0.00675867996244 0.913 2.27455599795e-38
0.069276469615 -0.00675867996244 0.913 2.23775047339e-38
0.0711215966475 -0.006773485395 0.915 2.2928875042e-38
0.0728149679962 -0.006773485395 0.915 2.27426887189e-38
0.0747526289822 -0.00679569354383 0.918 2.34913842715e-38
0.0762017106937 -0.006773485395 0.915 2.34863942477e-38
0.0778950820425 -0.006773485395 0.915 2.34871033047e-38
0.0795884533912 -0.006773485395 0.915 2.34889362031e-38
-0.00822626846469 -0.00493576107881 0.889 2.19168811131e-38
-0.00658101477175 -0.00493576107881 0.889 2.20984207305e-38
-0.00493576107881 -0.00493576107881 0.889 2.03456401775e-38
-0.00329050738588 -0.00493576107881 0.889 2.34885284253e-38
-0.00164525369294 -0.00493576107881 0.889 2.34870640684e-38
0.0 -0.00493576107881 0.889 2.26541084391e-38
0.00164525369294 -0.00493576107881 0.889 2.31154341104e-38
0.00329050738588 -0.00493576107881 0.889 2.34860130945e-38
0.00493576107881 -0.00493576107881 0.889 2.34831334262e-38
0.00658101477175 -0.00493576107881 0.889 2.32980317081e-38
0.00822626846469 -0.00493576107881 0.889 2.34820600315e-38
0.00987152215763 -0.00493576107881 0.889 2.34907326677e-38
0.0115426853575 -0.00494686515323 0.891 6.15297824259e-39
0.0131916404086 -0.00494686515323 0.891 1.60012926395e-38
0.0148405954597 -0.00494686515323 0.891 2.26569628841e-38
0.0164895505108 -0.00494686515323 0.891 2.38772290011e-39
0.0181385055618 -0.00494686515323 0.891 2.34929719427e-38
0.0198985013571 -0.00497462533928 0.896 2.3490010999e-38
0.0215567098035 -0.00497462533928 0.896 2.34906808197e-38
0.02321491825 -0.00497462533928 0.896 1.66657505362e-38
0.0248731266964 -0.00497462533928 0.896 2.34875363059e-38
0.0265313351428 -0.00497462533928 0.896 2.3486006088e-38
0.0281895435892 -0.00497462533928 0.896 2.34874466228e-38
0.0299143764822 -0.00498572941369 0.898 2.09013026628e-38
0.0315762862867 -0.00498572941369 0.898 2.12715663547e-38
0.0332381960913 -0.00498572941369 0.898 2.0721615562e-38
0.0349001058959 -0.00498572941369 0.898 2.19190643361e-38
0.0365620157004 -0.00498572941369 0.898 2.34852914258e-38
0.038223925505 -0.00498572941369 0.898 2.34881584825e-38
0.0398858353096 -0.00498572941369 0.898 2.14548814172e-38
0.0415477451141 -0.00498572941369 0.898 1.86890377447e-38
0.0432096549187 -0.00498572941369 0.898 1.78578673697e-38
0.0450214697279 -0.00500238552532 0.901 2.13633850353e-38
0.0467925695976 -0.00501348959974 0.903 2.15528433903e-38
0.0484637327975 -0.00501348959974 0.903 2.34896340497e-38
0.0501348959974 -0.00501348959974 0.903 2.34881710941e-38
0.0519781723508 -0.00503014571137 0.906 2.34867487762e-38
0.0536548875879 -0.00503014571137 0.906 2.34860565348e-38
0.055331602825 -0.00503014571137 0.906 2.34863732282e-38
0.0570083180621 -0.00503014571137 0.906 2.34842236364e-38
0.0588145808341 -0.00504124978578 0.908 2.32051298238e-38
0.0604949974294 -0.00504124978578 0.908 2.24668305045e-38
0.0625177896526 -0.00506900997183 0.913 2.21909820992e-38
0.0643481112525 -0.00508011404625 0.915 2.26537581145e-38
0.0660414826012 -0.00508011404625 0.915 2.1917246852e-38
0.06773485395 -0.00508011404625 0.915 2.29299722587e-38
0.0694282252987 -0.00508011404625 0.915 2.18239778275e-38
0.0713547822102 -0.00509677015787 0.918 2.34849312921e-38
0.0730537055962 -0.00509677015787 0.918 2.34889109797e-38
0.0747526289822 -0.00509677015787 0.918 2.34895920108e-38
0.0762017106937 -0.00508011404625 0.915 2.34874620371e-38
0.0778950820425 -0.00508011404625 0.915 2.34860299101e-38
0.0795884533912 -0.00508011404625 0.915 2.34899955847e-38
-0.00824477525538 -0.00329791010215 0.891 2.00741105741e-38
-0.00659582020431 -0.00329791010215 0.891 2.1086062464e-38
-0.00494686515323 -0.00329791010215 0.891 2.0716202346e-38
-0.00329791010215 -0.00329791010215 0.891 2.34892514953e-38
-0.00164525369294 -0.00329050738588 0.889 2.29303197807e-38
0.0 -0.00329050738588 0.889 2.34852718076e-38
0.00164895505108 -0.00329791010215 0.891 2.34849228843e-38
0.00329791010215 -0.00329791010215 0.891 2.34842348468e-38
0.00494686515323 -0.00329791010215 0.891 2.34820614328e-38
0.00659582020431 -0.00329791010215 0.891 2.3482081051e-38
0.00824477525538 -0.00329791010215 0.891 2.34838270689e-38
0.00989373030646 -0.00329791010215 0.891 2.34892528966e-38
0.0115426853575 -0.00329791010215 0.891 2.32105416385e-38
0.0132360567063 -0.00330901417657 0.894 7.34684810043e-39
0.0148905637946 -0.00330901417657 0.894 2.34978792899e-38
0.0164895505108 -0.00329791010215 0.891 1.91538918856e-38
0.0181385055618 -0.00329791010215 0.891 2.24751444083e-38
0.0198985013571 -0.00331641689285 0.896 2.34863381958e-38
0.0215567098035 -0.00331641689285 0.896 2.22852880846e-38
0.0232667372639 -0.00332381960913 0.898 2.33959698591e-38
0.0249286470685 -0.00332381960913 0.898 1.85089204453e-38
0.026590556873 -0.00332381960913 0.898 1.88730394434e-38
0.0282524666776 -0.00332381960913 0.898 2.00662198624e-38
0.0299143764822 -0.00332381960913 0.898 2.29239382675e-38
0.0315762862867 -0.00332381960913 0.898 2.25698035209e-38
0.0333492368355 -0.00333492368355 0.901 2.14663860776e-38
0.0350166986772 -0.00333492368355 0.901 1.70413503727e-38
0.036684160519 -0.00333492368355 0.901 1.97106782122e-38
0.0383516223608 -0.00333492368355 0.901 2.29335301555e-38
0.0400190842026 -0.00333492368355 0.901 2.13612186279e-38
0.0416865460443 -0.00333492368355 0.901 2.34853320635e-38
0.0434502431977 -0.00334232639983 0.903 2.34863690243e-38
0.0451214063976 -0.00334232639983 0.903 2.34885382343e-38
0.0467925695976 -0.00334232639983 0.903 2.34913996858e-38
0.0486247418765 -0.00335343047424 0.906 2.34856291387e-38
0.0503014571137 -0.00335343047424 0.906 2.3488898368e-38
0.0520929144531 -0.00336083319052 0.908 2.34831390314e-38
0.0537733310484 -0.00336083319052 0.908 2.34827774964e-38
0.0554537476436 -0.00336083319052 0.908 2.34841872026e-38
0.0571341642389 -0.00336083319052 0.908 2.29296219341e-38
0.0588145808341 -0.00336083319052 0.908 2.20995081381e-38
0.060961368555 -0.0033867426975 0.915 2.20994871186e-38
0.0626547399037 -0.0033867426975 0.915 2.28374052847e-38
0.0645590886664 -0.00339784677192 0.918 2.21005591119e-38
0.0662580120524 -0.00339784677192 0.918 2.19172496546e-38
0.0679569354383 -0.00339784677192 0.918 2.20980858201e-38
0.0696558588243 -0.00339784677192 0.918 2.34856739803e-38
0.0715102392521 -0.00340524948819 0.92 2.34921507818e-38
0.0732128639962 -0.00340524948819 0.92 2.34907116483e-38
0.0747526289822 -0.00339784677192 0.918 2.3488888559e-38
0.0764515523681 -0.00339784677192 0.918 2.3485297031e-38
0.0783207382285 -0.00340524948819 0.92 2.34820544263e-38
-0.00498572941369 -0.00166190980456 0.898 1.97038468822e-38
-0.00332381960913 -0.00166190980456 0.898 2.34852760115e-38
-0.00166190980456 -0.00166190980456 0.898 2.28374263042e-38
0.0 -0.00166190980456 0.898 2.34856403491e-38
0.00166190980456 -0.00166190980456 0.898 2.34841998143e-38
0.00332381960913 -0.00166190980456 0.898 2.34838677066e-38
0.00498572941369 -0.00166190980456 0.898 2.3484212426e-38
0.00664763921826 -0.00166190980456 0.898 2.34831712612e-38
0.00830954902282 -0.00166190980456 0.898 2.34856557634e-38
0.00997145882739 -0.00166190980456 0.898 2.34827746938e-38
0.011633368632 -0.00166190980456 0.898 2.34888969667e-38
0.0133396947342 -0.00166746184177 0.901 2.26566419867e-38
0.015007156576 -0.00166746184177 0.901 2.34914122975e-38
0.0165820844643 -0.00165820844643 0.896 1.87804332331e-38
0.0182402929107 -0.00165820844643 0.896 1.99704341059e-38
0.0200095421013 -0.00166746184177 0.901 2.29203229174e-38
0.0216770039431 -0.00166746184177 0.901 2.28356088201e-38
0.0233444657848 -0.00166746184177 0.901 2.19190419153e-38
0.0249286470685 -0.00166190980456 0.898 2.20122689009e-38
0.026590556873 -0.00166190980456 0.898 2.23865066753e-38
0.0282524666776 -0.00166190980456 0.898 2.12808625687e-38
0.0299143764822 -0.00166190980456 0.898 1.85103623814e-38
0.0316817749937 -0.00166746184177 0.901 1.95223282843e-38
0.0333492368355 -0.00166746184177 0.901 1.98893479703e-38
0.0350166986772 -0.00166746184177 0.901 2.16496422856e-38
0.0367655903981 -0.00167116319991 0.903 2.26634242713e-38
0.0383516223608 -0.00166746184177 0.901 2.34917612208e-38
0.0400190842026 -0.00166746184177 0.901 2.34888899603e-38
0.041917880928 -0.00167671523712 0.906 2.3486729158e-38
0.0435945961652 -0.00167671523712 0.906 2.34864068594e-38
0.0452713114023 -0.00167671523712 0.906 2.3485297031e-38
0.0470516646673 -0.00168041659526 0.908 2.34870864891e-38
0.0487320812626 -0.00168041659526 0.908 2.34892402849e-38
0.0504124978578 -0.00168041659526 0.908 2.34838621014e-38
0.0522076565554 -0.0016841179534 0.91 2.34842180312e-38
0.0538917745088 -0.0016841179534 0.91 2.34896158329e-38
0.0555758924622 -0.0016841179534 0.91 2.34849242856e-38
0.0572600104156 -0.0016841179534 0.91 2.2746304069e-38
0.058944128369 -0.0016841179534 0.91 2.24708143961e-38
0.060961368555 -0.00169337134875 0.915 2.2099136794e-38
0.0628601652804 -0.00169892338596 0.918 2.26551678207e-38
0.0645590886664 -0.00169892338596 0.918 2.20098082208e-38
0.0662580120524 -0.00169892338596 0.918 2.20994899212e-38
0.0681049897639 -0.0017026247441 0.92 2.34888941642e-38
0.069807614508 -0.0017026247441 0.92 2.34899703614e-38
0.0715102392521 -0.0017026247441 0.92 2.34881781006e-38
0.0734516015962 -0.00170817678131 0.923 2.34874634384e-38
0.0751597783775 -0.00170817678131 0.923 2.33887797967e-38
0.0768679551588 -0.00170817678131 0.923 2.34867529801e-38
0.0785761319401 -0.00170817678131 0.923 2.34910381508e-38
-0.00500238552532 0.0 0.901 1.97953404615e-38
-0.00333492368355 0.0 0.901 2.34871019034e-38
-0.00166746184177 0.0 0.901 2.34896130303e-38
0.0 0.0 0.901 2.30210734744e-38
0.00166746184177 0.0 0.901 2.34885466421e-38
0.00333492368355 0.0 0.901 2.30214672393e-38
0.00498572941369 0.0 0.898 2.34823991458e-38
0.00664763921826 0.0 0.898 2.34838550949e-38
0.00833730920887 0.0 0.901 2.34824117575e-38
0.0100047710506 0.0 0.901 2.34849158778e-38
0.0116722328924 0.0 0.901 2.34870850878e-38
0.0133693055993 0.0 0.903 2.22820819137e-38
0.0150904371341 0.0 0.906 1.96988064116e-38
0.0168041659526 0.0 0.908 2.34856011128e-38
0.0184845825479 0.0 0.908 2.34888829538e-38
0.0201649991431 0.0 0.908 2.34831572482e-38
0.0218454157384 0.0 0.908 2.19158399484e-38
0.0235258323337 0.0 0.908 1.82277022643e-38
0.0251507285568 0.0 0.906 2.09899558101e-38
0.026827443794 0.0 0.906 2.01634251343e-38
0.0285041590311 0.0 0.906 2.25694714131e-38
0.0301808742682 0.0 0.906 1.98046338729e-38
0.0318575895053 0.0 0.906 2.34971996601e-38
0.0336083319052 0.0 0.908 2.34892935342e-38
0.0354830698028 0.0 0.913 1.98053793637e-38
0.0371727397934 0.0 0.913 2.34900334198e-38
0.038862409784 0.0 0.913 2.34845767636e-38
0.04064091237 0.0 0.915 2.34881668902e-38
0.0423342837187 0.0 0.915 2.34877997501e-38
0.0440276550675 0.0 0.915 2.34849411012e-38
0.0458709314209 0.0 0.918 2.34827887067e-38
0.0473107597371 0.0 0.913 2.34878305786e-38
0.0490004297277 0.0 0.913 2.34827999171e-38
0.0506900997183 0.0 0.913 2.34888927629e-38
0.0524945118112 0.0 0.915 2.34860144958e-38
0.05418788316 0.0 0.915 2.34878305786e-38
0.0558812545087 0.0 0.915 2.2469344434e-38
0.0575746258575 0.0 0.915 2.17321521405e-38
0.0592679972062 0.0 0.915 2.2101306004e-38
0.0611612418945 0.0 0.918 2.26548273052e-38
0.0628601652804 0.0 0.918 2.21931330924e-38
0.0646997402757 0.0 0.92 2.34838803182e-38
0.0664023650198 0.0 0.92 2.34899843744e-38
0.0681049897639 0.0 0.92 2.34899773679e-38
0.0700352480336 0.0 0.923 2.34881612851e-38
0.0718988818567 0.0 0.925 2.34838705092e-38
0.0736107599962 0.0 0.925 2.34903431068e-38
0.0753226381356 0.0 0.925 2.00737027962e-38
0.0770345162751 0.0 0.925 2.34881710941e-38
0.0787463944145 0.0 0.925 2.34849621207e-38
-0.00503014571137 0.00167671523712 0.906 1.87826136535e-38
-0.00335343047424 0.00167671523712 0.906 2.34885718655e-38
-0.00167671523712 0.00167671523712 0.906 2.29321246531e-38
0.0 0.00167671523712 0.906 2.3483099795e-38
0.00167116319991 0.00167116319991 0.903 2.34849368973e-38
0.00333492368355 0.00166746184177 0.901 2.34849411012e-38
0.00500238552532 0.00166746184177 0.901 2.34824243691e-38
0.00666984736709 0.00166746184177 0.901 2.34838536936e-38
0.00835581599956 0.00167116319991 0.903 2.34835089742e-38
0.0100602914227 0.00167671523712 0.906 2.3483527191e-38
0.0117629161668 0.00168041659526 0.908 2.34845823688e-38
0.0135173599249 0.00168966999061 0.913 2.3485686592e-38
0.0152070299155 0.00168966999061 0.913 1.94251132033e-38
0.0168966999061 0.00168966999061 0.913 2.24747338279e-38
0.0185863698967 0.00168966999061 0.913 1.82315950714e-38
0.0202760398873 0.00168966999061 0.913 2.05282195583e-38
0.0219657098779 0.00168966999061 0.913 2.12679944449e-38
0.0236553798685 0.00168966999061 0.913 2.26569796996e-38
0.0253450498591 0.00168966999061 0.913 2.34928710492e-38
0.0269458872544 0.0016841179534 0.91 2.34943017749e-38
0.0286300052078 0.0016841179534 0.91 2.256804349e-38
0.0303141231612 0.0016841179534 0.91 1.94373059013e-38
0.0319982411146 0.0016841179534 0.91 1.24248076144e-38
0.0337933998122 0.00168966999061 0.913 9.74397091064e-39
0.0355607983237 0.00169337134875 0.915 4.59198500267e-40
0.0372541696725 0.00169337134875 0.915 2.30295275081e-38
0.0389475410212 0.00169337134875 0.915 2.34921535844e-38
0.040774161263 0.00169892338596 0.918 2.34856529608e-38
0.042473084649 0.00169892338596 0.918 2.34892514953e-38
0.0441720080349 0.00169892338596 0.918 2.34845851714e-38
0.0459708680906 0.0017026247441 0.92 2.3488175298e-38
0.0476734928347 0.0017026247441 0.92 2.34895948134e-38
0.0495371266579 0.00170817678131 0.923 2.34899353289e-38
0.0512453034392 0.00170817678131 0.923 2.34877969475e-38
0.0529534802205 0.00170817678131 0.923 2.34806265032e-38
0.0546616570018 0.00170817678131 0.923 2.17321297197e-38
0.0564919786017 0.00171187813945 0.925 2.21009374625e-38
0.0582038567412 0.00171187813945 0.925 2.31132663017e-38
0.0599157348806 0.00171187813945 0.925 2.34817209173e-38
0.0618274863596 0.00171743017665 0.928 2.34856529608e-38
0.0635449165362 0.00171743017665 0.928 2.34863690243e-38
0.0654029983222 0.00172113153479 0.93 2.34863508074e-38
0.067124129857 0.00172113153479 0.93 2.34888927629e-38
0.0688452613918 0.00172113153479 0.93 2.34852732089e-38
0.0705663929266 0.00172113153479 0.93 2.34867095398e-38
0.0722875244614 0.00172113153479 0.93 2.34878235721e-38
0.0740086559961 0.00172113153479 0.93 2.34950220423e-38
0.0755669277728 0.00171743017665 0.928 1.94272613939e-38
0.0772843579495 0.00171743017665 0.928 2.34914094949e-38
-0.00504124978578 0.00336083319052 0.908 1.70323484313e-38
-0.00336083319052 0.00336083319052 0.908 2.34853026362e-38
-0.00168041659526 0.00336083319052 0.908 2.34845823688e-38
0.0 0.00336083319052 0.908 2.34831684586e-38
0.00168041659526 0.00336083319052 0.908 2.34856571647e-38
0.00336083319052 0.00336083319052 0.908 2.34870402463e-38
0.00503014571137 0.00335343047424 0.906 2.3484198413e-38
0.00670686094849 0.00335343047424 0.906 2.3484559948e-38
0.00840208297631 0.00336083319052 0.908 2.33005344272e-38
0.0101380199437 0.00337933998122 0.913 2.34878123617e-38
0.0118276899343 0.00337933998122 0.913 2.3485644553e-38
0.0135173599249 0.00337933998122 0.913 2.34870976995e-38
0.0152070299155 0.00337933998122 0.913 2.10857261524e-38
0.0169337134875 0.0033867426975 0.915 2.34892893303e-38
0.0186270848362 0.0033867426975 0.915 2.34906864249e-38
0.020320456185 0.0033867426975 0.915 2.34903557184e-38
0.0220138275337 0.0033867426975 0.915 2.34928766544e-38
0.0237071988825 0.0033867426975 0.915 2.29338944931e-38
0.0254005702312 0.0033867426975 0.915 1.73139351539e-38
0.02709394158 0.0033867426975 0.915 1.38938210244e-38
0.0287873129287 0.0033867426975 0.915 1.10317992318e-38
0.0304806842775 0.0033867426975 0.915 1.68430302062e-38
0.0322795443332 0.00339784677192 0.918 8.10530509814e-39
0.0339784677192 0.00339784677192 0.918 7.36993028873e-39
0.0356773911051 0.00339784677192 0.918 7.18698516902e-39
0.0373763144911 0.00339784677192 0.918 5.33805312066e-39
0.039075237877 0.00339784677192 0.918 2.34950682852e-38
0.0408629938583 0.00340524948819 0.92 2.3487466241e-38
0.0425656186024 0.00340524948819 0.92 2.34842334455e-38
0.0442682433465 0.00340524948819 0.92 2.34885312278e-38
0.0461207730953 0.00341635356261 0.923 2.34878179669e-38
0.0478289498766 0.00341635356261 0.923 2.34860004828e-38
0.0496444660439 0.00342375627889 0.925 2.34874536293e-38
0.0513563441834 0.00342375627889 0.925 2.32969625174e-38
0.0530682223228 0.00342375627889 0.925 2.34831852742e-38
0.0547801004623 0.00342375627889 0.925 2.24678548537e-38
0.0564919786017 0.00342375627889 0.925 2.32058304731e-38
0.0583926260063 0.00343486035331 0.928 2.34809698213e-38
0.0601100561829 0.00343486035331 0.928 2.34806110889e-38
0.0618274863596 0.00343486035331 0.928 2.31114726397e-38
0.0638872921641 0.00345336714401 0.933 2.3487104706e-38
0.0656139757361 0.00345336714401 0.933 2.34899507432e-38
0.0673406593081 0.00345336714401 0.933 2.34831432353e-38
0.0690673428801 0.00345336714401 0.933 2.34896396549e-38
0.0707940264521 0.00345336714401 0.933 2.34889081771e-38
0.072676167066 0.00346076986028 0.935 2.34881795019e-38
0.0744065519961 0.00346076986028 0.935 2.34892514953e-38
0.0761369369263 0.00346076986028 0.935 1.8597077533e-38
0.0778673218564 0.00346076986028 0.935 2.34885172149e-38
-0.0050523538602 0.0050523538602 0.91 1.77692240314e-38
-0.0033682359068 0.0050523538602 0.91 2.34824117575e-38
-0.0016841179534 0.0050523538602 0.91 2.34870682723e-38
0.0 0.00506900997183 0.913 2.34842026169e-38
0.0016841179534 0.0050523538602 0.91 2.3485297031e-38
0.0033682359068 0.0050523538602 0.91 2.34813523758e-38
0.0050523538602 0.0050523538602 0.91 2.34856277374e-38
0.0067364718136 0.0050523538602 0.91 2.34838032468e-38
0.00844834995305 0.00506900997183 0.913 2.34849242856e-38
0.0101380199437 0.00506900997183 0.913 2.34849298908e-38
0.0118276899343 0.00506900997183 0.913 2.3483864904e-38
0.01354697079 0.00508011404625 0.915 2.34903669288e-38
0.0152403421387 0.00508011404625 0.915 2.34885424382e-38
0.0169337134875 0.00508011404625 0.915 2.31168816517e-38
0.0186270848362 0.00508011404625 0.915 2.04493292574e-38
0.020320456185 0.00508011404625 0.915 1.66693238473e-38
0.0220138275337 0.00508011404625 0.915 1.4173971416e-38
0.0237071988825 0.00508011404625 0.915 6.43213090966e-39
0.0254838507894 0.00509677015787 0.918 5.98986149614e-39
0.0271827741753 0.00509677015787 0.918 1.71365882215e-38
0.0289446206497 0.00510787423229 0.92 2.11873020742e-38
0.0306472453938 0.00510787423229 0.92 1.78679216861e-38
0.0323498701378 0.00510787423229 0.92 1.67698389861e-38
0.0340524948819 0.00510787423229 0.92 1.68623877432e-38
0.035755119626 0.00510787423229 0.92 9.11660398296e-39
0.0374577443701 0.00510787423229 0.92 3.22688908417e-39
0.0391603691142 0.00510787423229 0.92 1.78733937566e-38
0.0408629938583 0.00510787423229 0.92 2.34935857114e-38
0.0425656186024 0.00510787423229 0.92 2.3487869815e-38
0.044412596314 0.00512453034392 0.923 2.34856599673e-38
0.046220709765 0.00513563441834 0.925 2.34838859234e-38
0.0479325879045 0.00513563441834 0.925 2.34899885783e-38
0.049805475123 0.00515229052996 0.928 2.34856711777e-38
0.0515229052996 0.00515229052996 0.928 2.34888647369e-38
0.0532403354763 0.00515229052996 0.928 2.28366499848e-38
0.054957765653 0.00515229052996 0.928 2.31132719069e-38
0.0566751958296 0.00515229052996 0.928 2.30193008319e-38
0.058518472183 0.00516339460438 0.93 2.34817041017e-38
0.060563472555 0.00519115479043 0.935 2.34809908408e-38
0.0622938574851 0.00519115479043 0.935 2.34885312278e-38
0.0640242424153 0.00519115479043 0.935 2.34874634384e-38
0.0657546273454 0.00519115479043 0.935 2.34827606808e-38
0.0674850122756 0.00519115479043 0.935 2.34859990815e-38
0.0692153972057 0.00519115479043 0.935 2.34827873054e-38
0.0709457821358 0.00519115479043 0.935 2.34849509103e-38
0.0729093526288 0.00520781090205 0.938 2.3488189311e-38
0.0746452895961 0.00520781090205 0.938 2.34867445723e-38
0.0763812265635 0.00520781090205 0.938 2.07140499516e-38
0.0781171635308 0.00520781090205 0.938 2.34878600059e-38
-0.00508011404625 0.006773485395 0.915 1.76805834957e-38
-0.0033867426975 0.006773485395 0.915 2.24679599511e-38
-0.00169337134875 0.006773485395 0.915 2.34877871384e-38
0.0 0.006773485395 0.915 2.34820726432e-38
0.00169337134875 0.006773485395 0.915 2.34813355602e-38
0.0033867426975 0.006773485395 0.915 2.3483503369e-38
0.00508011404625 0.006773485395 0.915 2.34853026362e-38
0.006773485395 0.006773485395 0.915 2.34907172535e-38
0.00846685674374 0.006773485395 0.915 2.34906990366e-38
0.0101602280925 0.006773485395 0.915 2.34849607194e-38
0.0118535994412 0.006773485395 0.915 2.29331938438e-38
0.01354697079 0.006773485395 0.915 1.94351549081e-38
0.0152403421387 0.006773485395 0.915 1.28871996739e-38
0.0169337134875 0.006773485395 0.915 8.55261778483e-39
0.0186270848362 0.006773485395 0.915 9.66692191587e-39
0.0203870806315 0.00679569354383 0.918 1.42799249942e-38
0.0220860040175 0.00679569354383 0.918 1.35347467007e-38
0.0237849274034 0.00679569354383 0.918 1.61187312599e-38
0.0255393711615 0.00681049897639 0.92 8.1063434603e-39
0.0273308285009 0.00683270712523 0.923 7.18086429733e-39
0.0291019283706 0.00684751255778 0.925 1.86123264629e-38
0.03081380651 0.00684751255778 0.925 6.99679113236e-39
0.0324553588448 0.00683270712523 0.923 1.14276113973e-38
0.0341635356261 0.00683270712523 0.923 1.08661531416e-38
0.0358717124074 0.00683270712523 0.923 9.20952408413e-39
0.0375798891887 0.00683270712523 0.923 7.55541315996e-39
0.03928806597 0.00683270712523 0.923 2.76316438986e-40
0.0409962427514 0.00683270712523 0.923 2.27578829982e-38
0.0427044195327 0.00683270712523 0.923 2.34885326291e-38
0.0445088316256 0.00684751255778 0.925 2.32987351599e-38
0.0463706147697 0.00686972070662 0.928 2.34835005664e-38
0.0480880449463 0.00686972070662 0.928 2.32043955434e-38
0.049912814509 0.00688452613918 0.93 2.33877078033e-38
0.0516339460438 0.00688452613918 0.93 2.34809544071e-38
0.0533550775786 0.00688452613918 0.93 2.34813383628e-38
0.0550762091134 0.00688452613918 0.93 2.33891581473e-38
0.0569805578761 0.00690673428801 0.933 2.34863760308e-38
0.0588330876248 0.00692153972057 0.935 2.34831025976e-38
0.060563472555 0.00692153972057 0.935 2.34856964011e-38
0.0622938574851 0.00692153972057 0.935 2.34849298908e-38
0.064229667792 0.00694374786941 0.938 2.34842278403e-38
0.0659656047594 0.00694374786941 0.938 2.34835075729e-38
0.0677015417267 0.00694374786941 0.938 2.34824341782e-38
0.0694374786941 0.00694374786941 0.938 2.34881907123e-38
0.0711734156614 0.00694374786941 0.938 2.34892641069e-38
0.0730648096706 0.00695855330196 0.94 2.34878151643e-38
0.0748044479961 0.00695855330196 0.94 2.34950234436e-38
0.0765440863216 0.00695855330196 0.94 2.3491808865e-38
0.0782837246471 0.00695855330196 0.94 2.34834403105e-38
0.0802787566842 0.0069807614508 0.943 2.34867487762e-38
-0.00340524948819 0.00851312372049 0.92 2.10860792796e-38
-0.0017026247441 0.00851312372049 0.92 2.3489996986e-38
0.0 0.00849461692979 0.918 2.34881528773e-38
0.00169892338596 0.00849461692979 0.918 2.34849298908e-38
0.00339784677192 0.00849461692979 0.918 2.34860299101e-38
0.00509677015787 0.00849461692979 0.918 2.34878235721e-38
0.00679569354383 0.00849461692979 0.918 2.02642275393e-38
0.00849461692979 0.00849461692979 0.918 1.40878658293e-38
0.0101935403157 0.00849461692979 0.918 1.6752589002e-38
0.0118924637017 0.00849461692979 0.918 9.01571469743e-39
0.0135913870877 0.00849461692979 0.918 2.84768931193e-39
0.0152903104736 0.00849461692979 0.918 6.54448561923e-39
0.0169892338596 0.00849461692979 0.918 8.2936816507e-39
0.0186881572455 0.00849461692979 0.918 6.08421372434e-39
0.0203870806315 0.00849461692979 0.918 1.46461151115e-38
0.0220860040175 0.00849461692979 0.918 1.27921327835e-38
0.0238367464174 0.00851312372049 0.92 1.91601080455e-38
0.0256226517196 0.00854088390653 0.923 8.56449238802e-39
0.0273900502311 0.00855939069723 0.925 7.27772905368e-39
0.0291963130031 0.00858715088327 0.928 1.12395431304e-38
0.0309137431798 0.00858715088327 0.928 8.74745432331e-39
0.0325256846495 0.00855939069723 0.925 7.28169753093e-39
0.0342375627889 0.00855939069723 0.925 7.64901289089e-39
0.0359494409284 0.00855939069723 0.925 7.18733829624e-39
0.0376613190678 0.00855939069723 0.925 7.36598002836e-39
0.0393731972073 0.00855939069723 0.925 1.15072471891e-38
0.0410850753467 0.00855939069723 0.925 1.95181524149e-38
0.0427969534861 0.00855939069723 0.925 2.29317841376e-38
0.0447494199046 0.00860565767397 0.93 2.29299694561e-38
0.0464705514394 0.00860565767397 0.93 2.28388584312e-38
0.0481916829742 0.00860565767397 0.93 2.32973100394e-38
0.0500738235881 0.00863341786002 0.933 2.34860355153e-38
0.0518005071601 0.00863341786002 0.933 2.34827746938e-38
0.0535271907321 0.00863341786002 0.933 2.34856487569e-38
0.0553723177646 0.00865192465071 0.935 2.34878123617e-38
0.0571027026947 0.00865192465071 0.935 2.34878375851e-38
0.0591477030667 0.00869819162745 0.94 2.33891581473e-38
0.0607577938573 0.00867968483676 0.938 2.32966121928e-38
0.0624937308247 0.00867968483676 0.938 2.3480259363e-38
0.064229667792 0.00867968483676 0.938 2.34910871962e-38
0.0659656047594 0.00867968483676 0.938 2.34885634577e-38
0.0678458946941 0.00869819162745 0.94 2.34888955655e-38
0.0695855330196 0.00869819162745 0.94 2.34838719105e-38
0.0715528048707 0.0087259518135 0.943 2.34842236364e-38
0.0732979952334 0.0087259518135 0.943 2.34863788334e-38
0.0750431855961 0.0087259518135 0.943 2.34928570362e-38
0.0767883759588 0.0087259518135 0.943 2.3493226979e-38
0.0785335663215 0.0087259518135 0.943 2.34899577497e-38
0.0802787566842 0.0087259518135 0.943 2.34881977188e-38
-0.0017026247441 0.0102157484646 0.92 2.34932241764e-38
0.0 0.0101935403157 0.918 2.34820838536e-38
0.00169892338596 0.0101935403157 0.918 2.34899745653e-38
0.00340524948819 0.0102157484646 0.92 1.868684191e-38
0.00510787423229 0.0102157484646 0.92 7.80602417992e-39
0.00681049897639 0.0102157484646 0.92 3.30616614349e-39
0.00849461692979 0.0101935403157 0.918 9.49513113194e-39
0.0101935403157 0.0101935403157 0.918 1.14254618055e-38
0.0118924637017 0.0101935403157 0.918 1.76889310307e-38
0.0135913870877 0.0101935403157 0.918 7.08724634953e-39
0.0152903104736 0.0101935403157 0.918 1.0041449759e-38
0.0169892338596 0.0101935403157 0.918 1.67681237968e-38
0.0186881572455 0.0101935403157 0.918 1.05055752247e-38
0.0204314969292 0.0102157484646 0.92 1.20625145082e-38
0.0221341216733 0.0102157484646 0.92 1.1966739962e-38
0.0239662939522 0.0102712688367 0.925 8.6523846303e-39
0.0256781720917 0.0102712688367 0.925 1.71340168388e-38
0.0274788828265 0.0103045810599 0.928 1.07817739546e-38
0.0291963130031 0.0103045810599 0.928 1.82492892671e-38
0.0309137431798 0.0103045810599 0.928 4.69228854545e-39
0.0326311733564 0.0103045810599 0.928 8.65781185925e-39
0.0343486035331 0.0103045810599 0.928 1.36226865872e-38
0.0360660337097 0.0103045810599 0.928 1.89717763345e-38
0.0379870385841 0.010360101432 0.933 2.24800517555e-38
0.0397137221561 0.010360101432 0.933 2.34910647755e-38
0.0414404057281 0.010360101432 0.933 2.33927328596e-38
0.0431670893001 0.010360101432 0.933 2.34827985158e-38
0.0448937728721 0.010360101432 0.933 2.274449219e-38
0.0467203931138 0.0103823095809 0.935 2.34863662217e-38
0.048450778044 0.0103823095809 0.935 2.29271023994e-38
0.0501811629741 0.0103823095809 0.935 2.34813411654e-38
0.0519115479043 0.0103823095809 0.935 2.34827788977e-38
0.0538140459879 0.0104156218041 0.938 2.32998309753e-38
0.0556684264157 0.0104378299529 0.94 2.34874578332e-38
0.0574080647412 0.0104378299529 0.94 2.34806096876e-38
0.0591477030667 0.0104378299529 0.94 2.34838578975e-38
0.0608873413922 0.0104378299529 0.94 2.34878333812e-38
0.0626269797177 0.0104378299529 0.94 2.34881766993e-38
0.0643666180432 0.0104378299529 0.94 2.34881795019e-38
0.0661062563686 0.0104378299529 0.94 2.34845781649e-38
0.0680624241453 0.0104711421762 0.943 2.34896060238e-38
0.069807614508 0.0104711421762 0.943 2.34906976353e-38
