# .PCD v0.7 - Point Cloud Data file format
VERSION 0.7
FIELDS x y z rgb
SIZE 4 4 4 4
TYPE F F F F
COUNT 1 1 1 1
WIDTH 840
HEIGHT 1
VIEWPOINT 0 0 0 1 0 0 0
POINTS 840
DATA ascii
-0.0198540850594 -0.0943069040323 0.894 1.41793383891e-38
-0.0181995779711 -0.0943069040323 0.894 1.41800614591e-38
-0.0165450708829 -0.0943069040323 0.894 1.34406817387e-38
-0.0148905637946 -0.0943069040323 0.894 2.00787797006e-38
-0.0132360567063 -0.0943069040323 0.894 1.89738586641e-38
-0.011581549618 -0.0943069040323 0.894 1.94315984126e-38
-0.00992704252972 -0.0943069040323 0.894 1.90628172945e-38
-0.00827253544143 -0.0943069040323 0.894 1.90628200971e-38
-0.00661802835314 -0.0943069040323 0.894 2.01691648528e-38
-0.00497462533928 -0.0945178814462 0.896 1.96181168434e-38
-0.00332381960913 -0.0947288588602 0.898 1.88834609001e-38
-0.00166746184177 -0.0950453249811 0.901 9.39096420929e-39
0.0 -0.095256302395 0.903 1.59367530361e-38
0.00167116319991 -0.095256302395 0.903 1.53807682522e-38
0.00335343047424 -0.095572768516 0.906 1.9886600024e-38
0.00503014571137 -0.095572768516 0.906 1.94366571001e-38
0.00672166638105 -0.0957837459299 0.908 1.64810467869e-38
0.00840208297631 -0.0957837459299 0.908 1.47618385426e-39
0.0101047077204 -0.0959947233438 0.91 1.80641721348e-38
0.0117888256738 -0.0959947233438 0.91 1.86025355905e-38
0.0135173599249 -0.0963111894648 0.913 2.01717236238e-38
0.0152070299155 -0.0963111894648 0.913 1.45531585766e-38
0.0169337134875 -0.0965221668787 0.915 1.93473299282e-38
0.0186270848362 -0.0965221668787 0.915 1.91586212679e-38
0.020320456185 -0.0965221668787 0.915 7.9115251387e-39
0.0220138275337 -0.0965221668787 0.915 1.91690581388e-38
0.0237849274034 -0.0968386329996 0.918 2.20141718642e-38
0.0254838507894 -0.0968386329996 0.918 2.84905277534e-39
0.0272419959056 -0.0970496104135 0.92 1.4106161182e-38
0.0290390052822 -0.0973660765345 0.923 1.10274341871e-39
0.0309137431798 -0.0978935200693 0.928 1.89832964092e-38
0.0326311733564 -0.0978935200693 0.928 1.88802421175e-38
0.0343486035331 -0.0978935200693 0.928 1.93379748596e-38
0.0360660337097 -0.0978935200693 0.928 1.89699154102e-38
0.0377834638864 -0.0978935200693 0.928 1.91553842684e-38
0.0395860253003 -0.0981044974833 0.93 1.93404803813e-38
0.0414404057281 -0.0984209636042 0.933 1.96167127424e-38
0.0431670893001 -0.0984209636042 0.933 1.92482861527e-38
0.0448937728721 -0.0984209636042 0.933 1.93390496555e-38
0.0467203931138 -0.0986319410181 0.935 2.01688243373e-38
0.048450778044 -0.0986319410181 0.935 1.94319487372e-38
0.0501811629741 -0.0986319410181 0.935 1.96163568125e-38
0.0519115479043 -0.0986319410181 0.935 1.95241611827e-38
0.0536419328344 -0.0986319410181 0.935 1.80425094618e-38
-0.049805475123 -0.0961760898927 0.928 1.99727994977e-38
-0.0480880449463 -0.0961760898927 0.928 1.37114700553e-38
-0.046220709765 -0.095865175809 0.925 1.39949443268e-38
-0.0445088316256 -0.095865175809 0.925 1.05862269578e-38
-0.0427044195327 -0.0956578997532 0.923 1.07713398862e-38
-0.040774161263 -0.0951397096136 0.918 1.17887554389e-38
-0.0389475410212 -0.0948287955299 0.915 1.16039592039e-38
-0.0371727397934 -0.0946215194741 0.913 1.15139411918e-38
-0.0353664770214 -0.0943106053904 0.91 1.11437545713e-38
-0.0336083319052 -0.0941033293346 0.908 1.15953776521e-38
-0.0318575895053 -0.0938960532788 0.906 1.4088253989e-38
-0.0300809375984 -0.0935851391951 0.903 8.37605277703e-39
-0.0284097743985 -0.0935851391951 0.903 1.36283099979e-38
-0.0266793894684 -0.0933778631393 0.901 1.43680834832e-38
-0.0249286470685 -0.0930669490556 0.898 7.72781350873e-39
-0.02321491825 -0.0928596729998 0.896 1.20610515526e-38
-0.0215567098035 -0.0928596729998 0.896 1.46435563405e-38
-0.0198540850594 -0.092652396944 0.894 1.3442143293e-38
-0.0181995779711 -0.092652396944 0.894 1.44562728008e-38
-0.0165450708829 -0.092652396944 0.894 1.3718337819e-38
-0.0148905637946 -0.092652396944 0.894 1.9157917816e-38
-0.0132360567063 -0.092652396944 0.894 1.93401328593e-38
-0.011581549618 -0.092652396944 0.894 2.01680928595e-38
-0.00992704252972 -0.092652396944 0.894 1.91553842684e-38
-0.00827253544143 -0.092652396944 0.894 2.00762629685e-38
-0.00661802835314 -0.092652396944 0.894 2.02638968329e-38
-0.00497462533928 -0.0928596729998 0.896 1.06820197208e-38
-0.00332381960913 -0.0930669490556 0.898 1.58456966619e-38
-0.00166746184177 -0.0933778631393 0.901 2.48566945887e-39
0.0 -0.0935851391951 0.903 1.79730905372e-38
0.00167671523712 -0.0938960532788 0.906 1.91607736623e-38
0.00335343047424 -0.0938960532788 0.906 1.74848263042e-38
0.00504124978578 -0.0941033293346 0.908 1.90689661921e-38
0.00672166638105 -0.0941033293346 0.908 1.30709056987e-38
0.008420589767 -0.0943106053904 0.91 1.50191926108e-38
0.0101047077204 -0.0943106053904 0.91 2.04565725692e-38
0.0118276899343 -0.0946215194741 0.913 1.28925428249e-38
0.0135173599249 -0.0946215194741 0.913 2.12761387916e-38
0.0152403421387 -0.0948287955299 0.915 2.84690318349e-39
0.0169337134875 -0.0948287955299 0.915 1.88946292489e-38
0.0186270848362 -0.0948287955299 0.915 1.96196036211e-38
0.020320456185 -0.0948287955299 0.915 4.59179022218e-39
0.0220860040175 -0.0951397096136 0.918 2.11026426274e-38
0.0237849274034 -0.0951397096136 0.918 1.77796370803e-38
0.0255393711615 -0.0953469856695 0.92 0.0
0.0273308285009 -0.0956578997532 0.923 1.79720367607e-38
0.0291019283706 -0.095865175809 0.925 0.0
0.0309137431798 -0.0961760898927 0.928 1.89775594933e-38
0.0326311733564 -0.0961760898927 0.928 1.96178057552e-38
0.0343486035331 -0.0961760898927 0.928 1.92461295544e-38
0.0360660337097 -0.0961760898927 0.928 1.94308935595e-38
0.0377834638864 -0.0961760898927 0.928 1.93393999802e-38
0.0395860253003 -0.0963833659485 0.93 1.98914989634e-38
0.0414404057281 -0.0966942800322 0.933 1.92457820324e-38
0.0431670893001 -0.0966942800322 0.933 1.99833442687e-38
0.0448937728721 -0.0966942800322 0.933 1.93394027828e-38
0.0467203931138 -0.096901556088 0.935 1.99854966631e-38
0.048450778044 -0.096901556088 0.935 1.95248352072e-38
0.0501811629741 -0.096901556088 0.935 1.9617063067e-38
0.0519115479043 -0.096901556088 0.935 1.86018321387e-38
0.0536419328344 -0.096901556088 0.935 1.86871207684e-38
0.0553723177646 -0.096901556088 0.935 2.09869219989e-38
-0.049805475123 -0.094458659716 0.928 2.11727720104e-38
-0.0480880449463 -0.094458659716 0.928 1.35274403306e-38
-0.0463706147697 -0.094458659716 0.928 1.33492273958e-38
-0.0445088316256 -0.0941532976695 0.925 1.40874958865e-38
-0.0427044195327 -0.0939497229719 0.923 1.27996255264e-38
-0.040774161263 -0.0934407862277 0.918 7.08139592844e-39
-0.0389475410212 -0.0931354241812 0.915 1.43623423634e-38
-0.0371727397934 -0.0929318494835 0.913 8.55760780867e-39
-0.0354830698028 -0.0929318494835 0.913 1.20603060618e-38
-0.033682359068 -0.092626487437 0.91 1.39045661811e-38
-0.0318575895053 -0.0922193380417 0.906 7.726382783e-39
-0.0301808742682 -0.0922193380417 0.906 1.41829733574e-38
-0.0284097743985 -0.0919139759952 0.903 8.3753549304e-39
-0.0266793894684 -0.0917104012975 0.901 1.19666853114e-38
-0.0249286470685 -0.0914050392511 0.898 1.39059758873e-38
-0.02321491825 -0.0912014645534 0.896 1.04937062267e-38
-0.0215567098035 -0.0912014645534 0.896 1.43616136882e-38
-0.0198985013571 -0.0912014645534 0.896 1.44559252787e-38
-0.0181995779711 -0.0909978898557 0.894 1.37187077618e-38
-0.0165450708829 -0.0909978898557 0.894 1.43643700423e-38
-0.0148905637946 -0.0909978898557 0.894 1.89742552315e-38
-0.0132360567063 -0.0909978898557 0.894 1.92475574775e-38
-0.011581549618 -0.0909978898557 0.894 2.02606542283e-38
-0.00992704252972 -0.0909978898557 0.894 1.94330571643e-38
-0.00829104223213 -0.0912014645534 0.896 1.9063185836e-38
-0.0066328337857 -0.0912014645534 0.896 2.12769543473e-38
-0.00498572941369 -0.0914050392511 0.898 2.57713361093e-39
-0.00333492368355 -0.0917104012975 0.901 2.01861163603e-38
-0.00167116319991 -0.0919139759952 0.903 2.20799796427e-39
0.0 -0.0922193380417 0.906 1.83415003113e-38
0.00167671523712 -0.0922193380417 0.906 1.92522686429e-38
0.00336083319052 -0.0924229127394 0.908 1.56476287292e-38
0.00504124978578 -0.0924229127394 0.908 1.9528477182e-38
0.00672166638105 -0.0924229127394 0.908 2.04493418691e-38
0.008420589767 -0.092626487437 0.91 1.62130344426e-38
0.0101380199437 -0.0929318494835 0.913 1.04015624449e-38
0.0118276899343 -0.0929318494835 0.913 1.15164298979e-38
0.0135173599249 -0.0929318494835 0.913 2.19123857476e-38
0.0152403421387 -0.0931354241812 0.915 2.29698041675e-39
0.0169337134875 -0.0931354241812 0.915 1.83439427745e-38
0.0186270848362 -0.0931354241812 0.915 1.99898336819e-38
0.0203870806315 -0.0934407862277 0.918 2.75506488474e-39
0.0220860040175 -0.0934407862277 0.918 2.19338452323e-38
0.0238367464174 -0.0936443609254 0.92 2.75972840603e-39
0.0255393711615 -0.0936443609254 0.92 5.26741506637e-39
0.0273900502311 -0.0941532976695 0.925 2.108909067e-38
0.0291019283706 -0.0941532976695 0.925 1.02199681769e-38
0.0309137431798 -0.094458659716 0.928 2.00730385808e-38
0.0326311733564 -0.094458659716 0.928 1.91550283386e-38
0.0343486035331 -0.094458659716 0.928 1.9706038513e-38
0.0361437622307 -0.0946622344137 0.93 1.92475841022e-38
0.0378648937655 -0.0946622344137 0.93 2.0076246153e-38
0.0397137221561 -0.0949675964602 0.933 1.96159910736e-38
0.0414404057281 -0.0949675964602 0.933 1.9523439514e-38
0.0431670893001 -0.0949675964602 0.933 1.95223493038e-38
0.0449900081837 -0.0951711711578 0.935 1.97081867035e-38
0.0467203931138 -0.0951711711578 0.935 1.97993061362e-38
0.048450778044 -0.0951711711578 0.935 1.96167127424e-38
0.0503421720532 -0.0954765332043 0.938 1.85128707056e-38
0.0519115479043 -0.0951711711578 0.935 1.80483108375e-38
0.0536419328344 -0.0951711711578 0.935 2.3209022631e-38
0.0553723177646 -0.0951711711578 0.935 1.88697295765e-38
-0.049912814509 -0.0929411028789 0.93 2.0434852443e-38
-0.0480880449463 -0.0927412295394 0.928 1.36178408971e-38
-0.0463706147697 -0.0927412295394 0.928 1.35325396557e-38
-0.0445088316256 -0.0924414195301 0.925 1.39009494297e-38
-0.0427969534861 -0.0924414195301 0.925 1.41786125165e-38
-0.0409962427514 -0.0922415461905 0.923 1.34442914836e-38
-0.039075237877 -0.0917418628417 0.918 1.12311941942e-38
-0.0372541696725 -0.0914420528324 0.915 1.35364646927e-38
-0.0354830698028 -0.0912421794929 0.913 1.04958291939e-38
-0.033682359068 -0.0909423694836 0.91 9.84543472854e-39
-0.03192791531 -0.0907424961441 0.908 1.29848127236e-38
-0.0301808742682 -0.0905426228046 0.906 1.15117579688e-38
-0.0284097743985 -0.0902428127953 0.903 1.15993307151e-38
-0.0267386111986 -0.0902428127953 0.903 1.42758878533e-38
-0.0250119276266 -0.0900429394558 0.901 8.00585634743e-39
-0.0232667372639 -0.0897431294465 0.898 1.15978257205e-38
-0.0215567098035 -0.089543256107 0.896 1.36290414757e-38
-0.0198985013571 -0.089543256107 0.896 1.43683931702e-38
-0.0182402929107 -0.089543256107 0.896 1.37198049785e-38
-0.0165820844643 -0.089543256107 0.896 1.49158244282e-38
-0.0149238760178 -0.089543256107 0.896 1.92497603187e-38
-0.0132656675714 -0.089543256107 0.896 1.93397531074e-38
-0.011607459125 -0.089543256107 0.896 1.95227262531e-38
-0.00994925067855 -0.089543256107 0.896 1.94305264193e-38
-0.00829104223213 -0.089543256107 0.896 1.95234423166e-38
-0.0066328337857 -0.089543256107 0.896 2.1645366924e-38
-0.00498572941369 -0.0897431294465 0.898 3.49369491048e-39
-0.00333492368355 -0.0900429394558 0.901 2.04547873149e-38
-0.00167671523712 -0.0905426228046 0.906 4.05224126797e-39
0.0 -0.0905426228046 0.906 9.77590370004e-39
0.00167671523712 -0.0905426228046 0.906 1.94398842904e-38
0.00336083319052 -0.0907424961441 0.908 2.05393752954e-38
0.00504124978578 -0.0907424961441 0.908 1.36319799986e-38
0.00672166638105 -0.0907424961441 0.908 1.99026000499e-38
0.008420589767 -0.0909423694836 0.91 4.50926635432e-39
0.0101380199437 -0.0912421794929 0.913 7.38697288066e-40
0.0118276899343 -0.0912421794929 0.913 1.79687296964e-38
0.01354697079 -0.0914420528324 0.915 1.99748524e-38
0.0152403421387 -0.0914420528324 0.915 1.38363089329e-39
0.0169337134875 -0.0914420528324 0.915 1.95399986579e-38
0.0186881572455 -0.0917418628417 0.918 2.1186559386e-38
0.0203870806315 -0.0917418628417 0.918 1.37753664627e-39
0.0221341216733 -0.0919417361813 0.92 2.19345360725e-38
0.0238367464174 -0.0919417361813 0.92 2.20405190779e-39
0.0256226517196 -0.0922415461905 0.923 1.35498134618e-38
0.0273900502311 -0.0924414195301 0.925 1.9152119243e-38
0.0291963130031 -0.0927412295394 0.928 1.92508140951e-38
0.0309137431798 -0.0927412295394 0.928 1.96188637355e-38
0.0326311733564 -0.0927412295394 0.928 1.93390342413e-38
0.0344226306959 -0.0929411028789 0.93 1.9523439514e-38
0.0361437622307 -0.0929411028789 0.93 1.89688223974e-38
0.0379870385841 -0.0932409128882 0.933 1.89684720728e-38
0.0397137221561 -0.0932409128882 0.933 1.96159910736e-38
0.0414404057281 -0.0932409128882 0.933 1.98011236203e-38
0.0432596232536 -0.0934407862277 0.935 1.96156379464e-38
0.0449900081837 -0.0934407862277 0.935 1.94312466867e-38
0.0467203931138 -0.0934407862277 0.935 1.98922234347e-38
0.0486062350858 -0.093740596237 0.938 2.05379669905e-38
0.0503421720532 -0.093740596237 0.938 1.74958405101e-38
0.0520781090205 -0.093740596237 0.938 2.01698837189e-38
0.0536419328344 -0.0934407862277 0.935 2.3493240992e-38
0.0553723177646 -0.0934407862277 0.935 2.34845725597e-38
-0.0520781090205 -0.0920046592696 0.938 1.70254400299e-38
-0.0500738235881 -0.0915142293162 0.933 1.93263538915e-38
-0.0481916829742 -0.0912199713441 0.93 1.30661104553e-38
-0.0464705514394 -0.0912199713441 0.93 1.39020452451e-38
-0.044653184593 -0.0910237993627 0.928 1.39927989389e-38
-0.0427969534861 -0.0907295413906 0.925 1.40857358556e-38
-0.0409962427514 -0.0905333694092 0.923 1.01230809998e-38
-0.039075237877 -0.0900429394558 0.918 1.18788210951e-38
-0.0372541696725 -0.0897486814837 0.915 9.94341631977e-39
-0.0354830698028 -0.0895525095023 0.913 1.15993279125e-38
-0.033682359068 -0.0892582515302 0.91 1.43659198784e-38
-0.03192791531 -0.0890620795488 0.908 9.66604610433e-39
-0.0301808742682 -0.0888659075675 0.906 1.29844021432e-38
-0.0284097743985 -0.0885716495954 0.903 1.38170200595e-38
-0.0267386111986 -0.0885716495954 0.903 8.46394782191e-39
-0.0250119276266 -0.088375477614 0.901 1.47360868807e-38
-0.0232667372639 -0.0880812196419 0.898 1.33553006233e-38
-0.0216048274593 -0.0880812196419 0.898 7.6381402161e-39
-0.0198985013571 -0.0878850476605 0.896 1.13234991253e-38
-0.0182402929107 -0.0878850476605 0.896 1.35376039483e-38
-0.0165820844643 -0.0878850476605 0.896 1.47314303659e-38
-0.0149238760178 -0.0878850476605 0.896 1.93408671397e-38
-0.0132656675714 -0.0878850476605 0.896 1.98018270721e-38
-0.011607459125 -0.0878850476605 0.896 1.96160092905e-38
-0.00994925067855 -0.0878850476605 0.896 1.96156379464e-38
-0.00830954902282 -0.0880812196419 0.898 1.97085580476e-38
-0.00664763921826 -0.0880812196419 0.898 2.07234330461e-38
-0.00500238552532 -0.088375477614 0.901 1.14160030409e-38
-0.00334232639983 -0.0885716495954 0.903 2.09961173195e-38
-0.00167671523712 -0.0888659075675 0.906 1.39999413571e-38
0.0 -0.0888659075675 0.906 1.6863804456e-38
0.00168041659526 -0.0890620795488 0.908 1.92558237372e-38
0.00336083319052 -0.0890620795488 0.908 2.09992912605e-38
0.00504124978578 -0.0890620795488 0.908 1.83670992316e-39
0.0067364718136 -0.0892582515302 0.91 8.20798944701e-39
0.00844834995305 -0.0895525095023 0.913 6.45438212798e-39
0.0101380199437 -0.0895525095023 0.913 7.60484676589e-42
0.0118535994412 -0.0897486814837 0.915 2.10075533162e-38
0.01354697079 -0.0897486814837 0.915 1.61000743721e-38
0.0152403421387 -0.0897486814837 0.915 5.53524103796e-40
0.0169892338596 -0.0900429394558 0.918 2.16493900519e-38
0.0186881572455 -0.0900429394558 0.918 2.03550204694e-38
0.0203870806315 -0.0900429394558 0.918 2.11221641163e-39
0.0221341216733 -0.0902391114372 0.92 8.63291218684e-39
0.0239144749383 -0.0905333694092 0.923 1.4358392103e-38
0.0256226517196 -0.0905333694092 0.923 1.94398814878e-38
0.0273900502311 -0.0907295413906 0.925 2.01695277891e-38
0.0291963130031 -0.0910237993627 0.928 1.97082049204e-38
0.0309137431798 -0.0910237993627 0.928 1.85128805147e-38
0.0326311733564 -0.0910237993627 0.928 1.77778223988e-38
0.0344226306959 -0.0912199713441 0.93 1.88805896396e-38
0.0362603550121 -0.0915142293162 0.933 1.66627994016e-38
0.0379870385841 -0.0915142293162 0.933 2.01673655856e-38
0.0397988533933 -0.0917104012975 0.935 1.943159561e-38
0.0415292383234 -0.0917104012975 0.935 1.91564408475e-38
0.0432596232536 -0.0917104012975 0.935 1.98011068047e-38
0.0449900081837 -0.0917104012975 0.935 1.97082021178e-38
0.0468702981185 -0.0920046592696 0.938 1.95234423166e-38
0.0486062350858 -0.0920046592696 0.938 1.87830214314e-38
0.0503421720532 -0.0920046592696 0.938 1.98918675049e-38
0.0520781090205 -0.0920046592696 0.938 1.84177729867e-38
0.0538140459879 -0.0920046592696 0.938 2.34907172535e-38
0.0555499829552 -0.0920046592696 0.938 2.34867768022e-38
-0.0539287880902 -0.0904611929255 0.94 1.98798779953e-38
-0.0520781090205 -0.0902687223023 0.938 2.16370684345e-38
-0.0501811629741 -0.0899800163674 0.935 2.34871341333e-38
-0.0483471400161 -0.0897875457442 0.933 1.14141757477e-38
-0.0466204564441 -0.0897875457442 0.933 1.38094572517e-38
-0.044653184593 -0.089306369186 0.928 1.45477649788e-38
-0.0429357544164 -0.089306369186 0.928 1.35343249099e-38
-0.0410850753467 -0.0890176632512 0.925 1.47328624929e-38
-0.03928806597 -0.0888251926279 0.923 9.9387289764e-39
-0.0372541696725 -0.0880553101349 0.915 1.22453727474e-38
-0.0355607983237 -0.0880553101349 0.915 1.39989324222e-38
-0.033682359068 -0.0875741335768 0.91 1.02174248202e-38
-0.03192791531 -0.0873816629536 0.908 1.30723280166e-38
-0.0301808742682 -0.0871891923303 0.906 1.13274073468e-38
-0.0285041590311 -0.0871891923303 0.906 8.92781965255e-39
-0.0267386111986 -0.0869004863955 0.903 1.43652290382e-38
-0.0250119276266 -0.0867080157722 0.901 1.0312516934e-38
-0.0232667372639 -0.0864193098374 0.898 1.34406789361e-38
-0.0216048274593 -0.0864193098374 0.898 1.39974470459e-38
-0.0198985013571 -0.0862268392141 0.896 9.66860907923e-39
-0.0182402929107 -0.0862268392141 0.896 1.39978730406e-38
-0.0165820844643 -0.0862268392141 0.896 1.51931189735e-38
-0.0149238760178 -0.0862268392141 0.896 1.91582499238e-38
-0.0132656675714 -0.0862268392141 0.896 1.9894022702e-38
-0.011607459125 -0.0862268392141 0.896 2.03546154942e-38
-0.00994925067855 -0.0862268392141 0.896 1.9155734593e-38
-0.00830954902282 -0.0864193098374 0.898 1.94315984126e-38
-0.00664763921826 -0.0864193098374 0.898 1.98922080204e-38
-0.00501348959974 -0.0869004863955 0.903 1.75902067513e-38
-0.00335343047424 -0.0871891923303 0.906 1.98018074539e-38
-0.00167671523712 -0.0871891923303 0.906 2.03553735967e-38
0.0 -0.0873816629536 0.908 1.67597216112e-38
0.00168041659526 -0.0873816629536 0.908 2.02663827364e-38
0.00336083319052 -0.0873816629536 0.908 2.27510082279e-38
0.00504124978578 -0.0873816629536 0.908 1.65303893084e-39
0.0067364718136 -0.0875741335768 0.91 5.17094407489e-39
0.00844834995305 -0.0878628395117 0.913 2.94711564187e-39
0.0101602280925 -0.0880553101349 0.915 1.0225415024e-40
0.0118535994412 -0.0880553101349 0.915 2.21096325195e-38
0.01354697079 -0.0880553101349 0.915 5.32650221742e-39
0.0152403421387 -0.0880553101349 0.915 8.02058679688e-39
0.0169892338596 -0.0883440160698 0.918 1.52022274136e-38
0.0186881572455 -0.0883440160698 0.918 4.49995052213e-39
0.0203870806315 -0.0883440160698 0.918 2.14619916056e-38
0.0221341216733 -0.0885364866931 0.92 1.86986996976e-38
0.0239144749383 -0.0888251926279 0.923 2.00809348976e-38
0.0256781720917 -0.0890176632512 0.925 1.97078083529e-38
0.0273900502311 -0.0890176632512 0.925 1.98957785289e-38
0.0291963130031 -0.089306369186 0.928 1.39949625437e-38
0.0309803676263 -0.0894988398093 0.93 1.69433841957e-38
0.0327014991611 -0.0894988398093 0.93 1.86036720435e-38
0.0345336714401 -0.0897875457442 0.933 1.92519001014e-38
0.0362603550121 -0.0897875457442 0.933 1.94315984126e-38
0.0380684684631 -0.0899800163674 0.935 2.03542749787e-38
0.0397988533933 -0.0899800163674 0.935 1.96167099398e-38
0.0415292383234 -0.0899800163674 0.935 1.93404803813e-38
0.0432596232536 -0.0899800163674 0.935 1.96170602644e-38
0.0451343611511 -0.0902687223023 0.938 1.9894370224e-38
0.0468702981185 -0.0902687223023 0.938 1.7865718845e-38
0.0486062350858 -0.0902687223023 0.938 2.10889729609e-38
0.0503421720532 -0.0902687223023 0.938 1.80483080349e-38
0.0520781090205 -0.0902687223023 0.938 1.74947685168e-38
0.0538140459879 -0.0902687223023 0.938 2.34910829924e-38
0.0555499829552 -0.0902687223023 0.938 2.34838747131e-38
0.0572859199226 -0.0902687223023 0.938 2.34827999171e-38
-0.0558460916064 -0.0890047084977 0.943 2.23804306451e-38
-0.0539287880902 -0.0887215546 0.94 2.29332218698e-38
-0.0521891497647 -0.0887215546 0.94 2.20105565142e-38
-0.0503421720532 -0.0885327853349 0.938 2.34889165849e-38
-0.0486062350858 -0.0885327853349 0.938 1.04922166464e-38
-0.0467203931138 -0.0882496314373 0.935 1.39016374673e-38
-0.0448937728721 -0.0880608621722 0.933 1.39942058425e-38
-0.0429357544164 -0.0875889390094 0.928 1.4179694319e-38
-0.0412183242397 -0.0875889390094 0.928 1.40874930839e-38
-0.0393731972073 -0.0873057851117 0.925 1.45488635968e-38
-0.0375798891887 -0.0871170158466 0.923 1.26138091461e-38
-0.0356773911051 -0.0866450926839 0.918 8.46500860484e-39
-0.0337933998122 -0.0861731695211 0.913 1.42726648669e-38
-0.0319982411146 -0.0858900156234 0.91 1.02221513999e-38
-0.0302474987147 -0.0857012463583 0.908 9.57062188281e-39
-0.0285041590311 -0.0855124770932 0.906 1.47354408821e-38
-0.0267386111986 -0.0852293231956 0.903 9.57641064676e-39
-0.0250674479987 -0.0852293231956 0.903 1.20635220418e-38
-0.0232667372639 -0.0847574000328 0.898 1.50109515745e-38
-0.0216048274593 -0.0847574000328 0.898 8.09483739861e-39
-0.0199429176548 -0.0847574000328 0.898 1.47339316837e-38
-0.0182402929107 -0.0845686307677 0.896 1.39034941877e-38
-0.0165820844643 -0.0845686307677 0.896 1.53789563733e-38
-0.0149238760178 -0.0845686307677 0.896 1.94362815521e-38
-0.0132656675714 -0.0845686307677 0.896 1.9800770493e-38
-0.011633368632 -0.0847574000328 0.898 1.95230723738e-38
-0.00997145882739 -0.0847574000328 0.898 1.96156379464e-38
-0.00830954902282 -0.0847574000328 0.898 1.97085524424e-38
-0.00666984736709 -0.0850405539305 0.901 2.02617136099e-38
-0.00501348959974 -0.0852293231956 0.903 2.11836853228e-38
-0.00335343047424 -0.0855124770932 0.906 4.40814865713e-39
-0.00168041659526 -0.0857012463583 0.908 2.04547592889e-38
0.0 -0.0857012463583 0.908 1.29600742005e-38
0.00168041659526 -0.0857012463583 0.908 2.13749359385e-38
0.0033682359068 -0.0858900156234 0.91 1.93458865908e-38
0.0050523538602 -0.0858900156234 0.91 8.27236930236e-40
0.00675867996244 -0.0861731695211 0.913 1.9717264315e-38
0.00844834995305 -0.0861731695211 0.913 1.82402018466e-38
0.0101602280925 -0.0863619387862 0.915 1.05015969384e-38
0.0118535994412 -0.0863619387862 0.915 2.22811430437e-38
0.01354697079 -0.0863619387862 0.915 1.92854962321e-39
0.0152903104736 -0.0866450926839 0.918 1.48387375984e-38
0.0169892338596 -0.0866450926839 0.918 1.50151554699e-38
0.0187288721851 -0.086833861949 0.92 1.91643890124e-38
0.0204314969292 -0.086833861949 0.92 1.98951171161e-38
0.0221341216733 -0.086833861949 0.92 1.79604284043e-38
0.0239662939522 -0.0873057851117 0.925 1.88831133781e-38
0.0256781720917 -0.0873057851117 0.925 1.74025911038e-38
0.0274788828265 -0.0875889390094 0.928 1.78650125905e-38
0.0291963130031 -0.0875889390094 0.928 1.10487101017e-38
0.0309803676263 -0.0877777082745 0.93 1.86944257373e-38
0.0327014991611 -0.0877777082745 0.93 2.03510575974e-38
0.0345336714401 -0.0880608621722 0.933 1.98940170968e-38
0.0362603550121 -0.0880608621722 0.933 1.96163568125e-38
0.0380684684631 -0.0882496314373 0.935 1.9155734593e-38
0.0397988533933 -0.0882496314373 0.935 2.06301654229e-38
0.0415292383234 -0.0882496314373 0.935 1.94315928074e-38
0.0433984241838 -0.0885327853349 0.938 1.9892924084e-38
0.0451343611511 -0.0885327853349 0.938 1.82294819133e-38
0.0468702981185 -0.0885327853349 0.938 2.0721615562e-38
0.0486062350858 -0.0885327853349 0.938 1.86929585778e-38
0.0503421720532 -0.0885327853349 0.938 1.73121737217e-38
0.0520781090205 -0.0885327853349 0.938 2.02620821514e-38
0.0538140459879 -0.0885327853349 0.938 2.33059770704e-38
0.0555499829552 -0.0885327853349 0.938 2.3489635451e-38
-0.0558460916064 -0.087259518135 0.943 2.21935002326e-38
-0.0541009012437 -0.087259518135 0.943 2.21027493414e-38
-0.0521891497647 -0.0869819162745 0.94 2.18276254074e-38
-0.0503421720532 -0.0867968483676 0.938 2.34892837251e-38
-0.0486062350858 -0.0867968483676 0.938 1.04914977803e-38
-0.0467203931138 -0.0865192465071 0.935 1.46384766336e-38
-0.0449900081837 -0.0865192465071 0.935 1.37183574372e-38
-0.0431670893001 -0.0863341786002 0.933 1.362688768e-38
-0.0413071568351 -0.0860565767397 0.93 1.38109033917e-38
-0.0395008940631 -0.0858715088327 0.928 1.44559224761e-38
-0.0376613190678 -0.0855939069723 0.925 1.46403193411e-38
-0.035755119626 -0.0851312372049 0.92 1.3996396072e-38
-0.033867426975 -0.0846685674374 0.915 8.92424774277e-39
-0.0321037298216 -0.0844834995305 0.913 1.31702185234e-38
-0.0303141231612 -0.08420589767 0.91 1.39981841289e-38
-0.0285670821194 -0.0840208297631 0.908 1.10450176802e-38
-0.026827443794 -0.0838357618561 0.906 1.48265000589e-38
-0.0250674479987 -0.0835581599956 0.903 1.23418871791e-38
-0.0233444657848 -0.0833730920887 0.901 7.91009301167e-39
-0.0216048274593 -0.0830954902282 0.898 1.35318936571e-38
-0.0199429176548 -0.0830954902282 0.898 1.51052449481e-38
-0.0182810078502 -0.0830954902282 0.898 1.36279568707e-38
-0.0166190980456 -0.0830954902282 0.898 1.57466584916e-38
-0.0149571882411 -0.0830954902282 0.898 1.95281142456e-38
-0.0132952784365 -0.0830954902282 0.898 2.0170978133e-38
-0.011633368632 -0.0830954902282 0.898 1.93401272541e-38
-0.00997145882739 -0.0830954902282 0.898 1.98918703075e-38
-0.00835581599956 -0.0835581599956 0.903 1.95238136607e-38
-0.00668465279965 -0.0835581599956 0.903 1.99836973959e-38
-0.00503014571137 -0.0838357618561 0.906 2.21049325644e-38
-0.00336083319052 -0.0840208297631 0.908 2.29842655677e-39
-0.00168041659526 -0.0840208297631 0.908 2.15679395786e-38
0.0 -0.0840208297631 0.908 2.8469003809e-39
0.00168041659526 -0.0840208297631 0.908 1.14304238034e-38
0.0033682359068 -0.08420589767 0.91 1.06791064213e-38
0.0050523538602 -0.08420589767 0.91 1.83670992316e-40
0.00675867996244 -0.0844834995305 0.913 1.96214939727e-38
0.00846685674374 -0.0846685674374 0.915 2.05390361812e-38
0.0101602280925 -0.0846685674374 0.915 1.5930662993e-38
0.0118535994412 -0.0846685674374 0.915 1.9419472977e-38
0.01354697079 -0.0846685674374 0.915 1.51067219167e-38
0.0152903104736 -0.0849461692979 0.918 2.01774647436e-38
0.017026247441 -0.0851312372049 0.92 2.05386858566e-38
0.0187288721851 -0.0851312372049 0.92 2.04489733276e-38
0.0204314969292 -0.0851312372049 0.92 1.77821552136e-38
0.022206298157 -0.0854088390653 0.923 1.0781381591e-38
0.0239662939522 -0.0855939069723 0.925 1.20613570356e-38
0.0257614526498 -0.0858715088327 0.928 1.79551006675e-38
0.0274788828265 -0.0858715088327 0.928 1.70363309216e-38
0.0292592360915 -0.0860565767397 0.93 1.84213911393e-38
0.0309803676263 -0.0860565767397 0.93 1.98043283898e-38
0.0328069878681 -0.0863341786002 0.933 1.9155734593e-38
0.0346076986028 -0.0865192465071 0.935 1.99840659374e-38
0.036338083533 -0.0865192465071 0.935 1.95223857375e-38
0.0380684684631 -0.0865192465071 0.935 1.93386937257e-38
0.0397988533933 -0.0865192465071 0.935 1.99844190646e-38
0.0416624872164 -0.0867968483676 0.938 1.98936499566e-38
0.0433984241838 -0.0867968483676 0.938 1.841707514e-38
0.0451343611511 -0.0867968483676 0.938 2.07212372114e-38
0.0469702347883 -0.0869819162745 0.94 1.93379748596e-38
0.0487098731137 -0.0869819162745 0.94 1.77709994766e-38
0.0504495114392 -0.0869819162745 0.94 1.64823962373e-38
0.0521891497647 -0.0869819162745 0.94 2.03549812331e-38
0.0539287880902 -0.0869819162745 0.94 2.34896438588e-38
-0.0575912819691 -0.0855143277723 0.943 2.19176546299e-38
-0.0558460916064 -0.0855143277723 0.943 2.22871434037e-38
-0.0541009012437 -0.0855143277723 0.943 2.28399444375e-38
-0.052355710881 -0.0855143277723 0.943 2.29332162646e-38
-0.0504495114392 -0.085242277949 0.94 2.33963426045e-38
-0.0487098731137 -0.085242277949 0.94 9.93652893781e-39
-0.0468702981185 -0.0850609114002 0.938 1.4821420352e-38
-0.0449900081837 -0.084788861577 0.935 1.39027514996e-38
-0.0431670893001 -0.0846074950282 0.933 1.39970995239e-38
-0.0413071568351 -0.0843354452049 0.93 1.39967463966e-38
-0.0395008940631 -0.0841540786561 0.928 1.46410382072e-38
-0.0376613190678 -0.0838820288328 0.925 1.43637520696e-38
-0.035755119626 -0.0834286124608 0.92 1.50090934527e-38
-0.0339784677192 -0.0832472459119 0.918 1.55611812256e-38
-0.0321037298216 -0.0827938295399 0.913 1.13244954485e-38
-0.0303141231612 -0.0825217797166 0.91 9.47667462987e-39
-0.0285670821194 -0.0823404131678 0.908 1.55630113214e-38
-0.026827443794 -0.082159046619 0.906 9.29443436328e-39
-0.0250674479987 -0.0818869967957 0.903 1.18740945153e-38
-0.0233444657848 -0.0817056302469 0.901 1.46432256341e-38
-0.0216770039431 -0.0817056302469 0.901 1.2246779651e-38
-0.0199429176548 -0.0814335804237 0.898 1.04010944112e-38
-0.0182810078502 -0.0814335804237 0.898 1.40882722058e-38
-0.0166190980456 -0.0814335804237 0.898 1.57459452307e-38
-0.0149571882411 -0.0814335804237 0.898 1.96195783977e-38
-0.0132952784365 -0.0814335804237 0.898 1.92479316242e-38
-0.011633368632 -0.0814335804237 0.898 1.96156379464e-38
-0.0100047710506 -0.0817056302469 0.901 1.97089083722e-38
-0.00835581599956 -0.0818869967957 0.903 1.97089055696e-38
-0.00670686094849 -0.082159046619 0.906 2.07230196631e-38
-0.00503014571137 -0.082159046619 0.906 2.19201713619e-38
-0.00336083319052 -0.0823404131678 0.908 2.48099332589e-39
-0.00168041659526 -0.0823404131678 0.908 2.04626654149e-38
0.0 -0.0823404131678 0.908 9.18398401832e-40
0.00168041659526 -0.0823404131678 0.908 1.57646918016e-38
0.00337933998122 -0.0827938295399 0.913 2.19280620736e-38
0.00506900997183 -0.0827938295399 0.913 1.65303893084e-39
0.006773485395 -0.0829751960887 0.915 2.05315980889e-38
0.00849461692979 -0.0832472459119 0.918 1.9527763921e-38
0.0101935403157 -0.0832472459119 0.918 1.86029139411e-38
0.0118924637017 -0.0832472459119 0.918 1.93390496555e-38
0.0135913870877 -0.0832472459119 0.918 2.06319254538e-38
0.0152903104736 -0.0832472459119 0.918 1.90645927396e-38
0.017026247441 -0.0834286124608 0.92 1.97132271741e-38
0.0187899445944 -0.083700662284 0.923 1.15084943447e-38
0.0205425376733 -0.0838820288328 0.925 7.09476992098e-39
0.0222544158128 -0.0838820288328 0.925 1.72336659752e-38
0.0240440224732 -0.0841540786561 0.928 1.87912652703e-38
0.0258169730219 -0.0843354452049 0.93 1.86986996976e-38
0.0275381045567 -0.0843354452049 0.93 1.98025235174e-38
0.0293536207241 -0.0846074950282 0.933 1.94327124449e-38
0.0310803042961 -0.0846074950282 0.933 1.97078139581e-38
0.0328069878681 -0.0846074950282 0.933 1.98018102565e-38
0.0346076986028 -0.084788861577 0.935 2.05386466202e-38
0.036338083533 -0.084788861577 0.935 1.95216458519e-38
0.0380684684631 -0.084788861577 0.935 2.13652025194e-38
0.0397988533933 -0.084788861577 0.935 2.00769622165e-38
0.0416624872164 -0.0850609114002 0.938 1.86944075204e-38
0.0433984241838 -0.0850609114002 0.938 1.97081867035e-38
0.0451343611511 -0.0850609114002 0.938 1.71267118699e-38
0.0469702347883 -0.085242277949 0.94 1.80482926206e-38
0.0487098731137 -0.085242277949 0.94 1.77717253492e-38
0.0504495114392 -0.085242277949 0.94 1.68519382606e-38
0.0521891497647 -0.085242277949 0.94 2.12773046719e-38
0.0539287880902 -0.085242277949 0.94 2.3488217337e-38
-0.0575912819691 -0.0837691374096 0.943 2.16421425362e-38
-0.0558460916064 -0.0837691374096 0.943 2.19180105597e-38
-0.0541009012437 -0.0837691374096 0.943 2.20098348454e-38
-0.052355710881 -0.0837691374096 0.943 2.23782600338e-38
-0.0504495114392 -0.0835026396236 0.94 2.34903739353e-38
-0.0487098731137 -0.0835026396236 0.94 9.38443976364e-39
-0.0468702981185 -0.0833249744329 0.938 1.49136061728e-38
-0.0449900081837 -0.0830584766468 0.935 1.42708081464e-38
-0.0431670893001 -0.0828808114561 0.933 1.40871427593e-38
-0.0413071568351 -0.0826143136701 0.93 1.41797083319e-38
-0.0395008940631 -0.0824366484794 0.928 1.49151083647e-38
-0.0376613190678 -0.0821701506934 0.925 1.49150831413e-38
-0.0358717124074 -0.0819924855027 0.923 1.49154586893e-38
-0.0340524948819 -0.0817259877167 0.92 1.49151055621e-38
-0.0321740556262 -0.08128182474 0.915 1.56537453969e-38
-0.0303141231612 -0.0808376617632 0.91 1.47339316837e-38
-0.0285670821194 -0.0806599965725 0.908 9.56957651415e-39
-0.026827443794 -0.0804823313819 0.906 1.24240859457e-38
-0.0251507285568 -0.0804823313819 0.906 1.50119507003e-38
-0.0233962847988 -0.0802158335958 0.903 7.8203664697e-39
-0.0217251215989 -0.0802158335958 0.903 1.36219228795e-38
-0.0200095421013 -0.0800381684051 0.901 1.24301353512e-38
-0.0182810078502 -0.0797716706191 0.898 1.32602911861e-38
-0.0166190980456 -0.0797716706191 0.898 1.69448373422e-38
-0.0149571882411 -0.0797716706191 0.898 1.98954856575e-38
-0.0133396947342 -0.0800381684051 0.901 2.04471922772e-38
-0.0116722328924 -0.0800381684051 0.901 1.91579024018e-38
-0.0100269791995 -0.0802158335958 0.903 2.05386662384e-38
-0.00838357618561 -0.0804823313819 0.906 1.98936555618e-38
-0.00670686094849 -0.0804823313819 0.906 1.99848114282e-38
-0.00503014571137 -0.0804823313819 0.906 2.20145221888e-38
-0.00336083319052 -0.0806599965725 0.908 2.02253330992e-39
-0.00168041659526 -0.0806599965725 0.908 1.47282718392e-38
0.0 -0.0806599965725 0.908 2.66328544052e-39
0.0016841179534 -0.0808376617632 0.91 2.00002551385e-38
0.00337933998122 -0.0811041595493 0.913 2.07237805681e-38
0.00508011404625 -0.08128182474 0.915 1.17840498786e-38
0.006773485395 -0.08128182474 0.915 1.96134701377e-38
0.00849461692979 -0.081548322526 0.918 2.02635240875e-38
0.0101935403157 -0.081548322526 0.918 2.03546435202e-38
0.0118924637017 -0.081548322526 0.918 1.99851463385e-38
0.0135913870877 -0.081548322526 0.918 1.80515324226e-38
0.0152903104736 -0.081548322526 0.918 9.11363883541e-39
0.017026247441 -0.0817259877167 0.92 1.49176391097e-38
0.0187899445944 -0.0819924855027 0.923 1.54725701172e-38
0.0205425376733 -0.0821701506934 0.925 1.71385864731e-38
0.0222544158128 -0.0821701506934 0.925 2.05447646893e-38
0.0240440224732 -0.0824366484794 0.928 1.85143504768e-38
0.0258169730219 -0.0826143136701 0.93 1.62087338576e-38
0.027626937152 -0.0828808114561 0.933 1.86911607119e-38
0.0293536207241 -0.0828808114561 0.933 1.90657067719e-38
0.0311469287426 -0.0830584766468 0.935 1.95230751764e-38
0.0328773136727 -0.0830584766468 0.935 2.01695151774e-38
0.0346076986028 -0.0830584766468 0.935 1.97085524424e-38
0.0364546763144 -0.0833249744329 0.938 1.98911514414e-38
0.0381906132817 -0.0833249744329 0.938 2.00751671531e-38
0.0400116814863 -0.0835026396236 0.94 1.84149465677e-38
0.0417513198118 -0.0835026396236 0.94 2.06290668049e-38
0.0434909581373 -0.0835026396236 0.94 1.76784535221e-38
0.0453749494302 -0.0837691374096 0.943 1.74036841166e-38
0.0471201397929 -0.0837691374096 0.943 1.7866441915e-38
0.0488653301556 -0.0837691374096 0.943 1.77731897061e-38
0.0504495114392 -0.0835026396236 0.94 1.63909587099e-38
0.0521891497647 -0.0835026396236 0.94 2.30272672136e-38
-0.0575912819691 -0.0820239470469 0.943 2.15510006828e-38
-0.0558460916064 -0.0820239470469 0.943 2.18261638531e-38
-0.0541009012437 -0.0820239470469 0.943 2.19172902923e-38
-0.052355710881 -0.0820239470469 0.943 2.20105593168e-38
-0.0506105205183 -0.0820239470469 0.943 2.34900166042e-38
-0.0487098731137 -0.0817630012981 0.94 7.4490784286e-39
-0.0469702347883 -0.0817630012981 0.94 1.3622882769e-38
-0.0451343611511 -0.0815890374655 0.938 1.4549174685e-38
-0.0432596232536 -0.0813280917167 0.935 1.41786125165e-38
-0.0414404057281 -0.0811541278841 0.933 1.4547770584e-38
-0.0395008940631 -0.0807192183028 0.928 1.49136734351e-38
-0.0377834638864 -0.0807192183028 0.928 1.48211078624e-38
-0.0358717124074 -0.0802843087214 0.923 1.52831650116e-38
-0.0340524948819 -0.0800233629726 0.92 1.47328821111e-38
-0.0321740556262 -0.0795884533912 0.915 1.50076543192e-38
-0.030414059831 -0.0794144895587 0.913 1.50076571218e-38
-0.0286300052078 -0.0791535438098 0.91 1.58406575926e-38
-0.026827443794 -0.0788056161447 0.906 1.24304730641e-38
-0.0251507285568 -0.0788056161447 0.906 1.55640679004e-38
-0.0233962847988 -0.0785446703959 0.903 1.5379288481e-38
-0.0217251215989 -0.0785446703959 0.903 1.24297668097e-38
-0.020053958399 -0.0785446703959 0.903 1.46424717355e-38
-0.0183420802595 -0.0783707065634 0.901 1.34414258282e-38
-0.0166746184177 -0.0783707065634 0.901 1.69444659982e-38
-0.015007156576 -0.0783707065634 0.901 1.93426608017e-38
-0.0133693055993 -0.0785446703959 0.903 2.02610073555e-38
-0.0116981423994 -0.0785446703959 0.903 1.95248646345e-38
-0.0100602914227 -0.0788056161447 0.906 2.00773181463e-38
-0.00838357618561 -0.0788056161447 0.906 2.00758930257e-38
-0.00670686094849 -0.0788056161447 0.906 1.97092586968e-38
-0.00504124978578 -0.0789795799773 0.908 2.18304812537e-38
-0.00336083319052 -0.0789795799773 0.908 1.1020259539e-39
-0.0016841179534 -0.0791535438098 0.91 2.34865315749e-38
0.0 -0.0791535438098 0.91 1.56120343469e-39
0.00168966999061 -0.0794144895587 0.913 1.96258127746e-38
0.0033867426975 -0.0795884533912 0.915 1.89742370146e-38
0.00508011404625 -0.0795884533912 0.915 2.00784167643e-38
0.00679569354383 -0.07984939914 0.918 1.99865812681e-38
0.00849461692979 -0.07984939914 0.918 2.09996471903e-38
0.0101935403157 -0.07984939914 0.918 1.59321511719e-38
0.0119183732087 -0.0800233629726 0.92 1.68583435958e-38
0.0136209979528 -0.0800233629726 0.92 1.62174135003e-38
0.0153236226969 -0.0800233629726 0.92 1.41876550955e-38
0.0170817678131 -0.0802843087214 0.923 1.95277611184e-38
0.0188306595339 -0.0804582725539 0.925 1.98036347471e-38
0.0205425376733 -0.0804582725539 0.925 2.00787670889e-38
0.0223265922965 -0.0807192183028 0.928 1.28839878978e-38
0.0240958414871 -0.0808931821353 0.93 7.17689862268e-39
0.02590025358 -0.0811541278841 0.933 1.93470230438e-38
0.027626937152 -0.0811541278841 0.933 1.86014692024e-38
0.0294165438124 -0.0813280917167 0.935 2.00762629685e-38
0.0311469287426 -0.0813280917167 0.935 1.99847721918e-38
0.0328773136727 -0.0813280917167 0.935 1.95241583801e-38
0.034718739347 -0.0815890374655 0.938 1.93394027828e-38
0.0364546763144 -0.0815890374655 0.938 2.04468237357e-38
0.0381906132817 -0.0815890374655 0.938 1.86018349413e-38
0.0400116814863 -0.0817630012981 0.94 1.97085398307e-38
0.0418845687048 -0.0820239470469 0.943 1.77713526038e-38
0.0436297590675 -0.0820239470469 0.943 1.76802331711e-38
0.0453749494302 -0.0820239470469 0.943 1.79579116722e-38
0.0472700447975 -0.0822848927957 0.946 1.8049388436e-38
0.0488653301556 -0.0820239470469 0.943 1.77738987631e-38
0.0506105205183 -0.0820239470469 0.943 1.90639047021e-38
0.052355710881 -0.0820239470469 0.943 2.34878572033e-38
-0.0575912819691 -0.0802787566842 0.943 2.13673380983e-38
-0.0558460916064 -0.0802787566842 0.943 2.32083766324e-38
-0.0541009012437 -0.0802787566842 0.943 2.25633603505e-38
-0.052355710881 -0.0802787566842 0.943 2.19187140115e-38
-0.0506105205183 -0.0802787566842 0.943 2.34893131524e-38
-0.0488653301556 -0.0802787566842 0.943 8.36994451702e-39
-0.0469702347883 -0.0800233629726 0.94 1.19619587317e-38
-0.0451343611511 -0.0798531004982 0.938 1.34424936176e-38
-0.0432596232536 -0.0795977067866 0.935 1.53760963231e-38
-0.0414404057281 -0.0794274443121 0.933 1.43648086487e-38
-0.0395860253003 -0.0791720506005 0.93 1.46399634112e-38
-0.0377834638864 -0.0790017881261 0.928 1.48229099323e-38
-0.0358717124074 -0.0785761319401 0.923 1.48229099323e-38
-0.0340524948819 -0.0783207382285 0.92 1.45481209086e-38
-0.0322795443332 -0.0781504757541 0.918 1.46403137359e-38
-0.030414059831 -0.077724819568 0.913 1.49151083647e-38
-0.0286300052078 -0.0774694258564 0.91 1.45484712332e-38
-0.0268866655242 -0.077299163382 0.908 1.50101724525e-38
-0.0251507285568 -0.0771289009076 0.906 1.51923916996e-38
-0.0233962847988 -0.076873507196 0.903 1.49158118165e-38
-0.0217251215989 -0.076873507196 0.903 1.51920385724e-38
-0.020053958399 -0.076873507196 0.903 1.45491929019e-38
-0.0183420802595 -0.0767032447216 0.901 1.42722598916e-38
-0.0166746184177 -0.0767032447216 0.901 1.74962104529e-38
-0.015007156576 -0.0767032447216 0.901 1.98029032693e-38
-0.0133693055993 -0.076873507196 0.903 2.0629438149e-38
-0.0117370066599 -0.0771289009076 0.906 1.98914891543e-38
-0.0100602914227 -0.0771289009076 0.906 2.00748014142e-38
-0.00838357618561 -0.0771289009076 0.906 1.99840533257e-38
-0.00672166638105 -0.077299163382 0.908 1.97081895061e-38
-0.00504124978578 -0.077299163382 0.908 2.20145221888e-38
-0.0033682359068 -0.0774694258564 0.91 6.80766488512e-39
-0.0016841179534 -0.0774694258564 0.91 2.1910161887e-38
0.0 -0.077724819568 0.913 1.4184380261e-38
0.00169337134875 -0.0778950820425 0.915 1.99873295615e-38
0.0033867426975 -0.0778950820425 0.915 1.98933164475e-38
0.00509677015787 -0.0781504757541 0.918 2.08156314786e-38
0.00679569354383 -0.0781504757541 0.918 1.67593867009e-38
0.00851312372049 -0.0783207382285 0.92 1.52796253316e-38
0.0102157484646 -0.0783207382285 0.92 1.37216588964e-38
0.0119183732087 -0.0783207382285 0.92 1.62170575705e-38
0.0136209979528 -0.0783207382285 0.92 1.70395637171e-38
0.0153236226969 -0.0783207382285 0.92 2.00805621522e-38
0.0170817678131 -0.0785761319401 0.923 1.95255680863e-38
0.0188306595339 -0.0787463944145 0.925 1.46370963546e-38
0.0206091621199 -0.0790017881261 0.928 1.63866861509e-38
0.0223265922965 -0.0790017881261 0.928 1.63924244681e-38
0.024173570008 -0.0794274443121 0.933 1.6122652093e-38
0.02590025358 -0.0794274443121 0.933 1.98046787145e-38
0.0276861588823 -0.0795977067866 0.935 1.98925555425e-38
0.0294165438124 -0.0795977067866 0.935 2.06312163968e-38
0.0311469287426 -0.0795977067866 0.935 1.95241583801e-38
0.0329828023797 -0.0798531004982 0.938 1.96156533607e-38
0.034718739347 -0.0798531004982 0.938 1.98021731928e-38
0.0364546763144 -0.0798531004982 0.938 1.89691923402e-38
0.0382720431608 -0.0800233629726 0.94 1.92490036175e-38
0.0400116814863 -0.0800233629726 0.94 1.65764121539e-38
0.0418845687048 -0.0802787566842 0.943 1.74955070011e-38
0.0437685599977 -0.0805341503958 0.946 1.74969363255e-38
0.0455193023976 -0.0805341503958 0.946 1.76806045152e-38
0.0472700447975 -0.0805341503958 0.946 1.83245221791e-38
0.0490207871974 -0.0805341503958 0.946 1.77717407634e-38
0.0507715295974 -0.0805341503958 0.946 1.98911486388e-38
0.0525222719973 -0.0805341503958 0.946 2.34871369359e-38
-0.0560237567971 -0.0787834079959 0.946 2.20087838716e-38
-0.0541009012437 -0.0785335663215 0.943 2.22857140793e-38
-0.052355710881 -0.0785335663215 0.943 2.22867706584e-38
-0.0506105205183 -0.0785335663215 0.943 2.3485700605e-38
-0.0488653301556 -0.0785335663215 0.943 9.10642214832e-39
-0.0469702347883 -0.0782837246471 0.94 1.17825827191e-38
-0.0451343611511 -0.0781171635308 0.938 1.07706336318e-38
-0.0432596232536 -0.0778673218564 0.935 1.28846969548e-38
-0.0414404057281 -0.0777007607401 0.933 1.54697310865e-38
-0.0397137221561 -0.0777007607401 0.933 1.50083605736e-38
-0.0378648937655 -0.0774509190657 0.93 1.49151055621e-38
-0.0359494409284 -0.0770345162751 0.925 1.50087403255e-38
-0.0341635356261 -0.0768679551588 0.923 1.51924211269e-38
-0.0322795443332 -0.0764515523681 0.918 1.51913351206e-38
-0.0304806842775 -0.0762017106937 0.915 1.50998723698e-38
-0.0286300052078 -0.075785307903 0.91 1.51916854452e-38
-0.0268866655242 -0.0756187467868 0.908 1.49179768227e-38
-0.0251507285568 -0.0754521856705 0.906 1.48265280849e-38
-0.0233962847988 -0.0752023439961 0.903 1.50080228607e-38
-0.0217251215989 -0.0752023439961 0.903 1.50998303309e-38
-0.0201205828455 -0.0754521856705 0.906 1.44566287306e-38
-0.018382795199 -0.0752023439961 0.903 1.37186881437e-38
-0.0167116319991 -0.0752023439961 0.903 1.73107401934e-38
-0.0150404687992 -0.0752023439961 0.903 2.02638940303e-38
-0.013413721897 -0.0754521856705 0.906 1.96167127424e-38
-0.0117370066599 -0.0754521856705 0.906 2.00765992802e-38
-0.0100602914227 -0.0754521856705 0.906 2.04439538765e-38
-0.00838357618561 -0.0754521856705 0.906 1.99840505231e-38
-0.00672166638105 -0.0756187467868 0.908 1.96159938762e-38
-0.00504124978578 -0.0756187467868 0.908 2.09078018851e-38
-0.0033682359068 -0.075785307903 0.91 1.78668104565e-38
-0.0016841179534 -0.075785307903 0.91 2.0172719947e-38
0.0 -0.0760351495774 0.913 2.01723696224e-38
0.00169337134875 -0.0762017106937 0.915 2.04479223537e-38
0.00339784677192 -0.0764515523681 0.918 1.8607965622e-38
0.00509677015787 -0.0764515523681 0.918 1.63952382754e-38
0.00679569354383 -0.0764515523681 0.918 1.22465092004e-38
0.00851312372049 -0.0766181134844 0.92 1.94348620367e-38
0.0102157484646 -0.0766181134844 0.92 1.79622122572e-38
0.0119183732087 -0.0766181134844 0.92 2.02667302584e-38
0.0136654142505 -0.0768679551588 0.923 1.91604205351e-38
0.0153735910318 -0.0768679551588 0.923 1.64870835807e-38
0.0171187813945 -0.0770345162751 0.925 1.74983586434e-38
0.0188917319432 -0.0772843579495 0.928 1.35272119189e-38
0.0206091621199 -0.0772843579495 0.928 1.93394027828e-38
0.0223747099523 -0.0774509190657 0.93 1.88823889068e-38
0.024173570008 -0.0777007607401 0.933 1.98036095237e-38
0.02590025358 -0.0777007607401 0.933 2.00762433504e-38
0.0276861588823 -0.0778673218564 0.935 1.98936499566e-38
0.0294165438124 -0.0778673218564 0.935 2.06319534798e-38
0.0312468654123 -0.0781171635308 0.938 1.99865560447e-38
0.0329828023797 -0.0781171635308 0.938 1.97081867035e-38
0.034718739347 -0.0781171635308 0.938 1.86940277685e-38
0.0364546763144 -0.0781171635308 0.938 1.8694757845e-38
0.0382720431608 -0.0782837246471 0.94 1.68522885852e-38
0.0402670751979 -0.0787834079959 0.946 1.69437807632e-38
0.0420178175978 -0.0787834079959 0.946 1.79572082204e-38
0.0437685599977 -0.0787834079959 0.946 1.70366784436e-38
0.0455193023976 -0.0787834079959 0.946 1.74958797465e-38
0.0472700447975 -0.0787834079959 0.946 1.74962356763e-38
0.0490207871974 -0.0787834079959 0.946 2.08166978667e-38
0.0507715295974 -0.0787834079959 0.946 1.97074412127e-38
0.0525222719973 -0.0787834079959 0.946 2.34878544007e-38
-0.0542730143972 -0.077032665596 0.946 2.26552070571e-38
-0.0525222719973 -0.077032665596 0.946 2.17325431027e-38
-0.0506105205183 -0.0767883759588 0.943 2.34903739353e-38
-0.0488653301556 -0.0767883759588 0.943 9.75394255051e-39
-0.0469702347883 -0.0765440863216 0.94 1.24269025556e-38
-0.0451343611511 -0.0763812265635 0.938 1.18787818587e-38
-0.0432596232536 -0.0761369369263 0.935 1.04893874248e-38
-0.0414404057281 -0.0759740771681 0.933 1.2974025528e-38
-0.0397137221561 -0.0759740771681 0.933 1.41815090005e-38
-0.0378648937655 -0.0757297875309 0.93 1.53789507681e-38
-0.0359494409284 -0.0753226381356 0.925 1.50080074464e-38
-0.0341635356261 -0.0751597783775 0.923 1.50080228607e-38
-0.0323498701378 -0.0749154887403 0.92 1.50062249948e-38
-0.0304806842775 -0.074508339345 0.915 1.57448438101e-38
-0.0287243898404 -0.0743454795868 0.913 1.48239847282e-38
-0.0268866655242 -0.0739383301915 0.908 1.53753676479e-38
-0.0251507285568 -0.0737754704334 0.906 1.49158272308e-38
-0.0234740133197 -0.0737754704334 0.906 1.5929254688e-38
-0.0217972980826 -0.0737754704334 0.906 1.52842412088e-38
-0.0201205828455 -0.0737754704334 0.906 1.48257811928e-38
-0.0184438676083 -0.0737754704334 0.906 1.39963988746e-38
-0.0167116319991 -0.0735311807962 0.903 1.7773165884e-38
-0.0150404687992 -0.0735311807962 0.903 2.02635409031e-38
-0.013413721897 -0.0737754704334 0.906 1.92475574775e-38
-0.0117370066599 -0.0737754704334 0.906 1.99833064336e-38
-0.0100602914227 -0.0737754704334 0.906 2.0630123384e-38
-0.00840208297631 -0.0739383301915 0.908 2.02624170617e-38
-0.00672166638105 -0.0739383301915 0.908 2.04450230672e-38
-0.0050523538602 -0.0741011899496 0.91 1.98932772112e-38
-0.0033682359068 -0.0741011899496 0.91 2.01691648528e-38
-0.00168966999061 -0.0743454795868 0.913 2.11847447045e-38
0.0 -0.0743454795868 0.913 1.54718344355e-38
0.00169337134875 -0.074508339345 0.915 1.27021399948e-38
