# .PCD v0.7 - Point Cloud Data file format
VERSION 0.7
FIELDS x y z rgb
SIZE 4 4 4 4
TYPE F F F F
COUNT 1 1 1 1
WIDTH 856
HEIGHT 1
VIEWPOINT 0 0 0 1 0 0 0
POINTS 856
DATA ascii
0.0181884738967 -0.181884738967 0.819 1.88943083515e-38
0.0197041800548 -0.181884738967 0.819 1.97215677025e-38
0.0193544017106 -0.165894871805 0.747 2.01818550117e-38
0.0207368589757 -0.165894871805 0.747 1.9720837626e-38
0.0221193162407 -0.165894871805 0.747 1.98148479374e-38
0.0235017735058 -0.165894871805 0.747 1.97212145753e-38
0.0248842307708 -0.165894871805 0.747 1.90744144406e-38
0.0262666880358 -0.165894871805 0.747 1.82453614275e-38
0.0276491453009 -0.165894871805 0.747 1.75999695977e-38
0.0290316025659 -0.165894871805 0.747 1.54791576213e-38
0.030414059831 -0.165894871805 0.747 1.52025749356e-38
0.0318816483332 -0.166339034782 0.749 1.55727601548e-38
0.0332678069564 -0.166339034782 0.749 1.64947234599e-38
0.0346539655796 -0.166339034782 0.749 1.66773168537e-38
0.0360401242028 -0.166339034782 0.749 1.77832944693e-38
0.037426282826 -0.166339034782 0.749 1.75989158212e-38
0.0388124414491 -0.166339034782 0.749 1.77829567564e-38
0.0401986000723 -0.166339034782 0.749 1.84279548213e-38
0.0416402790676 -0.16656111627 0.75 1.89814943394e-38
0.0430282883699 -0.16656111627 0.75 1.73216002565e-38
0.044653184593 -0.167449442224 0.754 1.50181836759e-38
0.0460485966116 -0.167449442224 0.754 1.7324471517e-38
0.0475069317185 -0.167671523712 0.755 1.76914645783e-38
0.0496814796253 -0.170336501573 0.767 1.87030899657e-38
0.0511009504718 -0.170336501573 0.767 1.92555252606e-38
0.0525204213182 -0.170336501573 0.767 1.58435835038e-38
0.0540805437739 -0.170780664549 0.769 1.805268429e-38
-0.0169670257107 -0.168256338298 0.764 1.71155014822e-38
-0.015512391962 -0.16781587668 0.762 1.6566280766e-38
-0.0141021745109 -0.16781587668 0.762 7.35403255766e-39
-0.0126919570598 -0.16781587668 0.762 9.94704988668e-39
-0.0112669341762 -0.16759564587 0.761 1.34490629048e-38
-0.00980674839019 -0.166714722633 0.757 1.28094093922e-38
-0.00840578433445 -0.166714722633 0.757 1.22580488933e-38
-0.00698631348801 -0.166274261015 0.755 1.22573440401e-38
-0.00558164807413 -0.166054030205 0.754 1.29023519142e-38
-0.00417513198118 -0.165613568587 0.752 1.30867445752e-38
-0.00278342132079 -0.165613568587 0.752 1.3547715718e-38
-0.00138800930225 -0.165173106968 0.75 1.38225103469e-38
0.0 -0.165173106968 0.75 1.38228606715e-38
0.00138245726504 -0.16451241454 0.747 1.39157597532e-38
0.00276491453009 -0.16451241454 0.747 1.49288368858e-38
0.00414181975792 -0.164292183731 0.746 1.45596970352e-38
0.0055224263439 -0.164292183731 0.746 1.58500855287e-38
0.00690303292987 -0.164292183731 0.746 1.44682328831e-38
0.00828363951585 -0.164292183731 0.746 1.42834884962e-38
0.00970311036229 -0.164952876159 0.749 1.39143542508e-38
0.0121552601296 -0.180809494428 0.821 1.34519299615e-38
0.0136746676458 -0.180809494428 0.821 1.40972741472e-38
0.015194075162 -0.180809494428 0.821 1.46522485949e-38
0.0166727677387 -0.180369032809 0.819 1.42834884962e-38
0.016522862734 -0.163851722112 0.744 1.52980075649e-38
0.0178997679619 -0.163851722112 0.744 1.53902059974e-38
0.0193284922036 -0.164292183731 0.746 1.50203444781e-38
0.0207368589757 -0.16451241454 0.747 1.49277985236e-38
0.0221193162407 -0.16451241454 0.747 1.49288523001e-38
0.0235017735058 -0.16451241454 0.747 1.42827696301e-38
0.0248842307708 -0.16451241454 0.747 1.51107324329e-38
0.0262666880358 -0.16451241454 0.747 1.51117862094e-38
0.0276491453009 -0.16451241454 0.747 1.64936668809e-38
0.0290316025659 -0.16451241454 0.747 1.64947360716e-38
0.030414059831 -0.16451241454 0.747 1.66780483315e-38
0.0318816483332 -0.164952876159 0.749 1.67720292156e-38
0.0332678069564 -0.164952876159 0.749 1.6680186713e-38
0.0346539655796 -0.164952876159 0.749 1.7230486429e-38
0.0360401242028 -0.164952876159 0.749 1.79684073977e-38
0.037426282826 -0.164952876159 0.749 1.7875855838e-38
0.0388124414491 -0.164952876159 0.749 1.80609701678e-38
0.0401986000723 -0.164952876159 0.749 1.67698782225e-38
0.0416402790676 -0.165173106968 0.75 1.64947388742e-38
0.0430282883699 -0.165173106968 0.75 1.61273926857e-38
0.044653184593 -0.166054030205 0.754 1.74174126377e-38
0.0461096690209 -0.166274261015 0.755 1.71401054807e-38
0.047947393337 -0.16781587668 0.762 1.75981969551e-38
0.0498110271602 -0.169357492345 0.769 1.86109195592e-38
0.0512341993648 -0.169357492345 0.769 1.87002032909e-38
0.0526573715693 -0.169357492345 0.769 1.6854142503e-38
0.0540805437739 -0.169357492345 0.769 1.80530374172e-38
-0.0170336501573 -0.16749755988 0.767 1.92410708669e-38
-0.015593821841 -0.167279179749 0.766 1.88769042246e-38
-0.0141762016737 -0.167279179749 0.766 3.21424236553e-39
-0.0127585815063 -0.167279179749 0.766 1.00381735232e-38
-0.0112817396087 -0.166405659229 0.762 9.01171679291e-39
-0.00985856740414 -0.166187279098 0.761 1.35426836552e-38
-0.00840578433445 -0.165313758577 0.757 1.308529283e-38
-0.00698631348801 -0.164876998317 0.755 1.29945433402e-38
-0.00558905079041 -0.164876998317 0.755 1.29927496781e-38
-0.0041862360556 -0.164658618187 0.754 1.36399183544e-38
-0.00278342132079 -0.164221857926 0.752 1.33618867261e-38
-0.00139171066039 -0.164221857926 0.752 1.39147101806e-38
0.0 -0.163785097666 0.75 1.4560428513e-38
0.00138615862318 -0.163566717536 0.749 1.40076092623e-38
0.00276491453009 -0.163129957275 0.747 1.4560428513e-38
0.00414181975792 -0.162911577145 0.746 1.45600767871e-38
0.0055224263439 -0.162911577145 0.746 1.46515451431e-38
0.00690303292987 -0.162911577145 0.746 1.48359237911e-38
0.0083169517391 -0.163566717536 0.749 1.48370126e-38
0.00970311036229 -0.163566717536 0.749 1.54827323337e-38
0.0110892689855 -0.163566717536 0.749 1.54816603403e-38
0.0124754276087 -0.163566717536 0.749 1.58493666626e-38
0.0138615862318 -0.163566717536 0.749 1.65887365739e-38
0.015247744855 -0.163566717536 0.749 1.60362788582e-38
0.016522862734 -0.162474816885 0.744 1.60362788582e-38
0.0178997679619 -0.162474816885 0.744 1.60359285336e-38
0.0193284922036 -0.162911577145 0.746 1.64969038803e-38
0.0207368589757 -0.163129957275 0.747 1.56660670143e-38
0.0221193162407 -0.163129957275 0.747 1.64021901171e-38
0.0235017735058 -0.163129957275 0.747 1.64943829444e-38
0.0248842307708 -0.163129957275 0.747 1.68631486483e-38
0.0262666880358 -0.163129957275 0.747 1.58482946692e-38
0.0276491453009 -0.163129957275 0.747 1.64940172055e-38
0.0290316025659 -0.163129957275 0.747 1.61259563548e-38
0.030414059831 -0.163129957275 0.747 1.70489916532e-38
0.0318816483332 -0.163566717536 0.749 1.77858252143e-38
0.0332678069564 -0.163566717536 0.749 1.69564176728e-38
0.0346539655796 -0.163566717536 0.749 1.76014563754e-38
0.0360401242028 -0.163566717536 0.749 1.78765789081e-38
0.037426282826 -0.163566717536 0.749 1.73248498676e-38
0.0388642604631 -0.163785097666 0.75 1.65869317015e-38
0.0402522697653 -0.163785097666 0.75 1.64947360716e-38
0.0416402790676 -0.163785097666 0.75 1.7693632387e-38
0.0432577725745 -0.164658618187 0.754 1.63106923339e-38
0.0448308497837 -0.165313758577 0.757 1.67713257638e-38
0.0464761034766 -0.166187279098 0.761 1.75985654966e-38
0.0480732395138 -0.166842419489 0.764 1.76896625085e-38
0.0498110271602 -0.16793432014 0.769 1.84265086813e-38
0.0512341993648 -0.16793432014 0.769 1.89789355684e-38
0.0526573715693 -0.16793432014 0.769 1.6764819535e-38
0.0542211953832 -0.168371080401 0.771 1.86068964313e-38
-0.0170336501573 -0.166078089033 0.767 1.97927494606e-38
-0.0156141793108 -0.166078089033 0.767 1.87836520157e-38
-0.0141762016737 -0.165861559582 0.766 3.67341984632e-39
-0.0127585815063 -0.165861559582 0.766 1.38224697092e-38
-0.0113113504738 -0.16542850068 0.764 9.85483323734e-39
-0.00985856740414 -0.164778912326 0.761 5.41829427332e-39
-0.00842799248328 -0.164345853424 0.759 1.67529631487e-38
-0.0070048202787 -0.163912794522 0.757 1.32682603705e-38
-0.00560385622296 -0.163912794522 0.757 1.35462934001e-38
-0.0041862360556 -0.163263206168 0.754 1.2902346309e-38
-0.00279082403706 -0.163263206168 0.754 1.3730314717e-38
-0.00139171066039 -0.162830147266 0.752 1.48366566702e-38
0.0 -0.162397088364 0.75 1.40058254094e-38
0.00138615862318 -0.162180558912 0.749 1.46522752196e-38
0.00276491453009 -0.16174750001 0.747 1.44703852776e-38
0.00414181975792 -0.161530970559 0.746 1.52054489987e-38
0.0055224263439 -0.161530970559 0.746 1.49292082299e-38
0.00691228632522 -0.16174750001 0.747 1.5113596687e-38
0.0083169517391 -0.162180558912 0.749 1.52068657115e-38
0.00970311036229 -0.162180558912 0.749 1.55756538361e-38
0.0110892689855 -0.162180558912 0.749 1.49306529686e-38
0.0124754276087 -0.162180558912 0.749 1.55738685819e-38
0.0138245726504 -0.16174750001 0.747 1.55738713845e-38
0.0152070299155 -0.16174750001 0.747 1.55756734543e-38
0.0165894871805 -0.16174750001 0.747 1.52972886988e-38
0.0179719444456 -0.16174750001 0.747 1.57568179055e-38
0.0193544017106 -0.16174750001 0.747 1.57582654468e-38
0.0207368589757 -0.16174750001 0.747 1.60366319854e-38
0.0221193162407 -0.16174750001 0.747 1.62195911181e-38
0.0235017735058 -0.16174750001 0.747 1.65876533702e-38
0.0248842307708 -0.16174750001 0.747 1.63124775881e-38
0.0262666880358 -0.16174750001 0.747 1.6219947048e-38
0.0276491453009 -0.16174750001 0.747 1.70486357234e-38
0.0290316025659 -0.16174750001 0.747 1.69578596089e-38
0.030414059831 -0.16174750001 0.747 1.67749130879e-38
0.0318816483332 -0.162180558912 0.749 1.67716957066e-38
0.0332678069564 -0.162180558912 0.749 1.65883414077e-38
0.0346539655796 -0.162180558912 0.749 1.64965339375e-38
0.0360882418586 -0.162397088364 0.75 1.67720432286e-38
0.0374762511608 -0.162397088364 0.75 1.71404558053e-38
0.038967898491 -0.162830147266 0.752 1.71393866145e-38
0.0403596091514 -0.162830147266 0.752 1.67716816936e-38
0.041862360556 -0.163263206168 0.754 1.70479098508e-38
0.0433151436257 -0.163479735619 0.755 1.6770246764e-38
0.0450677367046 -0.164778912326 0.761 1.76904051967e-38
0.0465371758859 -0.164995441777 0.762 1.79673494174e-38
0.0480732395138 -0.16542850068 0.764 1.75059817071e-38
0.0498110271602 -0.166511147936 0.769 1.83335941853e-38
0.0512341993648 -0.166511147936 0.769 1.88871210917e-38
0.0526573715693 -0.166511147936 0.769 1.63960538312e-38
0.0542211953832 -0.166944206838 0.771 1.78679062719e-38
-0.0156548942503 -0.165087975731 0.769 1.91520589872e-38
-0.0142317220458 -0.165087975731 0.769 3.21424236553e-39
-0.0127752376179 -0.164658618187 0.767 1.2256263639e-38
-0.0113113504738 -0.164014581871 0.764 1.32696910962e-38
-0.00987152215763 -0.163585224326 0.762 9.02257965861e-39
-0.00845020063212 -0.163370545554 0.761 7.98968816575e-39
-0.0070418338601 -0.163370545554 0.761 1.46370697299e-38
-0.00561866165552 -0.16294118801 0.759 1.44668259795e-38
-0.00420289216722 -0.162511830466 0.757 1.37321139843e-38
-0.0027945253952 -0.162082472922 0.755 1.34555200882e-38
-0.00139541201853 -0.16186779415 0.754 1.40987244911e-38
0.0 -0.16186779415 0.754 1.46501200225e-38
0.00138615862318 -0.160794400289 0.749 1.48381014089e-38
0.00277231724637 -0.160794400289 0.749 1.45611459778e-38
0.00414737179513 -0.160365042745 0.747 1.50206976053e-38
0.00552982906018 -0.160365042745 0.747 1.48381042115e-38
0.00691228632522 -0.160365042745 0.747 1.49306557712e-38
0.0083169517391 -0.160794400289 0.749 1.51139680311e-38
0.00970311036229 -0.160794400289 0.749 1.53905619272e-38
0.0110892689855 -0.160794400289 0.749 1.53905745389e-38
0.0124754276087 -0.160794400289 0.749 1.55767454476e-38
0.0138245726504 -0.160365042745 0.747 1.64054341231e-38
0.0152070299155 -0.160365042745 0.747 1.64958304857e-38
0.0165894871805 -0.160365042745 0.747 1.64961808103e-38
0.0179719444456 -0.160365042745 0.747 1.67720488338e-38
0.0193544017106 -0.160365042745 0.747 1.66794958728e-38
0.0207368589757 -0.160365042745 0.747 1.62199694687e-38
0.0221193162407 -0.160365042745 0.747 1.64043509194e-38
0.0235017735058 -0.160365042745 0.747 1.68646102026e-38
0.0248842307708 -0.160365042745 0.747 1.62199694687e-38
0.0262666880358 -0.160365042745 0.747 1.59444489673e-38
0.0276491453009 -0.160365042745 0.747 1.60359285336e-38
0.0290316025659 -0.160365042745 0.747 1.64987045489e-38
0.03049548971 -0.160794400289 0.749 1.59458838969e-38
0.0318816483332 -0.160794400289 0.749 1.64036320533e-38
0.0333122232541 -0.161009079061 0.75 1.65887337713e-38
0.0347002325563 -0.161009079061 0.75 1.65887309687e-38
0.0360882418586 -0.161009079061 0.75 1.69553582911e-38
0.0375761878306 -0.161438436606 0.752 1.81528182756e-38
0.038967898491 -0.161438436606 0.752 1.8153162995e-38
0.0404669485374 -0.16186779415 0.754 1.70479098508e-38
0.041917880928 -0.162082472922 0.755 1.67713257638e-38
0.043429885728 -0.162511830466 0.757 1.71397397418e-38
0.0450677367046 -0.163370545554 0.761 1.7783307081e-38
0.0465371758859 -0.163585224326 0.762 1.79669696655e-38
0.0481990856905 -0.164443939415 0.766 1.76893107826e-38
0.0498110271602 -0.165087975731 0.769 1.81502721163e-38
0.0512341993648 -0.165087975731 0.769 1.98094179059e-38
0.0527943218205 -0.165517333275 0.771 1.6673702905e-38
0.0543618469925 -0.165946690819 0.773 1.86061957821e-38
-0.0142317220458 -0.163664803526 0.769 5.78887045481e-39
-0.0127752376179 -0.16323914734 0.767 1.25285219177e-38
-0.0113113504738 -0.162600663061 0.764 1.14271980143e-38
-0.00987152215763 -0.162175006875 0.762 1.26232076549e-38
-0.00845020063212 -0.161962178782 0.761 1.28980120928e-38
-0.0070418338601 -0.161962178782 0.761 8.74266748776e-39
-0.00561866165552 -0.161536522596 0.759 5.87747175411e-39
-0.00421399624164 -0.161536522596 0.759 1.59326346199e-38
-0.00280192811148 -0.16111086641 0.757 9.58185889519e-39
-0.00140096405574 -0.16111086641 0.757 1.32661738371e-38
0.0 -0.160685210224 0.755 1.38246781556e-38
0.00139171066039 -0.160046725945 0.752 1.40097728672e-38
0.00277601860451 -0.159621069759 0.75 1.41008866946e-38
0.00415847586955 -0.159408241666 0.749 1.43753281963e-38
0.00554463449273 -0.159408241666 0.749 1.46537101492e-38
0.00694004651127 -0.159621069759 0.75 1.49299537206e-38
0.00832805581352 -0.159621069759 0.75 1.51136135026e-38
0.00971606511577 -0.159621069759 0.75 1.57589815103e-38
0.011104074418 -0.159621069759 0.75 1.5390556322e-38
0.0124920837203 -0.159621069759 0.75 1.53912779907e-38
0.0138615862318 -0.159408241666 0.749 1.52987292336e-38
0.015247744855 -0.159408241666 0.749 1.51129100507e-38
0.0166339034782 -0.159408241666 0.749 1.62210386595e-38
0.0180200621014 -0.159408241666 0.749 1.59444517699e-38
0.0194062207246 -0.159408241666 0.749 1.59444517699e-38
0.0207923793478 -0.159408241666 0.749 1.59441014452e-38
0.0221785379709 -0.159408241666 0.749 1.56685879503e-38
0.0235646965941 -0.159408241666 0.749 1.6682369936e-38
0.0249508552173 -0.159408241666 0.749 1.53909248635e-38
0.0263370138405 -0.159408241666 0.749 1.61284744881e-38
0.0277231724637 -0.159408241666 0.749 1.61291961568e-38
0.0291093310869 -0.159408241666 0.749 1.6128840227e-38
0.03049548971 -0.159408241666 0.749 1.62206757232e-38
0.0319242139518 -0.159621069759 0.75 1.7141553022e-38
0.0333122232541 -0.159621069759 0.75 1.62206757232e-38
0.0347002325563 -0.159621069759 0.75 1.64046914349e-38
0.0360882418586 -0.159621069759 0.75 1.82471522869e-38
0.0375761878306 -0.160046725945 0.752 1.73230646133e-38
0.038967898491 -0.160046725945 0.752 1.71390362899e-38
0.0404669485374 -0.160472382131 0.754 1.70479098508e-38
0.041917880928 -0.160685210224 0.755 1.69549939535e-38
0.0435446278303 -0.161536522596 0.759 1.71379376719e-38
0.0451269584349 -0.162175006875 0.762 1.70457294304e-38
0.0466593207045 -0.162600663061 0.764 1.81513679317e-38
0.0481990856905 -0.163026319247 0.766 1.77818595397e-38
0.0498110271602 -0.163664803526 0.769 1.77822154695e-38
0.0512341993648 -0.163664803526 0.769 1.9073284994e-38
0.0527943218205 -0.164090459712 0.771 1.63052903283e-38
0.0545728244065 -0.165154600177 0.776 1.81437855057e-38
-0.0142317220458 -0.162241631322 0.769 1.2519856288e-38
-0.0128085498412 -0.162241631322 0.769 1.28061093344e-38
-0.0113409613389 -0.16160869908 0.766 1.29938034546e-38
-0.0098974316646 -0.161186744252 0.764 6.62267667225e-39
-0.00846130470654 -0.160764789424 0.762 1.40032666384e-38
-0.00705108725545 -0.160764789424 0.762 1.4373866642e-38
-0.00563346708808 -0.16055381201 0.761 1.19731242778e-38
-0.00422510031606 -0.16055381201 0.761 1.51978245338e-38
-0.00280933082776 -0.160131857182 0.759 1.34555200882e-38
-0.00140466541388 -0.160131857182 0.759 9.00855406228e-39
0.0 -0.159287947527 0.755 1.64914710462e-38
0.00139541201853 -0.159076970113 0.754 1.52979977558e-38
0.00278342132079 -0.158655015285 0.752 1.47466120335e-38
0.00416402790676 -0.158233060457 0.75 1.47458931674e-38
0.00555203720901 -0.158233060457 0.75 1.44682440935e-38
0.00695855330196 -0.158655015285 0.752 1.5482757557e-38
0.00835026396236 -0.158655015285 0.752 1.58515204583e-38
0.00974197462275 -0.158655015285 0.752 1.55753035115e-38
0.0111336852831 -0.158655015285 0.752 1.46526381559e-38
0.0125253959435 -0.158655015285 0.752 1.53916521374e-38
0.0139171066039 -0.158655015285 0.752 1.49321145229e-38
0.015247744855 -0.158022083043 0.749 1.5575686066e-38
0.0166339034782 -0.158022083043 0.749 1.53930772579e-38
0.0180200621014 -0.158022083043 0.749 1.57614996437e-38
0.0194321302315 -0.158233060457 0.75 1.585297921e-38
0.0207923793478 -0.158022083043 0.749 1.66820406308e-38
0.0221785379709 -0.158022083043 0.749 1.57607835801e-38
0.0235646965941 -0.158022083043 0.749 1.61291933542e-38
0.0249508552173 -0.158022083043 0.749 1.61281213609e-38
0.0263721767428 -0.158233060457 0.75 1.6866039527e-38
0.0277601860451 -0.158233060457 0.75 1.65887337713e-38
0.0291481953473 -0.158233060457 0.75 1.66816482673e-38
0.0305362046496 -0.158233060457 0.75 1.64969038803e-38
0.032009345189 -0.158655015285 0.752 1.7602515757e-38
0.0334010558494 -0.158655015285 0.752 1.64064907021e-38
0.0348853004633 -0.159076970113 0.754 1.73280742554e-38
0.0362807124818 -0.159076970113 0.754 1.74173986247e-38
0.0376761245004 -0.159076970113 0.754 1.82464474338e-38
0.0391233555328 -0.159287947527 0.755 1.71401054807e-38
0.0405206182304 -0.159287947527 0.755 1.69567932207e-38
0.0421399624164 -0.160131857182 0.759 1.70472035964e-38
0.0436593699326 -0.16055381201 0.761 1.72297829772e-38
0.0452454018953 -0.161186744252 0.764 1.77826064317e-38
0.0467814655231 -0.16160869908 0.766 1.77840133354e-38
0.0482620087789 -0.161819676494 0.767 1.76914589731e-38
0.0499405746951 -0.16266358615 0.771 1.80588051617e-38
0.0513674482578 -0.16266358615 0.771 1.88864148373e-38
0.0529312720717 -0.163085540978 0.773 1.72265207544e-38
0.0545728244065 -0.163718473219 0.776 1.79601075069e-38
-0.0142687356272 -0.161236712587 0.771 1.38091335517e-38
-0.0128085498412 -0.160818459117 0.769 1.19774851186e-38
-0.0113853776366 -0.160818459117 0.769 1.17023163431e-38
-0.0098974316646 -0.159772825443 0.764 8.46795553551e-39
-0.00846130470654 -0.159354571973 0.762 8.92141151467e-39
-0.00705108725545 -0.159354571973 0.762 1.49197368535e-38
-0.00563346708808 -0.159145445238 0.761 1.4464983272e-38
-0.00422510031606 -0.159145445238 0.761 1.42831325664e-38
-0.00281673354404 -0.159145445238 0.761 1.27176047246e-38
-0.00140466541388 -0.158727191768 0.759 1.19687508253e-38
0.0 -0.157890684829 0.755 1.09471537981e-38
0.00139541201853 -0.157681558094 0.754 1.59331236731e-38
0.00279082403706 -0.157681558094 0.754 1.1878102229e-38
0.00417513198118 -0.157263304624 0.752 1.66752373268e-38
0.00556684264157 -0.157263304624 0.752 1.63099888821e-38
0.00697706009266 -0.157681558094 0.754 1.07746987987e-38
0.00837247211119 -0.157681558094 0.754 1.69525178591e-38
0.00976788412972 -0.157681558094 0.754 1.72283508501e-38
0.0111632961483 -0.157681558094 0.754 1.60344823936e-38
0.0125253959435 -0.157263304624 0.752 1.55760223776e-38
0.0139171066039 -0.157263304624 0.752 1.63146636138e-38
0.0153088172643 -0.157263304624 0.752 1.57622087007e-38
0.0167005279247 -0.157263304624 0.752 1.53934275825e-38
0.0180922385851 -0.157263304624 0.752 1.62231938565e-38
0.0194321302315 -0.156845051155 0.75 1.54856288176e-38
0.0208201395338 -0.156845051155 0.75 1.5577118193e-38
0.0222081488361 -0.156845051155 0.75 1.576113951e-38
0.0235961581383 -0.156845051155 0.75 1.64057872503e-38
0.0249841674406 -0.156845051155 0.75 1.59430140376e-38
0.0263721767428 -0.156845051155 0.75 1.73241464158e-38
0.0277601860451 -0.156845051155 0.75 1.66787770067e-38
0.0291481953473 -0.156845051155 0.75 1.68649605272e-38
0.0306176345286 -0.157263304624 0.752 1.72355409126e-38
0.0320944764262 -0.157681558094 0.754 1.37307252975e-38
0.0334898884448 -0.157681558094 0.754 1.47454825869e-38
0.0348853004633 -0.157681558094 0.754 1.39104292138e-38
0.0363288301376 -0.157890684829 0.755 1.48269540796e-38
0.0377260928352 -0.157890684829 0.755 1.78762636159e-38
0.0391233555328 -0.157890684829 0.755 1.74156007587e-38
0.0406279576165 -0.158308938299 0.757 1.72304892316e-38
0.0422510031606 -0.159145445238 0.761 1.67720320182e-38
0.0437167409838 -0.159354571973 0.762 1.71386439264e-38
0.0453638453558 -0.160191078913 0.766 1.76911114511e-38
0.0468425379324 -0.160400205647 0.767 1.76914589731e-38
0.0483878549556 -0.160818459117 0.769 1.7506347446e-38
0.0500701222299 -0.161654966057 0.773 1.81506224409e-38
0.0515006971508 -0.161654966057 0.773 1.89782377218e-38
0.0531366974484 -0.162282346261 0.776 1.75935082105e-38
0.0549244534297 -0.163327979936 0.781 1.82363342628e-38
-0.0159398988271 -0.162297151694 0.783 1.91496039123e-38
-0.0144352967434 -0.161675323526 0.78 1.35321865285e-38
-0.0128418620644 -0.159809839024 0.771 1.09622597955e-38
-0.0114149885017 -0.159809839024 0.771 1.2344408115e-38
-0.00992334117158 -0.158773458745 0.766 1.40972769498e-38
-0.00848351285537 -0.158358906634 0.764 7.26939272911e-39
-0.00705108725545 -0.157944354522 0.762 1.00140333546e-38
-0.00564086980436 -0.157944354522 0.762 1.0849515525e-38
-0.00423065235327 -0.157944354522 0.762 1.59367236088e-38
-0.00281673354404 -0.157737078466 0.761 1.54791576213e-38
-0.00140836677202 -0.157737078466 0.761 1.48359237911e-38
0.0 -0.157322526355 0.759 1.04952056161e-38
0.0013972626976 -0.156493422131 0.755 1.32580435034e-38
0.00279082403706 -0.156286146076 0.754 1.1503124569e-38
0.0041862360556 -0.156286146076 0.754 1.64677260437e-38
0.00558164807413 -0.156286146076 0.754 1.61270451637e-38
0.00697706009266 -0.156286146076 0.754 4.86873864678e-39
0.00837247211119 -0.156286146076 0.754 1.54578452729e-38
0.00976788412972 -0.156286146076 0.754 1.66653609752e-38
0.0111632961483 -0.156286146076 0.754 1.74983586434e-38
0.0125587081668 -0.156286146076 0.754 1.69542750874e-38
0.0139541201853 -0.156286146076 0.754 1.73212499318e-38
0.0153495322039 -0.156286146076 0.754 1.42791514775e-38
0.0167005279247 -0.155871593964 0.752 1.80609827795e-38
0.0180922385851 -0.155871593964 0.752 1.70475441119e-38
0.0194839492455 -0.155871593964 0.752 1.81531840145e-38
0.0208201395338 -0.155457041852 0.75 1.86130845653e-38
0.0222081488361 -0.155457041852 0.75 1.8612721629e-38
0.0235961581383 -0.155457041852 0.75 1.77840497692e-38
0.0250507918871 -0.155871593964 0.752 6.15631053033e-39
0.0264425025475 -0.155871593964 0.752 1.75016783195e-38
0.0278342132079 -0.155871593964 0.752 1.13260032457e-38
0.0293036523892 -0.156286146076 0.754 1.80596081057e-38
0.0306990644077 -0.156286146076 0.754 1.74195818477e-38
0.0320944764262 -0.156286146076 0.754 6.63308131334e-39
0.0334898884448 -0.156286146076 0.754 2.66331486779e-39
0.03493156744 -0.156493422131 0.755 8.35703015038e-39
0.0363288301376 -0.156493422131 0.755 4.68361030406e-39
0.037826029505 -0.156907974243 0.757 1.85219679353e-38
0.0392269935607 -0.156907974243 0.757 1.7782969368e-38
0.0407352970025 -0.157322526355 0.759 1.73223331356e-38
0.0423065235327 -0.157944354522 0.762 1.68631486483e-38
0.0437167409838 -0.157944354522 0.762 1.83364780576e-38
0.045423067086 -0.158980734801 0.767 1.70457392395e-38
0.0468425379324 -0.158980734801 0.767 1.78755055134e-38
0.0483878549556 -0.159395286913 0.769 1.75981941525e-38
0.0501348959974 -0.160431667192 0.774 1.84268758215e-38
0.0517005704903 -0.160846219303 0.776 1.95317618256e-38
0.0532736476996 -0.161260771415 0.778 1.80537380664e-38
0.055065105039 -0.162297151694 0.783 1.79590257045e-38
0.0565141867505 -0.162297151694 0.783 2.00682573504e-38
-0.0159398988271 -0.160848069982 0.783 2.03484399719e-38
-0.0144538035341 -0.160437219229 0.781 1.27016915793e-38
-0.0129251426226 -0.159410092345 0.776 1.28040045841e-38
-0.0114445993668 -0.158793816215 0.773 9.29809175227e-39
-0.00993629592506 -0.157561263955 0.767 1.39075355325e-38
-0.00850572100421 -0.157355838578 0.766 1.38213949133e-38
-0.00706959404614 -0.156944987824 0.764 1.39114409513e-38
-0.00564086980436 -0.156534137071 0.762 9.75716273438e-39
-0.00423065235327 -0.156534137071 0.762 1.49129755885e-38
-0.00282043490218 -0.156534137071 0.762 5.97509601423e-39
-0.00140836677202 -0.156328711694 0.761 1.56619864332e-38
0.0 -0.156328711694 0.761 1.5482757557e-38
0.00140466541388 -0.155917860941 0.759 1.49292082299e-38
0.0027945253952 -0.155096159434 0.755 7.26863602794e-39
0.0041917880928 -0.155096159434 0.755 1.64727482974e-38
0.00558905079041 -0.155096159434 0.755 1.48363063456e-38
0.00697706009266 -0.154890734057 0.754 1.34493711905e-38
0.00837247211119 -0.154890734057 0.754 4.95917985096e-39
0.00976788412972 -0.154890734057 0.754 1.86721563021e-38
0.0111632961483 -0.154890734057 0.754 1.53663923313e-38
0.0125587081668 -0.154890734057 0.754 1.48142330922e-38
0.0139541201853 -0.154890734057 0.754 1.46259560318e-38
0.0153495322039 -0.154890734057 0.754 9.46912163114e-39
0.0167449442224 -0.154890734057 0.754 1.34439986122e-38
0.0181403562409 -0.154890734057 0.754 1.26076504393e-38
0.0194839492455 -0.154479883304 0.752 1.57429912935e-38
0.0208756599059 -0.154479883304 0.752 1.18672267516e-38
0.0222673705663 -0.154479883304 0.752 1.29656653814e-38
0.0236590812267 -0.154479883304 0.752 1.32516171486e-38
0.0250507918871 -0.154479883304 0.752 9.27550282103e-39
0.0265128283521 -0.154890734057 0.754 9.10077071162e-39
0.0279082403706 -0.154890734057 0.754 9.27554065609e-39
0.0293425166496 -0.155096159434 0.755 1.88846351882e-38
0.0307397793472 -0.155096159434 0.755 1.71422732894e-38
0.0321370420448 -0.155096159434 0.755 2.8469003809e-39
0.0335343047424 -0.155096159434 0.755 1.33453163717e-38
0.03493156744 -0.155096159434 0.755 1.55699337358e-38
0.0363288301376 -0.155096159434 0.755 1.27947209817e-38
0.037826029505 -0.155507010187 0.757 1.80616890339e-38
0.0392269935607 -0.155507010187 0.757 1.76007277002e-38
0.0408426363886 -0.156328711694 0.761 1.63996663786e-38
0.0423065235327 -0.156534137071 0.762 1.69535436096e-38
0.0438314830861 -0.156944987824 0.764 1.71382907991e-38
0.045423067086 -0.157561263955 0.767 1.79680514679e-38
0.046964682751 -0.157972114708 0.769 1.78762061627e-38
0.0485137011324 -0.158382965462 0.771 1.81524231095e-38
0.0502644435323 -0.159410092345 0.776 1.80580582696e-38
0.0517005704903 -0.159410092345 0.776 1.91633324333e-38
0.0534790730763 -0.160437219229 0.781 1.91604583702e-38
0.055065105039 -0.160848069982 0.783 1.56523426972e-38
0.0565141867505 -0.160848069982 0.783 2.03455701126e-38
-0.0144538035341 -0.158991838875 0.781 1.27920851393e-38
-0.0129584548458 -0.158381114782 0.778 1.26196077191e-38
-0.0114445993668 -0.157363241294 0.773 1.34518921264e-38
-0.00996220543204 -0.156548942503 0.769 1.09615283177e-38
-0.00851682507863 -0.156141793108 0.767 1.26217741266e-38
-0.00708810083684 -0.15593821841 0.766 1.41008894972e-38
-0.00565567523691 -0.155531069015 0.764 1.27147152472e-38
-0.00424175642769 -0.155531069015 0.764 1.28971573008e-38
-0.00282043490218 -0.15512391962 0.762 1.5019250064e-38
-0.00141021745109 -0.15512391962 0.762 1.46515451431e-38
0.0 -0.154920344922 0.761 1.41927193882e-38
0.00140466541388 -0.154513195527 0.759 1.52039944509e-38
0.0027945253952 -0.153698896736 0.755 1.76007305028e-38
0.0041917880928 -0.153698896736 0.755 1.71401054807e-38
0.00558905079041 -0.153698896736 0.755 1.54820232766e-38
0.00698631348801 -0.153698896736 0.755 1.6680947618e-38
0.00837247211119 -0.153495322039 0.754 1.72326514351e-38
0.00976788412972 -0.153495322039 0.754 1.69557142209e-38
0.0111632961483 -0.153495322039 0.754 1.6859180171e-38
0.0125587081668 -0.153495322039 0.754 1.64900066893e-38
0.0139541201853 -0.153495322039 0.754 1.50163115411e-38
0.0153495322039 -0.153495322039 0.754 1.01232169257e-38
0.0167449442224 -0.153495322039 0.754 1.65843154772e-38
0.0181403562409 -0.153495322039 0.754 7.91300210729e-39
0.0195357682594 -0.153495322039 0.754 1.68523460384e-38
0.020931180278 -0.153495322039 0.754 1.75934129222e-38
0.0223265922965 -0.153495322039 0.754 1.67651124064e-38
0.023722004315 -0.153495322039 0.754 1.5475189144e-38
0.0251174163336 -0.153495322039 0.754 1.81506070267e-38
0.0265128283521 -0.153495322039 0.754 1.79684186081e-38
0.027945253952 -0.153698896736 0.755 1.84283261654e-38
0.0293425166496 -0.153698896736 0.755 1.73244967404e-38
0.0307397793472 -0.153698896736 0.755 1.7695430253e-38
0.0321370420448 -0.153698896736 0.755 4.49995612732e-39
0.0336231373378 -0.154106046132 0.757 1.44405180021e-38
0.0350241013935 -0.154106046132 0.757 1.07634071356e-38
0.0364250654493 -0.154106046132 0.757 1.61191236234e-38
0.0379259661748 -0.154513195527 0.759 1.69585476464e-38
0.0393306315886 -0.154513195527 0.759 1.65887309687e-38
0.0408426363886 -0.154920344922 0.761 1.75067201914e-38
0.0423065235327 -0.15512391962 0.762 1.70453763032e-38
0.0438314830861 -0.155531069015 0.764 1.75059957201e-38
0.0455415105465 -0.156548942503 0.769 1.73226862628e-38
0.0472089723882 -0.157363241294 0.773 1.79687745379e-38
0.0486395473091 -0.157363241294 0.773 1.84283079485e-38
0.0502644435323 -0.157973965387 0.776 1.85190560371e-38
0.0518338193833 -0.158381114782 0.778 1.98058502e-38
0.0536160233274 -0.159398988271 0.783 1.78679118771e-38
0.0552057566483 -0.159806137666 0.785 1.55518429726e-38
-0.0144538035341 -0.157546458522 0.781 1.3529259216e-38
-0.0129917670691 -0.157344734503 0.78 1.132384945e-38
-0.0114594047994 -0.156134390392 0.774 1.32664274721e-38
-0.010014024446 -0.155932666373 0.773 1.31774940651e-38
-0.00853903322746 -0.155125770299 0.769 8.56376231152e-39
-0.00709735423219 -0.154722322262 0.767 1.18812845778e-38
-0.00567048066947 -0.154520598243 0.766 1.48334617097e-38
-0.0042528605021 -0.154520598243 0.766 1.37299433729e-38
-0.00282783761846 -0.154117150206 0.764 1.42852877634e-38
-0.00141021745109 -0.153713702169 0.762 1.46537101492e-38
0.0 -0.153713702169 0.762 9.11799687364e-39
0.00140836677202 -0.15351197815 0.761 1.44412550851e-38
0.00280933082776 -0.153108530113 0.759 1.24301227395e-38
0.00420289216722 -0.152705082076 0.757 1.19655712791e-38
0.00558905079041 -0.152301634039 0.755 1.57536383593e-38
0.00698631348801 -0.152301634039 0.755 1.649223055e-38
0.00838357618561 -0.152301634039 0.755 1.69564428961e-38
0.00978083888321 -0.152301634039 0.755 1.19800186663e-38
0.0111781015808 -0.152301634039 0.755 1.74177685675e-38
0.0125753642784 -0.152301634039 0.755 1.7511061414e-38
0.013972626976 -0.152301634039 0.755 1.69603833474e-38
0.0153698896736 -0.152301634039 0.755 1.7512483732e-38
0.0167671523712 -0.152301634039 0.755 1.74192133062e-38
0.0181403562409 -0.15209991002 0.754 1.7418860179e-38
0.0195357682594 -0.15209991002 0.754 1.72344717218e-38
0.020931180278 -0.15209991002 0.754 1.80642351932e-38
0.0223265922965 -0.15209991002 0.754 1.83397276687e-38
0.0237534658592 -0.152301634039 0.755 1.59419336365e-38
0.0251507285568 -0.152301634039 0.755 1.67724145727e-38
0.0265479912544 -0.152301634039 0.755 1.61288304179e-38
0.027945253952 -0.152301634039 0.755 1.68667457814e-38
0.0294202451706 -0.152705082076 0.757 1.67734711517e-38
0.0308212092263 -0.152705082076 0.757 1.81553308038e-38
0.032222173282 -0.152705082076 0.757 5.78570772418e-39
0.0336231373378 -0.152705082076 0.757 7.0713948613e-39
0.0350241013935 -0.152705082076 0.757 1.51917302868e-38
0.0364250654493 -0.152705082076 0.757 1.32671883772e-38
0.0380758711794 -0.153713702169 0.762 1.73283853436e-38
0.0394860886305 -0.153713702169 0.762 1.6865316457e-38
0.0410036454676 -0.154117150206 0.764 1.73226988745e-38
0.042528605021 -0.154520598243 0.766 1.72301333018e-38
0.0440035962396 -0.154722322262 0.767 1.74134455617e-38
0.0455415105465 -0.155125770299 0.769 1.75985598914e-38
0.0472089723882 -0.155932666373 0.773 1.86137768068e-38
0.0487024703975 -0.156134390392 0.774 1.82442670134e-38
0.0503939910671 -0.156941286466 0.778 1.80570044931e-38
0.0520336927229 -0.157546458522 0.781 1.75888138606e-38
0.0536160233274 -0.157949906559 0.783 1.59245533317e-38
0.0552057566483 -0.158353354596 0.785 1.5913728301e-38
-0.0144908171155 -0.156500824848 0.783 1.35310346611e-38
-0.0129917670691 -0.155901204829 0.78 1.00270177861e-38
-0.0114890156645 -0.155101711471 0.776 1.26192377763e-38
-0.010014024446 -0.154502091452 0.773 1.24402639365e-38
-0.0085612413763 -0.154102344773 0.771 1.34544088585e-38
-0.00711586102289 -0.153702598094 0.769 1.05935123085e-38
-0.00567788338575 -0.153302851415 0.767 9.38372229883e-39
-0.0042528605021 -0.153102978076 0.766 1.30767407055e-38
-0.00283524033474 -0.153102978076 0.766 1.45600795897e-38
-0.00141391880923 -0.152703231397 0.764 1.53898164364e-38
0.0 -0.152303484718 0.762 1.1330333258e-38
0.00141021745109 -0.152303484718 0.762 8.91348717186e-39
0.00281673354404 -0.152103611378 0.761 1.46335370565e-38
0.00421399624164 -0.151703864699 0.759 1.17822071711e-38
0.00560385622296 -0.15130411802 0.757 1.03982862091e-38
0.0070048202787 -0.15130411802 0.757 8.26527873213e-39
0.00840578433445 -0.15130411802 0.757 1.42543849284e-38
0.00980674839019 -0.15130411802 0.757 1.03108297706e-38
0.0111781015808 -0.150904371341 0.755 1.3538757217e-38
0.0125753642784 -0.150904371341 0.755 1.1694860034e-38
0.013972626976 -0.150904371341 0.755 1.6399316054e-38
0.0153698896736 -0.150904371341 0.755 1.54762681438e-38
0.0167671523712 -0.150904371341 0.755 1.7873339106e-38
0.0181644150688 -0.150904371341 0.755 1.53829809025e-38
0.0195616777664 -0.150904371341 0.755 1.75949697648e-38
0.020958940464 -0.150904371341 0.755 1.67669845412e-38
0.0223562031616 -0.150904371341 0.755 1.5753904606e-38
0.0237534658592 -0.150904371341 0.755 7.73363029866e-39
0.0251507285568 -0.150904371341 0.755 1.7509976809e-38
0.0265479912544 -0.150904371341 0.755 1.68653108518e-38
0.0280192811148 -0.15130411802 0.757 1.65894498348e-38
0.0294202451706 -0.15130411802 0.757 1.82478949751e-38
0.0308212092263 -0.15130411802 0.757 1.31775052754e-38
0.0323073045192 -0.151703864699 0.759 6.43865535531e-39
0.0337119699331 -0.151703864699 0.759 3.6853897378e-39
0.035116635347 -0.151703864699 0.759 1.65959840896e-39
0.0366175360725 -0.152103611378 0.761 1.3727088928e-38
0.0380758711794 -0.152303484718 0.762 1.78783921883e-38
0.0394860886305 -0.152303484718 0.762 1.80620645819e-38
0.0411109848537 -0.153102978076 0.766 1.73230491991e-38
0.042528605021 -0.153102978076 0.766 1.76914645783e-38
0.0441183383419 -0.153702598094 0.769 1.79662564046e-38
0.0457783974674 -0.154502091452 0.773 1.84268786241e-38
0.0472700447975 -0.154701964792 0.774 1.83350291149e-38
0.0487024703975 -0.154701964792 0.774 1.8242114619e-38
0.0503939910671 -0.15550145815 0.778 1.61158137565e-38
0.0520336927229 -0.156101078169 0.781 1.62896798634e-38
0.0536160233274 -0.156500824848 0.783 1.55492828003e-38
-0.0129917670691 -0.154457675155 0.78 1.01170105748e-38
-0.0114890156645 -0.153665584513 0.776 1.19669963996e-38
-0.010014024446 -0.153071516532 0.773 1.26171344274e-38
-0.0085612413763 -0.152675471211 0.771 1.34512012863e-38
-0.00711586102289 -0.15227942589 0.769 1.34537026041e-38
-0.00569268881831 -0.15227942589 0.769 1.48348447913e-38
-0.00425841253931 -0.151883380569 0.767 5.98084133793e-39
-0.00283524033474 -0.151685357908 0.766 1.28971713138e-38
-0.00141762016737 -0.151685357908 0.766 1.03137010312e-38
0.0 -0.151289312587 0.764 1.65812270154e-38
0.00141021745109 -0.150893267267 0.762 1.68606417253e-38
0.00281673354404 -0.150695244606 0.761 1.63074735513e-38
0.00422510031606 -0.150695244606 0.761 1.64932843264e-38
0.00561866165552 -0.150299199285 0.759 1.57568151029e-38
0.0070233270694 -0.150299199285 0.759 1.67651516428e-38
0.00840578433445 -0.149903153964 0.757 1.38169373829e-38
0.00980674839019 -0.149903153964 0.757 7.45596721185e-39
0.0112077124459 -0.149903153964 0.757 7.63220431581e-39
0.0126086765017 -0.149903153964 0.757 9.10838116358e-39
0.0140096405574 -0.149903153964 0.757 9.00822195454e-39
0.0154106046132 -0.149903153964 0.757 1.41679374248e-38
0.0168115686689 -0.149903153964 0.757 1.32430047683e-38
0.0182125327246 -0.149903153964 0.757 1.23985094461e-38
0.0196134967804 -0.149903153964 0.757 1.64652093117e-38
0.0210144608361 -0.149903153964 0.757 1.6467337884e-38
0.0224154248919 -0.149903153964 0.757 1.13098098406e-38
0.0238163889476 -0.149903153964 0.757 1.45510720432e-38
0.0252173530033 -0.149903153964 0.757 1.73252212117e-38
0.0266183170591 -0.149903153964 0.757 1.6128492705e-38
0.0280192811148 -0.149903153964 0.757 1.64057872503e-38
0.0294979736915 -0.150299199285 0.759 1.79723842828e-38
0.0309026391054 -0.150299199285 0.759 8.38656531811e-39
0.0323924357565 -0.150695244606 0.761 1.00893489431e-43
0.0338008025285 -0.150695244606 0.761 5.24948264992e-39
0.0352091693005 -0.150695244606 0.761 6.71631844212e-39
0.0366656537283 -0.150893267267 0.762 4.04147929577e-39
0.0380758711794 -0.150893267267 0.762 1.83389821779e-38
0.0396933646863 -0.151685357908 0.766 1.7506013937e-38
0.0411646545467 -0.151883380569 0.767 1.82453614275e-38
0.0425841253931 -0.151883380569 0.767 1.71379348693e-38
0.0441183383419 -0.15227942589 0.769 1.79662564046e-38
0.0457783974674 -0.153071516532 0.773 1.84268786241e-38
0.0472700447975 -0.153269539192 0.774 1.6396785309e-38
0.0487024703975 -0.153269539192 0.774 1.4729322813e-38
0.0503939910671 -0.154061629834 0.778 1.59180695237e-38
0.0520336927229 -0.154655697815 0.781 1.69286439372e-38
-0.0114890156645 -0.152229457555 0.776 1.03024359928e-38
-0.010014024446 -0.151640941611 0.773 1.16882613195e-38
-0.00858344952513 -0.151640941611 0.773 1.32631470324e-38
-0.00713436781358 -0.151248597648 0.771 1.30842012185e-38
-0.00569268881831 -0.150856253685 0.769 1.31771409378e-38
-0.00426951661373 -0.150856253685 0.769 1.42852807569e-38
-0.00283894169288 -0.150463909722 0.767 1.51135994896e-38
-0.00141762016737 -0.150267737741 0.766 8.84177011775e-39
0.0 -0.149875393778 0.764 1.1041838134e-38
0.00141021745109 -0.149483049815 0.762 6.89734798683e-39
0.00282043490218 -0.149483049815 0.762 1.72258299142e-38
0.00422510031606 -0.149286877834 0.761 1.54801931808e-38
0.00563346708808 -0.149286877834 0.761 1.59437118843e-38
0.0070233270694 -0.148894533871 0.759 1.54827519518e-38
0.00842799248328 -0.148894533871 0.759 1.64043509194e-38
0.00983265789716 -0.148894533871 0.759 1.62217449139e-38
0.0112077124459 -0.148502189909 0.757 1.64990520709e-38
0.0126086765017 -0.148502189909 0.757 1.71426264166e-38
0.0140466541388 -0.148894533871 0.759 1.74166923702e-38
0.0154513195527 -0.148894533871 0.759 1.69546380237e-38
0.0168559849666 -0.148894533871 0.759 1.80588023591e-38
0.0182125327246 -0.148502189909 0.757 1.64885997856e-38
0.0196134967804 -0.148502189909 0.757 1.8056313653e-38
0.0210144608361 -0.148502189909 0.757 1.77822406928e-38
0.0224154248919 -0.148502189909 0.757 1.79662718189e-38
0.023879312036 -0.148894533871 0.759 1.70475441119e-38
0.0252839774498 -0.148894533871 0.759 1.61288304179e-38
0.0266886428637 -0.148894533871 0.759 1.6220670118e-38
0.0280933082776 -0.148894533871 0.759 1.67727620947e-38
0.0294979736915 -0.148894533871 0.759 1.83393773441e-38
0.0309840689844 -0.149286877834 0.761 1.41923690636e-38
0.0324350013751 -0.149483049815 0.762 8.68805047881e-44
0.0338452188261 -0.149483049815 0.762 1.65845452902e-38
0.0352554362772 -0.149483049815 0.762 3.21711222478e-39
0.0367618890399 -0.149875393778 0.764 1.81527734341e-38
0.0381758078492 -0.149875393778 0.764 1.82478977777e-38
0.0397451837003 -0.150463909722 0.767 1.75077991912e-38
0.0412719939327 -0.150856253685 0.769 1.7507793586e-38
0.0426951661373 -0.150856253685 0.769 1.82446383575e-38
0.0443478225465 -0.151640941611 0.773 1.87027396411e-38
0.0457783974674 -0.151640941611 0.773 1.55641225511e-38
0.0472700447975 -0.151837113592 0.774 1.5465761208e-38
0.0488283165742 -0.152229457555 0.776 1.57361557596e-38
0.050523538602 -0.15301414548 0.78 1.61017475225e-38
0.0520336927229 -0.153210317462 0.781 1.8125354227e-38
0.0536160233274 -0.153602661425 0.783 1.60044876e-38
-0.0114890156645 -0.150793330597 0.776 9.74855315661e-39
-0.0100269791995 -0.150404687992 0.774 1.28821507955e-38
-0.00858344952513 -0.15021036669 0.773 1.23368284916e-38
-0.00715287460428 -0.15021036669 0.773 1.24320327093e-38
-0.00570749425087 -0.149821724085 0.771 1.40944295113e-38
-0.00426951661373 -0.149433081481 0.769 1.41902152678e-38
-0.00284634440915 -0.149433081481 0.769 1.41927221908e-38
-0.00141947084644 -0.149044438876 0.767 1.46544164036e-38
0.0 -0.148850117574 0.766 1.58500827261e-38
0.00141391880923 -0.148461474969 0.764 1.38210445887e-38
0.00282783761846 -0.148461474969 0.764 1.44624469218e-38
0.00423065235327 -0.148072832364 0.762 1.28917959329e-38
0.00564086980436 -0.148072832364 0.762 1.01293293896e-38
0.0070418338601 -0.147878511062 0.761 1.43664005237e-38
0.00845020063212 -0.147878511062 0.761 1.63989531177e-38
0.00985856740414 -0.147878511062 0.761 1.67713257638e-38
0.0112669341762 -0.147878511062 0.761 1.67727620947e-38
0.0126753009482 -0.147878511062 0.761 1.67734963751e-38
0.0140836677202 -0.147878511062 0.761 1.71426264166e-38
0.0154920344922 -0.147878511062 0.761 1.61291961568e-38
0.0169004012642 -0.147878511062 0.761 1.72344689192e-38
0.0182606503804 -0.147489868457 0.759 1.64057844477e-38
0.0196653157943 -0.147489868457 0.759 1.69600302202e-38
0.0210699812082 -0.147489868457 0.759 1.72348346581e-38
0.0224746466221 -0.147489868457 0.759 1.72337500531e-38
0.023879312036 -0.147489868457 0.759 1.69575120869e-38
0.0252839774498 -0.147489868457 0.759 1.70489916532e-38
0.0266886428637 -0.147489868457 0.759 1.79684186081e-38
0.0281673354404 -0.147878511062 0.761 1.47415323265e-38
0.0295757022124 -0.147878511062 0.761 1.74159090444e-38
0.031024783924 -0.148072832364 0.762 1.87088703219e-38
0.0324350013751 -0.148072832364 0.762 2.66246708222e-44
0.0339340514215 -0.148461474969 0.764 4.42544488408e-39
0.0353479702307 -0.148461474969 0.764 1.97230306581e-38
0.0368581243516 -0.148850117574 0.766 1.88910965755e-38
0.0382757445189 -0.148850117574 0.766 1.82446383575e-38
0.0397451837003 -0.149044438876 0.767 1.79680710861e-38
0.0413793333188 -0.149821724085 0.771 1.82446383575e-38
0.0428062068815 -0.149821724085 0.771 1.66747566814e-38
0.0443478225465 -0.15021036669 0.773 1.48247148047e-38
0.0458376191976 -0.150404687992 0.774 1.41695713388e-38
0.0473921896161 -0.150793330597 0.776 1.56411098887e-38
0.0488283165742 -0.150793330597 0.776 1.82286383316e-38
0.0505883123695 -0.151764937108 0.781 1.66545555628e-38
0.0521669416159 -0.152153579713 0.783 1.69253634975e-38
0.0536160233274 -0.152153579713 0.783 1.61874411275e-38
-0.0146018578597 -0.151859321741 0.789 1.90591500964e-38
-0.0131416720737 -0.151859321741 0.789 1.251554169e-38
-0.0115630428273 -0.150319556755 0.781 9.01279299013e-39
-0.0100528887065 -0.149357203639 0.776 1.02077404465e-38
-0.00859455359955 -0.148972262392 0.774 1.19659005842e-38
-0.00716212799963 -0.148972262392 0.774 1.16903870893e-38
-0.00572229968342 -0.148779791769 0.773 1.18759372228e-38
-0.00428062068815 -0.148394850523 0.771 1.33568098217e-38
-0.00285374712543 -0.148394850523 0.771 1.37288923991e-38
-0.00142317220458 -0.148009909276 0.769 1.44678797559e-38
0.0 -0.14762496803 0.767 1.47455372375e-38
0.00141762016737 -0.147432497406 0.766 1.51139498142e-38
0.00283524033474 -0.147432497406 0.766 1.55745776389e-38
0.00424175642769 -0.14704755616 0.764 1.59433769739e-38
0.00565567523691 -0.14704755616 0.764 1.05924136905e-38
0.00705108725545 -0.146662614913 0.762 1.39064369145e-38
0.00846130470654 -0.146662614913 0.762 7.81938135688e-39
0.00987152215763 -0.146662614913 0.762 1.15074377657e-38
0.0112817396087 -0.146662614913 0.762 8.46539676452e-39
0.0126919570598 -0.146662614913 0.762 9.10975723867e-39
0.0141021745109 -0.146662614913 0.762 1.455929206e-38
0.015512391962 -0.146662614913 0.762 1.12356026792e-38
0.0169004012642 -0.14647014429 0.761 1.20609912967e-38
0.0183087680363 -0.14647014429 0.761 1.27996829796e-38
0.0197171348083 -0.14647014429 0.761 1.12316370045e-38
0.0211255015803 -0.14647014429 0.761 1.29815911384e-38
0.0225338683523 -0.14647014429 0.761 1.104797442e-38
0.0239422351243 -0.14647014429 0.761 1.34490909308e-38
0.0253506018964 -0.14647014429 0.761 1.1048242068e-38
0.0267589686684 -0.14647014429 0.761 1.18763057643e-38
0.0282043490218 -0.146662614913 0.762 1.64886628441e-38
0.0296145664729 -0.146662614913 0.762 1.65883806441e-38
0.031024783924 -0.146662614913 0.762 1.87095737737e-38
0.0326052638495 -0.147432497406 0.766 9.4900542276e-39
0.0340673003145 -0.14762496803 0.767 7.91366352016e-39
0.0354867711609 -0.14762496803 0.767 1.87081374428e-38
0.0369062420074 -0.14762496803 0.767 1.88907336392e-38
0.0383257128538 -0.14762496803 0.767 1.83364808602e-38
0.0398488217282 -0.148009909276 0.769 1.68598836228e-38
0.0414866727048 -0.148779791769 0.773 1.51938826812e-38
0.0429172476257 -0.148779791769 0.773 1.56487231433e-38
0.0444051935977 -0.148972262392 0.774 1.43554703957e-38
0.0458376191976 -0.148972262392 0.774 1.43467851478e-38
0.0473921896161 -0.149357203639 0.776 1.92352849056e-38
0.0489541627509 -0.149742144885 0.778 1.86025201762e-38
0.0508474074392 -0.151089439248 0.785 1.58233305371e-38
0.0523001905089 -0.151089439248 0.785 1.75692783587e-38
0.0540268740809 -0.151859321741 0.789 1.60948881665e-38
0.0554870598669 -0.151859321741 0.789 1.83100733906e-38
-0.0146018578597 -0.150399135955 0.789 1.79474047363e-38
-0.0131416720737 -0.150399135955 0.789 1.13148320943e-38
-0.0116222645575 -0.149636656178 0.785 9.47519906258e-39
-0.0101047077204 -0.148683556457 0.78 1.02077432491e-38
-0.00861676174839 -0.147921076681 0.776 1.11296925412e-38
-0.00716212799963 -0.147539836792 0.774 1.10360577778e-38
-0.0057297023997 -0.147539836792 0.774 1.25101060532e-38
-0.00429172476257 -0.147349216848 0.773 1.14110060105e-38
-0.00285374712543 -0.14696797696 0.771 1.47361415313e-38
-0.00142687356272 -0.14696797696 0.771 1.35426360111e-38
0.0 -0.146205497183 0.767 1.52043321639e-38
0.00141762016737 -0.146014877239 0.766 1.46522485949e-38
0.00283524033474 -0.146014877239 0.766 1.5022104509e-38
0.00424175642769 -0.145633637351 0.764 1.41937913815e-38
0.00565567523691 -0.145633637351 0.764 1.6220670118e-38
0.00706959404614 -0.145633637351 0.764 1.6221379175e-38
0.00848351285537 -0.145633637351 0.764 1.59444517699e-38
0.0098974316646 -0.145633637351 0.764 1.6680947618e-38
0.0113113504738 -0.145633637351 0.764 1.69575120869e-38
0.0127252692831 -0.145633637351 0.764 1.64954787598e-38
0.0141391880923 -0.145633637351 0.764 1.6679849e-38
0.015512391962 -0.145252397462 0.762 1.66755330008e-38
0.0169226094131 -0.145252397462 0.762 1.73208996072e-38
0.0183328268642 -0.145252397462 0.762 1.74130826254e-38
0.0197430443153 -0.145252397462 0.762 1.30773895067e-38
0.0211532617663 -0.145252397462 0.762 1.79644991763e-38
0.0225634792174 -0.145252397462 0.762 1.79684186081e-38
0.0239736966685 -0.145252397462 0.762 1.58504358533e-38
0.0253839141196 -0.145252397462 0.762 1.85237587947e-38
0.0267941315707 -0.145252397462 0.762 1.75103327388e-38
0.0282783761846 -0.145633637351 0.764 1.70489916532e-38
0.0296922949938 -0.145633637351 0.764 1.67727648973e-38
0.031106213803 -0.145633637351 0.764 1.72337528557e-38
0.0326478294681 -0.146205497183 0.767 1.5480240825e-38
0.0340673003145 -0.146205497183 0.767 1.71421555803e-38
0.0354867711609 -0.146205497183 0.767 1.78790956401e-38
0.0369062420074 -0.146205497183 0.767 1.732054648e-38
0.0384256495236 -0.146586737071 0.769 1.52878957952e-38
0.0399524597561 -0.14696797696 0.771 1.45445433936e-38
0.0414866727048 -0.147349216848 0.773 1.56479496265e-38
0.0429727679978 -0.147539836792 0.774 1.45355036172e-38
0.0444051935977 -0.147539836792 0.774 1.48063241636e-38
0.0459560626581 -0.147921076681 0.776 1.40684088001e-38
0.0475143344347 -0.148302316569 0.778 1.87728620175e-38
