# .PCD v0.7 - Point Cloud Data file format
VERSION 0.7
FIELDS x y z rgb
SIZE 4 4 4 4
TYPE F F F F
COUNT 1 1 1 1
WIDTH 843
HEIGHT 1
VIEWPOINT 0 0 0 1 0 0 0
POINTS 843
DATA ascii
0.0562976572994 -0.0437870667884 0.845 2.32745781757e-38
0.0581353816156 -0.0439943428442 0.849 2.34629070841e-38
0.059847259755 -0.0440979808721 0.851 2.34639692684e-38
0.0614221876433 -0.0440979808721 0.851 2.34661216628e-38
0.06321919702 -0.044253437914 0.854 2.34716035424e-38
0.0647996769455 -0.044253437914 0.854 2.34759013248e-38
0.00629971155316 -0.0425230529838 0.851 2.11853472628e-38
0.00785613265075 -0.0424231163141 0.849 1.0940979677e-38
0.0094273591809 -0.0424231163141 0.849 2.03570859834e-38
0.0109726762041 -0.0423231796443 0.847 2.18227839212e-38
0.012510590511 -0.0422232429745 0.845 1.99843209737e-38
0.0140411021016 -0.0421233063048 0.843 6.88766221185e-39
0.0156012245573 -0.0421233063048 0.843 7.99148603167e-39
0.0171613470131 -0.0421233063048 0.843 1.30629561325e-38
0.0186770531711 -0.042023369635 0.841 7.16316870032e-39
0.0201853566129 -0.0419234329653 0.839 1.21230029577e-38
0.0217380763524 -0.0419234329653 0.839 4.95911679253e-39
0.0232352757197 -0.0418234962955 0.837 2.34731870097e-38
0.024784294101 -0.0418234962955 0.837 1.83273331838e-38
0.026270389394 -0.0417235596257 0.835 7.07133320417e-39
0.0277490819706 -0.041623622956 0.833 1.99663983663e-38
0.0292906976357 -0.041623622956 0.833 1.9224469684e-38
0.0308323133007 -0.041623622956 0.833 2.05119602923e-38
0.0322962004448 -0.0415236862862 0.831 2.05144714191e-38
0.0338341147517 -0.0415236862862 0.831 2.03290067648e-38
0.0353720290586 -0.0415236862862 0.831 2.1158037357e-38
0.0369987759609 -0.041623622956 0.833 1.97787112526e-38
0.0385403916259 -0.041623622956 0.833 1.87667271328e-38
0.0401782426026 -0.0417235596257 0.835 2.04237121202e-38
0.0418234962955 -0.0418234962955 0.837 2.06037957884e-38
0.0433725146768 -0.0418234962955 0.837 2.06030783236e-38
0.0449215330581 -0.0418234962955 0.837 2.13388384901e-38
0.0465815921836 -0.0419234329653 0.839 2.09729314351e-38
0.0482490540254 -0.042023369635 0.841 2.09722139703e-38
0.049805475123 -0.042023369635 0.841 2.12477204587e-38
0.0514840410392 -0.0421233063048 0.843 2.24480390921e-38
0.0530441634949 -0.0421233063048 0.843 2.19859917521e-38
0.0547338334855 -0.0422232429745 0.845 2.29986933367e-38
0.0565641550854 -0.0424231163141 0.849 2.30919637624e-38
0.0582723318667 -0.0425230529838 0.851 2.30015631959e-38
0.060058237169 -0.0426729579885 0.854 2.34639762749e-38
0.0616387170945 -0.0426729579885 0.854 2.34632658165e-38
0.0635153056711 -0.042872831328 0.858 2.34726405033e-38
0.0651031883129 -0.042872831328 0.858 2.34773362544e-38
0.00787463944145 -0.0409481250955 0.851 1.22302639473e-38
0.00944956732974 -0.0409481250955 0.851 2.09083848252e-38
0.0109985857111 -0.0408518897839 0.849 1.13061692672e-38
0.012510590511 -0.0406594191607 0.845 2.34870122203e-38
0.0140744143248 -0.0406594191607 0.845 4.31626831943e-39
0.0156382381387 -0.0406594191607 0.845 2.09997046435e-38
0.0172020619526 -0.0406594191607 0.845 2.06271540325e-38
0.0187214694688 -0.040563183849 0.843 1.88804453058e-38
0.0202334742687 -0.0404669485374 0.841 2.22935052988e-38
0.0217380763524 -0.0403707132258 0.839 2.02038091548e-39
0.0232907960918 -0.0403707132258 0.839 2.34874858592e-38
0.0248435158313 -0.0403707132258 0.839 2.0719352465e-38
0.0263333124823 -0.0402744779142 0.837 6.79582671569e-39
0.0278157064172 -0.0401782426026 0.835 1.73035403218e-38
0.0293610234403 -0.0401782426026 0.835 1.77572541399e-38
0.0309063404635 -0.0401782426026 0.835 1.79387727378e-38
0.0324516574867 -0.0401782426026 0.835 1.96893868833e-38
0.0339155446308 -0.0400820072909 0.833 1.90422336213e-38
0.0354571602958 -0.0400820072909 0.833 1.28569694621e-38
0.0370876085562 -0.0401782426026 0.835 1.66390852277e-38
0.0387254595329 -0.0402744779142 0.837 1.19396906978e-38
0.0403707132258 -0.0403707132258 0.839 1.67191021726e-38
0.042023369635 -0.0404669485374 0.841 2.11623925927e-38
0.0435797907326 -0.0404669485374 0.841 2.06041545208e-38
0.0451362118302 -0.0404669485374 0.841 2.10622558044e-38
0.046803673672 -0.040563183849 0.843 2.1154450033e-38
0.0483637961277 -0.040563183849 0.843 2.13388384901e-38
0.0499239185834 -0.040563183849 0.843 2.13399146873e-38
0.0516061858578 -0.0406594191607 0.845 2.2078544713e-38
0.0532958558484 -0.0407556544723 0.847 2.23544099339e-38
0.0548633810204 -0.0407556544723 0.847 2.27235455806e-38
0.0566974039784 -0.0409481250955 0.851 2.33682731949e-38
0.0584777572435 -0.041092478063 0.854 2.19852742873e-38
0.060058237169 -0.041092478063 0.854 2.34679531599e-38
0.0617830700619 -0.0411887133746 0.856 2.34711719425e-38
0.00957171214834 -0.0398821339514 0.862 2.0629024766e-38
0.0109985857111 -0.0392806632538 0.849 7.4386751888e-39
0.0125402013761 -0.0391881293003 0.847 2.33051040615e-38
0.0140744143248 -0.0390955953468 0.845 4.49993931174e-39
0.0156382381387 -0.0390955953468 0.845 2.34945988502e-38
0.0172427768921 -0.0391881293003 0.847 6.79762037773e-39
0.0187658857665 -0.0390955953468 0.845 1.5731960272e-38
0.0202815919245 -0.0390030613933 0.843 2.3214004247e-38
0.0217898953663 -0.0389105274398 0.841 4.40810381558e-39
0.0233463164639 -0.0389105274398 0.841 2.29350365513e-38
0.0249027375615 -0.0389105274398 0.841 1.93356767301e-38
0.0264591586591 -0.0389105274398 0.841 5.32645877716e-39
0.0278823308637 -0.0387254595329 0.837 1.39823746796e-38
0.029431349245 -0.0387254595329 0.837 1.86749687081e-38
0.0309803676263 -0.0387254595329 0.837 1.90529955935e-38
0.0325293860076 -0.0387254595329 0.837 1.2223806764e-38
0.0340784043889 -0.0387254595329 0.837 1.2765133966e-38
0.0356274227702 -0.0387254595329 0.837 2.34909736911e-38
0.0372652737469 -0.0388179934863 0.839 1.94329268436e-38
0.0388179934863 -0.0388179934863 0.839 1.10468057371e-38
0.0404669485374 -0.0389105274398 0.841 1.6362169033e-38
0.0421233063048 -0.0390030613933 0.843 2.04276637818e-38
0.0436834287605 -0.0390030613933 0.843 2.08796610093e-38
0.0452435512162 -0.0390030613933 0.843 2.17094090664e-38
0.0469147144162 -0.0390955953468 0.845 2.10654843961e-38
0.04847853823 -0.0390955953468 0.845 2.27239407468e-38
0.0501608055044 -0.0391881293003 0.847 2.07899779076e-38
0.0517283306764 -0.0391881293003 0.847 2.20796209103e-38
0.0534217020251 -0.0392806632538 0.849 2.2171097674e-38
0.0549929285553 -0.0392806632538 0.849 2.25380809262e-38
0.0566974039784 -0.0393731972073 0.851 2.18012445625e-38
0.0584777572435 -0.0395119981375 0.854 2.34618322882e-38
0.060058237169 -0.0395119981375 0.854 2.34640057021e-38
0.0616387170945 -0.0395119981375 0.854 2.34740137758e-38
0.00797642679028 -0.0382868485934 0.862 1.1582761762e-38
0.00957171214834 -0.0382868485934 0.862 1.84126820693e-38
0.0111410879994 -0.038198015998 0.86 8.08439352116e-39
0.0127326719993 -0.038198015998 0.86 2.2659751468e-38
0.0143242559993 -0.038198015998 0.86 6.15297824259e-39
0.0157492788829 -0.037798269319 0.851 2.34884275318e-38
0.0172834918317 -0.0377094367236 0.849 5.23462328101e-39
0.0188103020641 -0.0376206041283 0.847 1.84992669002e-38
0.0203297095803 -0.0375317715329 0.845 2.29341929696e-38
0.0218935333942 -0.0375317715329 0.845 4.5917748079e-39
0.023401836836 -0.0374429389376 0.843 2.34917416026e-38
0.0249619592917 -0.0374429389376 0.843 1.54628016656e-38
0.0265220817475 -0.0374429389376 0.843 1.69236272887e-38
0.0280155797567 -0.0373541063422 0.841 2.34941868685e-38
0.0295720008543 -0.0373541063422 0.841 1.21359173243e-38
0.0311284219519 -0.0373541063422 0.841 2.34859234114e-38
0.0326848430495 -0.0373541063422 0.841 2.28369947043e-38
0.0342412641471 -0.0373541063422 0.841 1.60927469824e-38
0.0357976852446 -0.0373541063422 0.841 2.34974154601e-38
0.0373541063422 -0.0373541063422 0.841 6.61502558263e-39
0.0390030613933 -0.0374429389376 0.843 7.43977380679e-39
0.0406594191607 -0.0375317715329 0.845 2.01536734983e-38
0.0422232429745 -0.0375317715329 0.845 2.10679955229e-38
0.0438907048163 -0.0376206041283 0.847 2.08807372065e-38
0.0454582299883 -0.0376206041283 0.847 2.14324676483e-38
0.0471367959045 -0.0377094367236 0.849 2.11566024274e-38
0.0487080224347 -0.0377094367236 0.849 2.2078544713e-38
0.0502792489648 -0.0377094367236 0.849 2.14360549723e-38
0.051850475495 -0.0377094367236 0.849 2.18963086504e-38
0.0535475482019 -0.037798269319 0.851 2.18005270977e-38
0.0551224760902 -0.037798269319 0.851 2.28125112175e-38
0.056897277318 -0.037931518212 0.854 2.30012058648e-38
0.0584777572435 -0.037931518212 0.854 2.34679167261e-38
0.060058237169 -0.037931518212 0.854 2.34683217014e-38
0.00323128565565 -0.0371597850399 0.873 1.8592067891e-38
0.00483582440905 -0.0370746538027 0.871 2.14454815071e-38
0.00644776587873 -0.0370746538027 0.871 1.7853394425e-38
0.00804120055772 -0.0369895225655 0.869 1.77537102561e-38
0.00959392029717 -0.0367766944725 0.864 1.33255090179e-38
0.0111410879994 -0.0366064319981 0.86 1.18575662e-38
0.0127326719993 -0.0366064319981 0.86 1.73956532751e-38
0.0143242559993 -0.0366064319981 0.86 1.31611745431e-38
0.0158418128364 -0.0364361695237 0.856 1.75933260417e-38
0.0173852791805 -0.0363510382865 0.854 1.48228230518e-38
0.0188991346595 -0.0362233414307 0.851 2.08976298595e-38
0.020425944892 -0.0361382101935 0.849 2.22848382678e-38
0.0219453524082 -0.0360530789563 0.847 6.06114274643e-39
0.0234573572081 -0.0359679477191 0.845 2.32166204712e-38
0.025021181022 -0.0359679477191 0.845 1.10360437649e-38
0.0265220817475 -0.0358828164819 0.843 2.34666177225e-38
0.0280822042032 -0.0358828164819 0.843 2.31164136181e-38
0.0296423266589 -0.0358828164819 0.843 1.41674189444e-38
0.0312024491147 -0.0358828164819 0.843 2.20994731056e-38
0.0327625715704 -0.0358828164819 0.843 1.86960568487e-38
0.0343226940261 -0.0358828164819 0.843 7.71418167727e-39
0.0358828164819 -0.0358828164819 0.843 2.0538589167e-38
0.0374429389376 -0.0358828164819 0.843 2.34899577497e-38
0.0390955953468 -0.0359679477191 0.845 7.16352743273e-39
0.0407556544723 -0.0360530789563 0.847 2.13414393e-38
0.0423231796443 -0.0360530789563 0.847 2.16251069508e-38
0.0439943428442 -0.0361382101935 0.849 2.06974249466e-38
0.0455655693744 -0.0361382101935 0.849 2.16175735702e-38
0.0471367959045 -0.0361382101935 0.849 2.2078544713e-38
0.048822764537 -0.0362233414307 0.851 2.19852742873e-38
0.0503976924253 -0.0362233414307 0.851 2.24480390921e-38
0.0519726203136 -0.0362233414307 0.851 2.32774284168e-38
0.0535475482019 -0.0362233414307 0.851 2.198419809e-38
0.0551224760902 -0.0362233414307 0.851 2.34607406767e-38
0.056897277318 -0.0363510382865 0.854 2.31881040475e-38
0.0584777572435 -0.0363510382865 0.854 2.34675607963e-38
0.060058237169 -0.0363510382865 0.854 2.3465404198e-38
0.00323128565565 -0.0355441422121 0.873 1.87811338824e-38
0.00483582440905 -0.035462712333 0.871 2.13536628265e-38
0.00644776587873 -0.035462712333 0.871 1.93354343055e-38
0.00804120055772 -0.035381282454 0.869 1.78519594953e-38
0.00964944066926 -0.035381282454 0.869 2.00603260011e-38
0.0111669975064 -0.0350962778772 0.862 1.75714307532e-38
0.0127622828645 -0.0350962778772 0.862 1.6279635356e-38
0.0143242559993 -0.0350148479982 0.86 6.97949770801e-39
0.0159158399992 -0.0350148479982 0.86 1.48132816105e-38
0.01742599412 -0.03485198824 0.856 1.05729202276e-38
0.0188991346595 -0.0346484135424 0.851 2.11678086112e-38
0.0204740625478 -0.0346484135424 0.851 2.3300434935e-38
0.0220489904361 -0.0346484135424 0.851 5.78563625795e-39
0.0235683979523 -0.0345669836633 0.849 2.29388410767e-38
0.0251396244824 -0.0345669836633 0.849 1.71187104557e-38
0.0265850048358 -0.0344041239052 0.845 2.02443641336e-38
0.0280822042032 -0.0343226940261 0.843 2.34847967674e-38
0.0296423266589 -0.0343226940261 0.843 1.05729202276e-38
0.0312024491147 -0.0343226940261 0.843 1.20304499967e-38
0.0327625715704 -0.0343226940261 0.843 1.52769908905e-38
0.0343226940261 -0.0343226940261 0.843 1.05672085351e-38
0.0358828164819 -0.0343226940261 0.843 1.0469246562e-38
0.0375317715329 -0.0344041239052 0.845 2.34956007786e-38
0.0390955953468 -0.0344041239052 0.845 1.02084481022e-38
0.0408518897839 -0.0345669836633 0.849 1.34162627117e-38
0.0424231163141 -0.0345669836633 0.849 2.28272921137e-38
0.0440979808721 -0.0346484135424 0.851 2.12520252476e-38
0.0456729087604 -0.0346484135424 0.851 2.10662018609e-38
0.0472478366487 -0.0346484135424 0.851 2.18923625939e-38
0.048822764537 -0.0346484135424 0.851 2.24440930356e-38
0.050575357616 -0.034770558361 0.854 2.29057928537e-38
0.0521558375415 -0.034770558361 0.854 2.18916451291e-38
0.053736317467 -0.034770558361 0.854 2.34607406767e-38
0.0553167973925 -0.034770558361 0.854 2.30019219283e-38
0.057163775104 -0.0349334181191 0.858 2.34661216628e-38
0.0587516577458 -0.0349334181191 0.858 2.34650482682e-38
0.0613944274573 -0.0355441422121 0.873 2.3468700052e-38
0.0631544232525 -0.0356255720912 0.875 2.34725942604e-38
0.0647737674385 -0.0356255720912 0.875 2.34762306299e-38
0.0663931116244 -0.0356255720912 0.875 2.34776949868e-38
0.00323128565565 -0.0339284993843 0.873 2.10888860804e-38
0.00484692848347 -0.0339284993843 0.873 1.97045349197e-38
0.00644776587873 -0.0338507708634 0.871 2.00751671531e-38
0.00805970734842 -0.0338507708634 0.871 1.9705996474e-38
0.0096716488181 -0.0338507708634 0.871 1.82164316207e-38
0.0111929070134 -0.0335787210401 0.864 1.90415161565e-38
0.0127918937296 -0.0335787210401 0.864 2.09783166251e-38
0.0143575682225 -0.0335009925192 0.862 1.3698914421e-38
0.0159528535806 -0.0335009925192 0.862 1.52705673384e-38
0.0175074239991 -0.0334232639983 0.86 1.70287512982e-38
0.0190545917013 -0.0333455354773 0.858 1.88818956497e-38
0.0205943566873 -0.0332678069564 0.856 2.22845271795e-38
0.022126718957 -0.0331900784355 0.854 6.24481373874e-39
0.0237071988825 -0.0331900784355 0.854 1.4340039297e-38
0.0251988462126 -0.0330734856541 0.851 1.6834277696e-38
0.0265850048358 -0.0328403000913 0.845 1.15752241776e-38
0.0281488286497 -0.0328403000913 0.845 1.79327737791e-38
0.0297126524636 -0.0328403000913 0.845 1.99839103932e-38
0.0312764762774 -0.0328403000913 0.845 1.98041854574e-38
0.0328403000913 -0.0328403000913 0.845 1.40881390825e-38
0.0344041239052 -0.0328403000913 0.845 1.85999165637e-38
0.0359679477191 -0.0328403000913 0.845 1.9156339954e-38
0.0375317715329 -0.0328403000913 0.845 1.60202718259e-38
0.0391881293003 -0.0329180286122 0.847 1.22342100038e-38
0.0409481250955 -0.0330734856541 0.851 1.56378630802e-38
0.0425230529838 -0.0330734856541 0.851 1.92316443321e-38
0.0440979808721 -0.0330734856541 0.851 2.11576786246e-38
0.0456729087604 -0.0330734856541 0.851 2.33696226454e-38
0.047414397765 -0.0331900784355 0.854 2.19867092169e-38
0.0489948776905 -0.0331900784355 0.854 2.2997258407e-38
0.050575357616 -0.0331900784355 0.854 2.17987334357e-38
0.0521558375415 -0.0331900784355 0.854 2.32738410927e-38
0.0538621636437 -0.0332678069564 0.856 2.26327862817e-38
0.0555758924622 -0.0333455354773 0.858 2.34650454656e-38
0.057297023997 -0.0334232639983 0.86 2.29086515025e-38
0.0597787846294 -0.0339284993843 0.873 2.34664803952e-38
0.0613944274573 -0.0339284993843 0.873 2.34654210136e-38
0.0631544232525 -0.0340062279052 0.875 2.34722859748e-38
0.0647737674385 -0.0340062279052 0.875 2.34762656624e-38
0.0663931116244 -0.0340062279052 0.875 2.34819941705e-38
0.00322388293937 -0.0322388293937 0.871 1.74875434219e-38
0.00483582440905 -0.0322388293937 0.871 1.81332785698e-38
0.00644776587873 -0.0322388293937 0.871 2.00675538986e-38
0.00805970734842 -0.0322388293937 0.871 1.80399661051e-38
0.0096716488181 -0.0322388293937 0.871 2.18128220904e-38
0.0111929070134 -0.0319797343239 0.864 1.72970004619e-38
0.0127918937296 -0.0319797343239 0.864 1.90397224945e-38
0.0143575682225 -0.0319057071611 0.862 1.99630997098e-38
0.0159528535806 -0.0319057071611 0.862 1.61860061978e-38
0.0175074239991 -0.0318316799983 0.86 1.2214120989e-38
0.019099007999 -0.0318316799983 0.86 1.46169386762e-38
0.0206424743431 -0.0317576528356 0.858 1.16631080121e-38
0.0221785379709 -0.0316836256728 0.856 9.82639808891e-39
0.0237627192546 -0.0316836256728 0.856 1.80306698911e-38
0.025287678808 -0.03160959851 0.854 1.60963230961e-38
0.0266479279242 -0.0313505034402 0.847 1.5546027584e-38
0.0282154530962 -0.0313505034402 0.847 1.59130108362e-38
0.0297126524636 -0.0312764762774 0.845 1.2863067913e-38
0.0312764762774 -0.0312764762774 0.845 1.32282575032e-38
0.0328403000913 -0.0312764762774 0.845 1.56249543187e-38
0.0344041239052 -0.0312764762774 0.845 1.68353188608e-38
0.0359679477191 -0.0312764762774 0.845 1.34187444113e-38
0.0376206041283 -0.0313505034402 0.847 1.58154370229e-38
0.0393731972073 -0.0314985577658 0.851 1.84908675172e-38
0.0409481250955 -0.0314985577658 0.851 1.95971954573e-38
0.0426729579885 -0.03160959851 0.854 2.02386061982e-38
0.044253437914 -0.03160959851 0.854 2.15268212778e-38
0.0458339178395 -0.03160959851 0.854 2.18963086504e-38
0.047414397765 -0.03160959851 0.854 2.22611395081e-38
0.0491096197928 -0.0316836256728 0.856 2.26324275492e-38
0.0506938010764 -0.0316836256728 0.856 2.24491152893e-38
0.0524001271787 -0.0317576528356 0.858 2.31870278503e-38
0.0539880098204 -0.0317576528356 0.858 2.31870278503e-38
0.0557054399971 -0.0318316799983 0.86 2.30944748893e-38
0.05743027289 -0.0319057071611 0.862 2.34625343387e-38
0.0599157348806 -0.0323868837192 0.875 2.34647049501e-38
0.0615350790666 -0.0323868837192 0.875 2.34682740572e-38
0.0633709527037 -0.0324979244634 0.878 2.34708944854e-38
0.0649958489268 -0.0324979244634 0.878 2.3475892917e-38
0.06662074515 -0.0324979244634 0.878 2.34826695964e-38
0.00485803255789 -0.0307675395333 0.875 1.74861365182e-38
0.00647737674385 -0.0307675395333 0.875 1.80399352765e-38
0.00807821413911 -0.0306972137286 0.873 1.84922968416e-38
0.0096716488181 -0.030626887924 0.871 2.31061421003e-38
0.0112576807808 -0.0305565621193 0.869 2.04363167999e-38
0.0127918937296 -0.0303807476077 0.864 1.97833747739e-38
0.0143575682225 -0.0303104218031 0.862 1.84012334609e-38
0.0159528535806 -0.0303104218031 0.862 1.82996575391e-38
0.0175074239991 -0.0302400959984 0.86 1.94070644791e-38
0.019099007999 -0.0302400959984 0.86 1.69228425616e-38
0.0206424743431 -0.0301697701938 0.858 1.48056038962e-38
0.0222303569849 -0.0301697701938 0.858 1.65587291686e-38
0.0238182396267 -0.0301697701938 0.858 2.02407585927e-38
0.0253469005382 -0.0300994443891 0.856 2.0050630417e-38
0.0268681587335 -0.0300291185845 0.854 2.09768774916e-38
0.0283487019892 -0.0299236298775 0.851 2.08843245306e-38
0.0297829782682 -0.0297829782682 0.847 2.05144714191e-38
0.0313505034402 -0.0297829782682 0.847 2.15321952574e-38
0.0329180286122 -0.0297829782682 0.847 2.12538189097e-38
0.0345669836633 -0.0298533040729 0.849 2.12548951069e-38
0.0361382101935 -0.0298533040729 0.849 2.1250590318e-38
0.037798269319 -0.0299236298775 0.851 2.18023207598e-38
0.039604532091 -0.0300994443891 0.856 2.24483978245e-38
0.041092478063 -0.0300291185845 0.854 2.1895949918e-38
0.0426729579885 -0.0300291185845 0.854 2.34610994091e-38
0.0443570759419 -0.0300994443891 0.856 2.1068366867e-38
0.0459412572255 -0.0300994443891 0.856 2.1343143279e-38
0.0476364792533 -0.0301697701938 0.858 2.22632919026e-38
0.0492243618951 -0.0301697701938 0.858 2.24487565569e-38
0.0509306879973 -0.0302400959984 0.86 2.22658030294e-38
0.0525222719973 -0.0302400959984 0.86 2.3276710952e-38
0.0542397021739 -0.0303104218031 0.862 2.33706988426e-38
0.0561588563692 -0.0304862363147 0.867 2.33699813778e-38
0.0582963906946 -0.0307675395333 0.875 2.34668391276e-38
0.0599157348806 -0.0307675395333 0.875 2.34646867332e-38
0.0615350790666 -0.0307675395333 0.875 2.34668391276e-38
0.0633709527037 -0.0308730282403 0.878 2.3470549766e-38
0.0649958489268 -0.0308730282403 0.878 2.347663e-38
0.06662074515 -0.0308730282403 0.878 2.34816130173e-38
0.0032831046696 -0.0295479420264 0.887 1.67481763132e-38
0.00487468866951 -0.0292481320171 0.878 1.72077545653e-38
0.00649958489268 -0.0292481320171 0.878 2.01586551143e-38
0.00812448111586 -0.0292481320171 0.878 1.83114957085e-38
0.00969385696694 -0.0290815709008 0.873 1.92263123915e-38
0.0112835902878 -0.0290149464543 0.871 2.13515160373e-38
0.0127918937296 -0.0287817608915 0.864 1.78505778151e-38
0.0143908804458 -0.0287817608915 0.864 2.34813257511e-38
0.015989867162 -0.0287817608915 0.864 1.91435068626e-38
0.0175481389386 -0.028715136445 0.862 1.969337638e-38
0.0191434242967 -0.028715136445 0.862 1.85834372937e-38
0.0206905919989 -0.0286485119985 0.86 1.98705467488e-38
0.0222821759988 -0.0286485119985 0.86 2.01442595752e-38
0.0238737599988 -0.0286485119985 0.86 2.05116015599e-38
0.0254653439987 -0.0286485119985 0.86 2.19867232299e-38
0.0269940049102 -0.028581887552 0.858 2.02396823954e-38
0.0285152631055 -0.0285152631055 0.856 2.07892604428e-38
0.0299236298775 -0.0283487019892 0.851 2.11569611598e-38
0.0314985577658 -0.0283487019892 0.851 2.07896191752e-38
0.0330734856541 -0.0283487019892 0.851 2.08796610093e-38
0.0346484135424 -0.0283487019892 0.851 2.22629331702e-38
0.0363510382865 -0.028448638659 0.854 2.1709050334e-38
0.0380203508073 -0.0285152631055 0.856 2.23504638775e-38
0.0396970660444 -0.028581887552 0.858 2.19859917521e-38
0.0412849486862 -0.028581887552 0.858 2.21703802092e-38
0.042872831328 -0.028581887552 0.858 2.18927213263e-38
0.0445643519977 -0.0286485119985 0.86 2.18923625939e-38
0.0461559359976 -0.0286485119985 0.86 2.23594321876e-38
0.0477475199975 -0.0286485119985 0.86 2.13435020114e-38
0.0494538460997 -0.028715136445 0.862 2.3463610536e-38
0.0511675749183 -0.0287817608915 0.864 2.33724925046e-38
0.0527665616345 -0.0287817608915 0.864 2.29082927701e-38
0.0545543176158 -0.0288816975613 0.867 2.32759976911e-38
0.0561588563692 -0.0288816975613 0.867 2.3463610536e-38
0.0582963906946 -0.0291481953473 0.875 2.34657629304e-38
0.0601211602573 -0.0292481320171 0.878 2.34679153248e-38
0.0617460564805 -0.0292481320171 0.878 2.34729838214e-38
0.0633709527037 -0.0292481320171 0.878 2.34729754136e-38
0.0649958489268 -0.0292481320171 0.878 2.3473709694e-38
0.0032831046696 -0.0279063896916 0.887 1.5453864184e-38
0.00492465700439 -0.0279063896916 0.887 1.83086875064e-38
0.00655140390664 -0.0278434666032 0.885 1.94160930451e-38
0.00818925488329 -0.0278434666032 0.885 1.98777213969e-38
0.0097937936367 -0.0277490819706 0.882 1.8858562629e-38
0.0114260925761 -0.0277490819706 0.882 1.88574864318e-38
0.0129991697854 -0.0276232357939 0.878 2.12624284874e-38
0.0146240660085 -0.0276232357939 0.878 2.34809474006e-38
0.016045387534 -0.0272771588079 0.867 2.0256671738e-38
0.0175888538782 -0.0271827741753 0.864 2.01651823626e-38
0.0191878405943 -0.0271827741753 0.864 2.30221496717e-38
0.0207868273105 -0.0271827741753 0.864 2.05296390737e-38
0.0223339950128 -0.027119851087 0.862 2.00639035161e-38
0.0239292803708 -0.027119851087 0.862 2.00563701355e-38
0.0255245657289 -0.027119851087 0.862 2.06116879014e-38
0.0270569279986 -0.0270569279986 0.86 1.87656509356e-38
0.0286485119985 -0.0270569279986 0.86 2.14339053805e-38
0.0301697701938 -0.0269940049102 0.858 2.01460532373e-38
0.0317576528356 -0.0269940049102 0.858 2.13442194762e-38
0.0333455354773 -0.0269940049102 0.858 2.12534601773e-38
0.0349334181191 -0.0269940049102 0.858 2.11598310191e-38
0.0365213007609 -0.0269940049102 0.858 2.34715040502e-38
0.038198015998 -0.0270569279986 0.86 2.18117276763e-38
0.0397895999979 -0.0270569279986 0.86 2.0697783679e-38
0.0413811839978 -0.0270569279986 0.86 2.20799796427e-38
0.0430727046675 -0.027119851087 0.862 2.21689452796e-38
0.0446679900256 -0.027119851087 0.862 2.27235455806e-38
0.0462632753836 -0.027119851087 0.862 2.11601897515e-38
0.0479696014859 -0.0271827741753 0.864 2.26363736057e-38
0.0495685882021 -0.0271827741753 0.864 2.20821320371e-38
0.051345240109 -0.0272771588079 0.867 2.29082927701e-38
0.0529497788624 -0.0272771588079 0.867 2.34628930711e-38
0.0546801637925 -0.0273400818963 0.869 2.34610994091e-38
0.056288403904 -0.0273400818963 0.869 2.32774284168e-38
0.0582963906946 -0.0275288511614 0.875 2.34657629304e-38
0.0601211602573 -0.0276232357939 0.878 2.34679265352e-38
0.0617460564805 -0.0276232357939 0.878 2.34715026489e-38
0.0635153056711 -0.0276861588823 0.88 2.34769424895e-38
0.0656620933919 -0.0279063896916 0.887 2.34726180825e-38
0.0673036457267 -0.0279063896916 0.887 2.34852858206e-38
0.0032831046696 -0.0262648373568 0.887 1.71123387516e-38
0.00492465700439 -0.0262648373568 0.887 1.58212201816e-38
0.00656620933919 -0.0262648373568 0.887 1.65566048001e-38
0.00820776167399 -0.0262648373568 0.887 2.17134237865e-38
0.00984931400879 -0.0262648373568 0.887 1.9323867988e-38
0.0114649568366 -0.0262056156265 0.885 1.92276982757e-38
0.0130583915156 -0.0261167830312 0.882 1.89496806604e-38
0.0146573782318 -0.026057561301 0.88 1.85823624978e-38
0.0161934418596 -0.0259095069754 0.875 2.13521592333e-38
0.0177720711061 -0.0258502852452 0.873 1.83104195113e-38
0.0193432976362 -0.0257910635149 0.871 2.34787879996e-38
0.0209071214501 -0.0257318417847 0.869 1.98871675499e-38
0.0224635425477 -0.0256726200545 0.867 2.33881001669e-38
0.0240680813011 -0.0256726200545 0.867 1.56375674062e-38
0.0256726200545 -0.0256726200545 0.867 2.34863578139e-38
0.0272771588079 -0.0256726200545 0.867 1.73013318755e-38
0.0287817608915 -0.0255837874591 0.864 2.34838635027e-38
0.0303807476077 -0.0255837874591 0.864 1.91474473139e-38
0.0319797343239 -0.0255837874591 0.864 2.3486705336e-38
0.0335787210401 -0.0255837874591 0.864 1.98796425771e-38
0.0352998525749 -0.0256726200545 0.867 2.34700929427e-38
0.0367766944725 -0.0255837874591 0.864 2.19122077827e-38
0.0383756811887 -0.0255837874591 0.864 2.3475221695e-38
0.0401134688351 -0.0256726200545 0.867 2.1995813453e-38
0.0417180075885 -0.0256726200545 0.867 2.17165837145e-38
0.0433225463419 -0.0256726200545 0.867 2.25387983911e-38
0.0447716280535 -0.0255837874591 0.864 2.23565623284e-38
0.0463706147697 -0.0255837874591 0.864 2.26345799437e-38
0.0481361626021 -0.0256726200545 0.867 2.26345799437e-38
0.0498554434579 -0.0257318417847 0.869 2.25423857151e-38
0.0514636835694 -0.0257318417847 0.869 2.30926812273e-38
0.053071923681 -0.0257318417847 0.869 2.34643280008e-38
0.0548060099692 -0.0257910635149 0.871 2.34643280008e-38
0.0566770465087 -0.0259095069754 0.875 2.34675565924e-38
0.0584962640342 -0.0259983395707 0.878 2.34664845991e-38
0.0601211602573 -0.0259983395707 0.878 2.3469732809e-38
0.0618867080898 -0.026057561301 0.88 2.34668405289e-38
0.0635153056711 -0.026057561301 0.88 2.34737181018e-38
0.0656620933919 -0.0262648373568 0.887 2.34748111146e-38
0.0673036457267 -0.0262648373568 0.887 2.34798445787e-38
0.00166746184177 -0.0250119276266 0.901 1.86014089465e-38
0.00329791010215 -0.0247343257662 0.891 1.84048502122e-38
0.00494686515323 -0.0247343257662 0.891 1.39791643048e-38
0.00658101477175 -0.0246788053941 0.889 1.6367554223e-38
0.00822626846469 -0.0246788053941 0.889 1.74677570876e-38
0.00984931400879 -0.024623285022 0.887 2.08950865028e-38
0.0114908663436 -0.024623285022 0.887 1.92284157405e-38
0.0131324186784 -0.024623285022 0.887 1.94106518032e-38
0.0147406587899 -0.0245677646499 0.885 1.94110105356e-38
0.0163229893945 -0.0244844840917 0.882 1.94981825105e-38
0.0178127860456 -0.0242901627894 0.875 2.04215597257e-38
0.0193877139339 -0.0242346424173 0.873 1.98766451997e-38
0.0209552391059 -0.0241791220453 0.871 2.04305280359e-38
0.0225671805756 -0.0241791220453 0.871 2.2733604101e-38
0.0241791220453 -0.0241791220453 0.871 2.29249373933e-38
0.0257318417847 -0.0241236016732 0.869 2.34805970759e-38
0.0273400818963 -0.0241236016732 0.869 1.84062949509e-38
0.0288816975613 -0.0240680813011 0.867 2.34816144186e-38
0.0304862363147 -0.0240680813011 0.867 2.19140406811e-38
0.0320907750681 -0.0240680813011 0.867 2.348201519e-38
0.0336953138215 -0.0240680813011 0.867 2.21888142905e-38
0.0352998525749 -0.0240680813011 0.867 2.34845109026e-38
0.0369043913283 -0.0240680813011 0.867 1.94225376167e-38
0.0385089300817 -0.0240680813011 0.867 2.34729599993e-38
0.0401134688351 -0.0240680813011 0.867 2.22734345009e-38
0.0417180075885 -0.0240680813011 0.867 2.1346730603e-38
0.0434224830117 -0.0241236016732 0.869 2.26335037465e-38
0.0450307231232 -0.0241236016732 0.869 2.31877453151e-38
0.0467463026208 -0.0241791220453 0.871 2.20810558399e-38
0.0483582440905 -0.0241791220453 0.871 2.24509089514e-38
0.0500849276625 -0.0242346424173 0.873 2.34643280008e-38
0.0518190139508 -0.0242901627894 0.875 2.34650454656e-38
0.0536215753646 -0.0243734433476 0.878 2.34632518036e-38
0.0552464715878 -0.0243734433476 0.878 2.34639692684e-38
0.0570009153459 -0.0244289637197 0.88 2.34603819443e-38
0.0587627618202 -0.0244844840917 0.882 2.34722929812e-38
0.0603950607596 -0.0244844840917 0.882 2.3469061587e-38
0.062238337113 -0.0245677646499 0.885 2.34715615034e-38
0.0640205410571 -0.024623285022 0.887 2.3470841236e-38
0.0658101477175 -0.0246788053941 0.889 2.34769536999e-38
0.0674554014104 -0.0246788053941 0.889 2.34834767443e-38
0.069489297708 -0.0248176063243 0.894 2.35004394622e-38
0.00166746184177 -0.0233444657848 0.901 2.11850670031e-38
0.00333492368355 -0.0233444657848 0.901 1.68364511099e-38
0.00498572941369 -0.0232667372639 0.898 1.84051430836e-38
0.00659582020431 -0.0230853707151 0.891 1.72051691697e-38
0.00824477525538 -0.0230853707151 0.891 1.36009888818e-38
0.00987152215763 -0.0230335517011 0.889 2.18149352485e-38
0.0115167758506 -0.0230335517011 0.889 1.90479733398e-38
0.0131324186784 -0.0229817326872 0.887 1.95950402603e-38
0.0147739710132 -0.0229817326872 0.887 2.00556526707e-38
0.0163785097666 -0.0229299136732 0.885 2.06066656477e-38
0.0179552883339 -0.0228521851523 0.882 2.04237121202e-38
0.0194321302315 -0.0226708186035 0.875 1.97801461822e-38
0.0210514744175 -0.0226708186035 0.875 1.98701880164e-38
0.0226189995895 -0.0226189995895 0.873 2.0235736339e-38
0.0242346424173 -0.0226189995895 0.873 2.05112428274e-38
0.0257910635149 -0.0225671805756 0.871 1.94067057467e-38
0.0274030049846 -0.0225671805756 0.871 2.18941590585e-38
0.0290149464543 -0.0225671805756 0.871 2.06992186086e-38
0.030626887924 -0.0225671805756 0.871 1.99609473153e-38
0.0322388293937 -0.0225671805756 0.871 2.19888812295e-38
0.0337730423424 -0.0225153615616 0.869 2.07028059327e-38
0.035381282454 -0.0225153615616 0.869 2.02400411279e-38
0.0369895225655 -0.0225153615616 0.869 2.13402734197e-38
0.0385977626771 -0.0225153615616 0.869 2.14346200427e-38
0.0402060027886 -0.0225153615616 0.869 2.18912863967e-38
0.0418142429001 -0.0225153615616 0.869 2.29097276998e-38
0.0434224830117 -0.0225153615616 0.869 2.30026393931e-38
0.0450307231232 -0.0225153615616 0.869 2.29100864322e-38
0.0467463026208 -0.0225671805756 0.871 2.27260567074e-38
0.0484692848347 -0.0226189995895 0.873 2.31877453151e-38
0.0501996697648 -0.0226708186035 0.875 2.30944748893e-38
0.0518190139508 -0.0226708186035 0.875 2.31848754558e-38
0.0537437201832 -0.0228003661383 0.88 2.346719786e-38
0.0553723177646 -0.0228003661383 0.88 2.34603819443e-38
0.0571304628807 -0.0228521851523 0.882 2.34686327897e-38
0.0589626351597 -0.0229299136732 0.885 2.34689915221e-38
0.0607374363875 -0.0229817326872 0.887 2.346719786e-38
0.0626602919409 -0.0230853707151 0.891 2.34671992613e-38
0.0645257764432 -0.023163099236 0.894 2.34762236234e-38
0.0661802835314 -0.023163099236 0.894 2.34791145022e-38
0.0678347906197 -0.023163099236 0.894 2.3484198413e-38
0.069489297708 -0.023163099236 0.894 2.35080078752e-38
0.0711438047963 -0.023163099236 0.894 2.35098477801e-38
0.00166746184177 -0.0216770039431 0.901 2.28456645379e-38
0.00333492368355 -0.0216770039431 0.901 2.10788738029e-38
0.00498572941369 -0.0216048274593 0.898 1.822436297e-38
0.00661802835314 -0.0215085921477 0.894 1.73860445715e-38
0.00827253544143 -0.0215085921477 0.894 1.8403398467e-38
0.00989373030646 -0.021436415664 0.891 2.02508507442e-38
0.0115426853575 -0.021436415664 0.891 1.86809900876e-38
0.0131620295435 -0.0213882980082 0.889 1.95053571586e-38
0.0147739710132 -0.0213401803524 0.887 1.95964751899e-38
0.016415523348 -0.0213401803524 0.887 2.05133952219e-38
0.0179552883339 -0.0212198862128 0.882 2.07899779076e-38
0.0195431709757 -0.021171768557 0.88 2.02396823954e-38
0.021171768557 -0.021171768557 0.88 2.00542177411e-38
0.0227485471244 -0.0211236509012 0.878 2.06967074818e-38
0.0242901627894 -0.0210514744175 0.875 2.06041545208e-38
0.0259095069754 -0.0210514744175 0.875 2.34658105745e-38
0.0275288511614 -0.0210514744175 0.875 2.09744112063e-38
0.0290815709008 -0.0210033567617 0.873 2.14346200427e-38
0.0306972137286 -0.0210033567617 0.873 2.20806971075e-38
0.0323128565565 -0.0210033567617 0.873 2.16208021619e-38
0.0338507708634 -0.0209552391059 0.871 2.14346200427e-38
0.035462712333 -0.0209552391059 0.871 2.21689452796e-38
0.0369895225655 -0.0209071214501 0.869 2.25380809262e-38
0.0385977626771 -0.0209071214501 0.869 2.34661300706e-38
0.0402060027886 -0.0209071214501 0.869 2.17097677988e-38
0.0418142429001 -0.0209071214501 0.869 2.27210344537e-38
0.0435224196815 -0.0209552391059 0.871 2.262955769e-38
0.0451343611511 -0.0209552391059 0.871 2.33663940537e-38
0.0469609813929 -0.0210514744175 0.875 2.34646867332e-38
0.0487468866951 -0.0211236509012 0.878 2.28153810768e-38
0.0503717829183 -0.0211236509012 0.878 2.34628930711e-38
0.0519966791415 -0.0211236509012 0.878 2.34643280008e-38
0.0537437201832 -0.021171768557 0.88 2.32752760224e-38
0.0553723177646 -0.021171768557 0.88 2.3465404198e-38
0.0573247841831 -0.0212920626966 0.885 2.34657629304e-38
0.0590958840527 -0.0213401803524 0.887 2.34689915221e-38
0.0610113368898 -0.021436415664 0.891 2.34697089869e-38
0.0630119209642 -0.0215567098035 0.896 2.34707851841e-38
0.0646701294106 -0.0215567098035 0.896 2.34765907636e-38
0.066328337857 -0.0215567098035 0.896 2.34808997564e-38
0.0678347906197 -0.0215085921477 0.894 2.34798894202e-38
0.069489297708 -0.0215085921477 0.894 2.3509809945e-38
0.0711438047963 -0.0215085921477 0.894 2.35098463788e-38
0.00331641689285 -0.0198985013571 0.896 2.03405604706e-38
0.00497462533928 -0.0198985013571 0.896 2.04380614164e-38
0.0066328337857 -0.0198985013571 0.896 2.08997752475e-38
0.00827253544143 -0.0198540850594 0.894 1.98852687904e-38
0.00992704252972 -0.0198540850594 0.894 1.9235949121e-38
0.0115426853575 -0.0197874606129 0.891 1.85862847322e-38
0.0131620295435 -0.0197430443153 0.889 1.93198925042e-38
0.0148072832364 -0.0197430443153 0.889 1.98712642136e-38
0.016415523348 -0.0196986280176 0.887 1.99638171746e-38
0.0180163607432 -0.0196542117199 0.885 2.13470893354e-38
0.0195875872734 -0.0195875872734 0.882 2.01464119697e-38
0.021171768557 -0.0195431709757 0.88 2.05137539543e-38
0.0227485471244 -0.0194987546781 0.878 2.34693838856e-38
0.0243734433476 -0.0194987546781 0.878 2.20900773994e-38
0.0259095069754 -0.0194321302315 0.875 2.10712241146e-38
0.0275288511614 -0.0194321302315 0.875 2.12531014448e-38
0.0291481953473 -0.0194321302315 0.875 2.00545764735e-38
0.0307675395333 -0.0194321302315 0.875 2.15311190602e-38
0.0323868837192 -0.0194321302315 0.875 2.19924489354e-38
0.0339284993843 -0.0193877139339 0.873 2.23615845821e-38
0.0355441422121 -0.0193877139339 0.873 2.3465404198e-38
0.0370746538027 -0.0193432976362 0.871 2.24516264162e-38
0.0386865952724 -0.0193432976362 0.871 2.29082927701e-38
0.0402985367421 -0.0193432976362 0.871 2.3184157991e-38
0.0419104782118 -0.0193432976362 0.871 2.2816457274e-38
0.043722293021 -0.0194321302315 0.875 2.34625343387e-38
0.0454970942488 -0.0194987546781 0.878 2.30941161569e-38
0.047121990472 -0.0194987546781 0.878 2.31852341882e-38
0.0487468866951 -0.0194987546781 0.878 2.34646867332e-38
0.0504865250206 -0.0195431709757 0.88 2.3465404198e-38
0.0521151226019 -0.0195431709757 0.88 2.34603819443e-38
0.0538658650018 -0.0195875872734 0.882 2.34675565924e-38
0.0554981639413 -0.0195875872734 0.882 2.34689915221e-38
0.0575838792528 -0.0197430443153 0.889 2.34664803952e-38
0.0593623818388 -0.0197874606129 0.891 2.34664803952e-38
0.0613537125177 -0.0198985013571 0.896 2.34693502545e-38
0.0631525725735 -0.0199429176548 0.898 2.34725788461e-38
0.064814482378 -0.0199429176548 0.898 2.34758564832e-38
0.0664763921826 -0.0199429176548 0.898 2.34798305657e-38
0.0681383019871 -0.0199429176548 0.898 2.34838452858e-38
0.0698002117917 -0.0199429176548 0.898 2.35094386009e-38
0.00498572941369 -0.0182810078502 0.898 1.98766788309e-38
0.00664763921826 -0.0182810078502 0.898 1.96962476406e-38
0.00829104223213 -0.0182402929107 0.896 1.83104293204e-38
0.00992704252972 -0.0181995779711 0.894 2.01521558921e-38
0.011581549618 -0.0181995779711 0.894 1.89525505196e-38
0.0131916404086 -0.0181385055618 0.891 1.98730578756e-38
0.0148072832364 -0.0180977906223 0.889 1.97805049147e-38
0.0164525369294 -0.0180977906223 0.889 2.0239323663e-38
0.0180570756828 -0.0180570756828 0.887 1.97794287174e-38
0.0196986280176 -0.0180570756828 0.887 2.01485643641e-38
0.0212198862128 -0.0179552883339 0.882 2.11594722867e-38
0.0228003661383 -0.0179145733944 0.88 2.13445782086e-38
0.0244289637197 -0.0179145733944 0.88 2.12595586282e-38
0.026057561301 -0.0179145733944 0.88 1.95042809614e-38
0.0276232357939 -0.0178738584549 0.878 1.91297643286e-38
0.0292481320171 -0.0178738584549 0.878 1.88546165725e-38
0.0308730282403 -0.0178738584549 0.878 1.9775482661e-38
0.0324979244634 -0.0178738584549 0.878 2.05119602923e-38
0.0340062279052 -0.0178127860456 0.875 2.11576786246e-38
0.0356255720912 -0.0178127860456 0.875 2.11576786246e-38
0.0371597850399 -0.0177720711061 0.873 2.34657699369e-38
0.0387754278677 -0.0177720711061 0.873 2.28229144573e-38
0.0403910706956 -0.0177720711061 0.873 2.21736088009e-38
0.0420067135234 -0.0177720711061 0.873 2.28168160064e-38
0.0438721980256 -0.0178738584549 0.878 2.28171747388e-38
0.0454970942488 -0.0178738584549 0.878 2.29100864322e-38
0.047229329858 -0.0179145733944 0.88 2.3463610536e-38
0.0488579274393 -0.0179145733944 0.88 2.30019219283e-38
0.0506012671229 -0.0179552883339 0.882 2.33696226454e-38
0.0522335660624 -0.0179552883339 0.882 2.34689915221e-38
0.0540490822297 -0.0180163607432 0.885 2.34664803952e-38
0.0558127793831 -0.0180570756828 0.887 2.34643280008e-38
0.0577134267877 -0.0181385055618 0.891 2.34686327897e-38
0.0595622551783 -0.0181995779711 0.894 2.34675565924e-38
0.0613537125177 -0.0182402929107 0.896 2.34693502545e-38
0.0631525725735 -0.0182810078502 0.898 2.34758732988e-38
0.064814482378 -0.0182810078502 0.898 2.34729501902e-38
0.0664763921826 -0.0182810078502 0.898 2.34809656174e-38
0.0681383019871 -0.0182810078502 0.898 2.34845403298e-38
0.00500238552532 -0.0166746184177 0.901 2.07986127087e-38
0.00666984736709 -0.0166746184177 0.901 1.8679555158e-38
0.00830954902282 -0.0166190980456 0.898 1.97812433989e-38
0.00994925067855 -0.0165820844643 0.896 1.91365802443e-38
0.011607459125 -0.0165820844643 0.896 2.05184174756e-38
0.0132360567063 -0.0165450708829 0.894 1.96904630805e-38
0.0148905637946 -0.0165450708829 0.894 1.9871622946e-38
0.0164895505108 -0.0164895505108 0.891 1.97801461822e-38
0.0181385055618 -0.0164895505108 0.891 2.00595987272e-38
0.0197430443153 -0.0164525369294 0.889 1.94135216624e-38
0.0213401803524 -0.016415523348 0.887 2.01460532373e-38
0.0229299136732 -0.0163785097666 0.885 2.06059481829e-38
0.0245677646499 -0.0163785097666 0.885 1.91333516527e-38
0.0261167830312 -0.0163229893945 0.882 2.04212009933e-38
0.0276861588823 -0.0162859758131 0.88 2.05159063487e-38
0.0293147564636 -0.0162859758131 0.88 2.04240708526e-38
0.0309433540449 -0.0162859758131 0.88 2.17137166579e-38
0.0325719516262 -0.0162859758131 0.88 2.17180186441e-38
0.0342005492075 -0.0162859758131 0.88 2.18102128727e-38
0.0358291467888 -0.0162859758131 0.88 2.12556125717e-38
0.0373726131329 -0.0162489622317 0.878 2.16233132887e-38
0.0389975093561 -0.0162489622317 0.878 2.34786815009e-38
0.0407149395328 -0.0162859758131 0.88 2.2452343881e-38
0.0423435371141 -0.0162859758131 0.88 2.27246217778e-38
0.0440720713651 -0.0163229893945 0.882 2.27246217778e-38
0.0457043703046 -0.0163229893945 0.882 2.27260567074e-38
0.047336669244 -0.0163229893945 0.882 2.28171747388e-38
0.0489689681835 -0.0163229893945 0.882 2.34675565924e-38
0.0507733802764 -0.0163785097666 0.885 2.34661594979e-38
0.0525296747135 -0.016415523348 0.887 2.34646867332e-38
0.0542933718669 -0.0164525369294 0.889 2.34646867332e-38
0.0560644717366 -0.0164895505108 0.891 2.34657629304e-38
0.0580372956249 -0.0165820844643 0.896 2.34664803952e-38
0.0598287529643 -0.0166190980456 0.898 2.34614581415e-38
0.0614906627689 -0.0166190980456 0.898 2.34751095912e-38
0.0635042015967 -0.0167116319991 0.903 2.34725942604e-38
0.0653918942478 -0.0167671523712 0.906 2.3474808312e-38
0.0670686094849 -0.0167671523712 0.906 2.34773586752e-38
0.068745324722 -0.0167671523712 0.906 2.34888843551e-38
0.00672166638105 -0.0151237493574 0.908 1.96955259719e-38
0.00833730920887 -0.015007156576 0.901 1.93245560255e-38
0.00997145882739 -0.0149571882411 0.898 1.92309268673e-38
0.011607459125 -0.0149238760178 0.896 1.9873416608e-38
0.0132656675714 -0.0149238760178 0.896 1.95064333558e-38
0.0148905637946 -0.0148905637946 0.894 2.00567288679e-38
0.0165450708829 -0.0148905637946 0.894 1.94099343384e-38
0.0181995779711 -0.0148905637946 0.894 2.07971525557e-38
0.0197874606129 -0.0148405954597 0.891 2.08007398798e-38
0.0213401803524 -0.0147739710132 0.887 2.13531877864e-38
0.0229817326872 -0.0147739710132 0.887 1.99691981607e-38
0.024623285022 -0.0147739710132 0.887 2.07960889702e-38
0.0262056156265 -0.0147406587899 0.885 1.9598268852e-38
0.0278434666032 -0.0147406587899 0.885 2.20871683038e-38
0.0293813809101 -0.014690690455 0.882 2.11652120052e-38
0.0310136798495 -0.014690690455 0.882 2.19960362595e-38
0.0327570195332 -0.0147406587899 0.885 2.20867955584e-38
0.0343948705098 -0.0147406587899 0.885 2.34707851841e-38
0.0360327214865 -0.0147406587899 0.885 2.10723003118e-38
0.0376705724632 -0.0147406587899 0.885 2.2086436826e-38
0.0393084234398 -0.0147406587899 0.885 2.347724517e-38
0.0409462744165 -0.0147406587899 0.885 2.25452555744e-38
0.0425841253931 -0.0147406587899 0.885 2.18970261152e-38
0.0442219763698 -0.0147406587899 0.885 2.34618168739e-38
0.0458598273464 -0.0147406587899 0.885 2.30944748893e-38
0.0474976783231 -0.0147406587899 0.885 2.34646867332e-38
0.0492465700439 -0.0147739710132 0.887 2.34632518036e-38
0.0510028644811 -0.0148072832364 0.889 2.346719786e-38
0.052648118174 -0.0148072832364 0.889 2.3465404198e-38
0.0545987339134 -0.0148905637946 0.894 2.34650454656e-38
0.0562532410017 -0.0148905637946 0.894 2.34657629304e-38
0.0580372956249 -0.0149238760178 0.896 2.34639692684e-38
0.0598287529643 -0.0149571882411 0.898 2.34697229999e-38
0.0616960881456 -0.015007156576 0.901 2.34725942604e-38
0.0635042015967 -0.0150404687992 0.903 2.3469005535e-38
0.0653918942478 -0.0150904371341 0.906 2.34783956361e-38
0.0670686094849 -0.0150904371341 0.906 2.34762250247e-38
0.00509677015787 -0.0135913870877 0.918 2.0253014349e-38
0.0067364718136 -0.0134729436272 0.91 1.85895525602e-38
0.00838357618561 -0.013413721897 0.906 1.94149565921e-38
0.0100047710506 -0.0133396947342 0.901 1.94135216624e-38
0.011633368632 -0.0132952784365 0.898 2.07971525557e-38
0.0132952784365 -0.0132952784365 0.898 1.95053571586e-38
0.0149238760178 -0.0132656675714 0.896 1.99666870338e-38
0.0165820844643 -0.0132656675714 0.896 2.00581637976e-38
0.0182402929107 -0.0132656675714 0.896 2.0333670286e-38
0.0198540850594 -0.0132360567063 0.894 2.09815410128e-38
0.021436415664 -0.0131916404086 0.891 2.14446645501e-38
0.0230335517011 -0.0131620295435 0.889 2.28294024692e-38
0.024623285022 -0.0131324186784 0.887 2.22787818558e-38
0.0262648373568 -0.0131324186784 0.887 2.1448969339e-38
0.0279063896916 -0.0131324186784 0.887 2.18163113236e-38
0.0295479420264 -0.0131324186784 0.887 2.27361012148e-38
0.0311894943612 -0.0131324186784 0.887 2.24599361161e-38
0.032831046696 -0.0131324186784 0.887 2.30098140413e-38
0.0344725990308 -0.0131324186784 0.887 2.25492016309e-38
0.0361141513656 -0.0131324186784 0.887 2.13506766595e-38
0.0377557037004 -0.0131324186784 0.887 2.30080301883e-38
0.0393972560352 -0.0131324186784 0.887 2.34704264517e-38
0.04103880837 -0.0131324186784 0.887 2.25423857151e-38
0.0426803607048 -0.0131324186784 0.887 2.2816457274e-38
0.0443219130396 -0.0131324186784 0.887 2.34625343387e-38
0.0459634653743 -0.0131324186784 0.887 2.34646867332e-38
0.0476050177091 -0.0131324186784 0.887 2.34646867332e-38
0.0492465700439 -0.0131324186784 0.887 2.34639692684e-38
0.0510028644811 -0.0131620295435 0.889 2.34625343387e-38
0.0529442268251 -0.0132360567063 0.894 2.34600232119e-38
0.0545987339134 -0.0132360567063 0.894 2.34625343387e-38
0.0563790871785 -0.0132656675714 0.896 2.34657629304e-38
0.0581668431598 -0.0132952784365 0.898 2.34693502545e-38
0.0600286263038 -0.0133396947342 0.901 2.34707851841e-38
0.0618330383968 -0.0133693055993 0.903 2.346719786e-38
0.0637151790106 -0.013413721897 0.906 2.34754935469e-38
0.0653918942478 -0.013413721897 0.906 2.34715601021e-38
0.0670686094849 -0.013413721897 0.906 2.34776599544e-38
0.00509677015787 -0.0118924637017 0.918 2.01615670126e-38
0.006773485395 -0.0118535994412 0.915 1.98824171481e-38
0.00838357618561 -0.0117370066599 0.906 1.89547267361e-38
0.0100269791995 -0.0116981423994 0.903 1.96901043481e-38
0.0116722328924 -0.0116722328924 0.901 2.04265819794e-38
0.0133396947342 -0.0116722328924 0.901 1.9504283764e-38
0.0149571882411 -0.011633368632 0.898 2.08868356574e-38
0.0166190980456 -0.011633368632 0.898 1.95060984455e-38
0.0182810078502 -0.011633368632 0.898 1.95032047641e-38
0.0198985013571 -0.011607459125 0.896 2.125238398e-38
0.0215567098035 -0.011607459125 0.896 2.04251470498e-38
0.0230853707151 -0.0115426853575 0.891 2.15321952574e-38
0.0246788053941 -0.0115167758506 0.889 2.18155938588e-38
0.026324059087 -0.0115167758506 0.889 2.31077479883e-38
0.0279693127799 -0.0115167758506 0.889 2.17244758275e-38
0.0296145664729 -0.0115167758506 0.889 2.34743725082e-38
0.0312598201658 -0.0115167758506 0.889 2.27357424824e-38
0.0329050738588 -0.0115167758506 0.889 2.31967136253e-38
0.0345503275517 -0.0115167758506 0.889 2.18138408344e-38
0.0361955812446 -0.0115167758506 0.889 2.227333641e-38
0.0378408349376 -0.0115167758506 0.889 2.34704993192e-38
0.0394860886305 -0.0115167758506 0.889 2.15286079333e-38
0.0411313423234 -0.0115167758506 0.889 2.29986933367e-38
0.0427765960164 -0.0115167758506 0.889 2.34639692684e-38
0.0444218497093 -0.0115167758506 0.889 2.34621756063e-38
0.0460671034023 -0.0115167758506 0.889 2.34664803952e-38
0.0477123570952 -0.0115167758506 0.889 2.34618168739e-38
0.0494686515323 -0.0115426853575 0.891 2.34628930711e-38
0.0514044618392 -0.011607459125 0.896 2.34628930711e-38
0.0530626702856 -0.011607459125 0.896 2.34625343387e-38
0.0548430235506 -0.011633368632 0.898 2.34682740572e-38
0.0566937026203 -0.0116722328924 0.901 2.346719786e-38
0.0583611644621 -0.0116722328924 0.901 2.34704320569e-38
0.0603617485364 -0.0117370066599 0.906 2.34697089869e-38
0.0620384637735 -0.0117370066599 0.906 2.34704264517e-38
0.0638558306199 -0.0117629161668 0.908 2.34762278273e-38
0.0656806001826 -0.0117888256738 0.91 2.34794928528e-38
0.00679569354383 -0.0101935403157 0.918 1.9880599664e-38
0.00846685674374 -0.0101602280925 0.915 2.01525244336e-38
0.0101380199437 -0.0101380199437 0.913 1.87695969921e-38
0.0117370066599 -0.0100602914227 0.906 1.94099343384e-38
0.0133693055993 -0.0100269791995 0.903 2.01482056317e-38
0.015007156576 -0.0100047710506 0.901 2.02396823954e-38
0.0166746184177 -0.0100047710506 0.901 2.14403597612e-38
0.0182810078502 -0.00997145882739 0.898 2.07038821299e-38
0.0199429176548 -0.00997145882739 0.898 2.06088180421e-38
0.0216048274593 -0.00997145882739 0.898 2.11601897515e-38
0.02321491825 -0.00994925067855 0.896 2.11605484839e-38
0.0248731266964 -0.00994925067855 0.896 2.04237121202e-38
0.0264721134126 -0.00992704252972 0.894 2.12531014448e-38
0.0281266205009 -0.00992704252972 0.894 2.25456143068e-38
0.0297811275891 -0.00992704252972 0.894 2.28236319221e-38
0.0314356346774 -0.00992704252972 0.894 2.21793485194e-38
0.0330901417657 -0.00992704252972 0.894 2.22715427479e-38
0.0346280560726 -0.00989373030646 0.891 2.26399609298e-38
0.0362770111237 -0.00989373030646 0.891 2.20839256991e-38
0.0380536630306 -0.00992704252972 0.894 2.30926812273e-38
0.0395749212258 -0.00989373030646 0.891 2.34614581415e-38
0.0412238762769 -0.00989373030646 0.891 2.34646867332e-38
