# .PCD v0.7 - Point Cloud Data file format
VERSION 0.7
FIELDS x y z rgb
SIZE 4 4 4 4
TYPE F F F F
COUNT 1 1 1 1
WIDTH 837
HEIGHT 1
VIEWPOINT 0 0 0 1 0 0 0
POINTS 837
DATA ascii
0.0332641055983 -0.0560237567971 0.946 1.95961164575e-38
0.035088875161 -0.0561422002575 0.948 2.34830983937e-38
0.036843318919 -0.0561422002575 0.948 2.34846145986e-38
-0.0389234821933 -0.0548467249088 0.956 2.25619001975e-38
-0.0371542330027 -0.0548467249088 0.956 2.3488912381e-38
-0.0353849838121 -0.0548467249088 0.956 1.80501073021e-38
-0.0335454088169 -0.0547319828065 0.954 1.3896264889e-38
-0.0315799876449 -0.0543877564995 0.948 1.17771849174e-38
-0.0297626207984 -0.0542730143972 0.946 1.14119953273e-38
-0.0279230458032 -0.0541009012437 0.943 1.18672267516e-38
-0.0261778554405 -0.0541009012437 0.943 1.26901588929e-38
-0.0243549365569 -0.0539287880902 0.94 1.09420558743e-38
-0.0226152982314 -0.0539287880902 0.94 1.26941049494e-38
-0.0208756599059 -0.0539287880902 0.94 1.15859805446e-38
-0.0190953066409 -0.0538140459879 0.938 1.34280714539e-38
-0.0173593696735 -0.0538140459879 0.938 1.28756235473e-38
-0.0156234327062 -0.0538140459879 0.938 1.18697378784e-38
-0.0138430794411 -0.0536419328344 0.935 1.22374385955e-38
-0.012112694511 -0.0536419328344 0.935 1.45362042665e-38
-0.0103823095809 -0.0536419328344 0.935 1.33340835633e-38
-0.00865192465071 -0.0536419328344 0.935 1.46280341574e-38
-0.00690673428801 -0.0535271907321 0.933 1.35267228657e-38
-0.00518005071601 -0.0535271907321 0.933 1.46305424817e-38
-0.00345336714401 -0.0535271907321 0.933 1.37042954071e-38
-0.001726683572 -0.0535271907321 0.933 1.527267349e-38
0.0 -0.0535271907321 0.933 1.42571020461e-38
0.001726683572 -0.0535271907321 0.933 1.51740220781e-38
0.00345336714401 -0.0535271907321 0.933 1.41602442963e-38
0.00518005071601 -0.0535271907321 0.933 1.5453474623e-38
0.00690673428801 -0.0535271907321 0.933 1.44432841653e-38
0.00863341786002 -0.0535271907321 0.933 1.39851828817e-38
0.010360101432 -0.0535271907321 0.933 1.4812419812e-38
0.012112694511 -0.0536419328344 0.935 1.38944235828e-38
0.0138430794411 -0.0536419328344 0.935 1.54556270175e-38
0.0155734643713 -0.0536419328344 0.935 1.66484122703e-38
0.0173038493014 -0.0536419328344 0.935 1.5085773906e-38
0.0190953066409 -0.0538140459879 0.938 1.5276260814e-38
0.0208312436082 -0.0538140459879 0.938 1.48077562907e-38
0.0226152982314 -0.0539287880902 0.94 1.58183054808e-38
0.0244326650778 -0.0541009012437 0.943 1.59115759066e-38
0.0262611359986 -0.0542730143972 0.946 1.55392116683e-38
0.0280118783985 -0.0542730143972 0.946 2.03372576101e-38
0.0298255438868 -0.0543877564995 0.948 1.97801461822e-38
0.0315799876449 -0.0543877564995 0.948 2.07035233975e-38
0.0333344314029 -0.0543877564995 0.948 2.01492818289e-38
0.035088875161 -0.0543877564995 0.948 2.34820418147e-38
0.036843318919 -0.0543877564995 0.948 2.34896550692e-38
-0.0390456270119 -0.0532440368344 0.959 2.31161838051e-38
-0.0372708257841 -0.0532440368344 0.959 2.34871439424e-38
-0.0353849838121 -0.0530774757182 0.956 1.7590191337e-38
-0.0335454088169 -0.052966434974 0.954 1.37115078903e-38
-0.0317798609844 -0.052966434974 0.954 1.08530902374e-38
-0.0297626207984 -0.0525222719973 0.946 1.19648019662e-38
-0.0280118783985 -0.0525222719973 0.946 1.14098429328e-38
-0.0261778554405 -0.052355710881 0.943 1.29678177758e-38
-0.0244326650778 -0.052355710881 0.943 1.17700102693e-38
-0.0226874747151 -0.052355710881 0.943 1.20498215467e-38
-0.0209422843524 -0.052355710881 0.943 1.21373522539e-38
-0.0191360215804 -0.0521891497647 0.94 1.3887607667e-38
-0.0173963832549 -0.0521891497647 0.94 1.25057704358e-38
-0.0156234327062 -0.0520781090205 0.938 1.21441681697e-38
-0.0138874957388 -0.0520781090205 0.938 1.3155793557e-38
-0.012112694511 -0.0519115479043 0.935 1.55463863164e-38
-0.0103823095809 -0.0519115479043 0.935 1.27848642483e-38
-0.00865192465071 -0.0519115479043 0.935 1.41684979442e-38
-0.00692153972057 -0.0519115479043 0.935 1.29721225647e-38
-0.00518005071601 -0.0518005071601 0.933 1.38007944246e-38
-0.00345336714401 -0.0518005071601 0.933 1.43507312043e-38
-0.001726683572 -0.0518005071601 0.933 1.48059626286e-38
0.0 -0.0518005071601 0.933 1.50793167227e-38
0.001726683572 -0.0518005071601 0.933 1.69271473504e-38
0.00345336714401 -0.0518005071601 0.933 1.49010267164e-38
0.00518005071601 -0.0518005071601 0.933 1.44400555736e-38
0.00690673428801 -0.0518005071601 0.933 1.50864913708e-38
0.00863341786002 -0.0518005071601 0.933 1.33369534225e-38
0.0103823095809 -0.0519115479043 0.935 1.57347320404e-38
0.012112694511 -0.0519115479043 0.935 1.43553947256e-38
0.0138430794411 -0.0519115479043 0.935 1.53641502537e-38
0.0155734643713 -0.0519115479043 0.935 1.55435164571e-38
0.0173038493014 -0.0519115479043 0.935 1.58215340725e-38
0.0190953066409 -0.0520781090205 0.938 1.43507312043e-38
0.0208756599059 -0.0521891497647 0.94 1.52672925039e-38
0.0226152982314 -0.0521891497647 0.94 1.67424001609e-38
0.0244326650778 -0.052355710881 0.943 1.50886437652e-38
0.0262611359986 -0.0525222719973 0.946 1.53619978593e-38
0.0280118783985 -0.0525222719973 0.946 2.01517929558e-38
0.0298255438868 -0.0526333127414 0.948 1.9411369268e-38
0.0315799876449 -0.0526333127414 0.948 2.08857594602e-38
0.0333344314029 -0.0526333127414 0.948 2.0333670286e-38
0.035088875161 -0.0526333127414 0.948 2.34809361902e-38
0.036843318919 -0.0526333127414 0.948 2.34860509296e-38
-0.0390456270119 -0.0514692356066 0.959 2.21034583984e-38
-0.0372708257841 -0.0514692356066 0.959 2.34878375851e-38
-0.0353849838121 -0.0513082265276 0.956 1.72221318876e-38
-0.0335454088169 -0.0512008871415 0.954 1.39862941114e-38
-0.0317798609844 -0.0512008871415 0.954 1.3893706118e-38
-0.0299199285194 -0.0510398780625 0.951 1.14062556087e-38
-0.0280118783985 -0.0507715295974 0.946 1.11339777119e-38
-0.0261778554405 -0.0506105205183 0.943 1.27877341076e-38
-0.0244326650778 -0.0506105205183 0.943 1.14033857495e-38
-0.0226874747151 -0.0506105205183 0.943 1.21438094373e-38
-0.0209422843524 -0.0506105205183 0.943 1.31525649654e-38
-0.0191970939897 -0.0506105205183 0.943 1.39805193604e-38
-0.0173963832549 -0.0504495114392 0.94 1.24175222637e-38
-0.0156234327062 -0.0503421720532 0.938 1.14991799138e-38
-0.0138874957388 -0.0503421720532 0.938 1.39848241493e-38
-0.012112694511 -0.0501811629741 0.935 1.48974393924e-38
-0.0103823095809 -0.0501811629741 0.935 1.37997182274e-38
-0.00865192465071 -0.0501811629741 0.935 1.3342693141e-38
-0.00692153972057 -0.0501811629741 0.935 1.25150974784e-38
-0.00519115479043 -0.0501811629741 0.935 1.34313000455e-38
-0.00346076986028 -0.0501811629741 0.935 1.40719961242e-38
-0.00173038493014 -0.0501811629741 0.935 1.6557294239e-38
0.0 -0.0501811629741 0.935 1.45279450133e-38
0.00173038493014 -0.0501811629741 0.935 1.60905833776e-38
0.00346076986028 -0.0501811629741 0.935 1.55417227951e-38
0.00519115479043 -0.0501811629741 0.935 1.41620379583e-38
0.00692153972057 -0.0501811629741 0.935 1.55463863164e-38
0.00865192465071 -0.0501811629741 0.935 1.39819542901e-38
0.0103823095809 -0.0501811629741 0.935 1.61009866174e-38
0.012112694511 -0.0501811629741 0.935 1.48070388258e-38
0.0138430794411 -0.0501811629741 0.935 1.55474625136e-38
0.0156234327062 -0.0503421720532 0.938 1.56367868829e-38
0.0173593696735 -0.0503421720532 0.938 1.6832441995e-38
0.0190953066409 -0.0503421720532 0.938 1.63772105707e-38
0.0208756599059 -0.0504495114392 0.94 1.58208166077e-38
0.0226152982314 -0.0504495114392 0.94 1.69271473504e-38
0.0245103935987 -0.0507715295974 0.946 1.37071652664e-38
0.0262611359986 -0.0507715295974 0.946 1.63736232466e-38
0.0280711001288 -0.0508788689834 0.948 2.03358226805e-38
0.0298255438868 -0.0508788689834 0.948 2.07946414289e-38
0.0315799876449 -0.0508788689834 0.948 1.95946815279e-38
0.0333344314029 -0.0508788689834 0.948 2.06084593097e-38
0.035088875161 -0.0508788689834 0.948 2.34860004828e-38
0.036843318919 -0.0508788689834 0.948 2.34882089292e-38
-0.0372708257841 -0.0496944343788 0.959 2.34914165014e-38
-0.0353849838121 -0.049538977337 0.956 1.58374079815e-38
-0.0335454088169 -0.0494353393091 0.954 1.36157375481e-38
-0.0317798609844 -0.0494353393091 0.954 1.51847840503e-38
-0.0299199285194 -0.0492798822672 0.951 1.31579992008e-38
-0.0280118783985 -0.0490207871974 0.946 1.13162137746e-38
-0.0262611359986 -0.0490207871974 0.946 1.2599399594e-38
-0.0244326650778 -0.0488653301556 0.943 1.16785335056e-38
-0.0226874747151 -0.0488653301556 0.943 1.36203520239e-38
-0.0209422843524 -0.0488653301556 0.943 1.19547574588e-38
-0.0191970939897 -0.0488653301556 0.943 1.42592544406e-38
-0.0173963832549 -0.0487098731137 0.94 1.17721626638e-38
-0.0156567449294 -0.0487098731137 0.94 1.17757654021e-38
-0.0138874957388 -0.0486062350858 0.938 1.4353959796e-38
-0.0121515587715 -0.0486062350858 0.938 1.34248428622e-38
-0.0103823095809 -0.048450778044 0.935 1.49978844663e-38
-0.00865192465071 -0.048450778044 0.935 1.25140212812e-38
-0.00692153972057 -0.048450778044 0.935 1.21434507049e-38
-0.00519115479043 -0.048450778044 0.935 1.4353959796e-38
-0.00346076986028 -0.048450778044 0.935 1.44382619116e-38
-0.00173038493014 -0.048450778044 0.935 1.5449887299e-38
0.0 -0.048450778044 0.935 1.40680500677e-38
0.00173038493014 -0.048450778044 0.935 1.46172693826e-38
0.00346076986028 -0.048450778044 0.935 1.89543469842e-38
0.00519115479043 -0.048450778044 0.935 1.37950547061e-38
0.00692153972057 -0.048450778044 0.935 1.65587291686e-38
0.00865192465071 -0.048450778044 0.935 1.55438751896e-38
0.0103823095809 -0.048450778044 0.935 1.40766596455e-38
0.012112694511 -0.048450778044 0.935 1.44447190949e-38
0.0138874957388 -0.0486062350858 0.938 1.63782867679e-38
0.0156234327062 -0.0486062350858 0.938 1.66498471999e-38
0.0173593696735 -0.0486062350858 0.938 1.67406064989e-38
0.0191360215804 -0.0487098731137 0.94 1.55456688516e-38
0.0208756599059 -0.0487098731137 0.94 1.56353519533e-38
0.0226874747151 -0.0488653301556 0.943 1.71097421455e-38
0.0245103935987 -0.0490207871974 0.946 1.54556270175e-38
0.0263166563707 -0.0491244252253 0.948 1.72058824306e-38
0.0280711001288 -0.0491244252253 0.948 2.03365401453e-38
0.0298255438868 -0.0491244252253 0.948 2.04247883174e-38
0.0315799876449 -0.0491244252253 0.948 2.02418347899e-38
0.0333344314029 -0.0491244252253 0.948 2.12545363745e-38
0.035088875161 -0.0491244252253 0.948 2.34849382986e-38
-0.0372708257841 -0.047919633151 0.959 2.34853502803e-38
-0.0353849838121 -0.0477697281463 0.956 1.63898446777e-38
-0.0335454088169 -0.0476697914766 0.954 1.3985611679e-38
-0.0317798609844 -0.0476697914766 0.954 1.1954039994e-38
-0.0299199285194 -0.0475198864719 0.951 1.33427029501e-38
-0.0281599327241 -0.0475198864719 0.951 1.50943834837e-38
-0.0262611359986 -0.0472700447975 0.946 1.26019107208e-38
-0.0245103935987 -0.0472700447975 0.946 1.23228169083e-38
-0.0227596511988 -0.0472700447975 0.946 1.27884515724e-38
-0.0210089087989 -0.0472700447975 0.946 1.23220994435e-38
-0.0191970939897 -0.0471201397929 0.943 1.35256466685e-38
-0.0173963832549 -0.0469702347883 0.94 1.28784934065e-38
-0.0156567449294 -0.0469702347883 0.94 1.20494628143e-38
-0.0138874957388 -0.0468702981185 0.938 1.49049727729e-38
-0.0121515587715 -0.0468702981185 0.938 1.4346067683e-38
-0.0104156218041 -0.0468702981185 0.938 1.41667014796e-38
-0.00867968483676 -0.0468702981185 0.938 1.37078827312e-38
-0.00694374786941 -0.0468702981185 0.938 1.29742749592e-38
-0.00520781090205 -0.0468702981185 0.938 1.39851828817e-38
-0.00346076986028 -0.0467203931138 0.935 1.59126521038e-38
-0.00173038493014 -0.0467203931138 0.935 1.50811103847e-38
0.0 -0.0467203931138 0.935 1.57311335059e-38
0.00173038493014 -0.0467203931138 0.935 1.43435565562e-38
0.00346076986028 -0.0467203931138 0.935 1.75685608939e-38
0.00519115479043 -0.0467203931138 0.935 1.47112572732e-38
0.00692153972057 -0.0467203931138 0.935 1.61895935219e-38
0.00865192465071 -0.0467203931138 0.935 1.63764931059e-38
0.0104156218041 -0.0468702981185 0.938 1.4263200497e-38
0.0121515587715 -0.0468702981185 0.938 1.38969347096e-38
0.0138874957388 -0.0468702981185 0.938 1.55474625136e-38
0.0156234327062 -0.0468702981185 0.938 1.71083072159e-38
0.0173593696735 -0.0468702981185 0.938 1.60048463324e-38
0.0191360215804 -0.0469702347883 0.94 1.46301837493e-38
0.0209422843524 -0.0471201397929 0.943 1.50864913708e-38
0.0226874747151 -0.0471201397929 0.943 1.69264298856e-38
0.0245103935987 -0.0472700447975 0.946 1.50879263004e-38
0.0263166563707 -0.0473699814673 0.948 1.72022951065e-38
0.0280711001288 -0.0473699814673 0.948 2.00581637976e-38
0.0299199285194 -0.0475198864719 0.951 2.02403998603e-38
0.0316799243146 -0.0475198864719 0.951 2.01492818289e-38
0.0335454088169 -0.0476697914766 0.954 2.10697891849e-38
0.0353849838121 -0.0477697281463 0.956 2.34903445081e-38
-0.0353849838121 -0.0460004789557 0.956 1.60221397567e-38
-0.0335454088169 -0.0459042436441 0.954 1.39870185827e-38
-0.0317798609844 -0.0459042436441 0.954 1.30585770748e-38
-0.0299199285194 -0.0457598906767 0.951 1.26923112874e-38
-0.0281599327241 -0.0457598906767 0.951 1.20491040819e-38
-0.0262611359986 -0.0455193023976 0.946 1.72120004997e-38
-0.0245103935987 -0.0455193023976 0.946 1.33419756762e-38
-0.0227596511988 -0.0455193023976 0.946 1.13097565913e-38
-0.0210089087989 -0.0455193023976 0.946 1.27812769243e-38
-0.0191970939897 -0.0453749494302 0.943 1.24153698693e-38
-0.0173963832549 -0.0452305964628 0.94 1.29685352407e-38
-0.0156567449294 -0.0452305964628 0.94 1.23264042324e-38
-0.0139171066039 -0.0452305964628 0.94 1.46248027632e-38
-0.0121515587715 -0.0451343611511 0.938 1.44371857144e-38
-0.0104156218041 -0.0451343611511 0.938 1.30610882016e-38
-0.00867968483676 -0.0451343611511 0.938 1.3801153157e-38
-0.00694374786941 -0.0451343611511 0.938 1.33416169438e-38
-0.00520781090205 -0.0451343611511 0.938 1.31561522894e-38
-0.0034718739347 -0.0451343611511 0.938 1.59115759066e-38
-0.00173593696735 -0.0451343611511 0.938 1.51729458809e-38
0.0 -0.0449900081837 0.935 1.47130509352e-38
0.00173038493014 -0.0449900081837 0.935 1.52576067289e-38
0.0034718739347 -0.0451343611511 0.938 1.68317245302e-38
0.00520781090205 -0.0451343611511 0.938 1.63696771902e-38
0.00694374786941 -0.0451343611511 0.938 1.46212154391e-38
0.00867968483676 -0.0451343611511 0.938 1.53627153241e-38
0.0104156218041 -0.0451343611511 0.938 1.40737897862e-38
0.0121515587715 -0.0451343611511 0.938 1.28792108713e-38
0.0138874957388 -0.0451343611511 0.938 1.64694047993e-38
0.0156567449294 -0.0452305964628 0.94 1.64593602919e-38
0.0173963832549 -0.0452305964628 0.94 1.62771242292e-38
0.0191360215804 -0.0452305964628 0.94 1.48145722064e-38
0.0209422843524 -0.0453749494302 0.943 1.5827273791e-38
0.0226874747151 -0.0453749494302 0.943 1.66498471999e-38
0.0245103935987 -0.0455193023976 0.946 1.79405663998e-38
0.0263166563707 -0.0456155377093 0.948 2.07067519892e-38
0.0280711001288 -0.0456155377093 0.948 1.98744928053e-38
0.0299199285194 -0.0457598906767 0.951 2.01485643641e-38
0.0316799243146 -0.0457598906767 0.951 2.10701479173e-38
0.0335454088169 -0.0459042436441 0.954 2.08889880519e-38
0.0353849838121 -0.0460004789557 0.956 2.34878165656e-38
-0.0353849838121 -0.0442312297651 0.956 1.61157591058e-38
-0.0335454088169 -0.0441386958117 0.954 1.48185364797e-38
-0.0317798609844 -0.0441386958117 0.954 1.36182388658e-38
-0.0300143131519 -0.0441386958117 0.954 1.35206244148e-38
-0.0282487653195 -0.0441386958117 0.954 1.13126264506e-38
-0.0263166563707 -0.0438610939512 0.948 1.25039767738e-38
-0.0245103935987 -0.0437685599977 0.946 1.47180787941e-38
-0.0227596511988 -0.0437685599977 0.946 1.56458406723e-38
-0.0210533250966 -0.0438610939512 0.948 1.48138547416e-38
-0.019258166399 -0.0437685599977 0.946 1.19536812616e-38
-0.0175074239991 -0.0437685599977 0.946 1.46237335724e-38
-0.0157067132643 -0.0436297590675 0.943 1.28795696038e-38
-0.0139171066039 -0.0434909581373 0.94 1.36117424462e-38
-0.0121515587715 -0.0433984241838 0.938 1.48066800934e-38
-0.0104156218041 -0.0433984241838 0.938 1.28784934065e-38
-0.00867968483676 -0.0433984241838 0.938 1.33430518734e-38
-0.00694374786941 -0.0433984241838 0.938 1.36171234323e-38
-0.00520781090205 -0.0433984241838 0.938 1.39794431632e-38
-0.0034718739347 -0.0433984241838 0.938 1.61913871839e-38
-0.00173593696735 -0.0433984241838 0.938 1.49885574237e-38
0.0 -0.0433984241838 0.938 1.52640639122e-38
0.00173593696735 -0.0433984241838 0.938 1.59058361881e-38
0.0034718739347 -0.0433984241838 0.938 1.57243175902e-38
0.00520781090205 -0.0433984241838 0.938 1.75696370911e-38
0.00694374786941 -0.0433984241838 0.938 1.60041288676e-38
0.00867968483676 -0.0433984241838 0.938 1.58215340725e-38
0.0104156218041 -0.0433984241838 0.938 1.75743062176e-38
0.0121515587715 -0.0433984241838 0.938 1.49035378433e-38
0.0139171066039 -0.0434909581373 0.94 1.68367467839e-38
0.0156567449294 -0.0434909581373 0.94 1.60016177407e-38
0.0173963832549 -0.0434909581373 0.94 1.64597190243e-38
0.0191970939897 -0.0436297590675 0.943 1.462731389e-38
0.0209422843524 -0.0436297590675 0.943 1.38886838643e-38
0.0226874747151 -0.0436297590675 0.943 1.8396515289e-38
0.0245103935987 -0.0437685599977 0.946 2.0518776208e-38
0.0263166563707 -0.0438610939512 0.948 1.95961164575e-38
0.0280711001288 -0.0438610939512 0.948 1.99630997098e-38
0.0299199285194 -0.0439998948814 0.951 2.09750838295e-38
0.0317798609844 -0.0441386958117 0.954 1.95014111021e-38
0.0336157346215 -0.0442312297651 0.956 2.24527082186e-38
0.0353849838121 -0.0442312297651 0.956 2.34899801705e-38
-0.0354960245563 -0.0425952294675 0.959 1.62998028435e-38
-0.0336157346215 -0.0424619805745 0.956 1.34356426695e-38
-0.0318464854309 -0.0424619805745 0.956 1.39948686567e-38
-0.0300143131519 -0.0423731479792 0.954 1.29764273536e-38
-0.0282487653195 -0.0423731479792 0.954 1.4259613173e-38
-0.0263999369289 -0.0422398990862 0.951 1.2872753688e-38
-0.0245103935987 -0.0420178175978 0.946 1.35184720204e-38
-0.0227596511988 -0.0420178175978 0.946 1.1306886732e-38
-0.0210533250966 -0.0421066501932 0.948 1.54509929234e-38
-0.019258166399 -0.0420178175978 0.946 1.74882048348e-38
-0.0175074239991 -0.0420178175978 0.946 1.61982087049e-38
-0.0157566815992 -0.0420178175978 0.946 1.35249292037e-38
-0.0139171066039 -0.0417513198118 0.94 1.37936197764e-38
-0.0121774682784 -0.0417513198118 0.94 1.44346745875e-38
-0.0104378299529 -0.0417513198118 0.94 1.24150111369e-38
-0.00869819162745 -0.0417513198118 0.94 1.37125462525e-38
-0.00694374786941 -0.0416624872164 0.938 1.40798882371e-38
-0.00520781090205 -0.0416624872164 0.938 1.47223779778e-38
-0.0034718739347 -0.0416624872164 0.938 1.31489776413e-38
-0.00173593696735 -0.0416624872164 0.938 1.58107721003e-38
0.0 -0.0416624872164 0.938 1.5077881793e-38
0.00173593696735 -0.0416624872164 0.938 1.57218064634e-38
0.0034718739347 -0.0416624872164 0.938 1.71097421455e-38
0.00520781090205 -0.0416624872164 0.938 1.41606030287e-38
0.00694374786941 -0.0416624872164 0.938 1.6373981979e-38
0.00867968483676 -0.0416624872164 0.938 1.5085773906e-38
0.0104156218041 -0.0416624872164 0.938 1.4995014607e-38
0.0121515587715 -0.0416624872164 0.938 1.46280313548e-38
0.0139171066039 -0.0417513198118 0.94 1.50836215115e-38
0.0156567449294 -0.0417513198118 0.94 1.54480936369e-38
0.0173963832549 -0.0417513198118 0.94 1.68274197413e-38
0.0191970939897 -0.0418845687048 0.943 1.84033438164e-38
0.0210089087989 -0.0420178175978 0.946 1.97898361611e-38
0.0227596511988 -0.0420178175978 0.946 1.94178656877e-38
0.0245622126127 -0.0421066501932 0.948 1.8952909252e-38
0.0263166563707 -0.0421066501932 0.948 1.98712642136e-38
0.0281599327241 -0.0422398990862 0.951 1.99609473153e-38
0.0300143131519 -0.0423731479792 0.954 2.10672780581e-38
0.0318464854309 -0.0424619805745 0.956 2.06106117041e-38
0.0336157346215 -0.0424619805745 0.956 2.18981023124e-38
0.0354960245563 -0.0425952294675 0.959 2.34878207695e-38
-0.0353849838121 -0.0406927313839 0.956 1.60214377062e-38
-0.0336157346215 -0.0406927313839 0.956 1.52770329295e-38
-0.0318464854309 -0.0406927313839 0.956 1.17840442734e-38
-0.0300143131519 -0.0406076001467 0.954 1.39988693638e-38
-0.0282487653195 -0.0406076001467 0.954 1.37093344764e-38
-0.0263999369289 -0.0404799032909 0.951 1.46301837493e-38
-0.0245622126127 -0.0403522064351 0.948 1.44429254329e-38
-0.0228077688546 -0.0403522064351 0.948 1.5085773906e-38
-0.0210533250966 -0.0403522064351 0.948 1.48095499527e-38
-0.0192988813385 -0.0403522064351 0.948 1.54563444823e-38
-0.0175074239991 -0.0402670751979 0.946 1.59148044983e-38
-0.0157566815992 -0.0402670751979 0.946 1.78537531574e-38
-0.0139615229016 -0.0401393783421 0.943 1.74879063582e-38
-0.0121774682784 -0.0400116814863 0.94 1.75811165282e-38
-0.0104378299529 -0.0400116814863 0.94 1.56472209513e-38
-0.00869819162745 -0.0400116814863 0.94 1.48181595305e-38
-0.00694374786941 -0.0399265502491 0.938 1.38007944246e-38
-0.00520781090205 -0.0399265502491 0.938 1.42545909193e-38
-0.0034718739347 -0.0399265502491 0.938 1.60037701352e-38
-0.00173593696735 -0.0399265502491 0.938 1.36981969562e-38
0.0 -0.0399265502491 0.938 1.452148783e-38
0.00173593696735 -0.0399265502491 0.938 1.5723241393e-38
0.00347927665098 -0.0400116814863 0.94 1.55435164571e-38
0.00521891497647 -0.0400116814863 0.94 1.5911934639e-38
0.00695855330196 -0.0400116814863 0.94 1.50803929199e-38
0.00869819162745 -0.0400116814863 0.94 1.58215340725e-38
0.0104378299529 -0.0400116814863 0.94 1.6931826286e-38
0.0121774682784 -0.0400116814863 0.94 1.83201052863e-38
0.0139171066039 -0.0400116814863 0.94 1.96105007863e-38
0.0157067132643 -0.0401393783421 0.943 2.03459582723e-38
0.017451903627 -0.0401393783421 0.943 1.96065813545e-38
0.019258166399 -0.0402670751979 0.946 1.75778879365e-38
0.0210089087989 -0.0402670751979 0.946 1.86791964256e-38
0.0227596511988 -0.0402670751979 0.946 1.94124454652e-38
0.0245622126127 -0.0403522064351 0.948 1.93180988422e-38
0.0263999369289 -0.0404799032909 0.951 2.01467707021e-38
0.0281599327241 -0.0404799032909 0.951 2.03315178916e-38
0.0300143131519 -0.0406076001467 0.954 2.06999360735e-38
0.0318464854309 -0.0406927313839 0.956 2.09790354912e-38
0.0337212233285 -0.0408204282397 0.959 2.30058777939e-38
0.0354960245563 -0.0408204282397 0.959 2.34899773679e-38
-0.0353849838121 -0.0389234821933 0.956 1.55604497478e-38
-0.0336157346215 -0.0389234821933 0.956 1.4263200497e-38
-0.0318464854309 -0.0389234821933 0.956 1.21521079268e-38
-0.0300143131519 -0.0388420523143 0.954 1.50137499675e-38
-0.0282487653195 -0.0388420523143 0.954 1.26101951974e-38
-0.0263999369289 -0.0387199074957 0.951 1.41735776512e-38
-0.0245622126127 -0.0385977626771 0.948 1.39873352762e-38
-0.0228077688546 -0.0385977626771 0.948 1.50846977088e-38
-0.0210533250966 -0.0385977626771 0.948 1.5453474623e-38
-0.0192988813385 -0.0385977626771 0.948 1.57293398439e-38
-0.0175074239991 -0.038516332798 0.946 1.57286223791e-38
-0.0157566815992 -0.038516332798 0.946 1.80345626982e-38
-0.0140059391993 -0.038516332798 0.946 1.25025418441e-38
-0.0122163325389 -0.0383941879794 0.943 1.34212555381e-38
-0.0104378299529 -0.0382720431608 0.94 1.56407567615e-38
-0.00869819162745 -0.0382720431608 0.94 1.54592143415e-38
-0.00694374786941 -0.0381906132817 0.938 1.61996380293e-38
-0.00520781090205 -0.0381906132817 0.938 1.86856578128e-38
-0.00347927665098 -0.0382720431608 0.94 1.89630420412e-38
-0.00173963832549 -0.0382720431608 0.94 1.85034693943e-38
0.0 -0.0381906132817 0.938 1.9425073967e-38
0.00173593696735 -0.0381906132817 0.938 1.83194270578e-38
0.00347927665098 -0.0382720431608 0.94 1.7115481864e-38
0.00521891497647 -0.0382720431608 0.94 1.88643023475e-38
0.00695855330196 -0.0382720431608 0.94 1.95136514442e-38
0.00869819162745 -0.0382720431608 0.94 1.88711182632e-38
0.0104378299529 -0.0382720431608 0.94 1.77644287881e-38
0.0121774682784 -0.0382720431608 0.94 1.79412838646e-38
0.0139615229016 -0.0383941879794 0.943 1.57279049143e-38
0.0157067132643 -0.0383941879794 0.943 1.41552220426e-38
0.0175074239991 -0.038516332798 0.946 1.5721447731e-38
0.019258166399 -0.038516332798 0.946 1.69239201601e-38
0.0210533250966 -0.0385977626771 0.948 1.95103794123e-38
0.0228077688546 -0.0385977626771 0.948 1.9228422747e-38
0.0246399411336 -0.0387199074957 0.951 1.98705467488e-38
0.026483217487 -0.0388420523143 0.954 1.98705467488e-38
0.0282487653195 -0.0388420523143 0.954 2.04240708526e-38
0.0300143131519 -0.0388420523143 0.954 2.09765187591e-38
0.0318464854309 -0.0389234821933 0.956 2.08843245306e-38
0.0337212233285 -0.0390456270119 0.959 2.2822579547e-38
0.0354960245563 -0.0390456270119 0.959 2.34921381701e-38
-0.0353849838121 -0.0371542330027 0.956 1.57466486825e-38
-0.0336157346215 -0.0371542330027 0.956 1.41732091097e-38
-0.0318464854309 -0.0371542330027 0.956 1.27953095271e-38
-0.0300772362403 -0.0371542330027 0.956 1.33546125858e-38
-0.0282487653195 -0.0370765044818 0.954 1.57502163884e-38
-0.026483217487 -0.0370765044818 0.954 1.31665905617e-38
-0.0246399411336 -0.0369599117004 0.951 1.33502811722e-38
-0.0228799453383 -0.0369599117004 0.951 1.44494204513e-38
-0.0211199495431 -0.0369599117004 0.951 1.49042553081e-38
-0.0192988813385 -0.036843318919 0.948 1.57289811115e-38
-0.0175444375805 -0.036843318919 0.948 1.59133695686e-38
-0.0157566815992 -0.0367655903981 0.946 1.77554604779e-38
-0.0140059391993 -0.0367655903981 0.946 1.69328870689e-38
-0.0122551967994 -0.0367655903981 0.946 1.69361156606e-38
-0.0105044543995 -0.0367655903981 0.946 1.5736514492e-38
-0.00875371199954 -0.0367655903981 0.946 1.52733909548e-38
-0.0069807614508 -0.0366489976167 0.943 1.31486189089e-38
-0.0052355710881 -0.0366489976167 0.943 1.48016578397e-38
-0.00347927665098 -0.0365324048353 0.94 1.452148783e-38
-0.00173963832549 -0.0365324048353 0.94 1.31360632747e-38
0.0 -0.0365324048353 0.94 1.48931346035e-38
0.00173963832549 -0.0365324048353 0.94 1.82175078179e-38
0.00347927665098 -0.0365324048353 0.94 1.72051649658e-38
0.0052355710881 -0.0366489976167 0.943 1.90461796778e-38
0.00695855330196 -0.0365324048353 0.94 2.13560996846e-38
0.00869819162745 -0.0365324048353 0.94 1.90609073247e-38
0.0104711421762 -0.0366489976167 0.943 1.57358811051e-38
0.0122163325389 -0.0366489976167 0.943 1.84948079684e-38
0.0139615229016 -0.0366489976167 0.943 1.60055637972e-38
0.0157566815992 -0.0367655903981 0.946 1.38847378078e-38
0.0175074239991 -0.0367655903981 0.946 1.58215340725e-38
0.0192988813385 -0.036843318919 0.948 1.60055637972e-38
0.0210533250966 -0.036843318919 0.948 1.87735430486e-38
0.0228077688546 -0.036843318919 0.948 1.90458209454e-38
0.0246399411336 -0.0369599117004 0.951 1.98705467488e-38
0.026483217487 -0.0370765044818 0.954 2.01460532373e-38
0.0282487653195 -0.0370765044818 0.954 2.04219184581e-38
0.0300143131519 -0.0370765044818 0.954 2.05137539543e-38
0.0318464854309 -0.0371542330027 0.956 2.20814243814e-38
0.0337212233285 -0.0372708257841 0.959 2.26374554081e-38
-0.0357921332074 -0.0357921332074 0.967 1.49172313319e-38
-0.0337212233285 -0.0354960245563 0.959 1.54646219523e-38
-0.0318464854309 -0.0353849838121 0.956 1.15013883602e-38
-0.0300772362403 -0.0353849838121 0.956 1.27028462492e-38
-0.0283079870497 -0.0353849838121 0.956 1.31680535173e-38
-0.026483217487 -0.0353109566493 0.954 1.54704303344e-38
-0.0246399411336 -0.0351999159051 0.951 1.53821597416e-38
-0.0228799453383 -0.0351999159051 0.951 1.27946214895e-38
-0.0211199495431 -0.0351999159051 0.951 1.38059063614e-38
-0.0193599537478 -0.0351999159051 0.951 1.47264389408e-38
-0.0175444375805 -0.035088875161 0.948 1.42621242998e-38
-0.0157899938224 -0.035088875161 0.948 1.7206602698e-38
-0.0140059391993 -0.0350148479982 0.946 1.15834694177e-38
-0.0122551967994 -0.0350148479982 0.946 1.29606431277e-38
-0.0105044543995 -0.0350148479982 0.946 1.73917128238e-38
-0.00875371199954 -0.0350148479982 0.946 1.50886437652e-38
-0.00700296959964 -0.0350148479982 0.946 1.5921620414e-38
-0.00525222719973 -0.0350148479982 0.946 1.84079975286e-38
-0.0034903807254 -0.034903807254 0.943 1.85935182349e-38
-0.0017451903627 -0.034903807254 0.943 1.64708397289e-38
0.0 -0.034903807254 0.943 1.95118605848e-38
0.0017451903627 -0.034903807254 0.943 1.95139751441e-38
0.0034903807254 -0.034903807254 0.943 1.711189454e-38
0.0052355710881 -0.034903807254 0.943 1.94149565921e-38
0.0069807614508 -0.034903807254 0.943 2.03379876866e-38
0.0087259518135 -0.034903807254 0.943 1.65670710983e-38
0.0104711421762 -0.034903807254 0.943 2.1177179094e-38
0.0122551967994 -0.0350148479982 0.946 1.7947741048e-38
0.0140059391993 -0.0350148479982 0.946 1.47148445973e-38
0.0157566815992 -0.0350148479982 0.946 1.44303697986e-38
0.0175444375805 -0.035088875161 0.948 1.81242373921e-38
0.0192988813385 -0.035088875161 0.948 1.78494483685e-38
0.0210533250966 -0.035088875161 0.948 1.9507509553e-38
0.0228799453383 -0.0351999159051 0.951 1.95060746234e-38
0.0246399411336 -0.0351999159051 0.951 2.01471294345e-38
0.026483217487 -0.0353109566493 0.954 2.01485643641e-38
0.0283079870497 -0.0353849838121 0.956 2.0516982546e-38
0.0300772362403 -0.0353849838121 0.956 2.06999360735e-38
0.0319464221007 -0.0354960245563 0.959 2.2818612471e-38
0.0337212233285 -0.0354960245563 0.959 2.34686538091e-38
-0.0374651470864 -0.0338970378401 0.964 2.34856557634e-38
-0.0356810924633 -0.0338970378401 0.964 1.48239693139e-38
-0.0338267120354 -0.0338267120354 0.962 1.32533687717e-38
-0.0319464221007 -0.0337212233285 0.959 1.3438903491e-38
-0.0301716208728 -0.0337212233285 0.959 1.09467698423e-38
-0.0283079870497 -0.0336157346215 0.956 1.52878117173e-38
-0.0265387378591 -0.0336157346215 0.956 1.15067188996e-38
-0.0246399411336 -0.0334399201099 0.951 1.4179370619e-38
-0.0228799453383 -0.0334399201099 0.951 1.67622579614e-38
-0.0211199495431 -0.0334399201099 0.951 1.61172234627e-38
-0.0193599537478 -0.0334399201099 0.951 1.32606064783e-38
-0.0175444375805 -0.0333344314029 0.948 1.796041299e-38
-0.0157899938224 -0.0333344314029 0.948 1.76799010634e-38
-0.0140355500644 -0.0333344314029 0.948 1.41735748486e-38
-0.0122811063063 -0.0333344314029 0.948 1.2976786086e-38
-0.0105044543995 -0.0332641055983 0.946 1.79509752448e-38
-0.00875371199954 -0.0332641055983 0.946 1.34327349751e-38
-0.00700296959964 -0.0332641055983 0.946 1.20426468985e-38
-0.00525222719973 -0.0332641055983 0.946 1.47065937519e-38
-0.0034903807254 -0.0331586168913 0.943 1.63819343478e-38
-0.0017451903627 -0.0331586168913 0.943 1.24067602915e-38
0.0 -0.0331586168913 0.943 1.30406404544e-38
0.0017451903627 -0.0331586168913 0.943 1.95082494386e-38
0.0034903807254 -0.0331586168913 0.943 1.72955655323e-38
0.0052355710881 -0.0331586168913 0.943 1.99684820972e-38
0.0069807614508 -0.0331586168913 0.943 1.72944893351e-38
0.0087259518135 -0.0331586168913 0.943 1.83064734548e-38
0.0105044543995 -0.0332641055983 0.946 1.74788777922e-38
0.0122551967994 -0.0332641055983 0.946 1.90443860158e-38
0.0140059391993 -0.0332641055983 0.946 1.7481388919e-38
0.0157899938224 -0.0333344314029 0.948 1.74839000459e-38
0.0175444375805 -0.0333344314029 0.948 1.68371055163e-38
0.0192988813385 -0.0333344314029 0.948 1.95961164575e-38
0.0211199495431 -0.0334399201099 0.951 1.97801461822e-38
0.0228799453383 -0.0334399201099 0.951 1.91369431806e-38
0.0247176696545 -0.0335454088169 0.954 1.98705467488e-38
0.026483217487 -0.0335454088169 0.954 2.03315178916e-38
0.0283079870497 -0.0336157346215 0.956 2.04240708526e-38
0.0300772362403 -0.0336157346215 0.956 2.06063069153e-38
0.0319464221007 -0.0337212233285 0.959 2.2356203596e-38
0.0337212233285 -0.0337212233285 0.959 2.34686762299e-38
-0.0374651470864 -0.0321129832169 0.964 2.18261610505e-38
-0.0356810924633 -0.0321129832169 0.964 1.54686324685e-38
-0.0338267120354 -0.0320463587704 0.962 1.46356025704e-38
-0.0319464221007 -0.0319464221007 0.959 1.34424796047e-38
-0.0301716208728 -0.0319464221007 0.959 1.20616597161e-38
-0.028396819645 -0.0319464221007 0.959 1.3349632371e-38
-0.0265387378591 -0.0318464854309 0.956 1.36282553473e-38
-0.0247176696545 -0.0317798609844 0.954 1.36254961906e-38
-0.0229521218221 -0.0317798609844 0.954 1.49186984914e-38
-0.0211865739896 -0.0317798609844 0.954 1.62983707165e-38
-0.0194210261571 -0.0317798609844 0.954 1.6392015289e-38
-0.0175999579526 -0.0316799243146 0.951 1.74969391281e-38
-0.0158399621573 -0.0316799243146 0.951 1.68515823307e-38
-0.0140355500644 -0.0315799876449 0.948 1.39949891684e-38
-0.0122811063063 -0.0315799876449 0.948 1.42715564398e-38
-0.0105266625483 -0.0315799876449 0.948 1.98914569245e-38
-0.00875371199954 -0.0315133631984 0.946 1.48193099965e-38
-0.00700296959964 -0.0315133631984 0.946 1.59224485814e-38
-0.00525222719973 -0.0315133631984 0.946 1.63884559909e-38
-0.00350148479982 -0.0315133631984 0.946 1.84202588901e-38
-0.00175074239991 -0.0315133631984 0.946 1.47285492963e-38
0.0 -0.0315133631984 0.946 1.71270776088e-38
0.00175074239991 -0.0315133631984 0.946 1.90599208105e-38
0.00350148479982 -0.0315133631984 0.946 1.60966818285e-38
0.00525222719973 -0.0315133631984 0.946 2.07056926075e-38
0.00700296959964 -0.0315133631984 0.946 1.71104596103e-38
0.00875371199954 -0.0315133631984 0.946 1.76603963901e-38
0.0105044543995 -0.0315133631984 0.946 1.83018099335e-38
0.0122551967994 -0.0315133631984 0.946 1.94106518032e-38
0.0140355500644 -0.0315799876449 0.948 1.52651401094e-38
0.0157899938224 -0.0315799876449 0.948 1.44407730384e-38
0.0175444375805 -0.0315799876449 0.948 1.43457089506e-38
0.0192988813385 -0.0315799876449 0.948 2.00599700713e-38
0.0211199495431 -0.0316799243146 0.951 1.94124454652e-38
0.0229521218221 -0.0317798609844 0.954 1.96890281509e-38
0.0247176696545 -0.0317798609844 0.954 1.99634584422e-38
0.026483217487 -0.0317798609844 0.954 1.9871622946e-38
0.0283079870497 -0.0318464854309 0.956 2.16208021619e-38
0.0300772362403 -0.0318464854309 0.956 2.20824907695e-38
0.0319464221007 -0.0319464221007 0.959 2.18981023124e-38
0.0338267120354 -0.0320463587704 0.962 2.34708188153e-38
-0.0374651470864 -0.0303289285938 0.964 2.0997476579e-38
-0.0356810924633 -0.0303289285938 0.964 1.45498809395e-38
-0.0338970378401 -0.0303289285938 0.964 1.43597289418e-38
-0.0320463587704 -0.0302660055054 0.962 1.23379215044e-38
-0.0302660055054 -0.0302660055054 0.962 1.29861649766e-38
-0.0284856522404 -0.0302660055054 0.962 1.19691586032e-38
-0.0266220184172 -0.0301716208728 0.959 1.47332310344e-38
-0.0247176696545 -0.0300143131519 0.954 1.60214082789e-38
-0.0229521218221 -0.0300143131519 0.954 1.30729852256e-38
-0.0212309902873 -0.0300772362403 0.956 1.58406744082e-38
-0.0194210261571 -0.0300143131519 0.954 1.60235788902e-38
-0.0176554783247 -0.0300143131519 0.954 1.62969638128e-38
-0.0158399621573 -0.0299199285194 0.951 1.72199766905e-38
-0.0140799663621 -0.0299199285194 0.951 1.28861010559e-38
-0.0122811063063 -0.0298255438868 0.948 1.41739433901e-38
-0.0105266625483 -0.0298255438868 0.948 1.82326432426e-38
-0.00877221879024 -0.0298255438868 0.948 1.39016402699e-38
-0.00701777503219 -0.0298255438868 0.948 1.55669797986e-38
-0.00526333127414 -0.0298255438868 0.948 1.44667222834e-38
-0.0035088875161 -0.0298255438868 0.948 1.67690346408e-38
-0.00175074239991 -0.0297626207984 0.946 1.31684612952e-38
0.0 -0.0297626207984 0.946 1.56613250203e-38
0.00175074239991 -0.0297626207984 0.946 1.71299460668e-38
0.00350148479982 -0.0297626207984 0.946 1.71122532724e-38
0.00526333127414 -0.0298255438868 0.948 1.95064333558e-38
0.00701777503219 -0.0298255438868 0.948 2.34737124966e-38
0.00877221879024 -0.0298255438868 0.948 2.04403399277e-38
0.0105266625483 -0.0298255438868 0.948 2.02519773882e-38
0.0122811063063 -0.0298255438868 0.948 1.9045462213e-38
0.0140355500644 -0.0298255438868 0.948 1.50818278495e-38
0.0158399621573 -0.0299199285194 0.951 1.416526655e-38
0.0175999579526 -0.0299199285194 0.951 1.84044396318e-38
0.0194210261571 -0.0300143131519 0.954 1.86781202284e-38
0.0211865739896 -0.0300143131519 0.954 2.16272621478e-38
0.0229521218221 -0.0300143131519 0.954 1.8585208535e-38
0.0247694886685 -0.0300772362403 0.956 1.96861582916e-38
0.0265387378591 -0.0300772362403 0.956 2.00563701355e-38
0.0283079870497 -0.0300772362403 0.956 2.15275317361e-38
0.0301716208728 -0.0301716208728 0.959 2.18037556894e-38
0.0319464221007 -0.0301716208728 0.959 2.16193672323e-38
0.0338267120354 -0.0302660055054 0.962 2.34773040246e-38
-0.0357921332074 -0.028633706566 0.967 1.53774737995e-38
-0.0338970378401 -0.0285448739706 0.964 1.4267219421e-38
-0.0321129832169 -0.0285448739706 0.964 1.15067217021e-38
-0.0303289285938 -0.0285448739706 0.964 1.23426060452e-38
-0.0284856522404 -0.0284856522404 0.962 1.20649303467e-38
-0.0266220184172 -0.028396819645 0.959 1.30715811245e-38
-0.0247694886685 -0.0283079870497 0.956 1.3161901817e-38
-0.0230002394779 -0.0283079870497 0.956 1.39063612444e-38
-0.0212309902873 -0.0283079870497 0.956 1.15088923135e-38
-0.0194210261571 -0.0282487653195 0.954 1.3901650079e-38
-0.0176554783247 -0.0282487653195 0.954 1.72221627161e-38
-0.0158399621573 -0.0281599327241 0.951 1.68519172411e-38
-0.0140799663621 -0.0281599327241 0.951 1.51920231581e-38
-0.0123199705668 -0.0281599327241 0.951 1.36247198712e-38
-0.0105599747715 -0.0281599327241 0.951 1.80486457478e-38
-0.00877221879024 -0.0280711001288 0.948 1.57473675486e-38
-0.00701777503219 -0.0280711001288 0.948 1.464751641e-38
-0.00526333127414 -0.0280711001288 0.948 1.46439038625e-38
-0.0035088875161 -0.0280711001288 0.948 1.62065057931e-38
-0.00175444375805 -0.0280711001288 0.948 1.3902063462e-38
0.0 -0.0280711001288 0.948 1.50066005428e-38
0.00175444375805 -0.0280711001288 0.948 1.64763356215e-38
0.0035088875161 -0.0280711001288 0.948 1.74781603274e-38
0.00526333127414 -0.0280711001288 0.948 2.02432711208e-38
0.00701777503219 -0.0280711001288 0.948 1.93220448987e-38
0.00877221879024 -0.0280711001288 0.948 2.07143904671e-38
0.0105599747715 -0.0281599327241 0.951 1.78563161323e-38
0.0123199705668 -0.0281599327241 0.951 1.86774027635e-38
0.0140799663621 -0.0281599327241 0.951 1.55392116683e-38
0.0158399621573 -0.0281599327241 0.951 1.81228024625e-38
0.0176554783247 -0.0282487653195 0.954 2.05234495384e-38
0.0194617410967 -0.0283079870497 0.956 2.04341686093e-38
0.0212309902873 -0.0283079870497 0.956 1.65612402954e-38
0.0230002394779 -0.0283079870497 0.956 1.57257525198e-38
0.0247694886685 -0.0283079870497 0.956 2.08839686008e-38
0.0266220184172 -0.028396819645 0.959 1.98712642136e-38
0.028396819645 -0.028396819645 0.959 2.16193672323e-38
0.0301716208728 -0.028396819645 0.959 2.15275317361e-38
0.0321129832169 -0.0285448739706 0.964 2.2263650635e-38
0.0340025265471 -0.028633706566 0.967 2.34755229742e-38
-0.0357921332074 -0.0268440999056 0.967 1.36239939986e-38
-0.0340025265471 -0.0268440999056 0.967 1.33495174645e-38
-0.0322129198867 -0.0268440999056 0.967 1.20620478758e-38
-0.0304233132263 -0.0268440999056 0.967 1.11440502453e-38
-0.0285448739706 -0.0267608193474 0.964 1.07752453051e-38
-0.0267052989754 -0.0267052989754 0.962 1.63002106214e-38
-0.0247694886685 -0.0265387378591 0.956 1.5934320382e-38
-0.0230002394779 -0.0265387378591 0.956 1.22457539005e-38
-0.0212309902873 -0.0265387378591 0.956 1.44577203421e-38
-0.0194617410967 -0.0265387378591 0.956 1.36294086159e-38
-0.0176554783247 -0.026483217487 0.954 1.65803526052e-38
-0.0158899304922 -0.026483217487 0.954 1.73128813774e-38
-0.0140799663621 -0.0263999369289 0.951 1.27038173491e-38
-0.0123199705668 -0.0263999369289 0.951 1.55612540931e-38
-0.0105599747715 -0.0263999369289 0.951 1.74076091536e-38
-0.00877221879024 -0.0263166563707 0.948 1.65757185112e-38
-0.00701777503219 -0.0263166563707 0.948 1.60228978592e-38
-0.00526333127414 -0.0263166563707 0.948 1.77738118826e-38
-0.0035088875161 -0.0263166563707 0.948 1.97045447288e-38
-0.00175444375805 -0.0263166563707 0.948 1.24261514596e-38
0.0 -0.0263166563707 0.948 1.59231674475e-38
0.00175444375805 -0.0263166563707 0.948 1.87833171054e-38
0.0035088875161 -0.0263166563707 0.948 1.73856073664e-38
0.00526333127414 -0.0263166563707 0.948 2.06134927738e-38
0.00701777503219 -0.0263166563707 0.948 1.80356304877e-38
0.00879997897629 -0.0263999369289 0.951 1.84015375427e-38
0.0105599747715 -0.0263999369289 0.951 1.94174677189e-38
0.0123199705668 -0.0263999369289 0.951 1.93306544764e-38
0.0141243826597 -0.026483217487 0.954 1.79459473859e-38
0.0158899304922 -0.026483217487 0.954 1.80349130228e-38
0.0176554783247 -0.026483217487 0.954 1.64604364891e-38
0.0194617410967 -0.0265387378591 0.956 1.65519132529e-38
0.0212309902873 -0.0265387378591 0.956 1.68371055163e-38
0.0230724159616 -0.0266220184172 0.959 1.4991427283e-38
0.0248472171894 -0.0266220184172 0.959 2.07928519707e-38
0.0266220184172 -0.0266220184172 0.959 2.19906552734e-38
0.0284856522404 -0.0267052989754 0.962 2.15314777926e-38
0.0303289285938 -0.0267608193474 0.964 2.1344936941e-38
0.0321129832169 -0.0267608193474 0.964 2.15271730037e-38
0.0340025265471 -0.0268440999056 0.967 2.34830661638e-38
-0.034108015254 -0.0251322217661 0.97 1.31626234858e-38
-0.0323128565565 -0.0251322217661 0.97 1.11383091255e-38
-0.0305176978589 -0.0251322217661 0.97 1.2616344095e-38
-0.028633706566 -0.0250544932452 0.967 1.11444159842e-38
-0.0267608193474 -0.0249767647243 0.964 1.00287596001e-38
-0.0248472171894 -0.0248472171894 0.959 1.45456195908e-38
-0.0230724159616 -0.0248472171894 0.959 1.66714496171e-38
-0.0212309902873 -0.0247694886685 0.956 1.61179227107e-38
-0.0194617410967 -0.0247694886685 0.956 1.35364674953e-38
-0.0176924919061 -0.0247694886685 0.956 1.15009609642e-38
-0.0158899304922 -0.0247176696545 0.954 1.72167172703e-38
-0.0140799663621 -0.0246399411336 0.951 1.56558711667e-38
-0.0123199705668 -0.0246399411336 0.951 1.427481586e-38
-0.0105599747715 -0.0246399411336 0.951 1.75005264522e-38
-0.00879997897629 -0.0246399411336 0.951 1.57451941347e-38
-0.00703998318103 -0.0246399411336 0.951 1.4912954569e-38
-0.00526333127414 -0.0245622126127 0.948 1.87886896837e-38
-0.0035088875161 -0.0245622126127 0.948 1.97070502505e-38
-0.00175999579526 -0.0246399411336 0.951 1.3624314896e-38
0.0 -0.0245622126127 0.948 1.620620031e-38
0.00175444375805 -0.0245622126127 0.948 1.82362936251e-38
0.0035088875161 -0.0245622126127 0.948 1.57318509708e-38
0.00526333127414 -0.0245622126127 0.948 1.46208567067e-38
0.00703998318103 -0.0246399411336 0.951 1.85837848157e-38
0.00879997897629 -0.0246399411336 0.951 1.81220849977e-38
0.0105932869948 -0.0247176696545 0.954 1.30549897507e-38
0.0123588348273 -0.0247176696545 0.954 1.40658976733e-38
0.0141243826597 -0.0247176696545 0.954 1.47184319214e-38
0.0159232427154 -0.0247694886685 0.956 1.684212777e-38
0.0176924919061 -0.0247694886685 0.956 1.60948881665e-38
0.019522813506 -0.0248472171894 0.959 1.62792766236e-38
0.0212976147338 -0.0248472171894 0.959 1.6651640862e-38
0.0230724159616 -0.0248472171894 0.959 1.81235199273e-38
0.0248472171894 -0.0248472171894 0.959 2.10672780581e-38
0.0267052989754 -0.0249249457103 0.962 2.14349787751e-38
0.0285448739706 -0.0249767647243 0.964 2.06967074818e-38
0.0303289285938 -0.0249767647243 0.964 2.17137138553e-38
0.0322129198867 -0.0250544932452 0.967 2.13445782086e-38
0.0340025265471 -0.0250544932452 0.967 2.34849004635e-38
-0.0363103233469 -0.0236017101755 0.981 1.12279768129e-38
-0.0342838297657 -0.0234573572081 0.975 1.38011601635e-38
-0.0324127932262 -0.0234092395523 0.973 1.20577416856e-38
-0.0304233132263 -0.0232648865848 0.967 1.39974470459e-38
-0.028633706566 -0.0232648865848 0.967 1.17890665271e-38
-0.0267608193474 -0.0231927101011 0.964 1.5749162612e-38
-0.0248472171894 -0.0230724159616 0.959 1.24272080387e-38
-0.0230724159616 -0.0230724159616 0.959 1.31640444024e-38
-0.0212976147338 -0.0230724159616 0.959 1.60185818599e-38
-0.0194617410967 -0.0230002394779 0.956 1.71263587427e-38
-0.0176924919061 -0.0230002394779 0.956 1.67590335737e-38
-0.0159232427154 -0.0230002394779 0.956 1.66661008608e-38
-0.0141243826597 -0.0229521218221 0.954 1.55626455825e-38
-0.0123588348273 -0.0229521218221 0.954 1.35314858792e-38
-0.0105932869948 -0.0229521218221 0.954 1.80493618113e-38
-0.00882773916233 -0.0229521218221 0.954 1.41775012869e-38
-0.00703998318103 -0.0228799453383 0.951 1.52831271765e-38
-0.00527998738577 -0.0228799453383 0.951 1.79553907363e-38
-0.00351999159051 -0.0228799453383 0.951 1.95201632782e-38
-0.00175999579526 -0.0228799453383 0.951 1.38094838764e-38
0.0 -0.0228799453383 0.951 1.6674360114e-38
0.00175999579526 -0.0228799453383 0.951 1.74086615287e-38
0.00351999159051 -0.0228799453383 0.951 1.33373121549e-38
0.00527998738577 -0.0228799453383 0.951 1.37060890692e-38
0.00703998318103 -0.0228799453383 0.951 1.56407329394e-38
0.00879997897629 -0.0228799453383 0.951 1.88614324883e-38
0.0105932869948 -0.0229521218221 0.954 1.50846977088e-38
0.0123588348273 -0.0229521218221 0.954 1.56389392774e-38
0.0141539935248 -0.0230002394779 0.956 1.34280714539e-38
0.0159232427154 -0.0230002394779 0.956 1.84080101403e-38
0.0176924919061 -0.0230002394779 0.956 1.54513222286e-38
0.019522813506 -0.0230724159616 0.959 1.7845502312e-38
0.0212976147338 -0.0230724159616 0.959 1.86791964256e-38
0.0231445924453 -0.0231445924453 0.962 2.00588812624e-38
0.0249249457103 -0.0231445924453 0.962 2.1344936941e-38
0.0267608193474 -0.0231927101011 0.964 2.14353375075e-38
0.028633706566 -0.0232648865848 0.967 2.15253793417e-38
0.0304233132263 -0.0232648865848 0.967 2.19906552734e-38
0.0322129198867 -0.0232648865848 0.967 2.10697891849e-38
0.034108015254 -0.0233370630686 0.97 2.34813397641e-38
-0.0363103233469 -0.0217861940082 0.981 1.25176338286e-38
-0.0343893184726 -0.0217195695617 0.978 1.19579860505e-38
-0.0324794176727 -0.0216529451152 0.975 1.50022298928e-38
-0.0304233132263 -0.0214752799245 0.967 1.37225977664e-38
-0.028633706566 -0.0214752799245 0.967 1.36315287805e-38
-0.0267052989754 -0.0213642391803 0.962 1.15052867725e-38
-0.0248472171894 -0.0212976147338 0.959 1.50058970909e-38
-0.0230724159616 -0.0212976147338 0.959 1.55654593898e-38
-0.0212976147338 -0.0212976147338 0.959 1.47306722634e-38
-0.019522813506 -0.0212976147338 0.959 1.74958250958e-38
-0.0176924919061 -0.0212309902873 0.956 1.66678566878e-38
-0.0159232427154 -0.0212309902873 0.956 1.71284873151e-38
-0.0141243826597 -0.0211865739896 0.954 1.32552339e-38
-0.0123588348273 -0.0211865739896 0.954 1.5743735383e-38
-0.0106154951436 -0.0212309902873 0.956 1.79582507865e-38
-0.00882773916233 -0.0211865739896 0.954 1.51941937695e-38
-0.00703998318103 -0.0211199495431 0.951 1.62105359275e-38
-0.00527998738577 -0.0211199495431 0.951 1.74987089681e-38
-0.00351999159051 -0.0211199495431 0.951 2.01658984261e-38
-0.00175999579526 -0.0211199495431 0.951 1.47364554222e-38
0.0 -0.0211199495431 0.951 1.67683746292e-38
0.00175999579526 -0.0211199495431 0.951 1.80490142893e-38
0.00351999159051 -0.0211199495431 0.951 1.4625520228e-38
0.00527998738577 -0.0211199495431 0.951 1.42581782433e-38
0.00703998318103 -0.0211199495431 0.951 1.49917860154e-38
0.00879997897629 -0.0211199495431 0.951 1.73884772257e-38
0.0105932869948 -0.0211865739896 0.954 1.56353519533e-38
0.0123588348273 -0.0211865739896 0.954 1.60069987268e-38
0.0141539935248 -0.0212309902873 0.956 1.52751846168e-38
0.0159232427154 -0.0212309902873 0.956 1.54563444823e-38
0.0177480122781 -0.0212976147338 0.959 1.92284199444e-38
0.019522813506 -0.0212976147338 0.959 1.96901043481e-38
0.0212976147338 -0.0212976147338 0.959 1.97787112526e-38
0.0231445924453 -0.0213642391803 0.962 2.10665605933e-38
0.0249767647243 -0.021408655478 0.964 2.11605484839e-38
0.0268440999056 -0.0214752799245 0.967 2.16186497674e-38
0.028633706566 -0.0214752799245 0.967 2.15275317361e-38
0.0304233132263 -0.0214752799245 0.967 2.20824907695e-38
0.0323128565565 -0.021541904371 0.97 1.95035634966e-38
0.034108015254 -0.021541904371 0.97 2.34870878904e-38
-0.0363103233469 -0.0199706778408 0.981 1.28846395016e-38
-0.0343893184726 -0.0199096054315 0.978 1.23281978944e-38
-0.0324794176727 -0.0198485330222 0.975 1.17692928045e-38
-0.0304233132263 -0.0196856732641 0.967 1.45426880744e-38
-0.028633706566 -0.0196856732641 0.967 1.5192684571e-38
-0.0267052989754 -0.0195838859153 0.962 1.57463109696e-38
-0.0249249457103 -0.0195838859153 0.962 1.32584330644e-38
-0.0231445924453 -0.0195838859153 0.962 1.09517416492e-38
-0.0212976147338 -0.019522813506 0.959 1.53775284502e-38
-0.019522813506 -0.019522813506 0.959 1.59313636422e-38
-0.0177480122781 -0.019522813506 0.959 1.63909194736e-38
