# .PCD v0.7 - Point Cloud Data file format
VERSION 0.7
FIELDS x y z rgb
SIZE 4 4 4 4
TYPE F F F F
COUNT 1 1 1 1
WIDTH 841
HEIGHT 1
VIEWPOINT 0 0 0 1 0 0 0
POINTS 841
DATA ascii
0.00477475199975 -0.0350148479982 0.86 1.85841379429e-38
0.00635153056711 -0.0349334181191 0.858 1.84922968416e-38
0.0079023996275 -0.034770558361 0.854 1.85819799433e-38
0.00948287955299 -0.034770558361 0.854 1.90415161565e-38
0.0110633594785 -0.034770558361 0.854 1.84890682499e-38
0.0125994231063 -0.0346484135424 0.851 1.8856768967e-38
0.0141410387714 -0.0345669836633 0.849 1.89489631955e-38
0.0156752517201 -0.0344855537843 0.847 1.94074232115e-38
0.0172020619526 -0.0344041239052 0.845 1.94059882819e-38
0.0187214694688 -0.0343226940261 0.843 1.91297643286e-38
0.0202334742687 -0.0342412641471 0.841 1.94059882819e-38
0.0217380763524 -0.034159834268 0.839 2.0143183378e-38
0.0232907960918 -0.034159834268 0.839 1.99602298505e-38
0.0248435158313 -0.034159834268 0.839 2.05133952219e-38
0.0263962355707 -0.034159834268 0.839 2.03290067648e-38
0.0279489553102 -0.034159834268 0.839 2.00513478818e-38
0.0295720008543 -0.0342412641471 0.841 2.34665126251e-38
0.0311284219519 -0.0342412641471 0.841 1.99588327559e-38
0.0326848430495 -0.0342412641471 0.841 2.05119602923e-38
0.0342412641471 -0.0342412641471 0.841 2.10626145368e-38
0.0358828164819 -0.0343226940261 0.843 2.12527427124e-38
0.0374429389376 -0.0343226940261 0.843 1.14794370197e-38
0.0390030613933 -0.0343226940261 0.843 2.20075703471e-38
0.0406594191607 -0.0344041239052 0.845 1.56511361792e-38
0.0423231796443 -0.0344855537843 0.847 1.38944235828e-38
0.0439943428442 -0.0345669836633 0.849 2.34959440967e-38
0.0455655693744 -0.0345669836633 0.849 9.84325851203e-39
0.0472478366487 -0.0346484135424 0.851 2.34946002515e-38
0.0491096197928 -0.03485198824 0.856 8.17802267935e-39
0.0508122445369 -0.0349334181191 0.858 1.32336539036e-38
0.0526444168159 -0.0350962778772 0.862 1.82221713392e-38
0.0543655483507 -0.0351777077563 0.864 2.34669512315e-38
0.0559645350669 -0.0351777077563 0.864 2.34801318449e-38
0.0586295129272 -0.0358291467888 0.88 2.34752483197e-38
0.0602581105085 -0.0358291467888 0.88 2.34737713511e-38
0.0618867080898 -0.0358291467888 0.88 2.34758915157e-38
-0.00160824011154 -0.0337730423424 0.869 2.24603593082e-38
0.00160824011154 -0.0337730423424 0.869 1.84941745815e-38
0.00320907750681 -0.0336953138215 0.867 1.96901043481e-38
0.00478585607417 -0.0335009925192 0.862 1.88610737559e-38
0.00636633599967 -0.0334232639983 0.86 1.90422336213e-38
0.00792090641819 -0.0332678069564 0.856 1.85816212109e-38
0.00948287955299 -0.0331900784355 0.854 1.95078963114e-38
0.0110633594785 -0.0331900784355 0.854 1.80284558395e-38
0.0125994231063 -0.0330734856541 0.851 1.88553340373e-38
0.0141743509946 -0.0330734856541 0.851 1.93155877154e-38
0.0157122653015 -0.0329957571332 0.849 1.95003349049e-38
0.0172834918317 -0.0329957571332 0.849 1.95914599427e-38
0.0188103020641 -0.0329180286122 0.847 1.92223172896e-38
0.0203297095803 -0.0328403000913 0.845 1.94981825105e-38
0.0218935333942 -0.0328403000913 0.845 2.00502716846e-38
0.0234573572081 -0.0328403000913 0.845 2.00502716846e-38
0.025021181022 -0.0328403000913 0.845 2.05112428274e-38
0.0265220817475 -0.0327625715704 0.843 2.04215597257e-38
0.0280822042032 -0.0327625715704 0.843 2.08796610093e-38
0.0296423266589 -0.0327625715704 0.843 1.99591536533e-38
0.0312024491147 -0.0327625715704 0.843 2.18938087339e-38
0.0327625715704 -0.0327625715704 0.843 2.05126777571e-38
0.0344041239052 -0.0328403000913 0.845 2.26331520206e-38
0.0359679477191 -0.0328403000913 0.845 9.27538511196e-39
0.0375317715329 -0.0328403000913 0.845 2.19958316699e-38
0.0391881293003 -0.0329180286122 0.847 2.34934708049e-38
0.0408518897839 -0.0329957571332 0.849 5.32645877716e-39
0.0424231163141 -0.0329957571332 0.849 2.08887792584e-38
0.0440979808721 -0.0330734856541 0.851 2.34906149587e-38
0.0456729087604 -0.0330734856541 0.851 6.06114274643e-39
0.0475254385092 -0.0332678069564 0.856 2.34964471629e-38
0.0493391039974 -0.0334232639983 0.86 7.5330218118e-39
0.0510491314578 -0.0335009925192 0.862 2.08833254048e-38
0.0527665616345 -0.0335787210401 0.864 2.32846521104e-38
0.0545543176158 -0.0336953138215 0.867 2.34694035038e-38
0.0565474989738 -0.0339284993843 0.873 2.34842698792e-38
0.0586295129272 -0.0342005492075 0.88 2.34781209816e-38
0.0602581105085 -0.0342005492075 0.88 2.34748041081e-38
0.0618867080898 -0.0342005492075 0.88 2.34729431837e-38
0.0638761880897 -0.0343948705098 0.885 2.34914010871e-38
0.0655140390664 -0.0343948705098 0.885 2.35098057411e-38
0.0 -0.0322388293937 0.871 2.0526011112e-38
0.00161194146968 -0.0322388293937 0.871 1.92327205294e-38
0.00321648022309 -0.0321648022309 0.869 1.90465426141e-38
0.00481361626021 -0.0320907750681 0.867 1.90436685509e-38
0.00638114143223 -0.0319057071611 0.862 2.07031772768e-38
0.00793941320889 -0.0317576528356 0.858 1.84912206444e-38
0.00950508770183 -0.0316836256728 0.856 1.86748916367e-38
0.0110633594785 -0.03160959851 0.854 1.94102930708e-38
0.012643839404 -0.03160959851 0.854 1.86723805098e-38
0.0141743509946 -0.0314985577658 0.851 1.93148702505e-38
0.0157492788829 -0.0314985577658 0.851 1.93152289829e-38
0.0173242067712 -0.0314985577658 0.851 1.96829297e-38
0.0188547183618 -0.031424530603 0.849 1.9590376739e-38
0.020425944892 -0.031424530603 0.849 2.03304416944e-38
0.0219971714221 -0.031424530603 0.849 1.99591536533e-38
0.0235683979523 -0.031424530603 0.849 2.12473617263e-38
0.0251396244824 -0.031424530603 0.849 2.09725727027e-38
0.0265850048358 -0.0312764762774 0.845 2.02371712686e-38
0.0281488286497 -0.0312764762774 0.845 2.14339025779e-38
0.0297126524636 -0.0312764762774 0.845 2.07899779076e-38
0.0312764762774 -0.0312764762774 0.845 2.30938120751e-38
0.0328403000913 -0.0312764762774 0.845 2.12516665152e-38
0.0344041239052 -0.0312764762774 0.845 2.28225627314e-38
0.0360530789563 -0.0313505034402 0.847 5.60196526564e-39
0.0376206041283 -0.0313505034402 0.847 2.20048308086e-38
0.0393731972073 -0.0314985577658 0.851 2.34934694036e-38
0.0409481250955 -0.0314985577658 0.851 5.51012976948e-39
0.0426729579885 -0.03160959851 0.854 2.34889838473e-38
0.044253437914 -0.03160959851 0.854 9.83572513148e-39
0.0459412572255 -0.0316836256728 0.856 1.24946609416e-38
0.0476364792533 -0.0317576528356 0.858 2.17363938709e-38
0.0494538460997 -0.0319057071611 0.862 1.57311335059e-38
0.0511675749183 -0.0319797343239 0.864 2.33757491222e-38
0.0529497788624 -0.0320907750681 0.867 2.3485297031e-38
0.0548060099692 -0.0322388293937 0.871 2.34849607194e-38
0.0565474989738 -0.0323128565565 0.873 2.14465647108e-38
0.0586295129272 -0.0325719516262 0.88 2.34701377842e-38
0.0603950607596 -0.032645978789 0.882 2.34704881088e-38
0.0620273596991 -0.032645978789 0.882 2.34791271139e-38
0.0638761880897 -0.0327570195332 0.885 2.34903459094e-38
0.0655140390664 -0.0327570195332 0.885 2.35097875243e-38
0.00160824011154 -0.0305565621193 0.869 1.85898720563e-38
0.00321648022309 -0.0305565621193 0.869 1.94160510062e-38
0.00481361626021 -0.0304862363147 0.867 1.84919381092e-38
0.00639594686478 -0.0303807476077 0.864 1.87645747384e-38
0.00795791999959 -0.0302400959984 0.86 1.96875960239e-38
0.00950508770183 -0.0300994443891 0.856 1.86738154395e-38
0.0110892689855 -0.0300994443891 0.856 1.91329929203e-38
0.012643839404 -0.0300291185845 0.854 1.90422336213e-38
0.0142243193295 -0.0300291185845 0.854 1.96850820944e-38
0.0157492788829 -0.0299236298775 0.851 1.96829297e-38
0.0173242067712 -0.0299236298775 0.851 2.04186898665e-38
0.0188991346595 -0.0299236298775 0.851 1.95914991791e-38
0.0204740625478 -0.0299236298775 0.851 2.01460532373e-38
0.0219971714221 -0.0298533040729 0.849 2.04194073313e-38
0.0235683979523 -0.0298533040729 0.849 2.12495141208e-38
0.0251396244824 -0.0298533040729 0.849 2.07874667807e-38
0.0266479279242 -0.0297829782682 0.847 2.02360950714e-38
0.0282154530962 -0.0297829782682 0.847 2.1523944412e-38
0.0297829782682 -0.0297829782682 0.847 2.10647669312e-38
0.0313505034402 -0.0297829782682 0.847 2.25402473337e-38
0.0329180286122 -0.0297829782682 0.847 2.11566024274e-38
0.0345669836633 -0.0298533040729 0.849 2.30055274693e-38
0.0361382101935 -0.0298533040729 0.849 6.3366492349e-39
0.0377094367236 -0.0298533040729 0.849 2.34820796497e-38
0.0395119981375 -0.0300291185845 0.854 2.34873653475e-38
0.041092478063 -0.0300291185845 0.854 2.12731904596e-38
0.0427728946582 -0.0300994443891 0.856 1.38022293542e-38
0.0444607139698 -0.0301697701938 0.858 1.84015711738e-38
0.0460485966116 -0.0301697701938 0.858 9.00310721514e-39
0.0478585607417 -0.0303104218031 0.862 1.72084874444e-38
0.0495685882021 -0.0303807476077 0.864 2.13460383616e-38
0.051345240109 -0.0304862363147 0.867 2.34916280975e-38
0.053071923681 -0.0305565621193 0.869 2.34765865597e-38
0.054931856146 -0.0306972137286 0.873 2.34776823751e-38
0.0570009153459 -0.0309433540449 0.88 2.27318132415e-38
0.0587627618202 -0.0310136798495 0.882 2.34722691592e-38
0.0603950607596 -0.0310136798495 0.882 2.34697440193e-38
0.0620273596991 -0.0310136798495 0.882 2.34799104397e-38
0.0638761880897 -0.0311191685565 0.885 2.34903234886e-38
0.0655140390664 -0.0311191685565 0.885 2.35098001359e-38
0.00482472033463 -0.0289483220078 0.869 2.00599588609e-38
0.00643296044618 -0.0289483220078 0.869 1.90443972262e-38
0.00797642679028 -0.028715136445 0.862 1.9505715891e-38
0.0095495039995 -0.0286485119985 0.86 1.89496806604e-38
0.0110892689855 -0.0285152631055 0.856 1.90422336213e-38
0.012643839404 -0.028448638659 0.854 1.94099343384e-38
0.0142243193295 -0.028448638659 0.854 1.97805049147e-38
0.015804799255 -0.028448638659 0.854 1.97787112526e-38
0.0173852791805 -0.028448638659 0.854 2.01442595752e-38
0.018965759106 -0.028448638659 0.854 1.99602298505e-38
0.0204740625478 -0.0283487019892 0.851 2.03290067648e-38
0.0220489904361 -0.0283487019892 0.851 2.06037957884e-38
0.0236239183244 -0.0283487019892 0.851 2.05137539543e-38
0.0251988462126 -0.0283487019892 0.851 2.10640494664e-38
0.0267737741009 -0.0283487019892 0.851 2.08796610093e-38
0.0282820775427 -0.0282820775427 0.849 2.14321089159e-38
0.0298533040729 -0.0282820775427 0.849 2.1154450033e-38
0.031424530603 -0.0282820775427 0.849 2.16172148378e-38
0.0329957571332 -0.0282820775427 0.849 2.11551759056e-38
0.0346484135424 -0.0283487019892 0.851 2.34658287914e-38
0.0362233414307 -0.0283487019892 0.851 6.3366492349e-39
0.037798269319 -0.0283487019892 0.851 2.348635361e-38
0.0395119981375 -0.028448638659 0.854 2.34887848629e-38
0.0411887133746 -0.0285152631055 0.856 8.17443535528e-39
0.042872831328 -0.028581887552 0.858 1.94942967098e-38
0.0444607139698 -0.028581887552 0.858 2.13488829975e-38
0.0461559359976 -0.0286485119985 0.86 1.68277784737e-38
0.0478585607417 -0.028715136445 0.862 2.28208069044e-38
0.0497407013555 -0.0288816975613 0.867 2.34794956554e-38
0.0514636835694 -0.0289483220078 0.869 2.34939388386e-38
0.0531940684996 -0.0290149464543 0.871 2.20947759532e-38
0.0550577023227 -0.0291481953473 0.875 2.34697398154e-38
0.0570009153459 -0.0293147564636 0.88 2.34701195673e-38
0.0589626351597 -0.0294813175799 0.885 2.34718697891e-38
0.0606004861364 -0.0294813175799 0.885 2.34755005534e-38
0.062238337113 -0.0294813175799 0.885 2.34852718076e-38
0.0638761880897 -0.0294813175799 0.885 2.34852507881e-38
0.00164525369294 -0.0279693127799 0.889 2.03423429222e-38
0.00329050738588 -0.0279693127799 0.889 1.94167964969e-38
0.00491355292998 -0.0278434666032 0.885 1.92288039002e-38
0.00651439032524 -0.0276861588823 0.88 1.93216861663e-38
0.00809672092981 -0.0275288511614 0.875 1.96893868833e-38
0.00971606511577 -0.0275288511614 0.875 1.9411369268e-38
0.0113354093017 -0.0275288511614 0.875 1.94102930708e-38
0.0129547534877 -0.0275288511614 0.875 1.97783525202e-38
0.0145074732272 -0.0274030049846 0.871 2.01471294345e-38
0.0158418128364 -0.0269310818219 0.856 1.98680356219e-38
0.01742599412 -0.0269310818219 0.856 2.00509891494e-38
0.018965759106 -0.0268681587335 0.854 2.12509490504e-38
0.0205462390315 -0.0268681587335 0.854 2.03282892999e-38
0.022126718957 -0.0268681587335 0.854 2.05116015599e-38
0.0237071988825 -0.0268681587335 0.854 2.05137539543e-38
0.025287678808 -0.0268681587335 0.854 2.11576786246e-38
0.0267737741009 -0.0267737741009 0.851 2.06037957884e-38
0.0283487019892 -0.0267737741009 0.851 2.19874266817e-38
0.0299236298775 -0.0267737741009 0.851 2.10654843961e-38
0.0314985577658 -0.0267737741009 0.851 2.18019620274e-38
0.0331900784355 -0.0268681587335 0.854 2.19877854141e-38
0.034770558361 -0.0268681587335 0.854 2.28204033304e-38
0.0363510382865 -0.0268681587335 0.854 6.52032022722e-39
0.0380203508073 -0.0269310818219 0.856 2.34924478571e-38
0.0396970660444 -0.0269940049102 0.858 2.34834178898e-38
0.0413811839978 -0.0270569279986 0.86 5.32645877716e-39
0.0429727679978 -0.0270569279986 0.86 2.24535279782e-38
0.0446679900256 -0.027119851087 0.862 2.34675565924e-38
0.0462632753836 -0.027119851087 0.862 2.22672435643e-38
0.0481361626021 -0.0272771588079 0.867 2.34643308034e-38
0.0499701855602 -0.0274030049846 0.871 2.34689999299e-38
0.0515821270299 -0.0274030049846 0.871 2.34755818287e-38
0.0533162133182 -0.027465928073 0.873 2.28218382601e-38
0.0552464715878 -0.0276232357939 0.878 2.34650692877e-38
0.0570009153459 -0.0276861588823 0.88 2.34740277887e-38
0.0589626351597 -0.0278434666032 0.885 2.34711761464e-38
0.0606004861364 -0.0278434666032 0.885 2.34722915799e-38
0.0623789887223 -0.0279063896916 0.887 2.34819689471e-38
0.0641648940246 -0.0279693127799 0.889 2.34917626221e-38
0.0658101477175 -0.0279693127799 0.889 2.3509795932e-38
0.00165450708829 -0.0264721134126 0.894 1.91413166331e-38
0.00329050738588 -0.026324059087 0.889 1.95997135907e-38
0.00492465700439 -0.0262648373568 0.887 1.91372977091e-38
0.0065291957578 -0.0261167830312 0.882 1.93209687015e-38
0.00814298790655 -0.026057561301 0.88 1.96897456157e-38
0.00974937733903 -0.0259983395707 0.878 1.92280570081e-38
0.0113742735622 -0.0259983395707 0.878 1.9131916723e-38
0.0129547534877 -0.0259095069754 0.875 1.9777276323e-38
0.0145074732272 -0.0257910635149 0.871 2.00542177411e-38
0.016045387534 -0.0256726200545 0.867 2.08843245306e-38
0.0175481389386 -0.0255245657289 0.862 2.12541776421e-38
0.019099007999 -0.0254653439987 0.86 1.98683943543e-38
0.0206905919989 -0.0254653439987 0.86 2.0695990017e-38
0.0222303569849 -0.0254061222684 0.858 2.05116015599e-38
0.0238182396267 -0.0254061222684 0.858 2.06992186086e-38
0.0254061222684 -0.0254061222684 0.858 2.08814546713e-38
0.0269940049102 -0.0254061222684 0.858 2.09740076323e-38
0.028581887552 -0.0254061222684 0.858 2.14342613103e-38
0.0301697701938 -0.0254061222684 0.858 2.13402734197e-38
0.0317576528356 -0.0254061222684 0.858 2.25380809262e-38
0.0333455354773 -0.0254061222684 0.858 2.34654084019e-38
0.0350148479982 -0.0254653439987 0.86 2.16215196267e-38
0.0366915632353 -0.0255245657289 0.862 7.34683969264e-39
0.0383756811887 -0.0255837874591 0.864 2.34917065702e-38
0.0399746679049 -0.0255837874591 0.864 2.24616905418e-38
0.0417180075885 -0.0256726200545 0.867 8.72437213501e-39
0.0433225463419 -0.0256726200545 0.867 2.34673351873e-38
0.0449270850953 -0.0256726200545 0.867 2.25420508048e-38
0.0465316238487 -0.0256726200545 0.867 2.34675916249e-38
0.0483582440905 -0.0257910635149 0.871 2.34646867332e-38
0.0499701855602 -0.0257910635149 0.871 2.33717750398e-38
0.0517005704903 -0.0258502852452 0.873 2.29115213618e-38
0.0534383581368 -0.0259095069754 0.875 2.34711971658e-38
0.0553723177646 -0.026057561301 0.88 2.3473334146e-38
0.0571304628807 -0.0261167830312 0.882 2.34675565924e-38
0.0589626351597 -0.0262056156265 0.885 2.34733649746e-38
0.0607374363875 -0.0262648373568 0.887 2.34719510644e-38
0.0625196403316 -0.026324059087 0.889 2.34787221386e-38
0.0641648940246 -0.026324059087 0.889 2.34874536293e-38
0.0 -0.0248176063243 0.894 1.89605225066e-38
0.00165450708829 -0.0248176063243 0.894 1.76679662044e-38
0.00329791010215 -0.0247343257662 0.891 1.89550770607e-38
0.00492465700439 -0.024623285022 0.887 1.87710319217e-38
0.00655140390664 -0.0245677646499 0.885 1.94135216624e-38
0.00816149469725 -0.0244844840917 0.882 1.84915793768e-38
0.00977158548786 -0.0244289637197 0.88 1.95053571586e-38
0.0114001830692 -0.0244289637197 0.88 1.95950402603e-38
0.0129991697854 -0.0243734433476 0.878 1.97779937878e-38
0.0145740976737 -0.0242901627894 0.875 1.99630997098e-38
0.0161194146968 -0.0241791220453 0.871 2.06055894504e-38
0.017690641227 -0.0241236016732 0.869 1.98683943543e-38
0.0191878405943 -0.0239848007429 0.864 2.10665605933e-38
0.0207387096547 -0.0239292803708 0.862 2.0330082962e-38
0.0223339950128 -0.0239292803708 0.862 2.09736488999e-38
0.0238737599988 -0.0238737599988 0.86 2.07914128372e-38
0.0254653439987 -0.0238737599988 0.86 2.10672780581e-38
0.0270569279986 -0.0238737599988 0.86 2.13427845466e-38
0.0286485119985 -0.0238737599988 0.86 2.18934387911e-38
0.0302400959984 -0.0238737599988 0.86 2.23529750043e-38
0.0319057071611 -0.0239292803708 0.862 2.2169304012e-38
0.0335009925192 -0.0239292803708 0.862 2.20753161214e-38
0.0350962778772 -0.0239292803708 0.862 2.22665204942e-38
0.0367766944725 -0.0239848007429 0.864 7.34683969264e-39
0.0385089300817 -0.0240680813011 0.867 2.30253166062e-38
0.0401134688351 -0.0240680813011 0.867 1.40687675325e-38
0.0417180075885 -0.0240680813011 0.867 1.88546165725e-38
0.0434224830117 -0.0241236016732 0.869 2.27323022947e-38
0.0451343611511 -0.0241791220453 0.871 2.28189684008e-38
0.0468536420069 -0.0242346424173 0.873 2.25427542566e-38
0.0487468866951 -0.0243734433476 0.878 2.34697089869e-38
0.0503717829183 -0.0243734433476 0.878 2.34811884239e-38
0.0521151226019 -0.0244289637197 0.88 2.34848360038e-38
0.0538658650018 -0.0244844840917 0.882 2.34762432416e-38
0.0558127793831 -0.024623285022 0.887 2.34809431967e-38
0.0574543317179 -0.024623285022 0.887 2.34686425987e-38
0.0592291329458 -0.0246788053941 0.889 2.34697468219e-38
0.0608743866387 -0.0246788053941 0.889 2.34769480947e-38
0.0626602919409 -0.0247343257662 0.891 2.34795040631e-38
0.064309246992 -0.0247343257662 0.891 2.34864026555e-38
0.0 -0.02321491825 0.896 1.98835676141e-38
0.00165820844643 -0.02321491825 0.896 1.78537853872e-38
0.00329791010215 -0.0230853707151 0.891 2.00657560326e-38
0.00493576107881 -0.0230335517011 0.889 1.76690059678e-38
0.00655140390664 -0.0229299136732 0.885 1.90440272834e-38
0.00818925488329 -0.0229299136732 0.885 1.9504283764e-38
0.0097937936367 -0.0228521851523 0.882 1.91355040471e-38
0.0114001830692 -0.0228003661383 0.88 2.08871957911e-38
0.0130287806505 -0.0228003661383 0.88 2.05245341434e-38
0.0145740976737 -0.0226708186035 0.875 1.98730578756e-38
0.0161564282782 -0.0226189995895 0.873 2.06066656477e-38
0.0177313561665 -0.0225671805756 0.871 2.04233533878e-38
0.0192988813385 -0.0225153615616 0.869 2.02407585927e-38
0.0209071214501 -0.0225153615616 0.869 2.06070243801e-38
0.0224635425477 -0.0224635425477 0.867 2.08825308686e-38
0.0239848007429 -0.0223858140267 0.864 2.08825308686e-38
0.0255837874591 -0.0223858140267 0.864 2.08818134037e-38
0.0271827741753 -0.0223858140267 0.864 2.21728913361e-38
0.0287817608915 -0.0223858140267 0.864 2.15286079333e-38
0.0304862363147 -0.0224635425477 0.867 2.18963086504e-38
0.0320907750681 -0.0224635425477 0.867 2.25391571235e-38
0.0336953138215 -0.0224635425477 0.867 2.27235455806e-38
0.0352998525749 -0.0224635425477 0.867 2.03308004268e-38
0.0369043913283 -0.0224635425477 0.867 1.41426664083e-38
0.0385089300817 -0.0224635425477 0.867 1.53533882815e-38
0.0402060027886 -0.0225153615616 0.869 2.0414771836e-38
0.0418142429001 -0.0225153615616 0.869 2.3470803401e-38
0.0435224196815 -0.0225671805756 0.871 2.29154996481e-38
0.0451343611511 -0.0225671805756 0.871 2.3476174578e-38
0.047121990472 -0.0227485471244 0.878 2.34816480498e-38
0.0487468866951 -0.0227485471244 0.878 2.1272131078e-38
0.0504865250206 -0.0228003661383 0.88 1.54589438909e-38
0.0521151226019 -0.0228003661383 0.88 2.34673449964e-38
0.0538658650018 -0.0228521851523 0.882 2.05112428274e-38
0.0558127793831 -0.0229817326872 0.887 2.34712812438e-38
0.0575838792528 -0.0230335517011 0.889 2.34707921906e-38
0.0593623818388 -0.0230853707151 0.891 2.34754627184e-38
0.0612167622666 -0.023163099236 0.894 2.34812907187e-38
0.0628712693549 -0.023163099236 0.894 2.34661707083e-38
0.0645257764432 -0.023163099236 0.894 2.34882215409e-38
0.0 -0.0216048274593 0.898 1.97913369518e-38
0.00166190980456 -0.0216048274593 0.898 1.79453392224e-38
0.00330901417657 -0.0215085921477 0.894 1.90483446839e-38
0.00493576107881 -0.0213882980082 0.889 1.85884581461e-38
0.00656620933919 -0.0213401803524 0.887 1.95989947246e-38
0.00818925488329 -0.0212920626966 0.885 1.88593039159e-38
0.00982710585995 -0.0212920626966 0.885 1.94106518032e-38
0.0114260925761 -0.0212198862128 0.882 1.93198925042e-38
0.0130287806505 -0.021171768557 0.88 1.91376564415e-38
0.0146240660085 -0.0211236509012 0.878 2.05159063487e-38
0.0161934418596 -0.0210514744175 0.875 2.13463718706e-38
0.0177720711061 -0.0210033567617 0.873 1.97801461822e-38
0.0193432976362 -0.0209552391059 0.871 2.06063069153e-38
0.0209552391059 -0.0209552391059 0.871 2.079033664e-38
0.0225153615616 -0.0209071214501 0.869 2.08825308686e-38
0.0241236016732 -0.0209071214501 0.869 2.13417083493e-38
0.0256726200545 -0.0208590037943 0.867 2.15282492009e-38
0.0272771588079 -0.0208590037943 0.867 2.21736088009e-38
0.0288816975613 -0.0208590037943 0.867 2.1437489902e-38
0.0305565621193 -0.0209071214501 0.869 2.23583559904e-38
0.0321648022309 -0.0209071214501 0.869 2.20803383751e-38
0.0337730423424 -0.0209071214501 0.869 2.34682740572e-38
0.035381282454 -0.0209071214501 0.869 2.14389248316e-38
0.0369895225655 -0.0209071214501 0.869 2.20810558399e-38
0.0385977626771 -0.0209071214501 0.869 2.25463317716e-38
0.0402985367421 -0.0209552391059 0.871 2.32857086894e-38
0.0419104782118 -0.0209552391059 0.871 2.34762446429e-38
0.0436223563512 -0.0210033567617 0.873 2.34744537835e-38
0.0454970942488 -0.0211236509012 0.878 2.34812542849e-38
0.047121990472 -0.0211236509012 0.878 2.00735892911e-38
0.0488579274393 -0.021171768557 0.88 1.48138547416e-38
0.0504865250206 -0.021171768557 0.88 2.03366620583e-38
0.0521151226019 -0.021171768557 0.88 2.01414093341e-38
0.0538658650018 -0.0212198862128 0.882 1.99397821033e-38
0.0559386255599 -0.0213882980082 0.889 2.34790696606e-38
0.0575838792528 -0.0213882980082 0.889 2.34747774834e-38
0.0595622551783 -0.0215085921477 0.894 2.34754487054e-38
0.0612167622666 -0.0215085921477 0.894 2.34762838793e-38
0.0628712693549 -0.0215085921477 0.894 2.34643616319e-38
0.0645257764432 -0.0215085921477 0.894 2.34918200753e-38
0.0 -0.0200095421013 0.901 1.92381435544e-38
0.00166746184177 -0.0200095421013 0.901 2.04345161313e-38
0.00331641689285 -0.0198985013571 0.896 1.92342031031e-38
0.00494686515323 -0.0197874606129 0.891 1.81281834486e-38
0.00656620933919 -0.0196986280176 0.887 1.93195337718e-38
0.00820776167399 -0.0196986280176 0.887 1.95060746234e-38
0.00982710585995 -0.0196542117199 0.885 1.95053571586e-38
0.0114260925761 -0.0195875872734 0.882 1.97797874498e-38
0.0130583915156 -0.0195875872734 0.882 1.99652521042e-38
0.0146573782318 -0.0195431709757 0.88 2.0331876624e-38
0.0162489622317 -0.0194987546781 0.878 2.05144714191e-38
0.0178127860456 -0.0194321302315 0.875 2.15307603278e-38
0.0193877139339 -0.0193877139339 0.873 2.12527427124e-38
0.0210033567617 -0.0193877139339 0.873 2.10679955229e-38
0.0225671805756 -0.0193432976362 0.871 2.11594722867e-38
0.0241791220453 -0.0193432976362 0.871 2.16204434295e-38
0.0257910635149 -0.0193432976362 0.871 2.15286079333e-38
0.0273400818963 -0.0192988813385 0.869 2.21725326036e-38
0.0289483220078 -0.0192988813385 0.869 2.23615845821e-38
0.030626887924 -0.0193432976362 0.871 2.30073029144e-38
0.0322388293937 -0.0193432976362 0.871 2.25474079688e-38
0.0338507708634 -0.0193432976362 0.871 2.3475813043e-38
0.035462712333 -0.0193432976362 0.871 2.34743725082e-38
0.0370746538027 -0.0193432976362 0.871 2.34837093598e-38
0.0386865952724 -0.0193432976362 0.871 2.3487024832e-38
0.0403910706956 -0.0193877139339 0.873 2.34845669545e-38
0.042102948835 -0.0194321302315 0.875 1.89533352467e-38
0.0439721346954 -0.0195431709757 0.88 1.99709918227e-38
0.0456007322767 -0.0195431709757 0.88 1.25133038163e-38
0.047229329858 -0.0195431709757 0.88 1.51862189799e-38
0.0488579274393 -0.0195431709757 0.88 2.34723742566e-38
0.0504865250206 -0.0195431709757 0.88 2.09744966855e-38
0.0522335660624 -0.0195875872734 0.882 1.98583624586e-38
0.0542933718669 -0.0197430443153 0.889 2.34449984898e-38
0.0560644717366 -0.0197874606129 0.891 2.34816410433e-38
0.05790774809 -0.0198540850594 0.894 2.34737167005e-38
0.0596955040713 -0.0198985013571 0.896 2.34790682593e-38
0.0612167622666 -0.0198540850594 0.894 2.30927484896e-38
0.0628712693549 -0.0198540850594 0.894 2.34633835256e-38
0.0645257764432 -0.0198540850594 0.894 2.34914459287e-38
0.0 -0.0183420802595 0.901 1.96959379536e-38
0.00166746184177 -0.0183420802595 0.901 1.97877244043e-38
0.00333492368355 -0.0183420802595 0.901 2.01543377138e-38
0.00497462533928 -0.0182402929107 0.896 1.93249147579e-38
0.00659582020431 -0.0181385055618 0.891 1.97801461822e-38
0.00820776167399 -0.0180570756828 0.887 1.93202512366e-38
0.00984931400879 -0.0180570756828 0.887 1.98730578756e-38
0.0114649568366 -0.0180163607432 0.885 1.95957577251e-38
0.0131028078133 -0.0180163607432 0.885 1.98709054812e-38
0.014690690455 -0.0179552883339 0.882 2.06073831125e-38
0.0163229893945 -0.0179552883339 0.882 2.08825308686e-38
0.0179145733944 -0.0179145733944 0.88 2.06992186086e-38
0.0194987546781 -0.0178738584549 0.878 2.09747250971e-38
0.0211236509012 -0.0178738584549 0.878 2.16211608943e-38
0.0226708186035 -0.0178127860456 0.875 2.16229545563e-38
0.0242901627894 -0.0178127860456 0.875 2.15282492009e-38
0.0258502852452 -0.0177720711061 0.873 2.22690316211e-38
0.0274030049846 -0.0177313561665 0.871 2.22711840155e-38
0.0290149464543 -0.0177313561665 0.871 2.34722201137e-38
0.030626887924 -0.0177313561665 0.871 2.27361082213e-38
0.0322388293937 -0.0177313561665 0.871 2.34811926278e-38
0.0338507708634 -0.0177313561665 0.871 2.31963675045e-38
0.035462712333 -0.0177313561665 0.871 1.94035304044e-38
0.0370746538027 -0.0177313561665 0.871 1.68152382538e-38
0.0386865952724 -0.0177313561665 0.871 2.34587424251e-38
0.0407149395328 -0.0179145733944 0.88 1.75732244152e-38
0.0424397724257 -0.0179552883339 0.882 1.81253135894e-38
0.0440720713651 -0.0179552883339 0.882 9.75002031611e-39
0.0457043703046 -0.0179552883339 0.882 1.55571707094e-38
0.047336669244 -0.0179552883339 0.882 1.70193499868e-38
0.0489689681835 -0.0179552883339 0.882 1.96808039302e-38
0.0507733802764 -0.0180163607432 0.885 1.72804987712e-38
0.052648118174 -0.0180977906223 0.889 2.13342142052e-38
0.0545987339134 -0.0181995779711 0.894 2.34762628598e-38
0.0562532410017 -0.0181995779711 0.894 2.33768477402e-38
0.0580372956249 -0.0182402929107 0.896 2.34761661702e-38
0.0596955040713 -0.0182402929107 0.896 2.34787151321e-38
0.0612167622666 -0.0181995779711 0.894 2.34561542268e-38
0.0628712693549 -0.0181995779711 0.894 2.34759938105e-38
0.0645257764432 -0.0181995779711 0.894 2.34936011257e-38
0.00167116319991 -0.0167116319991 0.903 1.98810522834e-38
0.00334232639983 -0.0167116319991 0.903 1.85873847515e-38
0.00497462533928 -0.0165820844643 0.896 1.95046396938e-38
0.00661802835314 -0.0165450708829 0.894 1.95964751899e-38
0.00824477525538 -0.0164895505108 0.891 2.04251470498e-38
0.00987152215763 -0.0164525369294 0.889 1.94110315551e-38
0.0114908663436 -0.016415523348 0.887 2.00560114031e-38
0.0131324186784 -0.016415523348 0.887 2.02411173251e-38
0.0147739710132 -0.016415523348 0.887 2.05144714191e-38
0.0163785097666 -0.0163785097666 0.885 2.12498728532e-38
0.0180163607432 -0.0163785097666 0.885 2.16222370915e-38
0.0195875872734 -0.0163229893945 0.882 2.14360549723e-38
0.021171768557 -0.0162859758131 0.88 2.18973848476e-38
0.0227485471244 -0.0162489622317 0.878 2.14403597612e-38
0.0243734433476 -0.0162489622317 0.878 2.29140324886e-38
0.0259983395707 -0.0162489622317 0.878 2.20889479528e-38
0.027465928073 -0.0161564282782 0.873 2.2829730373e-38
0.0290815709008 -0.0161564282782 0.873 2.34819591381e-38
0.0307675395333 -0.0161934418596 0.875 2.34834291001e-38
0.0323868837192 -0.0161934418596 0.875 1.91420018681e-38
0.0341228206866 -0.0162489622317 0.878 2.09725727027e-38
0.0358291467888 -0.0162859758131 0.88 2.34713134736e-38
0.0376705724632 -0.0163785097666 0.885 2.04155551618e-38
0.0393084234398 -0.0163785097666 0.885 2.34623073284e-38
0.0409462744165 -0.0163785097666 0.885 2.07068444749e-38
0.0426803607048 -0.016415523348 0.887 1.56364281505e-38
0.0443219130396 -0.016415523348 0.887 1.52698456697e-38
0.0459634653743 -0.016415523348 0.887 1.69246754599e-38
0.0476050177091 -0.016415523348 0.887 1.72862511014e-38
0.0493576107881 -0.0164525369294 0.889 1.76579118879e-38
0.0510028644811 -0.0164525369294 0.889 1.37835850781e-38
0.0529442268251 -0.0165450708829 0.894 2.34662295628e-38
0.0545987339134 -0.0165450708829 0.894 2.34813005278e-38
0.0563790871785 -0.0165820844643 0.896 2.34718697891e-38
0.0580372956249 -0.0165820844643 0.896 2.34801878968e-38
0.0596955040713 -0.0165820844643 0.896 2.21682278148e-38
0.0613537125177 -0.0165820844643 0.896 2.34622736972e-38
0.0630119209642 -0.0165820844643 0.896 2.34774147271e-38
0.00336083319052 -0.0151237493574 0.908 2.03415876224e-38
0.00498572941369 -0.0149571882411 0.898 1.90447475508e-38
0.0066328337857 -0.0149238760178 0.896 1.98755690025e-38
0.00827253544143 -0.0148905637946 0.894 1.93202512366e-38
0.00987152215763 -0.0148072832364 0.889 2.00560114031e-38
0.0115167758506 -0.0148072832364 0.889 1.95961164575e-38
0.0131324186784 -0.0147739710132 0.887 2.0330082962e-38
0.0147739710132 -0.0147739710132 0.887 2.07017297355e-38
0.016415523348 -0.0147739710132 0.887 2.05166238135e-38
0.0180163607432 -0.0147406587899 0.885 2.10697891849e-38
0.0196542117199 -0.0147406587899 0.885 2.17147900525e-38
0.0212198862128 -0.014690690455 0.882 2.10701479173e-38
0.0228003661383 -0.0146573782318 0.88 2.26381868859e-38
0.0244289637197 -0.0146573782318 0.88 2.29194134747e-38
0.026057561301 -0.0146573782318 0.88 2.2647173413e-38
0.0276861588823 -0.0146573782318 0.88 2.32014416063e-38
0.0293147564636 -0.0146573782318 0.88 1.68306651486e-38
0.0309433540449 -0.0146573782318 0.88 1.87344412162e-38
0.0325719516262 -0.0146573782318 0.88 1.75405797662e-38
0.0342782777284 -0.014690690455 0.882 2.14106031883e-38
0.0360327214865 -0.0147406587899 0.885 2.15225305019e-38
0.0376705724632 -0.0147406587899 0.885 1.6999970029e-38
0.0393972560352 -0.0147739710132 0.887 2.03121631572e-38
0.04103880837 -0.0147739710132 0.887 1.93051858769e-38
0.0426803607048 -0.0147739710132 0.887 1.87534918689e-38
0.0443219130396 -0.0147739710132 0.887 1.81099231283e-38
0.0460671034023 -0.0148072832364 0.889 1.67348948063e-38
0.0477123570952 -0.0148072832364 0.889 1.77504942761e-38
0.0494686515323 -0.0148405954597 0.891 1.46154883323e-38
0.0512897197369 -0.0148905637946 0.894 1.83043308695e-38
0.0529442268251 -0.0148905637946 0.894 2.34795531086e-38
0.054720878732 -0.0149238760178 0.896 2.34715026489e-38
0.0566937026203 -0.015007156576 0.901 2.34722397319e-38
0.058490711997 -0.0150404687992 0.903 2.34758494767e-38
0.0600286263038 -0.015007156576 0.901 2.27120661436e-38
0.0616960881456 -0.015007156576 0.901 2.34806601344e-38
0.0633635499874 -0.015007156576 0.901 1.92295914299e-38
0.00339784677192 -0.0135913870877 0.918 1.9696244838e-38
0.00501348959974 -0.0133693055993 0.903 1.91372977091e-38
0.00664763921826 -0.0132952784365 0.898 1.94120867328e-38
0.00830954902282 -0.0132952784365 0.898 1.95964751899e-38
0.00992704252972 -0.0132360567063 0.894 1.98723404108e-38
0.011581549618 -0.0132360567063 0.894 1.96890281509e-38
0.0131620295435 -0.0131620295435 0.889 2.00567288679e-38
0.0148072832364 -0.0131620295435 0.889 2.03308004268e-38
0.016415523348 -0.0131324186784 0.887 2.0792130302e-38
0.0180570756828 -0.0131324186784 0.887 2.06077418449e-38
0.0196986280176 -0.0131324186784 0.887 2.15296841305e-38
0.0212920626966 -0.0131028078133 0.885 2.25463317716e-38
0.0228521851523 -0.0130583915156 0.882 2.18109303375e-38
0.0244844840917 -0.0130583915156 0.882 2.19067118902e-38
0.0261167830312 -0.0130583915156 0.882 2.31084850713e-38
0.0277490819706 -0.0130583915156 0.882 2.34780635283e-38
0.0293813809101 -0.0130583915156 0.882 1.62753305672e-38
0.0310136798495 -0.0130583915156 0.882 1.88262767124e-38
0.032645978789 -0.0130583915156 0.882 2.3459333773e-38
0.0343948705098 -0.0131028078133 0.885 1.97691333776e-38
0.0361141513656 -0.0131324186784 0.887 1.98475878747e-38
0.0377557037004 -0.0131324186784 0.887 1.86619828752e-38
0.0393972560352 -0.0131324186784 0.887 1.571534928e-38
0.0411313423234 -0.0131620295435 0.889 1.73755796746e-38
0.0427765960164 -0.0131620295435 0.889 1.71014913002e-38
0.0445217863791 -0.0131916404086 0.891 1.6824929634e-38
0.0461707414302 -0.0131916404086 0.891 1.7561030316e-38
0.0478196964812 -0.0131916404086 0.891 1.61792197094e-38
0.0496352126486 -0.0132360567063 0.894 1.9311703316e-38
0.0512897197369 -0.0132360567063 0.894 2.34765543299e-38
0.0530626702856 -0.0132656675714 0.896 2.34736844706e-38
0.0548430235506 -0.0132952784365 0.898 2.34697215986e-38
0.056819548797 -0.0133693055993 0.903 2.34762586559e-38
0.0586850332993 -0.013413721897 0.906 2.26320828298e-38
0.0603617485364 -0.013413721897 0.906 2.34633540983e-38
0.0620384637735 -0.013413721897 0.906 2.32886752383e-38
0.0637151790106 -0.013413721897 0.906 2.05224532152e-38
0.00339784677192 -0.0118924637017 0.918 1.98817136962e-38
0.00506900997183 -0.0118276899343 0.913 1.90451034806e-38
0.00666984736709 -0.0116722328924 0.901 1.9505715891e-38
0.00833730920887 -0.0116722328924 0.901 1.92287744729e-38
0.00997145882739 -0.011633368632 0.898 1.92255458812e-38
0.011607459125 -0.011607459125 0.896 2.05159063487e-38
0.0131916404086 -0.0115426853575 0.891 2.05198524052e-38
0.0148072832364 -0.0115167758506 0.889 1.99609473153e-38
0.0164525369294 -0.0115167758506 0.889 2.08843245306e-38
0.0180977906223 -0.0115167758506 0.889 2.10669193257e-38
0.0197430443153 -0.0115167758506 0.889 2.17133551229e-38
0.0213401803524 -0.0114908663436 0.887 2.18988197772e-38
0.0229817326872 -0.0114908663436 0.887 2.31016495374e-38
0.024623285022 -0.0114908663436 0.887 2.28311653027e-38
0.0262648373568 -0.0114908663436 0.887 2.27414976152e-38
0.0279063896916 -0.0114908663436 0.887 2.27394419104e-38
0.0294813175799 -0.0114649568366 0.885 1.69174615754e-38
0.0311191685565 -0.0114649568366 0.885 2.16872068935e-38
0.0327570195332 -0.0114649568366 0.885 2.34745238484e-38
0.0344725990308 -0.0114908663436 0.887 1.94081771101e-38
0.0361141513656 -0.0114908663436 0.887 1.95742337807e-38
0.0377557037004 -0.0114908663436 0.887 1.78275951189e-38
0.0394860886305 -0.0115167758506 0.889 1.70024867611e-38
0.0411313423234 -0.0115167758506 0.889 1.69131722008e-38
0.0427765960164 -0.0115167758506 0.889 1.79287562564e-38
0.0445217863791 -0.0115426853575 0.891 1.70071670979e-38
0.046326198472 -0.011581549618 0.894 1.81124216435e-38
0.0479807055603 -0.011581549618 0.894 1.76558015324e-38
0.0496352126486 -0.011581549618 0.894 2.18002062004e-38
0.0515192039415 -0.011633368632 0.898 2.34805620435e-38
0.0531811137461 -0.011633368632 0.898 2.34711439165e-38
0.0550262407785 -0.0116722328924 0.901 2.34711439165e-38
0.0570083180621 -0.0117370066599 0.906 2.34729557954e-38
0.0588145808341 -0.0117629161668 0.908 1.93030334824e-38
0.0604949974294 -0.0117629161668 0.908 2.34630135828e-38
0.0621754140247 -0.0117629161668 0.908 2.34849186804e-38
0.00341635356261 -0.0102490606878 0.923 1.93271204017e-38
0.00508011404625 -0.0101602280925 0.915 1.90436755574e-38
0.00668465279965 -0.0100269791995 0.903 1.95975513872e-38
0.00835581599956 -0.0100269791995 0.903 1.88607290364e-38
0.0100047710506 -0.0100047710506 0.901 1.97797874498e-38
0.011633368632 -0.00997145882739 0.898 2.01489230965e-38
0.0132656675714 -0.00994925067855 0.896 1.96890281509e-38
0.0149238760178 -0.00994925067855 0.896 2.04258645146e-38
0.0165820844643 -0.00994925067855 0.896 2.07020884679e-38
0.0181995779711 -0.00992704252972 0.894 2.10690717201e-38
0.0197874606129 -0.00989373030646 0.891 2.10679955229e-38
0.0213882980082 -0.00987152215763 0.889 2.125238398e-38
0.0230335517011 -0.00987152215763 0.889 2.14378486344e-38
0.0246788053941 -0.00987152215763 0.889 2.29169037492e-38
0.026324059087 -0.00987152215763 0.889 2.31088241856e-38
0.0279693127799 -0.00987152215763 0.889 2.30167196401e-38
0.0295479420264 -0.00984931400879 0.887 1.36892286461e-38
0.0311894943612 -0.00984931400879 0.887 2.27960851969e-38
0.032831046696 -0.00984931400879 0.887 2.34759854027e-38
0.0345503275517 -0.00987152215763 0.889 1.66365741009e-38
0.0361955812446 -0.00987152215763 0.889 1.90296779871e-38
0.0378408349376 -0.00987152215763 0.889 1.91276273484e-38
0.0395749212258 -0.00989373030646 0.891 1.75667882514e-38
0.0412238762769 -0.00989373030646 0.891 1.82121520552e-38
0.042872831328 -0.00989373030646 0.891 1.83968866331e-38
0.0446716913837 -0.00992704252972 0.894 1.67288061645e-38
0.046326198472 -0.00992704252972 0.894 1.71890654477e-38
0.0480880449463 -0.00994925067855 0.896 1.95857160203e-38
0.0498572941369 -0.00997145882739 0.898 2.34845837701e-38
0.051691317095 -0.0100047710506 0.901 2.34675565924e-38
0.0534772223972 -0.0100269791995 0.903 2.34693502545e-38
0.055331602825 -0.0100602914227 0.906 2.34736550434e-38
0.0571341642389 -0.0100824995716 0.908 2.07878255131e-38
0.058944128369 -0.0101047077204 0.91 2.31799386813e-38
0.0608281196619 -0.0101380199437 0.913 2.34813467706e-38
0.0628601652804 -0.0101935403157 0.918 2.21855702846e-38
0.0645590886664 -0.0101935403157 0.918 2.32973296576e-38
0.00171187813945 -0.00855939069723 0.925 1.60091889563e-38
0.00342375627889 -0.00855939069723 0.925 1.95125822535e-38
0.00510787423229 -0.00851312372049 0.92 1.95964934068e-38
0.00672166638105 -0.00840208297631 0.908 1.89521917872e-38
0.00838357618561 -0.00838357618561 0.906 1.94128041976e-38
0.0100602914227 -0.00838357618561 0.906 1.99663283014e-38
0.0117370066599 -0.00838357618561 0.906 1.97787112526e-38
0.0133396947342 -0.00833730920887 0.901 2.0516982546e-38
0.015007156576 -0.00833730920887 0.901 2.01492818289e-38
0.0166190980456 -0.00830954902282 0.898 2.06088180421e-38
0.0182402929107 -0.00829104223213 0.896 2.17151487849e-38
0.0197874606129 -0.00824477525538 0.891 2.12527427124e-38
0.021436415664 -0.00824477525538 0.891 2.22672379591e-38
0.0230853707151 -0.00824477525538 0.891 2.24509089514e-38
0.0247343257662 -0.00824477525538 0.891 2.18988197772e-38
0.0263832808172 -0.00824477525538 0.891 2.34743739095e-38
0.0280322358683 -0.00824477525538 0.891 2.26468062728e-38
0.0296811909194 -0.00824477525538 0.891 1.82103794126e-38
0.0313301459705 -0.00824477525538 0.891 1.62559590172e-38
0.0329791010215 -0.00824477525538 0.891 2.03319691097e-38
0.0346280560726 -0.00824477525538 0.891 1.79176551699e-38
0.0362770111237 -0.00824477525538 0.891 1.80141121484e-38
0.0380536630306 -0.00827253544143 0.894 1.76467743677e-38
0.0397081701189 -0.00827253544143 0.894 1.78394543078e-38
0.0413626772071 -0.00827253544143 0.894 1.56235179878e-38
0.0430171842954 -0.00827253544143 0.894 1.81106055607e-38
0.0447716280535 -0.00829104223213 0.896 1.68263463467e-38
0.0464298364999 -0.00829104223213 0.896 1.8199620243e-38
0.0481953843324 -0.00830954902282 0.898 2.3486367623e-38
0.0500238552532 -0.00833730920887 0.901 2.31020433023e-38
0.0518060591973 -0.00835581599956 0.903 2.34675565924e-38
0.0536548875879 -0.00838357618561 0.906 2.34679153248e-38
0.0554537476436 -0.00840208297631 0.908 2.34776585531e-38
0.0572600104156 -0.008420589767 0.91 2.34715460892e-38
0.0591384496713 -0.00844834995305 0.913 2.34859836672e-38
0.060961368555 -0.00846685674374 0.915 2.34763119052e-38
0.0628601652804 -0.00849461692979 0.918 1.96945352539e-38
0.0645590886664 -0.00849461692979 0.918 2.1083250058e-38
-0.0034718739347 -0.00694374786941 0.938 2.29270981955e-38
-0.00173038493014 -0.00692153972057 0.935 2.28381493742e-38
0.0 -0.00692153972057 0.935 1.8132575118e-38
0.001726683572 -0.00690673428801 0.933 1.82214931108e-38
0.00343486035331 -0.00686972070662 0.928 1.92377876246e-38
0.00512453034392 -0.00683270712523 0.923 1.91355390796e-38
0.00681049897639 -0.00681049897639 0.92 1.8951477125e-38
0.00846685674374 -0.006773485395 0.915 1.95975513872e-38
0.0101380199437 -0.00675867996244 0.913 1.88599975586e-38
0.0117888256738 -0.0067364718136 0.91 1.98723404108e-38
0.0134729436272 -0.0067364718136 0.91 2.01464119697e-38
0.0151237493574 -0.00672166638105 0.908 2.06084593097e-38
0.0167116319991 -0.00668465279965 0.903 2.05173412784e-38
0.0183420802595 -0.00666984736709 0.901 2.04233533878e-38
0.0198985013571 -0.0066328337857 0.896 2.12516665152e-38
0.0215567098035 -0.0066328337857 0.896 2.18955911855e-38
0.02321491825 -0.0066328337857 0.896 2.21728913361e-38
0.0248731266964 -0.0066328337857 0.896 2.1343143279e-38
0.0265313351428 -0.0066328337857 0.896 2.28218382601e-38
0.0281895435892 -0.0066328337857 0.896 2.34747312406e-38
0.0298477520357 -0.0066328337857 0.896 2.32867554594e-38
0.0315059604821 -0.0066328337857 0.896 1.52576067289e-38
0.0330901417657 -0.00661802835314 0.894 2.00496242847e-38
0.034744648854 -0.00661802835314 0.894 1.67216189047e-38
0.0364805858214 -0.0066328337857 0.896 1.78293901823e-38
0.0381387942678 -0.0066328337857 0.896 1.71843584862e-38
0.0397970027142 -0.0066328337857 0.896 1.80166513013e-38
0.0414552111606 -0.0066328337857 0.896 1.76510721501e-38
0.0431134196071 -0.0066328337857 0.896 1.61759616905e-38
0.0448715647232 -0.00664763921826 0.898 1.96757662622e-38
0.0465334745278 -0.00664763921826 0.898 2.34787109282e-38
0.0484637327975 -0.00668465279965 0.903 2.32867596633e-38
0.0504124978578 -0.00672166638105 0.908 2.34679153248e-38
0.0522076565554 -0.0067364718136 0.91 2.34693502545e-38
0.0538917745088 -0.0067364718136 0.91 2.34715026489e-38
0.0557591096901 -0.00675867996244 0.913 2.3474418751e-38
0.0574487796807 -0.00675867996244 0.913 2.34866843165e-38
0.0594623185085 -0.00679569354383 0.918 1.84912626833e-38
0.0611612418945 -0.00679569354383 0.918 2.2357326036e-38
0.0629971155316 -0.00681049897639 0.92 2.15341066285e-38
0.0646997402757 -0.00681049897639 0.92 2.08059246841e-38
-0.0034718739347 -0.00520781090205 0.938 2.20069411641e-38
-0.001726683572 -0.00518005071601 0.933 2.21009402651e-38
0.0 -0.00518005071601 0.933 1.92400114853e-38
0.001726683572 -0.00518005071601 0.933 1.72087635002e-38
0.00344226306959 -0.00516339460438 0.93 1.87732179473e-38
0.00513563441834 -0.00513563441834 0.925 1.97855369774e-38
0.00684751255778 -0.00513563441834 0.925 1.91408850332e-38
0.00849461692979 -0.00509677015787 0.918 1.94153153245e-38
0.0101935403157 -0.00509677015787 0.918 1.89518330548e-38
0.0118535994412 -0.00508011404625 0.915 1.95964751899e-38
0.0135173599249 -0.00506900997183 0.913 1.95028460317e-38
0.0152070299155 -0.00506900997183 0.913 2.01460532373e-38
0.016841179534 -0.0050523538602 0.91 2.12509728725e-38
0.0184845825479 -0.00504124978578 0.908 2.10679955229e-38
0.0200095421013 -0.00500238552532 0.901 2.12520252476e-38
0.0216770039431 -0.00500238552532 0.901 2.14339025779e-38
0.0232667372639 -0.00498572941369 0.898 2.08821721361e-38
0.0249286470685 -0.00498572941369 0.898 2.22640093674e-38
0.026590556873 -0.00498572941369 0.898 2.20789034455e-38
0.0282524666776 -0.00498572941369 0.898 2.26331450141e-38
0.0298477520357 -0.00497462533928 0.896 2.34747312406e-38
0.0315059604821 -0.00497462533928 0.896 2.30106043736e-38
0.0332381960913 -0.00498572941369 0.898 1.77486445622e-38
0.0349001058959 -0.00498572941369 0.898 1.67144428552e-38
0.0365620157004 -0.00498572941369 0.898 1.9295857433e-38
0.038223925505 -0.00498572941369 0.898 1.67140603008e-38
0.0398858353096 -0.00498572941369 0.898 1.66240184666e-38
0.0416865460443 -0.00500238552532 0.901 1.92958630382e-38
0.0433540078861 -0.00500238552532 0.901 2.30937770427e-38
0.0451214063976 -0.00501348959974 0.903 2.34780677322e-38
0.0467925695976 -0.00501348959974 0.903 2.30080203792e-38
0.0487320812626 -0.00504124978578 0.908 2.34700677193e-38
0.0506900997183 -0.00506900997183 0.913 2.34697089869e-38
0.0523797697089 -0.00506900997183 0.913 2.34689915221e-38
0.05418788316 -0.00508011404625 0.915 2.34675565924e-38
0.0558812545087 -0.00508011404625 0.915 2.34729375785e-38
0.0577633951226 -0.00509677015787 0.918 2.34751726496e-38
0.0595918660434 -0.00510787423229 0.92 2.34802383435e-38
0.0612944907875 -0.00510787423229 0.92 2.19114664958e-38
0.0629971155316 -0.00510787423229 0.92 2.02465529618e-38
0.0646997402757 -0.00510787423229 0.92 1.91485669514e-38
-0.001726683572 -0.00345336714401 0.933 2.04410461822e-38
0.0 -0.00345336714401 0.933 1.93318581918e-38
0.001726683572 -0.00345336714401 0.933 1.95154142777e-38
0.00344226306959 -0.00344226306959 0.93 1.90501775823e-38
0.00515229052996 -0.00343486035331 0.928 1.88617912207e-38
0.00686972070662 -0.00343486035331 0.928 1.88599975586e-38
0.00855939069723 -0.00342375627889 0.925 1.9598268852e-38
0.0101935403157 -0.00339784677192 0.918 1.94124454652e-38
0.0118924637017 -0.00339784677192 0.918 2.07020884679e-38
0.01354697079 -0.0033867426975 0.915 1.97823125897e-38
0.0152070299155 -0.00337933998122 0.913 2.03340290185e-38
0.0168966999061 -0.00337933998122 0.913 2.10669193257e-38
0.0185863698967 -0.00337933998122 0.913 2.11591135542e-38
0.0202094154408 -0.0033682359068 0.91 2.10683542553e-38
0.0218454157384 -0.00336083319052 0.908 2.18037556894e-38
0.0234740133197 -0.00335343047424 0.906 2.25431031799e-38
0.0250674479987 -0.00334232639983 0.903 2.1989944815e-38
0.0267386111986 -0.00334232639983 0.903 2.18055493514e-38
0.0283468513102 -0.00333492368355 0.901 2.21714564064e-38
0.0299143764822 -0.00332381960913 0.898 2.25416682503e-38
0.0315762862867 -0.00332381960913 0.898 2.26370910705e-38
0.0334232639983 -0.00334232639983 0.903 2.25474079688e-38
0.0350944271982 -0.00334232639983 0.903 2.34675846184e-38
0.0367655903981 -0.00334232639983 0.903 2.34740488082e-38
0.038436753598 -0.00334232639983 0.903 2.30080203792e-38
0.0401079167979 -0.00334232639983 0.903 2.34754781327e-38
0.0417790799978 -0.00334232639983 0.903 2.34776431388e-38
0.0435945961652 -0.00335343047424 0.906 2.34725872539e-38
0.0452713114023 -0.00335343047424 0.906 2.34650454656e-38
0.0470516646673 -0.00336083319052 0.908 2.34664803952e-38
0.0488394206486 -0.0033682359068 0.91 2.3465404198e-38
0.0506900997183 -0.00337933998122 0.913 2.34679153248e-38
0.0524945118112 -0.0033867426975 0.915 2.34715026489e-38
0.0543655483507 -0.00339784677192 0.918 2.34718613813e-38
0.0560644717366 -0.00339784677192 0.918 2.34822646211e-38
0.0578892412993 -0.00340524948819 0.92 2.34835201845e-38
0.0597861873457 -0.00341635356261 0.923 2.34885830759e-38
0.06162761302 -0.00342375627889 0.925 1.9149560472e-38
0.0640242424153 -0.00346076986028 0.935 1.88698136544e-38
0.00173038493014 -0.00173038493014 0.935 1.85002225857e-38
0.00345336714401 -0.001726683572 0.933 1.99713925941e-38
0.00516339460438 -0.00172113153479 0.93 1.96922567426e-38
0.00688452613918 -0.00172113153479 0.93 1.9045462213e-38
0.00860565767397 -0.00172113153479 0.93 1.95049984262e-38
0.0103045810599 -0.00171743017665 0.928 1.88589213614e-38
0.0119572374691 -0.00170817678131 0.923 1.99634584422e-38
0.0135913870877 -0.00169892338596 0.918 1.97805049147e-38
0.0152903104736 -0.00169892338596 0.918 2.02414760575e-38
0.0168966999061 -0.00168966999061 0.913 2.00563701355e-38
0.0185863698967 -0.00168966999061 0.913 2.07914128372e-38
0.0202094154408 -0.0016841179534 0.91 2.10669193257e-38
0.0218454157384 -0.00168041659526 0.908 2.14346200427e-38
0.0235258323337 -0.00168041659526 0.908 2.1710843996e-38
0.0251507285568 -0.00167671523712 0.906 2.12498728532e-38
0.026827443794 -0.00167671523712 0.906 2.20810558399e-38
0.0284097743985 -0.00167116319991 0.903 2.24469628949e-38
0.0300809375984 -0.00167116319991 0.903 2.2725697975e-38
0.0317521007983 -0.00167116319991 0.903 2.27242630454e-38
0.0335343047424 -0.00167671523712 0.906 2.2820044598e-38
0.0352110199796 -0.00167671523712 0.906 2.26345799437e-38
0.0368877352167 -0.00167671523712 0.906 2.34668391276e-38
0.0385644504538 -0.00167671523712 0.906 2.34657629304e-38
