# .PCD v0.7 - Point Cloud Data file format
VERSION 0.7
FIELDS x y z rgb
SIZE 4 4 4 4
TYPE F F F F
COUNT 1 1 1 1
WIDTH 859
HEIGHT 1
VIEWPOINT 0 0 0 1 0 0 0
POINTS 859
DATA ascii
-0.0102601647623 -0.133382141909 0.792 7.54450124882e-39
-0.00877221879024 -0.133045318319 0.79 7.44620856934e-39
-0.0073101823252 -0.133045318319 0.79 6.61215572338e-39
-0.00584814586016 -0.133045318319 0.79 3.30607786169e-39
-0.00438610939512 -0.133045318319 0.79 1.3913974499e-38
-0.00292407293008 -0.133045318319 0.79 1.90801793824e-38
-0.00146018578597 -0.132876906523 0.789 0.0
0.0 -0.132876906523 0.789 1.16933606446e-38
0.00146018578597 -0.132876906523 0.789 1.29739162268e-38
0.00292037157194 -0.132876906523 0.789 1.34309413131e-38
0.00438055735791 -0.132876906523 0.789 1.39819542901e-38
0.00584074314388 -0.132876906523 0.789 1.41663427472e-38
0.00730092892985 -0.132876906523 0.789 1.37997182274e-38
0.00876111471582 -0.132876906523 0.789 1.37064478016e-38
0.0102213005018 -0.132876906523 0.789 1.33369534225e-38
0.0116814862878 -0.132876906523 0.789 1.37957721709e-38
0.0131416720737 -0.132876906523 0.789 1.40734310538e-38
0.0146018578597 -0.132876906523 0.789 1.43496550071e-38
0.0160824011154 -0.133045318319 0.79 1.48084737555e-38
0.0175444375805 -0.133045318319 0.79 1.46251614956e-38
0.0190545917013 -0.133382141909 0.792 1.49925034802e-38
0.0205203295245 -0.133382141909 0.792 1.4993220945e-38
0.0220415877198 -0.1337189655 0.794 1.58229690021e-38
0.0235110269011 -0.1337189655 0.794 1.58229998307e-38
0.0250433891708 -0.134055789091 0.796 1.59148044983e-38
0.0265831541568 -0.134392612681 0.798 1.59144457658e-38
0.0280599960544 -0.134392612681 0.798 1.60984754906e-38
0.0296108651147 -0.134729436272 0.8 1.59140870334e-38
0.0312080011519 -0.135234671658 0.803 1.70200590438e-38
0.0328569562029 -0.135908318839 0.807 1.77543842807e-38
0.0345207166866 -0.136581966021 0.811 1.84912206444e-38
0.0361992826028 -0.137255613202 0.815 1.68299308682e-38
-0.0331012458401 -0.135414187528 0.813 1.92431658081e-38
-0.0315189152356 -0.135081065295 0.811 8.64150635032e-39
-0.0300180145101 -0.135081065295 0.811 1.45521048001e-38
-0.0285171137846 -0.135081065295 0.811 3.67341984632e-39
-0.0269495886125 -0.134747943063 0.809 5.98115242619e-39
-0.0253265430684 -0.134081698598 0.805 5.5216092065e-39
-0.0238367464174 -0.134081698598 0.805 7.18038785585e-39
-0.0222914293942 -0.133748576365 0.803 8.46751973169e-39
-0.0207794245943 -0.133582015249 0.802 1.00283700392e-38
-0.0192951799804 -0.133582015249 0.802 1.03996875075e-38
-0.0177665190688 -0.133248893016 0.8 9.1835496158e-40
-0.0162452608736 -0.132915770784 0.798 8.64693638187e-39
-0.014768418976 -0.132915770784 0.798 7.17357194012e-39
-0.0132582648551 -0.132582648551 0.796 5.97719936322e-39
-0.0117555134506 -0.132249526319 0.794 7.35867786207e-39
-0.0102860742692 -0.132249526319 0.794 1.0865295547e-38
-0.00879442693908 -0.131916404086 0.792 1.15092580524e-38
-0.0073286891159 -0.131916404086 0.792 9.8522268222e-39
-0.00586295129272 -0.131916404086 0.792 2.8469003809e-39
-0.00439721346954 -0.131916404086 0.792 7.37348678424e-39
-0.00292407293008 -0.131583281854 0.79 1.81596650199e-38
-0.00146203646504 -0.131583281854 0.79 8.1081735561e-39
0.0 -0.131583281854 0.79 5.42729481336e-39
0.00146203646504 -0.131583281854 0.79 1.32551624337e-38
0.00292407293008 -0.131583281854 0.79 1.39837493534e-38
0.00438610939512 -0.131583281854 0.79 1.40734310538e-38
0.00584814586016 -0.131583281854 0.79 1.37982832977e-38
0.0073101823252 -0.131583281854 0.79 1.41667014796e-38
0.00877221879024 -0.131583281854 0.79 1.4074507251e-38
0.0102342552553 -0.131583281854 0.79 1.39841066845e-38
0.0116962917203 -0.131583281854 0.79 1.42599719054e-38
0.0131583281854 -0.131583281854 0.79 1.35234942741e-38
0.0146203646504 -0.131583281854 0.79 1.4074507251e-38
0.0160824011154 -0.131583281854 0.79 1.48084737555e-38
0.0175888538782 -0.131916404086 0.792 1.46244440308e-38
0.0190545917013 -0.131916404086 0.792 1.50861326384e-38
0.0205721485385 -0.132249526319 0.794 1.49024616461e-38
0.0220415877198 -0.132249526319 0.794 1.53623565917e-38
0.0235702486313 -0.132582648551 0.796 1.5453474623e-38
0.0251063122592 -0.132915770784 0.798 1.58215340725e-38
0.0265831541568 -0.132915770784 0.798 1.6006281262e-38
0.028130321859 -0.133248893016 0.8 1.60984754906e-38
0.0296848922775 -0.133582015249 0.802 1.59148044983e-38
0.0312080011519 -0.133748576365 0.803 1.78480190441e-38
0.0328569562029 -0.13441482083 0.807 1.71115358076e-38
0.0345207166866 -0.135081065295 0.811 1.74760079329e-38
0.0363769477935 -0.136413554225 0.819 1.67312794563e-38
-0.0331826757192 -0.134239006319 0.815 1.90587941666e-38
-0.0316743722774 -0.134239006319 0.815 8.45496409745e-39
-0.0301660688356 -0.134239006319 0.815 1.58356801805e-38
-0.0285171137846 -0.13358016457 0.811 5.79640803925e-39
-0.0269495886125 -0.133250743695 0.809 4.49993931174e-39
-0.0253894661568 -0.132921322821 0.807 7.54557744604e-39
-0.0238959681476 -0.132921322821 0.807 9.75178174828e-39
-0.0224024701384 -0.132921322821 0.807 8.73909277538e-39
-0.0208571531152 -0.132591901947 0.805 8.37281437628e-39
-0.0193673564641 -0.132591901947 0.805 7.54485998123e-39
-0.0178109353665 -0.132097770635 0.802 0.0
-0.0162452608736 -0.131438928886 0.798 1.7508047221e-38
-0.014768418976 -0.131438928886 0.798 1.83670992316e-39
-0.0132915770784 -0.131438928886 0.798 5.15322885971e-39
-0.0117851243157 -0.131109508012 0.796 9.20692747808e-39
-0.0103119837762 -0.131109508012 0.796 5.4276213159e-39
-0.00881663508791 -0.130780087137 0.794 7.07563799305e-39
-0.00734719590659 -0.130780087137 0.794 5.9711009123e-39
-0.00587775672528 -0.130780087137 0.794 5.05525707757e-39
-0.00440831754396 -0.130780087137 0.794 8.01525625753e-39
-0.00293147564636 -0.130450666263 0.792 1.72369884539e-38
-0.00146203646504 -0.130121245389 0.79 1.36402672777e-38
0.0 -0.130121245389 0.79 1.744874427e-39
0.00146573782318 -0.130450666263 0.792 1.29800146777e-38
0.00292407293008 -0.130121245389 0.79 1.37986420301e-38
0.00438610939512 -0.130121245389 0.79 1.39819542901e-38
0.00584814586016 -0.130121245389 0.79 1.41663427472e-38
0.0073101823252 -0.130121245389 0.79 1.40741485186e-38
0.00877221879024 -0.130121245389 0.79 1.4440414306e-38
0.0102601647623 -0.130450666263 0.792 1.45340434642e-38
0.0117259025854 -0.130450666263 0.792 1.41677776768e-38
0.0131916404086 -0.130450666263 0.792 1.37990007626e-38
0.0146573782318 -0.130450666263 0.792 1.4167060212e-38
0.016123116055 -0.130450666263 0.792 1.44425667005e-38
0.0176332701758 -0.130780087137 0.794 1.45340434642e-38
0.0191027093571 -0.130780087137 0.794 1.462731389e-38
0.0205721485385 -0.130780087137 0.794 1.49953733395e-38
0.0220971080919 -0.131109508012 0.796 1.53623565917e-38
0.0235702486313 -0.131109508012 0.796 1.59148255177e-38
0.0251063122592 -0.131438928886 0.798 1.60991929554e-38
0.0266497786033 -0.131768349761 0.8 1.60984754906e-38
0.028130321859 -0.131768349761 0.8 1.6006281262e-38
0.0296848922775 -0.132097770635 0.802 1.62821464829e-38
0.0312080011519 -0.132262481072 0.803 1.73877597609e-38
0.0328569562029 -0.132921322821 0.807 1.75707132884e-38
0.0343504542122 -0.132921322821 0.807 1.72912607434e-38
0.0363769477935 -0.134897848067 0.819 1.82085409091e-38
-0.0332641055983 -0.133056422393 0.817 1.98881947016e-38
-0.0317521007983 -0.133056422393 0.817 9.0109993281e-39
-0.0301660688356 -0.132730702877 0.815 9.93474648617e-39
-0.0285171137846 -0.132079263844 0.811 1.54801931808e-38
-0.0269495886125 -0.131753544328 0.809 3.21464033429e-39
-0.0253894661568 -0.131427824812 0.807 1.19386145005e-39
-0.0238959681476 -0.131427824812 0.807 9.1835496158e-40
-0.0224024701384 -0.131427824812 0.807 4.50209871268e-39
-0.0208571531152 -0.131102105295 0.805 2.57139389242e-39
-0.0193192388083 -0.130776385779 0.803 0.0
-0.0178109353665 -0.130613526021 0.802 7.28381068901e-39
-0.0162859758131 -0.130287806505 0.8 1.64061375749e-38
-0.0148054325574 -0.130287806505 0.8 1.54827323337e-38
-0.0132915770784 -0.129962086989 0.798 8.26519465422e-40
-0.0118147351808 -0.129962086989 0.798 0.0
-0.0103378932832 -0.129962086989 0.798 5.97830078381e-39
-0.00883884323675 -0.129636367472 0.796 7.54737110808e-39
-0.00736570269729 -0.129636367472 0.796 4.41097367484e-39
-0.00589256215783 -0.129636367472 0.796 0.0
-0.00441942161837 -0.129636367472 0.796 1.63997112201e-38
-0.00293147564636 -0.12898492844 0.792 1.7235190588e-38
-0.00146573782318 -0.12898492844 0.792 1.15201181155e-38
0.0 -0.12898492844 0.792 2.75506488474e-39
0.00146573782318 -0.12898492844 0.792 1.41753474911e-38
0.00293147564636 -0.12898492844 0.792 1.32472829325e-38
0.00439721346954 -0.12898492844 0.792 1.4351091338e-38
0.00586295129272 -0.12898492844 0.792 1.3799359495e-38
0.0073286891159 -0.12898492844 0.792 1.37075239988e-38
0.00881663508791 -0.129310647956 0.794 1.46251614956e-38
0.0102860742692 -0.129310647956 0.794 1.42563845813e-38
0.0117555134506 -0.129310647956 0.794 1.43510899367e-38
0.0132249526319 -0.129310647956 0.794 1.39844654169e-38
0.0146943918132 -0.129310647956 0.794 1.38922711883e-38
0.0161638309945 -0.129310647956 0.794 1.42599719054e-38
0.0176776864735 -0.129636367472 0.796 1.44425667005e-38
0.019150827013 -0.129636367472 0.796 1.462731389e-38
0.0206239675524 -0.129636367472 0.796 1.49953733395e-38
0.0220971080919 -0.129636367472 0.796 1.54556270175e-38
0.0236294703616 -0.129962086989 0.798 1.56392980098e-38
0.0251063122592 -0.129962086989 0.798 1.61917459164e-38
0.0266497786033 -0.130287806505 0.8 1.60984754906e-38
0.0282006476636 -0.130613526021 0.802 1.60984754906e-38
0.0297219058589 -0.130776385779 0.803 1.62817877505e-38
0.0312857296728 -0.131102105295 0.805 1.91412465682e-38
0.0328569562029 -0.131427824812 0.807 1.66498682194e-38
0.0348612416354 -0.133382141909 0.819 1.68292134034e-38
0.0363769477935 -0.133382141909 0.819 1.78419149879e-38
-0.0332641055983 -0.131544417593 0.817 1.85978062082e-38
-0.0317521007983 -0.131544417593 0.817 1.09488815991e-38
-0.0301660688356 -0.131222399435 0.815 8.73549283962e-39
-0.0285874395892 -0.130900381277 0.813 1.40936896257e-38
-0.0270162130591 -0.130578363119 0.811 1.70478944365e-38
-0.0254523892452 -0.130256344961 0.809 1.29027190544e-38
-0.0239551898778 -0.130256344961 0.809 9.95745312648e-39
-0.0224024701384 -0.129934326803 0.807 4.87843983604e-39
-0.0208571531152 -0.129612308644 0.805 5.34123266687e-39
-0.0193192388083 -0.129290290486 0.803 1.29952103582e-38
-0.0178331435154 -0.129290290486 0.803 1.6312885366e-38
-0.0163266907526 -0.129129281407 0.802 1.44686000233e-38
-0.0148424461388 -0.129129281407 0.802 1.48374007597e-38
-0.0133248893016 -0.128807263249 0.8 1.64043411103e-38
-0.0118443460459 -0.128807263249 0.8 1.33626027896e-38
-0.0103378932832 -0.128485245091 0.798 5.71429895573e-39
-0.00886105138558 -0.128485245091 0.798 1.74702682144e-39
-0.00738420948799 -0.128485245091 0.798 8.56450499971e-39
-0.00589256215783 -0.128163226933 0.796 1.56678662816e-38
-0.00441942161837 -0.128163226933 0.796 1.52079783425e-38
-0.00293887836264 -0.127841208775 0.794 1.74192133062e-38
-0.00146573782318 -0.127519190617 0.792 0.0
0.0 -0.127519190617 0.792 6.81022926131e-39
0.00146943918132 -0.127841208775 0.794 1.42635648346e-38
0.00293147564636 -0.127519190617 0.792 1.37071652664e-38
0.00439721346954 -0.127519190617 0.792 1.38904775263e-38
0.00586295129272 -0.127519190617 0.792 1.38908362587e-38
0.00734719590659 -0.127841208775 0.794 1.39841066845e-38
0.00881663508791 -0.127841208775 0.794 1.43521661339e-38
0.0102860742692 -0.127841208775 0.794 1.42592544406e-38
0.0117851243157 -0.128163226933 0.796 1.43521661339e-38
0.0132249526319 -0.127841208775 0.794 1.44443603625e-38
0.0146943918132 -0.127841208775 0.794 1.42621242998e-38
0.016204545934 -0.128163226933 0.796 1.45376307883e-38
0.0176776864735 -0.128163226933 0.796 1.44425667005e-38
0.019150827013 -0.128163226933 0.796 1.5178326867e-38
0.0206239675524 -0.128163226933 0.796 1.51786855994e-38
0.022152628464 -0.128485245091 0.798 1.59165981603e-38
0.0236294703616 -0.128485245091 0.798 1.58247626641e-38
0.0251692353475 -0.128807263249 0.8 1.61917459164e-38
0.0267164030498 -0.129129281407 0.802 1.62839401449e-38
0.0282006476636 -0.129129281407 0.802 1.62828639477e-38
0.0297219058589 -0.129290290486 0.803 1.61895935219e-38
0.0312857296728 -0.129612308644 0.805 1.84018962751e-38
0.0328569562029 -0.129934326803 0.807 1.83068321872e-38
0.0348612416354 -0.131866435751 0.819 1.74781603274e-38
0.0363769477935 -0.131866435751 0.819 1.80277383747e-38
0.0378926539515 -0.131866435751 0.819 2.34864152672e-38
-0.0333455354773 -0.130350729593 0.819 1.85967370174e-38
-0.0317521007983 -0.130032412793 0.817 8.73836269888e-39
-0.0301660688356 -0.129714095993 0.815 1.11350539092e-38
-0.0285874395892 -0.129395779193 0.813 1.04861181955e-38
-0.0270162130591 -0.129077462393 0.811 1.71407963208e-38
-0.0254523892452 -0.128759145593 0.809 0.0
-0.0239551898778 -0.128759145593 0.809 1.01419648979e-38
-0.0224579905105 -0.128759145593 0.809 1.73277631671e-38
-0.0209089721291 -0.128440828793 0.807 1.52064985713e-38
-0.0193673564641 -0.128122511993 0.805 1.50214010571e-38
-0.0178331435154 -0.127804195193 0.803 1.48384419244e-38
-0.0163266907526 -0.127645036793 0.802 1.44689517493e-38
-0.0148424461388 -0.127645036793 0.802 1.44678797559e-38
-0.0133582015249 -0.127645036793 0.802 1.54820260792e-38
-0.0118443460459 -0.127326719993 0.8 1.54834582063e-38
-0.0103638027902 -0.127326719993 0.8 1.60380767242e-38
-0.00888325953442 -0.127326719993 0.8 1.65912533059e-38
-0.00738420948799 -0.127008403193 0.798 1.63135916204e-38
-0.00590736759039 -0.127008403193 0.798 1.51150456296e-38
-0.00443052569279 -0.127008403193 0.798 1.60366473997e-38
-0.00294628107892 -0.126690086393 0.796 1.58544043305e-38
-0.00146943918132 -0.126371769593 0.794 0.0
0.0 -0.126371769593 0.794 1.39824265276e-38
0.00146943918132 -0.126371769593 0.794 1.39859003465e-38
0.00293887836264 -0.126371769593 0.794 1.39844654169e-38
0.00440831754396 -0.126371769593 0.794 1.4167060212e-38
0.00587775672528 -0.126371769593 0.794 1.43532423312e-38
0.00734719590659 -0.126371769593 0.794 1.47220192454e-38
0.00883884323675 -0.126690086393 0.796 1.49971670015e-38
0.0103119837762 -0.126690086393 0.796 1.48102674175e-38
0.0117851243157 -0.126690086393 0.796 1.4812419812e-38
0.0132582648551 -0.126690086393 0.796 1.47195081186e-38
0.0147314053946 -0.126690086393 0.796 1.4812419812e-38
0.016204545934 -0.126690086393 0.796 1.48145722064e-38
0.0177221027712 -0.127008403193 0.798 1.43532577454e-38
0.0191989446688 -0.127008403193 0.798 1.49028203785e-38
0.0206757865664 -0.127008403193 0.798 1.51776094021e-38
0.0222081488361 -0.127326719993 0.8 1.53623565917e-38
0.0236886920918 -0.127326719993 0.8 1.59148044983e-38
0.0252321584359 -0.127645036793 0.802 1.70204177762e-38
0.0267164030498 -0.127645036793 0.802 1.61924703877e-38
0.0282006476636 -0.127645036793 0.802 1.60995516878e-38
0.0297219058589 -0.127804195193 0.803 1.70222114383e-38
0.0312857296728 -0.128122511993 0.805 1.79416425971e-38
0.0327755263239 -0.128122511993 0.805 1.81213675329e-38
0.034265322975 -0.128122511993 0.805 1.76607551225e-38
-0.0334269653564 -0.129149638877 0.821 1.85045441902e-38
-0.0317521007983 -0.128520407993 0.817 9.01315172254e-39
-0.0302400959984 -0.128520407993 0.817 9.19612767081e-39
-0.0285874395892 -0.12789117711 0.813 5.79281090609e-39
-0.0270828375056 -0.12789117711 0.813 1.52031564744e-38
-0.0255153123336 -0.127576561668 0.811 0.0
-0.0240144116081 -0.127576561668 0.811 2.11221641163e-39
-0.0225135108825 -0.127576561668 0.811 6.61431512431e-39
-0.0209607911431 -0.127261946226 0.809 1.66755750397e-38
-0.0194154741199 -0.126947330784 0.807 1.50232059296e-38
-0.017877559813 -0.126632715342 0.805 1.49295585545e-38
-0.0163470482224 -0.1263180999 0.803 1.46529940857e-38
-0.0148609529295 -0.1263180999 0.803 1.53912779907e-38
-0.0133748576365 -0.1263180999 0.803 1.63143104865e-38
-0.011873956911 -0.126160792179 0.802 1.53948751238e-38
-0.0103897122971 -0.126160792179 0.802 1.51182882343e-38
-0.00888325953442 -0.125846176738 0.8 1.48377510843e-38
-0.00740271627868 -0.125846176738 0.8 1.53916311179e-38
-0.00590736759039 -0.125531561296 0.798 1.6957156157e-38
-0.00443052569279 -0.125531561296 0.798 1.53937779071e-38
-0.00294628107892 -0.125216945854 0.796 0.0
-0.00147314053946 -0.125216945854 0.796 4.68972977445e-39
0.0 -0.125216945854 0.796 1.29739204307e-38
0.00147314053946 -0.125216945854 0.796 1.42614096376e-38
0.00294628107892 -0.125216945854 0.796 1.41695713388e-38
0.00441942161837 -0.125216945854 0.796 1.47220192454e-38
0.00589256215783 -0.125216945854 0.796 1.47220192454e-38
0.00736570269729 -0.125216945854 0.796 1.46277020497e-38
0.00883884323675 -0.125216945854 0.796 1.49035378433e-38
0.0103119837762 -0.125216945854 0.796 1.49953733395e-38
0.0117851243157 -0.125216945854 0.796 1.45376307883e-38
0.0132582648551 -0.125216945854 0.796 1.51808379938e-38
0.0147314053946 -0.125216945854 0.796 1.51815764781e-38
0.0162452608736 -0.125531561296 0.798 1.48127785444e-38
0.0177221027712 -0.125531561296 0.798 1.49049727729e-38
0.0191989446688 -0.125531561296 0.798 1.49038965757e-38
0.0207276055803 -0.125846176738 0.8 1.6100627885e-38
0.0222636692081 -0.126160792179 0.802 1.61017040822e-38
0.023747913822 -0.126160792179 0.802 1.56418329587e-38
0.0252636199801 -0.1263180999 0.803 1.63768518383e-38
0.026749715273 -0.1263180999 0.803 1.66519995944e-38
0.028235810566 -0.1263180999 0.803 1.5638580545e-38
0.0297959330217 -0.126632715342 0.805 1.60984754906e-38
0.0312857296728 -0.126632715342 0.805 1.82178665503e-38
0.0327755263239 -0.126632715342 0.805 1.82171490855e-38
-0.0317521007983 -0.127008403193 0.817 1.58366891154e-38
-0.0302400959984 -0.127008403193 0.817 1.28569694621e-39
-0.0286577653939 -0.12669748911 0.815 9.94482042083e-39
-0.0270828375056 -0.126386575026 0.813 5.05382214794e-39
-0.0255153123336 -0.126075660942 0.811 7.34683969264e-40
-0.0240144116081 -0.126075660942 0.811 1.10325026836e-38
-0.0225690312546 -0.126386575026 0.813 1.07447530505e-38
-0.021012610157 -0.126075660942 0.811 6.15297824259e-39
-0.0194635917757 -0.125764746859 0.809 1.54772994995e-38
-0.0179219761107 -0.125453832775 0.807 1.62213889841e-38
-0.0163877631619 -0.125142918691 0.805 1.53008774242e-38
-0.0148979665109 -0.125142918691 0.805 1.16151822033e-38
-0.0133748576365 -0.124832004607 0.803 1.37758569171e-39
-0.0118887623436 -0.124832004607 0.803 0.0
-0.0104026670506 -0.124832004607 0.803 1.76893107826e-38
-0.00890546768326 -0.124676547566 0.802 1.76972267176e-38
-0.00740271627868 -0.124365633482 0.8 1.53026766914e-38
-0.00592217302295 -0.124365633482 0.8 8.57167824655e-39
-0.00444162976721 -0.124365633482 0.8 0.0
-0.00295368379519 -0.124054719398 0.798 6.16269764873e-39
-0.0014768418976 -0.124054719398 0.798 1.22338512714e-38
0.0 -0.123743805314 0.796 1.39862590789e-38
0.00147314053946 -0.123743805314 0.796 1.45394244503e-38
0.00294628107892 -0.123743805314 0.796 1.50897199625e-38
0.00441942161837 -0.123743805314 0.796 1.45355008146e-38
0.00590736759039 -0.124054719398 0.798 1.49957320719e-38
0.00738420948799 -0.124054719398 0.798 1.4812419812e-38
0.00886105138558 -0.124054719398 0.798 1.53648677185e-38
0.0103378932832 -0.124054719398 0.798 1.46280663873e-38
0.0118147351808 -0.124054719398 0.798 1.46298250169e-38
0.0132915770784 -0.124054719398 0.798 1.49049727729e-38
0.014768418976 -0.124054719398 0.798 1.527267349e-38
0.0162859758131 -0.124365633482 0.8 1.49982431987e-38
0.0177665190688 -0.124365633482 0.8 1.48127785444e-38
0.0192470623246 -0.124365633482 0.8 1.48120610795e-38
0.0207794245943 -0.124676547566 0.802 1.53648677185e-38
0.0222914293942 -0.124832004607 0.803 1.5547821246e-38
0.0237775246871 -0.124832004607 0.803 1.58244039317e-38
0.0253265430684 -0.125142918691 0.805 1.60069987268e-38
0.0268163397195 -0.125142918691 0.805 1.64672524048e-38
0.0283061363706 -0.125142918691 0.805 1.65594466334e-38
0.0297959330217 -0.125142918691 0.805 1.66502059323e-38
0.0314411867146 -0.125764746859 0.809 1.78476547065e-38
0.032938386082 -0.125764746859 0.809 1.80334780932e-38
-0.0302400959984 -0.125496398393 0.817 9.0221284405e-39
-0.0287280911985 -0.125496398393 0.817 1.13230759332e-38
-0.0272160863986 -0.125496398393 0.817 9.75107689515e-39
-0.0256411585103 -0.125189185668 0.815 2.11221641163e-39
-0.0241328550685 -0.125189185668 0.815 1.03864396319e-38
-0.0226245516267 -0.125189185668 0.815 1.20343960532e-38
-0.021064429171 -0.124881972942 0.813 1.20304499967e-38
-0.0195598270874 -0.124881972942 0.813 7.4386751888e-39
-0.018010808706 -0.124574760217 0.811 2.93873587706e-39
-0.016469193041 -0.124267547491 0.809 2.47955839627e-39
-0.0149349800922 -0.123960334766 0.807 4.31626831943e-39
-0.0134081698598 -0.12365312204 0.805 9.00203101792e-39
-0.0118887623436 -0.123345909315 0.803 6.97949770801e-39
-0.0104026670506 -0.123345909315 0.803 8.27671472889e-39
-0.00891657175768 -0.123345909315 0.803 3.50324616081e-44
-0.00742122306938 -0.123192302952 0.802 0.0
-0.0059369784555 -0.123192302952 0.802 2.57139389242e-39
-0.00445273384163 -0.123192302952 0.802 1.00204779262e-38
-0.00296108651147 -0.122885090226 0.8 1.29663856488e-38
-0.00148054325574 -0.122885090226 0.8 1.39841066845e-38
0.0 -0.122885090226 0.8 1.45401419151e-38
0.0014768418976 -0.122577877501 0.798 1.44468714894e-38
0.00295368379519 -0.122577877501 0.798 1.43532423312e-38
0.00444162976721 -0.122885090226 0.8 1.49035378433e-38
0.00592217302295 -0.122885090226 0.8 1.462731389e-38
0.00740271627868 -0.122885090226 0.8 1.49035378433e-38
0.00888325953442 -0.122885090226 0.8 1.53637915213e-38
0.0103638027902 -0.122885090226 0.8 1.49038965757e-38
0.0118147351808 -0.122577877501 0.798 1.45376307883e-38
0.0132915770784 -0.122577877501 0.798 1.45376307883e-38
0.0148054325574 -0.122885090226 0.8 1.44454365597e-38
0.0162859758131 -0.122885090226 0.8 1.48127785444e-38
0.0177665190688 -0.122885090226 0.8 1.462731389e-38
0.0192951799804 -0.123192302952 0.802 1.462731389e-38
0.0208053341012 -0.123345909315 0.803 1.51786855994e-38
0.0223469497663 -0.12365312204 0.805 1.59144457658e-38
0.0238367464174 -0.12365312204 0.805 1.66519995944e-38
0.0253265430684 -0.12365312204 0.805 1.65598053658e-38
0.026882964166 -0.123960334766 0.807 1.65598053658e-38
0.0283764621753 -0.123960334766 0.807 1.6926788618e-38
0.0299439873473 -0.124267547491 0.809 1.69257124208e-38
0.0314411867146 -0.124267547491 0.809 1.78472973753e-38
0.032938386082 -0.124267547491 0.809 1.85852211467e-38
-0.0303141231612 -0.124287904961 0.819 1.34431984708e-38
-0.0287984170032 -0.124287904961 0.819 8.82876326541e-39
-0.0272827108451 -0.124287904961 0.819 6.89878291646e-39
-0.0257040815987 -0.123984393594 0.817 1.07796243628e-38
-0.0241920767987 -0.123984393594 0.817 8.2799068868e-39
-0.0226245516267 -0.123680882226 0.815 1.12175693692e-38
-0.021064429171 -0.123377370859 0.813 8.72437213501e-39
-0.0195598270874 -0.123377370859 0.813 6.42848753366e-39
-0.018010808706 -0.123073859491 0.811 5.51012976948e-39
-0.0165099079805 -0.123073859491 0.811 6.42848473106e-39
-0.0149349800922 -0.122466836756 0.807 9.82819595483e-39
-0.0134081698598 -0.122163325389 0.805 1.24939336677e-38
-0.0119183732087 -0.122163325389 0.805 7.53051068496e-39
-0.0104285765576 -0.122163325389 0.805 2.75506488474e-40
-0.00891657175768 -0.121859814022 0.803 7.99904883949e-39
-0.00743047646473 -0.121859814022 0.803 3.12240686937e-39
-0.00594438117178 -0.121859814022 0.803 1.25990997161e-38
-0.00445828587884 -0.121859814022 0.803 1.25111514219e-38
-0.00297219058589 -0.121859814022 0.803 1.49986145428e-38
-0.00148609529295 -0.121859814022 0.803 1.44472302218e-38
0.0 -0.121859814022 0.803 1.38926341246e-38
0.00148609529295 -0.121859814022 0.803 1.647336627e-38
0.00297219058589 -0.121859814022 0.803 1.40755834482e-38
0.00445828587884 -0.121859814022 0.803 1.45369133235e-38
0.00594438117178 -0.121859814022 0.803 1.45369133235e-38
0.00743047646473 -0.121859814022 0.803 1.462731389e-38
0.00891657175768 -0.121859814022 0.803 1.49953733395e-38
0.0104026670506 -0.121859814022 0.803 1.48127785444e-38
0.0118887623436 -0.121859814022 0.803 1.40773771103e-38
0.0133748576365 -0.121859814022 0.803 1.40766596455e-38
0.0148609529295 -0.121859814022 0.803 1.45376307883e-38
0.0163470482224 -0.121859814022 0.803 1.47195081186e-38
0.0178331435154 -0.121859814022 0.803 1.49028203785e-38
0.0193192388083 -0.121859814022 0.803 1.59162394279e-38
0.0208053341012 -0.121859814022 0.803 1.57336446328e-38
0.0223469497663 -0.122163325389 0.805 1.64697635317e-38
0.0238959681476 -0.122466836756 0.807 1.61013453498e-38
0.0253894661568 -0.122466836756 0.807 1.65601640982e-38
0.026882964166 -0.122466836756 0.807 1.6926788618e-38
0.0284467879799 -0.122770348124 0.809 1.72033713037e-38
0.0299439873473 -0.122770348124 0.809 1.77558192103e-38
0.0315189152356 -0.123073859491 0.811 1.73863248312e-38
0.0330198159611 -0.123073859491 0.811 1.7938055273e-38
0.0349463728726 -0.124591416328 0.821 1.84930353259e-38
-0.0303141231612 -0.122772198803 0.819 1.32563100972e-38
-0.0287984170032 -0.122772198803 0.819 2.8469003809e-39
-0.0272827108451 -0.122772198803 0.819 0.0
-0.0257040815987 -0.122472388794 0.817 9.94950496159e-39
-0.0241920767987 -0.122472388794 0.817 2.66324340157e-39
-0.0226245516267 -0.122172578784 0.815 5.8774815632e-39
-0.0211162481849 -0.122172578784 0.815 1.65303893084e-39
-0.0195598270874 -0.121872768775 0.813 2.11221641163e-39
-0.018010808706 -0.121572958766 0.811 8.83486311762e-39
-0.0165099079805 -0.121572958766 0.811 1.65303893084e-39
-0.0149719936736 -0.121273148756 0.809 2.20405190779e-39
-0.013441482083 -0.120973338747 0.807 8.63724780429e-39
-0.0119479840738 -0.120973338747 0.807 6.24481373874e-39
-0.0104285765576 -0.120673528738 0.805 2.84833811312e-39
-0.00893877990651 -0.120673528738 0.805 1.92600990988e-38
-0.00744898325543 -0.120673528738 0.805 1.56120343469e-39
-0.00595918660434 -0.120673528738 0.805 1.08603531673e-38
-0.00445828587884 -0.120373718729 0.803 1.47277589639e-38
-0.00297219058589 -0.120373718729 0.803 1.36185863879e-38
-0.00148609529295 -0.120373718729 0.803 1.38933473856e-38
0.0 -0.120373718729 0.803 1.4168853874e-38
0.00148609529295 -0.120373718729 0.803 1.462731389e-38
0.00297219058589 -0.120373718729 0.803 1.462731389e-38
0.00445828587884 -0.120373718729 0.803 1.63804517741e-38
0.00594438117178 -0.120373718729 0.803 1.43518074015e-38
0.00743047646473 -0.120373718729 0.803 1.47195081186e-38
0.00891657175768 -0.120373718729 0.803 1.44429254329e-38
0.0104026670506 -0.120373718729 0.803 1.43521661339e-38
0.0118887623436 -0.120373718729 0.803 1.39851828817e-38
0.0134081698598 -0.120673528738 0.805 1.5736514492e-38
0.0148979665109 -0.120673528738 0.805 1.43518074015e-38
0.0163877631619 -0.120673528738 0.805 1.49960908043e-38
0.017877559813 -0.120673528738 0.805 1.49038965757e-38
0.0193673564641 -0.120673528738 0.805 1.52708798279e-38
0.0209089721291 -0.120973338747 0.807 1.49953733395e-38
0.0224024701384 -0.120973338747 0.807 1.59162394279e-38
0.0240144116081 -0.121572958766 0.811 1.64694047993e-38
0.0254523892452 -0.121273148756 0.809 1.66519995944e-38
0.0269495886125 -0.121273148756 0.809 1.70197003114e-38
0.0285171137846 -0.121572958766 0.811 1.71108183427e-38
0.0300180145101 -0.121572958766 0.811 1.75714307532e-38
0.0316743722774 -0.122172578784 0.815 1.79394902026e-38
0.0334269653564 -0.123072008812 0.821 1.81260310542e-38
0.0349463728726 -0.123072008812 0.821 1.74817574605e-38
-0.0287984170032 -0.121256492645 0.819 1.28932308625e-38
-0.0272827108451 -0.121256492645 0.819 8.65800663974e-39
-0.0257040815987 -0.120960383994 0.817 1.32688054756e-38
-0.0241920767987 -0.120960383994 0.817 6.53112423838e-39
-0.0226800719988 -0.120960383994 0.817 5.99084801026e-39
-0.0211162481849 -0.120664275343 0.815 7.63346828702e-39
-0.0196079447432 -0.120664275343 0.815 2.57139389242e-39
-0.0180552250037 -0.120368166691 0.813 0.0
-0.0165506229201 -0.120368166691 0.813 2.66322938858e-39
-0.015009007255 -0.12007205804 0.811 5.51012976948e-39
-0.0134747943063 -0.119775949389 0.809 2.93873587706e-39
-0.0119479840738 -0.119479840738 0.807 2.93873587706e-39
-0.0104544860646 -0.119479840738 0.807 4.41998542526e-39
-0.00893877990651 -0.119183732087 0.805 1.81555690245e-38
-0.00744898325543 -0.119183732087 0.805 1.744874427e-39
-0.00595918660434 -0.119183732087 0.805 1.04915706478e-38
-0.00446938995326 -0.119183732087 0.805 1.41724411981e-38
-0.00297959330217 -0.119183732087 0.805 1.42649941591e-38
-0.00148979665109 -0.119183732087 0.805 1.43553947256e-38
0.0 -0.119183732087 0.805 1.50911548921e-38
0.00148979665109 -0.119183732087 0.805 1.44472680568e-38
0.00297959330217 -0.119183732087 0.805 1.38047404811e-38
0.00446938995326 -0.119183732087 0.805 1.38976521744e-38
0.00595918660434 -0.119183732087 0.805 1.50925898217e-38
0.00744898325543 -0.119183732087 0.805 1.46283900872e-38
0.00893877990651 -0.119183732087 0.805 1.48127785444e-38
0.0104285765576 -0.119183732087 0.805 1.44454365597e-38
0.0119183732087 -0.119183732087 0.805 1.43532451338e-38
0.013441482083 -0.119479840738 0.807 1.48106261499e-38
0.0149349800922 -0.119479840738 0.807 1.47195081186e-38
0.0164284781015 -0.119479840738 0.807 1.49035378433e-38
0.0179219761107 -0.119479840738 0.807 1.50882850328e-38
0.0194635917757 -0.119775949389 0.809 1.52730322224e-38
0.0209607911431 -0.119775949389 0.809 1.55485387108e-38
0.0224579905105 -0.119775949389 0.809 1.58258388614e-38
0.0240144116081 -0.12007205804 0.811 1.60995516878e-38
0.0255153123336 -0.12007205804 0.811 1.72973591943e-38
0.0270162130591 -0.12007205804 0.811 1.69278648152e-38
0.0285171137846 -0.12007205804 0.811 1.72955655323e-38
0.0300180145101 -0.12007205804 0.811 1.73884772257e-38
0.0317521007983 -0.120960383994 0.817 1.70182653818e-38
0.0334269653564 -0.121552601296 0.821 1.79437949915e-38
0.035116635347 -0.122144818598 0.825 1.72973633982e-38
0.0367322781748 -0.122440927249 0.827 1.97844607802e-38
0.0382627897654 -0.122440927249 0.827 2.3493255005e-38
-0.0287984170032 -0.119740786487 0.819 1.40896216563e-38
-0.0272827108451 -0.119740786487 0.819 6.07764443714e-39
-0.025767004687 -0.119740786487 0.819 1.45599324534e-38
-0.024251298529 -0.119740786487 0.819 6.24665084103e-39
-0.0226800719988 -0.119448379194 0.817 1.31801901633e-38
-0.0211680671989 -0.119448379194 0.817 1.71360094852e-38
-0.019656062399 -0.119448379194 0.817 1.1514951528e-38
-0.0180996413014 -0.119155971901 0.815 0.0
-0.0165506229201 -0.118863564608 0.813 1.73244617079e-38
-0.0150460208364 -0.118863564608 0.813 1.57544805397e-38
-0.0135081065295 -0.118571157315 0.811 1.7322879642e-38
-0.0119775949389 -0.118278750022 0.809 1.08717443225e-38
-0.0104544860646 -0.117986342729 0.807 6.90710943194e-39
-0.00896098805535 -0.117986342729 0.807 1.88002083571e-38
-0.00746749004612 -0.117986342729 0.807 1.46936793853e-39
-0.00595918660434 -0.117693935436 0.805 5.79859826875e-39
-0.00446938995326 -0.117693935436 0.805 6.06114274643e-39
-0.00297959330217 -0.117693935436 0.805 6.88766221185e-39
-0.00148979665109 -0.117693935436 0.805 1.14037837183e-38
0.0 -0.117693935436 0.805 1.32587497578e-38
0.00148979665109 -0.117693935436 0.805 5.87747175411e-39
0.00297959330217 -0.117693935436 0.805 4.49993931174e-39
0.00446938995326 -0.117693935436 0.805 4.04076183095e-39
0.00595918660434 -0.117693935436 0.805 6.15297824259e-39
0.00744898325543 -0.117693935436 0.805 1.4909325206e-38
0.00893877990651 -0.117693935436 0.805 1.4448306419e-38
0.0104544860646 -0.117986342729 0.807 1.42621242998e-38
0.0119479840738 -0.117986342729 0.807 1.47220192454e-38
0.013441482083 -0.117986342729 0.807 1.49038965757e-38
0.0149349800922 -0.117986342729 0.807 1.49953733395e-38
0.016469193041 -0.118278750022 0.809 1.47202255834e-38
0.0179663924084 -0.118278750022 0.809 1.49971670015e-38
0.0194635917757 -0.118278750022 0.809 1.52730322224e-38
0.0209607911431 -0.118278750022 0.809 1.56410916718e-38
0.0225135108825 -0.118571157315 0.811 1.60091511213e-38
0.0240144116081 -0.118571157315 0.811 1.60091511213e-38
0.0255782354219 -0.118863564608 0.813 1.72987955252e-38
0.0270828375056 -0.118863564608 0.813 1.65623164926e-38
0.0286577653939 -0.119155971901 0.815 1.73881184933e-38
0.0302400959984 -0.119448379194 0.817 1.73888359581e-38
0.0318298293193 -0.119740786487 0.819 1.73888359581e-38
0.0335083952355 -0.120325601073 0.823 1.74803127218e-38
0.035116635347 -0.120618008366 0.825 1.81267611307e-38
0.0367322781748 -0.120910415659 0.827 1.95078682854e-38
0.0382627897654 -0.120910415659 0.827 2.34921830116e-38
-0.0288687428078 -0.118513786264 0.821 1.58373925672e-38
-0.0272827108451 -0.118225080329 0.819 1.744874427e-39
-0.025767004687 -0.118225080329 0.819 1.42851434297e-38
-0.024251298529 -0.118225080329 0.819 7.62809851131e-39
-0.0227355923709 -0.118225080329 0.819 1.32691936353e-38
-0.0211680671989 -0.117936374394 0.817 1.44637361164e-38
-0.019656062399 -0.117936374394 0.817 1.428186299e-38
-0.0181440575991 -0.117936374394 0.817 9.10719146118e-39
-0.0165913378596 -0.117647668459 0.815 1.64977852971e-38
-0.0150460208364 -0.117358962524 0.813 6.42848473106e-40
-0.0135081065295 -0.117070256589 0.811 1.64954213066e-38
-0.012007205804 -0.117070256589 0.811 9.76397865011e-39
-0.0105063050785 -0.117070256589 0.811 8.47479527332e-39
-0.00898319620418 -0.116781550654 0.809 1.7878977931e-38
-0.00746749004612 -0.11649284472 0.807 6.42848473106e-40
-0.0059739920369 -0.11649284472 0.807 0.0
-0.00446938995326 -0.116204138785 0.805 1.43733705823e-38
-0.00297959330217 -0.116204138785 0.805 1.58488187549e-38
-0.00148979665109 -0.116204138785 0.805 9.85617287868e-39
0.0 -0.116204138785 0.805 2.11221641163e-39
0.00148979665109 -0.116204138785 0.805 6.34745324606e-39
0.00297959330217 -0.116204138785 0.805 1.83355588058e-38
0.00446938995326 -0.116204138785 0.805 1.92589878691e-38
0.00595918660434 -0.116204138785 0.805 1.01019045774e-39
0.00746749004612 -0.11649284472 0.807 8.09664927753e-39
0.00896098805535 -0.11649284472 0.807 1.53709661694e-38
0.0104803955715 -0.116781550654 0.809 1.43518074015e-38
0.0119775949389 -0.116781550654 0.809 1.49049727729e-38
0.0134747943063 -0.116781550654 0.809 1.49960908043e-38
0.0149719936736 -0.116781550654 0.809 1.52708798279e-38
0.0165099079805 -0.117070256589 0.811 1.51808379938e-38
0.018010808706 -0.117070256589 0.811 1.527267349e-38
0.0195117094315 -0.117070256589 0.811 1.56418091366e-38
0.021012610157 -0.117070256589 0.811 1.54567032147e-38
0.0225135108825 -0.117070256589 0.811 1.58258388614e-38
0.0240144116081 -0.117070256589 0.811 1.62850163421e-38
0.0255782354219 -0.117358962524 0.813 1.66537932564e-38
0.0271494619521 -0.117647668459 0.815 1.63772105707e-38
0.0287280911985 -0.117936374394 0.817 1.73884772257e-38
0.030388150324 -0.118513786264 0.821 1.7021135241e-38
0.0319852863611 -0.118802492198 0.823 1.78494539737e-38
0.0335898251145 -0.119091198133 0.825 1.8034195558e-38
0.0352017665842 -0.119379904068 0.827 1.84955254333e-38
0.0368211107702 -0.119668610003 0.829 1.96022373292e-38
0.0383553237189 -0.119668610003 0.829 2.3493950049e-38
-0.0290093944171 -0.117564387901 0.825 1.55590456467e-38
-0.0273493352916 -0.116994378747 0.821 2.47955839627e-39
-0.025767004687 -0.116709374171 0.819 1.52982037467e-38
-0.024251298529 -0.116709374171 0.819 8.3682349329e-39
-0.0227355923709 -0.116709374171 0.819 1.10575677093e-38
-0.0211680671989 -0.116424369594 0.817 1.25148228239e-38
-0.019656062399 -0.116424369594 0.817 1.36361866966e-38
-0.0181440575991 -0.116424369594 0.817 1.54651348275e-38
-0.0166320527991 -0.116424369594 0.817 1.51123845638e-38
-0.0150830344178 -0.116139365017 0.815 0.0
-0.0135414187528 -0.11585436044 0.813 1.62245685303e-38
-0.0120368166691 -0.11585436044 0.813 5.338655679e-39
-0.0105063050785 -0.115569355864 0.811 1.04134244364e-38
-0.00900540435302 -0.115569355864 0.811 1.67751513086e-38
-0.00748599683682 -0.115284351287 0.809 1.43492962747e-42
-0.00598879746946 -0.115284351287 0.809 1.78691211976e-38
-0.00448049402767 -0.11499934671 0.807 1.74122362411e-38
-0.00298699601845 -0.11499934671 0.807 1.48368136156e-38
-0.00148979665109 -0.114714342134 0.805 2.03679096127e-38
0.0 -0.114714342134 0.805 8.26519465422e-40
0.00148979665109 -0.114714342134 0.805 1.87028671592e-38
0.00298699601845 -0.11499934671 0.807 1.76916397406e-38
0.00448049402767 -0.11499934671 0.807 7.91620407428e-39
0.0059739920369 -0.11499934671 0.807 1.37753244237e-39
0.00748599683682 -0.115284351287 0.809 1.49036597563e-38
0.00898319620418 -0.115284351287 0.809 1.44457952921e-38
0.0104803955715 -0.115284351287 0.809 1.51797758096e-38
0.012007205804 -0.115569355864 0.811 1.49049727729e-38
0.0135081065295 -0.115569355864 0.811 1.50897199625e-38
0.015009007255 -0.115569355864 0.811 1.51815554586e-38
0.0165099079805 -0.115569355864 0.811 1.51808379938e-38
0.018010808706 -0.115569355864 0.811 1.55488974432e-38
0.0195117094315 -0.115569355864 0.811 1.55488974432e-38
0.021012610157 -0.115569355864 0.811 1.59158806955e-38
0.0225135108825 -0.115569355864 0.811 1.58236864669e-38
0.0240736333383 -0.11585436044 0.813 1.67445525553e-38
0.0255782354219 -0.11585436044 0.813 1.63775693031e-38
0.0272160863986 -0.116424369594 0.817 1.72076760926e-38
0.0287984170032 -0.116709374171 0.819 1.71147643992e-38
0.030388150324 -0.116994378747 0.821 1.76650599114e-38
0.0320630148821 -0.117564387901 0.825 1.76657773762e-38
0.0336712549936 -0.117849392478 0.827 1.83104293204e-38
0.0352868978214 -0.118134397054 0.829 1.78501728398e-38
0.0368211107702 -0.118134397054 0.829 2.05245341434e-38
0.0383553237189 -0.118134397054 0.829 2.34917962533e-38
-0.0290093944171 -0.116037577668 0.825 1.6662153403e-38
-0.0273493352916 -0.115474971231 0.821 1.83670992316e-39
-0.0258299277754 -0.115474971231 0.821 1.44687934025e-38
-0.024251298529 -0.115193668013 0.819 9.84616900894e-39
-0.0227355923709 -0.115193668013 0.819 1.15181801197e-38
-0.0212198862128 -0.115193668013 0.819 1.2234347331e-38
-0.019656062399 -0.114912364794 0.817 1.40041956993e-38
-0.0181440575991 -0.114912364794 0.817 1.46339350253e-38
-0.0166320527991 -0.114912364794 0.817 1.49286799403e-38
-0.0150830344178 -0.114631061575 0.815 0.0
-0.013574730976 -0.114631061575 0.815 1.76024863297e-38
-0.0120664275343 -0.114631061575 0.815 2.94052953909e-39
-0.0105322145855 -0.114349758357 0.813 1.36352268071e-38
-0.00902761250186 -0.114349758357 0.813 1.65903887048e-38
-0.00748599683682 -0.11378715192 0.809 3.94605647554e-42
-0.00598879746946 -0.11378715192 0.809 1.72387050445e-38
-0.00448049402767 -0.113505848701 0.807 1.04986626194e-38
-0.00298699601845 -0.113505848701 0.807 0.0
-0.00149349800922 -0.113505848701 0.807 1.945024409e-38
0.0 -0.113505848701 0.807 1.378967372e-39
0.00149349800922 -0.113505848701 0.807 1.7692617847e-38
0.00298699601845 -0.113505848701 0.807 1.60325457991e-38
0.00448049402767 -0.113505848701 0.807 1.56120343469e-39
0.00598879746946 -0.11378715192 0.809 2.20548823872e-39
0.00748599683682 -0.11378715192 0.809 1.61014238225e-38
0.00900540435302 -0.114068455138 0.811 1.48138547416e-38
0.0105063050785 -0.114068455138 0.811 1.58269150586e-38
0.012007205804 -0.114068455138 0.811 1.4719866851e-38
0.0135081065295 -0.114068455138 0.811 1.51815554586e-38
0.015009007255 -0.114068455138 0.811 1.51808379938e-38
0.0165099079805 -0.114068455138 0.811 1.53641502537e-38
0.0180552250037 -0.114349758357 0.813 1.55481799784e-38
0.0195598270874 -0.114349758357 0.813 1.61913871839e-38
0.0211162481849 -0.114631061575 0.815 1.60069987268e-38
0.0226245516267 -0.114631061575 0.815 1.64697635317e-38
0.0241920767987 -0.114912364794 0.817 1.61924633812e-38
0.0257040815987 -0.114912364794 0.817 1.74828294539e-38
0.0272160863986 -0.114912364794 0.817 1.68381817135e-38
0.0287984170032 -0.115193668013 0.819 1.74835413135e-38
0.030388150324 -0.115474971231 0.821 1.79434362591e-38
0.0320630148821 -0.116037577668 0.825 1.80338368256e-38
0.0336712549936 -0.116318880887 0.827 1.82185840152e-38
0.0352868978214 -0.116600184106 0.829 1.89572560798e-38
0.0369099433655 -0.116881487324 0.831 1.96947804811e-38
0.0384478576724 -0.116881487324 0.831 2.3493964062e-38
-0.0274825841846 -0.114510767436 0.825 1.744874427e-39
-0.0258928508638 -0.114233165575 0.823 1.51120762782e-38
-0.0243105202592 -0.113955563715 0.821 9.85294428701e-39
-0.022791112743 -0.113955563715 0.821 1.18859088627e-38
-0.0212717052268 -0.113955563715 0.821 1.19613253448e-38
-0.0197041800548 -0.113677961855 0.819 1.25290880422e-38
-0.0181884738967 -0.113677961855 0.819 1.20567733883e-38
-0.0166727677387 -0.113677961855 0.819 1.52978926584e-38
-0.0151200479992 -0.113400359994 0.817 8.26519465422e-40
-0.0136080431993 -0.113400359994 0.817 1.76964391879e-38
-0.0120664275343 -0.113122758134 0.815 1.92854541932e-39
-0.0105581240925 -0.113122758134 0.815 1.27157900431e-38
-0.00902761250186 -0.112845156273 0.813 1.62194762117e-38
-0.00750450362752 -0.112567554413 0.811 9.39878905992e-41
-0.00600360290201 -0.112567554413 0.811 1.67787386327e-38
-0.00449159810209 -0.112289952552 0.809 9.9462147128e-39
-0.00299439873473 -0.112289952552 0.809 1.16921835539e-38
-0.00149349800922 -0.112012350692 0.807 1.99047776677e-38
0.0 -0.112012350692 0.807 2.29588740395e-39
0.00149349800922 -0.112012350692 0.807 1.17938351458e-38
0.00299439873473 -0.112289952552 0.809 1.91675685586e-38
0.00449159810209 -0.112289952552 0.809 1.1020259539e-39
0.00600360290201 -0.112567554413 0.811 8.09520594011e-39
0.00750450362752 -0.112567554413 0.811 1.52794950109e-38
0.00900540435302 -0.112567554413 0.811 1.50901361481e-38
0.0105322145855 -0.112845156273 0.813 1.49960908043e-38
0.0120368166691 -0.112845156273 0.813 1.52730322224e-38
0.0135414187528 -0.112845156273 0.813 1.52733909548e-38
0.0150460208364 -0.112845156273 0.813 1.53652264509e-38
0.0165506229201 -0.112845156273 0.813 1.55488974432e-38
0.0180552250037 -0.112845156273 0.813 1.57332859004e-38
0.0195598270874 -0.112845156273 0.813 1.61924633812e-38
0.0211162481849 -0.113122758134 0.815 1.61913871839e-38
0.0226245516267 -0.113122758134 0.815 1.63797216976e-38
0.024251298529 -0.113677961855 0.819 1.62868100042e-38
0.025767004687 -0.113677961855 0.819 1.72076760926e-38
0.0272827108451 -0.113677961855 0.819 1.70225701707e-38
0.0288687428078 -0.113955563715 0.821 1.80356304877e-38
0.030388150324 -0.113955563715 0.821 1.7666494841e-38
0.0320630148821 -0.114510767436 0.825 1.83107782437e-38
0.0336712549936 -0.114788369296 0.827 1.81256723218e-38
0.0352868978214 -0.115065971157 0.829 1.87721613683e-38
0.0368211107702 -0.115065971157 0.829 1.94171201969e-38
-0.0274825841846 -0.112983957203 0.825 1.28569694621e-39
-0.0259557739521 -0.112983957203 0.825 1.63062446126e-38
-0.0244289637197 -0.112983957203 0.825 9.29942018322e-39
-0.0228466331151 -0.112710056701 0.823 1.37255404932e-38
-0.0213235242407 -0.112710056701 0.823 1.19555870275e-38
-0.0197522977106 -0.112436156199 0.821 1.62176755431e-38
-0.0182328901944 -0.112436156199 0.821 2.20405190779e-39
-0.0167134826782 -0.112436156199 0.821 1.59447264244e-38
-0.0151570615806 -0.112162255696 0.819 1.37753804756e-39
-0.0136080431993 -0.111888355194 0.817 1.68670134294e-38
-0.0120960383994 -0.111888355194 0.817 1.65303893084e-39
-0.0105581240925 -0.111614454692 0.815 1.40058099951e-38
-0.00904982065069 -0.111614454692 0.815 1.57584784442e-38
-0.00752301041821 -0.11134055419 0.813 1.83670992316e-40
-0.00601840833457 -0.11134055419 0.813 1.73290859929e-38
-0.00450270217651 -0.111066653687 0.811 1.41875079592e-38
-0.00300180145101 -0.111066653687 0.811 9.94480780914e-39
-0.00149719936736 -0.110792753185 0.809 9.94226865632e-39
0.0 -0.110792753185 0.809 1.65303893084e-39
0.00149719936736 -0.110792753185 0.809 0.0
0.00300180145101 -0.111066653687 0.811 1.86173487166e-38
0.00450270217651 -0.111066653687 0.811 1.63065977398e-38
0.00601840833457 -0.11134055419 0.813 2.47955839627e-39
0.00752301041821 -0.11134055419 0.813 1.57451787204e-38
0.00902761250186 -0.11134055419 0.813 1.47227367102e-38
0.0105322145855 -0.11134055419 0.813 1.55503323729e-38
0.0120664275343 -0.111614454692 0.815 1.52737496872e-38
0.013574730976 -0.111614454692 0.815 1.49975257339e-38
0.0151200479992 -0.111888355194 0.817 1.52737496872e-38
0.0166320527991 -0.111888355194 0.817 1.52741084196e-38
0.0180996413014 -0.111614454692 0.815 1.60109447833e-38
0.0196079447432 -0.111614454692 0.815 1.58269150586e-38
0.0211680671989 -0.111888355194 0.817 1.61013453498e-38
0.0227355923709 -0.112162255696 0.819 1.64715571937e-38
0.024251298529 -0.112162255696 0.819 1.62871687366e-38
0.025767004687 -0.112162255696 0.819 1.65612402954e-38
0.0273493352916 -0.112436156199 0.821 1.80367066849e-38
0.0288687428078 -0.112436156199 0.821 1.76668535734e-38
0.0305362046496 -0.112983957203 0.825 1.8126748519e-38
0.032140743403 -0.113257857706 0.827 1.80345542904e-38
0.0337526848727 -0.113531758208 0.829 1.88639464177e-38
0.0354571602958 -0.114079559213 0.833 1.78523224316e-38
0.0369987759609 -0.114079559213 0.833 1.99709946253e-38
-0.0274825841846 -0.111457146971 0.825 5.88146125084e-39
-0.0259557739521 -0.111457146971 0.825 6.80372723643e-39
-0.0244289637197 -0.111457146971 0.825 4.13259732711e-39
-0.0228466331151 -0.111186947827 0.823 8.09589117506e-39
-0.0213235242407 -0.111186947827 0.823 2.57139389242e-39
-0.0197522977106 -0.110916748683 0.821 1.47435824262e-38
-0.0182328901944 -0.110916748683 0.821 5.51012976948e-40
-0.0167134826782 -0.110916748683 0.821 1.42848197297e-38
-0.0151570615806 -0.110646549538 0.819 1.37344723696e-38
-0.0136413554225 -0.110646549538 0.819 1.62204907518e-38
-0.0120960383994 -0.110376350394 0.817 2.75614108196e-39
-0.0105840335994 -0.110376350394 0.817 1.63910161632e-38
-0.00907202879953 -0.110376350394 0.817 1.57562924186e-38
-0.00752301041821 -0.109835952106 0.813 2.57140510281e-39
-0.00601840833457 -0.109835952106 0.813 1.6401269464e-38
-0.00451380625093 -0.109835952106 0.813 1.34503128631e-38
-0.00300920416729 -0.109835952106 0.813 0.0
-0.0015009007255 -0.109565752962 0.811 1.1020259539e-39
0.0 -0.109295553818 0.809 5.69560002902e-39
0.00149719936736 -0.109295553818 0.809 0.0
0.00300920416729 -0.109835952106 0.813 6.91466803585e-39
0.00451380625093 -0.109835952106 0.813 1.97225402037e-38
0.00601840833457 -0.109835952106 0.813 1.46936793853e-39
0.00752301041821 -0.109835952106 0.813 1.26138820136e-38
0.00904982065069 -0.11010615125 0.815 1.54653282067e-38
0.0105581240925 -0.11010615125 0.815 1.49986019311e-38
0.0120664275343 -0.11010615125 0.815 1.53641502537e-38
0.0136080431993 -0.110376350394 0.817 1.66541519888e-38
0.0151570615806 -0.110646549538 0.819 1.55510498377e-38
0.0166727677387 -0.110646549538 0.819 1.52741084196e-38
0.0181884738967 -0.110646549538 0.819 1.53655851833e-38
0.0197041800548 -0.110646549538 0.819 1.57332859004e-38
0.0212198862128 -0.110646549538 0.819 1.60091511213e-38
0.022791112743 -0.110916748683 0.821 1.64701222641e-38
0.0243105202592 -0.110916748683 0.821 1.64701222641e-38
0.0258299277754 -0.110916748683 0.821 1.72065998954e-38
0.0274159597381 -0.111186947827 0.823 1.72087522898e-38
0.0290093944171 -0.111457146971 0.825 1.73909883525e-38
0.0306102318124 -0.111727346115 0.827 1.84962428981e-38
0.0322184719239 -0.111997545259 0.829 1.83125719058e-38
0.0338341147517 -0.112267744403 0.831 1.84040486695e-38
0.0353720290586 -0.112267744403 0.831 1.85895343433e-38
0.0369099433655 -0.112267744403 0.831 2.06177961614e-38
-0.0275492086311 -0.110196834524 0.827 1.17822323945e-38
-0.0260186970405 -0.110196834524 0.827 1.04003699399e-38
-0.0244881854499 -0.110196834524 0.827 9.2882994786e-39
-0.0229021534872 -0.109930336738 0.825 7.44297997768e-39
-0.0213235242407 -0.109663838952 0.823 6.98025300788e-39
-0.0198004153664 -0.109663838952 0.823 3.39791335785e-39
-0.0182328901944 -0.109397341166 0.821 6.43568600387e-39
-0.0167134826782 -0.109397341166 0.821 1.56120343469e-39
-0.015194075162 -0.109397341166 0.821 0.0
-0.0136746676458 -0.109397341166 0.821 1.8153378795e-38
-0.0121256492645 -0.10913084338 0.819 4.41384353409e-39
-0.0105840335994 -0.108864345594 0.817 4.14159646585e-39
-0.00907202879953 -0.108864345594 0.817 1.63123907076e-38
-0.00754151720891 -0.108597847808 0.815 1.6584258024e-38
-0.00603321376713 -0.108597847808 0.815 9.76684850937e-39
-0.00452491032535 -0.108597847808 0.815 1.76927930093e-38
-0.00301660688356 -0.108597847808 0.815 1.52027879329e-38
-0.00150830344178 -0.108597847808 0.815 1.852217813e-38
