# .PCD v0.7 - Point Cloud Data file format
VERSION 0.7
FIELDS x y z rgb
SIZE 4 4 4 4
TYPE F F F F
COUNT 1 1 1 1
WIDTH 840
HEIGHT 1
VIEWPOINT 0 0 0 1 0 0 0
POINTS 840
DATA ascii
-0.017026247441 -0.0612944907875 0.92 1.58208166077e-38
-0.0153236226969 -0.0612944907875 0.92 1.59140870334e-38
-0.0136209979528 -0.0612944907875 0.92 1.59133695686e-38
-0.0119183732087 -0.0612944907875 0.92 1.65576529714e-38
-0.0101935403157 -0.0611612418945 0.918 1.66502059323e-38
-0.00849461692979 -0.0611612418945 0.918 1.67416826961e-38
-0.00679569354383 -0.0611612418945 0.918 1.66502059323e-38
-0.00509677015787 -0.0611612418945 0.918 1.69257124208e-38
-0.00339784677192 -0.0611612418945 0.918 1.70182653818e-38
-0.00169892338596 -0.0611612418945 0.918 1.73863248312e-38
0.0 -0.060961368555 0.915 1.74785190598e-38
0.00169337134875 -0.060961368555 0.915 1.74785190598e-38
0.00339784677192 -0.0611612418945 0.918 1.7477801595e-38
0.00509677015787 -0.0611612418945 0.918 1.7938055273e-38
0.00679569354383 -0.0611612418945 0.918 1.80291733043e-38
0.00849461692979 -0.0611612418945 0.918 1.81213675329e-38
0.0101935403157 -0.0611612418945 0.918 1.8398308951e-38
0.0118924637017 -0.0611612418945 0.918 1.86741741719e-38
0.0135913870877 -0.0611612418945 0.918 1.58244039317e-38
0.0153236226969 -0.0612944907875 0.92 1.36253742776e-38
0.017026247441 -0.0612944907875 0.92 1.41713650009e-38
0.0188306595339 -0.06162761302 0.925 9.56129484023e-39
0.0205425376733 -0.06162761302 0.925 1.28777759417e-38
0.0223265922965 -0.0618274863596 0.928 1.59191092871e-38
0.0240958414871 -0.0619607352526 0.93 1.98763074868e-38
0.02590025358 -0.0621606085921 0.933 1.85905895211e-38
0.027626937152 -0.0621606085921 0.933 1.69210881359e-38
0.0294165438124 -0.0622938574851 0.935 1.6924994956e-38
0.0311469287426 -0.0622938574851 0.935 1.79387727378e-38
0.0330531281843 -0.0626269797177 0.94 2.347735307e-38
0.0347927665098 -0.0626269797177 0.94 2.34939556542e-38
-0.0401393783421 -0.0610816626945 0.943 2.29310652715e-38
-0.0383941879794 -0.0610816626945 0.943 2.3492531935e-38
-0.0365324048353 -0.0608873413922 0.94 1.0303526203e-38
-0.0347927665098 -0.0608873413922 0.94 6.89340193036e-39
-0.0329828023797 -0.0607577938573 0.938 1.18683688098e-38
-0.0310803042961 -0.0604339250201 0.933 1.08538077022e-38
-0.0293536207241 -0.0604339250201 0.933 1.41702888037e-38
-0.0275381045567 -0.0602396037178 0.93 1.4532967267e-38
-0.0256781720917 -0.0599157348806 0.925 1.49021029137e-38
-0.0239662939522 -0.0599157348806 0.925 1.48102674175e-38
-0.0223265922965 -0.0601100561829 0.928 1.56367868829e-38
-0.0205425376733 -0.0599157348806 0.925 1.53627153241e-38
-0.0188306595339 -0.0599157348806 0.925 1.60069987268e-38
-0.0170817678131 -0.0597861873457 0.923 1.59133695686e-38
-0.0153735910318 -0.0597861873457 0.923 1.56364281505e-38
-0.0136209979528 -0.0595918660434 0.92 1.64643825456e-38
-0.0119183732087 -0.0595918660434 0.92 1.6464741278e-38
-0.0102490606878 -0.0597861873457 0.923 1.71093834131e-38
-0.00851312372049 -0.0595918660434 0.92 1.7017547917e-38
-0.00681049897639 -0.0595918660434 0.92 1.72930544054e-38
-0.00510787423229 -0.0595918660434 0.92 1.71097421455e-38
-0.00339784677192 -0.0594623185085 0.918 1.72952067999e-38
-0.00169892338596 -0.0594623185085 0.918 1.73874010284e-38
0.0 -0.0594623185085 0.918 1.72001427121e-38
0.00169892338596 -0.0594623185085 0.918 1.75685608939e-38
0.00339784677192 -0.0594623185085 0.918 1.75689196263e-38
0.00509677015787 -0.0594623185085 0.918 1.76603963901e-38
0.00679569354383 -0.0594623185085 0.918 1.82135617615e-38
0.00849461692979 -0.0594623185085 0.918 1.78458610444e-38
0.0102157484646 -0.0595918660434 0.92 1.74767253978e-38
0.0119183732087 -0.0595918660434 0.92 1.88599975586e-38
0.0136209979528 -0.0595918660434 0.92 1.50872088356e-38
0.0153735910318 -0.0597861873457 0.923 1.31496951061e-38
0.0170817678131 -0.0597861873457 0.923 1.94142531402e-38
0.0188306595339 -0.0599157348806 0.925 1.50890024976e-38
0.0206091621199 -0.0601100561829 0.928 1.89572406656e-38
0.0223747099523 -0.0602396037178 0.93 1.95950402603e-38
0.024173570008 -0.0604339250201 0.933 2.01467707021e-38
0.0259557739521 -0.060563472555 0.935 1.77568954075e-38
0.0276861588823 -0.060563472555 0.935 1.69246362236e-38
0.0294165438124 -0.060563472555 0.935 1.80324103038e-38
0.0312468654123 -0.0607577938573 0.938 1.81231611949e-38
0.0329828023797 -0.0607577938573 0.938 2.3482804121e-38
0.034718739347 -0.0607577938573 0.938 2.34892865277e-38
-0.0400116814863 -0.0591477030667 0.94 2.30236322454e-38
-0.0382720431608 -0.0591477030667 0.94 2.34892977381e-38
-0.0365324048353 -0.0591477030667 0.94 9.28865821101e-39
-0.0347927665098 -0.0591477030667 0.94 9.56272976986e-39
-0.0329828023797 -0.0590218568899 0.938 6.70401364031e-39
-0.0311469287426 -0.0588330876248 0.935 1.04796498018e-38
-0.0293536207241 -0.0587072414481 0.933 1.45372720559e-38
-0.027626937152 -0.0587072414481 0.933 1.45344021966e-38
-0.0258169730219 -0.058518472183 0.93 1.49003092516e-38
-0.0240958414871 -0.058518472183 0.93 1.49925034802e-38
-0.0223747099523 -0.058518472183 0.93 1.53602041972e-38
-0.0206091621199 -0.0583926260063 0.928 1.50850564412e-38
-0.0188917319432 -0.0583926260063 0.928 1.54527571582e-38
-0.0171743017665 -0.0583926260063 0.928 1.58215340725e-38
-0.015406903255 -0.0582038567412 0.925 1.59133695686e-38
-0.0136950251156 -0.0582038567412 0.925 1.6464741278e-38
-0.0119831469761 -0.0582038567412 0.925 1.6464741278e-38
-0.0102712688367 -0.0582038567412 0.925 1.68317245302e-38
-0.00854088390653 -0.0580780105644 0.923 1.71072310187e-38
-0.00683270712523 -0.0580780105644 0.923 1.74756492005e-38
-0.00510787423229 -0.0578892412993 0.92 1.72005014445e-38
-0.00340524948819 -0.0578892412993 0.92 1.71104596103e-38
-0.0017026247441 -0.0578892412993 0.92 1.75707132884e-38
0.0 -0.0578892412993 0.92 1.74785190598e-38
0.0017026247441 -0.0578892412993 0.92 1.77543842807e-38
0.00340524948819 -0.0578892412993 0.92 1.7477801595e-38
0.00510787423229 -0.0578892412993 0.92 1.78444261148e-38
0.00681049897639 -0.0578892412993 0.92 1.78444261148e-38
0.00851312372049 -0.0578892412993 0.92 1.7938055273e-38
0.0102157484646 -0.0578892412993 0.92 1.79391314702e-38
0.0119572374691 -0.0580780105644 0.923 1.83997438806e-38
0.0136654142505 -0.0580780105644 0.923 1.40658976733e-38
0.015406903255 -0.0582038567412 0.925 1.92266374927e-38
0.0171187813945 -0.0582038567412 0.925 2.15418852363e-38
0.0188917319432 -0.0583926260063 0.928 2.02529639023e-38
0.0206091621199 -0.0583926260063 0.928 1.83100607789e-38
0.0223747099523 -0.058518472183 0.93 1.95032047641e-38
0.024225389022 -0.0588330876248 0.935 1.95946815279e-38
0.0259557739521 -0.0588330876248 0.935 1.87699557245e-38
0.0276861588823 -0.0588330876248 0.935 1.75682021615e-38
0.0294165438124 -0.0588330876248 0.935 1.78512420305e-38
0.0312468654123 -0.0590218568899 0.938 1.70179066494e-38
0.0329828023797 -0.0590218568899 0.938 2.34835215858e-38
0.0347927665098 -0.0591477030667 0.94 2.34896550692e-38
0.0365324048353 -0.0591477030667 0.94 2.34867529801e-38
-0.0400116814863 -0.0574080647412 0.94 2.28388724442e-38
-0.0382720431608 -0.0574080647412 0.94 2.34910914001e-38
-0.0365324048353 -0.0574080647412 0.94 8.91808763472e-39
-0.0347927665098 -0.0574080647412 0.94 1.18672421659e-38
-0.0329828023797 -0.0572859199226 0.938 9.01390281851e-39
-0.0311469287426 -0.0571027026947 0.935 1.22363974307e-38
-0.0293536207241 -0.0569805578761 0.933 1.41717237333e-38
-0.027626937152 -0.0569805578761 0.933 1.48106261499e-38
-0.0258169730219 -0.0567973406482 0.93 1.4625520228e-38
-0.0240958414871 -0.0567973406482 0.93 1.53612803945e-38
-0.0223747099523 -0.0567973406482 0.93 1.50864913708e-38
-0.0206091621199 -0.0566751958296 0.928 1.54538333554e-38
-0.0188917319432 -0.0566751958296 0.928 1.56382218126e-38
-0.0171743017665 -0.0566751958296 0.928 1.57307747735e-38
-0.0154568715899 -0.0566751958296 0.928 1.59140870334e-38
-0.0136950251156 -0.0564919786017 0.925 1.60973992933e-38
-0.0119831469761 -0.0564919786017 0.925 1.65576529714e-38
-0.0102712688367 -0.0564919786017 0.925 1.70171891846e-38
-0.00855939069723 -0.0564919786017 0.925 1.72008601769e-38
-0.00683270712523 -0.0563698337831 0.923 1.73856073664e-38
-0.00512453034392 -0.0563698337831 0.923 1.72008601769e-38
-0.00341635356261 -0.0563698337831 0.923 1.71104596103e-38
-0.00170817678131 -0.0563698337831 0.923 1.72937718703e-38
0.0 -0.0563698337831 0.923 1.7477801595e-38
0.00170817678131 -0.0563698337831 0.923 1.73863248312e-38
0.00341635356261 -0.0563698337831 0.923 1.74785190598e-38
0.00512453034392 -0.0563698337831 0.923 1.75699958235e-38
0.00683270712523 -0.0563698337831 0.923 1.81235199273e-38
0.00854088390653 -0.0563698337831 0.923 1.81224437301e-38
0.0102712688367 -0.0564919786017 0.925 1.81235199273e-38
0.0119831469761 -0.0564919786017 0.925 1.81220849977e-38
0.0136950251156 -0.0564919786017 0.925 1.81235199273e-38
0.0154568715899 -0.0566751958296 0.928 2.19106635518e-38
0.0171743017665 -0.0566751958296 0.928 1.71147643992e-38
0.0189324468827 -0.0567973406482 0.93 1.85823386757e-38
0.0206535784175 -0.0567973406482 0.93 2.02432697195e-38
0.0224950040919 -0.0571027026947 0.935 1.88610737559e-38
0.024225389022 -0.0571027026947 0.935 2.02429109871e-38
0.0259557739521 -0.0571027026947 0.935 1.76672123058e-38
0.0277749914776 -0.0572859199226 0.938 1.83029015451e-38
0.029510928445 -0.0572859199226 0.938 1.79409251322e-38
0.0312468654123 -0.0572859199226 0.938 1.72934131378e-38
0.0329828023797 -0.0572859199226 0.938 2.34874760501e-38
0.0347927665098 -0.0574080647412 0.94 2.34921732026e-38
-0.0401393783421 -0.0558460916064 0.943 2.3482818134e-38
-0.0383941879794 -0.0558460916064 0.943 2.34900124003e-38
-0.0366489976167 -0.0558460916064 0.943 9.10247609185e-39
-0.0347927665098 -0.0556684264157 0.94 9.47521027297e-39
-0.0329828023797 -0.0555499829552 0.938 5.60842244896e-39
-0.0311469287426 -0.0553723177646 0.935 5.78563625795e-39
-0.0293536207241 -0.0552538743041 0.933 1.20516544451e-38
-0.027626937152 -0.0552538743041 0.933 1.43546772608e-38
-0.0258169730219 -0.0550762091134 0.93 1.4993220945e-38
-0.0240958414871 -0.0550762091134 0.93 1.49925034802e-38
-0.0223747099523 -0.0550762091134 0.93 1.56392980098e-38
-0.0206535784175 -0.0550762091134 0.93 1.52701623631e-38
-0.0188917319432 -0.054957765653 0.928 1.54538333554e-38
-0.0171743017665 -0.054957765653 0.928 1.5913728301e-38
-0.0154568715899 -0.054957765653 0.928 1.60073574592e-38
-0.0137394414132 -0.054957765653 0.928 1.65576529714e-38
-0.0119831469761 -0.0547801004623 0.925 1.64654587428e-38
-0.0102712688367 -0.0547801004623 0.925 1.66480535379e-38
-0.00855939069723 -0.0547801004623 0.925 1.72930544054e-38
-0.00684751255778 -0.0547801004623 0.925 1.73863248312e-38
-0.00513563441834 -0.0547801004623 0.925 1.72952067999e-38
-0.00341635356261 -0.0546616570018 0.923 1.70182653818e-38
-0.00170817678131 -0.0546616570018 0.923 1.71097421455e-38
0.0 -0.0546616570018 0.923 1.82153554235e-38
0.00170817678131 -0.0546616570018 0.923 1.68360293191e-38
0.00341635356261 -0.0546616570018 0.923 1.75707132884e-38
0.00512453034392 -0.0546616570018 0.923 1.75699958235e-38
0.00684751255778 -0.0547801004623 0.925 1.76643424465e-38
0.00855939069723 -0.0547801004623 0.925 1.7938055273e-38
0.0102712688367 -0.0547801004623 0.925 1.7938055273e-38
0.0119831469761 -0.0547801004623 0.925 1.84887095175e-38
0.0136950251156 -0.0547801004623 0.925 1.88571276994e-38
0.0154568715899 -0.054957765653 0.928 1.86799138904e-38
0.0171743017665 -0.054957765653 0.928 1.82146379587e-38
0.0189324468827 -0.0550762091134 0.93 1.88574864318e-38
0.020720202864 -0.0552538743041 0.933 2.03329528212e-38
0.0224950040919 -0.0553723177646 0.935 1.87728942474e-38
0.024225389022 -0.0553723177646 0.935 2.13492501377e-38
0.0260390545103 -0.0555499829552 0.938 1.70200590438e-38
0.0278342132079 -0.0556684264157 0.94 1.90419001123e-38
0.0295738515333 -0.0556684264157 0.94 1.81242373921e-38
0.0313134898588 -0.0556684264157 0.94 1.73863248312e-38
0.0330531281843 -0.0556684264157 0.94 2.34892697121e-38
0.0347927665098 -0.0556684264157 0.94 2.34910773872e-38
-0.0402670751979 -0.0542730143972 0.946 2.31154621364e-38
-0.038516332798 -0.0542730143972 0.946 2.34903809418e-38
-0.0366489976167 -0.0541009012437 0.943 7.90466858532e-39
-0.034903807254 -0.0541009012437 0.943 1.46395528308e-38
-0.0330531281843 -0.0539287880902 0.94 6.90133327967e-39
-0.0312468654123 -0.0538140459879 0.938 8.00695496542e-39
-0.0294165438124 -0.0536419328344 0.935 5.51264089633e-39
-0.027626937152 -0.0535271907321 0.933 1.24186138752e-38
-0.02590025358 -0.0535271907321 0.933 1.49053315053e-38
-0.024173570008 -0.0535271907321 0.933 1.49925034802e-38
-0.022446886436 -0.0535271907321 0.933 1.52690861659e-38
-0.020720202864 -0.0535271907321 0.933 1.57293398439e-38
-0.0188917319432 -0.0532403354763 0.928 1.57293398439e-38
-0.0171743017665 -0.0532403354763 0.928 1.60973992933e-38
-0.0154901838131 -0.0533550775786 0.93 1.59140870334e-38
-0.0137394414132 -0.0532403354763 0.928 1.66491297351e-38
-0.0120220112366 -0.0532403354763 0.928 1.64654587428e-38
-0.0102712688367 -0.0530682223228 0.925 1.6924994956e-38
-0.00855939069723 -0.0530682223228 0.925 1.71097421455e-38
-0.00684751255778 -0.0530682223228 0.925 1.69253536884e-38
-0.00513563441834 -0.0530682223228 0.925 1.69260711532e-38
-0.00342375627889 -0.0530682223228 0.925 1.72937718703e-38
-0.00171187813945 -0.0530682223228 0.925 1.75699958235e-38
0.0 -0.0530682223228 0.925 1.75699958235e-38
0.00171187813945 -0.0530682223228 0.925 1.72952067999e-38
0.00342375627889 -0.0530682223228 0.925 1.74785190598e-38
0.00513563441834 -0.0530682223228 0.925 1.77543842807e-38
0.00684751255778 -0.0530682223228 0.925 1.80313256988e-38
0.00855939069723 -0.0530682223228 0.925 1.7938055273e-38
0.0102712688367 -0.0530682223228 0.925 1.81224437301e-38
0.0119831469761 -0.0530682223228 0.925 1.83972327538e-38
0.0137394414132 -0.0532403354763 0.928 1.78458610444e-38
0.0154568715899 -0.0532403354763 0.928 2.18131570008e-38
0.0172113153479 -0.0533550775786 0.93 1.77579716047e-38
0.0189324468827 -0.0533550775786 0.93 1.83043210604e-38
0.020720202864 -0.0535271907321 0.933 2.34722691592e-38
0.0224950040919 -0.0536419328344 0.935 1.76655083269e-38
0.024225389022 -0.0536419328344 0.935 2.17169536573e-38
0.0260390545103 -0.0538140459879 0.938 1.60995516878e-38
0.0278342132079 -0.0539287880902 0.94 1.81213675329e-38
0.0295738515333 -0.0539287880902 0.94 1.82171574933e-38
0.0313134898588 -0.0539287880902 0.94 1.88635848827e-38
0.0330531281843 -0.0539287880902 0.94 2.3489649464e-38
0.0347927665098 -0.0539287880902 0.94 2.3490010999e-38
-0.0402670751979 -0.0525222719973 0.946 2.26534232041e-38
-0.038516332798 -0.0525222719973 0.946 2.34939696672e-38
-0.0366489976167 -0.052355710881 0.943 7.2614613798e-39
-0.034903807254 -0.052355710881 0.943 1.32584176501e-38
-0.0331586168913 -0.052355710881 0.943 7.0875420235e-39
-0.0312468654123 -0.0520781090205 0.938 4.96848447277e-39
-0.0294165438124 -0.0519115479043 0.935 5.32717624198e-39
-0.0276861588823 -0.0519115479043 0.935 7.6223559902e-39
-0.02590025358 -0.0518005071601 0.933 1.65580635518e-38
-0.024173570008 -0.0518005071601 0.933 1.49953733395e-38
-0.0224950040919 -0.0519115479043 0.935 1.49925034802e-38
-0.020720202864 -0.0518005071601 0.933 1.54527571582e-38
-0.018993519292 -0.0518005071601 0.933 1.61895935219e-38
-0.0172113153479 -0.0516339460438 0.93 1.60066399944e-38
-0.0154901838131 -0.0516339460438 0.93 1.61895935219e-38
-0.0137690522784 -0.0516339460438 0.93 1.62799940884e-38
-0.0120220112366 -0.0515229052996 0.928 1.69253536884e-38
-0.0103045810599 -0.0515229052996 0.928 1.6557294239e-38
-0.00855939069723 -0.0513563441834 0.925 1.71097421455e-38
-0.00684751255778 -0.0513563441834 0.925 1.6924994956e-38
-0.00513563441834 -0.0513563441834 0.925 1.74803127218e-38
-0.00342375627889 -0.0513563441834 0.925 1.71104596103e-38
-0.00171187813945 -0.0513563441834 0.925 1.75699958235e-38
0.0 -0.0513563441834 0.925 1.75699958235e-38
0.00171187813945 -0.0513563441834 0.925 1.73874010284e-38
0.00342375627889 -0.0513563441834 0.925 1.76632662493e-38
0.00513563441834 -0.0513563441834 0.925 1.78465785092e-38
0.00684751255778 -0.0513563441834 0.925 1.7938055273e-38
0.00858715088327 -0.0515229052996 0.928 1.81220849977e-38
0.0103045810599 -0.0515229052996 0.928 1.81213675329e-38
0.0120220112366 -0.0515229052996 0.928 1.83061147224e-38
0.0137394414132 -0.0515229052996 0.928 1.84015375427e-38
0.0154568715899 -0.0515229052996 0.928 1.81224437301e-38
0.0172113153479 -0.0516339460438 0.93 2.07053282699e-38
0.018993519292 -0.0518005071601 0.933 2.20032543479e-38
0.020720202864 -0.0518005071601 0.933 1.68414831727e-38
0.0224950040919 -0.0519115479043 0.935 1.8856768967e-38
0.024225389022 -0.0519115479043 0.935 2.0982259879e-38
0.0260390545103 -0.0520781090205 0.938 1.67474224146e-38
0.0279230458032 -0.052355710881 0.943 1.69235600264e-38
0.0296682361659 -0.052355710881 0.943 1.79366301524e-38
0.0314134265286 -0.052355710881 0.943 1.82167903531e-38
0.0332641055983 -0.0525222719973 0.946 2.34896564705e-38
0.0350148479982 -0.0525222719973 0.946 2.34860313114e-38
-0.0402670751979 -0.0507715295974 0.946 2.32991401352e-38
-0.038516332798 -0.0507715295974 0.946 2.34903767379e-38
-0.0366489976167 -0.0506105205183 0.943 7.8149854836e-39
-0.034903807254 -0.0506105205183 0.943 7.82108393452e-39
-0.0331586168913 -0.0506105205183 0.943 6.62980367624e-39
-0.0313134898588 -0.0504495114392 0.94 4.97245014742e-39
-0.029510928445 -0.0503421720532 0.938 5.98047139513e-39
-0.0276861588823 -0.0501811629741 0.935 6.42920219587e-39
-0.0259557739521 -0.0501811629741 0.935 1.51672552078e-38
-0.024225389022 -0.0501811629741 0.935 1.55485387108e-38
-0.0224950040919 -0.0501811629741 0.935 1.49935796774e-38
-0.020720202864 -0.0500738235881 0.933 1.62825052153e-38
-0.018993519292 -0.0500738235881 0.933 1.56371456153e-38
-0.01726683572 -0.0500738235881 0.933 1.58215340725e-38
-0.0154901838131 -0.049912814509 0.93 1.59133695686e-38
-0.0137690522784 -0.049912814509 0.93 1.67402477665e-38
-0.0120220112366 -0.049805475123 0.928 1.66494884675e-38
-0.0103045810599 -0.049805475123 0.928 1.6924994956e-38
-0.00858715088327 -0.049805475123 0.928 1.67416826961e-38
-0.00686972070662 -0.049805475123 0.928 1.6924994956e-38
-0.00513563441834 -0.0496444660439 0.925 1.72937718703e-38
-0.00342375627889 -0.0496444660439 0.925 1.74774428626e-38
-0.00171187813945 -0.0496444660439 0.925 1.73877597609e-38
0.0 -0.0496444660439 0.925 1.75699958235e-38
0.00171187813945 -0.0496444660439 0.925 1.75710720208e-38
0.00342375627889 -0.0496444660439 0.925 1.78462197768e-38
0.00513563441834 -0.0496444660439 0.925 1.7938055273e-38
0.00686972070662 -0.049805475123 0.928 1.81235199273e-38
0.00858715088327 -0.049805475123 0.928 1.85837736053e-38
0.0103045810599 -0.049805475123 0.928 1.83972327538e-38
0.0120220112366 -0.049805475123 0.928 1.95028460317e-38
0.0137394414132 -0.049805475123 0.928 1.82178665503e-38
0.0154901838131 -0.049912814509 0.93 1.85819799433e-38
0.0172113153479 -0.049912814509 0.93 1.84887095175e-38
0.018993519292 -0.0500738235881 0.933 1.96004226477e-38
0.020720202864 -0.0500738235881 0.933 1.73027401804e-38
0.0224950040919 -0.0501811629741 0.935 2.01623279176e-38
0.024225389022 -0.0501811629741 0.935 1.92414450136e-38
0.0260945748824 -0.0504495114392 0.94 1.7115481864e-38
0.0279230458032 -0.0506105205183 0.943 1.83021854815e-38
0.0296682361659 -0.0506105205183 0.943 1.84919381092e-38
0.0314134265286 -0.0506105205183 0.943 1.95064361584e-38
0.0332641055983 -0.0507715295974 0.946 2.3489649464e-38
0.035088875161 -0.0508788689834 0.948 2.34871117125e-38
-0.0402670751979 -0.0490207871974 0.946 2.23775439703e-38
-0.038516332798 -0.0490207871974 0.946 2.34903809418e-38
-0.0367655903981 -0.0490207871974 0.946 8.55397984694e-39
-0.0350148479982 -0.0490207871974 0.946 8.18880286844e-39
-0.0331586168913 -0.0488653301556 0.943 6.71949518574e-39
-0.0313134898588 -0.0487098731137 0.94 6.25922329085e-39
-0.029510928445 -0.0486062350858 0.938 5.33726559092e-39
-0.0276861588823 -0.048450778044 0.935 7.45338321748e-39
-0.0259557739521 -0.048450778044 0.935 1.52673429506e-38
-0.024225389022 -0.048450778044 0.935 1.53641502537e-38
-0.0224950040919 -0.048450778044 0.935 1.55467450488e-38
-0.0207646191617 -0.048450778044 0.935 1.56382218126e-38
-0.018993519292 -0.0483471400161 0.933 1.59140870334e-38
-0.01726683572 -0.0483471400161 0.933 1.58218928049e-38
-0.015540152148 -0.0483471400161 0.933 1.62821464829e-38
-0.0137690522784 -0.0481916829742 0.93 1.64654587428e-38
-0.0120220112366 -0.0480880449463 0.928 1.6464741278e-38
-0.0103045810599 -0.0480880449463 0.928 1.72026538389e-38
-0.00858715088327 -0.0480880449463 0.928 1.7017547917e-38
-0.00686972070662 -0.0480880449463 0.928 1.7017547917e-38
-0.00513563441834 -0.0479325879045 0.925 1.72930544054e-38
-0.00342375627889 -0.0479325879045 0.925 1.75685608939e-38
-0.00171187813945 -0.0479325879045 0.925 1.72930544054e-38
0.0 -0.0479325879045 0.925 1.75699958235e-38
0.00171187813945 -0.0479325879045 0.925 1.75699958235e-38
0.00342375627889 -0.0479325879045 0.925 1.7938055273e-38
0.00513563441834 -0.0479325879045 0.925 1.79387727378e-38
0.00686972070662 -0.0480880449463 0.928 1.78458610444e-38
0.00858715088327 -0.0480880449463 0.928 1.81213675329e-38
0.0103045810599 -0.0480880449463 0.928 1.7938055273e-38
0.0120220112366 -0.0480880449463 0.928 1.82135617615e-38
0.0137394414132 -0.0480880449463 0.928 1.78494483685e-38
0.0154901838131 -0.0481916829742 0.93 1.77583303371e-38
0.01726683572 -0.0483471400161 0.933 1.98884903756e-38
0.018993519292 -0.0483471400161 0.933 1.81394512896e-38
0.0207646191617 -0.048450778044 0.935 1.42671801847e-38
0.0224950040919 -0.048450778044 0.935 2.10910847177e-38
0.0243031175429 -0.0486062350858 0.938 1.88769770921e-38
0.0260945748824 -0.0487098731137 0.94 1.60052050648e-38
0.0279230458032 -0.0488653301556 0.943 1.93163149893e-38
0.0296682361659 -0.0488653301556 0.943 1.72015832469e-38
0.0314134265286 -0.0488653301556 0.943 2.30109392839e-38
0.0333344314029 -0.0491244252253 0.948 2.3491808865e-38
0.035088875161 -0.0491244252253 0.948 2.34863942477e-38
-0.0402670751979 -0.0472700447975 0.946 2.3024320283e-38
-0.038516332798 -0.0472700447975 0.946 2.34896536679e-38
-0.0367655903981 -0.0472700447975 0.946 7.63131449128e-39
-0.0350148479982 -0.0472700447975 0.946 7.26684236591e-39
-0.0331586168913 -0.0471201397929 0.943 7.18010339226e-39
-0.0313134898588 -0.0469702347883 0.94 6.4446865439e-39
-0.0295738515333 -0.0469702347883 0.94 2.75940190349e-39
-0.0277749914776 -0.0468702981185 0.938 7.82434615734e-39
-0.0259557739521 -0.0467203931138 0.935 1.50897704092e-38
-0.024225389022 -0.0467203931138 0.935 1.51779681345e-38
-0.0224950040919 -0.0467203931138 0.935 1.53627153241e-38
-0.0207646191617 -0.0467203931138 0.935 1.56382218126e-38
-0.0190342342316 -0.0467203931138 0.935 1.58215340725e-38
-0.01726683572 -0.0466204564441 0.933 1.6006281262e-38
-0.015540152148 -0.0466204564441 0.933 1.61895935219e-38
-0.0137690522784 -0.0464705514394 0.93 1.65580117038e-38
-0.0120479207436 -0.0464705514394 0.93 1.62814290181e-38
-0.0103045810599 -0.0463706147697 0.928 1.79391314702e-38
-0.00858715088327 -0.0463706147697 0.928 1.69260711532e-38
-0.00686972070662 -0.0463706147697 0.928 1.67416826961e-38
-0.00515229052996 -0.0463706147697 0.928 1.72937718703e-38
-0.00343486035331 -0.0463706147697 0.928 1.7477801595e-38
-0.00171187813945 -0.046220709765 0.925 1.75707132884e-38
0.0 -0.046220709765 0.925 1.78465785092e-38
0.00171743017665 -0.0463706147697 0.928 1.78465785092e-38
0.00343486035331 -0.0463706147697 0.928 1.78465785092e-38
0.00515229052996 -0.0463706147697 0.928 1.76632662493e-38
0.00686972070662 -0.0463706147697 0.928 1.80313256988e-38
0.00858715088327 -0.0463706147697 0.928 1.83990264158e-38
0.0103267892088 -0.0464705514394 0.93 1.84915793768e-38
0.0120479207436 -0.0464705514394 0.93 1.83068321872e-38
0.013813468576 -0.0466204564441 0.933 1.997680581e-38
0.015540152148 -0.0466204564441 0.933 1.86947186087e-38
0.01726683572 -0.0466204564441 0.933 1.39099387594e-38
0.0190342342316 -0.0467203931138 0.935 1.44621106102e-38
0.0207646191617 -0.0467203931138 0.935 1.36276065461e-38
0.0225671805756 -0.0468702981185 0.938 2.18282980307e-38
0.0243031175429 -0.0468702981185 0.938 1.83201879629e-38
0.0261778554405 -0.0471201397929 0.943 1.51754570077e-38
0.0280118783985 -0.0472700447975 0.946 1.79323155545e-38
0.0297626207984 -0.0472700447975 0.946 1.95964765912e-38
0.0315133631984 -0.0472700447975 0.946 2.07064941503e-38
0.0333344314029 -0.0473699814673 0.948 2.34907046418e-38
0.035088875161 -0.0473699814673 0.948 2.34853124453e-38
-0.038516332798 -0.0455193023976 0.946 2.34867866113e-38
-0.0367655903981 -0.0455193023976 0.946 6.9845199617e-39
-0.0350148479982 -0.0455193023976 0.946 8.92742448639e-39
-0.0332641055983 -0.0455193023976 0.946 7.08898676222e-39
-0.0314134265286 -0.0453749494302 0.943 5.06068570782e-39
-0.0295738515333 -0.0452305964628 0.94 1.92962161654e-39
-0.0277749914776 -0.0451343611511 0.938 1.02228548517e-38
-0.0260390545103 -0.0451343611511 0.938 1.38969501239e-38
-0.0243031175429 -0.0451343611511 0.938 1.52701623631e-38
-0.0224950040919 -0.0449900081837 0.935 1.53627153241e-38
-0.0207646191617 -0.0449900081837 0.935 1.56382218126e-38
-0.0190342342316 -0.0449900081837 0.935 1.56371456153e-38
-0.01726683572 -0.0448937728721 0.933 1.59140870334e-38
-0.015540152148 -0.0448937728721 0.933 1.60973992933e-38
-0.013813468576 -0.0448937728721 0.933 1.73877597609e-38
-0.0120479207436 -0.0447494199046 0.93 1.63725470494e-38
-0.0103045810599 -0.044653184593 0.928 1.69246362236e-38
-0.00858715088327 -0.044653184593 0.928 1.69260711532e-38
-0.00686972070662 -0.044653184593 0.928 1.72026538389e-38
-0.00515229052996 -0.044653184593 0.928 1.76636249817e-38
-0.00343486035331 -0.044653184593 0.928 1.76629075169e-38
-0.00171743017665 -0.044653184593 0.928 1.74785190598e-38
0.0 -0.044653184593 0.928 1.75699958235e-38
0.00171743017665 -0.044653184593 0.928 1.81220849977e-38
0.00343486035331 -0.044653184593 0.928 1.77558192103e-38
0.00516339460438 -0.0447494199046 0.93 1.81242373921e-38
0.00688452613918 -0.0447494199046 0.93 1.77554604779e-38
0.00860565767397 -0.0447494199046 0.93 1.83990264158e-38
0.010360101432 -0.0448937728721 0.933 1.83068321872e-38
0.012086785004 -0.0448937728721 0.933 1.92284171418e-38
0.013813468576 -0.0448937728721 0.933 1.85053303186e-38
0.0155734643713 -0.0449900081837 0.935 1.78653657177e-38
0.0173038493014 -0.0449900081837 0.935 1.20652806713e-38
0.0190342342316 -0.0449900081837 0.935 1.51982014831e-38
0.0207646191617 -0.0449900081837 0.935 1.45481363229e-38
0.0225671805756 -0.0451343611511 0.938 2.080949239e-38
0.0243031175429 -0.0451343611511 0.938 1.90562241852e-38
0.0261778554405 -0.0453749494302 0.943 1.48052451638e-38
0.0280118783985 -0.0455193023976 0.946 1.84833327353e-38
0.0297626207984 -0.0455193023976 0.946 2.19092804702e-38
0.0315799876449 -0.0456155377093 0.948 2.02482919732e-38
0.0333344314029 -0.0456155377093 0.948 2.34910633742e-38
-0.036843318919 -0.0438610939512 0.948 5.69523569142e-39
-0.0350148479982 -0.0437685599977 0.946 6.89806545165e-39
-0.0332641055983 -0.0437685599977 0.946 6.71948117276e-39
-0.0314134265286 -0.0436297590675 0.943 5.79860387394e-39
-0.0295738515333 -0.0434909581373 0.94 2.02076627255e-39
-0.0278342132079 -0.0434909581373 0.94 1.08689052918e-38
-0.0260390545103 -0.0433984241838 0.938 1.40816818992e-38
-0.0243031175429 -0.0433984241838 0.938 1.50864913708e-38
-0.0225671805756 -0.0433984241838 0.938 1.54531158906e-38
-0.0208312436082 -0.0433984241838 0.938 1.57304160411e-38
-0.0190342342316 -0.0432596232536 0.935 1.62839401449e-38
-0.0173038493014 -0.0432596232536 0.935 1.60073574592e-38
-0.015540152148 -0.0431670893001 0.933 1.60073574592e-38
-0.013813468576 -0.0431670893001 0.933 1.65569355065e-38
-0.0120479207436 -0.0430282883699 0.93 1.6924994956e-38
-0.0103267892088 -0.0430282883699 0.93 1.70182653818e-38
-0.00860565767397 -0.0430282883699 0.93 1.72937718703e-38
-0.00688452613918 -0.0430282883699 0.93 1.80316844312e-38
-0.00515229052996 -0.0429357544164 0.928 1.72030125713e-38
-0.00343486035331 -0.0429357544164 0.928 1.74785190598e-38
-0.00171743017665 -0.0429357544164 0.928 1.79384140054e-38
0.0 -0.0429357544164 0.928 1.76632662493e-38
0.00171743017665 -0.0429357544164 0.928 1.79387727378e-38
0.00344226306959 -0.0430282883699 0.93 1.82146379587e-38
0.00516339460438 -0.0430282883699 0.93 1.78458610444e-38
0.00688452613918 -0.0430282883699 0.93 1.79391314702e-38
0.00860565767397 -0.0430282883699 0.93 1.81220849977e-38
0.010360101432 -0.0431670893001 0.933 1.84919381092e-38
0.012086785004 -0.0431670893001 0.933 1.81235199273e-38
0.0138430794411 -0.0432596232536 0.935 1.8689306794e-38
0.0155734643713 -0.0432596232536 0.935 1.68490235597e-38
0.0173038493014 -0.0432596232536 0.935 1.60221425593e-38
0.0190342342316 -0.0432596232536 0.935 1.91535864025e-38
0.0208312436082 -0.0433984241838 0.938 1.82319159687e-38
0.0225671805756 -0.0433984241838 0.938 2.09063193113e-38
0.0243549365569 -0.0434909581373 0.94 1.90552769074e-38
0.0262611359986 -0.0437685599977 0.946 1.76625487845e-38
0.0280118783985 -0.0437685599977 0.946 2.25532009367e-38
0.0298255438868 -0.0438610939512 0.948 1.70240065016e-38
0.0315799876449 -0.0438610939512 0.948 2.26414364971e-38
0.0333344314029 -0.0438610939512 0.948 2.34896298458e-38
-0.036843318919 -0.0421066501932 0.948 7.35580800281e-39
-0.0350148479982 -0.0420178175978 0.946 8.28135162551e-39
-0.0332641055983 -0.0420178175978 0.946 6.25777715084e-39
-0.0314134265286 -0.0418845687048 0.943 5.24325247695e-39
-0.0296682361659 -0.0418845687048 0.943 5.24329171331e-39
-0.0278342132079 -0.0417513198118 0.94 1.11433608065e-38
-0.0260390545103 -0.0416624872164 0.938 1.44490238838e-38
-0.0243031175429 -0.0416624872164 0.938 1.50864913708e-38
-0.0225671805756 -0.0416624872164 0.938 1.5453474623e-38
-0.0208312436082 -0.0416624872164 0.938 1.58215340725e-38
-0.0190342342316 -0.0415292383234 0.935 1.57307747735e-38
-0.0173038493014 -0.0415292383234 0.935 1.6006281262e-38
-0.0155734643713 -0.0415292383234 0.935 1.59140870334e-38
-0.013813468576 -0.0414404057281 0.933 1.63750581763e-38
-0.012086785004 -0.0414404057281 0.933 1.69257124208e-38
-0.0103267892088 -0.0413071568351 0.93 1.71097421455e-38
-0.00860565767397 -0.0413071568351 0.93 1.7017547917e-38
-0.00688452613918 -0.0413071568351 0.93 1.74763666653e-38
-0.00516339460438 -0.0413071568351 0.93 1.74763666653e-38
-0.00344226306959 -0.0413071568351 0.93 1.74767253978e-38
-0.00172113153479 -0.0413071568351 0.93 1.81210088005e-38
0.0 -0.0413071568351 0.93 1.75710720208e-38
0.00172113153479 -0.0413071568351 0.93 1.78465785092e-38
0.00345336714401 -0.0414404057281 0.933 1.78465785092e-38
0.00518005071601 -0.0414404057281 0.933 1.78458610444e-38
0.00690673428801 -0.0414404057281 0.933 1.7938055273e-38
0.00863341786002 -0.0414404057281 0.933 1.78447848472e-38
0.010360101432 -0.0414404057281 0.933 1.80263034451e-38
0.012112694511 -0.0415292383234 0.935 1.85783926192e-38
0.0138430794411 -0.0415292383234 0.935 2.01604683946e-38
0.0155734643713 -0.0415292383234 0.935 1.77691427561e-38
0.0173038493014 -0.0415292383234 0.935 1.92443176755e-38
0.0190953066409 -0.0416624872164 0.938 2.12729914752e-38
0.0208312436082 -0.0416624872164 0.938 2.1642512479e-38
0.0225671805756 -0.0416624872164 0.938 1.94344542589e-38
0.0243549365569 -0.0417513198118 0.94 1.68483074962e-38
0.0262611359986 -0.0420178175978 0.946 2.06195800143e-38
0.0280711001288 -0.0421066501932 0.948 1.71126120048e-38
0.0298255438868 -0.0421066501932 0.948 1.90418748889e-38
0.0315799876449 -0.0421066501932 0.948 2.34755524015e-38
0.0335454088169 -0.0423731479792 0.954 2.34889249927e-38
-0.0369599117004 -0.0404799032909 0.951 7.72386745226e-39
-0.035088875161 -0.0403522064351 0.948 5.33076356605e-39
-0.0333344314029 -0.0403522064351 0.948 6.53112423838e-39
-0.0314134265286 -0.0401393783421 0.943 3.49046772012e-39
-0.0296682361659 -0.0401393783421 0.943 1.06831071284e-38
-0.0278342132079 -0.0400116814863 0.94 1.12298391386e-38
-0.0260945748824 -0.0400116814863 0.94 1.41713650009e-38
-0.0243549365569 -0.0400116814863 0.94 1.50836215115e-38
-0.0225671805756 -0.0399265502491 0.938 1.58204578752e-38
-0.0208312436082 -0.0399265502491 0.938 1.61895935219e-38
-0.0190953066409 -0.0399265502491 0.938 1.60066399944e-38
-0.0173038493014 -0.0397988533933 0.935 1.60066399944e-38
-0.0155734643713 -0.0397988533933 0.935 1.66491297351e-38
-0.0138430794411 -0.0397988533933 0.935 1.65569355065e-38
-0.012086785004 -0.0397137221561 0.933 1.66480535379e-38
-0.0103267892088 -0.0395860253003 0.93 1.72026538389e-38
-0.00860565767397 -0.0395860253003 0.93 1.72026538389e-38
-0.00688452613918 -0.0395860253003 0.93 1.73863248312e-38
-0.00516339460438 -0.0395860253003 0.93 1.73863248312e-38
-0.00344226306959 -0.0395860253003 0.93 1.72930544054e-38
-0.00172113153479 -0.0395860253003 0.93 1.77533080834e-38
0.0 -0.0395860253003 0.93 1.75707132884e-38
0.001726683572 -0.0397137221561 0.933 1.86763265663e-38
0.00345336714401 -0.0397137221561 0.933 1.66505646647e-38
0.00518005071601 -0.0397137221561 0.933 1.71151231316e-38
0.00690673428801 -0.0397137221561 0.933 1.70229289031e-38
0.00863341786002 -0.0397137221561 0.933 1.840590539e-38
0.0103823095809 -0.0397988533933 0.935 2.09905443555e-38
0.012112694511 -0.0397988533933 0.935 2.07151485696e-38
0.0138430794411 -0.0397988533933 0.935 2.16421299245e-38
0.0155734643713 -0.0397988533933 0.935 2.04464902267e-38
0.0173593696735 -0.0399265502491 0.938 1.99869343953e-38
0.0190953066409 -0.0399265502491 0.938 1.92511672224e-38
0.0208312436082 -0.0399265502491 0.938 1.52831846297e-38
0.0226152982314 -0.0400116814863 0.94 1.46330690228e-38
0.0244326650778 -0.0401393783421 0.943 1.86893278135e-38
0.0262611359986 -0.0402670751979 0.946 1.51718696836e-38
0.0280711001288 -0.0403522064351 0.948 1.92230473661e-38
0.0299199285194 -0.0404799032909 0.951 2.29162255207e-38
0.0316799243146 -0.0404799032909 0.951 2.22782003169e-38
0.0336157346215 -0.0406927313839 0.956 2.34885662603e-38
-0.0370765044818 -0.0388420523143 0.954 7.81570855361e-39
-0.035088875161 -0.0385977626771 0.948 6.9895422154e-39
-0.0333344314029 -0.0385977626771 0.948 5.42729761595e-39
-0.0315133631984 -0.038516332798 0.946 5.97326591843e-39
-0.0296682361659 -0.0383941879794 0.943 1.4177107522e-38
-0.0279230458032 -0.0383941879794 0.943 1.35249292037e-38
-0.0260945748824 -0.0382720431608 0.94 1.49035378433e-38
-0.0243549365569 -0.0382720431608 0.94 1.58211753401e-38
-0.0226152982314 -0.0382720431608 0.94 1.54538333554e-38
-0.0208312436082 -0.0381906132817 0.938 1.61895935219e-38
-0.0190953066409 -0.0381906132817 0.938 1.60973992933e-38
-0.0173593696735 -0.0381906132817 0.938 1.59140870334e-38
-0.0155734643713 -0.0380684684631 0.935 1.72934131378e-38
-0.0138430794411 -0.0380684684631 0.935 1.67406064989e-38
-0.012086785004 -0.0379870385841 0.933 1.69257124208e-38
-0.010360101432 -0.0379870385841 0.933 1.71104596103e-38
-0.00863341786002 -0.0379870385841 0.933 1.71097421455e-38
-0.00690673428801 -0.0379870385841 0.933 1.76611138549e-38
-0.00518005071601 -0.0379870385841 0.933 1.79387727378e-38
-0.00345336714401 -0.0379870385841 0.933 1.82164316207e-38
-0.001726683572 -0.0379870385841 0.933 1.73856073664e-38
0.0 -0.0379870385841 0.933 1.75703545559e-38
0.001726683572 -0.0379870385841 0.933 1.87652936045e-38
0.00345336714401 -0.0379870385841 0.933 2.08108992937e-38
0.00518005071601 -0.0379870385841 0.933 1.98961708925e-38
0.00692153972057 -0.0380684684631 0.935 1.96203435067e-38
0.00865192465071 -0.0380684684631 0.935 1.98969191859e-38
0.0103823095809 -0.0380684684631 0.935 1.98043438041e-38
0.012112694511 -0.0380684684631 0.935 1.86969018317e-38
0.0138430794411 -0.0380684684631 0.935 1.91586058536e-38
0.0156234327062 -0.0381906132817 0.938 1.61157997435e-38
0.0173593696735 -0.0381906132817 0.938 1.50987345155e-38
0.0191360215804 -0.0382720431608 0.94 1.44519371833e-38
0.0208756599059 -0.0382720431608 0.94 1.24168986859e-38
0.0226874747151 -0.0383941879794 0.943 1.59349663806e-38
0.0244326650778 -0.0383941879794 0.943 1.88762554234e-38
0.0262611359986 -0.038516332798 0.946 1.67348667804e-38
0.0280711001288 -0.0385977626771 0.948 2.14375207305e-38
0.0299199285194 -0.0387199074957 0.951 2.18185449934e-38
0.0317798609844 -0.0388420523143 0.954 2.30247280608e-38
0.0336157346215 -0.0389234821933 0.956 2.27484718777e-38
-0.0392492017096 -0.0374651470864 0.964 2.34885774707e-38
-0.0371542330027 -0.0371542330027 0.956 6.98774855337e-39
-0.0353109566493 -0.0370765044818 0.954 6.89842418406e-39
-0.0334399201099 -0.0369599117004 0.951 2.8469003809e-39
-0.0315133631984 -0.0367655903981 0.946 1.33431541682e-38
-0.0296682361659 -0.0366489976167 0.943 1.44465127569e-38
-0.0279230458032 -0.0366489976167 0.943 1.45333259994e-38
-0.0261778554405 -0.0366489976167 0.943 1.54513222286e-38
-0.0244326650778 -0.0366489976167 0.943 1.5546027584e-38
-0.0226152982314 -0.0365324048353 0.94 1.58215340725e-38
-0.0208756599059 -0.0365324048353 0.94 1.6006281262e-38
-0.0190953066409 -0.0364546763144 0.938 1.59140870334e-38
-0.0173593696735 -0.0364546763144 0.938 1.60973992933e-38
-0.0156234327062 -0.0364546763144 0.938 1.66498471999e-38
-0.0138430794411 -0.036338083533 0.935 1.67416826961e-38
-0.012112694511 -0.036338083533 0.935 1.69257124208e-38
-0.0103823095809 -0.036338083533 0.935 1.71104596103e-38
-0.00865192465071 -0.036338083533 0.935 1.73863248312e-38
-0.00692153972057 -0.036338083533 0.935 1.77543842807e-38
-0.00519115479043 -0.036338083533 0.935 1.78458610444e-38
-0.00346076986028 -0.036338083533 0.935 1.79369790758e-38
-0.00173038493014 -0.036338083533 0.935 1.78458610444e-38
0.0 -0.036338083533 0.935 1.7939848935e-38
0.00173038493014 -0.036338083533 0.935 1.92291360079e-38
0.00346076986028 -0.036338083533 0.935 1.83219928353e-38
0.00519115479043 -0.036338083533 0.935 1.52871348901e-38
0.00692153972057 -0.036338083533 0.935 1.63005217096e-38
0.00865192465071 -0.036338083533 0.935 1.43630093815e-38
0.0103823095809 -0.036338083533 0.935 1.50058718675e-38
0.012112694511 -0.036338083533 0.935 1.36275939344e-38
0.0138874957388 -0.0364546763144 0.938 1.2067100958e-38
0.0156234327062 -0.0364546763144 0.938 1.14163435564e-38
0.0173593696735 -0.0364546763144 0.938 9.01101474238e-39
0.0191360215804 -0.0365324048353 0.94 1.86893488329e-38
0.0208756599059 -0.0365324048353 0.94 1.79579116722e-38
0.0226874747151 -0.0366489976167 0.943 1.49215641467e-38
0.0245103935987 -0.0367655903981 0.946 1.87833563417e-38
0.0263166563707 -0.036843318919 0.948 2.04255057822e-38
0.0281599327241 -0.0369599117004 0.951 2.20975757475e-38
0.0299199285194 -0.0369599117004 0.951 2.109364489e-38
0.0318464854309 -0.0371542330027 0.956 2.17360981969e-38
0.0336157346215 -0.0371542330027 0.956 2.34867739996e-38
-0.0392492017096 -0.0356810924633 0.964 2.31176425568e-38
-0.0372708257841 -0.0354960245563 0.959 7.44692603416e-39
-0.0353849838121 -0.0353849838121 0.956 6.62255896317e-39
-0.0336157346215 -0.0353849838121 0.956 2.3877257027e-39
-0.0317798609844 -0.0353109566493 0.954 1.51848961542e-38
-0.0297626207984 -0.0350148479982 0.946 1.45351196614e-38
-0.0279230458032 -0.034903807254 0.943 1.48099086851e-38
-0.0261778554405 -0.034903807254 0.943 1.56367868829e-38
-0.0244326650778 -0.034903807254 0.943 1.53627153241e-38
-0.0226152982314 -0.0347927665098 0.94 1.5546027584e-38
-0.0208756599059 -0.0347927665098 0.94 1.58215340725e-38
-0.0191360215804 -0.0347927665098 0.94 1.59133695686e-38
-0.0173593696735 -0.034718739347 0.938 1.61895935219e-38
-0.0156234327062 -0.034718739347 0.938 1.66491297351e-38
-0.0138430794411 -0.0346076986028 0.935 1.6924994956e-38
-0.012112694511 -0.0346076986028 0.935 1.70171891846e-38
-0.0103823095809 -0.0346076986028 0.935 1.71097421455e-38
-0.00865192465071 -0.0346076986028 0.935 1.72930544054e-38
-0.00692153972057 -0.0346076986028 0.935 1.73863248312e-38
-0.00519115479043 -0.0346076986028 0.935 1.77540255483e-38
-0.00346076986028 -0.0346076986028 0.935 1.72008601769e-38
-0.00173038493014 -0.0346076986028 0.935 1.75699958235e-38
0.0 -0.0346076986028 0.935 1.77554604779e-38
0.00173038493014 -0.0346076986028 0.935 1.97855369774e-38
0.00346076986028 -0.0346076986028 0.935 1.1686113129e-38
0.00519115479043 -0.0346076986028 0.935 1.1513533414e-38
0.00692153972057 -0.0346076986028 0.935 1.05848480801e-38
0.00865192465071 -0.0346076986028 0.935 1.18708757328e-38
0.0103823095809 -0.0346076986028 0.935 1.10360437649e-38
0.012112694511 -0.0346076986028 0.935 1.33488336309e-38
0.0138874957388 -0.034718739347 0.938 1.58471189798e-38
0.0156234327062 -0.034718739347 0.938 1.60304410488e-38
0.0173963832549 -0.0347927665098 0.94 1.82384866572e-38
0.0191360215804 -0.0347927665098 0.94 1.74068888862e-38
0.0209422843524 -0.034903807254 0.943 1.37219699847e-38
0.0227596511988 -0.0350148479982 0.946 1.55665692182e-38
0.0245622126127 -0.035088875161 0.948 1.97942642643e-38
0.0263166563707 -0.035088875161 0.948 2.02516144519e-38
0.0282487653195 -0.0353109566493 0.954 1.93444194313e-38
0.0300143131519 -0.0353109566493 0.954 2.00823516104e-38
0.0318464854309 -0.0353849838121 0.956 2.19168937248e-38
0.0336157346215 -0.0353849838121 0.956 2.3490372534e-38
-0.0392492017096 -0.0338970378401 0.964 2.34878487955e-38
-0.0373874185655 -0.0338267120354 0.962 7.53696786828e-39
-0.0354960245563 -0.0337212233285 0.959 6.34597627748e-39
-0.0336157346215 -0.0336157346215 0.956 4.31985564349e-39
-0.0317798609844 -0.0335454088169 0.954 1.39913191677e-38
-0.0297626207984 -0.0332641055983 0.946 1.416526655e-38
-0.0279230458032 -0.0331586168913 0.943 1.54531158906e-38
-0.0261778554405 -0.0331586168913 0.943 1.51786855994e-38
-0.0244326650778 -0.0331586168913 0.943 1.53627153241e-38
-0.0226874747151 -0.0331586168913 0.943 1.56382218126e-38
-0.0208756599059 -0.0330531281843 0.94 1.58215340725e-38
-0.0191360215804 -0.0330531281843 0.94 1.62821464829e-38
-0.0173963832549 -0.0330531281843 0.94 1.60984754906e-38
-0.0156234327062 -0.0329828023797 0.938 1.66502059323e-38
-0.0138874957388 -0.0329828023797 0.938 1.70171891846e-38
-0.012112694511 -0.0328773136727 0.935 1.72930544054e-38
-0.0103823095809 -0.0328773136727 0.935 1.73863248312e-38
-0.00865192465071 -0.0328773136727 0.935 1.69260711532e-38
-0.00692153972057 -0.0328773136727 0.935 1.73863248312e-38
-0.00519115479043 -0.0328773136727 0.935 1.77540255483e-38
-0.00346076986028 -0.0328773136727 0.935 1.79387727378e-38
-0.00173038493014 -0.0328773136727 0.935 1.75710720208e-38
0.0 -0.0328773136727 0.935 1.74785190598e-38
0.00173038493014 -0.0328773136727 0.935 2.01532432997e-38
0.00346076986028 -0.0328773136727 0.935 1.71285237488e-38
0.00519115479043 -0.0328773136727 0.935 1.58474665018e-38
0.00692153972057 -0.0328773136727 0.935 1.48301182116e-38
0.00865192465071 -0.0328773136727 0.935 1.72228479511e-38
0.0103823095809 -0.0328773136727 0.935 1.84203219486e-38
0.0121515587715 -0.0329828023797 0.938 1.67622425472e-38
0.0138874957388 -0.0329828023797 0.938 1.55676650336e-38
0.0156234327062 -0.0329828023797 0.938 1.39095856322e-38
0.0173963832549 -0.0330531281843 0.94 8.7412633867e-39
0.0191360215804 -0.0330531281843 0.94 9.01279299013e-39
0.0210089087989 -0.0332641055983 0.946 9.65710582013e-39
0.0227596511988 -0.0332641055983 0.946 1.74086671339e-38
0.0245622126127 -0.0333344314029 0.948 2.09016684017e-38
0.0263999369289 -0.0334399201099 0.951 1.77706337377e-38
0.0282487653195 -0.0335454088169 0.954 1.77824887227e-38
0.0300143131519 -0.0335454088169 0.954 1.95301615427e-38
0.0318464854309 -0.0336157346215 0.956 2.25640778154e-38
0.0337212233285 -0.0337212233285 0.959 2.3489287929e-38
-0.0392492017096 -0.0321129832169 0.964 2.27517341005e-38
-0.0373874185655 -0.0320463587704 0.962 6.06114274643e-39
-0.0354960245563 -0.0319464221007 0.959 8.27883489347e-39
-0.0337212233285 -0.0319464221007 0.959 7.36088210455e-39
-0.0318464854309 -0.0318464854309 0.956 1.34348873696e-38
-0.0300143131519 -0.0317798609844 0.954 1.48999505192e-38
-0.0280118783985 -0.0315133631984 0.946 1.46233678335e-38
-0.0262611359986 -0.0315133631984 0.946 1.49925034802e-38
-0.0245103935987 -0.0315133631984 0.946 1.53612803945e-38
-0.0227596511988 -0.0315133631984 0.946 1.56371456153e-38
-0.0209422843524 -0.0314134265286 0.943 1.6006281262e-38
-0.0191970939897 -0.0314134265286 0.943 1.60066399944e-38
-0.0173963832549 -0.0313134898588 0.94 1.64643825456e-38
-0.0156567449294 -0.0313134898588 0.94 1.66491297351e-38
-0.0138874957388 -0.0312468654123 0.938 1.70171891846e-38
-0.0121515587715 -0.0312468654123 0.938 1.71083072159e-38
-0.0104156218041 -0.0312468654123 0.938 1.7017547917e-38
-0.00867968483676 -0.0312468654123 0.938 1.71097421455e-38
-0.00694374786941 -0.0312468654123 0.938 1.73863248312e-38
-0.00520781090205 -0.0312468654123 0.938 1.79387727378e-38
-0.0034718739347 -0.0312468654123 0.938 1.78465785092e-38
-0.00173593696735 -0.0312468654123 0.938 1.7938055273e-38
0.0 -0.0312468654123 0.938 1.90443860158e-38
0.00173593696735 -0.0312468654123 0.938 2.02472241838e-38
0.0034718739347 -0.0312468654123 0.938 1.50980576883e-38
0.00520781090205 -0.0312468654123 0.938 1.41861781269e-38
0.00692153972057 -0.0311469287426 0.935 1.40929034973e-38
0.00865192465071 -0.0311469287426 0.935 1.24322695287e-38
0.0104156218041 -0.0312468654123 0.938 1.0583044609e-38
0.0121515587715 -0.0312468654123 0.938 5.9707421799e-39
0.0138874957388 -0.0312468654123 0.938 1.01184539122e-38
0.0156234327062 -0.0312468654123 0.938 8.28313127456e-39
0.0175074239991 -0.0315133631984 0.946 1.3994240875e-38
0.019258166399 -0.0315133631984 0.946 1.59346847196e-38
0.0210089087989 -0.0315133631984 0.946 1.47407588098e-38
0.0228077688546 -0.0315799876449 0.948 1.53836044803e-38
0.0245622126127 -0.0315799876449 0.948 2.15484671352e-38
0.026483217487 -0.0317798609844 0.954 1.81430063838e-38
0.0282487653195 -0.0317798609844 0.954 1.75048298398e-38
0.0300772362403 -0.0318464854309 0.956 1.97992879193e-38
0.0319464221007 -0.0319464221007 0.959 2.34856837894e-38
0.0337212233285 -0.0319464221007 0.959 2.34867529801e-38
-0.0392492017096 -0.0303289285938 0.964 2.25676777511e-38
-0.0374651470864 -0.0303289285938 0.964 7.99686281388e-39
-0.0354960245563 -0.0301716208728 0.959 9.84325851203e-39
-0.0337212233285 -0.0301716208728 0.959 8.2745216968e-39
-0.0318464854309 -0.0300772362403 0.956 1.4261406835e-38
-0.0300143131519 -0.0300143131519 0.954 1.45300974077e-38
-0.0281599327241 -0.0299199285194 0.951 1.48999505192e-38
-0.0262611359986 -0.0297626207984 0.946 1.49003092516e-38
-0.0245103935987 -0.0297626207984 0.946 1.52680099687e-38
-0.0227596511988 -0.0297626207984 0.946 1.51750982753e-38
-0.0210089087989 -0.0297626207984 0.946 1.62807115533e-38
-0.019258166399 -0.0297626207984 0.946 1.59140870334e-38
-0.017451903627 -0.0296682361659 0.943 1.67413239637e-38
-0.0157067132643 -0.0296682361659 0.943 1.67416826961e-38
-0.0139171066039 -0.0295738515333 0.94 1.72952067999e-38
-0.0121774682784 -0.0295738515333 0.94 1.72026538389e-38
-0.0104378299529 -0.0295738515333 0.94 1.73863248312e-38
-0.00867968483676 -0.029510928445 0.938 1.73856073664e-38
-0.00694374786941 -0.029510928445 0.938 1.77543842807e-38
-0.00520781090205 -0.029510928445 0.938 1.77543842807e-38
-0.0034718739347 -0.029510928445 0.938 1.76611138549e-38
-0.00173593696735 -0.029510928445 0.938 1.82146379587e-38
0.0 -0.029510928445 0.938 1.7938055273e-38
0.00173593696735 -0.029510928445 0.938 1.99692093711e-38
0.0034718739347 -0.029510928445 0.938 8.17766394694e-39
0.00521891497647 -0.0295738515333 0.94 9.75789281088e-39
0.00694374786941 -0.029510928445 0.938 8.64724466753e-39
0.00867968483676 -0.029510928445 0.938 8.82774592272e-39
0.0104156218041 -0.029510928445 0.938 1.25209563073e-38
0.0121774682784 -0.0295738515333 0.94 1.54754666011e-38
0.0139171066039 -0.0295738515333 0.94 1.52006803801e-38
0.0157566815992 -0.0297626207984 0.946 1.41858221971e-38
0.0175074239991 -0.0297626207984 0.946 1.43698575271e-38
0.019258166399 -0.0297626207984 0.946 1.02149291076e-38
0.0210533250966 -0.0298255438868 0.948 1.81494355411e-38
0.0228077688546 -0.0298255438868 0.948 1.44630704996e-38
0.0246399411336 -0.0299199285194 0.951 2.11757539735e-38
0.026483217487 -0.0300143131519 0.954 1.80504211929e-38
