# .PCD v0.7 - Point Cloud Data file format
VERSION 0.7
FIELDS x y z rgb
SIZE 4 4 4 4
TYPE F F F F
COUNT 1 1 1 1
WIDTH 856
HEIGHT 1
VIEWPOINT 0 0 0 1 0 0 0
POINTS 856
DATA ascii
-0.0190064740455 -0.160824011154 0.79 1.85906189483e-38
-0.0175444375805 -0.160824011154 0.79 1.89619266076e-38
-0.0160620436457 -0.160620436457 0.789 1.91491653058e-38
-0.0145648442783 -0.160213287061 0.787 1.22371134942e-38
-0.013041735404 -0.159398988271 0.783 1.16014957212e-38
-0.0114890156645 -0.157973965387 0.776 1.27125250177e-38
-0.010014024446 -0.157363241294 0.773 1.27157746289e-38
-0.0085612413763 -0.156956091899 0.771 1.20725674233e-38
-0.00713436781358 -0.156956091899 0.771 1.0042844051e-38
-0.00569268881831 -0.156548942503 0.769 1.29015447663e-38
-0.00425841253931 -0.156141793108 0.767 1.39154262442e-38
-0.00283524033474 -0.15593821841 0.766 1.49284893638e-38
-0.00141391880923 -0.155531069015 0.764 1.08708054525e-38
0.0 -0.155531069015 0.764 6.9949232015e-39
0.00141021745109 -0.15512391962 0.762 1.24327529767e-38
0.00281673354404 -0.154920344922 0.761 7.71418167727e-39
0.00422510031606 -0.154920344922 0.761 1.90450025871e-38
0.00561866165552 -0.154513195527 0.759 9.02546072825e-39
0.0070048202787 -0.154106046132 0.757 1.3631883309e-38
0.00840578433445 -0.154106046132 0.757 1.56664229442e-38
0.00980674839019 -0.154106046132 0.757 1.62206729206e-38
0.0111781015808 -0.153698896736 0.755 1.73245121547e-38
0.0125753642784 -0.153698896736 0.755 1.82457271664e-38
0.0140096405574 -0.154106046132 0.757 1.68642416611e-38
0.0154106046132 -0.154106046132 0.757 1.59448020945e-38
0.0167671523712 -0.153698896736 0.755 1.65905498541e-38
0.0181644150688 -0.153698896736 0.755 1.75113865153e-38
0.0195616777664 -0.153698896736 0.755 1.52983634947e-38
0.020958940464 -0.153698896736 0.755 1.7418860179e-38
0.0223562031616 -0.153698896736 0.755 1.75107082868e-38
0.0238163889476 -0.154106046132 0.757 1.71426264166e-38
0.0252173530033 -0.154106046132 0.757 1.64050571738e-38
0.0266183170591 -0.154106046132 0.757 1.66816482673e-38
0.0280192811148 -0.154106046132 0.757 1.7695430253e-38
0.0294979736915 -0.154513195527 0.759 1.76947085843e-38
0.0309840689844 -0.154920344922 0.761 1.55709875122e-38
0.0323924357565 -0.154920344922 0.761 1.55687762633e-38
0.0338008025285 -0.154920344922 0.761 1.71274909919e-38
0.0352091693005 -0.154920344922 0.761 1.63092686147e-38
0.0366656537283 -0.15512391962 0.762 1.73237680652e-38
0.0380758711794 -0.15512391962 0.762 1.85233930558e-38
0.0396933646863 -0.15593821841 0.766 1.17020052548e-38
0.0411109848537 -0.15593821841 0.766 7.84727140022e-44
0.0425841253931 -0.156141793108 0.767 5.34061189165e-39
0.0441183383419 -0.156548942503 0.769 4.13259732711e-39
0.0457783974674 -0.157363241294 0.773 1.87060046665e-38
0.0472700447975 -0.157566815992 0.774 1.75070677134e-38
0.0488283165742 -0.157973965387 0.776 1.87030745514e-38
0.050523538602 -0.158788264178 0.78 1.74105364661e-38
0.0521669416159 -0.159398988271 0.783 1.50937543007e-38
-0.0190064740455 -0.159361974689 0.79 1.88672100418e-38
-0.0175444375805 -0.159361974689 0.79 1.86842481065e-38
-0.0160824011154 -0.159361974689 0.79 1.93318035412e-38
-0.0146018578597 -0.159160250671 0.789 1.23293119267e-38
-0.0131083598505 -0.158756802634 0.787 9.84548237269e-39
-0.0115926536924 -0.157949906559 0.783 1.18795217443e-38
-0.0100269791995 -0.156134390392 0.774 1.25299582486e-38
-0.00858344952513 -0.155932666373 0.773 1.26253740623e-38
-0.00713436781358 -0.155529218336 0.771 1.29941537792e-38
-0.00569268881831 -0.155125770299 0.769 8.84460914844e-39
-0.00426951661373 -0.155125770299 0.769 1.07774579553e-38
-0.00283894169288 -0.154722322262 0.767 1.2806577368e-38
-0.00141762016737 -0.154520598243 0.766 1.53884081314e-38
0.0 -0.154520598243 0.766 1.53894633092e-38
0.00141391880923 -0.154117150206 0.764 1.52057979221e-38
0.00282043490218 -0.153713702169 0.762 7.54603987454e-39
0.00422510031606 -0.15351197815 0.761 1.62991596475e-38
0.00563346708808 -0.15351197815 0.761 1.51157701009e-38
0.0070233270694 -0.153108530113 0.759 1.58515344713e-38
0.00842799248328 -0.153108530113 0.759 1.45625963217e-38
0.00983265789716 -0.153108530113 0.759 5.88040747439e-39
0.0112077124459 -0.152705082076 0.757 1.18669647088e-38
0.0126086765017 -0.152705082076 0.757 1.03108900265e-38
0.0140466541388 -0.153108530113 0.759 1.4551775495e-38
0.0154513195527 -0.153108530113 0.759 1.39104446281e-38
0.0168115686689 -0.152705082076 0.757 1.52015337708e-38
0.0181644150688 -0.152301634039 0.755 1.65822807919e-38
0.0195616777664 -0.152301634039 0.755 1.14228848176e-38
0.020958940464 -0.152301634039 0.755 1.58486604081e-38
0.0223562031616 -0.152301634039 0.755 1.28012075923e-38
0.023879312036 -0.153108530113 0.759 1.46436782535e-38
0.0252839774498 -0.153108530113 0.759 8.09059847076e-39
0.0266886428637 -0.153108530113 0.759 1.62963178143e-38
0.0280933082776 -0.153108530113 0.759 1.07677119245e-38
0.0294979736915 -0.153108530113 0.759 1.33473566623e-38
0.0309840689844 -0.15351197815 0.761 1.61017531277e-38
0.0324350013751 -0.153713702169 0.762 1.54599948648e-38
0.0338452188261 -0.153713702169 0.762 1.79618226962e-38
0.0352554362772 -0.153713702169 0.762 1.72326668494e-38
0.0367618890399 -0.154117150206 0.764 1.72326514351e-38
0.0382757445189 -0.154520598243 0.766 1.71411620597e-38
0.0397451837003 -0.154722322262 0.767 1.54809428755e-38
0.0412719939327 -0.155125770299 0.769 6.86636247519e-44
0.0426951661373 -0.155125770299 0.769 1.45529651974e-38
0.0442330804442 -0.155529218336 0.771 1.88890688966e-38
0.0457783974674 -0.155932666373 0.773 1.82439349057e-38
0.0473921896161 -0.156537838429 0.776 1.80580989072e-38
0.0488283165742 -0.156537838429 0.776 1.69499590881e-38
0.050523538602 -0.157344734503 0.78 1.38998367987e-38
0.0523001905089 -0.158353354596 0.785 1.68356874023e-38
-0.0175888538782 -0.158299684903 0.792 1.86838977819e-38
-0.0160824011154 -0.157899938224 0.79 1.91502443057e-38
-0.0146018578597 -0.157700064885 0.789 1.14070025008e-38
-0.0131083598505 -0.157300318206 0.787 9.75361464667e-39
-0.0115926536924 -0.156500824848 0.783 1.18719869625e-38
-0.0100528887065 -0.155101711471 0.776 1.25266946245e-38
-0.00859455359955 -0.154701964792 0.774 1.28083205833e-38
-0.00715287460428 -0.154502091452 0.773 1.31781919117e-38
-0.00570749425087 -0.154102344773 0.771 1.33622398533e-38
-0.00426951661373 -0.153702598094 0.769 1.37299489781e-38
-0.00284634440915 -0.153702598094 0.769 1.05934968942e-38
-0.00141947084644 -0.153302851415 0.767 1.08657860014e-38
0.0 -0.153302851415 0.767 1.51107324329e-38
0.00141762016737 -0.153102978076 0.766 1.51128932352e-38
0.00282783761846 -0.152703231397 0.764 1.54849225632e-38
0.00424175642769 -0.152703231397 0.764 1.51157672983e-38
0.00564086980436 -0.152303484718 0.762 1.39193765045e-38
0.0070418338601 -0.152103611378 0.761 1.44704006919e-38
0.00845020063212 -0.152103611378 0.761 1.49324704527e-38
0.00985856740414 -0.152103611378 0.761 8.73417281647e-39
0.011237323311 -0.151703864699 0.759 1.2683351385e-38
0.0126419887249 -0.151703864699 0.759 8.46189772225e-39
0.0140836677202 -0.152103611378 0.761 1.27021427974e-38
0.0154920344922 -0.152103611378 0.761 7.26586285828e-39
0.0169004012642 -0.152103611378 0.761 1.1314778845e-38
0.0182606503804 -0.151703864699 0.759 1.24057037125e-38
0.0196653157943 -0.151703864699 0.759 7.16688774645e-39
0.0211255015803 -0.152103611378 0.761 6.79671794151e-39
0.0225338683523 -0.152103611378 0.761 9.10729375597e-39
0.0239422351243 -0.152103611378 0.761 1.08567854614e-38
0.0252839774498 -0.151703864699 0.759 1.48215450676e-38
0.0266886428637 -0.151703864699 0.759 1.62994076774e-38
0.0281673354404 -0.152103611378 0.761 9.38450422337e-39
0.0295757022124 -0.152103611378 0.761 1.83317514778e-38
0.0309840689844 -0.152103611378 0.761 1.80580736839e-38
0.0324350013751 -0.152303484718 0.762 1.83350347201e-38
0.0339340514215 -0.152703231397 0.764 1.77833098836e-38
0.0353479702307 -0.152703231397 0.764 1.76017856805e-38
0.0368581243516 -0.153102978076 0.766 1.69564176728e-38
0.0383257128538 -0.153302851415 0.767 1.51078611724e-38
0.0398488217282 -0.153702598094 0.769 1.9719433525e-38
0.0412719939327 -0.153702598094 0.769 6.44597293589e-44
0.0426951661373 -0.153702598094 0.769 1.21698203394e-38
0.0442330804442 -0.154102344773 0.771 1.99041624976e-38
0.0457783974674 -0.154502091452 0.773 1.8608007661e-38
0.0473921896161 -0.155101711471 0.776 1.68559431716e-38
0.0488283165742 -0.155101711471 0.776 1.56515972064e-38
0.050523538602 -0.155901204829 0.78 1.49965013847e-38
0.0523001905089 -0.156900571527 0.785 1.96934338333e-38
-0.0175888538782 -0.15683394708 0.792 1.8595641202e-38
-0.016123116055 -0.15683394708 0.792 2.0441336251e-38
-0.0146018578597 -0.156239879099 0.789 1.1501678429e-38
-0.0131416720737 -0.156239879099 0.789 1.18745050958e-38
-0.0116222645575 -0.155447788457 0.785 9.93653454301e-39
-0.0100528887065 -0.153665584513 0.776 1.2335741084e-38
-0.00859455359955 -0.153269539192 0.774 1.20650326415e-38
-0.00715287460428 -0.153071516532 0.773 1.25296023188e-38
-0.00572229968342 -0.153071516532 0.773 1.30849242885e-38
-0.00428062068815 -0.152675471211 0.771 1.35462709793e-38
-0.00284634440915 -0.15227942589 0.769 1.42834702793e-38
-0.00142317220458 -0.15227942589 0.769 1.37295678249e-38
0.0 -0.151883380569 0.767 9.02366566492e-39
0.00141947084644 -0.151883380569 0.767 9.29625044609e-39
0.00283524033474 -0.151685357908 0.766 1.34473056766e-38
0.00424175642769 -0.151289312587 0.764 1.33597525485e-38
0.00564086980436 -0.150893267267 0.762 1.56682222114e-38
0.00705108725545 -0.150893267267 0.762 1.49306529686e-38
0.00845020063212 -0.150695244606 0.761 1.64057872503e-38
0.00985856740414 -0.150695244606 0.761 1.37245862089e-38
0.0112669341762 -0.150695244606 0.761 1.64903444022e-38
0.0126753009482 -0.150695244606 0.761 1.72323039131e-38
0.0140836677202 -0.150695244606 0.761 1.66798335858e-38
0.0154920344922 -0.150695244606 0.761 1.68642416611e-38
0.0169004012642 -0.150695244606 0.761 1.75996388913e-38
0.0183087680363 -0.150695244606 0.761 1.74156035613e-38
0.0197171348083 -0.150695244606 0.761 1.74166951728e-38
0.0211255015803 -0.150695244606 0.761 1.69575120869e-38
0.0225338683523 -0.150695244606 0.761 1.7418137109e-38
0.0239422351243 -0.150695244606 0.761 1.6865692005e-38
0.0253506018964 -0.150695244606 0.761 1.76018067e-38
0.0267589686684 -0.150695244606 0.761 1.74181216947e-38
0.0281673354404 -0.150695244606 0.761 1.7510685866e-38
0.0296145664729 -0.150893267267 0.762 1.7509976809e-38
0.031024783924 -0.150893267267 0.762 1.74177657649e-38
0.0325201326123 -0.151289312587 0.764 1.73241211924e-38
0.0339340514215 -0.151289312587 0.764 1.52007350307e-38
0.0353479702307 -0.151289312587 0.764 1.43681409364e-38
0.0368581243516 -0.151685357908 0.766 1.15979252127e-38
0.0383257128538 -0.151883380569 0.767 1.69456823252e-38
0.0398488217282 -0.15227942589 0.769 1.85215951899e-38
0.0412719939327 -0.15227942589 0.769 8.20035096908e-39
0.0426951661373 -0.15227942589 0.769 1.47379197791e-38
0.0443478225465 -0.153071516532 0.773 1.85201280304e-38
0.0458376191976 -0.153269539192 0.774 1.59350784844e-38
0.0473921896161 -0.153665584513 0.776 1.47281989716e-38
0.0489541627509 -0.154061629834 0.778 1.4076342952e-38
0.050523538602 -0.154457675155 0.78 1.59126521038e-38
0.0523001905089 -0.155447788457 0.785 1.89561896917e-38
0.0538899238298 -0.155843833778 0.787 1.50836215115e-38
-0.016123116055 -0.155368209257 0.792 2.01640711329e-38
-0.0146018578597 -0.154779693313 0.789 1.18704553432e-38
-0.0131416720737 -0.154779693313 0.789 1.18748372035e-38
-0.0116222645575 -0.153995005387 0.785 9.66247559585e-39
-0.0101176624739 -0.153210317462 0.781 1.05808123405e-38
-0.00861676174839 -0.152229457555 0.776 1.1413078531e-38
-0.00716212799963 -0.151837113592 0.774 1.16922438097e-38
-0.00572229968342 -0.151640941611 0.773 1.34490362802e-38
-0.00428062068815 -0.151248597648 0.771 1.32692987326e-38
-0.00285374712543 -0.151248597648 0.771 1.32707406688e-38
-0.00142317220458 -0.150856253685 0.769 1.34555046739e-38
0.0 -0.150856253685 0.769 1.49281334339e-38
0.00141947084644 -0.150463909722 0.767 1.48348447913e-38
0.00283894169288 -0.150463909722 0.767 1.28980148954e-38
0.0042528605021 -0.150267737741 0.766 8.00591940586e-39
0.00565567523691 -0.149875393778 0.764 1.15110699313e-38
0.00705108725545 -0.149483049815 0.762 1.15147847735e-38
0.00846130470654 -0.149483049815 0.762 8.55725748405e-39
0.00987152215763 -0.149483049815 0.762 1.5654210628e-38
0.0112669341762 -0.149286877834 0.761 1.54772700722e-38
0.0126753009482 -0.149286877834 0.761 1.65883834467e-38
0.0141021745109 -0.149483049815 0.762 1.67734907699e-38
0.0154920344922 -0.149286877834 0.761 1.66812951401e-38
0.0169004012642 -0.149286877834 0.761 1.6959677093e-38
0.0183087680363 -0.149286877834 0.761 1.67770808966e-38
0.0197171348083 -0.149286877834 0.761 1.54870735563e-38
0.0211255015803 -0.149286877834 0.761 1.62217617295e-38
0.0225634792174 -0.149483049815 0.762 1.74192133062e-38
0.0239736966685 -0.149483049815 0.762 1.69575120869e-38
0.0253506018964 -0.149286877834 0.761 1.67716760884e-38
0.0267589686684 -0.149286877834 0.761 1.70453763032e-38
0.0282043490218 -0.149483049815 0.762 1.7506347446e-38
0.0296145664729 -0.149483049815 0.762 1.55687762633e-38
0.031024783924 -0.149483049815 0.762 1.260925913e-38
0.0326052638495 -0.150267737741 0.766 1.56506401196e-38
0.0340228840168 -0.150267737741 0.766 1.27057301215e-38
0.0354405041842 -0.150267737741 0.766 1.77778952663e-38
0.0369062420074 -0.150463909722 0.767 1.85205245979e-38
0.0383257128538 -0.150463909722 0.767 1.71386537354e-38
0.0398488217282 -0.150856253685 0.769 1.7140092869e-38
0.0413793333188 -0.151248597648 0.771 1.63085273278e-38
0.0429172476257 -0.151640941611 0.773 1.81510007915e-38
0.0444051935977 -0.151837113592 0.774 1.63957007039e-38
0.0459560626581 -0.152229457555 0.776 1.33449085939e-38
0.0475143344347 -0.152621801518 0.778 1.6933971674e-38
0.0489541627509 -0.152621801518 0.778 1.58272934092e-38
0.0507178599043 -0.153602661425 0.783 1.61006811344e-38
0.0523001905089 -0.153995005387 0.785 1.67441952242e-38
0.0538899238298 -0.15438734935 0.787 1.60963230961e-38
-0.0131416720737 -0.153319507527 0.789 1.15045833207e-38
-0.0116222645575 -0.152542222318 0.785 9.29119736383e-39
-0.0101176624739 -0.151764937108 0.781 1.01176930072e-38
-0.00866117804606 -0.151570615806 0.78 1.12258356289e-38
-0.00718063479032 -0.150793330597 0.776 1.12262209859e-38
-0.0057297023997 -0.150404687992 0.774 1.1597898588e-38
-0.00429172476257 -0.15021036669 0.773 1.37227154755e-38
-0.00286114984171 -0.15021036669 0.773 1.37288069199e-38
-0.00142687356272 -0.149821724085 0.771 1.3453692795e-38
0.0 -0.149433081481 0.769 1.5296195686e-38
0.00142317220458 -0.149433081481 0.769 1.41916277767e-38
0.00283894169288 -0.149044438876 0.767 1.4560428513e-38
0.00425841253931 -0.149044438876 0.767 1.54831050791e-38
0.00567048066947 -0.148850117574 0.766 1.54838267478e-38
0.00706959404614 -0.148461474969 0.764 1.46533261934e-38
0.00848351285537 -0.148461474969 0.764 1.26203966502e-38
0.00987152215763 -0.148072832364 0.762 1.38152376079e-38
0.0112817396087 -0.148072832364 0.762 9.94453035204e-39
0.0126919570598 -0.148072832364 0.762 9.02660418779e-39
0.0141021745109 -0.148072832364 0.762 1.62173084029e-38
0.015512391962 -0.148072832364 0.762 8.00877525213e-39
0.0169226094131 -0.148072832364 0.762 9.20446679798e-39
0.0183328268642 -0.148072832364 0.762 8.65453282085e-39
0.0197430443153 -0.148072832364 0.762 8.92824564729e-39
0.0211532617663 -0.148072832364 0.762 1.01181610409e-38
0.0225634792174 -0.148072832364 0.762 9.66187023491e-39
0.0239736966685 -0.148072832364 0.762 1.40047099758e-38
0.0253839141196 -0.148072832364 0.762 1.18776524121e-38
0.0267941315707 -0.148072832364 0.762 1.14124157168e-38
0.0282043490218 -0.148072832364 0.762 1.33491839555e-38
0.0296922949938 -0.148461474969 0.764 1.30747858941e-38
0.031106213803 -0.148461474969 0.764 1.83310956702e-38
0.0326478294681 -0.149044438876 0.767 1.78730041957e-38
0.0340673003145 -0.149044438876 0.767 1.82450139055e-38
0.0354867711609 -0.149044438876 0.767 1.72330073649e-38
0.0369062420074 -0.149044438876 0.767 1.71397397418e-38
0.0384256495236 -0.149433081481 0.769 1.75989158212e-38
0.0398488217282 -0.149433081481 0.769 1.66780511341e-38
0.0413793333188 -0.149821724085 0.771 1.87041717681e-38
0.0429172476257 -0.15021036669 0.773 1.65815044725e-38
0.0445199357 -0.150793330597 0.776 1.40835694482e-38
0.0459560626581 -0.150793330597 0.776 1.45300974077e-38
0.0475143344347 -0.151181973201 0.778 1.628253184e-38
0.0490800089277 -0.151570615806 0.78 1.73921234043e-38
0.0508474074392 -0.152542222318 0.785 1.54589242728e-38
0.0525666882949 -0.153319507527 0.789 1.68360405295e-38
0.0542322994576 -0.153902471434 0.792 1.55431577247e-38
-0.0131583281854 -0.152051792364 0.79 1.17811772168e-38
-0.0116518754226 -0.151474380494 0.787 9.56742411971e-39
-0.0101435719809 -0.150704498001 0.783 1.03921246997e-38
-0.00866117804606 -0.150127086132 0.78 1.03931952918e-38
-0.00718063479032 -0.149357203639 0.776 1.04843133231e-38
-0.00574450783226 -0.149357203639 0.776 1.1316238998e-38
-0.00429727679978 -0.148972262392 0.774 1.20570018e-38
-0.00286485119985 -0.148972262392 0.774 1.11394203552e-38
-0.00143057492086 -0.148779791769 0.773 1.30755285823e-38
0.0 -0.148394850523 0.771 1.36359358642e-38
0.00142317220458 -0.148009909276 0.769 1.45600319455e-38
0.00284634440915 -0.148009909276 0.769 1.45600795897e-38
0.00425841253931 -0.14762496803 0.767 1.44696790232e-38
0.00567788338575 -0.14762496803 0.767 1.49303012427e-38
0.00708810083684 -0.147432497406 0.766 1.49310060958e-38
0.00850572100421 -0.147432497406 0.766 1.6406508919e-38
0.0098974316646 -0.14704755616 0.764 1.61291961568e-38
0.0113113504738 -0.14704755616 0.764 1.56703830136e-38
0.0127252692831 -0.14704755616 0.764 1.64068718553e-38
0.0141391880923 -0.14704755616 0.764 1.59448020945e-38
0.0155531069015 -0.14704755616 0.764 1.46497696979e-38
0.0169670257107 -0.14704755616 0.764 1.79684017925e-38
0.01838094452 -0.14704755616 0.764 1.37277531434e-38
0.0197430443153 -0.146662614913 0.762 1.79676787225e-38
0.0211532617663 -0.146662614913 0.762 1.81520839952e-38
0.0225634792174 -0.146662614913 0.762 1.75085180573e-38
0.0239736966685 -0.146662614913 0.762 1.59433643623e-38
0.0253839141196 -0.146662614913 0.762 1.78783921883e-38
0.0267941315707 -0.146662614913 0.762 1.72330199766e-38
0.0282783761846 -0.14704755616 0.764 1.67727648973e-38
0.0296922949938 -0.14704755616 0.764 1.67727648973e-38
0.0311876436821 -0.147432497406 0.766 1.71426264166e-38
0.0326478294681 -0.14762496803 0.767 1.64050599764e-38
0.0340673003145 -0.14762496803 0.767 1.6957156157e-38
0.0354867711609 -0.14762496803 0.767 1.66801965221e-38
0.0369062420074 -0.14762496803 0.767 1.75074488666e-38
0.0384256495236 -0.148009909276 0.769 1.84286736874e-38
0.0399524597561 -0.148394850523 0.771 1.842867649e-38
0.0414866727048 -0.148779791769 0.773 1.53819047053e-38
0.0429727679978 -0.148972262392 0.774 1.43619345855e-38
0.0445199357 -0.149357203639 0.776 1.40730723214e-38
0.0460745061185 -0.149742144885 0.778 1.59133779764e-38
0.0476364792533 -0.150127086132 0.78 1.52680099687e-38
0.0492687781928 -0.150704498001 0.783 1.6932201834e-38
0.051106502509 -0.151859321741 0.789 1.74860916767e-38
0.0527665616345 -0.152436733611 0.792 1.65583704362e-38
0.0542322994576 -0.152436733611 0.792 1.63707533874e-38
-0.0131583281854 -0.150589755899 0.79 1.15045735116e-38
-0.0116518754226 -0.150017896067 0.787 9.56848069876e-39
-0.0101435719809 -0.14925541629 0.783 1.10378500386e-38
-0.00869449026931 -0.14925541629 0.783 1.13162137746e-38
-0.00722690176707 -0.148874176402 0.781 1.05772250165e-38
-0.00574450783226 -0.147921076681 0.776 1.04821609287e-38
-0.00430838087419 -0.147921076681 0.776 1.21423871193e-38
-0.00286485119985 -0.147539836792 0.774 1.25202220269e-38
-0.00143242559993 -0.147539836792 0.774 1.15074854098e-38
0.0 -0.147349216848 0.773 1.30755341875e-38
0.00142317220458 -0.146586737071 0.769 1.29862210286e-38
0.00284634440915 -0.146586737071 0.769 1.37255979464e-38
0.00426951661373 -0.146586737071 0.769 1.46500625693e-38
0.00567788338575 -0.146205497183 0.767 1.52039846418e-38
0.00709735423219 -0.146205497183 0.767 1.5111451299e-38
0.00850572100421 -0.146014877239 0.766 1.56667704662e-38
0.00992334117158 -0.146014877239 0.766 1.57593346375e-38
0.0113409613389 -0.146014877239 0.766 1.52990795582e-38
0.0127585815063 -0.146014877239 0.766 1.51150484322e-38
0.0141762016737 -0.146014877239 0.766 1.52079657308e-38
0.0155531069015 -0.145633637351 0.764 1.58515316687e-38
0.0169670257107 -0.145633637351 0.764 1.60369977243e-38
0.01838094452 -0.145633637351 0.764 1.65894652491e-38
0.0197948633292 -0.145633637351 0.764 1.61284744881e-38
0.0212087821384 -0.145633637351 0.764 1.57600380894e-38
0.0226227009477 -0.145633637351 0.764 1.52086691826e-38
0.0240366197569 -0.145633637351 0.764 1.55774460969e-38
0.0254505385661 -0.145633637351 0.764 1.59458782917e-38
0.0268644573753 -0.145633637351 0.764 1.53927101177e-38
0.0283524033474 -0.146014877239 0.766 1.57604178412e-38
0.0298088877752 -0.146205497183 0.767 1.64043509194e-38
0.0312283586216 -0.146205497183 0.767 1.64046914349e-38
0.0326478294681 -0.146205497183 0.767 1.6588356822e-38
0.0340673003145 -0.146205497183 0.767 1.70482601754e-38
0.0355793051144 -0.146586737071 0.769 1.67723823428e-38
0.037002477319 -0.146586737071 0.769 1.79684186081e-38
0.0385255861933 -0.14696797696 0.771 1.75981969551e-38
0.0399524597561 -0.14696797696 0.771 1.48294119571e-38
0.0414866727048 -0.147349216848 0.773 1.50966031405e-38
0.0429727679978 -0.147539836792 0.774 1.50937388865e-38
0.0445199357 -0.147921076681 0.776 1.3980160628e-38
0.0460745061185 -0.148302316569 0.778 1.54498985093e-38
0.0476975516626 -0.148874176402 0.781 1.59123073844e-38
0.049646316723 -0.150399135955 0.789 1.60077161916e-38
0.051106502509 -0.150399135955 0.789 1.67445525553e-38
0.0527665616345 -0.150970995787 0.792 1.67420414285e-38
0.0542322994576 -0.150970995787 0.792 1.68328007274e-38
0.0556980372808 -0.150970995787 0.792 1.72022951065e-38
-0.0162859758131 -0.151015412085 0.8 1.9700197901e-38
-0.014768418976 -0.150637873555 0.798 1.2976438564e-38
-0.0131916404086 -0.149505257964 0.792 1.14109555638e-38
-0.0116814862878 -0.148938950169 0.789 1.10450302919e-38
-0.0101694814878 -0.148183873109 0.785 1.00233477855e-38
-0.00869449026931 -0.147806334578 0.783 1.6388090252e-38
-0.00724540855776 -0.147806334578 0.783 9.20329110856e-39
-0.00575931326482 -0.146862488253 0.778 1.07594610792e-38
-0.00430838087419 -0.146484949723 0.776 1.03903254325e-38
-0.00287225391613 -0.146484949723 0.776 1.26040645166e-38
-0.00143242559993 -0.146107411192 0.774 1.12269076222e-38
0.0 -0.145918641927 0.773 1.07652456392e-38
0.00142687356272 -0.145541103397 0.771 1.27921061588e-38
0.00285374712543 -0.145541103397 0.771 1.371800431e-38
0.00426951661373 -0.145163564867 0.769 1.24298116512e-38
0.00569268881831 -0.145163564867 0.769 1.54740653027e-38
0.00709735423219 -0.144786026337 0.767 1.36323205141e-38
0.00851682507863 -0.144786026337 0.767 1.51103246551e-38
0.00993629592506 -0.144786026337 0.767 1.46500793849e-38
0.0113557667715 -0.144786026337 0.767 1.58497015729e-38
0.0127752376179 -0.144786026337 0.767 1.58515204583e-38
0.0141762016737 -0.144597257072 0.766 1.51161204255e-38
0.015593821841 -0.144597257072 0.766 1.55763727022e-38
0.0170114420084 -0.144597257072 0.766 1.6311786748e-38
0.0184290621758 -0.144597257072 0.766 1.61273954883e-38
0.0198466823432 -0.144597257072 0.766 1.61273982909e-38
0.0212087821384 -0.144219718541 0.764 1.63124901998e-38
0.0226227009477 -0.144219718541 0.764 1.60366473997e-38
0.0240366197569 -0.144219718541 0.764 1.60370005269e-38
0.0255171630126 -0.144597257072 0.766 1.60366445971e-38
0.02693478318 -0.144597257072 0.766 1.65890995102e-38
0.0283894169288 -0.144786026337 0.767 1.70489916532e-38
0.0298088877752 -0.144786026337 0.767 1.66794804586e-38
0.0313097885007 -0.145163564867 0.769 1.72330073649e-38
0.0327329607053 -0.145163564867 0.769 1.7140092869e-38
0.0341561329098 -0.145163564867 0.769 1.79691374742e-38
0.0356718390679 -0.145541103397 0.771 1.75077991912e-38
0.0370987126306 -0.145541103397 0.771 1.69513758009e-38
0.038675491198 -0.146107411192 0.774 1.55640679004e-38
0.0401079167979 -0.146107411192 0.774 1.48203946015e-38
0.0416476817839 -0.146484949723 0.776 1.60160679305e-38
0.0431948494861 -0.146862488253 0.778 1.34288099381e-38
0.0446346778023 -0.146862488253 0.778 1.48077562907e-38
0.0462521713092 -0.147428796048 0.781 1.5544595457e-38
0.0478196964812 -0.147806334578 0.783 1.6374747088e-38
0.049646316723 -0.148938950169 0.789 1.62835814125e-38
0.051106502509 -0.148938950169 0.789 1.70193499868e-38
0.0527665616345 -0.149505257964 0.792 1.62818129739e-38
0.0542322994576 -0.149505257964 0.792 1.67413239637e-38
0.0556980372808 -0.149505257964 0.792 1.80309879858e-38
-0.0162859758131 -0.149534868829 0.8 1.89647838552e-38
-0.014768418976 -0.149161031657 0.798 1.31604570783e-38
-0.0132249526319 -0.148413357313 0.794 1.17808296948e-38
-0.0116962917203 -0.147665682969 0.79 1.31658744982e-38
-0.0102213005018 -0.147478764383 0.789 9.93296403452e-39
-0.00871669841815 -0.146731090039 0.785 1.43579464901e-38
-0.00724540855776 -0.146357252867 0.783 1.14153290163e-38
-0.00577411869737 -0.145796497109 0.78 1.01151776764e-38
-0.00431948494861 -0.145422659937 0.778 1.05747138896e-38
-0.00287225391613 -0.145048822765 0.776 1.07573086847e-38
-0.00143242559993 -0.144674985592 0.774 1.16821208296e-38
0.0 -0.144674985592 0.774 1.15870567418e-38
0.00143057492086 -0.144488067006 0.773 1.20469516874e-38
0.00285374712543 -0.144114229834 0.771 1.16831970268e-38
0.00428062068815 -0.144114229834 0.771 1.27898977124e-38
0.00569268881831 -0.143740392662 0.769 1.18708154769e-38
0.00711586102289 -0.143740392662 0.769 1.49150831413e-38
0.00851682507863 -0.14336655549 0.767 1.31673514668e-38
0.00993629592506 -0.14336655549 0.767 1.39063822639e-38
0.0113557667715 -0.14336655549 0.767 1.32617163067e-38
0.0127752376179 -0.14336655549 0.767 1.50149018349e-38
0.0141947084644 -0.14336655549 0.767 1.57557192875e-38
0.015593821841 -0.143179636904 0.766 1.50185297966e-38
0.0170114420084 -0.143179636904 0.766 1.54773275255e-38
0.0184290621758 -0.143179636904 0.766 1.52003819035e-38
0.0198466823432 -0.143179636904 0.766 1.59404650757e-38
0.0212643025105 -0.143179636904 0.766 1.61270129338e-38
0.0226819226779 -0.143179636904 0.766 1.52043349665e-38
0.0240995428453 -0.143179636904 0.766 1.66769399044e-38
0.0255171630126 -0.143179636904 0.766 1.62163148823e-38
0.0269699460823 -0.14336655549 0.767 1.6399274015e-38
0.0284634440915 -0.143740392662 0.769 1.66758651085e-38
0.0298866162961 -0.143740392662 0.769 1.72268738816e-38
0.0313097885007 -0.143740392662 0.769 1.59361350635e-38
0.0327329607053 -0.143740392662 0.769 1.61198270753e-38
0.0341561329098 -0.143740392662 0.769 1.56573999833e-38
0.0356718390679 -0.144114229834 0.771 1.53807710548e-38
0.0370987126306 -0.144114229834 0.771 1.45477859983e-38
0.038675491198 -0.144674985592 0.774 1.51862399994e-38
0.0401079167979 -0.144674985592 0.774 1.61064236555e-38
0.0416476817839 -0.145048822765 0.776 1.7676340364e-38
0.0431948494861 -0.145422659937 0.778 1.47206025327e-38
0.0447494199046 -0.145796497109 0.78 1.40716373918e-38
0.0462521713092 -0.145983415695 0.781 1.90516251236e-38
0.0479418412998 -0.146731090039 0.785 1.57357970272e-38
0.0495204705463 -0.147104927211 0.787 1.64668936724e-38
0.051106502509 -0.147478764383 0.789 1.62825052153e-38
0.0527665616345 -0.148039520141 0.792 1.65594466334e-38
0.0542322994576 -0.148039520141 0.792 1.6926788618e-38
0.0556980372808 -0.148039520141 0.792 1.80327788453e-38
-0.0162859758131 -0.148054325574 0.8 1.91488149812e-38
-0.014768418976 -0.14768418976 0.798 1.24236207146e-38
-0.0132249526319 -0.146943918132 0.794 1.29772204885e-38
-0.0117259025854 -0.146573782318 0.792 1.18719449235e-38
-0.0102342552553 -0.146203646504 0.79 1.07616330918e-38
-0.00873890656699 -0.145648442783 0.787 1.02080893698e-38
-0.00724540855776 -0.144908171155 0.783 1.16857081537e-38
-0.00578152141365 -0.144538035341 0.781 1.07612547412e-38
-0.00433058902303 -0.144352967434 0.78 1.07591023468e-38
-0.00287965663241 -0.14398283162 0.778 1.15856218122e-38
-0.00143612695806 -0.143612695806 0.776 1.13093978589e-38
0.0 -0.143242559993 0.774 1.16763811111e-38
0.00143242559993 -0.143242559993 0.774 1.2046592955e-38
0.00286114984171 -0.143057492086 0.773 1.21412983104e-38
0.00429172476257 -0.143057492086 0.773 1.26022694532e-38
0.00570749425087 -0.142687356272 0.771 1.21449038514e-38
0.00713436781358 -0.142687356272 0.771 1.30643336089e-38
0.00853903322746 -0.142317220458 0.769 1.2789886502e-38
0.00996220543204 -0.142317220458 0.769 1.44533623038e-38
0.0113557667715 -0.141947084644 0.767 1.33495777204e-38
0.0127752376179 -0.141947084644 0.767 1.38087383856e-38
0.0141947084644 -0.141947084644 0.767 1.48247077982e-38
0.0156141793108 -0.141947084644 0.767 1.44581155082e-38
0.0170336501573 -0.141947084644 0.767 1.3073395806e-38
0.0184531210037 -0.141947084644 0.767 1.40882595942e-38
0.0198725918501 -0.141947084644 0.767 1.39042130539e-38
0.0212920626966 -0.141947084644 0.767 1.33532126886e-38
0.022711533543 -0.141947084644 0.767 1.34436090512e-38
0.0241310043894 -0.141947084644 0.767 1.58399709564e-38
0.0255504752359 -0.141947084644 0.767 1.47343296524e-38
0.0269699460823 -0.141947084644 0.767 1.52875188459e-38
0.0284634440915 -0.142317220458 0.769 1.39034941877e-38
0.0298866162961 -0.142317220458 0.769 1.43630093815e-38
0.0313912183798 -0.142687356272 0.771 1.50073067972e-38
0.0328180919425 -0.142687356272 0.771 1.51913197063e-38
0.0342449655052 -0.142687356272 0.771 1.39881101942e-38
0.0358106399981 -0.143242559993 0.774 1.57394614227e-38
0.0372430655981 -0.143242559993 0.774 1.47238773672e-38
0.0387754278677 -0.143612695806 0.776 1.64748712646e-38
0.0402115548258 -0.143612695806 0.776 2.07166115252e-38
0.0417550211699 -0.14398283162 0.778 1.50955942056e-38
0.0431948494861 -0.14398283162 0.778 1.41620379583e-38
0.0448067909558 -0.144538035341 0.781 1.66520220151e-38
0.0463706147697 -0.144908171155 0.783 1.8686869936e-38
0.0480639861184 -0.145648442783 0.787 1.47191493862e-38
0.0495204705463 -0.145648442783 0.787 1.76643662686e-38
0.051106502509 -0.146018578597 0.789 1.59148227151e-38
0.0527665616345 -0.146573782318 0.792 1.68367467839e-38
0.0542322994576 -0.146573782318 0.792 1.68345943895e-38
0.0556980372808 -0.146573782318 0.792 1.78465967261e-38
-0.014768418976 -0.146207347862 0.798 1.43568296552e-38
-0.0132249526319 -0.145474478951 0.794 1.31608900796e-38
-0.0117259025854 -0.145108044495 0.792 1.19666250555e-38
-0.0102342552553 -0.144741610039 0.79 9.19503045412e-39
-0.00876111471582 -0.144558392811 0.789 1.02984899363e-38
-0.00728242213916 -0.144191958355 0.787 1.09460019307e-38
-0.00579632684621 -0.143459089444 0.783 1.08530902374e-38
-0.00434724513466 -0.143459089444 0.783 1.11268030638e-38
-0.00289076070683 -0.143092654988 0.781 1.13086803941e-38
-0.0014398283162 -0.142543003304 0.778 1.17685753397e-38
0.0 -0.142543003304 0.778 1.17710864665e-38
0.00143612695806 -0.142176568848 0.776 1.2046592955e-38
0.00286485119985 -0.141810134393 0.774 1.21398633808e-38
0.00429727679978 -0.141810134393 0.774 1.51869434512e-38
0.00572229968342 -0.141626917165 0.773 1.29757407174e-38
0.00715287460428 -0.141626917165 0.773 1.16810446324e-38
0.0085612413763 -0.141260482709 0.771 1.44479560944e-38
0.00998811493901 -0.141260482709 0.771 1.35285165278e-38
0.0113853776366 -0.140894048253 0.769 1.3162680939e-38
0.0128085498412 -0.140894048253 0.769 1.17740081738e-38
0.0142317220458 -0.140894048253 0.769 1.28770977133e-38
0.0156548942503 -0.140894048253 0.769 1.68479669807e-38
0.0170780664549 -0.140894048253 0.769 1.39027907359e-38
0.0185012386595 -0.140894048253 0.769 1.31601039511e-38
0.0199244108641 -0.140894048253 0.769 1.42653627006e-38
0.0213475830687 -0.140894048253 0.769 1.34352643189e-38
0.0227707552732 -0.140894048253 0.769 1.47277883912e-38
0.0241939274778 -0.140894048253 0.769 1.37118287877e-38
0.0256170996824 -0.140894048253 0.769 1.48189316459e-38
0.027040271887 -0.140894048253 0.769 1.6022840406e-38
0.0285374712543 -0.141260482709 0.771 1.41746720653e-38
0.029964344817 -0.141260482709 0.771 1.65717528365e-38
0.0314726482588 -0.141626917165 0.773 1.62976490478e-38
0.0329032231797 -0.141626917165 0.773 1.49147174024e-38
0.0343782143982 -0.141810134393 0.774 1.36189395151e-38
0.0358106399981 -0.141810134393 0.774 1.41663427472e-38
0.0372430655981 -0.141810134393 0.774 1.46244440308e-38
0.0387754278677 -0.142176568848 0.776 1.61953374443e-38
0.0402115548258 -0.142176568848 0.776 1.56425266014e-38
0.041862360556 -0.14290943776 0.78 1.43503724719e-38
0.0433058902303 -0.14290943776 0.78 1.45290212105e-38
0.0448067909558 -0.143092654988 0.781 1.51743808105e-38
0.0463706147697 -0.143459089444 0.783 1.61009908213e-38
0.0480639861184 -0.144191958355 0.787 1.62839401449e-38
0.049646316723 -0.144558392811 0.789 1.69260711532e-38
0.0511712762764 -0.144741610039 0.79 1.62821464829e-38
0.0527665616345 -0.145108044495 0.792 1.6559087901e-38
0.0542322994576 -0.145108044495 0.792 1.70168304522e-38
0.0556980372808 -0.145108044495 0.792 1.80317124571e-38
-0.014768418976 -0.144730505965 0.798 1.66613266369e-38
-0.0132249526319 -0.144005039769 0.794 1.13144817697e-38
-0.0117555134506 -0.144005039769 0.794 1.40849763519e-38
-0.0102601647623 -0.143642306672 0.792 9.65600019564e-39
-0.00877221879024 -0.143279573574 0.79 1.07583988949e-38
-0.00730092892985 -0.143098207025 0.789 1.18672267516e-38
-0.00581113227877 -0.14237274083 0.785 1.03921190945e-38
-0.00434724513466 -0.142010007732 0.783 1.10356850325e-38
-0.0028981634231 -0.142010007732 0.783 1.07591023468e-38
-0.00144352967434 -0.141465908086 0.78 1.20462342226e-38
0.0 -0.141103174988 0.778 1.32504989125e-38
0.0014398283162 -0.141103174988 0.778 1.15888784298e-38
0.00287225391613 -0.14074044189 0.776 1.31529236978e-38
0.00430838087419 -0.14074044189 0.776 1.63877371248e-38
0.0057297023997 -0.140377708793 0.774 1.03089996748e-38
0.00716212799963 -0.140377708793 0.774 8.27344549958e-39
0.00859455359955 -0.140377708793 0.774 9.56488776949e-39
0.010014024446 -0.140196342244 0.773 9.84397597684e-39
0.0114445993668 -0.140196342244 0.773 1.3991292543e-38
0.0128751742877 -0.140196342244 0.773 1.31590319578e-38
0.0143057492086 -0.140196342244 0.773 1.38948033347e-38
0.0157363241294 -0.140196342244 0.773 1.34370495731e-38
0.0171668990503 -0.140196342244 0.773 1.00323104904e-38
0.0185012386595 -0.139470876049 0.769 1.07684293893e-38
0.0199244108641 -0.139470876049 0.769 1.36203590304e-38
0.0213475830687 -0.139470876049 0.769 1.3339828887e-38
0.0227707552732 -0.139470876049 0.769 1.37075380118e-38
0.0242568505662 -0.139833609146 0.771 1.44469023179e-38
0.0256837241289 -0.139833609146 0.771 1.41703154283e-38
0.0271105976916 -0.139833609146 0.771 1.49078426322e-38
0.0286114984171 -0.140196342244 0.773 1.48156848374e-38
0.030042073338 -0.140196342244 0.773 1.50944395357e-38
0.0315133631984 -0.140377708793 0.774 1.38011825843e-38
0.0329457887983 -0.140377708793 0.774 1.53623565917e-38
0.0343782143982 -0.140377708793 0.774 1.46287726417e-38
0.0358106399981 -0.140377708793 0.774 1.45333259994e-38
0.0373393009097 -0.14074044189 0.776 1.48077562907e-38
0.0387754278677 -0.14074044189 0.776 1.44371857144e-38
0.0404188308816 -0.141465908086 0.78 1.43464264154e-38
0.041862360556 -0.141465908086 0.78 1.56364281505e-38
0.0433614106024 -0.141647274634 0.781 1.49925034802e-38
0.0449215330581 -0.142010007732 0.783 1.41609617611e-38
0.0466075016906 -0.142735473927 0.787 1.63750595776e-38
0.0480639861184 -0.142735473927 0.787 1.66519995944e-38
0.0497092398114 -0.143279573574 0.79 1.71104596103e-38
0.0513008238113 -0.143642306672 0.792 1.68338769246e-38
0.0528998105275 -0.144005039769 0.794 1.64672524048e-38
0.0543692497088 -0.144005039769 0.794 1.72948480675e-38
-0.0132249526319 -0.142535600588 0.794 1.04829036168e-38
-0.0117555134506 -0.142535600588 0.794 1.38087383856e-38
-0.0102860742692 -0.142535600588 0.794 9.56739329115e-39
-0.00879442693908 -0.142176568848 0.792 1.12193672352e-38
-0.0073101823252 -0.141817537109 0.79 1.12207909544e-38
-0.00581113227877 -0.14091995776 0.785 1.01169713385e-38
-0.00435834920908 -0.14091995776 0.785 1.11264443314e-38
-0.0028981634231 -0.140560926021 0.783 1.08512965753e-38
-0.00144538035341 -0.140201894281 0.781 1.10356850325e-38
0.0 -0.140022378411 0.78 1.17718039313e-38
0.00144352967434 -0.140022378411 0.78 1.24175222637e-38
0.00287965663241 -0.139663346672 0.778 1.12215084192e-38
0.00431948494861 -0.139663346672 0.778 6.79582671569e-39
0.00574450783226 -0.139304314932 0.776 4.31626831943e-39
0.00718063479032 -0.139304314932 0.776 5.23714842084e-39
0.00861676174839 -0.139304314932 0.776 6.89735078943e-39
0.0100528887065 -0.139304314932 0.776 5.51586948799e-39
0.0114594047994 -0.138945283193 0.774 8.91988129675e-39
0.0128918303993 -0.138945283193 0.774 1.22357093932e-38
0.0143242559993 -0.138945283193 0.774 1.23346592816e-38
0.0157566815992 -0.138945283193 0.774 5.96930725027e-39
0.0171891071991 -0.138945283193 0.774 5.41829427332e-39
0.018621532799 -0.138945283193 0.774 6.80587122308e-39
0.020028048892 -0.138765767323 0.773 9.48023252667e-39
0.0214586238128 -0.138765767323 0.773 1.25197609997e-38
0.0229188095988 -0.138945283193 0.774 1.34374027003e-38
0.0243512351987 -0.138945283193 0.774 1.36156885026e-38
0.0257836607987 -0.138945283193 0.774 1.35242117389e-38
0.0272160863986 -0.138945283193 0.774 1.38894013291e-38
0.0286485119985 -0.138945283193 0.774 1.66585058231e-38
0.0300809375984 -0.138945283193 0.774 1.45387097881e-38
0.0315947930774 -0.139304314932 0.776 1.44425863187e-38
0.0330309200355 -0.139304314932 0.776 1.7121590124e-38
0.0344670469936 -0.139304314932 0.776 1.36174947764e-38
0.0359031739516 -0.139304314932 0.776 1.50882850328e-38
0.0374355362213 -0.139663346672 0.778 1.50832627791e-38
0.0388753645375 -0.139663346672 0.778 1.53605629296e-38
0.0404706498956 -0.140201894281 0.781 1.48088324879e-38
0.041916030249 -0.140201894281 0.781 1.50846977088e-38
0.0434724513466 -0.140560926021 0.783 1.4991427283e-38
0.0451510172628 -0.1412789895 0.787 1.66505870855e-38
0.0466075016906 -0.1412789895 0.787 1.78505385787e-38
0.048186130937 -0.141638021239 0.789 1.61899802803e-38
0.0497092398114 -0.141817537109 0.79 1.67406177093e-38
0.051559918881 -0.142894632327 0.796 1.73866905701e-38
0.0530330594205 -0.142894632327 0.796 1.65587291686e-38
-0.0117851243157 -0.141421491788 0.796 1.27006378028e-38
-0.0103119837762 -0.141421491788 0.796 1.13216690295e-38
-0.00881663508791 -0.141066161407 0.794 1.04839728076e-38
-0.0073286891159 -0.140710831025 0.792 1.08520140401e-38
-0.00584074314388 -0.140177835453 0.789 1.06697779774e-38
-0.00436945328349 -0.139822505072 0.787 1.09456431983e-38
-0.00290556613938 -0.13946717469 0.785 1.08534489698e-38
-0.00144908171155 -0.139111844309 0.783 1.14044619467e-38
0.0 -0.138756513928 0.781 1.14941450484e-38
0.00144538035341 -0.138756513928 0.781 1.33383883521e-38
0.00288705934869 -0.138578848737 0.78 6.34131275619e-39
0.00433058902303 -0.138578848737 0.78 7.07959105602e-39
0.00575931326482 -0.138223518356 0.778 6.5300074035e-39
0.00719914158102 -0.138223518356 0.778 5.88536386706e-39
0.00861676174839 -0.137868187974 0.776 5.69487695902e-39
0.0100528887065 -0.137868187974 0.776 3.85709083864e-39
0.0114890156645 -0.137868187974 0.776 4.22443282327e-39
0.0128918303993 -0.137512857593 0.774 4.77544580022e-39
0.0143242559993 -0.137512857593 0.774 3.21424236553e-39
0.0157566815992 -0.137512857593 0.774 3.489748854e-39
0.0171891071991 -0.137512857593 0.774 4.77544580022e-39
0.018621532799 -0.137512857593 0.774 4.68396903646e-39
0.020053958399 -0.137512857593 0.774 5.69989921271e-39
0.0214863839989 -0.137512857593 0.774 5.42475145665e-39
0.0229188095988 -0.137512857593 0.774 8.55182184731e-39
0.0243512351987 -0.137512857593 0.774 9.65241287157e-39
0.0257836607987 -0.137512857593 0.774 1.37132777303e-38
0.0272160863986 -0.137512857593 0.774 1.41684951416e-38
0.0286485119985 -0.137512857593 0.774 1.43518074015e-38
0.0301586661194 -0.137868187974 0.776 1.40766596455e-38
0.0315947930774 -0.137868187974 0.776 1.970663967e-38
0.0330309200355 -0.137868187974 0.776 1.61144250697e-38
0.0345558795889 -0.138223518356 0.778 1.37064478016e-38
0.0359957079051 -0.138223518356 0.778 1.50882850328e-38
0.0374355362213 -0.138223518356 0.778 1.49896336209e-38
0.0389753012073 -0.138578848737 0.78 1.51729458809e-38
0.0404706498956 -0.138756513928 0.781 1.4991427283e-38
0.042023369635 -0.139111844309 0.783 1.51750982753e-38
0.0434724513466 -0.139111844309 0.783 1.5451680961e-38
0.0452657593651 -0.140177835453 0.789 1.60055736063e-38
0.0467259451511 -0.140177835453 0.789 1.74817574605e-38
0.0482472033463 -0.140355500644 0.79 1.63747092529e-38
0.0498350859881 -0.140710831025 0.792 1.66512933399e-38
0.0516894664159 -0.141776822169 0.798 1.6559087901e-38
0.0531663083135 -0.141776822169 0.798 1.71101008779e-38
0.0551224760902 -0.143020478504 0.805 1.63729057818e-38
-0.0118147351808 -0.140299980272 0.798 1.18701512615e-38
-0.0103119837762 -0.139948351249 0.796 1.18744294257e-38
-0.00881663508791 -0.139596722225 0.794 1.07619834164e-38
-0.0073286891159 -0.139245093202 0.792 1.08520140401e-38
-0.00584814586016 -0.138893464179 0.79 1.08523727725e-38
-0.00438055735791 -0.138717649667 0.789 1.14044619467e-38
-0.00292037157194 -0.138717649667 0.789 1.13137026478e-38
-0.00145278306969 -0.138014391621 0.785 1.1220432222e-38
0.0 -0.137662762597 0.783 1.1586339277e-38
0.00144538035341 -0.137311133574 0.781 1.31525649654e-38
0.00288705934869 -0.137135319063 0.78 2.66322938858e-39
0.00433058902303 -0.137135319063 0.78 0.0
0.00577411869737 -0.137135319063 0.78 2.8469003809e-39
0.00719914158102 -0.136783690039 0.778 1.13234963227e-38
0.00863896989722 -0.136783690039 0.778 1.47447567143e-38
0.0100787982134 -0.136783690039 0.778 1.47469623581e-38
0.0114890156645 -0.136432061016 0.776 1.63142894671e-38
0.0129251426226 -0.136432061016 0.776 1.65887071466e-38
0.0143612695806 -0.136432061016 0.776 1.64979436438e-38
0.0157973965387 -0.136432061016 0.776 1.54841616581e-38
0.0171891071991 -0.136080431993 0.774 1.57607443438e-38
0.018621532799 -0.136080431993 0.774 1.33629110753e-38
0.020053958399 -0.136080431993 0.774 1.00399335541e-38
0.0214863839989 -0.136080431993 0.774 4.3202143759e-39
0.0229188095988 -0.136080431993 0.774 5.87783048652e-39
0.0244141582871 -0.136432061016 0.776 2.57139389242e-39
0.0258502852452 -0.136432061016 0.776 1.20516488399e-38
0.0272864122032 -0.136432061016 0.776 1.32454766588e-38
0.0287225391613 -0.136432061016 0.776 1.51790443318e-38
0.0301586661194 -0.136432061016 0.776 1.74875224024e-38
0.0315947930774 -0.136432061016 0.776 1.84200262746e-38
0.0331160512727 -0.136783690039 0.778 1.62073535787e-38
0.0345558795889 -0.136783690039 0.778 1.58305023826e-38
0.0359957079051 -0.136783690039 0.778 1.41638316203e-38
0.0375317715329 -0.137135319063 0.78 1.60991929554e-38
0.0390252695422 -0.137311133574 0.781 1.48059626286e-38
0.0405742879235 -0.137662762597 0.783 1.47155620621e-38
0.042023369635 -0.137662762597 0.783 1.5725035055e-38
0.0436945328349 -0.138366020644 0.787 1.57286223791e-38
0.0452657593651 -0.138717649667 0.789 1.72048062333e-38
0.0467851668813 -0.138893464179 0.79 1.76675766434e-38
0.0483693481649 -0.139245093202 0.792 1.60991929554e-38
0.0499609321648 -0.139596722225 0.794 1.62825052153e-38
0.0518190139508 -0.140651609295 0.8 1.71097421455e-38
0.0532995572065 -0.140651609295 0.8 1.71104764259e-38
0.0551224760902 -0.141530681853 0.805 1.62792766236e-38
-0.0118443460459 -0.139171066039 0.8 1.22392869081e-38
-0.0103119837762 -0.138475210709 0.796 1.1134696578e-38
-0.00883884323675 -0.138475210709 0.796 1.03013611969e-38
-0.00734719590659 -0.138127283044 0.794 1.09424146067e-38
-0.00586295129272 -0.137779355379 0.792 1.13086803941e-38
-0.00438610939512 -0.137431427714 0.79 1.08512965753e-38
-0.00292037157194 -0.137257463881 0.789 1.12200734896e-38
-0.00145278306969 -0.136561608551 0.785 1.22324163418e-38
0.0 -0.136213680886 0.783 1.24196746581e-38
0.00144538035341 -0.135865753221 0.781 5.51012976948e-39
0.00289076070683 -0.135865753221 0.781 8.46324437008e-39
0.00433614106024 -0.135865753221 0.781 1.11477805018e-38
0.00577411869737 -0.135691789388 0.78 1.5297134556e-38
0.00721764837172 -0.135691789388 0.78 1.68646074e-38
0.00863896989722 -0.135343861723 0.778 1.66834461332e-38
0.0100787982134 -0.135343861723 0.778 2.24207754292e-44
0.0115186265296 -0.135343861723 0.778 1.54852728878e-38
0.0129251426226 -0.134995934058 0.776 1.51179323044e-38
0.0143612695806 -0.134995934058 0.776 1.56689410775e-38
0.0157973965387 -0.134995934058 0.776 1.5483470818e-38
0.0172335234968 -0.134995934058 0.776 1.65901715035e-38
0.0186696504548 -0.134995934058 0.776 1.0599627575e-38
0.0201057774129 -0.134995934058 0.776 1.24527943474e-38
0.021541904371 -0.134995934058 0.776 1.80689169314e-38
0.022978031329 -0.134995934058 0.776 1.85258971762e-38
0.0244141582871 -0.134995934058 0.776 1.58515148531e-38
0.0258502852452 -0.134995934058 0.776 6.53359332627e-39
0.0272864122032 -0.134995934058 0.776 8.17694648213e-39
0.0287225391613 -0.134995934058 0.776 1.34298735237e-38
0.0301586661194 -0.134995934058 0.776 1.58240564097e-38
0.0315947930774 -0.134995934058 0.776 1.38937607686e-38
0.0331160512727 -0.135343861723 0.778 1.37946959737e-38
0.0346447121842 -0.135691789388 0.78 1.43464264154e-38
0.0360882418586 -0.135691789388 0.78 1.51754570077e-38
0.0375798891887 -0.135865753221 0.781 1.49013854489e-38
0.0390252695422 -0.135865753221 0.781 1.50836215115e-38
0.0405742879235 -0.136213680886 0.783 1.50807516523e-38
0.042023369635 -0.136213680886 0.783 1.60059225296e-38
0.0438055735791 -0.137257463881 0.789 1.65594466334e-38
0.0452657593651 -0.137257463881 0.789 1.73884772257e-38
0.0467851668813 -0.137431427714 0.79 1.58218928049e-38
0.0484914929835 -0.138127283044 0.794 1.64668936724e-38
0.0502126245183 -0.138823138374 0.798 1.64643825456e-38
0.0522724303229 -0.140388812867 0.807 1.72930544054e-38
0.0537659283321 -0.140388812867 0.807 1.71097421455e-38
0.0552594263413 -0.140388812867 0.807 1.84908731224e-38
-0.011873956911 -0.13803474909 0.802 1.19630699613e-38
-0.0103638027902 -0.137690522784 0.8 1.14084346279e-38
-0.00886105138558 -0.137346296477 0.798 1.06722891043e-38
-0.00736570269729 -0.13700207017 0.796 1.11275205286e-38
-0.00586295129272 -0.136313617556 0.792 1.15852630798e-38
-0.00438610939512 -0.135969391249 0.79 1.10356850325e-38
-0.00292407293008 -0.135969391249 0.79 1.15892091363e-38
-0.00146018578597 -0.135797278095 0.789 1.25100752247e-38
0.0 -0.135108825481 0.785 6.15764176387e-39
0.00144908171155 -0.134764599174 0.783 1.34371462627e-38
0.00289076070683 -0.134420372867 0.781 1.68649451129e-38
0.00433614106024 -0.134420372867 0.781 1.53008648125e-38
0.00578152141365 -0.134420372867 0.781 1.43800029279e-38
0.00722690176707 -0.134420372867 0.781 1.48413257967e-38
0.00866117804606 -0.134248259714 0.78 1.60384438644e-38
0.0101047077204 -0.134248259714 0.78 3.03061761606e-39
0.0115482373947 -0.134248259714 0.78 1.35308819196e-38
0.0129584548458 -0.133904033407 0.778 1.61302947748e-38
0.014398283162 -0.133904033407 0.778 1.56682194088e-38
0.0158381114782 -0.133904033407 0.778 1.64050543712e-38
0.0172335234968 -0.1335598071 0.776 1.69596616787e-38
0.0186696504548 -0.1335598071 0.776 9.6776670725e-39
0.0201057774129 -0.1335598071 0.776 9.13127277529e-39
0.021541904371 -0.1335598071 0.776 1.67792487053e-38
0.022978031329 -0.1335598071 0.776 1.62220980411e-38
0.0244141582871 -0.1335598071 0.776 1.82471971285e-38
0.0258502852452 -0.1335598071 0.776 1.73295358097e-38
0.0273567380079 -0.133904033407 0.778 1.56714550069e-38
0.0287965663241 -0.133904033407 0.778 4.50388536822e-39
0.0302363946403 -0.133904033407 0.778 1.52727127263e-38
0.0316762229565 -0.133904033407 0.778 1.40755834482e-38
0.0332011825099 -0.134248259714 0.78 1.63786525068e-38
0.0346891284819 -0.134420372867 0.781 1.44425667005e-38
0.0361345088353 -0.134420372867 0.781 1.50854151736e-38
0.0376761245004 -0.134764599174 0.783 1.51758157401e-38
