# .PCD v0.7 - Point Cloud Data file format
VERSION 0.7
FIELDS x y z rgb
SIZE 4 4 4 4
TYPE F F F F
COUNT 1 1 1 1
WIDTH 855
HEIGHT 1
VIEWPOINT 0 0 0 1 0 0 0
POINTS 855
DATA ascii
0.00463595106953 -0.196255261943 0.835 1.54722604302e-38
0.0061812680927 -0.196255261943 0.835 1.61154634319e-38
0.00774509190657 -0.196725334427 0.837 1.59310707708e-38
0.00931631843672 -0.197195406911 0.839 1.59314210954e-38
0.0108431286692 -0.196725334427 0.837 1.60225251138e-38
0.0123921470505 -0.196725334427 0.837 1.59310679682e-38
0.0139744776551 -0.197195406911 0.839 1.62076198254e-38
0.0155271973945 -0.197195406911 0.839 1.64838760085e-38
0.017079917134 -0.197195406911 0.839 1.59325042992e-38
0.0186326368734 -0.197195406911 0.839 1.69455772278e-38
0.0202334742687 -0.197665479394 0.841 1.63909615125e-38
0.0217898953663 -0.197665479394 0.841 1.62994791436e-38
0.0233463164639 -0.197665479394 0.841 1.63927593785e-38
0.0249619592917 -0.198135551878 0.843 1.56537425944e-38
0.0265850048358 -0.198605624362 0.845 1.62984155581e-38
0.0281488286497 -0.198605624362 0.845 1.68508662672e-38
0.0297829782682 -0.199075696845 0.847 1.7311475875e-38
0.031424530603 -0.199545769329 0.849 1.8047604583e-38
0.0330734856541 -0.200015841813 0.851 1.86014692024e-38
0.0346484135424 -0.200015841813 0.851 1.91542898543e-38
0.0360530789563 -0.199075696845 0.847 1.6483507467e-38
0.0376206041283 -0.199075696845 0.847 1.38969837551e-38
-0.0331900784355 -0.199140470613 0.854 5.16007140011e-39
-0.03160959851 -0.199140470613 0.854 1.09586416429e-38
-0.0299236298775 -0.198440913925 0.851 1.03100142149e-38
-0.0282820775427 -0.197974542799 0.849 1.16925941344e-38
-0.0266479279242 -0.197508171673 0.847 1.18780629926e-38
-0.0250804027522 -0.197508171673 0.847 1.23386697978e-38
-0.023401836836 -0.196575429422 0.843 1.30748307357e-38
-0.0218417143803 -0.196575429422 0.843 1.27985745525e-38
-0.0202334742687 -0.196109058297 0.841 1.28907855967e-38
-0.0186770531711 -0.196109058297 0.841 1.39038599266e-38
-0.0171206320735 -0.196109058297 0.841 1.3534710267e-38
-0.0155642109759 -0.196109058297 0.841 1.44559224761e-38
-0.0140411021016 -0.196575429422 0.843 1.42729759551e-38
-0.0124809796459 -0.196575429422 0.843 1.41822278666e-38
-0.0109208571901 -0.196575429422 0.843 1.39967772252e-38
-0.00933852658556 -0.196109058297 0.841 1.44559603112e-38
-0.00778210548797 -0.196109058297 0.841 1.49172943903e-38
-0.00621087895782 -0.195642687171 0.839 1.5194586133e-38
-0.00465815921836 -0.195642687171 0.839 1.55644574614e-38
-0.00309803676263 -0.195176316046 0.837 1.49190740394e-38
-0.00154901838131 -0.195176316046 0.837 1.51953049991e-38
0.0 -0.195176316046 0.837 1.62083807304e-38
0.00154901838131 -0.195176316046 0.837 1.59342951586e-38
0.00309803676263 -0.195176316046 0.837 1.55644434484e-38
0.00464705514394 -0.195176316046 0.837 1.60236237318e-38
0.00619607352526 -0.195176316046 0.837 1.61158193617e-38
0.00774509190657 -0.195176316046 0.837 1.57474053837e-38
0.00931631843672 -0.195642687171 0.839 1.59310679682e-38
0.0108690381762 -0.195642687171 0.839 1.58385065995e-38
0.0124217579156 -0.195642687171 0.839 1.59307176436e-38
0.0139744776551 -0.195642687171 0.839 1.68515851333e-38
0.0155271973945 -0.195642687171 0.839 1.6299504367e-38
0.017079917134 -0.195642687171 0.839 1.50091242813e-38
0.0186770531711 -0.196109058297 0.841 1.61161851006e-38
0.0202334742687 -0.196109058297 0.841 1.56548440149e-38
0.0217898953663 -0.196109058297 0.841 1.60221944074e-38
0.0233463164639 -0.196109058297 0.841 1.62980596282e-38
0.0249619592917 -0.196575429422 0.843 1.65750052502e-38
0.0265850048358 -0.197041800548 0.845 1.80508583981e-38
0.0282154530962 -0.197508171673 0.847 1.78664573292e-38
0.0297829782682 -0.197508171673 0.847 1.73121947412e-38
0.031424530603 -0.197974542799 0.849 1.79554061506e-38
0.0330734856541 -0.198440913925 0.851 1.90624389439e-38
0.0346484135424 -0.198440913925 0.851 1.88773274167e-38
0.0361382101935 -0.197974542799 0.849 1.2236023284e-38
0.0377094367236 -0.197974542799 0.849 1.61979312478e-38
-0.0349334181191 -0.198485330222 0.858 0.0
-0.0331900784355 -0.197559990687 0.854 4.6998135182e-39
-0.03160959851 -0.197559990687 0.854 1.11441076985e-38
-0.0299236298775 -0.196865986036 0.851 1.05873087602e-38
-0.0283487019892 -0.196865986036 0.851 1.10472247253e-38
-0.0267108510126 -0.196403316269 0.849 1.16011173706e-38
-0.0250804027522 -0.195940646501 0.847 1.18766350695e-38
-0.023401836836 -0.195015306967 0.843 1.24290843773e-38
-0.0218417143803 -0.195015306967 0.843 1.30755047602e-38
-0.0202815919245 -0.195015306967 0.843 1.32591813577e-38
-0.0187214694688 -0.195015306967 0.843 1.42722725033e-38
-0.0171613470131 -0.195015306967 0.843 1.36283548395e-38
-0.0156012245573 -0.195015306967 0.843 1.39960429448e-38
-0.0140411021016 -0.195015306967 0.843 1.45499159719e-38
-0.0124809796459 -0.195015306967 0.843 1.38134467484e-38
-0.0108949476832 -0.194552637199 0.841 1.40896763069e-38
-0.00933852658556 -0.194552637199 0.841 1.44577371576e-38
-0.00778210548797 -0.194552637199 0.841 1.45492139214e-38
-0.00621087895782 -0.194089967432 0.839 1.52882040808e-38
-0.00464705514394 -0.193627297664 0.837 1.48265252823e-38
-0.00309803676263 -0.193627297664 0.837 1.50119899366e-38
-0.00154901838131 -0.193627297664 0.837 1.50123458665e-38
0.0 -0.193627297664 0.837 1.57477557083e-38
0.00154901838131 -0.193627297664 0.837 1.55647965756e-38
0.00309803676263 -0.193627297664 0.837 1.54715443667e-38
0.00464705514394 -0.193627297664 0.837 1.52875034316e-38
0.00619607352526 -0.193627297664 0.837 1.56548440149e-38
0.00774509190657 -0.193627297664 0.837 1.61158137565e-38
0.00931631843672 -0.194089967432 0.839 1.59310679682e-38
0.0108690381762 -0.194089967432 0.839 1.55622896527e-38
0.0124217579156 -0.194089967432 0.839 1.57470396448e-38
0.0139744776551 -0.194089967432 0.839 1.60218188594e-38
0.0155271973945 -0.194089967432 0.839 1.60225503372e-38
0.017079917134 -0.194089967432 0.839 1.61147501709e-38
0.0186770531711 -0.194552637199 0.841 1.59303491021e-38
0.0202334742687 -0.194552637199 0.841 1.59310707708e-38
0.0217898953663 -0.194552637199 0.841 1.65757241164e-38
0.0233463164639 -0.194552637199 0.841 1.74044057853e-38
0.0249619592917 -0.195015306967 0.843 1.70366840488e-38
0.0265850048358 -0.195477976734 0.845 1.67597398281e-38
0.0282154530962 -0.195940646501 0.847 1.79575613476e-38
0.0298533040729 -0.196403316269 0.849 1.72203438307e-38
0.0314985577658 -0.196865986036 0.851 1.86918669663e-38
0.0330734856541 -0.196865986036 0.851 1.73070996199e-38
0.0346484135424 -0.196865986036 0.851 1.61013663693e-38
0.0362233414307 -0.196865986036 0.851 1.72074210563e-38
0.037798269319 -0.196865986036 0.851 1.5834894052e-38
-0.0365213007609 -0.19689744758 0.858 0.0
-0.0349334181191 -0.19689744758 0.858 0.0
-0.0332678069564 -0.196438479171 0.856 3.77929915569e-39
-0.0316836256728 -0.196438479171 0.856 1.10522623933e-38
-0.0300291185845 -0.195979510762 0.854 1.0494754398e-38
-0.0283487019892 -0.195291058148 0.851 1.11394203552e-38
-0.0267737741009 -0.195291058148 0.851 1.17847897642e-38
-0.0251396244824 -0.194832089739 0.849 1.22457510979e-38
-0.0235128775802 -0.194373121329 0.847 1.25212617903e-38
-0.0219453524082 -0.194373121329 0.847 1.28893226411e-38
-0.0203297095803 -0.19391415292 0.845 1.33503232112e-38
-0.0187658857665 -0.19391415292 0.845 1.39949653463e-38
-0.0172020619526 -0.19391415292 0.845 1.36269058968e-38
-0.0156012245573 -0.193455184511 0.843 1.45488635968e-38
-0.0140411021016 -0.193455184511 0.843 1.43648212604e-38
-0.0124809796459 -0.193455184511 0.843 1.3813449551e-38
-0.0108949476832 -0.192996216102 0.841 1.40896763069e-38
-0.00933852658556 -0.192996216102 0.841 1.43648212604e-38
-0.00778210548797 -0.192996216102 0.841 1.48254280656e-38
-0.00621087895782 -0.192537247692 0.839 1.53764494503e-38
-0.00464705514394 -0.192078279283 0.837 1.5563361646e-38
-0.00309803676263 -0.192078279283 0.837 1.55655154417e-38
-0.00154901838131 -0.192078279283 0.837 1.48283007274e-38
0.0 -0.192078279283 0.837 1.56573593457e-38
0.00155271973945 -0.192537247692 0.839 1.61161696863e-38
0.00310543947891 -0.192537247692 0.839 1.5102023363e-38
0.00464705514394 -0.192078279283 0.837 1.52867845655e-38
0.00619607352526 -0.192078279283 0.837 1.51034624965e-38
0.00776359869727 -0.192537247692 0.839 1.52881886666e-38
0.00931631843672 -0.192537247692 0.839 1.56551943396e-38
0.0108690381762 -0.192537247692 0.839 1.56548440149e-38
0.0124217579156 -0.192537247692 0.839 1.62076590617e-38
0.0139744776551 -0.192537247692 0.839 1.62994791436e-38
0.0155271973945 -0.192537247692 0.839 1.59310679682e-38
0.0171206320735 -0.192996216102 0.841 1.60222168281e-38
0.0186770531711 -0.192996216102 0.841 1.62987588762e-38
0.0202815919245 -0.193455184511 0.843 1.6208731055e-38
0.0218417143803 -0.193455184511 0.843 1.63924090539e-38
0.023401836836 -0.193455184511 0.843 1.70359777944e-38
0.025021181022 -0.19391415292 0.845 1.75902039487e-38
0.0266479279242 -0.194373121329 0.847 1.78671453668e-38
0.0282820775427 -0.194832089739 0.849 1.80501073021e-38
0.0299236298775 -0.195291058148 0.851 1.7864995775e-38
0.03160959851 -0.195979510762 0.854 1.44300110662e-38
0.0331900784355 -0.195979510762 0.854 1.66452145072e-38
0.034770558361 -0.195979510762 0.854 1.77559060908e-38
0.0363510382865 -0.195979510762 0.854 1.80415005269e-38
0.0380203508073 -0.196438479171 0.856 1.49136762377e-38
0.0396970660444 -0.19689744758 0.858 1.51023736876e-38
-0.0365213007609 -0.195309564939 0.858 4.5917748079e-40
-0.0349334181191 -0.195309564939 0.858 0.0
-0.0333455354773 -0.195309564939 0.858 4.7876903462e-39
-0.0316836256728 -0.194854297888 0.856 1.0960445114e-38
-0.0300291185845 -0.194399030836 0.854 1.08628320643e-38
-0.028448638659 -0.194399030836 0.854 1.15067791554e-38
-0.0267737741009 -0.19371613026 0.851 1.15078483461e-38
-0.0251988462126 -0.19371613026 0.851 1.2336867728e-38
-0.0235683979523 -0.193260863209 0.849 1.2428359906e-38
-0.0219971714221 -0.193260863209 0.849 1.39956926202e-38
-0.0203778272361 -0.192805596157 0.847 1.30726601243e-38
-0.0187658857665 -0.192350329106 0.845 1.408644211e-38
-0.0172020619526 -0.192350329106 0.845 1.39938905504e-38
-0.0156382381387 -0.192350329106 0.845 1.43644709358e-38
-0.0140411021016 -0.191895062055 0.843 1.37212539212e-38
-0.0124809796459 -0.191895062055 0.843 1.46428500861e-38
-0.0109208571901 -0.191895062055 0.843 1.45499355901e-38
-0.0093607347344 -0.191895062055 0.843 1.32617107015e-38
-0.00780061227866 -0.191895062055 0.843 1.32610142561e-38
-0.00622568439037 -0.191439795004 0.841 1.35404724063e-38
-0.00465815921836 -0.190984527953 0.839 1.48319174788e-38
-0.00310543947891 -0.190984527953 0.839 1.42783877698e-38
-0.00155271973945 -0.190984527953 0.839 1.48319272879e-38
0.0 -0.190984527953 0.839 1.50159584139e-38
0.00155271973945 -0.190984527953 0.839 1.62126995323e-38
0.00310543947891 -0.190984527953 0.839 1.64882074221e-38
0.00465815921836 -0.190984527953 0.839 1.60261404638e-38
0.00621087895782 -0.190984527953 0.839 1.52878509536e-38
0.00776359869727 -0.190984527953 0.839 1.53800521887e-38
0.00933852658556 -0.191439795004 0.841 1.55622896527e-38
0.0108949476832 -0.191439795004 0.841 1.58378031476e-38
0.0124513687807 -0.191439795004 0.841 1.67604853189e-38
0.0140077898783 -0.191439795004 0.841 1.64845766577e-38
0.0155642109759 -0.191439795004 0.841 1.64835102696e-38
0.0171613470131 -0.191895062055 0.843 1.65760716384e-38
0.0187214694688 -0.191895062055 0.843 1.62994847488e-38
0.0202815919245 -0.191895062055 0.843 1.63927747927e-38
0.0218417143803 -0.191895062055 0.843 1.8051905168e-38
0.0234573572081 -0.192350329106 0.845 7.07492052823e-39
0.0250804027522 -0.192805596157 0.847 1.78480624843e-38
0.0267108510126 -0.193260863209 0.849 1.83212865809e-38
0.0283487019892 -0.19371613026 0.851 1.18575409766e-38
0.0299236298775 -0.19371613026 0.851 1.76755850641e-38
0.03160959851 -0.194399030836 0.854 1.36049321356e-38
0.0331900784355 -0.194399030836 0.854 2.08958880455e-38
0.034770558361 -0.194399030836 0.854 2.02588451519e-38
0.0364361695237 -0.194854297888 0.856 1.28863967299e-38
0.0381091834027 -0.195309564939 0.858 1.54708030798e-38
0.0396970660444 -0.195309564939 0.858 1.56547991734e-38
-0.0350148479982 -0.19417324799 0.86 0.0
-0.0333455354773 -0.193721682297 0.858 7.09005875554e-39
-0.0317576528356 -0.193721682297 0.858 1.0682053352e-38
-0.0300994443891 -0.193270116604 0.856 1.11383273424e-38
-0.028448638659 -0.192818550911 0.854 1.15071322826e-38
-0.0267737741009 -0.192141202371 0.851 1.20613752525e-38
-0.0251988462126 -0.192141202371 0.851 1.2429782224e-38
-0.0235683979523 -0.191689636678 0.849 1.26141804902e-38
-0.0219971714221 -0.191689636678 0.849 1.31662976903e-38
-0.0203778272361 -0.191238070985 0.847 1.33506735358e-38
-0.0188103020641 -0.191238070985 0.847 1.32577716515e-38
-0.0172020619526 -0.190786505292 0.845 1.38109510359e-38
-0.0156382381387 -0.190786505292 0.845 1.4180079676e-38
-0.0140411021016 -0.190334939599 0.843 1.41807831279e-38
-0.0124809796459 -0.190334939599 0.843 1.4088253989e-38
-0.0109208571901 -0.190334939599 0.843 1.59310707708e-38
-0.0093607347344 -0.190334939599 0.843 6.43961244216e-39
-0.00780061227866 -0.190334939599 0.843 0.0
-0.00622568439037 -0.189883373906 0.841 3.76525534248e-39
-0.00466926329278 -0.189883373906 0.841 5.96930725027e-39
-0.00310543947891 -0.189431808213 0.839 4.31626831943e-39
-0.00155271973945 -0.189431808213 0.839 3.12240686937e-39
0.0 -0.189883373906 0.841 4.22443282327e-39
0.00155642109759 -0.189883373906 0.841 3.21424236553e-39
0.00311284219519 -0.189883373906 0.841 1.19386145005e-39
0.00466926329278 -0.189883373906 0.841 1.62963430376e-38
0.00622568439037 -0.189883373906 0.841 1.57502794469e-38
0.00778210548797 -0.189883373906 0.841 1.42737396628e-38
0.00933852658556 -0.189883373906 0.841 1.62957923273e-38
0.0108949476832 -0.189883373906 0.841 1.68526781461e-38
0.0124513687807 -0.189883373906 0.841 1.74062050525e-38
0.0140077898783 -0.189883373906 0.841 1.54679318193e-38
0.0156012245573 -0.190334939599 0.843 1.77651588646e-38
0.0171613470131 -0.190334939599 0.843 1.6386658125e-38
0.0187214694688 -0.190334939599 0.843 1.71245790937e-38
0.0203297095803 -0.190786505292 0.845 1.25094250222e-38
0.0218935333942 -0.190786505292 0.845 1.93404803813e-38
0.0234573572081 -0.190786505292 0.845 1.17758074411e-38
0.0250804027522 -0.191238070985 0.847 1.5632885668e-38
0.0267108510126 -0.191689636678 0.849 1.77422168061e-38
0.0283487019892 -0.192141202371 0.851 1.43263374006e-38
0.0300291185845 -0.192818550911 0.854 2.00705204474e-38
0.0316836256728 -0.193270116604 0.856 1.99836973959e-38
0.0332678069564 -0.193270116604 0.856 2.06279751934e-38
0.0349334181191 -0.193721682297 0.858 1.85078456494e-38
0.0365213007609 -0.193721682297 0.858 1.29710870052e-38
0.038198015998 -0.19417324799 0.86 1.60246606927e-38
0.0397895999979 -0.19417324799 0.86 1.48265000589e-38
-0.0350962778772 -0.193029528325 0.862 0.0
-0.0334232639983 -0.19258166399 0.86 8.01273532159e-39
-0.0317576528356 -0.192133799655 0.858 1.04983851623e-38
-0.0301697701938 -0.192133799655 0.858 1.10450723309e-38
-0.0285152631055 -0.19168593532 0.856 1.11390700306e-38
-0.0268681587335 -0.191238070985 0.854 1.25227079303e-38
-0.0251988462126 -0.190566274483 0.851 1.27989220745e-38
-0.0235683979523 -0.190118410148 0.849 1.24290661605e-38
-0.0219971714221 -0.190118410148 0.849 1.30733789905e-38
-0.020425944892 -0.190118410148 0.849 1.32566912504e-38
-0.0188103020641 -0.189670545813 0.847 1.44559603112e-38
-0.0172427768921 -0.189670545813 0.847 1.36290582913e-38
-0.0156382381387 -0.189222681479 0.845 1.41801048994e-38
-0.0140744143248 -0.189222681479 0.845 1.42715564398e-38
-0.012510590511 -0.189222681479 0.845 1.37183826606e-38
-0.0109208571901 -0.188774817144 0.843 1.67604657007e-38
-0.0093607347344 -0.188774817144 0.843 6.9009409161e-39
-0.00780061227866 -0.188774817144 0.843 1.83670992316e-40
-0.00624048982293 -0.188774817144 0.843 1.75862985299e-38
-0.00466926329278 -0.188326952809 0.841 1.56591782311e-38
-0.00310543947891 -0.187879088474 0.839 1.51978189286e-38
-0.00155271973945 -0.187879088474 0.839 1.52896516222e-38
0.0 -0.188326952809 0.841 1.66729588155e-38
0.00155642109759 -0.188326952809 0.841 5.70599766363e-39
0.00311284219519 -0.188326952809 0.841 0.0
0.00466926329278 -0.188326952809 0.841 1.4736891226e-38
0.00622568439037 -0.188326952809 0.841 1.63967390661e-38
0.00780061227866 -0.188774817144 0.843 1.44548658971e-38
0.0093607347344 -0.188774817144 0.843 1.77458461691e-38
0.0109208571901 -0.188774817144 0.843 1.16684889982e-38
0.0124809796459 -0.188774817144 0.843 1.70150788291e-38
0.0140411021016 -0.188774817144 0.843 1.19461478811e-38
0.0156012245573 -0.188774817144 0.843 1.84751281328e-38
0.0171613470131 -0.188774817144 0.843 1.25875614246e-38
0.0187658857665 -0.189222681479 0.845 1.3508427513e-38
0.0203297095803 -0.189222681479 0.845 1.11121594948e-38
0.0218935333942 -0.189222681479 0.845 1.90603159767e-38
0.0235128775802 -0.189670545813 0.847 1.26076966822e-38
0.0250804027522 -0.189670545813 0.847 1.75740707995e-38
0.0267737741009 -0.190566274483 0.851 1.71192009102e-38
0.028448638659 -0.191238070985 0.854 1.76725932919e-38
0.0300291185845 -0.191238070985 0.854 1.92497673252e-38
0.0317576528356 -0.192133799655 0.858 1.78649985775e-38
0.0333455354773 -0.192133799655 0.858 1.63772428006e-38
0.0350148479982 -0.19258166399 0.86 1.73848927042e-38
0.0366064319981 -0.19258166399 0.86 1.68432656244e-38
0.038198015998 -0.19258166399 0.86 1.58392128539e-38
0.0397895999979 -0.19258166399 0.86 1.54708002772e-38
-0.0350962778772 -0.191434242967 0.862 6.42848473106e-40
-0.0334232639983 -0.19099007999 0.86 8.74885842437e-39
-0.0317576528356 -0.190545917013 0.858 1.01292298974e-38
-0.0301697701938 -0.190545917013 0.858 1.09571927003e-38
-0.0285152631055 -0.190101754037 0.856 1.14160030409e-38
-0.0268681587335 -0.18965759106 0.854 1.15078483461e-38
-0.0251988462126 -0.188991346595 0.851 1.2798234037e-38
-0.0235683979523 -0.188547183618 0.849 1.32588464474e-38
-0.0219971714221 -0.188547183618 0.849 1.30744355695e-38
-0.020425944892 -0.188547183618 0.849 1.32573947022e-38
-0.0188547183618 -0.188547183618 0.849 1.34407335868e-38
-0.0172427768921 -0.188103020641 0.847 1.39949863658e-38
-0.0156752517201 -0.188103020641 0.847 1.4088963046e-38
-0.0140744143248 -0.187658857665 0.845 1.44577399602e-38
-0.012510590511 -0.187658857665 0.845 1.39060109198e-38
-0.0109467666971 -0.187658857665 0.845 1.74061854344e-38
-0.00938294288323 -0.187658857665 0.845 5.24215666155e-39
-0.00780061227866 -0.187214694688 0.843 0.0
-0.00624048982293 -0.187214694688 0.843 1.64810467869e-38
-0.00466926329278 -0.186770531711 0.841 1.33546546247e-38
-0.00311284219519 -0.186770531711 0.841 1.25216289305e-38
-0.00155642109759 -0.186770531711 0.841 1.03982581831e-38
0.0 -0.187214694688 0.843 1.49144175246e-38
0.00156012245573 -0.187214694688 0.843 5.15139736261e-39
0.00312024491147 -0.187214694688 0.843 0.0
0.0046803673672 -0.187214694688 0.843 1.63899203478e-38
0.00624048982293 -0.187214694688 0.843 1.42744431146e-38
0.00780061227866 -0.187214694688 0.843 1.3521700612e-38
0.0093607347344 -0.187214694688 0.843 1.64722746585e-38
0.0109208571901 -0.187214694688 0.843 1.26915938226e-38
0.0124809796459 -0.187214694688 0.843 1.79466886728e-38
0.0140411021016 -0.187214694688 0.843 1.08459155892e-38
0.0156382381387 -0.187658857665 0.845 1.93271302108e-38
0.0172020619526 -0.187658857665 0.845 1.454085938e-38
0.0187658857665 -0.187658857665 0.845 1.79554061506e-38
0.0203778272361 -0.188103020641 0.847 1.74976425799e-38
0.0219453524082 -0.188103020641 0.847 1.80508289708e-38
0.0235128775802 -0.188103020641 0.847 1.83267138099e-38
0.0251396244824 -0.188547183618 0.849 1.83288830199e-38
0.0267737741009 -0.188991346595 0.851 1.93422936615e-38
0.0285152631055 -0.190101754037 0.856 1.86951446034e-38
0.0300994443891 -0.190101754037 0.856 1.62026241963e-38
0.0318316799983 -0.19099007999 0.86 1.45333259994e-38
0.0334232639983 -0.19099007999 0.86 1.66477032133e-38
0.0350148479982 -0.19099007999 0.86 2.08990900125e-38
0.0366064319981 -0.19099007999 0.86 1.39934449375e-38
0.038198015998 -0.19099007999 0.86 1.59285568414e-38
0.0397895999979 -0.19099007999 0.86 1.59307050319e-38
-0.0350962778772 -0.189838957609 0.862 3.03057137321e-39
-0.0334232639983 -0.18939849599 0.86 1.02146110129e-38
-0.0317576528356 -0.188958034372 0.858 1.11437419596e-38
-0.0301697701938 -0.188958034372 0.858 1.01277823561e-38
-0.0285152631055 -0.188517572753 0.856 1.15082014733e-38
-0.0268681587335 -0.188077111134 0.854 1.16929472616e-38
-0.0251988462126 -0.187416418707 0.851 1.22457665122e-38
-0.0235683979523 -0.186975957088 0.849 1.25219848603e-38
-0.0219971714221 -0.186975957088 0.849 1.30730160542e-38
-0.020425944892 -0.186975957088 0.849 1.35346948527e-38
-0.0188547183618 -0.186975957088 0.849 1.35336382737e-38
-0.0172427768921 -0.186535495469 0.847 1.39942562893e-38
-0.0156752517201 -0.186535495469 0.847 1.4917992237e-38
-0.0140744143248 -0.186095033851 0.845 1.40871595749e-38
-0.012510590511 -0.186095033851 0.845 1.45477831957e-38
-0.0109467666971 -0.186095033851 0.845 1.61168857498e-38
-0.00938294288323 -0.186095033851 0.845 6.43745304123e-39
-0.00781911906936 -0.186095033851 0.845 3.76525534248e-39
-0.00624048982293 -0.185654572232 0.843 1.74847422263e-38
-0.0046803673672 -0.185654572232 0.843 1.52892984949e-38
-0.00312024491147 -0.185654572232 0.843 1.52903676857e-38
-0.00156012245573 -0.185654572232 0.843 1.51992552595e-38
0.0 -0.185654572232 0.843 1.71353634867e-38
0.00156012245573 -0.185654572232 0.843 3.58588913904e-39
0.00312024491147 -0.185654572232 0.843 0.0
0.0046803673672 -0.185654572232 0.843 1.76784787455e-38
0.00624048982293 -0.185654572232 0.843 1.6302744169e-38
0.00780061227866 -0.185654572232 0.843 1.6297692488e-38
0.0093607347344 -0.185654572232 0.843 1.71285391631e-38
0.0109208571901 -0.185654572232 0.843 1.65768171292e-38
0.0124809796459 -0.185654572232 0.843 1.67608328409e-38
0.0140411021016 -0.185654572232 0.843 1.83270823514e-38
0.0156382381387 -0.186095033851 0.845 1.7679194809e-38
0.0172020619526 -0.186095033851 0.845 1.8140505066e-38
0.0188103020641 -0.186535495469 0.847 1.56522852439e-38
0.0203778272361 -0.186535495469 0.847 1.54628675266e-38
0.0219453524082 -0.186535495469 0.847 1.28796312609e-38
0.0235683979523 -0.186975957088 0.849 1.59173282368e-38
0.0251988462126 -0.187416418707 0.851 1.70349212153e-38
0.0268681587335 -0.188077111134 0.854 1.04753450129e-38
0.0285152631055 -0.188517572753 0.856 1.45229704038e-38
0.0301697701938 -0.188958034372 0.858 1.31335619569e-38
0.0318316799983 -0.18939849599 0.86 2.05199322792e-38
0.0335009925192 -0.189838957609 0.862 2.02584920247e-38
0.0350962778772 -0.189838957609 0.862 2.04443196154e-38
0.0366915632353 -0.189838957609 0.862 1.26995363822e-38
0.0382868485934 -0.189838957609 0.862 1.5652323079e-38
0.0398821339514 -0.189838957609 0.862 1.57455893009e-38
-0.0350962778772 -0.188243672251 0.862 6.44499903346e-39
-0.0334232639983 -0.18780691199 0.86 8.92821481872e-39
-0.0318316799983 -0.18780691199 0.86 1.04057971688e-38
-0.0301697701938 -0.18737015173 0.858 1.0589476569e-38
-0.0285152631055 -0.186933391469 0.856 1.05887731171e-38
-0.0268681587335 -0.186496631209 0.854 1.17858617575e-38
-0.0251988462126 -0.185841490818 0.851 1.21528520163e-38
-0.0235683979523 -0.185404730558 0.849 1.28889877307e-38
-0.0219971714221 -0.185404730558 0.849 1.34424964202e-38
-0.0204740625478 -0.185841490818 0.851 1.35353786864e-38
-0.0188991346595 -0.185841490818 0.851 1.37184008775e-38
-0.0172834918317 -0.185404730558 0.849 1.39034941877e-38
-0.0157122653015 -0.185404730558 0.849 1.41800740708e-38
-0.0141077265481 -0.184967970297 0.847 1.52871376927e-38
-0.0125402013761 -0.184967970297 0.847 1.42726284331e-38
-0.0109467666971 -0.184531210037 0.845 1.63934810472e-38
-0.00938294288323 -0.184531210037 0.845 8.09587856337e-39
-0.00781911906936 -0.184531210037 0.845 9.45905610427e-39
-0.00624048982293 -0.184094449776 0.843 8.72437213501e-39
-0.0046803673672 -0.184094449776 0.843 7.62234618111e-39
-0.00312024491147 -0.184094449776 0.843 6.88766221185e-39
-0.00156012245573 -0.184094449776 0.843 5.96930725027e-39
0.0 -0.184094449776 0.843 5.96930725027e-39
0.00156012245573 -0.184094449776 0.843 6.15441317221e-39
0.00312024491147 -0.184094449776 0.843 3.58158435016e-39
0.0046803673672 -0.184094449776 0.843 1.79522167953e-38
0.00624048982293 -0.184094449776 0.843 1.50119927392e-38
0.00780061227866 -0.184094449776 0.843 1.58399555421e-38
0.00938294288323 -0.184531210037 0.845 1.63931125057e-38
0.0109208571901 -0.184094449776 0.843 1.54708128889e-38
0.0124809796459 -0.184094449776 0.843 9.28578835176e-39
0.0140744143248 -0.184531210037 0.845 1.72988263538e-38
0.0156382381387 -0.184531210037 0.845 1.28641441103e-38
0.0172020619526 -0.184531210037 0.845 1.36002630091e-38
0.0188103020641 -0.184967970297 0.847 1.01937400735e-38
0.0203778272361 -0.184967970297 0.847 1.68195668647e-38
0.0219971714221 -0.185404730558 0.849 1.85068072872e-38
0.0235683979523 -0.185404730558 0.849 1.83267194151e-38
0.0251988462126 -0.185841490818 0.851 1.34389062936e-38
0.0268681587335 -0.186496631209 0.854 1.32300511653e-38
0.028581887552 -0.18737015173 0.858 1.80343104645e-38
0.0302400959984 -0.18780691199 0.86 2.00737868741e-38
0.0319057071611 -0.188243672251 0.862 1.86040279733e-38
0.0335009925192 -0.188243672251 0.862 1.93393999802e-38
0.0351777077563 -0.188680432511 0.864 1.50001181361e-38
0.0367766944725 -0.188680432511 0.864 1.67492328922e-38
0.0382868485934 -0.188243672251 0.862 1.57463109696e-38
0.0398821339514 -0.188243672251 0.862 1.64831543398e-38
-0.0335009925192 -0.186648386893 0.862 8.84070092703e-39
-0.0318316799983 -0.18621532799 0.86 1.07749524337e-38
-0.0301697701938 -0.185782269088 0.858 1.04050755001e-38
-0.0285152631055 -0.185349210186 0.856 1.1233789399e-38
-0.0268681587335 -0.184916151283 0.854 1.16018432432e-38
-0.025287678808 -0.184916151283 0.854 1.18773595408e-38
-0.0236239183244 -0.18426656293 0.851 1.28893604761e-38
-0.0220489904361 -0.18426656293 0.851 1.31673514668e-38
-0.0204740625478 -0.18426656293 0.851 1.3535057789e-38
-0.0188991346595 -0.18426656293 0.851 1.35350605916e-38
-0.0173242067712 -0.18426656293 0.851 1.41786391412e-38
-0.0157122653015 -0.183833504028 0.849 1.3995339493e-38
-0.0141410387714 -0.183833504028 0.849 1.44580902849e-38
-0.0125402013761 -0.183400445125 0.847 1.39967618109e-38
-0.0109726762041 -0.183400445125 0.847 1.57492046509e-38
-0.00940515103207 -0.183400445125 0.847 6.70686107879e-39
-0.00781911906936 -0.182967386223 0.845 1.48009964269e-38
-0.00625529525549 -0.182967386223 0.845 1.28681308044e-38
-0.00469147144162 -0.182967386223 0.845 1.43691372596e-38
-0.00312024491147 -0.182534327321 0.843 1.53818514559e-38
-0.00156012245573 -0.182534327321 0.843 1.53811185768e-38
0.0 -0.182967386223 0.845 1.35379668846e-38
0.00156382381387 -0.182967386223 0.845 6.52032022722e-39
0.00312024491147 -0.182534327321 0.843 7.07133320417e-39
0.0046803673672 -0.182534327321 0.843 1.87798236683e-38
0.00624048982293 -0.182534327321 0.843 1.51974714066e-38
0.00781911906936 -0.182967386223 0.845 1.54718918887e-38
0.00938294288323 -0.182967386223 0.845 1.56551943396e-38
0.0109467666971 -0.182967386223 0.845 1.70366812462e-38
0.012510590511 -0.182967386223 0.845 1.04772199503e-38
0.0140744143248 -0.182967386223 0.845 1.95854231489e-38
0.0156382381387 -0.182967386223 0.845 1.81153153248e-38
0.0172427768921 -0.183400445125 0.847 1.42495686656e-38
0.0188547183618 -0.183833504028 0.849 1.20440818282e-38
0.020425944892 -0.183833504028 0.849 1.44224860935e-38
0.0220489904361 -0.18426656293 0.851 1.90614131934e-38
0.0236239183244 -0.18426656293 0.851 1.71317859717e-38
0.025287678808 -0.184916151283 0.854 1.31630340662e-38
0.0269310818219 -0.185349210186 0.856 1.91423577979e-38
0.028581887552 -0.185782269088 0.858 1.93394238022e-38
0.0301697701938 -0.185782269088 0.858 1.85107351268e-38
0.0318316799983 -0.18621532799 0.86 1.74936923196e-38
0.0335009925192 -0.186648386893 0.862 1.50901417533e-38
0.0350962778772 -0.186648386893 0.862 2.08094545549e-38
0.0366915632353 -0.186648386893 0.862 1.53753382207e-38
0.0382868485934 -0.186648386893 0.862 1.60218188594e-38
0.0398821339514 -0.186648386893 0.862 1.61147235463e-38
-0.0335009925192 -0.185053101535 0.862 8.1964063139e-39
-0.0318316799983 -0.18462374399 0.86 1.06816820079e-38
-0.0302400959984 -0.18462374399 0.86 1.04018609215e-38
-0.028581887552 -0.184194386446 0.858 1.16929654784e-38
-0.0269310818219 -0.183765028902 0.856 1.17855114329e-38
-0.025287678808 -0.183335671358 0.854 1.22446945189e-38
-0.0236239183244 -0.182691635042 0.851 1.28889877307e-38
-0.0220489904361 -0.182691635042 0.851 1.31659305501e-38
-0.0205462390315 -0.183335671358 0.854 1.32577716515e-38
-0.0188991346595 -0.182691635042 0.851 1.40868120528e-38
-0.0173242067712 -0.182691635042 0.851 1.39956687981e-38
-0.0157492788829 -0.182691635042 0.851 1.41793552047e-38
-0.0141743509946 -0.182691635042 0.851 1.45481363229e-38
-0.0125698122412 -0.182262277497 0.849 1.42715564398e-38
-0.0109985857111 -0.182262277497 0.849 1.55637568122e-38
-0.00940515103207 -0.181832919953 0.847 8.90805714031e-39
-0.00783762586006 -0.181832919953 0.847 1.12957660274e-38
-0.00625529525549 -0.181403562409 0.845 1.59066237178e-38
-0.00469147144162 -0.181403562409 0.845 1.22468833471e-38
-0.00312764762774 -0.181403562409 0.845 1.20614144889e-38
-0.00156382381387 -0.181403562409 0.845 1.17844576565e-38
0.0 -0.181403562409 0.845 1.59335132341e-38
0.00156382381387 -0.181403562409 0.845 7.71418167727e-39
0.00312764762774 -0.181403562409 0.845 8.63253663885e-39
0.00469147144162 -0.181403562409 0.845 1.81247236427e-38
0.00625529525549 -0.181403562409 0.845 1.5842838013e-38
0.00781911906936 -0.181403562409 0.845 1.52878509536e-38
0.00938294288323 -0.181403562409 0.845 1.58381534723e-38
0.0109467666971 -0.181403562409 0.845 1.61143704191e-38
0.012510590511 -0.181403562409 0.845 1.12168939434e-38
0.0140744143248 -0.181403562409 0.845 1.84116829435e-38
0.0156752517201 -0.181832919953 0.847 1.55582819391e-38
0.0172427768921 -0.181832919953 0.847 1.84149493703e-38
0.0188547183618 -0.182262277497 0.849 1.82330748426e-38
0.020425944892 -0.182262277497 0.849 1.76810094905e-38
0.0220489904361 -0.182691635042 0.851 1.75895004969e-38
0.0236239183244 -0.182691635042 0.851 1.80519219836e-38
0.025287678808 -0.183335671358 0.854 1.83274228669e-38
0.0269310818219 -0.183765028902 0.856 1.82294847159e-38
0.028581887552 -0.184194386446 0.858 1.80443423602e-38
0.0301697701938 -0.184194386446 0.858 1.35199223643e-38
0.0318316799983 -0.18462374399 0.86 1.69239187588e-38
0.0335009925192 -0.185053101535 0.862 2.05329489407e-38
0.0350962778772 -0.185053101535 0.862 1.87865611113e-38
0.0366915632353 -0.185053101535 0.862 1.5559746296e-38
0.0382868485934 -0.185053101535 0.862 1.62062157243e-38
-0.0335009925192 -0.183457816176 0.862 9.75508460876e-39
-0.0318316799983 -0.18303215999 0.86 1.02171123306e-38
-0.0302400959984 -0.18303215999 0.86 1.14138352321e-38
-0.028581887552 -0.182606503804 0.858 1.16007320135e-38
-0.0269310818219 -0.182180847618 0.856 1.17858491459e-38
-0.0253469005382 -0.182180847618 0.856 1.27070767693e-38
-0.0237071988825 -0.181755191432 0.854 1.26134742358e-38
-0.022126718957 -0.181755191432 0.854 1.36265527696e-38
-0.0205462390315 -0.181755191432 0.854 1.35343389229e-38
-0.018965759106 -0.181755191432 0.854 1.3718379858e-38
-0.0173852791805 -0.181755191432 0.854 1.39960429448e-38
-0.0157492788829 -0.181116707153 0.851 1.41793608099e-38
-0.0141743509946 -0.181116707153 0.851 1.4364824063e-38
-0.0125994231063 -0.181116707153 0.851 1.5194586133e-38
-0.0109985857111 -0.180691050967 0.849 1.42733683187e-38
-0.0094273591809 -0.180691050967 0.849 9.73456259275e-39
-0.00783762586006 -0.180265394781 0.847 1.00100690812e-38
-0.00627010068805 -0.180265394781 0.847 8.99987862348e-39
-0.00470257551603 -0.180265394781 0.847 7.98968816575e-39
-0.00312764762774 -0.179839738595 0.845 8.0815236619e-39
-0.00156382381387 -0.179839738595 0.845 8.908069752e-39
0.0 -0.179839738595 0.845 9.91899729273e-39
0.00156382381387 -0.179839738595 0.845 1.01019045774e-38
0.00312764762774 -0.179839738595 0.845 9.73456259275e-39
0.00469147144162 -0.179839738595 0.845 1.51748236208e-38
0.00625529525549 -0.179839738595 0.845 1.68555522093e-38
0.00781911906936 -0.179839738595 0.845 1.59317770253e-38
0.00940515103207 -0.180265394781 0.847 1.59321539745e-38
0.0109726762041 -0.180265394781 0.847 1.65757087021e-38
0.0125402013761 -0.180265394781 0.847 1.71285391631e-38
0.0141077265481 -0.180265394781 0.847 1.64853375628e-38
0.0157122653015 -0.180691050967 0.849 1.64845766577e-38
0.0172834918317 -0.180691050967 0.849 1.71288950929e-38
0.0188991346595 -0.181116707153 0.851 1.74973076696e-38
0.0204740625478 -0.181116707153 0.851 1.51924155217e-38
0.0220489904361 -0.181116707153 0.851 1.86021726542e-38
0.0237071988825 -0.181755191432 0.854 1.05797403472e-38
0.025287678808 -0.181755191432 0.854 1.44314487985e-38
0.0269310818219 -0.182180847618 0.856 1.74757234694e-38
0.028581887552 -0.182606503804 0.858 1.7488637836e-38
0.0302400959984 -0.18303215999 0.86 1.99810391327e-38
0.0318316799983 -0.18303215999 0.86 2.03510547948e-38
0.0335009925192 -0.183457816176 0.862 1.82312993974e-38
0.0350962778772 -0.183457816176 0.862 1.90613683519e-38
0.0366915632353 -0.183457816176 0.862 1.64831333203e-38
0.0382868485934 -0.183457816176 0.862 1.61161500681e-38
-0.0335009925192 -0.181862530818 0.862 9.20051653761e-39
-0.0318316799983 -0.181440575991 0.86 9.66247839844e-39
-0.0302400959984 -0.181440575991 0.86 9.56525771229e-39
-0.028581887552 -0.181018621163 0.858 1.19634216873e-38
-0.0269940049102 -0.181018621163 0.858 1.23368523137e-38
-0.0254061222684 -0.181018621163 0.858 1.25216121149e-38
-0.0237627192546 -0.180596666335 0.856 1.30737167034e-38
-0.0221785379709 -0.180596666335 0.856 1.34421404904e-38
-0.0205943566873 -0.180596666335 0.856 1.362688768e-38
-0.018965759106 -0.180174711507 0.854 1.39949653463e-38
-0.0173852791805 -0.180174711507 0.854 1.41800740708e-38
-0.015804799255 -0.180174711507 0.854 1.42719249813e-38
-0.0141743509946 -0.179541779265 0.851 1.57474053837e-38
-0.0125994231063 -0.179541779265 0.851 1.40889574408e-38
-0.0109985857111 -0.179119824437 0.849 1.49187237148e-38
-0.0094273591809 -0.179119824437 0.849 1.59310707708e-38
-0.00785613265075 -0.179119824437 0.849 1.6297692488e-38
-0.00627010068805 -0.178697869609 0.847 1.57430711676e-38
-0.00470257551603 -0.178697869609 0.847 1.54643318835e-38
-0.00312764762774 -0.178275914781 0.845 1.27012838014e-38
-0.00156382381387 -0.178275914781 0.845 1.16806859e-38
0.0 -0.178275914781 0.845 1.22288290177e-38
0.00156752517201 -0.178697869609 0.847 1.16760223787e-38
0.00313505034402 -0.178697869609 0.847 1.08451981244e-38
0.00470257551603 -0.178697869609 0.847 1.71109052233e-38
0.00627010068805 -0.178697869609 0.847 1.63924090539e-38
0.00783762586006 -0.178697869609 0.847 1.44516288976e-38
0.00940515103207 -0.178697869609 0.847 1.6756462191e-38
0.0109726762041 -0.178697869609 0.847 1.73107247791e-38
0.0125402013761 -0.178697869609 0.847 1.26094917455e-38
0.0141410387714 -0.179119824437 0.849 1.4720617947e-38
0.0157122653015 -0.179119824437 0.849 1.30615226042e-38
0.0172834918317 -0.179119824437 0.849 1.28738368917e-38
0.0188991346595 -0.179541779265 0.851 1.33351597605e-38
0.0204740625478 -0.179541779265 0.851 1.21366347891e-38
0.022126718957 -0.180174711507 0.854 1.6559543323e-38
0.0237071988825 -0.180174711507 0.854 1.7218218061e-38
0.0253469005382 -0.180596666335 0.856 1.9152161282e-38
0.0269940049102 -0.181018621163 0.858 1.95223731258e-38
0.0286485119985 -0.181440575991 0.86 1.8326010358e-38
0.0302400959984 -0.181440575991 0.86 1.8695494928e-38
0.0319057071611 -0.181862530818 0.862 1.84163716882e-38
0.0335009925192 -0.181862530818 0.862 1.97045867678e-38
0.0350962778772 -0.181862530818 0.862 1.9336488082e-38
0.0366915632353 -0.181862530818 0.862 1.54650353354e-38
-0.0355441422121 -0.182567639544 0.873 9.85010665762e-39
-0.0335787210401 -0.18068549893 0.864 7.72853097355e-39
-0.0318316799983 -0.179848991991 0.86 8.73800396647e-39
-0.0302400959984 -0.179848991991 0.86 9.28363595732e-39
-0.0286485119985 -0.179848991991 0.86 1.06665662014e-38
-0.0269940049102 -0.179430738521 0.858 1.22374820357e-38
-0.0254061222684 -0.179430738521 0.858 1.28882534503e-38
-0.0237627192546 -0.179012485051 0.856 1.35339759866e-38
-0.0221785379709 -0.179012485051 0.856 1.37187105644e-38
-0.0205943566873 -0.179012485051 0.856 1.37197895643e-38
-0.0190101754037 -0.179012485051 0.856 1.38116474812e-38
-0.0173852791805 -0.178594231581 0.854 1.41797265488e-38
-0.015804799255 -0.178594231581 0.854 1.44570365084e-38
-0.0141743509946 -0.177966851377 0.851 1.41811530707e-38
-0.0125994231063 -0.177966851377 0.851 1.4364824063e-38
-0.011024495218 -0.177966851377 0.851 1.44570196928e-38
-0.0094273591809 -0.177548597907 0.849 1.49169258488e-38
-0.00785613265075 -0.177548597907 0.849 1.51906330701e-38
-0.0062849061206 -0.177548597907 0.849 1.5193139993e-38
-0.00471367959045 -0.177548597907 0.849 1.60228978592e-38
-0.00313505034402 -0.177130344437 0.847 1.59335861016e-38
-0.00156752517201 -0.177130344437 0.847 1.63934810472e-38
0.0 -0.177130344437 0.847 1.69466520238e-38
0.00156752517201 -0.177130344437 0.847 1.66697344277e-38
0.00313505034402 -0.177130344437 0.847 1.6761204185e-38
0.00471367959045 -0.177548597907 0.849 1.6115469037e-38
0.0062849061206 -0.177548597907 0.849 1.62062157243e-38
0.00785613265075 -0.177548597907 0.849 9.74467015857e-39
0.0094273591809 -0.177548597907 0.849 1.55446977518e-38
0.0109985857111 -0.177548597907 0.849 1.42625657088e-38
0.0125698122412 -0.177548597907 0.849 1.65746268997e-38
0.0141410387714 -0.177548597907 0.849 1.57419753522e-38
0.0157122653015 -0.177548597907 0.849 1.74036266634e-38
0.0172834918317 -0.177548597907 0.849 1.74954887842e-38
0.0188991346595 -0.177966851377 0.851 1.7494788135e-38
0.0205462390315 -0.178594231581 0.854 1.77738959605e-38
0.022126718957 -0.178594231581 0.854 1.77735428333e-38
0.0237627192546 -0.179012485051 0.856 1.74062022499e-38
0.0254061222684 -0.179430738521 0.858 1.76824037825e-38
0.0269940049102 -0.179430738521 0.858 1.74054595618e-38
0.0286485119985 -0.179848991991 0.86 1.78642895205e-38
0.0302400959984 -0.179848991991 0.86 1.8049388436e-38
0.0319057071611 -0.18026724546 0.862 1.78624818455e-38
0.0335009925192 -0.18026724546 0.862 1.84138507523e-38
0.0350962778772 -0.18026724546 0.862 1.73031269388e-38
0.0367766944725 -0.18068549893 0.864 1.64744803023e-38
-0.0355441422121 -0.180951996716 0.873 1.3446124382e-38
-0.0338507708634 -0.180537444605 0.871 7.91256069827e-39
-0.0319057071611 -0.178671960102 0.862 8.36958718592e-39
-0.0302400959984 -0.178257407991 0.86 9.65313033639e-39
-0.0286485119985 -0.178257407991 0.86 9.46694821722e-39
-0.0269940049102 -0.177842855879 0.858 1.1125376542e-38
-0.0254061222684 -0.177842855879 0.858 1.25129801164e-38
-0.0238182396267 -0.177842855879 0.858 1.29797190037e-38
-0.0222303569849 -0.177842855879 0.858 1.35339759866e-38
-0.0206424743431 -0.177842855879 0.858 1.33506735358e-38
-0.0190545917013 -0.177842855879 0.858 1.38109440294e-38
-0.01742599412 -0.177428303768 0.856 1.47339793278e-38
-0.015804799255 -0.177013751656 0.854 1.42744277003e-38
-0.0142243193295 -0.177013751656 0.854 1.44577399602e-38
-0.0125994231063 -0.176391923488 0.851 1.41815090005e-38
-0.011024495218 -0.176391923488 0.851 1.51949350564e-38
-0.00944956732974 -0.176391923488 0.851 1.46421494368e-38
-0.00787463944145 -0.176391923488 0.851 1.46403291501e-38
-0.0062849061206 -0.175977371377 0.849 1.61154522215e-38
-0.00471367959045 -0.175977371377 0.849 1.57466640968e-38
-0.0031424530603 -0.175977371377 0.849 1.49190712368e-38
-0.00156752517201 -0.175562819265 0.847 1.51031065667e-38
0.0 -0.175562819265 0.847 1.6117614425e-38
0.00157122653015 -0.175977371377 0.849 1.51031093693e-38
0.0031424530603 -0.175977371377 0.849 1.58381562749e-38
0.00471367959045 -0.175977371377 0.849 1.58381562749e-38
0.00629971155316 -0.176391923488 0.851 1.56563055692e-38
0.00785613265075 -0.175977371377 0.849 1.65764429825e-38
0.0094273591809 -0.175977371377 0.849 1.65764401799e-38
0.011024495218 -0.176391923488 0.851 1.66682700708e-38
0.0125994231063 -0.176391923488 0.851 1.64853375628e-38
0.0141743509946 -0.176391923488 0.851 1.65771436317e-38
0.0157492788829 -0.176391923488 0.851 1.61161879032e-38
0.0173242067712 -0.176391923488 0.851 1.69448513552e-38
0.0188991346595 -0.176391923488 0.851 1.64845766577e-38
0.0205462390315 -0.177013751656 0.854 1.74976425799e-38
0.0221785379709 -0.177428303768 0.856 1.74962104529e-38
0.0237627192546 -0.177428303768 0.856 1.77731630814e-38
0.0254061222684 -0.177842855879 0.858 1.8234851689e-38
0.0270569279986 -0.178257407991 0.86 1.86011132725e-38
0.0286485119985 -0.178257407991 0.86 1.92457638155e-38
0.0303104218031 -0.178671960102 0.862 1.7123815386e-38
0.0319057071611 -0.178671960102 0.862 1.68436355672e-38
0.0335009925192 -0.178671960102 0.862 1.63797637365e-38
0.0350962778772 -0.178671960102 0.862 1.77594359616e-38
-0.0356255720912 -0.179747204642 0.875 1.20663764867e-38
-0.0339284993843 -0.179336353888 0.873 6.71942091692e-39
-0.0319057071611 -0.177076674744 0.862 6.8015664342e-39
-0.0303104218031 -0.177076674744 0.862 9.0945839789e-39
-0.0286485119985 -0.176665823991 0.86 1.14084080032e-38
-0.0270569279986 -0.176665823991 0.86 1.14062556087e-38
-0.0254061222684 -0.176254973237 0.858 1.05693329035e-38
-0.0238182396267 -0.176254973237 0.858 1.23217407111e-38
-0.0222303569849 -0.176254973237 0.858 1.3898767608e-38
-0.0206424743431 -0.176254973237 0.858 1.47324743333e-38
-0.0190545917013 -0.176254973237 0.858 1.38105502645e-38
-0.01742599412 -0.175844122484 0.856 1.45499355901e-38
-0.0158418128364 -0.175844122484 0.856 1.45502859147e-38
-0.0142243193295 -0.17543327173 0.854 1.43659198784e-38
-0.012643839404 -0.17543327173 0.854 1.44570196928e-38
-0.0110633594785 -0.17543327173 0.854 1.46403291501e-38
-0.00944956732974 -0.1748169956 0.851 1.45488635968e-38
-0.00787463944145 -0.1748169956 0.851 1.50094718033e-38
-0.00629971155316 -0.1748169956 0.851 1.52874880173e-38
-0.00472478366487 -0.1748169956 0.851 1.53804025133e-38
-0.0031424530603 -0.174406144847 0.849 1.51956581264e-38
-0.00157122653015 -0.174406144847 0.849 1.51041911717e-38
0.0 -0.174406144847 0.849 1.55630085188e-38
0.00157122653015 -0.174406144847 0.849 1.5564446251e-38
0.00314985577658 -0.1748169956 0.851 1.65764668045e-38
0.00472478366487 -0.1748169956 0.851 1.6300560946e-38
0.00629971155316 -0.1748169956 0.851 1.59332231653e-38
0.00785613265075 -0.174406144847 0.849 1.57470368422e-38
0.0094273591809 -0.174406144847 0.849 1.64842291357e-38
0.011024495218 -0.1748169956 0.851 1.61143704191e-38
0.0125994231063 -0.1748169956 0.851 1.66675231788e-38
0.0141743509946 -0.1748169956 0.851 1.64845612435e-38
0.0157492788829 -0.1748169956 0.851 1.69448345397e-38
0.0173242067712 -0.1748169956 0.851 1.64838732059e-38
0.018965759106 -0.17543327173 0.854 1.63916803786e-38
0.0205943566873 -0.175844122484 0.856 1.70341659155e-38
0.0221785379709 -0.175844122484 0.856 1.75844376055e-38
0.0238182396267 -0.176254973237 0.858 1.73075200095e-38
0.0254061222684 -0.176254973237 0.858 1.62915365839e-38
0.0270569279986 -0.176665823991 0.86 1.77623086235e-38
0.0286485119985 -0.176665823991 0.86 1.67488615481e-38
0.0303104218031 -0.177076674744 0.862 1.61031390119e-38
0.0319057071611 -0.177076674744 0.862 1.57289811115e-38
0.0335009925192 -0.177076674744 0.862 1.63714708522e-38
0.0350962778772 -0.177076674744 0.862 1.72015986612e-38
-0.0373726131329 -0.178738584549 0.878 1.54754876206e-38
-0.0356255720912 -0.178127860456 0.875 8.46572606966e-39
-0.0339284993843 -0.177720711061 0.873 8.00009140554e-39
-0.0321648022309 -0.17690641227 0.869 9.38013497476e-39
-0.0303807476077 -0.175888538782 0.864 8.90876059214e-39
-0.028715136445 -0.175481389386 0.862 1.19597797125e-38
-0.0270569279986 -0.175074239991 0.86 1.39909842574e-38
-0.0254653439987 -0.175074239991 0.86 1.02963375419e-38
-0.0238182396267 -0.174667090596 0.858 1.12136163063e-38
-0.0222303569849 -0.174667090596 0.858 1.27805818802e-38
-0.0206905919989 -0.175074239991 0.86 1.28813870879e-38
-0.019099007999 -0.175074239991 0.86 1.40846232246e-38
-0.0174667090596 -0.174667090596 0.858 1.41786097139e-38
-0.0158788264178 -0.174667090596 0.858 1.51019981396e-38
-0.0142576315527 -0.1742599412 0.856 1.51023862993e-38
-0.0126734502691 -0.1742599412 0.856 1.5102370885e-38
-0.0110633594785 -0.173852791805 0.854 1.49183453642e-38
-0.00948287955299 -0.173852791805 0.854 1.51924211269e-38
-0.00787463944145 -0.173242067712 0.851 1.54700828124e-38
-0.00629971155316 -0.173242067712 0.851 1.56544656644e-38
-0.00472478366487 -0.173242067712 0.851 1.63001882006e-38
-0.00314985577658 -0.173242067712 0.851 1.49179796253e-38
-0.00157122653015 -0.172834918317 0.849 1.56541097345e-38
0.0 -0.172834918317 0.849 1.58385065995e-38
0.00157492788829 -0.173242067712 0.851 1.54700800098e-38
0.00314985577658 -0.173242067712 0.851 1.60214531205e-38
0.00472478366487 -0.173242067712 0.851 1.60218188594e-38
0.00629971155316 -0.173242067712 0.851 1.61133012283e-38
0.00785613265075 -0.172834918317 0.849 1.58374346061e-38
0.0094273591809 -0.172834918317 0.849 1.65742597595e-38
0.011024495218 -0.173242067712 0.851 1.62058219594e-38
0.0125994231063 -0.173242067712 0.851 1.59263834275e-38
0.0141743509946 -0.173242067712 0.851 1.57419571353e-38
0.0157492788829 -0.173242067712 0.851 1.60181880951e-38
0.0173852791805 -0.173852791805 0.854 1.43568871085e-38
0.018965759106 -0.173852791805 0.854 1.52770329295e-38
0.0205943566873 -0.1742599412 0.856 1.54585361131e-38
0.0221785379709 -0.1742599412 0.856 1.6935483675e-38
0.0238182396267 -0.174667090596 0.858 1.5827273791e-38
0.0254061222684 -0.174667090596 0.858 1.68374642487e-38
0.0270569279986 -0.175074239991 0.86 1.61914166112e-38
0.028715136445 -0.175481389386 0.862 1.60066526061e-38
0.0303104218031 -0.175481389386 0.862 1.60102273185e-38
0.0319057071611 -0.175481389386 0.862 1.61860061978e-38
0.0335009925192 -0.175481389386 0.862 1.71054373566e-38
0.0351777077563 -0.175888538782 0.864 1.71075897511e-38
-0.0373726131329 -0.177113688326 0.878 1.29803734101e-38
-0.0356255720912 -0.17650851627 0.875 1.54732763716e-38
-0.0339284993843 -0.176105068233 0.873 6.6239938928e-39
-0.0322388293937 -0.175701620195 0.871 9.55555512172e-39
-0.0303807476077 -0.174289552065 0.864 8.81620763117e-39
-0.028715136445 -0.173886104028 0.862 1.00136564053e-38
-0.027119851087 -0.173886104028 0.862 1.11224982749e-38
-0.0254653439987 -0.173482655991 0.86 1.10310215112e-38
-0.0238737599988 -0.173482655991 0.86 1.13058105348e-38
-0.0222821759988 -0.173482655991 0.86 1.22266766233e-38
-0.0206905919989 -0.173482655991 0.86 1.22331338066e-38
-0.019099007999 -0.173482655991 0.86 1.34327489881e-38
-0.0174667090596 -0.173079207954 0.858 1.39898674225e-38
-0.0158788264178 -0.173079207954 0.858 1.38969683408e-38
-0.014290943776 -0.173079207954 0.858 1.45412419344e-38
-0.0127030611342 -0.173079207954 0.858 1.46370543156e-38
-0.0110892689855 -0.172675759917 0.856 1.40828421743e-38
-0.00948287955299 -0.172272311879 0.854 1.44509002224e-38
-0.0079023996275 -0.172272311879 0.854 1.52824363364e-38
-0.006321919702 -0.172272311879 0.854 1.48203637729e-38
-0.0047414397765 -0.172272311879 0.854 1.4634548794e-38
-0.00314985577658 -0.171667139824 0.851 1.60181908977e-38
-0.00157492788829 -0.171667139824 0.851 1.44533623038e-38
0.0 -0.171667139824 0.851 1.51881149367e-38
0.00157492788829 -0.171667139824 0.851 1.52795678784e-38
0.00314985577658 -0.171667139824 0.851 1.50029851927e-38
0.00472478366487 -0.171667139824 0.851 1.51865931266e-38
0.00629971155316 -0.171667139824 0.851 1.42628767971e-38
0.00787463944145 -0.171667139824 0.851 1.54613877555e-38
0.00944956732974 -0.171667139824 0.851 1.55536184178e-38
0.0110633594785 -0.172272311879 0.854 1.48175247423e-38
0.012643839404 -0.172272311879 0.854 1.52755433492e-38
0.0142243193295 -0.172272311879 0.854 1.55514323922e-38
0.015804799255 -0.172272311879 0.854 1.55514351948e-38
0.0173852791805 -0.172272311879 0.854 1.49971670015e-38
0.018965759106 -0.172272311879 0.854 1.5178326867e-38
