# .PCD v0.7 - Point Cloud Data file format
VERSION 0.7
FIELDS x y z rgb
SIZE 4 4 4 4
TYPE F F F F
COUNT 1 1 1 1
WIDTH 839
HEIGHT 1
VIEWPOINT 0 0 0 1 0 0 0
POINTS 839
DATA ascii
0.0241328550685 -0.0874815996233 0.815 1.66559456508e-38
0.0256411585103 -0.0874815996233 0.815 1.64726333909e-38
0.0272160863986 -0.0876962783954 0.817 1.67470636822e-38
0.0287280911985 -0.0876962783954 0.817 1.71161993289e-38
0.0302400959984 -0.0876962783954 0.817 1.72076760926e-38
0.0318298293193 -0.0879109571675 0.819 1.78541118898e-38
0.0334269653564 -0.0881256359396 0.821 1.75764530069e-38
0.0350315041098 -0.0883403147117 0.823 1.81296183783e-38
0.0365546129841 -0.0883403147117 0.823 1.81310533079e-38
0.038170255812 -0.0885549934838 0.825 1.84076359936e-38
0.0396970660444 -0.0885549934838 0.825 1.95150429336e-38
0.0414237496164 -0.0889843510279 0.829 1.75778879365e-38
0.0429579625652 -0.0889843510279 0.829 2.00693265411e-38
0.044492175514 -0.0889843510279 0.829 2.27487675517e-38
0.0462484699511 -0.0894137085721 0.833 1.55586630922e-38
0.0477900856161 -0.0894137085721 0.833 1.57419753522e-38
-0.0251988462126 -0.0897708896325 0.851 2.23829894161e-38
-0.023401836836 -0.0889269799768 0.843 2.23826208746e-38
-0.0218417143803 -0.0889269799768 0.843 2.34940243178e-38
-0.0202815919245 -0.0889269799768 0.843 1.23361488619e-38
-0.0186770531711 -0.0887160025628 0.841 1.46337892902e-38
-0.017079917134 -0.0885050251489 0.839 1.25165520262e-38
-0.0154901838131 -0.0882940477349 0.837 1.43611358454e-38
-0.0139078532086 -0.088083070321 0.835 1.4819237129e-38
-0.0123329253203 -0.0878720929071 0.833 1.37121875201e-38
-0.0107913096553 -0.0878720929071 0.833 1.44472302218e-38
-0.00920527769254 -0.0874501380792 0.829 1.43546772608e-38
-0.00765255795309 -0.0872391606652 0.827 1.44465127569e-38
-0.00612204636247 -0.0872391606652 0.827 1.45397831827e-38
-0.00458043069744 -0.0870281832513 0.825 1.45397831827e-38
-0.00304621774868 -0.0868172058373 0.823 1.48163658684e-38
-0.00152310887434 -0.0868172058373 0.823 1.46319774113e-38
0.0 -0.0866062284234 0.821 1.48163658684e-38
0.0015194075162 -0.0866062284234 0.821 1.46319774113e-38
0.0030388150324 -0.0866062284234 0.821 1.50929485541e-38
0.00454711847418 -0.0863952510095 0.819 1.48156484036e-38
0.00606282463224 -0.0863952510095 0.819 1.49078426322e-38
0.0075785307903 -0.0863952510095 0.819 1.51826316558e-38
0.00907202879953 -0.0861842735955 0.817 1.48156484036e-38
0.0105840335994 -0.0861842735955 0.817 1.50000368607e-38
0.0120664275343 -0.0859732961816 0.815 1.6103857878e-38
0.013574730976 -0.0859732961816 0.815 1.55521540609e-38
0.0150830344178 -0.0859732961816 0.815 1.62893225323e-38
0.0166320527991 -0.0861842735955 0.817 1.53699628397e-38
0.0181440575991 -0.0861842735955 0.817 1.59194680195e-38
0.019656062399 -0.0861842735955 0.817 1.61964094376e-38
0.0211680671989 -0.0861842735955 0.817 1.62871687366e-38
0.0226800719988 -0.0861842735955 0.817 1.64722746585e-38
0.0241920767987 -0.0861842735955 0.817 1.64722746585e-38
0.0257040815987 -0.0861842735955 0.817 1.6840334108e-38
0.0272827108451 -0.0863952510095 0.819 1.71172755261e-38
0.0287984170032 -0.0863952510095 0.819 1.71161993289e-38
0.0303141231612 -0.0863952510095 0.819 1.73902708877e-38
0.0319075578402 -0.0866062284234 0.821 1.75764530069e-38
0.0335083952355 -0.0868172058373 0.823 1.74864111727e-38
0.0350315041098 -0.0868172058373 0.823 1.79445124563e-38
0.0366434455795 -0.0870281832513 0.825 1.88696833336e-38
0.038170255812 -0.0870281832513 0.825 1.82253999309e-38
0.0397933013561 -0.0872391606652 0.827 1.85934607816e-38
0.0414237496164 -0.0874501380792 0.829 1.93342418005e-38
0.0430616005931 -0.0876611154931 0.831 2.11810088428e-38
0.0445995149 -0.0876611154931 0.831 2.01694983619e-38
0.0462484699511 -0.0878720929071 0.833 1.26098448727e-38
0.0477900856161 -0.0878720929071 0.833 1.86893880693e-38
-0.0251988462126 -0.0881959617442 0.851 2.30286937355e-38
-0.0236239183244 -0.0881959617442 0.851 2.23822481292e-38
-0.0218935333942 -0.0875741335768 0.845 2.34911292352e-38
-0.0203297095803 -0.0875741335768 0.845 1.32577324151e-38
-0.0187214694688 -0.087366857521 0.843 1.44493826162e-38
-0.0171206320735 -0.0871595814652 0.841 1.44515896613e-38
-0.0155271973945 -0.0869523054094 0.839 1.40820406316e-38
-0.0139411654318 -0.0867450293536 0.837 1.46348472706e-38
-0.0123625361854 -0.0865377532978 0.835 1.42678640183e-38
-0.0108172191622 -0.0865377532978 0.835 1.4082399364e-38
-0.00920527769254 -0.0859159251304 0.829 1.43553947256e-38
-0.00765255795309 -0.0857086490746 0.827 1.55528434997e-38
-0.00612204636247 -0.0857086490746 0.827 1.45397831827e-38
-0.00458043069744 -0.0855013730188 0.825 1.48163658684e-38
-0.00305362046496 -0.0855013730188 0.825 1.4908560097e-38
-0.00152310887434 -0.085294096963 0.823 1.45394244503e-38
0.0 -0.085294096963 0.823 1.48156484036e-38
0.0015194075162 -0.0850868209072 0.821 1.50925898217e-38
0.0030388150324 -0.0850868209072 0.821 1.50925898217e-38
0.0045582225486 -0.0850868209072 0.821 1.46330536085e-38
0.0060776300648 -0.0850868209072 0.821 1.50925898217e-38
0.0075785307903 -0.0848795448514 0.819 1.52748258844e-38
0.00909423694836 -0.0848795448514 0.819 1.49078426322e-38
0.0106099431064 -0.0848795448514 0.819 1.52766195464e-38
0.0120960383994 -0.0846722687956 0.817 1.55506911053e-38
0.0136080431993 -0.0846722687956 0.817 1.56432440663e-38
0.0151200479992 -0.0846722687956 0.817 1.56439615311e-38
0.0166320527991 -0.0846722687956 0.817 1.57361557596e-38
0.0181884738967 -0.0848795448514 0.819 1.58287087206e-38
0.0197041800548 -0.0848795448514 0.819 1.64726333909e-38
0.0212198862128 -0.0848795448514 0.819 1.61967681701e-38
0.0227355923709 -0.0848795448514 0.819 1.59209029492e-38
0.024251298529 -0.0848795448514 0.819 1.66570218481e-38
0.025767004687 -0.0848795448514 0.819 1.71161993289e-38
0.0273493352916 -0.0850868209072 0.821 1.71161993289e-38
0.0288687428078 -0.0850868209072 0.821 1.76686472354e-38
0.030388150324 -0.0850868209072 0.821 1.73016639832e-38
0.0319852863611 -0.085294096963 0.823 1.7393140747e-38
0.0335898251145 -0.0855013730188 0.825 1.82243237337e-38
0.035116635347 -0.0855013730188 0.825 1.84076359936e-38
0.0366434455795 -0.0855013730188 0.825 1.79473823156e-38
0.0382627897654 -0.0857086490746 0.827 1.90573003824e-38
0.0398895366677 -0.0859159251304 0.829 1.97966730963e-38
0.0415236862862 -0.0861232011862 0.831 2.13683470331e-38
0.0430616005931 -0.0861232011862 0.831 2.34914585403e-38
0.0445995149 -0.0861232011862 0.831 1.26062869759e-38
0.0462484699511 -0.086330477242 0.833 1.04897349469e-38
0.0477900856161 -0.086330477242 0.833 1.8234504167e-38
-0.0236239183244 -0.086621033856 0.851 2.32130779887e-38
-0.0218935333942 -0.086010309763 0.845 2.34914949741e-38
-0.0203297095803 -0.086010309763 0.845 1.36265373554e-38
-0.0187214694688 -0.0858067350653 0.843 1.52795146291e-38
-0.0171206320735 -0.0856031603676 0.841 1.3897711029e-38
-0.0155271973945 -0.08539958567 0.839 1.43596995145e-38
-0.0139411654318 -0.0851960109723 0.837 1.4082399364e-38
-0.0123625361854 -0.0849924362746 0.835 1.12247370109e-38
-0.0108172191622 -0.0849924362746 0.835 1.62968643207e-38
-0.00924969399022 -0.084788861577 0.833 1.38965759772e-38
-0.00767106474379 -0.0843817121817 0.829 1.44475889542e-38
-0.00613685179503 -0.0843817121817 0.829 1.4908560097e-38
-0.00459153477185 -0.084178137484 0.827 1.49082013646e-38
-0.00306102318124 -0.084178137484 0.827 1.49078426322e-38
-0.00153051159062 -0.084178137484 0.827 1.4908560097e-38
0.0 -0.0839745627863 0.825 1.48163658684e-38
0.00152310887434 -0.0837709880887 0.823 1.5001113058e-38
0.00304621774868 -0.0837709880887 0.823 1.50904374273e-38
0.00456932662302 -0.0837709880887 0.823 1.48156484036e-38
0.00609243549736 -0.0837709880887 0.823 1.54592143415e-38
0.007597037581 -0.083567413391 0.821 1.54592143415e-38
0.0091164450972 -0.083567413391 0.821 1.50000368607e-38
0.0106358526134 -0.083567413391 0.821 1.54606492712e-38
0.0121256492645 -0.0833638386933 0.819 1.56439615311e-38
0.0136413554225 -0.0833638386933 0.819 1.58283499882e-38
0.0151570615806 -0.0833638386933 0.819 1.69347227699e-38
0.0166727677387 -0.0833638386933 0.819 1.55506911053e-38
0.0181884738967 -0.0833638386933 0.819 1.64729921233e-38
0.0197041800548 -0.0833638386933 0.819 1.64729921233e-38
0.0212198862128 -0.0833638386933 0.819 1.67499559622e-38
0.0227355923709 -0.0833638386933 0.819 1.64747857854e-38
0.024251298529 -0.0833638386933 0.819 1.6749574809e-38
0.0258299277754 -0.083567413391 0.821 1.72083935574e-38
0.0273493352916 -0.083567413391 0.821 1.70240051003e-38
0.0288687428078 -0.083567413391 0.821 1.7300587786e-38
0.030388150324 -0.083567413391 0.821 1.7393140747e-38
0.0320630148821 -0.0839745627863 0.825 1.75778879365e-38
0.0335898251145 -0.0839745627863 0.825 1.76711583623e-38
0.035116635347 -0.0839745627863 0.825 1.91469834841e-38
0.0367322781748 -0.084178137484 0.827 1.79502563787e-38
0.0383553237189 -0.0843817121817 0.829 1.93360803041e-38
0.0399857719793 -0.0845852868793 0.831 2.17367413929e-38
0.041623622956 -0.084788861577 0.833 1.33374130484e-38
0.043165238621 -0.084788861577 0.833 1.8127231967e-38
0.044706854286 -0.084788861577 0.833 1.62014681251e-38
0.0463595106953 -0.0849924362746 0.835 1.15993054917e-38
0.0479048277184 -0.0849924362746 0.835 1.5644407144e-38
-0.0236239183244 -0.0850461059677 0.851 2.26609874133e-38
-0.0219453524082 -0.0846463592886 0.847 2.34903977574e-38
-0.0203297095803 -0.0844464859491 0.845 1.51020177578e-38
-0.0187214694688 -0.0842466126096 0.843 1.42636082749e-38
-0.0171206320735 -0.08404673927 0.841 1.49118587536e-38
-0.0155271973945 -0.0838468659305 0.839 1.40820798679e-38
-0.0139411654318 -0.083646992591 0.837 1.40820406316e-38
-0.0123921470505 -0.083646992591 0.837 1.43596995145e-38
-0.0108431286692 -0.083646992591 0.837 1.38043817487e-38
-0.00927190213905 -0.0834471192515 0.835 1.42649941591e-38
-0.00770807832518 -0.0832472459119 0.833 1.45405006475e-38
-0.00613685179503 -0.0828474992329 0.829 1.48163658684e-38
-0.00460263884627 -0.0828474992329 0.829 1.49078426322e-38
-0.00306102318124 -0.0826476258934 0.827 1.52766195464e-38
-0.00153051159062 -0.0826476258934 0.827 1.47252478371e-38
0.0 -0.0826476258934 0.827 1.51855015151e-38
0.00152681023248 -0.0824477525538 0.825 1.50925898217e-38
0.00305362046496 -0.0824477525538 0.825 1.54592143415e-38
0.00458043069744 -0.0824477525538 0.825 1.50929485541e-38
0.00610724092991 -0.0824477525538 0.825 1.5001113058e-38
0.00763405116239 -0.0824477525538 0.825 1.56439615311e-38
0.0091164450972 -0.0820480058748 0.821 1.52780544761e-38
0.0106358526134 -0.0820480058748 0.821 1.55542784294e-38
0.0121552601296 -0.0820480058748 0.821 1.55542784294e-38
0.0136746676458 -0.0820480058748 0.821 1.61070850683e-38
0.0151570615806 -0.0818481325353 0.819 1.54588556091e-38
0.0166727677387 -0.0818481325353 0.819 1.6749574809e-38
0.0182328901944 -0.0820480058748 0.821 1.6289321131e-38
0.0197522977106 -0.0820480058748 0.821 1.64733508557e-38
0.0212717052268 -0.0820480058748 0.821 1.64733508557e-38
0.022791112743 -0.0820480058748 0.821 1.65655450843e-38
0.0243105202592 -0.0820480058748 0.821 1.6934680731e-38
0.0258299277754 -0.0820480058748 0.821 1.73938582118e-38
0.0274159597381 -0.0822478792143 0.823 1.72087522898e-38
0.0289390686124 -0.0822478792143 0.823 1.7393140747e-38
0.0304621774868 -0.0822478792143 0.823 1.75778879365e-38
0.0320630148821 -0.0824477525538 0.825 1.75786054013e-38
0.0336712549936 -0.0826476258934 0.827 1.77629938584e-38
0.0352017665842 -0.0826476258934 0.827 1.79455886535e-38
0.0368211107702 -0.0828474992329 0.829 2.01675855895e-38
0.0383553237189 -0.0828474992329 0.829 1.9986801272e-38
0.0399857719793 -0.0830473725724 0.831 1.54671064545e-38
0.041623622956 -0.0832472459119 0.833 1.6183495071e-38
0.043165238621 -0.0832472459119 0.833 1.92263123915e-38
0.0448141936721 -0.0834471192515 0.835 9.57169808003e-39
0.0464705514394 -0.083646992591 0.837 1.40867672113e-38
0.0480195698208 -0.083646992591 0.837 1.5271293211e-38
-0.0237627192546 -0.0839616080328 0.856 2.21996519328e-38
-0.0220489904361 -0.0834711780794 0.851 2.34911208274e-38
-0.020425944892 -0.083275006098 0.849 1.59325042992e-38
-0.0187658857665 -0.0828826621352 0.845 1.39891639707e-38
-0.0171613470131 -0.0826864901538 0.843 1.44504924446e-38
-0.0156012245573 -0.0826864901538 0.843 1.46359402834e-38
-0.0139744776551 -0.0822941461911 0.839 1.38990969132e-38
-0.0123921470505 -0.0820979742097 0.837 1.34374027003e-38
-0.0108431286692 -0.0820979742097 0.837 1.40820406316e-38
-0.00927190213905 -0.0819018022283 0.835 1.45405006475e-38
-0.00772658511588 -0.0819018022283 0.835 1.48163658684e-38
-0.00616646266014 -0.0817056302469 0.833 1.49078426322e-38
-0.00460263884627 -0.0813132862841 0.829 1.54610080036e-38
-0.00306842589751 -0.0813132862841 0.829 1.45397831827e-38
-0.00153051159062 -0.0811171143028 0.827 1.48156484036e-38
0.0 -0.0811171143028 0.827 1.53684550426e-38
0.00153051159062 -0.0811171143028 0.827 1.54592143415e-38
0.00306102318124 -0.0811171143028 0.827 1.51837078531e-38
0.00459153477185 -0.0811171143028 0.827 1.50003955932e-38
0.00612204636247 -0.0811171143028 0.827 1.56439615311e-38
0.00765255795309 -0.0811171143028 0.827 1.54606492712e-38
0.00916086139487 -0.0809209423214 0.825 1.54606492712e-38
0.0106617621204 -0.08072477034 0.823 1.5370607437e-38
0.0121552601296 -0.0805285983586 0.821 1.55539196969e-38
0.0136746676458 -0.0805285983586 0.821 1.61056599478e-38
0.015194075162 -0.0805285983586 0.821 1.6106013075e-38
0.0167134826782 -0.0805285983586 0.821 1.62889623986e-38
0.0182328901944 -0.0805285983586 0.821 1.61967681701e-38
0.0197522977106 -0.0805285983586 0.821 1.66566631157e-38
0.0212717052268 -0.0805285983586 0.821 1.67502922738e-38
0.022791112743 -0.0805285983586 0.821 1.66595624022e-38
0.0243105202592 -0.0805285983586 0.821 1.66570218481e-38
0.0258299277754 -0.0805285983586 0.821 1.69328870689e-38
0.0274159597381 -0.08072477034 0.823 1.72083935574e-38
0.0289390686124 -0.08072477034 0.823 1.76679297706e-38
0.0305362046496 -0.0809209423214 0.825 1.78519594953e-38
0.032140743403 -0.0811171143028 0.827 1.79470235832e-38
0.0336712549936 -0.0811171143028 0.827 1.82236062689e-38
0.0352868978214 -0.0813132862841 0.829 1.86881647357e-38
0.0368211107702 -0.0813132862841 0.829 1.98914597271e-38
0.0385403916259 -0.0817056302469 0.833 2.08180501197e-38
0.0400820072909 -0.0817056302469 0.833 1.71188183557e-38
0.0417235596257 -0.0819018022283 0.835 2.0435359713e-38
0.0432688766489 -0.0819018022283 0.835 2.19071883316e-38
0.0449215330581 -0.0820979742097 0.837 1.5276758275e-38
0.046803673672 -0.0826864901538 0.843 1.49075427543e-38
0.0483637961277 -0.0826864901538 0.843 1.47159460179e-38
-0.0238182396267 -0.0825698973724 0.858 2.22914944355e-38
-0.0220489904361 -0.0818962501911 0.851 2.33060093003e-38
-0.020425944892 -0.0817037795678 0.849 1.64853249511e-38
-0.0188103020641 -0.0815113089446 0.847 1.4726003137e-38
-0.0172020619526 -0.0813188383213 0.845 1.3529592725e-38
-0.0156012245573 -0.0811263676981 0.843 1.36221639028e-38
-0.0140077898783 -0.0809338970749 0.841 1.5835241574e-38
-0.0124217579156 -0.0807414264516 0.839 1.34381159612e-38
-0.0108431286692 -0.0805489558284 0.837 1.435754712e-38
-0.00929411028789 -0.0805489558284 0.837 1.4448306419e-38
-0.00772658511588 -0.0803564852051 0.835 1.49078426322e-38
-0.0061812680927 -0.0803564852051 0.835 1.49078426322e-38
-0.00462484699511 -0.0801640145819 0.833 1.48163658684e-38
-0.00307582861379 -0.0799715439586 0.831 1.50925898217e-38
-0.00153421294876 -0.0797790733354 0.829 1.5001113058e-38
0.0 -0.0797790733354 0.829 1.50925898217e-38
0.00153051159062 -0.0795866027121 0.827 1.61045739415e-38
0.00306102318124 -0.0795866027121 0.827 1.5736514492e-38
0.00459153477185 -0.0795866027121 0.827 1.56450377283e-38
0.00612204636247 -0.0795866027121 0.827 1.63833090216e-38
0.00765255795309 -0.0795866027121 0.827 1.52759020816e-38
0.00918306954371 -0.0795866027121 0.827 1.56439615311e-38
0.0107135811343 -0.0795866027121 0.827 1.5829067453e-38
0.0121848709947 -0.0792016614656 0.823 1.68457150941e-38
0.0137079798691 -0.0792016614656 0.823 1.57375906893e-38
0.0152310887434 -0.0792016614656 0.823 1.6015967037e-38
0.0167541976177 -0.0792016614656 0.823 1.58287087206e-38
0.0182773064921 -0.0792016614656 0.823 1.60120209805e-38
0.0198004153664 -0.0792016614656 0.823 1.67499335414e-38
0.0213235242407 -0.0792016614656 0.823 1.60130971777e-38
0.0228466331151 -0.0792016614656 0.823 1.67506510063e-38
0.0243697419894 -0.0792016614656 0.823 1.71187104557e-38
0.0258928508638 -0.0792016614656 0.823 1.66570218481e-38
0.0274825841846 -0.0793941320889 0.825 1.73938582118e-38
0.0290093944171 -0.0793941320889 0.825 1.77640700557e-38
0.0306102318124 -0.0795866027121 0.827 1.73038163776e-38
0.032140743403 -0.0795866027121 0.827 1.75803990633e-38
0.0337526848727 -0.0797790733354 0.829 1.83165179622e-38
0.0352868978214 -0.0797790733354 0.829 2.06264687976e-38
0.0369099433655 -0.0799715439586 0.831 2.23842786107e-38
0.0386329255794 -0.0803564852051 0.835 1.62080598331e-38
0.0402744779142 -0.0805489558284 0.837 1.55248932006e-38
0.0418234962955 -0.0805489558284 0.837 1.90483993346e-38
0.0433725146768 -0.0805489558284 0.837 1.65519903243e-38
0.0452435512162 -0.0811263676981 0.843 1.71054990138e-38
0.0469147144162 -0.0813188383213 0.845 1.4070248705e-38
0.04847853823 -0.0813188383213 0.845 1.52680337907e-38
-0.0238182396267 -0.0809820147307 0.858 2.25691603249e-38
-0.0221785379709 -0.0807932454656 0.856 2.32145297339e-38
-0.0204740625478 -0.0803213223028 0.851 1.6761204185e-38
-0.0188103020641 -0.0799437837726 0.847 1.51877071589e-38
-0.0172020619526 -0.0797550145075 0.845 1.1690371675e-38
-0.0156012245573 -0.0795662452424 0.843 1.27077634055e-38
-0.0140077898783 -0.0793774759773 0.841 1.38987283717e-38
-0.0124217579156 -0.0791887067122 0.839 1.55557231681e-38
-0.0108690381762 -0.0791887067122 0.839 1.42650277902e-38
-0.00929411028789 -0.078999937447 0.837 1.46326948761e-38
-0.00774509190657 -0.078999937447 0.837 1.50003955932e-38
-0.0061812680927 -0.0788111681819 0.835 1.50000368607e-38
-0.00463595106953 -0.0788111681819 0.835 1.50000368607e-38
-0.00307582861379 -0.0784336296517 0.831 1.50925898217e-38
-0.0015379143069 -0.0784336296517 0.831 1.55514085701e-38
0.0 -0.0782448603866 0.829 1.4908560097e-38
0.00153421294876 -0.0782448603866 0.829 1.54610080036e-38
0.00306842589751 -0.0782448603866 0.829 1.54606492712e-38
0.00460263884627 -0.0782448603866 0.829 1.54606492712e-38
0.00613685179503 -0.0782448603866 0.829 1.57372319569e-38
0.00767106474379 -0.0782448603866 0.829 1.54606492712e-38
0.00920527769254 -0.0782448603866 0.829 1.55517673025e-38
0.0107135811343 -0.0780560911215 0.827 1.84105282736e-38
0.0122440927249 -0.0780560911215 0.827 1.48204086145e-38
0.0137746043156 -0.0780560911215 0.827 1.61070850683e-38
0.0153051159062 -0.0780560911215 0.827 1.59226966112e-38
0.0168356274968 -0.0780560911215 0.827 1.70297448188e-38
0.0183217227897 -0.0778673218564 0.825 1.62900512075e-38
0.0198485330222 -0.0778673218564 0.825 1.88768775999e-38
0.0213753432547 -0.0778673218564 0.825 1.77713357882e-38
0.0229021534872 -0.0778673218564 0.825 1.62907602645e-38
0.0244289637197 -0.0778673218564 0.825 1.68435626996e-38
0.0260186970405 -0.0780560911215 0.827 1.6936474393e-38
0.0275492086311 -0.0780560911215 0.827 1.7394934409e-38
0.0290797202217 -0.0780560911215 0.827 1.73038163776e-38
0.0306842589751 -0.0782448603866 0.829 1.75803990633e-38
0.0322184719239 -0.0782448603866 0.829 1.82254041348e-38
0.0338341147517 -0.0784336296517 0.831 1.85977753796e-38
0.0354571602958 -0.0786223989168 0.833 2.14576784089e-38
0.0370876085562 -0.0788111681819 0.835 1.88805924422e-38
0.0386329255794 -0.0788111681819 0.835 9.73456259275e-39
0.0402744779142 -0.078999937447 0.837 1.93059678014e-38
0.0419234329653 -0.0791887067122 0.839 1.39741448537e-38
0.0434761527047 -0.0791887067122 0.839 1.48910298532e-38
0.0453508906023 -0.0797550145075 0.845 1.53573931925e-38
0.0469147144162 -0.0797550145075 0.845 1.36992983768e-38
0.0485932803324 -0.0799437837726 0.847 1.8865863394e-38
0.0501608055044 -0.0799437837726 0.847 2.34972094692e-38
-0.0221785379709 -0.0792090641819 0.856 2.34914669481e-38
-0.0205943566873 -0.0792090641819 0.856 1.8144486155e-38
-0.0188991346595 -0.0787463944145 0.851 1.46334768007e-38
-0.0172427768921 -0.0783762586006 0.847 1.27041494568e-38
-0.0156752517201 -0.0783762586006 0.847 1.19683892903e-38
-0.0140744143248 -0.0781911906936 0.845 1.13208772959e-38
-0.0124809796459 -0.0780061227866 0.843 1.42700318271e-38
-0.0108949476832 -0.0778210548797 0.841 1.39902051354e-38
-0.00931631843672 -0.0776359869727 0.839 1.74907580006e-38
-0.00776359869727 -0.0776359869727 0.839 1.44480135476e-38
-0.00619607352526 -0.0774509190657 0.837 1.49085671035e-38
-0.00464705514394 -0.0774509190657 0.837 1.50918723569e-38
-0.00307582861379 -0.0768957153448 0.831 1.51826316558e-38
-0.0015379143069 -0.0768957153448 0.831 1.56436027987e-38
0.0 -0.0767106474379 0.829 1.50925898217e-38
0.00153421294876 -0.0767106474379 0.829 1.52776957437e-38
0.00306842589751 -0.0767106474379 0.829 1.54606492712e-38
0.00460263884627 -0.0767106474379 0.829 1.58294261854e-38
0.00613685179503 -0.0767106474379 0.829 1.55539196969e-38
0.00767106474379 -0.0767106474379 0.829 1.56461139255e-38
0.00920527769254 -0.0767106474379 0.829 1.61049326739e-38
0.0107394906413 -0.0767106474379 0.829 1.5736514492e-38
0.0122737035901 -0.0767106474379 0.829 1.61971269025e-38
0.0138079165388 -0.0767106474379 0.829 1.6014173375e-38
0.0153051159062 -0.0765255795309 0.827 1.60138146425e-38
0.0168356274968 -0.0765255795309 0.827 1.59219791464e-38
0.0183661390874 -0.0765255795309 0.827 1.58287087206e-38
0.019896650678 -0.0765255795309 0.827 2.03516433401e-38
0.0214271622687 -0.0765255795309 0.827 1.56493425172e-38
0.0229576738593 -0.0765255795309 0.827 1.67502922738e-38
0.0244881854499 -0.0765255795309 0.827 1.68432039672e-38
0.0260186970405 -0.0765255795309 0.827 1.70301035512e-38
0.0276158330776 -0.0767106474379 0.829 1.75803990633e-38
0.0291500460264 -0.0767106474379 0.829 1.78576992138e-38
0.0306842589751 -0.0767106474379 0.829 1.89658558485e-38
0.0322962004448 -0.0768957153448 0.831 1.9614424422e-38
0.0339155446308 -0.0770807832518 0.833 1.91545799231e-38
0.0354571602958 -0.0770807832518 0.833 1.878728278e-38
0.0370876085562 -0.0772658511588 0.835 1.1028884531e-38
0.0386329255794 -0.0772658511588 0.835 1.43274135979e-38
0.0402744779142 -0.0774509190657 0.837 1.81160594143e-38
0.0419234329653 -0.0776359869727 0.839 1.4705518956e-38
0.0435797907326 -0.0778210548797 0.841 1.44368634157e-38
0.0453508906023 -0.0781911906936 0.845 1.49907812844e-38
0.0470257551603 -0.0783762586006 0.847 1.23188806609e-38
0.0485932803324 -0.0783762586006 0.847 2.09863684861e-38
0.0501608055044 -0.0783762586006 0.847 2.349361654e-38
-0.0223339950128 -0.0781689825448 0.862 2.33996244455e-38
-0.0205943566873 -0.0776248828983 0.856 2.02649940496e-38
-0.0188991346595 -0.0771714665262 0.851 1.20538222538e-38
-0.0172427768921 -0.0768087334286 0.847 1.38987283717e-38
-0.0156752517201 -0.0768087334286 0.847 1.36217869536e-38
-0.0140744143248 -0.0766273668797 0.845 1.11386412332e-38
-0.0124809796459 -0.0764460003309 0.843 1.04025223343e-38
-0.0109208571901 -0.0764460003309 0.843 1.37172279907e-38
-0.00933852658556 -0.0762646337821 0.841 1.4542653042e-38
-0.00776359869727 -0.0760832672332 0.839 1.47230954426e-38
-0.00621087895782 -0.0760832672332 0.839 1.75850667885e-38
-0.00464705514394 -0.0759019006844 0.837 1.53714117824e-38
-0.00309063404635 -0.0757205341356 0.835 1.50933072865e-38
-0.00154531702318 -0.0757205341356 0.835 1.57379550269e-38
0.0 -0.0755391675868 0.833 1.54606492712e-38
0.00154161566504 -0.0755391675868 0.833 1.56446789959e-38
0.00308323133007 -0.0755391675868 0.833 1.57368732244e-38
0.00461374292069 -0.0753578010379 0.831 1.5921620414e-38
0.00615165722759 -0.0753578010379 0.831 1.57368732244e-38
0.00768957153448 -0.0753578010379 0.831 1.56461139255e-38
0.00922748584138 -0.0753578010379 0.831 1.61049326739e-38
0.0107654001483 -0.0753578010379 0.831 1.62903973282e-38
0.0123033144552 -0.0753578010379 0.831 1.62900385958e-38
0.0138412287621 -0.0753578010379 0.831 1.63822328244e-38
0.0153421294876 -0.0751764344891 0.829 1.64751445178e-38
0.0168763424363 -0.0751764344891 0.829 1.6289321131e-38
0.0184105553851 -0.0751764344891 0.829 1.67517272035e-38
0.0199447683338 -0.0751764344891 0.829 1.61982030997e-38
0.0214789812826 -0.0751764344891 0.829 1.69332458014e-38
0.0230131942314 -0.0751764344891 0.829 1.73938582118e-38
0.0245474071801 -0.0751764344891 0.829 1.80402940089e-38
0.0260816201289 -0.0751764344891 0.829 1.70293860864e-38
0.0276158330776 -0.0751764344891 0.829 1.77644287881e-38
0.0291500460264 -0.0751764344891 0.829 1.76736694891e-38
0.0307582861379 -0.0753578010379 0.831 1.76747456863e-38
0.0322962004448 -0.0753578010379 0.831 1.86921107922e-38
0.0339155446308 -0.0755391675868 0.833 2.10928573603e-38
0.035542291533 -0.0757205341356 0.835 1.98979701597e-38
0.0370876085562 -0.0757205341356 0.835 8.7251106193e-39
0.0387254595329 -0.0759019006844 0.837 2.0127093669e-38
0.0403707132258 -0.0760832672332 0.839 1.77519978694e-38
0.042023369635 -0.0762646337821 0.841 1.52576235445e-38
0.0436834287605 -0.0764460003309 0.843 1.46197903186e-38
0.0453508906023 -0.0766273668797 0.845 1.41635359464e-38
0.0470257551603 -0.0768087334286 0.847 1.31464777248e-38
0.0485932803324 -0.0768087334286 0.847 2.10789144405e-38
0.0501608055044 -0.0768087334286 0.847 2.3491095604e-38
-0.0223339950128 -0.0765736971867 0.862 2.27539047118e-38
-0.0206905919989 -0.076396031996 0.86 2.10947561197e-38
-0.0190101754037 -0.0760407016146 0.856 1.14080786981e-38
-0.0173242067712 -0.0755965386379 0.851 1.38955039839e-38
-0.0157492788829 -0.0755965386379 0.851 1.60174103744e-38
-0.0141077265481 -0.0752412082565 0.847 1.05826060026e-38
-0.012510590511 -0.0750635430659 0.845 1.11415110925e-38
-0.0109208571901 -0.0748858778752 0.843 9.93509400819e-39
-0.0093607347344 -0.0748858778752 0.843 1.26105202986e-38
-0.00778210548797 -0.0747082126845 0.841 1.43604169793e-38
-0.00621087895782 -0.0745305474938 0.839 1.49096362942e-38
-0.00465815921836 -0.0745305474938 0.839 1.50929485541e-38
-0.00309803676263 -0.0743528823031 0.837 1.6108519998e-38
-0.00154531702318 -0.0741752171124 0.835 1.71231119342e-38
0.0 -0.0741752171124 0.835 1.5463160398e-38
0.00154531702318 -0.0741752171124 0.835 1.60156083046e-38
0.00309063404635 -0.0741752171124 0.835 1.61070850683e-38
0.00463595106953 -0.0741752171124 0.835 1.54602905388e-38
0.00616646266014 -0.0739975519217 0.833 1.56453964607e-38
0.00770807832518 -0.0739975519217 0.833 1.5829067453e-38
0.00924969399022 -0.0739975519217 0.833 1.6014173375e-38
0.0107913096553 -0.0739975519217 0.833 1.6014173375e-38
0.0123033144552 -0.073819886731 0.831 1.61974856349e-38
0.0138412287621 -0.073819886731 0.831 1.62900385958e-38
0.0153421294876 -0.0736422215403 0.829 1.66577393129e-38
0.0168763424363 -0.0736422215403 0.829 1.67502922738e-38
0.0184105553851 -0.0736422215403 0.829 1.63829502892e-38
0.0199447683338 -0.0736422215403 0.829 1.68432039672e-38
0.0214789812826 -0.0736422215403 0.829 1.71190691881e-38
0.0230131942314 -0.0736422215403 0.829 1.72109046843e-38
0.0246658506406 -0.0739975519217 0.833 1.73016639832e-38
0.0262074663056 -0.0739975519217 0.833 1.75789641337e-38
0.0277490819706 -0.0739975519217 0.833 1.72112634167e-38
0.0292906976357 -0.0739975519217 0.833 1.86874472709e-38
0.0308323133007 -0.0739975519217 0.833 1.76754631512e-38
0.0324516574867 -0.0741752171124 0.835 1.95229350465e-38
0.0339969745099 -0.0741752171124 0.835 1.980252632e-38
0.0356274227702 -0.0743528823031 0.837 1.8975309008e-38
0.0372652737469 -0.0745305474938 0.839 1.06529175543e-38
0.0389105274398 -0.0747082126845 0.841 2.34817867783e-38
0.040563183849 -0.0748858778752 0.843 1.25083684431e-38
0.0421233063048 -0.0748858778752 0.843 1.69063618903e-38
0.0437870667884 -0.0750635430659 0.845 1.46191036823e-38
0.0454582299883 -0.0752412082565 0.847 1.35185392827e-38
0.0471367959045 -0.0754188734472 0.849 1.51776878749e-38
0.0487080224347 -0.0754188734472 0.849 2.24629348948e-38
-0.0239848007429 -0.0751523756612 0.864 2.21996547354e-38
-0.0223339950128 -0.0749784118287 0.862 2.21996547354e-38
-0.0206905919989 -0.0748044479961 0.86 2.21089038443e-38
-0.0190545917013 -0.0746304841636 0.858 1.41725210721e-38
-0.0173852791805 -0.0742825564985 0.854 1.14069828827e-38
-0.0157492788829 -0.0740216107496 0.851 1.26966679243e-38
-0.0141410387714 -0.0738476469171 0.849 1.2609085369e-38
-0.012510590511 -0.073499719252 0.845 1.19680319592e-38
-0.0109467666971 -0.073499719252 0.845 9.56667582633e-39
-0.0093607347344 -0.0733257554194 0.843 1.37136308575e-38
-0.00780061227866 -0.0733257554194 0.843 1.1041424751e-38
-0.00622568439037 -0.0731517915869 0.841 1.3529592725e-38
-0.00465815921836 -0.0729778277543 0.839 1.35317451194e-38
-0.00309803676263 -0.0728038639218 0.837 1.50958184134e-38
-0.00154901838131 -0.0728038639218 0.837 1.56464726579e-38
0.0 -0.0728038639218 0.837 1.54624429332e-38
0.00154901838131 -0.0728038639218 0.837 1.58315785799e-38
0.00309803676263 -0.0728038639218 0.837 1.76762254575e-38
0.00463595106953 -0.0726299000892 0.835 1.76777178404e-38
0.0061812680927 -0.0726299000892 0.835 1.60145741463e-38
0.00772658511588 -0.0726299000892 0.835 1.59219973633e-38
0.00927190213905 -0.0726299000892 0.835 1.54599318063e-38
0.0108172191622 -0.0726299000892 0.835 1.64740683206e-38
0.0123329253203 -0.0724559362567 0.833 1.61063676035e-38
0.0138745409853 -0.0724559362567 0.833 1.61063676035e-38
0.0154161566504 -0.0724559362567 0.833 1.64737095882e-38
0.0169170573759 -0.0722819724241 0.831 1.64733508557e-38
0.0184549716828 -0.0722819724241 0.831 1.6474427053e-38
0.0199928859897 -0.0722819724241 0.831 1.66577393129e-38
0.0215308002966 -0.0722819724241 0.831 1.6936474393e-38
0.0230687146034 -0.0722819724241 0.831 1.69357569282e-38
0.0246658506406 -0.0724559362567 0.833 1.74853349755e-38
0.0262074663056 -0.0724559362567 0.833 1.77637113232e-38
0.0277490819706 -0.0724559362567 0.833 1.81353580968e-38
0.0293610234403 -0.0726299000892 0.835 1.78591341435e-38
0.0309063404635 -0.0726299000892 0.835 1.85988655898e-38
0.0324516574867 -0.0726299000892 0.835 1.95247945696e-38
0.0340784043889 -0.0728038639218 0.837 1.95287700533e-38
0.0357125540074 -0.0729778277543 0.839 1.39016949205e-38
0.0372652737469 -0.0729778277543 0.839 1.11120950351e-38
0.0389105274398 -0.0731517915869 0.841 2.34883210331e-38
0.040563183849 -0.0733257554194 0.843 1.19566015676e-38
0.0421233063048 -0.0733257554194 0.843 1.58064799231e-38
0.0437870667884 -0.073499719252 0.845 1.53566743264e-38
0.0454582299883 -0.0736736830845 0.847 1.56418876093e-38
0.0471367959045 -0.0738476469171 0.849 1.32426110034e-38
0.0487080224347 -0.0738476469171 0.849 2.29249948465e-38
-0.0239848007429 -0.073553388945 0.864 2.19212853942e-38
-0.0223339950128 -0.0733831264706 0.862 2.25673834784e-38
-0.0207387096547 -0.0733831264706 0.862 2.30308643468e-38
-0.0190545917013 -0.0730426015218 0.858 1.06719836212e-38
-0.0173852791805 -0.072702076573 0.854 1.51916153803e-38
-0.015804799255 -0.072702076573 0.854 1.11365140622e-38
-0.0141743509946 -0.0724466828613 0.851 1.20559199976e-38
-0.0125698122412 -0.0722764203869 0.849 1.4355833332e-38
-0.0109467666971 -0.0719358954381 0.845 9.65600019564e-39
-0.00938294288323 -0.0719358954381 0.845 1.4906428722e-38
-0.00780061227866 -0.0717656329637 0.843 1.0760178544e-38
-0.00622568439037 -0.0715953704893 0.841 1.22403182638e-38
-0.00466926329278 -0.0715953704893 0.841 8.92382735323e-39
-0.00310543947891 -0.0714251080149 0.839 1.32512163773e-38
-0.00155271973945 -0.0714251080149 0.839 1.38065341431e-38
0.0 -0.0712548455405 0.837 1.47302700908e-38
0.00154901838131 -0.0712548455405 0.837 1.52780544761e-38
0.00309803676263 -0.0712548455405 0.837 1.53680963102e-38
0.00464705514394 -0.0712548455405 0.837 1.56446789959e-38
0.00619607352526 -0.0712548455405 0.837 1.56461139255e-38
0.00772658511588 -0.0710845830661 0.835 1.78609320094e-38
0.00927190213905 -0.0710845830661 0.835 1.5187299381e-38
0.0108172191622 -0.0710845830661 0.835 1.6289321131e-38
0.0123625361854 -0.0710845830661 0.835 1.59226980125e-38
0.0138745409853 -0.0709143205917 0.833 1.61074438007e-38
0.0154161566504 -0.0709143205917 0.833 1.66598917073e-38
0.0169577723154 -0.0709143205917 0.833 1.64747857854e-38
0.0184993879804 -0.0709143205917 0.833 1.69353981958e-38
0.0200410036455 -0.0709143205917 0.833 1.73956518738e-38
0.0215826193105 -0.0709143205917 0.833 1.72126983463e-38
0.0231242349755 -0.0709143205917 0.833 1.71194279205e-38
0.0247250723708 -0.0710845830661 0.835 1.80385045508e-38
0.026270389394 -0.0710845830661 0.835 1.76711583623e-38
0.0278157064172 -0.0710845830661 0.835 1.78566230166e-38
0.0293610234403 -0.0710845830661 0.835 1.76743869539e-38
0.0309803676263 -0.0712548455405 0.837 1.84151974001e-38
0.0325293860076 -0.0712548455405 0.837 1.93425865329e-38
0.0340784043889 -0.0712548455405 0.837 1.82398487194e-38
0.0357125540074 -0.0714251080149 0.839 1.63906083853e-38
0.0373541063422 -0.0715953704893 0.841 1.39597128808e-38
0.0390030613933 -0.0717656329637 0.843 2.19169946183e-38
0.040563183849 -0.0717656329637 0.843 1.06557874136e-38
0.0422232429745 -0.0719358954381 0.845 1.59036936027e-38
0.0440979808721 -0.0724466828613 0.851 1.54502922742e-38
0.0456729087604 -0.0724466828613 0.851 1.2777712021e-38
0.0472478366487 -0.0724466828613 0.851 1.62814626492e-38
0.048822764537 -0.0724466828613 0.851 2.228855311e-38
0.0503976924253 -0.0724466828613 0.851 2.34882187383e-38
-0.0239292803708 -0.0717878411125 0.862 2.17379605226e-38
-0.0223339950128 -0.0717878411125 0.862 2.29368638445e-38
-0.0207387096547 -0.0717878411125 0.862 2.28461129534e-38
-0.0190545917013 -0.07145471888 0.858 1.12262237885e-38
-0.01742599412 -0.0712881577637 0.856 1.44537154311e-38
-0.015804799255 -0.0711215966475 0.854 1.29822189202e-38
-0.0142243193295 -0.0711215966475 0.854 1.07659182625e-38
-0.0125994231063 -0.0708717549731 0.851 1.24153768758e-38
-0.0109985857111 -0.0707051938568 0.849 1.41738859368e-38
-0.00940515103207 -0.0705386327405 0.847 1.52809243353e-38
-0.00781911906936 -0.0703720716242 0.845 1.0852731505e-38
-0.00624048982293 -0.070205510508 0.843 1.3526390758e-38
-0.0046803673672 -0.070205510508 0.843 1.1682479562e-38
-0.00311284219519 -0.0700389493917 0.841 1.22381560603e-38
-0.00155642109759 -0.0700389493917 0.841 1.05822837039e-38
0.0 -0.0698723882754 0.839 1.25172498728e-38
0.00155271973945 -0.0698723882754 0.839 1.62914735255e-38
0.00310543947891 -0.0698723882754 0.839 1.6474427053e-38
0.00465815921836 -0.0698723882754 0.839 1.55521260349e-38
0.00619607352526 -0.0697058271592 0.837 1.56439615311e-38
0.00774509190657 -0.0697058271592 0.837 1.65666212815e-38
0.00929411028789 -0.0697058271592 0.837 1.47292471429e-38
0.0108431286692 -0.0697058271592 0.837 1.59223378788e-38
0.0123625361854 -0.0695392660429 0.835 1.63829502892e-38
0.0139078532086 -0.0695392660429 0.835 1.63829502892e-38
0.0154531702318 -0.0695392660429 0.835 1.64751445178e-38
0.0169984872549 -0.0695392660429 0.835 1.63822328244e-38
0.0185438042781 -0.0695392660429 0.835 1.66577393129e-38
0.0200891213013 -0.0695392660429 0.835 1.70257987623e-38
0.0216344383245 -0.0695392660429 0.835 1.74882048348e-38
0.0231797553476 -0.0695392660429 0.835 1.7396728071e-38
0.0247250723708 -0.0695392660429 0.835 1.72112634167e-38
0.026270389394 -0.0695392660429 0.835 1.80413702062e-38
0.0278157064172 -0.0695392660429 0.835 1.77647875205e-38
0.029431349245 -0.0697058271592 0.837 1.86881745448e-38
0.0309803676263 -0.0697058271592 0.837 1.86006606531e-38
0.0325293860076 -0.0697058271592 0.837 1.95276588236e-38
0.034159834268 -0.0698723882754 0.839 1.95316875567e-38
0.0357125540074 -0.0698723882754 0.839 1.49137182766e-38
0.0373541063422 -0.0700389493917 0.841 1.50693016425e-38
0.0390030613933 -0.070205510508 0.843 1.80458515587e-38
0.0406594191607 -0.0703720716242 0.845 1.41437426056e-38
0.0424231163141 -0.0707051938568 0.849 1.5536341809e-38
0.0440979808721 -0.0708717549731 0.851 1.39740874005e-38
0.0456729087604 -0.0708717549731 0.851 1.31436064643e-38
0.0472478366487 -0.0708717549731 0.851 2.10778606641e-38
0.048822764537 -0.0708717549731 0.851 2.09063375282e-38
0.0503976924253 -0.0708717549731 0.851 2.34889305979e-38
-0.0223858140267 -0.0703554155126 0.864 2.25677085797e-38
-0.0207868273105 -0.0703554155126 0.864 2.34932872348e-38
-0.019099007999 -0.0700296959964 0.86 1.19648678273e-38
-0.0174667090596 -0.0698668362382 0.858 1.12272481377e-38
-0.0158418128364 -0.0697039764801 0.856 1.40871623775e-38
-0.0142243193295 -0.069541116722 0.854 1.54725981432e-38
-0.012643839404 -0.069541116722 0.854 1.18686616812e-38
-0.011024495218 -0.0692968270848 0.851 1.0852731505e-38
-0.0094273591809 -0.0691339673266 0.849 1.21495491558e-38
-0.00781911906936 -0.0688082478104 0.845 1.50032808667e-38
-0.00624048982293 -0.0686453880522 0.843 1.50958184134e-38
-0.0046803673672 -0.0686453880522 0.843 1.48170833332e-38
-0.00311284219519 -0.0684825282941 0.841 1.15020371614e-38
-0.00155642109759 -0.0684825282941 0.841 1.00316014334e-38
0.0 -0.0684825282941 0.841 1.36210694887e-38
0.00155271973945 -0.068319668536 0.839 1.29742749592e-38
0.00310543947891 -0.068319668536 0.839 1.28871029843e-38
0.00465815921836 -0.068319668536 0.839 1.56497068548e-38
0.00621087895782 -0.068319668536 0.839 1.59219791464e-38
0.00774509190657 -0.0681568087778 0.837 1.66570218481e-38
0.00929411028789 -0.0681568087778 0.837 1.50965905288e-38
0.0108431286692 -0.0681568087778 0.837 1.6289321131e-38
0.0123921470505 -0.0681568087778 0.837 1.62889623986e-38
0.0139078532086 -0.0679939490197 0.835 1.62900385958e-38
0.0154531702318 -0.0679939490197 0.835 1.6474427053e-38
0.0169984872549 -0.0679939490197 0.835 1.65655450843e-38
0.0185438042781 -0.0679939490197 0.835 1.6749574809e-38
0.0200891213013 -0.0679939490197 0.835 1.69353981958e-38
0.0216862573384 -0.0681568087778 0.837 1.6936474393e-38
0.0232352757197 -0.0681568087778 0.837 1.74882048348e-38
0.024784294101 -0.0681568087778 0.837 1.71183517233e-38
0.0263333124823 -0.0681568087778 0.837 1.73952931414e-38
0.0278823308637 -0.0681568087778 0.837 1.88711182632e-38
0.029431349245 -0.0681568087778 0.837 1.78591341435e-38
0.0309803676263 -0.0681568087778 0.837 1.89683711793e-38
0.0325293860076 -0.0681568087778 0.837 1.94336681305e-38
0.034159834268 -0.068319668536 0.839 2.00830606674e-38
0.0357976852446 -0.0684825282941 0.841 1.43630093815e-38
0.0374429389376 -0.0686453880522 0.843 1.33201056111e-38
0.0390955953468 -0.0688082478104 0.845 1.60160777396e-38
0.0407556544723 -0.0689711075685 0.847 1.49781597891e-38
0.0424231163141 -0.0691339673266 0.849 1.43414251812e-38
0.0440979808721 -0.0692968270848 0.851 1.36957054476e-38
0.0456729087604 -0.0692968270848 0.851 1.34176920361e-38
0.0472478366487 -0.0692968270848 0.851 2.29217886756e-38
0.048822764537 -0.0692968270848 0.851 2.14555456327e-38
-0.0225153615616 -0.0691543247964 0.869 2.23829711992e-38
-0.0207868273105 -0.0687564287964 0.864 2.32145269313e-38
-0.019099007999 -0.0684381119964 0.86 1.19652209545e-38
-0.0174667090596 -0.0682789535964 0.858 1.37154259208e-38
-0.0158418128364 -0.0681197951965 0.856 1.04018132773e-38
-0.0142576315527 -0.0681197951965 0.856 1.31679904589e-38
-0.012643839404 -0.0679606367965 0.854 1.63926360642e-38
-0.011024495218 -0.0677218991965 0.851 1.3071132709e-38
-0.00944956732974 -0.0677218991965 0.851 1.04900530416e-38
-0.00781911906936 -0.0672444239965 0.845 1.29742861696e-38
-0.00625529525549 -0.0672444239965 0.845 1.2610879031e-38
-0.00469147144162 -0.0672444239965 0.845 1.40874216177e-38
-0.00312764762774 -0.0672444239965 0.845 1.26115964958e-38
-0.00156012245573 -0.0670852655965 0.843 1.17771849174e-38
0.0 -0.0669261071965 0.841 1.343345244e-38
0.00155642109759 -0.0669261071965 0.841 1.03070995141e-38
0.00311284219519 -0.0669261071965 0.841 9.48416737275e-39
0.00466926329278 -0.0669261071965 0.841 1.46402310593e-38
0.00622568439037 -0.0669261071965 0.841 1.63851026837e-38
0.00776359869727 -0.0667669487965 0.839 1.65662625491e-38
0.00931631843672 -0.0667669487965 0.839 1.52817048586e-38
0.0108690381762 -0.0667669487965 0.839 1.66573805805e-38
0.0123921470505 -0.0666077903965 0.837 1.61045739415e-38
0.0139411654318 -0.0666077903965 0.837 1.64751445178e-38
0.0154901838131 -0.0666077903965 0.837 1.63829502892e-38
0.0170392021945 -0.0666077903965 0.837 1.70279511568e-38
0.0185882205758 -0.0666077903965 0.837 1.73027401804e-38
0.0201372389571 -0.0666077903965 0.837 1.67502922738e-38
0.0216862573384 -0.0666077903965 0.837 1.70283098892e-38
0.0232352757197 -0.0666077903965 0.837 1.73038163776e-38
0.024784294101 -0.0666077903965 0.837 1.74885635672e-38
0.0263962355707 -0.0667669487965 0.839 1.76718758271e-38
0.0279489553102 -0.0667669487965 0.839 1.7856981749e-38
0.0295016750496 -0.0667669487965 0.839 1.79509696396e-38
0.0310543947891 -0.0667669487965 0.839 1.91509295406e-38
0.0326848430495 -0.0669261071965 0.841 1.96155538685e-38
0.0343226940261 -0.0670852655965 0.843 2.06340456184e-38
0.0358828164819 -0.0670852655965 0.843 1.53736048145e-38
0.0375317715329 -0.0672444239965 0.845 1.12039305313e-38
0.0391881293003 -0.0674035823965 0.847 1.66567780221e-38
0.0409481250955 -0.0677218991965 0.851 1.34151570872e-38
0.0425230529838 -0.0677218991965 0.851 1.40644837631e-38
0.044253437914 -0.0679606367965 0.854 1.48009964269e-38
0.0456729087604 -0.0677218991965 0.851 1.50761119531e-38
0.0472478366487 -0.0677218991965 0.851 2.1731821434e-38
0.048822764537 -0.0677218991965 0.851 2.24653815619e-38
-0.0225153615616 -0.0675460846849 0.869 2.29357974564e-38
-0.0208590037943 -0.067390627643 0.867 2.34925543557e-38
-0.0191434242967 -0.0670019850384 0.862 1.35325424583e-38
-0.0175481389386 -0.0670019850384 0.862 1.19645203052e-38
-0.0158788264178 -0.0666910709547 0.858 1.23350152114e-38
-0.0142576315527 -0.0665356139128 0.856 1.06801812172e-38
-0.0126734502691 -0.0665356139128 0.856 1.13244814356e-38
-0.0110633594785 -0.066380156871 0.854 1.58395631785e-38
-0.00944956732974 -0.0661469713082 0.851 1.44551461568e-38
-0.00787463944145 -0.0661469713082 0.851 1.20541263356e-38
-0.0062849061206 -0.0659915142663 0.849 1.06740827663e-38
-0.00470257551603 -0.0658360572245 0.847 9.75393414272e-39
-0.00313505034402 -0.0658360572245 0.847 1.34377572288e-38
-0.00156382381387 -0.0656806001826 0.845 1.43579058525e-38
0.0 -0.0656806001826 0.845 1.53752709583e-38
0.00156012245573 -0.0655251431408 0.843 1.35324625842e-38
0.00312024491147 -0.0655251431408 0.843 1.16853494213e-38
0.0046803673672 -0.0655251431408 0.843 1.16770985759e-38
0.00624048982293 -0.0655251431408 0.843 1.19533225292e-38
0.00778210548797 -0.0653696860989 0.841 1.785343226e-38
0.00933852658556 -0.0653696860989 0.841 1.54653674431e-38
0.0108949476832 -0.0653696860989 0.841 1.65651863519e-38
0.0124217579156 -0.0652142290571 0.839 1.62918322579e-38
0.0139744776551 -0.0652142290571 0.839 1.65684149436e-38
0.0154901838131 -0.0650587720152 0.837 1.66598917073e-38
0.0170392021945 -0.0650587720152 0.837 1.68435626996e-38
0.0185882205758 -0.0650587720152 0.837 1.69350394634e-38
0.0201372389571 -0.0650587720152 0.837 1.67502922738e-38
0.0216862573384 -0.0650587720152 0.837 1.73034576452e-38
0.0232352757197 -0.0650587720152 0.837 1.73960106062e-38
0.0248435158313 -0.0652142290571 0.839 1.74882048348e-38
0.0263962355707 -0.0652142290571 0.839 1.78566230166e-38
0.0280155797567 -0.0653696860989 0.841 1.77647875205e-38
0.0295720008543 -0.0653696860989 0.841 1.78587754111e-38
0.0312024491147 -0.0655251431408 0.843 1.87800002319e-38
0.0327625715704 -0.0655251431408 0.843 1.86907108951e-38
0.0344041239052 -0.0656806001826 0.845 2.13697567394e-38
0.0360530789563 -0.0658360572245 0.847 1.65717430274e-38
0.0376206041283 -0.0658360572245 0.847 1.05610820582e-38
0.0392806632538 -0.0659915142663 0.849 1.71112555479e-38
0.0409481250955 -0.0661469713082 0.851 1.26783263287e-38
0.0426729579885 -0.066380156871 0.854 1.48917024765e-38
0.044253437914 -0.066380156871 0.854 1.1940766895e-38
0.0458339178395 -0.066380156871 0.854 2.1437302128e-38
0.047414397765 -0.066380156871 0.854 2.1270431303e-38
0.0489948776905 -0.066380156871 0.854 2.20054768072e-38
-0.0225153615616 -0.0659378445733 0.869 2.20152676796e-38
-0.0209071214501 -0.0659378445733 0.869 2.34918340883e-38
-0.0191878405943 -0.065558455364 0.864 1.08595992687e-38
-0.0175888538782 -0.065558455364 0.864 1.55608280984e-38
-0.0159158399992 -0.0652549439966 0.86 1.10457295398e-38
-0.014290943776 -0.0651031883129 0.858 1.16939618017e-38
-0.0126734502691 -0.0649514326292 0.856 9.94262738873e-39
-0.0110633594785 -0.0647996769455 0.854 1.18736839349e-38
-0.00948287955299 -0.0647996769455 0.854 1.6296513996e-38
-0.00787463944145 -0.0645720434199 0.851 1.64838732059e-38
-0.00629971155316 -0.0645720434199 0.851 1.261164414e-38
-0.00471367959045 -0.0644202877362 0.849 1.20573549272e-38
-0.00313505034402 -0.0642685320525 0.847 1.14998847669e-38
-0.00156752517201 -0.0642685320525 0.847 1.18708154769e-38
0.0 -0.0641167763688 0.845 1.01209173949e-38
0.00156382381387 -0.0641167763688 0.845 1.57393843513e-38
0.00312764762774 -0.0641167763688 0.845 1.49128648859e-38
0.00469147144162 -0.0641167763688 0.845 1.50086464385e-38
0.00624048982293 -0.063965020685 0.843 1.43632868386e-38
0.00780061227866 -0.063965020685 0.843 1.72148619511e-38
0.0093607347344 -0.063965020685 0.843 1.62961636714e-38
0.0109208571901 -0.063965020685 0.843 1.67510097387e-38
0.0124513687807 -0.0638132650013 0.841 1.65676974788e-38
0.0140077898783 -0.0638132650013 0.841 1.64755032502e-38
0.0155271973945 -0.0636615093176 0.839 1.65669800139e-38
0.017079917134 -0.0636615093176 0.839 1.6474427053e-38
0.0186326368734 -0.0636615093176 0.839 1.71179929909e-38
0.0201853566129 -0.0636615093176 0.839 1.69353981958e-38
0.0217380763524 -0.0636615093176 0.839 1.70279511568e-38
0.0232907960918 -0.0636615093176 0.839 1.72112634167e-38
0.0249027375615 -0.0638132650013 0.841 1.76715170947e-38
0.0264591586591 -0.0638132650013 0.841 1.77640700557e-38
0.0280822042032 -0.063965020685 0.843 1.80410114738e-38
0.0296423266589 -0.063965020685 0.843 1.78573404814e-38
0.0312764762774 -0.0641167763688 0.845 1.85034175462e-38
0.0328403000913 -0.0641167763688 0.845 1.8873286072e-38
0.0344855537843 -0.0642685320525 0.847 1.97974283962e-38
0.0361382101935 -0.0644202877362 0.849 1.85078036104e-38
0.037798269319 -0.0645720434199 0.851 1.03835095168e-38
0.0393731972073 -0.0645720434199 0.851 1.55284524987e-38
0.041092478063 -0.0647996769455 0.854 1.27662101632e-38
0.0427728946582 -0.0649514326292 0.856 1.46094010917e-38
0.0443570759419 -0.0649514326292 0.856 1.55291839765e-38
0.0459412572255 -0.0649514326292 0.856 2.32037243215e-38
0.0475254385092 -0.0649514326292 0.856 1.97927172308e-38
0.0491096197928 -0.0649514326292 0.856 2.31096397413e-38
-0.0225153615616 -0.0643296044618 0.869 2.22918475627e-38
-0.0209071214501 -0.0643296044618 0.869 2.34921984259e-38
-0.0192544650409 -0.0641815501362 0.867 1.1783699554e-38
-0.0175888538782 -0.0639594686478 0.864 1.41760761663e-38
-0.0159528535806 -0.0638114143223 0.862 1.31641144673e-38
-0.0143242559993 -0.0636633599967 0.86 1.09531765789e-38
-0.0127030611342 -0.0635153056711 0.858 1.21534952123e-38
-0.0110892689855 -0.0633672513455 0.856 1.20566374624e-38
-0.00950508770183 -0.0633672513455 0.856 1.09463606631e-38
-0.0079023996275 -0.06321919702 0.854 1.16875018157e-38
-0.006321919702 -0.06321919702 0.854 1.68500647245e-38
-0.00472478366487 -0.0629971155316 0.851 1.70352323036e-38
-0.0031424530603 -0.062849061206 0.849 1.49161229048e-38
-0.00156752517201 -0.0627010068805 0.847 1.28896141111e-38
0.0 -0.0627010068805 0.847 1.18679442164e-38
0.00156382381387 -0.0625529525549 0.845 1.33315724364e-38
0.00312764762774 -0.0625529525549 0.845 1.26069455862e-38
0.00469147144162 -0.0625529525549 0.845 1.01295269727e-38
0.00625529525549 -0.0625529525549 0.845 1.06744414987e-38
0.00780061227866 -0.0624048982293 0.843 1.7859155163e-38
0.0093607347344 -0.0624048982293 0.843 1.54664674624e-38
0.0109208571901 -0.0624048982293 0.843 1.62900385958e-38
0.0124513687807 -0.0622568439037 0.841 1.64755032502e-38
0.0140077898783 -0.0622568439037 0.841 1.64755032502e-38
