# .PCD v0.7 - Point Cloud Data file format
VERSION 0.7
FIELDS x y z rgb
SIZE 4 4 4 4
TYPE F F F F
COUNT 1 1 1 1
WIDTH 848
HEIGHT 1
VIEWPOINT 0 0 0 1 0 0 0
POINTS 848
DATA ascii
0.0566974039784 -0.0346484135424 0.851 2.34845963818e-38
0.0582723318667 -0.0346484135424 0.851 2.2920245846e-38
0.0601988887783 -0.03485198824 0.856 2.34697342102e-38
0.0617830700619 -0.03485198824 0.856 2.34722677579e-38
0.0636633599967 -0.0350148479982 0.86 2.34834080807e-38
0.0652549439966 -0.0350148479982 0.86 2.34863872412e-38
0.00318316799983 -0.0334232639983 0.86 1.84033410138e-38
0.00477475199975 -0.0334232639983 0.86 1.78501658333e-38
0.00635153056711 -0.0333455354773 0.858 1.83993851482e-38
0.0079023996275 -0.0331900784355 0.854 1.92280570081e-38
0.00948287955299 -0.0331900784355 0.854 1.93177401098e-38
0.0110633594785 -0.0331900784355 0.854 1.88553340373e-38
0.0125994231063 -0.0330734856541 0.851 1.90400812269e-38
0.0141743509946 -0.0330734856541 0.851 1.84887095175e-38
0.0157122653015 -0.0329957571332 0.849 1.82117680994e-38
0.0172427768921 -0.0329180286122 0.847 1.84861983907e-38
0.0187214694688 -0.0327625715704 0.843 1.87645747384e-38
0.0202334742687 -0.0326848430495 0.841 1.94081406763e-38
0.0217380763524 -0.0326071145285 0.839 1.93159464478e-38
0.0232907960918 -0.0326071145285 0.839 1.93152289829e-38
0.0248435158313 -0.0326071145285 0.839 1.98676768895e-38
0.0263333124823 -0.0325293860076 0.837 1.99580774561e-38
0.0278157064172 -0.0324516574867 0.835 2.0141389716e-38
0.0293610234403 -0.0324516574867 0.835 2.18941590585e-38
0.0309063404635 -0.0324516574867 0.835 6.97949770801e-39
0.0324516574867 -0.0324516574867 0.835 2.34870836865e-38
0.0339969745099 -0.0324516574867 0.835 1.87811058564e-38
0.035542291533 -0.0324516574867 0.835 1.39676049938e-38
0.0370876085562 -0.0324516574867 0.835 1.36949683646e-38
0.0386329255794 -0.0324516574867 0.835 1.8775761304e-38
0.0402744779142 -0.0325293860076 0.837 1.35245704713e-38
0.0418234962955 -0.0325293860076 0.837 1.82031585217e-38
0.0433725146768 -0.0325293860076 0.837 1.99609627296e-38
0.0449215330581 -0.0325293860076 0.837 2.30959126215e-38
0.0465815921836 -0.0326071145285 0.839 2.31870278503e-38
0.0482490540254 -0.0326848430495 0.841 2.17076154043e-38
0.049805475123 -0.0326848430495 0.841 2.34711915607e-38
0.0514840410392 -0.0327625715704 0.843 2.34881528773e-38
0.0530441634949 -0.0327625715704 0.843 2.34761984001e-38
0.0549929285553 -0.0329957571332 0.849 2.34815835901e-38
0.056897277318 -0.0331900784355 0.854 2.227333641e-38
0.0586147074946 -0.0332678069564 0.856 2.34744355666e-38
0.0603395403876 -0.0333455354773 0.858 1.85827324406e-38
0.0619274230293 -0.0333455354773 0.858 2.26389870274e-38
0.0636633599967 -0.0334232639983 0.86 2.34820165913e-38
0.0652549439966 -0.0334232639983 0.86 2.34860271075e-38
0.00319057071611 -0.0319057071611 0.862 1.90512019315e-38
0.00477475199975 -0.0318316799983 0.86 1.91390913712e-38
0.00635153056711 -0.0317576528356 0.858 1.87663684004e-38
0.00792090641819 -0.0316836256728 0.856 1.90429510861e-38
0.00948287955299 -0.03160959851 0.854 1.87667271328e-38
0.0110633594785 -0.03160959851 0.854 1.91333516527e-38
0.0125994231063 -0.0314985577658 0.851 1.90400812269e-38
0.0141743509946 -0.0314985577658 0.851 1.91322754554e-38
0.0157122653015 -0.031424530603 0.849 1.87652922032e-38
0.0172834918317 -0.031424530603 0.849 1.86709455802e-38
0.0188103020641 -0.0313505034402 0.847 1.89475282659e-38
0.0203297095803 -0.0312764762774 0.845 1.89478869983e-38
0.0218417143803 -0.0312024491147 0.843 1.98683943543e-38
0.023401836836 -0.0312024491147 0.843 1.96822122352e-38
0.0249027375615 -0.0311284219519 0.841 2.11583960894e-38
0.0263962355707 -0.0310543947891 0.839 1.99591536533e-38
0.0278823308637 -0.0309803676263 0.837 2.04183311341e-38
0.029431349245 -0.0309803676263 0.837 2.26327960907e-38
0.0309803676263 -0.0309803676263 0.837 6.52032022722e-39
0.0325293860076 -0.0309803676263 0.837 2.34892458901e-38
0.0340784043889 -0.0309803676263 0.837 9.19538778523e-39
0.0356274227702 -0.0309803676263 0.837 1.97673158935e-38
0.0371764411516 -0.0309803676263 0.837 2.02378887334e-38
0.0388179934863 -0.0310543947891 0.839 1.49752843247e-38
0.0404669485374 -0.0311284219519 0.841 2.14353669348e-38
0.042023369635 -0.0311284219519 0.841 2.34643770462e-38
0.0435797907326 -0.0311284219519 0.841 2.23551273987e-38
0.0451362118302 -0.0311284219519 0.841 2.21685865472e-38
0.046803673672 -0.0312024491147 0.843 2.18930800587e-38
0.0483637961277 -0.0312024491147 0.843 2.21682278148e-38
0.0499239185834 -0.0312024491147 0.843 2.3464718963e-38
0.0514840410392 -0.0312024491147 0.843 2.34907144509e-38
0.0532958558484 -0.0313505034402 0.847 2.04262989171e-38
0.0551224760902 -0.0314985577658 0.851 2.17998530732e-38
0.057030526211 -0.0316836256728 0.856 2.34632518036e-38
0.0588886079969 -0.0318316799983 0.86 2.3190683838e-38
0.0604801919968 -0.0318316799983 0.86 1.7120575584e-38
0.0620717759968 -0.0318316799983 0.86 2.16274190932e-38
0.0636633599967 -0.0318316799983 0.86 2.34841801961e-38
0.00478585607417 -0.0303104218031 0.862 1.96915645011e-38
0.00636633599967 -0.0302400959984 0.86 1.89489631955e-38
0.00793941320889 -0.0301697701938 0.858 1.93184575746e-38
0.00950508770183 -0.0300994443891 0.856 1.87652922032e-38
0.0110633594785 -0.0300291185845 0.854 1.96854408268e-38
0.012643839404 -0.0300291185845 0.854 1.87649334708e-38
0.0141743509946 -0.0299236298775 0.851 1.95032047641e-38
0.0157492788829 -0.0299236298775 0.851 1.96857995592e-38
0.0173242067712 -0.0299236298775 0.851 1.99609473153e-38
0.0188547183618 -0.0298533040729 0.849 1.87620888349e-38
0.0203778272361 -0.0297829782682 0.847 1.8856768967e-38
0.0218935333942 -0.0297126524636 0.845 1.95014111021e-38
0.0234573572081 -0.0297126524636 0.845 2.08807372065e-38
0.0249619592917 -0.0296423266589 0.843 2.03282892999e-38
0.0264591586591 -0.0295720008543 0.841 2.07899779076e-38
0.0279489553102 -0.0295016750496 0.839 2.10676367905e-38
0.0295016750496 -0.0295016750496 0.839 2.09747250971e-38
0.0310543947891 -0.0295016750496 0.839 1.00100690812e-38
0.0326848430495 -0.0295720008543 0.841 1.93199471549e-38
0.034159834268 -0.0295016750496 0.839 1.14844592734e-38
0.0357125540074 -0.0295016750496 0.839 2.26206916746e-38
0.0372652737469 -0.0295016750496 0.839 2.16200846971e-38
0.0390030613933 -0.0296423266589 0.843 2.33653178565e-38
0.0406594191607 -0.0297126524636 0.845 2.27210344537e-38
0.0422232429745 -0.0297126524636 0.845 2.34589470147e-38
0.0437870667884 -0.0297126524636 0.845 2.34689915221e-38
0.0453508906023 -0.0297126524636 0.845 2.32847375896e-38
0.0469147144162 -0.0297126524636 0.845 1.93238553763e-38
0.0485932803324 -0.0297829782682 0.847 2.17094090664e-38
0.0501608055044 -0.0297829782682 0.847 2.34665798874e-38
0.0517283306764 -0.0297829782682 0.847 2.06060000309e-38
0.0535475482019 -0.0299236298775 0.851 2.27239281351e-38
0.0554463449273 -0.0300994443891 0.856 2.34683399183e-38
0.057297023997 -0.0302400959984 0.86 2.0612076061e-38
0.0590255582481 -0.0303104218031 0.862 2.34924072194e-38
0.0606208436061 -0.0303104218031 0.862 1.49165306827e-38
0.0622161289642 -0.0303104218031 0.862 2.18145961343e-38
0.0638114143223 -0.0303104218031 0.862 2.34838172598e-38
0.0654066996803 -0.0303104218031 0.862 2.34859850685e-38
0.00636633599967 -0.0286485119985 0.86 1.87638572736e-38
0.00795791999959 -0.0286485119985 0.86 1.94074232115e-38
0.00950508770183 -0.0285152631055 0.856 1.9224469684e-38
0.0110633594785 -0.028448638659 0.854 1.9224469684e-38
0.012643839404 -0.028448638659 0.854 1.92248284164e-38
0.0142243193295 -0.028448638659 0.854 1.9779069985e-38
0.0157492788829 -0.0283487019892 0.851 1.97762001258e-38
0.0173242067712 -0.0283487019892 0.851 1.96850820944e-38
0.0188991346595 -0.0283487019892 0.851 1.93173813774e-38
0.020425944892 -0.0282820775427 0.849 1.98712642136e-38
0.0219971714221 -0.0282820775427 0.849 1.95950402603e-38
0.0235128775802 -0.0282154530962 0.847 1.96814947704e-38
0.0250804027522 -0.0282154530962 0.847 2.18916465304e-38
0.0265220817475 -0.0280822042032 0.843 2.07896345895e-38
0.0280822042032 -0.0280822042032 0.843 2.15253793417e-38
0.0296423266589 -0.0280822042032 0.843 2.06949138198e-38
0.0312024491147 -0.0280822042032 0.843 2.06938376225e-38
0.0327625715704 -0.0280822042032 0.843 1.80263034451e-38
0.0343226940261 -0.0280822042032 0.843 2.07910541048e-38
0.0358828164819 -0.0280822042032 0.843 2.31845167234e-38
0.0374429389376 -0.0280822042032 0.843 2.29061403757e-38
0.0390955953468 -0.0281488286497 0.845 1.8744844456e-38
0.0407556544723 -0.0282154530962 0.847 2.09431566453e-38
0.0423231796443 -0.0282154530962 0.847 2.13180320105e-38
0.0438907048163 -0.0282154530962 0.847 2.34508489108e-38
0.0454582299883 -0.0282154530962 0.847 2.34824481912e-38
0.0470257551603 -0.0282154530962 0.847 1.60185272093e-38
0.0487080224347 -0.0282820775427 0.849 2.12556672223e-38
0.0503976924253 -0.0283487019892 0.851 2.16222370915e-38
0.0519726203136 -0.0283487019892 0.851 2.34668629497e-38
0.053736317467 -0.028448638659 0.854 2.20858188534e-38
0.0555758924622 -0.028581887552 0.858 2.07924890344e-38
0.05743027289 -0.028715136445 0.862 2.34878151643e-38
0.0591625084992 -0.0287817608915 0.864 2.12772878563e-38
0.0606208436061 -0.028715136445 0.862 1.29771854561e-38
0.0622161289642 -0.028715136445 0.862 2.34774217336e-38
0.0638114143223 -0.028715136445 0.862 2.3485311044e-38
0.0654066996803 -0.028715136445 0.862 2.34819843614e-38
0.00492465700439 -0.0279063896916 0.887 1.98752509077e-38
0.00809672092981 -0.0275288511614 0.875 2.06070243801e-38
0.00959392029717 -0.0271827741753 0.864 1.97783525202e-38
0.0111669975064 -0.027119851087 0.862 1.95936053307e-38
0.0126734502691 -0.0269310818219 0.856 1.99616647801e-38
0.0142576315527 -0.0269310818219 0.856 2.02360950714e-38
0.015804799255 -0.0268681587335 0.854 2.11558849626e-38
0.0173852791805 -0.0268681587335 0.854 1.98669594247e-38
0.018965759106 -0.0268681587335 0.854 2.05119602923e-38
0.0204740625478 -0.0267737741009 0.851 1.95932465983e-38
0.0220489904361 -0.0267737741009 0.851 1.98676768895e-38
0.0235683979523 -0.0267108510126 0.849 2.09725727027e-38
0.0251396244824 -0.0267108510126 0.849 2.14299565214e-38
0.0265850048358 -0.0265850048358 0.845 2.11526563709e-38
0.0281488286497 -0.0265850048358 0.845 2.20731637269e-38
0.0297126524636 -0.0265850048358 0.845 2.19856330197e-38
0.0312764762774 -0.0265850048358 0.845 2.20760335862e-38
0.0328403000913 -0.0265850048358 0.845 2.26302751548e-38
0.0344041239052 -0.0265850048358 0.845 2.34819395199e-38
0.0360530789563 -0.0266479279242 0.847 2.10717411937e-38
0.0376206041283 -0.0266479279242 0.847 1.81841457041e-38
0.0392806632538 -0.0267108510126 0.849 2.1860099098e-38
0.0408518897839 -0.0267108510126 0.849 2.20516397825e-38
0.0424231163141 -0.0267108510126 0.849 1.89282183731e-38
0.0439943428442 -0.0267108510126 0.849 2.33733935395e-38
0.0456729087604 -0.0267737741009 0.851 1.80418284308e-38
0.047414397765 -0.0268681587335 0.854 1.39852137103e-38
0.0489948776905 -0.0268681587335 0.854 2.12618385408e-38
0.0506938010764 -0.0269310818219 0.856 2.34675790132e-38
0.0524001271787 -0.0269940049102 0.858 1.88614324883e-38
0.0539880098204 -0.0269940049102 0.858 1.66545107212e-38
0.0557054399971 -0.0270569279986 0.86 2.34946619086e-38
0.05743027289 -0.027119851087 0.862 2.16374762123e-38
0.059367933876 -0.0272771588079 0.867 2.08140788399e-38
0.0609724726294 -0.0272771588079 0.867 1.89622797348e-38
0.0625770113828 -0.0272771588079 0.867 2.3483888726e-38
0.0641815501362 -0.0272771588079 0.867 2.34859276153e-38
0.0032831046696 -0.0262648373568 0.887 2.08936515732e-38
0.00492465700439 -0.0262648373568 0.887 1.95064515727e-38
0.0065291957578 -0.0261167830312 0.882 1.97805049147e-38
0.00809672092981 -0.0259095069754 0.875 1.9777276323e-38
0.00969385696694 -0.0258502852452 0.873 2.01453357724e-38
0.0112835902878 -0.0257910635149 0.871 1.95950402603e-38
0.0128659208924 -0.0257318417847 0.869 2.00538590087e-38
0.0143575682225 -0.0255245657289 0.862 2.08825308686e-38
0.0158788264178 -0.0254061222684 0.858 2.05137539543e-38
0.0174667090596 -0.0254061222684 0.858 2.21754024629e-38
0.0190101754037 -0.0253469005382 0.856 2.06048719856e-38
0.0205462390315 -0.025287678808 0.854 2.125238398e-38
0.022126718957 -0.025287678808 0.854 2.05145022477e-38
0.0237071988825 -0.025287678808 0.854 2.14321089159e-38
0.025287678808 -0.025287678808 0.854 2.14331851131e-38
0.0268681587335 -0.025287678808 0.854 2.19849155549e-38
0.028448638659 -0.025287678808 0.854 2.29990520691e-38
0.0299236298775 -0.0251988462126 0.851 2.10633320016e-38
0.0314985577658 -0.0251988462126 0.851 2.29965409422e-38
0.0330734856541 -0.0251988462126 0.851 2.14303152538e-38
0.0346484135424 -0.0251988462126 0.851 2.34830227236e-38
0.0363510382865 -0.025287678808 0.854 2.34824481912e-38
0.037931518212 -0.025287678808 0.854 2.20019203117e-38
0.0395119981375 -0.025287678808 0.854 1.94149972297e-38
0.041092478063 -0.025287678808 0.854 1.95980138156e-38
0.0427728946582 -0.0253469005382 0.856 1.99660746664e-38
0.044253437914 -0.025287678808 0.854 1.61943032861e-38
0.0458339178395 -0.025287678808 0.854 1.62864989159e-38
0.0475254385092 -0.0253469005382 0.856 2.29199529747e-38
0.0491096197928 -0.0253469005382 0.856 2.21851625067e-38
0.0508122445369 -0.0254061222684 0.858 2.34708496438e-38
0.0525222719973 -0.0254653439987 0.86 7.80601717343e-39
0.0542397021739 -0.0255245657289 0.862 1.83234726065e-38
0.0559645350669 -0.0255837874591 0.864 2.01673894077e-38
0.0577633951226 -0.0256726200545 0.867 2.1271877443e-38
0.0595048841271 -0.0257318417847 0.869 1.71198469088e-38
0.0611131242387 -0.0257318417847 0.869 2.34755538028e-38
0.0627213643502 -0.0257318417847 0.869 2.34831250184e-38
0.0643296044618 -0.0257318417847 0.869 2.34812767057e-38
0.00492465700439 -0.024623285022 0.887 1.95983361143e-38
0.0065291957578 -0.0244844840917 0.882 1.98744956079e-38
0.00814298790655 -0.0244289637197 0.88 1.8856097745e-38
0.00974937733903 -0.0243734433476 0.878 1.97779937878e-38
0.0113354093017 -0.0242901627894 0.875 1.97779937878e-38
0.0129547534877 -0.0242901627894 0.875 2.02403998603e-38
0.0144741610039 -0.0241236016732 0.869 1.9871622946e-38
0.016045387534 -0.0240680813011 0.867 2.11598310191e-38
0.0175888538782 -0.0239848007429 0.864 2.02371712686e-38
0.019099007999 -0.0238737599988 0.86 2.20778272482e-38
0.0205943566873 -0.0237627192546 0.856 2.07899779076e-38
0.0221785379709 -0.0237627192546 0.856 2.17097677988e-38
0.0238182396267 -0.0238182396267 0.858 2.18952324531e-38
0.0253469005382 -0.0237627192546 0.856 2.11594722867e-38
0.0269310818219 -0.0237627192546 0.856 2.1895949918e-38
0.0285152631055 -0.0237627192546 0.856 2.14353375075e-38
0.0301697701938 -0.0238182396267 0.858 2.18912863967e-38
0.0316836256728 -0.0237627192546 0.856 2.19874266817e-38
0.0332678069564 -0.0237627192546 0.856 2.14346200427e-38
0.03485198824 -0.0237627192546 0.856 1.90372113676e-38
0.0364361695237 -0.0237627192546 0.856 1.80320431636e-38
0.0380203508073 -0.0237627192546 0.856 1.48099451189e-38
0.039604532091 -0.0237627192546 0.856 1.7022571572e-38
0.0411887133746 -0.0237627192546 0.856 1.88644200566e-38
0.042872831328 -0.0238182396267 0.858 2.28334578269e-38
0.0444607139698 -0.0238182396267 0.858 1.81336260919e-38
0.0461559359976 -0.0238737599988 0.86 1.58294640205e-38
0.0477475199975 -0.0238737599988 0.86 2.31002986857e-38
0.0494538460997 -0.0239292803708 0.862 2.34661216628e-38
0.0510491314578 -0.0239292803708 0.862 2.34682866689e-38
0.0527665616345 -0.0239848007429 0.864 1.21287426762e-38
0.0543655483507 -0.0239848007429 0.864 1.52807085354e-38
0.056288403904 -0.0241236016732 0.869 2.10015039108e-38
0.0580298929086 -0.0241791220453 0.871 1.56437064947e-38
0.0596418343783 -0.0241791220453 0.871 2.34795068657e-38
0.0613944274573 -0.0242346424173 0.873 2.3481653655e-38
0.0631544232525 -0.0242901627894 0.875 2.34827074314e-38
0.0647737674385 -0.0242901627894 0.875 2.34747900951e-38
0.0663931116244 -0.0242901627894 0.875 2.34845697571e-38
0.0032831046696 -0.0229817326872 0.887 1.96036820679e-38
0.00492465700439 -0.0229817326872 0.887 1.91398522762e-38
0.00655140390664 -0.0229299136732 0.885 1.87695969921e-38
0.00816149469725 -0.0228521851523 0.882 1.95053571586e-38
0.00977158548786 -0.0228003661383 0.88 1.90440272834e-38
0.0113742735622 -0.0227485471244 0.878 1.97794287174e-38
0.0129991697854 -0.0227485471244 0.878 1.97805049147e-38
0.0145074732272 -0.0225671805756 0.871 2.01471294345e-38
0.0160824011154 -0.0225153615616 0.869 2.10672780581e-38
0.017690641227 -0.0225153615616 0.869 1.99602298505e-38
0.0191878405943 -0.0223858140267 0.864 2.08800197417e-38
0.0207387096547 -0.0223339950128 0.862 2.09729314351e-38
0.0223339950128 -0.0223339950128 0.862 2.16179323026e-38
0.0239292803708 -0.0223339950128 0.862 2.08821721361e-38
0.0254653439987 -0.0222821759988 0.86 2.09740076323e-38
0.0270569279986 -0.0222821759988 0.86 2.28200459993e-38
0.0286485119985 -0.0222821759988 0.86 2.09750838295e-38
0.0303104218031 -0.0223339950128 0.862 2.12502315856e-38
0.0318316799983 -0.0222821759988 0.86 2.16186497674e-38
0.0333455354773 -0.0222303569849 0.858 2.16186497674e-38
0.0349334181191 -0.0222303569849 0.858 2.29100920374e-38
0.0365213007609 -0.0222303569849 0.858 2.16233132887e-38
0.0381091834027 -0.0222303569849 0.858 1.96908218129e-38
0.0396970660444 -0.0222303569849 0.858 2.06999360735e-38
0.0412849486862 -0.0222303569849 0.858 1.93166835308e-38
0.042872831328 -0.0222303569849 0.858 1.72030125713e-38
0.0445643519977 -0.0222821759988 0.86 1.98774397359e-38
0.0461559359976 -0.0222821759988 0.86 1.63790042327e-38
0.0478585607417 -0.0223339950128 0.862 1.88599975586e-38
0.0494538460997 -0.0223339950128 0.862 2.34715040502e-38
0.0510491314578 -0.0223339950128 0.862 2.32828094029e-38
0.0527665616345 -0.0223858140267 0.864 1.78484268219e-38
0.0545543176158 -0.0224635425477 0.867 1.24225963654e-38
0.0564179514389 -0.0225671805756 0.871 1.93320894061e-38
0.0581631418016 -0.0226189995895 0.873 2.34779920621e-38
0.0599157348806 -0.0226708186035 0.875 2.34773306492e-38
0.0615350790666 -0.0226708186035 0.875 2.3475517369e-38
0.0633709527037 -0.0227485471244 0.878 2.34722985864e-38
0.0651439032524 -0.0228003661383 0.88 2.34773586752e-38
0.067151890043 -0.0229299136732 0.885 2.34885144123e-38
0.0687897410197 -0.0229299136732 0.885 2.3509837971e-38
0.00329791010215 -0.021436415664 0.891 1.99699702761e-38
0.00492465700439 -0.0213401803524 0.887 1.96005053243e-38
0.00655140390664 -0.0212920626966 0.885 1.93249511917e-38
0.00816149469725 -0.0212198862128 0.882 1.92316443321e-38
0.00977158548786 -0.021171768557 0.88 2.00588812624e-38
0.0113742735622 -0.0211236509012 0.878 1.92276982757e-38
0.0129991697854 -0.0211236509012 0.878 1.94110105356e-38
0.0145740976737 -0.0210514744175 0.875 1.9871622946e-38
0.0161564282782 -0.0210033567617 0.873 2.08875531222e-38
0.0177313561665 -0.0209552391059 0.871 2.08907901217e-38
0.0192988813385 -0.0209071214501 0.869 1.94110105356e-38
0.0208590037943 -0.0208590037943 0.867 2.11598310191e-38
0.0224635425477 -0.0208590037943 0.867 2.06992186086e-38
0.0239848007429 -0.0207868273105 0.864 2.15278904685e-38
0.0255245657289 -0.0207387096547 0.862 2.07917715696e-38
0.027119851087 -0.0207387096547 0.862 2.09740076323e-38
0.028715136445 -0.0207387096547 0.862 2.20806971075e-38
0.0303807476077 -0.0207868273105 0.864 2.08843245306e-38
0.0319057071611 -0.0207387096547 0.862 2.18037556894e-38
0.0334232639983 -0.0206905919989 0.86 2.19856330197e-38
0.0350148479982 -0.0206905919989 0.86 2.12509490504e-38
0.0366064319981 -0.0206905919989 0.86 2.20799796427e-38
0.038198015998 -0.0206905919989 0.86 2.26335037465e-38
0.0397895999979 -0.0206905919989 0.86 2.11598310191e-38
0.0413811839978 -0.0206905919989 0.86 2.34751376171e-38
0.0429727679978 -0.0206905919989 0.86 2.34899941834e-38
0.0445643519977 -0.0206905919989 0.86 2.34928724505e-38
0.0462632753836 -0.0207387096547 0.862 1.74879483972e-38
0.0478585607417 -0.0207387096547 0.862 1.56421692703e-38
0.0494538460997 -0.0207387096547 0.862 2.34769789233e-38
0.0511675749183 -0.0207868273105 0.864 1.8585208535e-38
0.0527665616345 -0.0207868273105 0.864 1.64637029158e-38
0.0545543176158 -0.0208590037943 0.867 2.13550108757e-38
0.0564179514389 -0.0209552391059 0.871 2.34755285794e-38
0.0582963906946 -0.0210514744175 0.875 2.3475089973e-38
0.0601211602573 -0.0211236509012 0.878 2.34779780491e-38
0.0617460564805 -0.0211236509012 0.878 2.34776403362e-38
0.0635153056711 -0.021171768557 0.88 2.28247459544e-38
0.065291957578 -0.0212198862128 0.882 2.3477381096e-38
0.067151890043 -0.0212920626966 0.885 2.34849396999e-38
0.0687897410197 -0.0212920626966 0.885 2.35098183528e-38
0.00329791010215 -0.0197874606129 0.891 1.99717233005e-38
0.00493576107881 -0.0197430443153 0.889 1.92320128736e-38
0.00656620933919 -0.0196986280176 0.887 1.95086193814e-38
0.00818925488329 -0.0196542117199 0.885 1.75685833147e-38
0.0097937936367 -0.0195875872734 0.882 1.93210009313e-38
0.0114001830692 -0.0195431709757 0.88 1.93198925042e-38
0.0129991697854 -0.0194987546781 0.878 1.98712642136e-38
0.0145740976737 -0.0194321302315 0.875 1.99638171746e-38
0.0161934418596 -0.0194321302315 0.875 2.05184174756e-38
0.0177720711061 -0.0193877139339 0.873 2.34762376364e-38
0.0193432976362 -0.0193432976362 0.871 2.04345595716e-38
0.0209071214501 -0.0192988813385 0.869 2.07950001613e-38
0.0225153615616 -0.0192988813385 0.869 2.08868356574e-38
0.0240680813011 -0.0192544650409 0.867 2.125238398e-38
0.0255837874591 -0.0191878405943 0.864 2.12524204138e-38
0.0271827741753 -0.0191878405943 0.864 2.14342613103e-38
0.0287817608915 -0.0191878405943 0.864 2.09722139703e-38
0.0303807476077 -0.0191878405943 0.864 2.17097677988e-38
0.0319797343239 -0.0191878405943 0.864 2.13420670817e-38
0.0335009925192 -0.0191434242967 0.862 2.18927213263e-38
0.0350962778772 -0.0191434242967 0.862 2.14346200427e-38
0.0366915632353 -0.0191434242967 0.862 2.32774284168e-38
0.0382868485934 -0.0191434242967 0.862 2.28139461471e-38
0.0398821339514 -0.0191434242967 0.862 2.03282892999e-38
0.0414774193095 -0.0191434242967 0.862 2.2277007812e-38
0.0430727046675 -0.0191434242967 0.862 2.06214717672e-38
0.0446679900256 -0.0191434242967 0.862 1.61928795668e-38
0.0463706147697 -0.0191878405943 0.864 1.5538135471e-38
0.0479696014859 -0.0191878405943 0.864 1.56335765082e-38
0.0495685882021 -0.0191878405943 0.864 2.3466986264e-38
0.051345240109 -0.0192544650409 0.867 2.06106117041e-38
0.0529497788624 -0.0192544650409 0.867 2.34718683878e-38
0.0546801637925 -0.0192988813385 0.869 2.3474071229e-38
0.0566770465087 -0.0194321302315 0.875 2.3475089973e-38
0.0586295129272 -0.0195431709757 0.88 2.34689999299e-38
0.0602581105085 -0.0195431709757 0.88 2.3474380916e-38
0.0620273596991 -0.0195875872734 0.882 2.34819633419e-38
0.0636596586385 -0.0195875872734 0.882 2.34747858912e-38
0.0655140390664 -0.0196542117199 0.885 2.34831124067e-38
0.067151890043 -0.0196542117199 0.885 2.3489625642e-38
0.0687897410197 -0.0196542117199 0.885 2.35098365697e-38
0.00329791010215 -0.0181385055618 0.891 2.07099973964e-38
0.00494686515323 -0.0181385055618 0.891 1.90494559136e-38
0.00658101477175 -0.0180977906223 0.889 2.06145913918e-38
0.00820776167399 -0.0180570756828 0.887 1.75714545752e-38
0.00982710585995 -0.0180163607432 0.885 1.81281834486e-38
0.0114260925761 -0.0179552883339 0.882 1.87717493865e-38
0.0130287806505 -0.0179145733944 0.88 1.95053571586e-38
0.0146240660085 -0.0178738584549 0.878 2.00560114031e-38
0.0162489622317 -0.0178738584549 0.878 1.99638171746e-38
0.0178127860456 -0.0178127860456 0.875 1.97762001258e-38
0.0193877139339 -0.0177720711061 0.873 1.98709054812e-38
0.0210033567617 -0.0177720711061 0.873 2.23580070671e-38
0.0225671805756 -0.0177313561665 0.871 1.96893868833e-38
0.0241236016732 -0.017690641227 0.869 2.06059481829e-38
0.0257318417847 -0.017690641227 0.869 2.18026794922e-38
0.0272771588079 -0.0176499262875 0.867 2.15282492009e-38
0.0288816975613 -0.0176499262875 0.867 2.11598310191e-38
0.0304862363147 -0.0176499262875 0.867 2.15275317361e-38
0.0320907750681 -0.0176499262875 0.867 2.18030382246e-38
0.0335787210401 -0.0175888538782 0.864 2.24466041625e-38
0.0351777077563 -0.0175888538782 0.864 2.30015631959e-38
0.0367766944725 -0.0175888538782 0.864 2.2171097674e-38
0.0385089300817 -0.0176499262875 0.867 2.34628930711e-38
0.0401134688351 -0.0176499262875 0.867 1.80216399238e-38
0.0417180075885 -0.0176499262875 0.867 1.91268944693e-38
0.0431726413373 -0.0175888538782 0.864 2.03333157575e-38
0.0447716280535 -0.0175888538782 0.864 2.09844108721e-38
0.0463706147697 -0.0175888538782 0.864 2.18116478023e-38
0.0481361626021 -0.0176499262875 0.867 2.24566486699e-38
0.0498554434579 -0.017690641227 0.869 2.34690013312e-38
0.0514636835694 -0.017690641227 0.869 2.34729389798e-38
0.053071923681 -0.017690641227 0.869 2.3463610536e-38
0.0550577023227 -0.0178127860456 0.875 2.3465404198e-38
0.0570009153459 -0.0179145733944 0.88 2.3476883635e-38
0.0587627618202 -0.0179552883339 0.882 2.3474380916e-38
0.0603950607596 -0.0179552883339 0.882 2.34768948454e-38
0.062238337113 -0.0180163607432 0.885 2.34729571967e-38
0.0638761880897 -0.0180163607432 0.885 2.34701279751e-38
0.0656620933919 -0.0180570756828 0.887 2.347558323e-38
0.0673036457267 -0.0180570756828 0.887 2.34896158329e-38
0.0689451980615 -0.0180570756828 0.887 2.35098085437e-38
0.00329791010215 -0.0164895505108 0.891 2.07096764991e-38
0.00494686515323 -0.0164895505108 0.891 1.87710501386e-38
0.00658101477175 -0.0164525369294 0.889 1.97841104556e-38
0.00822626846469 -0.0164525369294 0.889 1.93195337718e-38
0.00984931400879 -0.016415523348 0.887 1.61903109867e-38
0.0114649568366 -0.0163785097666 0.885 1.72030630181e-38
0.0130583915156 -0.0163229893945 0.882 1.90526368611e-38
0.014690690455 -0.0163229893945 0.882 1.98766578114e-38
0.0162859758131 -0.0162859758131 0.88 2.02425522547e-38
0.0179145733944 -0.0162859758131 0.88 2.06088180421e-38
0.0194987546781 -0.0162489622317 0.878 2.14356962399e-38
0.0210514744175 -0.0161934418596 0.875 2.1158037357e-38
0.0226189995895 -0.0161564282782 0.873 2.05144714191e-38
0.0242346424173 -0.0161564282782 0.873 2.13452956734e-38
0.0257910635149 -0.0161194146968 0.871 2.21764786601e-38
0.0273400818963 -0.0160824011154 0.869 2.06098942393e-38
0.0289483220078 -0.0160824011154 0.869 2.16254656832e-38
0.0305565621193 -0.0160824011154 0.869 2.15311190602e-38
0.0321648022309 -0.0160824011154 0.869 2.19888616113e-38
0.0337730423424 -0.0160824011154 0.869 2.17101643663e-38
0.035381282454 -0.0160824011154 0.869 2.25387983911e-38
0.0369895225655 -0.0160824011154 0.869 2.18055493514e-38
0.0385977626771 -0.0160824011154 0.869 2.16204434295e-38
0.0402060027886 -0.0160824011154 0.869 2.25441793772e-38
0.0418142429001 -0.0160824011154 0.869 2.29140324886e-38
0.0434224830117 -0.0160824011154 0.869 2.17162249821e-38
0.0450307231232 -0.0160824011154 0.869 2.34675565924e-38
0.0466389632348 -0.0160824011154 0.869 2.34715138593e-38
0.0482472033463 -0.0160824011154 0.869 2.28218382601e-38
0.0498554434579 -0.0160824011154 0.869 2.29111626294e-38
0.0515821270299 -0.0161194146968 0.871 2.3096628685e-38
0.0531940684996 -0.0161194146968 0.871 2.34679475547e-38
0.0553723177646 -0.0162859758131 0.88 2.34711439165e-38
0.0573247841831 -0.0163785097666 0.885 2.34704572803e-38
0.0589626351597 -0.0163785097666 0.885 2.34675650002e-38
0.0606004861364 -0.0163785097666 0.885 2.34772423674e-38
0.0623789887223 -0.016415523348 0.887 2.3474043203e-38
0.0640205410571 -0.016415523348 0.887 2.34762460442e-38
0.0656620933919 -0.016415523348 0.887 2.34759237456e-38
0.0673036457267 -0.016415523348 0.887 2.34928752531e-38
0.00330901417657 -0.0148905637946 0.894 2.0895519504e-38
0.00496352126486 -0.0148905637946 0.894 1.89568651176e-38
0.00659582020431 -0.0148405954597 0.891 2.1260276093e-38
0.00822626846469 -0.0148072832364 0.889 1.8032401896e-38
0.00987152215763 -0.0148072832364 0.889 1.80349130228e-38
0.0114908663436 -0.0147739710132 0.887 1.66498471999e-38
0.0131028078133 -0.0147406587899 0.885 1.61942570432e-38
0.0147406587899 -0.0147406587899 0.885 1.87692382597e-38
0.0163229893945 -0.014690690455 0.882 1.95078682854e-38
0.0179552883339 -0.014690690455 0.882 1.9326023185e-38
0.0195875872734 -0.014690690455 0.882 2.05202111376e-38
0.0211236509012 -0.0146240660085 0.878 2.20806971075e-38
0.0226708186035 -0.0145740976737 0.875 2.14353375075e-38
0.0242901627894 -0.0145740976737 0.875 2.10694304525e-38
0.0258502852452 -0.0145407854504 0.873 2.09768774916e-38
0.0274030049846 -0.0145074732272 0.871 2.09768774916e-38
0.0290149464543 -0.0145074732272 0.871 2.16254656832e-38
0.030626887924 -0.0145074732272 0.871 2.13470893354e-38
0.0322388293937 -0.0145074732272 0.871 2.23587147228e-38
0.0338507708634 -0.0145074732272 0.871 2.14331851131e-38
0.035462712333 -0.0145074732272 0.871 2.30944748893e-38
0.0371597850399 -0.0145407854504 0.873 2.09779691031e-38
0.0387754278677 -0.0145407854504 0.873 2.3467559395e-38
0.0402985367421 -0.0145074732272 0.871 2.17173011793e-38
0.0419104782118 -0.0145074732272 0.871 2.17173011793e-38
0.0435224196815 -0.0145074732272 0.871 2.16229545563e-38
0.0451343611511 -0.0145074732272 0.871 2.29147499535e-38
0.0467463026208 -0.0145074732272 0.871 2.34668391276e-38
0.0483582440905 -0.0145074732272 0.871 2.34725788461e-38
0.0499701855602 -0.0145074732272 0.871 2.33735687018e-38
0.0517005704903 -0.0145407854504 0.873 2.34736550434e-38
0.0536215753646 -0.0146240660085 0.878 2.346719786e-38
0.0556869332064 -0.0147406587899 0.885 2.33746448991e-38
0.0574543317179 -0.0147739710132 0.887 2.34700845349e-38
0.0590958840527 -0.0147739710132 0.887 2.34690041337e-38
0.0607374363875 -0.0147739710132 0.887 2.34711677386e-38
0.0625196403316 -0.0148072832364 0.889 2.34765921649e-38
0.0641648940246 -0.0148072832364 0.889 2.27325321076e-38
0.0658101477175 -0.0148072832364 0.889 2.34791859684e-38
0.0674554014104 -0.0148072832364 0.889 2.34888787499e-38
0.00332381960913 -0.0132952784365 0.898 1.99735828236e-38
0.00498572941369 -0.0132952784365 0.898 2.05255921237e-38
0.00661802835314 -0.0132360567063 0.894 1.97837447167e-38
0.00827253544143 -0.0132360567063 0.894 1.81228108703e-38
0.00989373030646 -0.0131916404086 0.891 1.70197003114e-38
0.0115167758506 -0.0131620295435 0.889 1.77551017455e-38
0.0131324186784 -0.0131324186784 0.887 1.44382619116e-38
0.0147739710132 -0.0131324186784 0.887 1.85841379429e-38
0.0163785097666 -0.0131028078133 0.885 1.77576128723e-38
0.0180163607432 -0.0131028078133 0.885 1.64690502708e-38
0.0195875872734 -0.0130583915156 0.882 1.84011788103e-38
0.021171768557 -0.0130287806505 0.88 2.34675818158e-38
0.0227485471244 -0.0129991697854 0.878 1.93210009313e-38
0.0243734433476 -0.0129991697854 0.878 2.15321952574e-38
0.0259095069754 -0.0129547534877 0.875 2.18102128727e-38
0.027465928073 -0.0129251426226 0.873 2.17158662497e-38
0.0290815709008 -0.0129251426226 0.873 2.04251470498e-38
0.0306972137286 -0.0129251426226 0.873 2.18988197772e-38
0.0323128565565 -0.0129251426226 0.873 2.23633782441e-38
0.0340062279052 -0.0129547534877 0.875 2.07953588937e-38
0.0356255720912 -0.0129547534877 0.875 2.27343075528e-38
0.0372449162771 -0.0129547534877 0.875 2.19935251326e-38
0.0388642604631 -0.0129547534877 0.875 2.19931664002e-38
0.0403910706956 -0.0129251426226 0.873 2.2639243465e-38
0.0420067135234 -0.0129251426226 0.873 2.20893066853e-38
0.0436223563512 -0.0129251426226 0.873 2.31884627799e-38
0.0453416372069 -0.0129547534877 0.875 2.20824907695e-38
0.0469609813929 -0.0129547534877 0.875 2.34646895358e-38
0.0484692848347 -0.0129251426226 0.873 2.34682740572e-38
0.0500849276625 -0.0129251426226 0.873 2.34679447521e-38
0.0519966791415 -0.0129991697854 0.878 2.346719786e-38
0.0538658650018 -0.0130583915156 0.882 2.04212009933e-38
0.0558127793831 -0.0131324186784 0.887 2.3468634191e-38
0.0574543317179 -0.0131324186784 0.887 2.34747312406e-38
0.0592291329458 -0.0131620295435 0.889 2.3463610536e-38
0.0608743866387 -0.0131620295435 0.889 2.34780719361e-38
0.0625196403316 -0.0131620295435 0.889 2.20861719806e-38
0.0641648940246 -0.0131620295435 0.889 2.34773558726e-38
0.00334232639983 -0.0116981423994 0.903 2.05234929786e-38
0.00501348959974 -0.0116981423994 0.903 1.9601856176e-38
0.0066328337857 -0.011607459125 0.896 2.01532432997e-38
0.00829104223213 -0.011607459125 0.896 2.04283854505e-38
0.00992704252972 -0.011581549618 0.894 1.85848806311e-38
0.0115167758506 -0.0115167758506 0.889 1.73848899016e-38
0.0131324186784 -0.0114908663436 0.887 1.71144056668e-38
0.0147739710132 -0.0114908663436 0.887 1.81271072514e-38
0.016415523348 -0.0114908663436 0.887 1.58165118188e-38
0.0180570756828 -0.0114908663436 0.887 1.63750581763e-38
0.0196542117199 -0.0114649568366 0.885 1.53569756056e-38
0.0212198862128 -0.0114260925761 0.882 1.9413552491e-38
0.0228003661383 -0.0114001830692 0.88 1.77554604779e-38
0.0244289637197 -0.0114001830692 0.88 1.88556927698e-38
0.0259983395707 -0.0113742735622 0.878 2.0699577341e-38
0.0275288511614 -0.0113354093017 0.875 2.1805190619e-38
0.0291481953473 -0.0113354093017 0.875 2.34686454013e-38
0.0308730282403 -0.0113742735622 0.878 2.19020707896e-38
0.0324979244634 -0.0113742735622 0.878 2.21782723222e-38
0.0341228206866 -0.0113742735622 0.878 2.13492417299e-38
0.0357477169098 -0.0113742735622 0.878 2.04280169091e-38
0.0373726131329 -0.0113742735622 0.878 2.2818250936e-38
0.0389975093561 -0.0113742735622 0.878 2.26374498029e-38
0.0404836046491 -0.0113354093017 0.875 2.23626607793e-38
0.042102948835 -0.0113354093017 0.875 2.34682740572e-38
0.0438721980256 -0.0113742735622 0.878 2.3468658013e-38
0.0454970942488 -0.0113742735622 0.878 2.34686327897e-38
0.047229329858 -0.0114001830692 0.88 2.300515052e-38
0.0487468866951 -0.0113742735622 0.878 2.17155075173e-38
0.0503717829183 -0.0113742735622 0.878 2.03315178916e-38
0.0522335660624 -0.0114260925761 0.882 2.0699577341e-38
0.0541712270483 -0.0114908663436 0.887 2.27274972423e-38
0.0559386255599 -0.0115167758506 0.889 2.34693502545e-38
0.0575838792528 -0.0115167758506 0.889 2.24509089514e-38
0.0593623818388 -0.0115426853575 0.891 2.34751123938e-38
0.00501348959974 -0.0100269791995 0.903 1.95082634516e-38
0.00664763921826 -0.00997145882739 0.898 1.99688534412e-38
0.00829104223213 -0.00994925067855 0.896 1.9138015174e-38
0.00994925067855 -0.00994925067855 0.896 1.95060746234e-38
0.011607459125 -0.00994925067855 0.896 2.02429109871e-38
0.0132360567063 -0.00992704252972 0.894 1.56378630802e-38
0.0148405954597 -0.00989373030646 0.891 1.83064734548e-38
0.0164525369294 -0.00987152215763 0.889 1.90454734234e-38
0.0180977906223 -0.00987152215763 0.889 1.72987941239e-38
0.0196986280176 -0.00984931400879 0.887 1.70171891846e-38
0.0212920626966 -0.00982710585995 0.885 1.75699958235e-38
0.0229299136732 -0.00982710585995 0.885 1.75678434291e-38
0.0244844840917 -0.0097937936367 0.882 1.84887095175e-38
0.0261167830312 -0.0097937936367 0.882 1.91337103851e-38
0.0277490819706 -0.0097937936367 0.882 2.2726796593e-38
0.0293147564636 -0.00977158548786 0.88 2.09783124212e-38
0.0309433540449 -0.00977158548786 0.88 2.16197259647e-38
0.0325719516262 -0.00977158548786 0.88 2.28196858656e-38
0.0342005492075 -0.00977158548786 0.88 2.16200846971e-38
0.0358291467888 -0.00977158548786 0.88 2.17158662497e-38
0.0374577443701 -0.00977158548786 0.88 2.30951923541e-38
0.0390863419515 -0.00977158548786 0.88 2.18066255486e-38
0.0407149395328 -0.00977158548786 0.88 2.13485242651e-38
0.0423435371141 -0.00977158548786 0.88 2.07045995947e-38
0.0439721346954 -0.00977158548786 0.88 2.12556125717e-38
0.0456007322767 -0.00977158548786 0.88 2.11573198922e-38
0.047229329858 -0.00977158548786 0.88 1.94081406763e-38
0.0489689681835 -0.0097937936367 0.882 1.96901043481e-38
0.0506012671229 -0.0097937936367 0.882 2.14446645501e-38
0.052648118174 -0.00987152215763 0.889 2.34675565924e-38
0.0542933718669 -0.00987152215763 0.889 2.34650454656e-38
0.0560644717366 -0.00989373030646 0.891 2.23565623284e-38
0.05790774809 -0.00992704252972 0.894 2.34790374308e-38
0.00501348959974 -0.00835581599956 0.903 1.97858873021e-38
0.00664763921826 -0.00830954902282 0.898 1.96947832837e-38
0.00830954902282 -0.00830954902282 0.898 1.83111369761e-38
0.0100047710506 -0.00833730920887 0.901 1.92294919377e-38
0.0116722328924 -0.00833730920887 0.901 1.95024872993e-38
0.0132952784365 -0.00830954902282 0.898 2.16269006128e-38
0.0148905637946 -0.00827253544143 0.894 1.73809438451e-38
0.0165450708829 -0.00827253544143 0.894 1.82135617615e-38
0.0181385055618 -0.00824477525538 0.891 1.83993851482e-38
0.0197874606129 -0.00824477525538 0.891 1.86763265663e-38
0.0213882980082 -0.00822626846469 0.889 2.08914991787e-38
0.0229817326872 -0.00820776167399 0.887 1.99663283014e-38
0.0245677646499 -0.00818925488329 0.885 1.89503981252e-38
0.0262056156265 -0.00818925488329 0.885 1.92223172896e-38
0.0278434666032 -0.00818925488329 0.885 2.22640163739e-38
0.0294813175799 -0.00818925488329 0.885 2.15286079333e-38
0.0311191685565 -0.00818925488329 0.885 2.2265444297e-38
0.0327570195332 -0.00818925488329 0.885 2.30022806607e-38
0.0343948705098 -0.00818925488329 0.885 1.95943227955e-38
0.0360327214865 -0.00818925488329 0.885 1.92298506701e-38
0.0376705724632 -0.00818925488329 0.885 2.11623421459e-38
0.0393084234398 -0.00818925488329 0.885 1.89518330548e-38
0.0409462744165 -0.00818925488329 0.885 1.80317222662e-38
0.0425841253931 -0.00818925488329 0.885 2.01539453502e-38
0.0440720713651 -0.00816149469725 0.882 1.83097020465e-38
0.0457043703046 -0.00816149469725 0.882 1.87699557245e-38
0.0474976783231 -0.00818925488329 0.885 2.02461395788e-38
0.0492465700439 -0.00820776167399 0.887 2.24555724727e-38
0.0510028644811 -0.00822626846469 0.889 2.30969860161e-38
0.0527665616345 -0.00824477525538 0.891 2.11551674978e-38
0.0544155166855 -0.00824477525538 0.891 2.34583080226e-38
0.0562532410017 -0.00827253544143 0.894 2.34794227878e-38
0.05790774809 -0.00827253544143 0.894 2.13499591947e-38
0.00509677015787 -0.00679569354383 0.918 1.86795579606e-38
0.00679569354383 -0.00679569354383 0.918 2.02436606818e-38
0.00840208297631 -0.00672166638105 0.908 1.73888359581e-38
0.0100602914227 -0.00670686094849 0.906 1.80352717552e-38
0.0116981423994 -0.00668465279965 0.903 1.97851684359e-38
0.0133396947342 -0.00666984736709 0.901 2.00560114031e-38
0.0149571882411 -0.00664763921826 0.898 2.03347464833e-38
0.0165820844643 -0.0066328337857 0.896 2.03365401453e-38
0.0182402929107 -0.0066328337857 0.896 1.97840922387e-38
0.0198540850594 -0.00661802835314 0.894 1.81220849977e-38
0.0215085921477 -0.00661802835314 0.894 1.9131916723e-38
0.0230853707151 -0.00659582020431 0.891 1.95900180066e-38
0.0247343257662 -0.00659582020431 0.891 2.12545363745e-38
0.0263832808172 -0.00659582020431 0.891 2.09797473508e-38
0.0279693127799 -0.00658101477175 0.889 2.22679554239e-38
0.0295479420264 -0.00656620933919 0.887 2.06070243801e-38
0.0311894943612 -0.00656620933919 0.887 2.20817733047e-38
0.0329050738588 -0.00658101477175 0.889 2.2725697975e-38
0.0344725990308 -0.00656620933919 0.887 2.1805190619e-38
0.0361141513656 -0.00656620933919 0.887 2.06120466338e-38
0.0377557037004 -0.00656620933919 0.887 2.27278503695e-38
0.0393972560352 -0.00656620933919 0.887 1.96883106861e-38
0.04103880837 -0.00656620933919 0.887 1.94999761725e-38
0.0426803607048 -0.00656620933919 0.887 2.18984610448e-38
0.0443219130396 -0.00656620933919 0.887 2.13456544058e-38
0.0459634653743 -0.00656620933919 0.887 2.04316042331e-38
0.0477123570952 -0.00658101477175 0.889 2.03365401453e-38
0.0493576107881 -0.00658101477175 0.889 2.2631351352e-38
0.0512897197369 -0.00661802835314 0.894 2.23558448636e-38
0.0529442268251 -0.00661802835314 0.894 2.34826457743e-38
0.054720878732 -0.0066328337857 0.896 2.34691036259e-38
0.0563790871785 -0.0066328337857 0.896 2.19931664002e-38
0.0581668431598 -0.00664763921826 0.898 2.23601776784e-38
0.060961368555 -0.006773485395 0.915 2.34755131651e-38
0.0626547399037 -0.006773485395 0.915 2.34683707468e-38
0.0645590886664 -0.00679569354383 0.918 2.34726853448e-38
0.0662580120524 -0.00679569354383 0.918 2.34751502288e-38
0.00679569354383 -0.00509677015787 0.918 2.02447354777e-38
0.00844834995305 -0.00506900997183 0.913 1.77597652668e-38
0.0100824995716 -0.00504124978578 0.908 1.50872088356e-38
0.0117370066599 -0.00503014571137 0.906 1.73938582118e-38
0.013413721897 -0.00503014571137 0.906 1.97815937236e-38
0.0150404687992 -0.00501348959974 0.903 1.96883106861e-38
0.0166190980456 -0.00498572941369 0.898 2.20854054703e-38
0.0182810078502 -0.00498572941369 0.898 2.03343877509e-38
0.0199429176548 -0.00498572941369 0.898 2.13503179271e-38
0.0215567098035 -0.00497462533928 0.896 2.21787151325e-38
0.02321491825 -0.00497462533928 0.896 1.98755690025e-38
0.0248731266964 -0.00497462533928 0.896 1.95028460317e-38
0.0264721134126 -0.00496352126486 0.894 1.88546165725e-38
0.0280322358683 -0.00494686515323 0.891 1.94052708171e-38
0.0296145664729 -0.00493576107881 0.889 1.81149103496e-38
0.0312598201658 -0.00493576107881 0.889 1.94081406763e-38
0.0329050738588 -0.00493576107881 0.889 1.87627810764e-38
0.0345503275517 -0.00493576107881 0.889 2.06934788901e-38
0.0361955812446 -0.00493576107881 0.889 2.16175735702e-38
0.0378408349376 -0.00493576107881 0.889 2.12495141208e-38
0.0394860886305 -0.00493576107881 0.889 2.09740076323e-38
0.0411313423234 -0.00493576107881 0.889 2.03261369055e-38
0.0427765960164 -0.00493576107881 0.889 1.99577187236e-38
0.0445217863791 -0.00494686515323 0.891 2.26324303518e-38
0.0461707414302 -0.00494686515323 0.891 2.03286480323e-38
0.0478196964812 -0.00494686515323 0.891 2.30984279523e-38
0.0496352126486 -0.00496352126486 0.894 2.34768878389e-38
0.0514044618392 -0.00497462533928 0.896 2.34705007205e-38
0.0530626702856 -0.00497462533928 0.896 2.10701479173e-38
0.0548430235506 -0.00498572941369 0.898 1.9779069985e-38
0.0565049333552 -0.00498572941369 0.898 2.28214837316e-38
0.0583611644621 -0.00500238552532 0.901 2.34690643896e-38
0.060961368555 -0.00508011404625 0.915 2.34683034845e-38
0.0626547399037 -0.00508011404625 0.915 2.34669190016e-38
0.0645590886664 -0.00509677015787 0.918 2.34734014083e-38
0.0662580120524 -0.00509677015787 0.918 2.34762194195e-38
0.00346076986028 -0.00346076986028 0.935 1.86849851895e-38
0.00519115479043 -0.00346076986028 0.935 1.941999426e-38
0.00686972070662 -0.00343486035331 0.928 1.93256574461e-38
0.00846685674374 -0.0033867426975 0.915 1.91408850332e-38
0.0101047077204 -0.0033682359068 0.91 1.84980393627e-38
0.0117629161668 -0.00336083319052 0.908 1.70290287553e-38
0.0134433327621 -0.00336083319052 0.908 1.66566631157e-38
0.0150904371341 -0.00335343047424 0.906 2.00606749244e-38
0.0167116319991 -0.00334232639983 0.903 2.23630265182e-38
0.018382795199 -0.00334232639983 0.903 1.91387326388e-38
0.0200095421013 -0.00333492368355 0.901 1.8024509783e-38
0.0216770039431 -0.00333492368355 0.901 1.83018099335e-38
0.0232667372639 -0.00332381960913 0.898 2.07975112881e-38
0.0249286470685 -0.00332381960913 0.898 2.10748114386e-38
0.0265313351428 -0.00331641689285 0.896 2.34726040695e-38
0.0281895435892 -0.00331641689285 0.896 2.19067805538e-38
0.0296811909194 -0.00329791010215 0.891 2.17233996302e-38
0.0313301459705 -0.00329791010215 0.891 2.16312054017e-38
0.0329791010215 -0.00329791010215 0.891 2.04294518387e-38
0.0346280560726 -0.00329791010215 0.891 2.22708252831e-38
0.0361955812446 -0.00329050738588 0.889 2.07953588937e-38
0.0378408349376 -0.00329050738588 0.889 2.2639243465e-38
0.0394860886305 -0.00329050738588 0.889 2.1533630187e-38
0.0412238762769 -0.00329791010215 0.891 2.26399609298e-38
0.042872831328 -0.00329791010215 0.891 2.31016495374e-38
0.0445217863791 -0.00329791010215 0.891 2.34736550434e-38
0.0461707414302 -0.00329791010215 0.891 2.34751194002e-38
0.0479807055603 -0.00330901417657 0.894 2.26381672678e-38
0.0497462533928 -0.00331641689285 0.896 2.04222771905e-38
0.0514044618392 -0.00331641689285 0.896 2.04233533878e-38
0.0531811137461 -0.00332381960913 0.898 2.12577649661e-38
0.0548430235506 -0.00332381960913 0.898 2.19942425974e-38
0.0566937026203 -0.00333492368355 0.901 2.34797717111e-38
0.0588145808341 -0.00336083319052 0.908 2.15329407482e-38
0.060961368555 -0.0033867426975 0.915 2.34701560011e-38
0.0628601652804 -0.00339784677192 0.918 2.34701139621e-38
0.0645590886664 -0.00339784677192 0.918 2.34748349367e-38
0.0664023650198 -0.00340524948819 0.92 2.34726292929e-38
0.00346076986028 -0.00173038493014 0.935 1.99775260774e-38
0.00519115479043 -0.00173038493014 0.935 1.85027239035e-38
0.00690673428801 -0.001726683572 0.933 1.90483474865e-38
0.00858715088327 -0.00171743017665 0.928 2.0616001098e-38
0.0101935403157 -0.00169892338596 0.918 2.04345441573e-38
0.0118535994412 -0.00169337134875 0.915 1.66502647869e-38
0.0135173599249 -0.00168966999061 0.913 1.56396567422e-38
0.0151570615806 -0.0016841179534 0.91 1.53655851833e-38
0.0167671523712 -0.00167671523712 0.906 2.20857740118e-38
0.0184438676083 -0.00167671523712 0.906 1.90458209454e-38
0.020053958399 -0.00167116319991 0.903 1.85780436959e-38
0.0216770039431 -0.00166746184177 0.901 1.96843646296e-38
0.0233444657848 -0.00166746184177 0.901 1.79376965406e-38
0.0249286470685 -0.00166190980456 0.898 1.79337504841e-38
0.026590556873 -0.00166190980456 0.898 1.89518330548e-38
0.0281895435892 -0.00165820844643 0.896 1.91329929203e-38
0.0298477520357 -0.00165820844643 0.896 1.87656509356e-38
0.0314356346774 -0.00165450708829 0.894 2.13435062153e-38
0.0330901417657 -0.00165450708829 0.894 2.07899779076e-38
0.0346280560726 -0.00164895505108 0.891 2.14446645501e-38
0.0362770111237 -0.00164895505108 0.891 2.00628273189e-38
0.0379259661748 -0.00164895505108 0.891 2.13503179271e-38
0.0395749212258 -0.00164895505108 0.891 2.17180494727e-38
0.0412238762769 -0.00164895505108 0.891 2.04226359229e-38
0.0430171842954 -0.00165450708829 0.894 2.2908296974e-38
0.0446716913837 -0.00165450708829 0.894 2.01464119697e-38
0.0464298364999 -0.00165820844643 0.896 2.07892604428e-38
0.0480880449463 -0.00165820844643 0.896 2.05141126867e-38
0.0498572941369 -0.00166190980456 0.898 2.19924909744e-38
0.0515192039415 -0.00166190980456 0.898 2.19013477196e-38
0.0533587789368 -0.00166746184177 0.901 2.34729487889e-38
0.0551483855971 -0.00167116319991 0.903 2.31935536972e-38
0.0570083180621 -0.00167671523712 0.906 2.32842443325e-38
0.0588145808341 -0.00168041659526 0.908 2.25474626195e-38
0.060961368555 -0.00169337134875 0.915 2.29165436155e-38
0.0629971155316 -0.0017026247441 0.92 2.34665574666e-38
0.0646997402757 -0.0017026247441 0.92 2.34740782355e-38
0.0664023650198 -0.0017026247441 0.92 2.34784600958e-38
0.0034718739347 0.0 0.938 1.87789983035e-38
0.00519115479043 0.0 0.935 1.93329133696e-38
0.00692153972057 0.0 0.935 1.80352815643e-38
0.00858715088327 0.0 0.928 1.91390913712e-38
0.0102712688367 0.0 0.925 1.93198925042e-38
0.0118924637017 0.0 0.918 2.08879216637e-38
0.01354697079 0.0 0.915 1.94189026485e-38
0.0152070299155 0.0 0.913 1.5638580545e-38
0.0168966999061 0.0 0.913 1.81224451314e-38
0.0185252974874 0.0 0.91 2.01507167585e-38
0.0202094154408 0.0 0.91 2.27314376935e-38
0.0218454157384 0.0 0.908 2.12564057066e-38
0.0234740133197 0.0 0.906 1.96890281509e-38
0.0250674479987 0.0 0.903 1.98712642136e-38
0.0266793894684 0.0 0.901 1.77558192103e-38
0.0282524666776 0.0 0.898 1.77561779427e-38
0.0299143764822 0.0 0.898 1.80320431636e-38
0.0315762862867 0.0 0.898 2.13488942079e-38
0.0331641689285 0.0 0.896 2.02425522547e-38
0.0348223773749 0.0 0.896 1.63761343735e-38
0.0364805858214 0.0 0.896 1.73881184933e-38
0.0381387942678 0.0 0.896 1.89514799276e-38
0.0398858353096 0.0 0.898 1.84004613454e-38
0.0416865460443 0.0 0.901 1.9871622946e-38
0.0433540078861 0.0 0.901 2.06041545208e-38
0.0450214697279 0.0 0.901 2.06999360735e-38
0.0466889315697 0.0 0.901 2.0331876624e-38
0.0483563934114 0.0 0.901 2.22676121057e-38
0.0500238552532 0.0 0.901 2.3477606705e-38
0.0519781723508 0.0 0.906 2.30095127621e-38
0.0537733310484 0.0 0.908 2.12563300365e-38
0.0554537476436 0.0 0.908 2.25449038485e-38
0.0572600104156 0.0 0.91 2.19017176624e-38
0.0591384496713 0.0 0.913 2.31903685458e-38
0.060961368555 0.0 0.915 2.19935657703e-38
0.0629971155316 0.0 0.92 2.34758803053e-38
0.0646997402757 0.0 0.92 2.34740600186e-38
0.0666188944709 0.0 0.923 2.34788244334e-38
0.00347927665098 0.00173963832549 0.94 1.87782794374e-38
