# .PCD v0.7 - Point Cloud Data file format
VERSION 0.7
FIELDS x y z rgb
SIZE 4 4 4 4
TYPE F F F F
COUNT 1 1 1 1
WIDTH 855
HEIGHT 1
VIEWPOINT 0 0 0 1 0 0 0
POINTS 855
DATA ascii
-0.00155271973945 -0.183220929256 0.839 1.52892984949e-38
0.0 -0.183220929256 0.839 1.53807654496e-38
0.00155271973945 -0.183220929256 0.839 1.56548440149e-38
0.00310543947891 -0.183220929256 0.839 1.5287500629e-38
0.00465815921836 -0.183220929256 0.839 1.57481228485e-38
0.00621087895782 -0.183220929256 0.839 1.53800521887e-38
0.00776359869727 -0.183220929256 0.839 1.59303645164e-38
0.00931631843672 -0.183220929256 0.839 1.60254215977e-38
0.0108690381762 -0.183220929256 0.839 1.6301617525e-38
0.0124217579156 -0.183220929256 0.839 1.58378031476e-38
0.0139744776551 -0.183220929256 0.839 1.62991316216e-38
0.0155271973945 -0.183220929256 0.839 1.63913244488e-38
0.0171206320735 -0.183657689516 0.841 1.64838788111e-38
0.0186770531711 -0.183657689516 0.841 1.63927593785e-38
0.0202815919245 -0.184094449776 0.843 1.65767905045e-38
0.0218417143803 -0.184094449776 0.843 1.70359777944e-38
0.0234573572081 -0.184531210037 0.845 1.68515851333e-38
0.025021181022 -0.184531210037 0.845 1.74994544588e-38
0.0266479279242 -0.184967970297 0.847 1.72210781111e-38
0.0283487019892 -0.185841490818 0.851 1.88787917736e-38
0.0300291185845 -0.186496631209 0.854 1.2604822619e-38
0.03160959851 -0.186496631209 0.854 1.46050822899e-38
0.0333455354773 -0.18737015173 0.858 1.389343847e-38
0.0350148479982 -0.18780691199 0.86 1.1116399824e-38
0.0366915632353 -0.188243672251 0.862 1.80415187438e-38
0.0382868485934 -0.188243672251 0.862 1.54686352711e-38
0.0398821339514 -0.188243672251 0.862 1.64831725567e-38
-0.0369895225655 -0.188164093051 0.869 6.99458268598e-39
-0.0350962778772 -0.186648386893 0.862 0.0
-0.0334232639983 -0.18621532799 0.86 5.71361091819e-39
-0.0317576528356 -0.185782269088 0.858 1.05912870466e-38
-0.0301697701938 -0.185782269088 0.858 1.08631851915e-38
-0.0285152631055 -0.185349210186 0.856 1.12316187876e-38
-0.0267737741009 -0.18426656293 0.851 1.20606718007e-38
-0.0251396244824 -0.183833504028 0.849 1.2890063928e-38
-0.0235128775802 -0.183400445125 0.847 1.04890497119e-38
-0.0219453524082 -0.183400445125 0.847 1.2143822049e-38
-0.0203778272361 -0.183400445125 0.847 8.26519465422e-39
-0.0187658857665 -0.182967386223 0.845 1.32340168399e-38
-0.0172020619526 -0.182967386223 0.845 9.91823358506e-39
-0.0156012245573 -0.182534327321 0.843 1.09381504554e-38
-0.0140411021016 -0.182534327321 0.843 1.54679262141e-38
-0.0124809796459 -0.182534327321 0.843 1.39971121355e-38
-0.0109208571901 -0.182534327321 0.843 1.54725981432e-38
-0.0093607347344 -0.182534327321 0.843 5.42546892146e-39
-0.00778210548797 -0.182101268418 0.841 6.06440777185e-39
-0.00622568439037 -0.182101268418 0.841 3.6734366619e-39
-0.00466926329278 -0.182101268418 0.841 1.39925032649e-38
-0.00310543947891 -0.181668209516 0.839 1.0866056452e-38
-0.00155271973945 -0.181668209516 0.839 1.58417856379e-38
0.0 -0.181668209516 0.839 1.5748866938e-38
0.00155271973945 -0.181668209516 0.839 1.5380415125e-38
0.00310543947891 -0.181668209516 0.839 1.53796962589e-38
0.00465815921836 -0.181668209516 0.839 1.55644406458e-38
0.00621087895782 -0.181668209516 0.839 1.57470368422e-38
0.00776359869727 -0.181668209516 0.839 1.59310679682e-38
0.00931631843672 -0.181668209516 0.839 1.57484787783e-38
0.0108949476832 -0.182101268418 0.841 1.61158193617e-38
0.0124217579156 -0.181668209516 0.839 1.64831697541e-38
0.0139744776551 -0.181668209516 0.839 1.59310945929e-38
0.0155642109759 -0.182101268418 0.841 1.63913272514e-38
0.0171613470131 -0.182534327321 0.843 1.64838760085e-38
0.0187214694688 -0.182534327321 0.843 1.65764401799e-38
0.0202815919245 -0.182534327321 0.843 1.64838760085e-38
0.0218935333942 -0.182967386223 0.845 1.86022245022e-38
0.0234573572081 -0.182967386223 0.845 1.67611859681e-38
0.0250804027522 -0.183400445125 0.847 1.73147114732e-38
0.0267108510126 -0.183833504028 0.849 1.74969517398e-38
0.028448638659 -0.184916151283 0.854 1.94330445526e-38
0.0300994443891 -0.185349210186 0.856 7.53373927662e-39
0.0317576528356 -0.185782269088 0.858 1.06529175543e-38
0.0334232639983 -0.18621532799 0.86 1.33161469429e-38
0.0350148479982 -0.18621532799 0.86 2.10810822493e-38
0.0366064319981 -0.18621532799 0.86 1.63913118372e-38
0.0382868485934 -0.186648386893 0.862 1.61140144892e-38
0.0398821339514 -0.186648386893 0.862 1.54700800098e-38
-0.0369895225655 -0.186555852939 0.869 6.99528193391e-39
-0.0350148479982 -0.18462374399 0.86 0.0
-0.0334232639983 -0.18462374399 0.86 6.5394059123e-39
-0.0317576528356 -0.184194386446 0.858 1.0682400874e-38
-0.0301697701938 -0.184194386446 0.858 1.04944068759e-38
-0.028581887552 -0.184194386446 0.858 1.11397734824e-38
-0.0269310818219 -0.183765028902 0.856 1.24290843773e-38
-0.0251988462126 -0.182691635042 0.851 1.23372656968e-38
-0.0235683979523 -0.182262277497 0.849 1.24298116512e-38
-0.0219971714221 -0.182262277497 0.849 1.32577450268e-38
-0.020425944892 -0.182262277497 0.849 1.37169351193e-38
-0.0188103020641 -0.181832919953 0.847 1.28845932587e-38
-0.0172427768921 -0.181832919953 0.847 1.19576273181e-38
-0.0156382381387 -0.181403562409 0.845 1.35206244148e-38
-0.0140744143248 -0.181403562409 0.845 1.52842818464e-38
-0.012510590511 -0.181403562409 0.845 1.40896636952e-38
-0.0109208571901 -0.180974204865 0.843 1.60268649351e-38
-0.0093607347344 -0.180974204865 0.843 2.47955839627e-39
-0.00780061227866 -0.180974204865 0.843 4.59553028778e-40
-0.00624048982293 -0.180974204865 0.843 4.7293823171e-42
-0.0046803673672 -0.180974204865 0.843 5.05747813564e-39
-0.00311284219519 -0.180544847321 0.841 1.24337352869e-38
-0.00155642109759 -0.180544847321 0.841 1.54754820154e-38
0.0 -0.180544847321 0.841 1.59310707708e-38
0.00155642109759 -0.180544847321 0.841 1.60250656679e-38
0.00311284219519 -0.180544847321 0.841 1.53804179276e-38
0.00466926329278 -0.180544847321 0.841 1.55640650978e-38
0.00622568439037 -0.180544847321 0.841 1.57488277016e-38
0.00778210548797 -0.180544847321 0.841 1.55644434484e-38
0.00933852658556 -0.180544847321 0.841 1.56548412123e-38
0.0108949476832 -0.180544847321 0.841 1.65749996451e-38
0.0124513687807 -0.180544847321 0.841 1.62087338576e-38
0.0140077898783 -0.180544847321 0.841 1.56570062185e-38
0.0155642109759 -0.180544847321 0.841 1.63002078188e-38
0.0171613470131 -0.180974204865 0.843 1.63909615125e-38
0.0187214694688 -0.180974204865 0.843 1.65757213138e-38
0.0203297095803 -0.181403562409 0.845 1.72207221813e-38
0.0218935333942 -0.181403562409 0.845 1.75887844333e-38
0.0235128775802 -0.181832919953 0.847 1.74040498555e-38
0.0250804027522 -0.181832919953 0.847 1.74051092371e-38
0.0267108510126 -0.182262277497 0.849 1.81419582125e-38
0.028448638659 -0.183335671358 0.854 1.90624991997e-38
0.0300994443891 -0.183765028902 0.856 8.26878197829e-39
0.0317576528356 -0.184194386446 0.858 2.08847617357e-38
0.0334232639983 -0.18462374399 0.86 2.07194799831e-38
0.0350148479982 -0.18462374399 0.86 1.89695384609e-38
0.0366064319981 -0.18462374399 0.86 1.39942030399e-38
0.038198015998 -0.18462374399 0.86 1.62984085516e-38
0.0397895999979 -0.18462374399 0.86 1.58370842815e-38
-0.0350148479982 -0.18303215999 0.86 0.0
-0.0334232639983 -0.18303215999 0.86 6.99317858491e-39
-0.0317576528356 -0.182606503804 0.858 1.04047279781e-38
-0.0301697701938 -0.182606503804 0.858 1.16911451917e-38
-0.028581887552 -0.182606503804 0.858 1.15078329318e-38
-0.0269310818219 -0.182180847618 0.856 1.17851428914e-38
-0.025287678808 -0.181755191432 0.854 1.2152498889e-38
-0.0236239183244 -0.181116707153 0.851 1.25212645929e-38
-0.0220489904361 -0.181116707153 0.851 1.31666480149e-38
-0.0204740625478 -0.181116707153 0.851 1.344212928e-38
-0.0188547183618 -0.180691050967 0.849 1.38105530671e-38
-0.0172427768921 -0.180265394781 0.847 1.44577371576e-38
-0.0156752517201 -0.180265394781 0.847 1.39942590919e-38
-0.0140744143248 -0.179839738595 0.845 1.39031466657e-38
-0.012510590511 -0.179839738595 0.845 1.42726256305e-38
-0.0109467666971 -0.179839738595 0.845 1.53804025133e-38
-0.0093607347344 -0.179414082409 0.843 9.85227446635e-39
-0.00780061227866 -0.179414082409 0.843 0.0
-0.00624048982293 -0.179414082409 0.843 7.45675334029e-39
-0.0046803673672 -0.179414082409 0.843 7.53986295091e-39
-0.00311284219519 -0.178988426223 0.841 7.07170314696e-39
-0.00155642109759 -0.178988426223 0.841 1.63020281055e-38
0.0 -0.178988426223 0.841 1.57477430966e-38
0.00155642109759 -0.178988426223 0.841 1.6300213424e-38
0.00311284219519 -0.178988426223 0.841 1.55622896527e-38
0.00466926329278 -0.178988426223 0.841 1.57470368422e-38
0.00622568439037 -0.178988426223 0.841 1.57484759757e-38
0.00778210548797 -0.178988426223 0.841 1.5564446251e-38
0.00933852658556 -0.178988426223 0.841 1.63927719902e-38
0.0109208571901 -0.179414082409 0.843 1.65757213138e-38
0.0124809796459 -0.179414082409 0.843 1.60236195279e-38
0.0140411021016 -0.179414082409 0.843 1.61158193617e-38
0.0156382381387 -0.179839738595 0.845 1.62083681187e-38
0.0172020619526 -0.179839738595 0.845 1.65764093513e-38
0.0187658857665 -0.179839738595 0.845 1.63916775761e-38
0.0203778272361 -0.180265394781 0.847 1.67590181594e-38
0.0219453524082 -0.180265394781 0.847 1.74040344412e-38
0.0235683979523 -0.180691050967 0.849 1.74958797465e-38
0.0251988462126 -0.181116707153 0.851 1.71274461503e-38
0.0267737741009 -0.181116707153 0.851 1.77724652348e-38
0.0285152631055 -0.182180847618 0.856 1.76788262675e-38
0.0300994443891 -0.182180847618 0.856 1.89681035313e-38
0.0317576528356 -0.182606503804 0.858 1.90617410972e-38
0.0334232639983 -0.18303215999 0.86 1.75877250517e-38
0.0350148479982 -0.18303215999 0.86 1.86940305711e-38
0.0366064319981 -0.18303215999 0.86 1.38097739451e-38
0.038198015998 -0.18303215999 0.86 1.62998350734e-38
0.0397895999979 -0.18303215999 0.86 1.65746240971e-38
-0.0350148479982 -0.181440575991 0.86 0.0
-0.0334232639983 -0.181440575991 0.86 8.55660167637e-39
-0.0317576528356 -0.181018621163 0.858 1.00298343961e-38
-0.0301697701938 -0.181018621163 0.858 1.0673400334e-38
-0.028581887552 -0.181018621163 0.858 1.14145653086e-38
-0.0269310818219 -0.180596666335 0.856 1.18769657759e-38
-0.025287678808 -0.180174711507 0.854 1.30744537864e-38
-0.0236239183244 -0.179541779265 0.851 1.24308682303e-38
-0.0220489904361 -0.179541779265 0.851 1.25230638601e-38
-0.0204740625478 -0.179541779265 0.851 1.29843923341e-38
-0.0188991346595 -0.179541779265 0.851 1.32588282305e-38
-0.0172834918317 -0.179119824437 0.849 1.35347074644e-38
-0.0156752517201 -0.178697869609 0.847 1.31666452123e-38
-0.0140744143248 -0.178275914781 0.845 1.49172733708e-38
-0.012510590511 -0.178275914781 0.845 1.3996396072e-38
-0.0109467666971 -0.178275914781 0.845 1.46417682837e-38
-0.00938294288323 -0.178275914781 0.845 1.61201353609e-38
-0.00780061227866 -0.177853959954 0.843 1.28571236049e-39
-0.00624048982293 -0.177853959954 0.843 1.42741292238e-38
-0.0046803673672 -0.177853959954 0.843 4.40810381558e-39
-0.00312024491147 -0.177853959954 0.843 1.18651472247e-38
-0.00156012245573 -0.177853959954 0.843 1.65786304094e-38
0.0 -0.177432005126 0.841 1.62101631821e-38
0.00155642109759 -0.177432005126 0.841 1.59335861016e-38
0.00311284219519 -0.177432005126 0.841 1.61154788461e-38
0.00466926329278 -0.177432005126 0.841 1.60221944074e-38
0.00624048982293 -0.177853959954 0.843 1.58374374087e-38
0.00780061227866 -0.177853959954 0.843 1.57470396448e-38
0.0093607347344 -0.177853959954 0.843 1.64842291357e-38
0.0109208571901 -0.177853959954 0.843 1.59310581591e-38
0.0124809796459 -0.177853959954 0.843 1.64838732059e-38
0.0140744143248 -0.178275914781 0.845 1.61161696863e-38
0.0156382381387 -0.178275914781 0.845 1.62080121889e-38
0.0172020619526 -0.178275914781 0.845 1.63913244488e-38
0.0187658857665 -0.178275914781 0.845 1.63927621811e-38
0.0203778272361 -0.178697869609 0.847 1.70366938579e-38
0.0219971714221 -0.179119824437 0.849 1.75891473697e-38
0.0235683979523 -0.179119824437 0.849 1.74058351097e-38
0.0251988462126 -0.179541779265 0.851 1.72217815629e-38
0.0268681587335 -0.180174711507 0.854 1.75895004969e-38
0.0285152631055 -0.180596666335 0.856 1.82338007152e-38
0.0301697701938 -0.181018621163 0.858 1.79568396789e-38
0.0317576528356 -0.181018621163 0.858 1.89695384609e-38
0.0334232639983 -0.181440575991 0.86 1.86021824633e-38
0.0350148479982 -0.181440575991 0.86 1.74929734534e-38
0.0366064319981 -0.181440575991 0.86 1.31597956655e-38
0.0382868485934 -0.181862530818 0.862 1.67607936045e-38
-0.0350962778772 -0.18026724546 0.862 9.57494909247e-39
-0.0335009925192 -0.18026724546 0.862 7.083530106e-39
-0.0318316799983 -0.179848991991 0.86 8.45962902004e-39
-0.0302400959984 -0.179848991991 0.86 1.08516637155e-38
-0.028581887552 -0.179430738521 0.858 1.08588509753e-38
-0.0269940049102 -0.179430738521 0.858 1.224537555e-38
-0.0253469005382 -0.179012485051 0.856 1.32588464474e-38
-0.0237071988825 -0.178594231581 0.854 1.25227233446e-38
-0.022126718957 -0.178594231581 0.854 1.2338313868e-38
-0.0205462390315 -0.178594231581 0.854 1.32595470966e-38
-0.0188991346595 -0.177966851377 0.851 1.36279568707e-38
-0.0172834918317 -0.177548597907 0.849 1.35339857957e-38
-0.0156752517201 -0.177130344437 0.847 1.34439439616e-38
-0.0140744143248 -0.176712090968 0.845 1.4456663763e-38
-0.012510590511 -0.176712090968 0.845 1.42722753059e-38
-0.0109467666971 -0.176712090968 0.845 1.42719249813e-38
-0.00938294288323 -0.176712090968 0.845 1.65767905045e-38
-0.00781911906936 -0.176712090968 0.845 2.66322938858e-39
-0.00624048982293 -0.176293837498 0.843 9.4752733314e-39
-0.0046803673672 -0.176293837498 0.843 1.54762134932e-38
-0.00312024491147 -0.176293837498 0.843 1.6488545135e-38
-0.00156012245573 -0.176293837498 0.843 1.54708002772e-38
0.0 -0.176293837498 0.843 1.55651665184e-38
0.00156012245573 -0.176293837498 0.843 1.57495549756e-38
0.00312024491147 -0.176293837498 0.843 1.55644406458e-38
0.0046803673672 -0.176293837498 0.843 1.60229034644e-38
0.00624048982293 -0.176293837498 0.843 1.63913244488e-38
0.00780061227866 -0.176293837498 0.843 1.59310679682e-38
0.0093607347344 -0.176293837498 0.843 1.57470368422e-38
0.0109208571901 -0.176293837498 0.843 1.56548412123e-38
0.012510590511 -0.176712090968 0.845 1.63913146397e-38
0.0140744143248 -0.176712090968 0.845 1.62994819462e-38
0.0156382381387 -0.176712090968 0.845 1.63916775761e-38
0.0172020619526 -0.176712090968 0.845 1.6945582833e-38
0.0187658857665 -0.176712090968 0.845 1.62076590617e-38
0.0203778272361 -0.177130344437 0.847 1.72214564617e-38
0.0219971714221 -0.177548597907 0.849 1.6944498228e-38
0.0236239183244 -0.177966851377 0.851 1.73139926071e-38
0.0251988462126 -0.177966851377 0.851 1.75902011461e-38
0.0268681587335 -0.178594231581 0.854 1.83277703889e-38
0.028581887552 -0.179430738521 0.858 1.75887844333e-38
0.0301697701938 -0.179430738521 0.858 1.85082141909e-38
0.0318316799983 -0.179848991991 0.86 1.81397904038e-38
0.0334232639983 -0.179848991991 0.86 1.85085519038e-38
0.0350148479982 -0.179848991991 0.86 1.63816190557e-38
0.0366915632353 -0.18026724546 0.862 1.29696464703e-38
-0.0335009925192 -0.178671960102 0.862 8.46751973169e-39
-0.0318316799983 -0.178257407991 0.86 9.10500123168e-39
-0.0302400959984 -0.178257407991 0.86 1.0485402132e-38
-0.0286485119985 -0.178257407991 0.86 9.56416469949e-39
-0.0269940049102 -0.177842855879 0.858 1.21442144125e-38
-0.0253469005382 -0.177428303768 0.856 1.23354201867e-38
-0.0237071988825 -0.177013751656 0.854 1.26138091461e-38
-0.022126718957 -0.177013751656 0.854 1.31666311994e-38
-0.0205462390315 -0.177013751656 0.854 1.27989276797e-38
-0.018965759106 -0.177013751656 0.854 1.39949625437e-38
-0.0173242067712 -0.176391923488 0.851 1.41790202944e-38
-0.0157122653015 -0.175977371377 0.849 1.35357864642e-38
-0.0141077265481 -0.175562819265 0.847 1.36279820941e-38
-0.012510590511 -0.175148267154 0.845 1.46389096348e-38
-0.0109467666971 -0.175148267154 0.845 1.44570196928e-38
-0.00938294288323 -0.175148267154 0.845 1.52867845655e-38
-0.00781911906936 -0.175148267154 0.845 9.0174747283e-39
-0.00625529525549 -0.175148267154 0.845 8.72437213501e-39
-0.00469147144162 -0.175148267154 0.845 1.63027315573e-38
-0.00312024491147 -0.174733715042 0.843 1.52882040808e-38
-0.00156012245573 -0.174733715042 0.843 1.53796962589e-38
0.0 -0.174733715042 0.843 1.57474081863e-38
0.00156012245573 -0.174733715042 0.843 1.54719101056e-38
0.00312024491147 -0.174733715042 0.843 1.55644434484e-38
0.0046803673672 -0.174733715042 0.843 1.57473871668e-38
0.00624048982293 -0.174733715042 0.843 1.5747740294e-38
0.00780061227866 -0.174733715042 0.843 1.5564446251e-38
0.00938294288323 -0.175148267154 0.845 1.59314210954e-38
0.0109467666971 -0.175148267154 0.845 1.63924062513e-38
0.012510590511 -0.175148267154 0.845 1.64842291357e-38
0.0140744143248 -0.175148267154 0.845 1.60228978592e-38
0.0156382381387 -0.175148267154 0.845 1.62987588762e-38
0.0172020619526 -0.175148267154 0.845 1.63906083853e-38
0.0188103020641 -0.175562819265 0.847 1.69448541578e-38
0.0203778272361 -0.175562819265 0.847 1.73136534929e-38
0.0219971714221 -0.175977371377 0.849 1.70370469851e-38
0.0236239183244 -0.176391923488 0.851 1.75891473697e-38
0.0251988462126 -0.176391923488 0.851 1.76802485854e-38
0.0269310818219 -0.177428303768 0.856 1.8510379197e-38
0.028581887552 -0.177842855879 0.858 1.77738987631e-38
0.0302400959984 -0.178257407991 0.86 1.85103623814e-38
0.0318316799983 -0.178257407991 0.86 1.89695258492e-38
0.0334232639983 -0.178257407991 0.86 1.71259859973e-38
0.0350962778772 -0.178671960102 0.862 1.49950384291e-38
0.0366915632353 -0.178671960102 0.862 1.49017441813e-38
-0.0352998525749 -0.178103801628 0.867 1.14203190401e-38
-0.0335787210401 -0.177487525498 0.864 6.99671686354e-39
-0.0319057071611 -0.177076674744 0.862 9.10570468351e-39
-0.0303104218031 -0.177076674744 0.862 1.15038546455e-38
-0.0286485119985 -0.176665823991 0.86 9.56416469949e-39
-0.0269940049102 -0.176254973237 0.858 1.17728941416e-38
-0.0254061222684 -0.176254973237 0.858 1.20538040369e-38
-0.0237627192546 -0.175844122484 0.856 1.25194485101e-38
-0.0221785379709 -0.175844122484 0.856 1.28889569022e-38
-0.0205462390315 -0.17543327173 0.854 1.33506469111e-38
-0.018965759106 -0.17543327173 0.854 1.35346892475e-38
-0.0173242067712 -0.1748169956 0.851 1.39949597411e-38
-0.0157492788829 -0.1748169956 0.851 1.38123677486e-38
-0.0141410387714 -0.174406144847 0.849 1.39964086837e-38
-0.0125402013761 -0.173995294093 0.847 1.4271909567e-38
-0.0109726762041 -0.173995294093 0.847 1.48240211619e-38
-0.00940515103207 -0.173995294093 0.847 1.42712159243e-38
-0.00781911906936 -0.17358444334 0.845 1.57477557083e-38
-0.00625529525549 -0.17358444334 0.845 1.54711632135e-38
-0.00469147144162 -0.17358444334 0.845 1.53796962589e-38
-0.00312764762774 -0.17358444334 0.845 1.55630085188e-38
-0.00156012245573 -0.173173592586 0.843 1.56563083718e-38
0.0 -0.173173592586 0.843 1.6023267802e-38
0.00156012245573 -0.173173592586 0.843 1.61154662345e-38
0.00312024491147 -0.173173592586 0.843 1.57470396448e-38
0.0046803673672 -0.173173592586 0.843 1.61158165591e-38
0.00625529525549 -0.17358444334 0.845 1.5472245016e-38
0.00781911906936 -0.17358444334 0.845 1.57488515237e-38
0.00938294288323 -0.17358444334 0.845 1.60239726551e-38
0.0109467666971 -0.17358444334 0.845 1.61154494189e-38
0.012510590511 -0.17358444334 0.845 1.64838788111e-38
0.0141077265481 -0.173995294093 0.847 1.6299128819e-38
0.0156752517201 -0.173995294093 0.847 1.6576074441e-38
0.0172427768921 -0.173995294093 0.847 1.64838788111e-38
0.0188103020641 -0.173995294093 0.847 1.63927593785e-38
0.020425944892 -0.174406144847 0.849 1.70381287875e-38
0.0220489904361 -0.1748169956 0.851 1.75902039487e-38
0.0236239183244 -0.1748169956 0.851 1.76788290701e-38
0.025287678808 -0.17543327173 0.854 1.87858772777e-38
0.0269310818219 -0.175844122484 0.856 1.7958267602e-38
0.028581887552 -0.176254973237 0.858 1.80508261682e-38
0.0302400959984 -0.176665823991 0.86 1.79575487359e-38
0.0319057071611 -0.177076674744 0.862 1.69369424267e-38
0.0335009925192 -0.177076674744 0.862 1.42585369757e-38
0.0350962778772 -0.177076674744 0.862 1.65615990278e-38
0.0366915632353 -0.177076674744 0.862 1.69282543762e-38
-0.0352998525749 -0.176499262875 0.867 8.3738905735e-39
-0.0335787210401 -0.175888538782 0.864 6.24660740078e-39
-0.0319797343239 -0.175888538782 0.864 8.36636700204e-39
-0.0303807476077 -0.175888538782 0.864 1.17822464075e-38
-0.028715136445 -0.175481389386 0.862 1.02106004967e-38
-0.0270569279986 -0.175074239991 0.86 1.10324564408e-38
-0.0254061222684 -0.174667090596 0.858 1.27899215345e-38
-0.0237627192546 -0.1742599412 0.856 1.11354574831e-38
-0.0221785379709 -0.1742599412 0.856 1.21474247873e-38
-0.0205943566873 -0.1742599412 0.856 1.33481301791e-38
-0.018965759106 -0.173852791805 0.854 1.35346780371e-38
-0.0173852791805 -0.173852791805 0.854 1.38098370036e-38
-0.0157492788829 -0.173242067712 0.851 1.39960457474e-38
-0.0141743509946 -0.173242067712 0.851 1.3997480677e-38
-0.0125698122412 -0.172834918317 0.849 1.44577371576e-38
-0.0109985857111 -0.172834918317 0.849 1.45477831957e-38
-0.00940515103207 -0.172427768921 0.847 1.46410592266e-38
-0.00783762586006 -0.172427768921 0.847 1.42733290823e-38
-0.00625529525549 -0.172020619526 0.845 1.51023862993e-38
-0.00469147144162 -0.172020619526 0.845 1.58385065995e-38
-0.00312764762774 -0.172020619526 0.845 1.56537594099e-38
-0.00156012245573 -0.171613470131 0.843 1.54700940228e-38
0.0 -0.171613470131 0.843 1.60221944074e-38
0.00156012245573 -0.171613470131 0.843 1.65757185112e-38
0.00312024491147 -0.171613470131 0.843 1.59307204462e-38
0.00469147144162 -0.172020619526 0.845 1.62083653161e-38
0.00625529525549 -0.172020619526 0.845 1.55633490343e-38
0.00781911906936 -0.172020619526 0.845 1.67611831655e-38
0.00938294288323 -0.172020619526 0.845 1.58385037969e-38
0.0109467666971 -0.172020619526 0.845 1.67590181594e-38
0.0125402013761 -0.172427768921 0.847 1.65757213138e-38
0.0141077265481 -0.172427768921 0.847 1.63913146397e-38
0.0156752517201 -0.172427768921 0.847 1.63909587099e-38
0.0172427768921 -0.172427768921 0.847 1.64838760085e-38
0.0188103020641 -0.172427768921 0.847 1.70370469851e-38
0.020425944892 -0.172834918317 0.849 1.71292272007e-38
0.0220489904361 -0.173242067712 0.851 1.73125422632e-38
0.0236239183244 -0.173242067712 0.851 1.76791793947e-38
0.025287678808 -0.173852791805 0.854 1.83245488037e-38
0.0269310818219 -0.1742599412 0.856 1.89720467851e-38
0.028581887552 -0.174667090596 0.858 1.73118233971e-38
0.0302400959984 -0.175074239991 0.86 1.62003568954e-38
0.0319057071611 -0.175481389386 0.862 1.66530757916e-38
0.0335009925192 -0.175481389386 0.862 1.40676913353e-38
0.0351777077563 -0.175888538782 0.864 1.61824188738e-38
0.0369043913283 -0.176499262875 0.867 1.65626948432e-38
0.0386865952724 -0.177313561665 0.871 1.62087184434e-38
-0.035381282454 -0.175298172158 0.869 1.58399681538e-38
-0.0337730423424 -0.175298172158 0.869 1.01295830246e-38
-0.0320907750681 -0.174894724121 0.867 5.23462328101e-39
-0.0303807476077 -0.174289552065 0.864 9.56631709393e-39
-0.0287817608915 -0.174289552065 0.864 5.6938007618e-39
-0.0270569279986 -0.173482655991 0.86 7.99439792988e-39
-0.0254653439987 -0.173482655991 0.86 1.4268304026e-38
-0.0238182396267 -0.173079207954 0.858 1.09525263764e-38
-0.0222303569849 -0.173079207954 0.858 1.14015920875e-38
-0.0205943566873 -0.172675759917 0.856 1.4078112792e-38
-0.018965759106 -0.172272311879 0.854 1.2240323869e-38
-0.0173852791805 -0.172272311879 0.854 1.36225716807e-38
-0.0157492788829 -0.171667139824 0.851 1.40853448933e-38
-0.0141743509946 -0.171667139824 0.851 1.39049024927e-38
-0.0125698122412 -0.171263691786 0.849 1.47346771744e-38
-0.0109985857111 -0.171263691786 0.849 1.39963932694e-38
-0.0094273591809 -0.171263691786 0.849 1.60236237318e-38
-0.00783762586006 -0.170860243749 0.847 1.52878355393e-38
-0.00627010068805 -0.170860243749 0.847 1.51956357056e-38
-0.00469147144162 -0.170456795712 0.845 1.47310828439e-38
-0.00312764762774 -0.170456795712 0.845 1.59285540388e-38
-0.00156382381387 -0.170456795712 0.845 1.59310581591e-38
0.0 -0.170456795712 0.845 1.61143704191e-38
0.00156382381387 -0.170456795712 0.845 1.63913146397e-38
0.00312764762774 -0.170456795712 0.845 1.62987588762e-38
0.00469147144162 -0.170456795712 0.845 1.56544628618e-38
0.00625529525549 -0.170456795712 0.845 1.56544628618e-38
0.00781911906936 -0.170456795712 0.845 1.62065688515e-38
0.00938294288323 -0.170456795712 0.845 1.66668253321e-38
0.0109726762041 -0.170860243749 0.847 1.68497816622e-38
0.0125698122412 -0.171263691786 0.849 1.59288903504e-38
0.0141410387714 -0.171263691786 0.849 1.68501347894e-38
0.0157122653015 -0.171263691786 0.849 1.69419800947e-38
0.0172834918317 -0.171263691786 0.849 1.74955041985e-38
0.0188547183618 -0.171263691786 0.849 1.71260056155e-38
0.0204740625478 -0.171667139824 0.851 1.74962104529e-38
0.0220489904361 -0.171667139824 0.851 1.80500946904e-38
0.0237071988825 -0.172272311879 0.854 1.77728155594e-38
0.025287678808 -0.172272311879 0.854 1.84152996949e-38
0.0269940049102 -0.173079207954 0.858 1.67554056119e-38
0.0286485119985 -0.173482655991 0.86 1.61957634391e-38
0.0303104218031 -0.173886104028 0.862 1.55485611316e-38
0.0319797343239 -0.174289552065 0.864 1.4804527699e-38
0.0335787210401 -0.174289552065 0.864 1.50746532014e-38
0.0352998525749 -0.174894724121 0.867 1.76539644301e-38
0.0369895225655 -0.175298172158 0.869 1.63772329915e-38
0.0386865952724 -0.175701620195 0.871 1.66682840838e-38
-0.0337730423424 -0.173689932047 0.869 6.16194655276e-39
-0.0320907750681 -0.173290185368 0.867 6.79871058793e-39
-0.0304862363147 -0.173290185368 0.867 7.6320319561e-39
-0.0287817608915 -0.172690565349 0.864 3.03057137321e-39
-0.027119851087 -0.17229081867 0.862 1.37753244237e-39
-0.0254653439987 -0.171891071991 0.86 9.75502155033e-39
-0.0238182396267 -0.171491325312 0.858 1.12211496868e-38
-0.0222303569849 -0.171491325312 0.858 1.05682567063e-38
-0.0206424743431 -0.171491325312 0.858 1.14851767383e-38
-0.0190101754037 -0.171091578633 0.856 1.3611065619e-38
-0.0173852791805 -0.170691831954 0.854 1.17721724728e-38
-0.0157492788829 -0.170092211935 0.851 1.35267592995e-38
-0.0141743509946 -0.170092211935 0.851 1.41753502937e-38
-0.0125994231063 -0.170092211935 0.851 1.37172882465e-38
-0.011024495218 -0.170092211935 0.851 1.50069130323e-38
-0.0094273591809 -0.169692465256 0.849 1.49140139506e-38
-0.00785613265075 -0.169692465256 0.849 1.42686599559e-38
-0.00627010068805 -0.169292718577 0.847 1.46370725325e-38
-0.00470257551603 -0.169292718577 0.847 1.48196631237e-38
-0.00312764762774 -0.168892971898 0.845 1.54650353354e-38
-0.00156382381387 -0.168892971898 0.845 1.45441524313e-38
0.0 -0.168892971898 0.845 1.42657858927e-38
0.00156382381387 -0.168892971898 0.845 1.50948473135e-38
0.00312764762774 -0.168892971898 0.845 1.54646850107e-38
0.00469147144162 -0.168892971898 0.845 1.5187003707e-38
0.00627010068805 -0.169292718577 0.847 1.44490883435e-38
0.00783762586006 -0.169292718577 0.847 1.47231192647e-38
0.00940515103207 -0.169292718577 0.847 1.42625082556e-38
0.0109985857111 -0.169692465256 0.849 1.58287829894e-38
0.0125698122412 -0.169692465256 0.849 1.45395085282e-38
0.0141743509946 -0.170092211935 0.851 1.4813166704e-38
0.0157492788829 -0.170092211935 0.851 1.55507443546e-38
0.0173242067712 -0.170092211935 0.851 1.58269150586e-38
0.0188991346595 -0.170092211935 0.851 1.57340468054e-38
0.0204740625478 -0.170092211935 0.851 1.66574492441e-38
0.022126718957 -0.170691831954 0.854 1.64738020739e-38
0.0237071988825 -0.170691831954 0.854 1.77666666617e-38
0.0253469005382 -0.171091578633 0.856 1.54599318063e-38
0.0270569279986 -0.171891071991 0.86 1.59158806955e-38
0.0286485119985 -0.171891071991 0.86 1.71126120048e-38
0.0303104218031 -0.17229081867 0.862 1.58215340725e-38
0.0319797343239 -0.172690565349 0.864 1.55427989923e-38
0.0336953138215 -0.173290185368 0.867 1.51668474299e-38
0.035381282454 -0.173689932047 0.869 2.02451460582e-38
0.0370746538027 -0.174089678726 0.871 1.75807577957e-38
0.0386865952724 -0.174089678726 0.871 1.68490627961e-38
-0.0338507708634 -0.172477737256 0.871 7.81929027248e-39
-0.0321648022309 -0.172081691935 0.869 5.41829427332e-39
-0.0305565621193 -0.172081691935 0.869 1.92854541932e-39
-0.0288816975613 -0.171685646614 0.867 2.11221641163e-39
-0.027119851087 -0.170695533312 0.862 4.5038965786e-39
-0.0254653439987 -0.170299487991 0.86 5.96930725027e-39
-0.0238737599988 -0.170299487991 0.86 1.26866136078e-38
-0.0222821759988 -0.170299487991 0.86 1.02970802301e-38
-0.0206424743431 -0.16990344267 0.858 1.1303299408e-38
-0.0190101754037 -0.169507397349 0.856 1.26847779068e-38
-0.0173852791805 -0.169111352028 0.854 1.22320576094e-38
-0.015804799255 -0.169111352028 0.854 1.22316988769e-38
-0.0141743509946 -0.168517284047 0.851 1.26930287522e-38
-0.0125994231063 -0.168517284047 0.851 1.26015519884e-38
-0.011024495218 -0.168517284047 0.851 1.41703098231e-38
-0.00944956732974 -0.168517284047 0.851 1.34341923255e-38
-0.00785613265075 -0.168121238726 0.849 1.32508982825e-38
-0.0062849061206 -0.168121238726 0.849 1.41714280593e-38
-0.00470257551603 -0.167725193405 0.847 1.4170703588e-38
-0.00313505034402 -0.167725193405 0.847 1.4909325206e-38
-0.00156382381387 -0.167329148084 0.845 1.41699594985e-38
0.0 -0.167329148084 0.845 1.58306032761e-38
0.00156382381387 -0.167329148084 0.845 1.82323083323e-38
0.00313505034402 -0.167725193405 0.847 1.24247319443e-38
0.00470257551603 -0.167725193405 0.847 1.42556713204e-38
0.00627010068805 -0.167725193405 0.847 1.60145433178e-38
0.00783762586006 -0.167725193405 0.847 1.3059653272e-38
0.00940515103207 -0.167725193405 0.847 1.5642223921e-38
0.0109985857111 -0.168121238726 0.849 1.28770584769e-38
0.0125994231063 -0.168517284047 0.851 1.44371857144e-38
0.0141743509946 -0.168517284047 0.851 1.48999505192e-38
0.0157492788829 -0.168517284047 0.851 1.42506448628e-38
0.0173242067712 -0.168517284047 0.851 1.42492099332e-38
0.0188991346595 -0.168517284047 0.851 1.60009044798e-38
0.0205462390315 -0.169111352028 0.854 1.63793629651e-38
0.022126718957 -0.169111352028 0.854 1.60992139749e-38
0.0237627192546 -0.169507397349 0.856 1.65591355451e-38
0.0254061222684 -0.16990344267 0.858 1.67449337085e-38
0.0270569279986 -0.170299487991 0.86 1.52672925039e-38
0.0286485119985 -0.170299487991 0.86 1.84019369127e-38
0.0303104218031 -0.170695533312 0.862 1.73938624157e-38
0.0319797343239 -0.171091578633 0.864 1.57286223791e-38
0.0336953138215 -0.171685646614 0.867 1.46126058613e-38
0.035381282454 -0.172081691935 0.869 1.78440757902e-38
0.0370746538027 -0.172477737256 0.871 1.81281988629e-38
0.0386865952724 -0.172477737256 0.871 1.73100241298e-38
-0.0372449162771 -0.171650483712 0.875 1.51913393245e-38
-0.0355441422121 -0.171258139749 0.873 1.657713102e-38
-0.0338507708634 -0.170865795786 0.871 1.29850943846e-38
-0.0321648022309 -0.170473451824 0.869 1.27989402914e-38
-0.0305565621193 -0.170473451824 0.869 9.20905605045e-39
-0.0288816975613 -0.170081107861 0.867 3.85709083864e-39
-0.027119851087 -0.169100247954 0.862 2.8469003809e-39
-0.0255245657289 -0.169100247954 0.862 4.68361030406e-39
-0.0238737599988 -0.168707903991 0.86 6.42848473106e-39
-0.0222821759988 -0.168707903991 0.86 1.12215084192e-38
-0.0206905919989 -0.168707903991 0.86 1.16770985759e-38
-0.0190545917013 -0.168315560028 0.858 1.21366347891e-38
-0.01742599412 -0.167923216066 0.856 1.24110650804e-38
-0.015804799255 -0.167530872103 0.854 1.15831106853e-38
-0.0142243193295 -0.167530872103 0.854 1.36096012621e-38
-0.0125994231063 -0.166942356159 0.851 1.31532824302e-38
-0.011024495218 -0.166942356159 0.851 1.32447591939e-38
-0.00944956732974 -0.166942356159 0.851 1.29642304518e-38
-0.00787463944145 -0.166942356159 0.851 1.46302047687e-38
-0.0062849061206 -0.166550012196 0.849 1.39862997166e-38
-0.00471367959045 -0.166550012196 0.849 1.70309415277e-38
-0.00313505034402 -0.166157668233 0.847 1.2880645801e-38
-0.00156752517201 -0.166157668233 0.847 1.2965306649e-38
0.0 -0.166157668233 0.847 1.73892689593e-38
0.00156752517201 -0.166157668233 0.847 1.74973076696e-38
0.00313505034402 -0.166157668233 0.847 1.40846414415e-38
0.00470257551603 -0.166157668233 0.847 1.17628356212e-38
0.00627010068805 -0.166157668233 0.847 1.38811504837e-38
0.00785613265075 -0.166550012196 0.849 1.37889562552e-38
0.0094273591809 -0.166550012196 0.849 1.75700322573e-38
0.0109985857111 -0.166550012196 0.849 1.55532905139e-38
0.0125994231063 -0.166942356159 0.851 1.7762287604e-38
0.0141743509946 -0.166942356159 0.851 1.55554737369e-38
0.0157492788829 -0.166942356159 0.851 1.38836616106e-38
0.0173852791805 -0.167530872103 0.854 1.56357106857e-38
0.018965759106 -0.167530872103 0.854 1.44328809255e-38
0.0205462390315 -0.167530872103 0.854 1.61845768734e-38
0.0221785379709 -0.167923216066 0.856 1.49889161561e-38
0.0237627192546 -0.167923216066 0.856 1.66512821296e-38
0.0254061222684 -0.168315560028 0.858 1.59115759066e-38
0.0270569279986 -0.168707903991 0.86 1.58165118188e-38
0.028715136445 -0.169100247954 0.862 1.88607416481e-38
0.0303104218031 -0.169100247954 0.862 1.75830208928e-38
0.0320907750681 -0.170081107861 0.867 1.43421216265e-38
0.0337730423424 -0.170473451824 0.869 1.58122070299e-38
0.035381282454 -0.170473451824 0.869 1.45200529004e-38
0.0370746538027 -0.170865795786 0.871 2.02455188035e-38
0.0386865952724 -0.170865795786 0.871 1.63884433792e-38
-0.0372449162771 -0.170031139526 0.875 1.67593895035e-38
-0.0355441422121 -0.169642496921 0.873 1.77731532723e-38
-0.0339284993843 -0.169642496921 0.873 1.16007474278e-38
-0.0322388293937 -0.169253854317 0.871 9.38839002402e-39
-0.030626887924 -0.169253854317 0.871 1.07746021091e-38
-0.0288816975613 -0.168476569108 0.867 1.41822278666e-38
-0.027119851087 -0.167504962596 0.862 7.35977367747e-39
-0.0255245657289 -0.167504962596 0.862 2.75506488474e-39
-0.0238737599988 -0.167116319991 0.86 2.66322938858e-39
-0.0222821759988 -0.167116319991 0.86 8.00224379999e-39
-0.0206905919989 -0.167116319991 0.86 1.24207690722e-38
-0.0190545917013 -0.166727677387 0.858 1.26973881917e-38
-0.01742599412 -0.166339034782 0.856 1.4634492742e-38
-0.015804799255 -0.165950392177 0.854 1.65713268418e-38
-0.0142243193295 -0.165950392177 0.854 1.10356850325e-38
-0.012643839404 -0.165950392177 0.854 1.21298188734e-38
-0.0110633594785 -0.165950392177 0.854 1.24060428267e-38
-0.00944956732974 -0.16536742827 0.851 1.20372659124e-38
-0.00787463944145 -0.16536742827 0.851 1.34201793409e-38
-0.00629971155316 -0.16536742827 0.851 1.43514486691e-38
-0.00472478366487 -0.16536742827 0.851 1.38908362587e-38
-0.0031424530603 -0.164978785666 0.849 1.41667014796e-38
-0.00157122653015 -0.164978785666 0.849 1.3518113288e-38
0.0 -0.164978785666 0.849 1.88686743987e-38
0.00157122653015 -0.164978785666 0.849 1.50076893517e-38
0.00313505034402 -0.164590143061 0.847 1.23220994435e-38
0.00470257551603 -0.164590143061 0.847 1.3331213704e-38
0.0062849061206 -0.164978785666 0.849 1.39733447123e-38
0.00785613265075 -0.164978785666 0.849 1.38807917513e-38
0.0094273591809 -0.164978785666 0.849 1.85884777643e-38
0.011024495218 -0.16536742827 0.851 1.68501628154e-38
0.0125994231063 -0.16536742827 0.851 1.50882850328e-38
0.0141743509946 -0.16536742827 0.851 1.33369800472e-38
0.015804799255 -0.165950392177 0.854 1.43428390914e-38
0.0173852791805 -0.165950392177 0.854 1.41570157046e-38
0.018965759106 -0.165950392177 0.854 1.45243576892e-38
0.0205462390315 -0.165950392177 0.854 1.50775230606e-38
0.0221785379709 -0.166339034782 0.856 1.54477349045e-38
0.0237627192546 -0.166339034782 0.856 1.52626289826e-38
0.0254061222684 -0.166727677387 0.858 1.62789178912e-38
0.0270569279986 -0.167116319991 0.86 1.52615527853e-38
0.028715136445 -0.167504962596 0.862 1.72891195594e-38
0.0303807476077 -0.167893605201 0.864 1.67441938229e-38
0.0321648022309 -0.168865211712 0.869 1.54409189888e-38
0.0338507708634 -0.169253854317 0.871 1.54423539184e-38
0.035462712333 -0.169253854317 0.871 1.58125657623e-38
0.0370746538027 -0.169253854317 0.871 1.98806991562e-38
0.0387754278677 -0.169642496921 0.873 1.6665397409e-38
-0.0372449162771 -0.16841179534 0.875 1.64824270659e-38
-0.0356255720912 -0.16841179534 0.875 1.78653460996e-38
-0.0340062279052 -0.16841179534 0.875 1.20617283797e-38
-0.0323128565565 -0.168026854094 0.873 5.69595315624e-39
-0.0306972137286 -0.168026854094 0.873 1.05012438111e-38
-0.0289483220078 -0.167256971601 0.869 1.16011173706e-38
-0.0271827741753 -0.166294618484 0.864 1.35372059796e-38
-0.0255245657289 -0.165909677238 0.862 1.20649877999e-38
-0.0238737599988 -0.165524735991 0.86 2.93873587706e-39
-0.0222821759988 -0.165524735991 0.86 3.03057137321e-39
-0.0206905919989 -0.165524735991 0.86 6.24481373874e-39
-0.0190545917013 -0.165139794745 0.858 1.54632178512e-38
-0.01742599412 -0.164754853498 0.856 1.48258246331e-38
-0.0158418128364 -0.164754853498 0.856 1.29797190037e-38
-0.0142243193295 -0.164369912252 0.854 1.0939186015e-38
-0.012643839404 -0.164369912252 0.854 1.25904312838e-38
-0.0110633594785 -0.164369912252 0.854 1.27748197409e-38
-0.00948287955299 -0.164369912252 0.854 1.19472240783e-38
-0.0079023996275 -0.164369912252 0.854 1.27737435437e-38
-0.00629971155316 -0.163792500382 0.851 1.32411718699e-38
-0.00472478366487 -0.163792500382 0.851 1.28698838288e-38
-0.00314985577658 -0.163792500382 0.851 1.46219329039e-38
-0.00157122653015 -0.163407559136 0.849 1.3425560327e-38
0.0 -0.163407559136 0.849 1.54577850171e-38
0.00157122653015 -0.163407559136 0.849 1.44469051205e-38
0.0031424530603 -0.163407559136 0.849 1.43529102234e-38
0.00471367959045 -0.163407559136 0.849 1.23185121194e-38
0.00629971155316 -0.163792500382 0.851 1.45243576892e-38
0.00787463944145 -0.163792500382 0.851 1.40658976733e-38
0.00944956732974 -0.163792500382 0.851 1.31457490496e-38
0.011024495218 -0.163792500382 0.851 1.59115885183e-38
0.012643839404 -0.164369912252 0.854 1.29602843953e-38
0.0142243193295 -0.164369912252 0.854 1.62789585289e-38
0.015804799255 -0.164369912252 0.854 1.46233678335e-38
0.0173852791805 -0.164369912252 0.854 1.38800742865e-38
0.018965759106 -0.164369912252 0.854 1.46165519178e-38
0.0205462390315 -0.164369912252 0.854 1.47087461464e-38
0.0221785379709 -0.164754853498 0.856 1.51672061623e-38
0.0237627192546 -0.164754853498 0.856 1.5815794354e-38
0.0254653439987 -0.165524735991 0.86 1.47105398084e-38
0.027119851087 -0.165909677238 0.862 1.77522332875e-38
0.028715136445 -0.165909677238 0.862 1.46154757206e-38
0.0304862363147 -0.166872030354 0.867 1.81195766735e-38
0.0322388293937 -0.167641912847 0.871 1.55356243442e-38
0.0338507708634 -0.167641912847 0.871 1.54441475804e-38
0.035462712333 -0.167641912847 0.871 1.67341535194e-38
0.0372449162771 -0.16841179534 0.875 1.91460039765e-38
0.0389975093561 -0.16898920721 0.878 1.81409016335e-38
-0.0371597850399 -0.166411211266 0.873 1.56530293334e-38
-0.0355441422121 -0.166411211266 0.873 1.74965607775e-38
-0.0340062279052 -0.166792451154 0.875 1.15081832564e-38
-0.0323128565565 -0.166411211266 0.873 4.68361170536e-39
-0.0306972137286 -0.166411211266 0.873 1.1051899457e-38
-0.0289483220078 -0.165648731489 0.869 1.25227135355e-38
-0.0272771588079 -0.165267491601 0.867 1.05891360534e-38
-0.0255245657289 -0.16431439188 0.862 1.02152640179e-38
-0.0238737599988 -0.163933151991 0.86 1.42776296673e-38
-0.0222821759988 -0.163933151991 0.86 3.58158435016e-39
-0.0206905919989 -0.163933151991 0.86 6.97949770801e-39
-0.019099007999 -0.163933151991 0.86 1.41677916898e-38
-0.0174667090596 -0.163551912103 0.858 1.3067555194e-38
-0.0158418128364 -0.163170672215 0.856 1.25140212812e-38
-0.0142576315527 -0.163170672215 0.856 1.18586171738e-38
-0.0126734502691 -0.163170672215 0.856 1.20401357717e-38
-0.0110892689855 -0.163170672215 0.856 1.44375486507e-38
-0.00948287955299 -0.162789432326 0.854 1.20401357717e-38
-0.0079023996275 -0.162789432326 0.854 1.27769721354e-38
-0.00629971155316 -0.162217572494 0.851 1.24092714183e-38
-0.00472478366487 -0.162217572494 0.851 1.29602843953e-38
-0.00314985577658 -0.162217572494 0.851 1.42542321869e-38
-0.00157122653015 -0.161836332606 0.849 1.37014255479e-38
0.0 -0.161836332606 0.849 1.55449513868e-38
0.00157492788829 -0.162217572494 0.851 1.44396968412e-38
0.0031424530603 -0.161836332606 0.849 1.51801289368e-38
0.00471367959045 -0.161836332606 0.849 1.25965297347e-38
0.00629971155316 -0.162217572494 0.851 1.60941819121e-38
0.00787463944145 -0.162217572494 0.851 1.31500538385e-38
0.00944956732974 -0.162217572494 0.851 1.38815092161e-38
0.011024495218 -0.162217572494 0.851 1.3602774136e-38
0.012643839404 -0.162789432326 0.854 1.40619516168e-38
0.0142243193295 -0.162789432326 0.854 1.50768055958e-38
0.015804799255 -0.162789432326 0.854 1.56360694181e-38
0.0173852791805 -0.162789432326 0.854 1.3329420042e-38
0.018965759106 -0.162789432326 0.854 1.46122471289e-38
0.0205943566873 -0.163170672215 0.856 1.47076699491e-38
0.0222303569849 -0.163551912103 0.858 1.56274598404e-38
0.0238182396267 -0.163551912103 0.858 1.49821002404e-38
0.0255245657289 -0.16431439188 0.862 1.47080286816e-38
0.027119851087 -0.16431439188 0.862 1.52611940529e-38
0.0287817608915 -0.164695631768 0.864 1.51664886975e-38
0.0305565621193 -0.165648731489 0.869 1.77483110531e-38
0.0322388293937 -0.166029971377 0.871 1.58215340725e-38
0.0338507708634 -0.166029971377 0.871 1.47055175547e-38
0.0355441422121 -0.166411211266 0.873 1.69135281307e-38
0.0372449162771 -0.166792451154 0.875 1.95176465461e-38
0.0389975093561 -0.167364310987 0.878 1.66668253321e-38
-0.0371597850399 -0.164795568438 0.873 1.69444688008e-38
-0.0355441422121 -0.164795568438 0.873 1.67593838983e-38
-0.0340062279052 -0.165173106968 0.875 1.14163589707e-38
-0.0323868837192 -0.165173106968 0.875 9.57707906613e-39
-0.0306972137286 -0.164795568438 0.873 1.13277702831e-38
-0.0289483220078 -0.164040491378 0.869 1.20617283797e-38
-0.0272771588079 -0.163662952847 0.867 1.16025677145e-38
-0.0255837874591 -0.163096645052 0.864 3.76525534248e-39
-0.0238737599988 -0.162341567992 0.86 1.4457386833e-38
-0.0222821759988 -0.162341567992 0.86 1.45517306534e-38
-0.0207387096547 -0.162719106522 0.862 5.60196526564e-39
-0.019099007999 -0.162341567992 0.86 1.18568627481e-38
-0.0175074239991 -0.162341567992 0.86 1.14912751892e-38
-0.0158788264178 -0.161964029461 0.858 1.16717175898e-38
-0.014290943776 -0.161964029461 0.858 1.2776613403e-38
-0.0126734502691 -0.161586490931 0.856 1.2223806764e-38
-0.0110892689855 -0.161586490931 0.856 1.21287426762e-38
-0.00948287955299 -0.161208952401 0.854 1.25875614246e-38
-0.0079023996275 -0.161208952401 0.854 1.2591507481e-38
-0.006321919702 -0.161208952401 0.854 1.28695250964e-38
-0.0047414397765 -0.161208952401 0.854 1.30535548211e-38
-0.00314985577658 -0.160642644606 0.851 1.42510035952e-38
-0.00157492788829 -0.160642644606 0.851 1.34216142705e-38
0.0 -0.160642644606 0.851 1.3510221175e-38
0.00157492788829 -0.160642644606 0.851 1.52647841796e-38
0.00314985577658 -0.160642644606 0.851 1.41627554231e-38
0.00472478366487 -0.160642644606 0.851 1.36056439953e-38
0.00629971155316 -0.160642644606 0.851 1.4064821476e-38
0.00787463944145 -0.160642644606 0.851 1.40619516168e-38
0.00944956732974 -0.160642644606 0.851 1.45239989568e-38
0.0110633594785 -0.161208952401 0.854 1.37871625931e-38
0.012643839404 -0.161208952401 0.854 1.42470575387e-38
0.0142243193295 -0.161208952401 0.854 1.41545045778e-38
0.015804799255 -0.161208952401 0.854 1.41541458454e-38
0.01742599412 -0.161586490931 0.856 1.41534283805e-38
0.0190101754037 -0.161586490931 0.856 1.48902647442e-38
0.0205943566873 -0.161586490931 0.856 1.47980705157e-38
0.0222303569849 -0.161964029461 0.858 1.6549402126e-38
0.0238737599988 -0.162341567992 0.86 1.50732182717e-38
0.0255245657289 -0.162719106522 0.862 1.50757293986e-38
0.0271827741753 -0.163096645052 0.864 1.50771643282e-38
0.0288816975613 -0.163662952847 0.867 1.49824589728e-38
0.030626887924 -0.164418029908 0.871 2.07050353986e-38
0.0322388293937 -0.164418029908 0.871 1.57383081541e-38
0.0338507708634 -0.164418029908 0.871 1.44318047283e-38
0.0355441422121 -0.164795568438 0.873 1.75613988575e-38
0.0372449162771 -0.165173106968 0.875 1.81351212773e-38
-0.0356255720912 -0.163553762782 0.875 1.86951291891e-38
-0.0340062279052 -0.163553762782 0.875 9.8494004032e-39
-0.0323868837192 -0.163553762782 0.875 2.38772290011e-39
-0.0306972137286 -0.16317992561 0.873 6.99354152122e-39
-0.0290149464543 -0.162806088438 0.871 1.22494239012e-38
-0.0273400818963 -0.162432251266 0.869 1.27081908016e-38
-0.0256726200545 -0.162058414094 0.867 5.9693675061e-39
-0.0239292803708 -0.161123821164 0.862 1.46392599594e-38
-0.0223339950128 -0.161123821164 0.862 1.35343249099e-38
-0.0207387096547 -0.161123821164 0.862 1.42755221144e-38
-0.0191434242967 -0.161123821164 0.862 4.40810381558e-39
-0.0175074239991 -0.160749983992 0.86 1.44451450896e-38
-0.0159158399992 -0.160749983992 0.86 1.14959387105e-38
-0.0143242559993 -0.160749983992 0.86 1.27726673465e-38
-0.0127030611342 -0.16037614682 0.858 1.20390595745e-38
-0.0111151784924 -0.16037614682 0.858 1.25003894497e-38
-0.00950508770183 -0.160002309647 0.856 1.25904312838e-38
-0.00792090641819 -0.160002309647 0.856 1.25904312838e-38
-0.006321919702 -0.159628472475 0.854 1.3051761159e-38
-0.0047414397765 -0.159628472475 0.854 1.33279851123e-38
-0.003160959851 -0.159628472475 0.854 1.35130910343e-38
-0.00157492788829 -0.159067716717 0.851 1.32383020106e-38
0.0 -0.159067716717 0.851 1.40637452788e-38
0.00157492788829 -0.159067716717 0.851 1.38793568217e-38
0.00314985577658 -0.159067716717 0.851 1.44346745875e-38
0.00472478366487 -0.159067716717 0.851 1.35116561047e-38
0.00629971155316 -0.159067716717 0.851 1.38789980893e-38
0.0079023996275 -0.159628472475 0.854 1.39708335854e-38
0.00948287955299 -0.159628472475 0.854 1.41562982398e-38
0.0110633594785 -0.159628472475 0.854 1.46154757206e-38
0.012643839404 -0.159628472475 0.854 1.41537871129e-38
0.0142243193295 -0.159628472475 0.854 1.41541458454e-38
0.0158418128364 -0.160002309647 0.856 1.41545045778e-38
0.01742599412 -0.160002309647 0.856 1.452148783e-38
0.0190545917013 -0.16037614682 0.858 1.498353517e-38
0.0206424743431 -0.16037614682 0.858 1.50757293986e-38
0.0222821759988 -0.160749983992 0.86 1.59033250612e-38
0.0238737599988 -0.160749983992 0.86 1.51654125003e-38
0.0255245657289 -0.161123821164 0.862 1.48902647442e-38
0.0271827741753 -0.161497658336 0.864 1.49846113672e-38
0.0289483220078 -0.162432251266 0.869 1.53526708167e-38
0.030626887924 -0.162806088438 0.871 1.78433527202e-38
0.0322388293937 -0.162806088438 0.871 1.46215741715e-38
0.0339284993843 -0.16317992561 0.873 1.55356243442e-38
0.0355441422121 -0.16317992561 0.873 1.69131595892e-38
0.0373726131329 -0.16411451854 0.878 1.90577950408e-38
-0.0357477169098 -0.162489622317 0.878 1.8418873006e-38
-0.0341228206866 -0.162489622317 0.878 5.88464640225e-39
-0.0323868837192 -0.161934418596 0.875 9.37405474073e-39
-0.0307675395333 -0.161934418596 0.875 3.39791335785e-39
-0.0290815709008 -0.161564282782 0.873 1.15074952189e-38
-0.0274030049846 -0.161194146968 0.871 1.40021498035e-38
-0.0257318417847 -0.160824011154 0.869 1.19727585389e-38
-0.0239848007429 -0.15989867162 0.864 1.45549424295e-38
-0.0223858140267 -0.15989867162 0.864 1.35354389422e-38
-0.0207868273105 -0.15989867162 0.864 1.39049767615e-38
-0.0191434242967 -0.159528535806 0.862 1.20649751883e-38
-0.0175481389386 -0.159528535806 0.862 5.33076356605e-39
-0.0159158399992 -0.159158399992 0.86 1.51912650557e-38
-0.0143242559993 -0.159158399992 0.86 1.13990809606e-38
-0.0127326719993 -0.159158399992 0.86 1.21323300002e-38
-0.0111410879994 -0.159158399992 0.86 1.25925836783e-38
-0.00952729585067 -0.158788264178 0.858 1.26819080476e-38
-0.00793941320889 -0.158788264178 0.858 1.23149247953e-38
-0.00633672513455 -0.158418128364 0.856 1.29602843953e-38
-0.00475254385092 -0.158418128364 0.856 1.32354321514e-38
-0.00316836256728 -0.158418128364 0.856 1.37889562552e-38
-0.0015804799255 -0.15804799255 0.854 1.35112973722e-38
0.0 -0.15804799255 0.854 1.37878800579e-38
0.0015804799255 -0.15804799255 0.854 1.43414041617e-38
0.003160959851 -0.15804799255 0.854 1.39719097827e-38
0.0047414397765 -0.15804799255 0.854 1.4064821476e-38
0.006321919702 -0.15804799255 0.854 1.43414041617e-38
