# .PCD v0.7 - Point Cloud Data file format
VERSION 0.7
FIELDS x y z rgb
SIZE 4 4 4 4
TYPE F F F F
COUNT 1 1 1 1
WIDTH 843
HEIGHT 1
VIEWPOINT 0 0 0 1 0 0 0
POINTS 843
DATA ascii
0.0511564708438 -0.0541656750111 0.813 2.11566374599e-38
0.0527906204624 -0.0542989239041 0.815 2.21711747454e-38
0.0545654216902 -0.0545654216902 0.819 2.18981023124e-38
0.0562180780994 -0.0546986705832 0.821 2.07881856468e-38
0.0578781372249 -0.0548319194762 0.823 2.19838575745e-38
0.0594012460992 -0.0548319194762 0.823 2.18934766262e-38
0.0612204636247 -0.0550984172622 0.827 2.30930735908e-38
0.062902730899 -0.0552316661553 0.829 2.34589470147e-38
0.0647478579315 -0.0554981639413 0.833 2.34687336831e-38
0.0664486319965 -0.0556314128343 0.835 2.34734154213e-38
0.0681568087778 -0.0557646617273 0.837 2.34831586495e-38
0.0697058271592 -0.0557646617273 0.837 2.35098281619e-38
0.0045582225486 -0.053179263067 0.821 1.01019045774e-38
0.0060776300648 -0.053179263067 0.821 1.60070351606e-38
0.0075785307903 -0.0530497155321 0.819 1.67460631551e-38
0.00909423694836 -0.0530497155321 0.819 1.73838207109e-38
0.0105840335994 -0.0529201679972 0.817 1.76600376577e-38
0.0120960383994 -0.0529201679972 0.817 1.74752904681e-38
0.013574730976 -0.0527906204624 0.815 1.77504382242e-38
0.0150460208364 -0.0526610729275 0.813 1.78426324528e-38
0.0165506229201 -0.0526610729275 0.813 1.83018099335e-38
0.018010808706 -0.0525315253926 0.811 1.75638987739e-38
0.0194635917757 -0.0524019778577 0.809 1.8209615705e-38
0.0209607911431 -0.0524019778577 0.809 1.92219585572e-38
0.0224579905105 -0.0524019778577 0.809 1.78398046325e-38
0.0239551898778 -0.0524019778577 0.809 1.85783926192e-38
0.0253265430684 -0.052142882788 0.805 1.84861983907e-38
0.0268163397195 -0.052142882788 0.805 1.88538991077e-38
0.0283061363706 -0.052142882788 0.805 1.90379288324e-38
0.0297959330217 -0.052142882788 0.805 1.85769576896e-38
0.0312080011519 -0.0520133352531 0.803 1.89446584067e-38
0.0326940964448 -0.0520133352531 0.803 1.89442996742e-38
0.0341801917378 -0.0520133352531 0.803 1.95878656122e-38
0.0356662870307 -0.0520133352531 0.803 2.0601681229e-38
0.0371523823236 -0.0520133352531 0.803 1.96804185731e-38
0.0387347129282 -0.052142882788 0.805 2.08760736852e-38
0.0402245095793 -0.052142882788 0.805 2.05094491654e-38
0.0417143062304 -0.052142882788 0.805 2.07856731187e-38
0.0432041028815 -0.052142882788 0.805 2.14339081831e-38
0.0448049402767 -0.0522724303229 0.807 2.00520849648e-38
0.046298438286 -0.0522724303229 0.807 2.14317501835e-38
0.0479103797556 -0.0524019778577 0.809 2.14328263807e-38
0.0496518687602 -0.0526610729275 0.813 2.19874294843e-38
0.0512823170206 -0.0527906204624 0.815 2.3095572106e-38
0.0529201679972 -0.0529201679972 0.817 2.15275317361e-38
0.0546986705832 -0.053179263067 0.821 2.02350188742e-38
0.0563550283506 -0.0533088106019 0.823 2.2077474121e-38
0.0580187888342 -0.0534383581368 0.825 2.24469628949e-38
0.0598343050015 -0.0536974532065 0.829 2.13413496169e-38
0.0616646266014 -0.0539565482763 0.833 2.15261010104e-38
0.0632062422665 -0.0539565482763 0.833 2.34719370514e-38
0.0649033149734 -0.0540860958111 0.835 2.34715951346e-38
0.0664486319965 -0.0540860958111 0.835 2.25471094922e-38
0.0681568087778 -0.054215643346 0.837 2.3492489896e-38
0.0697058271592 -0.054215643346 0.837 2.35098505827e-38
0.0061812680927 -0.052540778788 0.835 1.75625521261e-38
0.00772658511588 -0.052540778788 0.835 1.73866905701e-38
0.0091164450972 -0.0516598555508 0.821 1.76589614604e-38
0.0106358526134 -0.0516598555508 0.821 1.76603963901e-38
0.0121552601296 -0.0516598555508 0.821 1.784370865e-38
0.0136413554225 -0.0515340093741 0.819 1.76553741364e-38
0.0151200479992 -0.0514081631973 0.817 1.70118081985e-38
0.0165913378596 -0.0512823170206 0.815 1.90382875648e-38
0.0180996413014 -0.0512823170206 0.815 1.80266621775e-38
0.0195598270874 -0.0511564708438 0.813 1.79337504841e-38
0.021064429171 -0.0511564708438 0.813 1.83018099335e-38
0.0225690312546 -0.0511564708438 0.813 1.86691519182e-38
0.0240144116081 -0.0510306246671 0.811 1.85791100841e-38
0.0255153123336 -0.0510306246671 0.811 1.88538991077e-38
0.026882964166 -0.0507789323136 0.807 1.82957114826e-38
0.0283764621753 -0.0507789323136 0.807 2.04176248796e-38
0.0298699601845 -0.0507789323136 0.807 1.84847634611e-38
0.0313634581937 -0.0507789323136 0.807 1.94049120847e-38
0.0327755263239 -0.0506530861369 0.805 1.89442996742e-38
0.034265322975 -0.0506530861369 0.805 1.98626546358e-38
0.035755119626 -0.0506530861369 0.805 1.99559250616e-38
0.0373374502306 -0.0507789323136 0.807 2.00481192902e-38
0.0388309482398 -0.0507789323136 0.807 1.97708191397e-38
0.0403244462491 -0.0507789323136 0.807 2.12448505995e-38
0.0418179442583 -0.0507789323136 0.807 2.17987418435e-38
0.0433114422675 -0.0507789323136 0.807 2.06045202597e-38
0.0449159810209 -0.0509047784904 0.809 2.08803952897e-38
0.0464131803883 -0.0509047784904 0.809 2.10651256636e-38
0.0479103797556 -0.0509047784904 0.809 2.34618561103e-38
0.0497740135788 -0.0512823170206 0.815 2.11616737265e-38
0.0514081631973 -0.0514081631973 0.817 2.13410062988e-38
0.0533088106019 -0.0517857017275 0.823 2.12462855291e-38
0.0549651683692 -0.0519115479043 0.825 2.1250590318e-38
0.0564919786017 -0.0519115479043 0.825 2.16193672323e-38
0.0581594404435 -0.052037394081 0.827 2.23551273987e-38
0.059978657969 -0.0522890864345 0.831 2.22632919026e-38
0.061812680927 -0.052540778788 0.835 2.25410110413e-38
0.0633579979502 -0.052540778788 0.835 2.34676126444e-38
0.0649033149734 -0.052540778788 0.835 2.34676126444e-38
0.0666077903965 -0.0526666249647 0.837 2.18949255688e-38
0.0681568087778 -0.0526666249647 0.837 2.34972276861e-38
0.00312764762774 -0.0516061858578 0.845 1.68490053429e-38
0.0046803673672 -0.0514840410392 0.843 1.73946289259e-38
0.00622568439037 -0.0513618962206 0.841 1.83079083845e-38
0.00772658511588 -0.0509954617648 0.835 1.81207033174e-38
0.00920527769254 -0.050629027309 0.829 1.87692382597e-38
0.0107135811343 -0.0505068824904 0.827 1.6830648333e-38
0.0122144818598 -0.0503847376718 0.825 1.80255859803e-38
0.0136746676458 -0.0501404480346 0.821 1.95007076503e-38
0.015194075162 -0.0501404480346 0.821 1.84887095175e-38
0.0166320527991 -0.0498961583974 0.817 1.82110506346e-38
0.0181440575991 -0.0498961583974 0.817 1.76596789253e-38
0.0196079447432 -0.0497740135788 0.815 1.784370865e-38
0.021064429171 -0.0496518687602 0.813 1.8302168666e-38
0.0225690312546 -0.0496518687602 0.813 1.84865571231e-38
0.0240736333383 -0.0496518687602 0.813 1.85765989572e-38
0.0255782354219 -0.0496518687602 0.813 1.84840459962e-38
0.0270162130591 -0.0495297239416 0.811 1.90368526352e-38
0.0285171137846 -0.0495297239416 0.811 1.87591937523e-38
0.0300180145101 -0.0495297239416 0.811 1.90350589732e-38
0.0314411867146 -0.049407579123 0.809 1.99548488644e-38
0.032938386082 -0.049407579123 0.809 1.94049120847e-38
0.0344355854494 -0.049407579123 0.809 1.95878656122e-38
0.0359327848167 -0.049407579123 0.809 2.0143183378e-38
0.0375225181376 -0.0495297239416 0.811 2.00484780226e-38
0.0390234188631 -0.0495297239416 0.811 2.15228808265e-38
0.0405243195886 -0.0495297239416 0.811 2.05098359238e-38
0.0420252203141 -0.0495297239416 0.811 2.15225094824e-38
0.0435261210396 -0.0495297239416 0.811 2.06934788901e-38
0.0450270217651 -0.0495297239416 0.811 2.07871080483e-38
0.0465279224906 -0.0495297239416 0.811 2.23537303042e-38
0.0480288232161 -0.0495297239416 0.811 2.24473216273e-38
0.0501404480346 -0.0501404480346 0.821 2.06048719856e-38
0.0517857017275 -0.0502625928532 0.823 2.11551674978e-38
0.0535679056716 -0.0505068824904 0.827 2.12466442615e-38
0.0552316661553 -0.050629027309 0.829 2.11598310191e-38
0.0569028293552 -0.0507511721276 0.831 2.15253793417e-38
0.0585813952714 -0.0508733169462 0.833 2.29050894018e-38
0.0602673639038 -0.0509954617648 0.835 2.3278518627e-38
0.061812680927 -0.0509954617648 0.835 2.23566001634e-38
0.0633579979502 -0.0509954617648 0.835 2.34636918113e-38
0.0650587720152 -0.0511176065834 0.837 2.34700901401e-38
0.0666077903965 -0.0511176065834 0.837 2.34813397641e-38
0.00312764762774 -0.0500423620439 0.845 1.73103170012e-38
0.0046803673672 -0.0499239185834 0.843 1.64698910498e-38
0.00622568439037 -0.049805475123 0.841 1.71054373566e-38
0.00776359869727 -0.0496870316625 0.839 1.86741741719e-38
0.00927190213905 -0.0494501447416 0.835 1.83050385252e-38
0.0107654001483 -0.0492132578207 0.831 1.91347865823e-38
0.0122737035901 -0.0490948143602 0.829 1.80309669664e-38
0.0137079798691 -0.0487394839789 0.823 1.76557328688e-38
0.015194075162 -0.0486210405184 0.821 1.94070644791e-38
0.0167134826782 -0.0486210405184 0.821 1.75660497671e-38
0.0182328901944 -0.0486210405184 0.821 1.78426324528e-38
0.0197522977106 -0.0486210405184 0.821 1.80255859803e-38
0.0212198862128 -0.0485025970579 0.819 1.83010924687e-38
0.0227355923709 -0.0485025970579 0.819 1.85765989572e-38
0.0241920767987 -0.0483841535975 0.817 1.84861983907e-38
0.0257040815987 -0.0483841535975 0.817 1.91268944693e-38
0.0272827108451 -0.0485025970579 0.819 1.90382875648e-38
0.0287984170032 -0.0485025970579 0.819 1.88528229105e-38
0.0302400959984 -0.0483841535975 0.817 1.90354177056e-38
0.0317521007983 -0.0483841535975 0.817 1.94024009578e-38
0.0332641055983 -0.0483841535975 0.817 1.95860719501e-38
0.0346058479238 -0.0481472666766 0.813 1.98633721006e-38
0.0361104500074 -0.0481472666766 0.813 1.9956283794e-38
0.0376150520911 -0.0481472666766 0.813 2.05083729682e-38
0.0392158894863 -0.048265710137 0.815 1.98640895655e-38
0.0407241929281 -0.048265710137 0.815 2.23533407432e-38
0.0422324963699 -0.048265710137 0.815 2.07863905835e-38
0.0436334604256 -0.0481472666766 0.813 2.26299304354e-38
0.0451380625093 -0.0481472666766 0.813 2.13420670817e-38
0.0466426645929 -0.0481472666766 0.813 2.27228295171e-38
0.0486210405184 -0.0486210405184 0.821 2.13381210253e-38
0.0502625928532 -0.0487394839789 0.823 2.12466442615e-38
0.052037394081 -0.0489763708998 0.827 2.12477204587e-38
0.0538270007414 -0.0492132578207 0.831 2.14342613103e-38
0.0554981639413 -0.0493317012812 0.833 2.04158200072e-38
0.0570397796063 -0.0493317012812 0.833 2.18930800587e-38
0.0587220468807 -0.0494501447416 0.835 2.30955594943e-38
0.0602673639038 -0.0494501447416 0.835 2.10687129877e-38
0.0619607352526 -0.0495685882021 0.837 2.34672973522e-38
0.0635097536339 -0.0495685882021 0.837 2.34676350651e-38
0.0650587720152 -0.0495685882021 0.837 2.34697468219e-38
0.0666077903965 -0.0495685882021 0.837 2.34802915929e-38
0.00312764762774 -0.04847853823 0.845 1.79560997933e-38
0.0046803673672 -0.0483637961277 0.843 2.07230224657e-38
0.00624048982293 -0.0483637961277 0.843 1.41623966907e-38
0.00778210548797 -0.0482490540254 0.841 1.7845502312e-38
0.00929411028789 -0.0480195698208 0.837 1.80309669664e-38
0.0107913096553 -0.0477900856161 0.833 1.82092569726e-38
0.0123033144552 -0.0476753435138 0.831 1.88571276994e-38
0.0137412920923 -0.0473311172068 0.825 2.06095537238e-38
0.0152310887434 -0.0472163751045 0.823 1.83976475381e-38
0.0167541976177 -0.0472163751045 0.823 1.82117680994e-38
0.0182328901944 -0.0471016330022 0.821 1.80255859803e-38
0.0197522977106 -0.0471016330022 0.821 1.84858396583e-38
0.0212717052268 -0.0471016330022 0.821 1.84844047286e-38
0.022791112743 -0.0471016330022 0.821 1.86695260649e-38
0.024251298529 -0.0469868908999 0.819 1.8577316422e-38
0.025767004687 -0.0469868908999 0.819 2.0509451968e-38
0.0273493352916 -0.0471016330022 0.821 1.89475366737e-38
0.0288687428078 -0.0471016330022 0.821 1.87595524847e-38
0.0303141231612 -0.0469868908999 0.819 2.00477605578e-38
0.0318298293193 -0.0469868908999 0.819 2.16172176404e-38
0.0333455354773 -0.0469868908999 0.819 1.94041946199e-38
0.0348612416354 -0.0469868908999 0.819 2.01406722511e-38
0.0362881151981 -0.0468721487976 0.817 2.00481192902e-38
0.037800119998 -0.0468721487976 0.817 2.05098387264e-38
0.039312124798 -0.0468721487976 0.817 2.05094491654e-38
0.0408241295979 -0.0468721487976 0.817 2.08785848121e-38
0.0424397724257 -0.0469868908999 0.819 2.15243031444e-38
0.0440628179698 -0.0471016330022 0.821 2.23511813423e-38
0.0456932662302 -0.0472163751045 0.823 2.14310509355e-38
0.0473311172068 -0.0473311172068 0.825 2.17097677988e-38
0.0489763708998 -0.0474458593092 0.827 2.08782260797e-38
0.050629027309 -0.0475606014115 0.829 2.28150447651e-38
0.0522890864345 -0.0476753435138 0.831 2.16186497674e-38
0.0540860958111 -0.0479048277184 0.835 1.95817671613e-38
0.0557646617273 -0.0480195698208 0.837 2.28039114488e-38
0.0573136801086 -0.0480195698208 0.837 2.291009484e-38
0.0590033500993 -0.0481343119231 0.839 2.25438206448e-38
0.0605560698387 -0.0481343119231 0.839 2.20828495019e-38
0.0621087895782 -0.0481343119231 0.839 2.34679167261e-38
0.0635097536339 -0.0480195698208 0.837 2.34673001548e-38
0.0650587720152 -0.0480195698208 0.837 2.34744621913e-38
0.0666077903965 -0.0480195698208 0.837 2.34733986057e-38
0.00312764762774 -0.0469147144162 0.845 1.94315367555e-38
0.00469147144162 -0.0469147144162 0.845 1.64827227399e-38
0.00625529525549 -0.0469147144162 0.845 2.28355079266e-38
0.00778210548797 -0.0466926329278 0.841 6.3366492349e-39
0.00931631843672 -0.0465815921836 0.839 1.31396534013e-38
0.0108172191622 -0.0463595106953 0.835 1.69175456534e-38
0.0123329253203 -0.0462484699511 0.833 1.82160728883e-38
0.0138079165388 -0.0460263884627 0.829 1.79384140054e-38
0.0153051159062 -0.0459153477185 0.827 1.85834148729e-38
0.0168356274968 -0.0459153477185 0.827 1.83068321872e-38
0.0182773064921 -0.0456932662302 0.823 1.82110982788e-38
0.0198004153664 -0.0456932662302 0.823 1.84861983907e-38
0.0212717052268 -0.045582225486 0.821 1.84858396583e-38
0.022791112743 -0.045582225486 0.821 1.84858396583e-38
0.0243105202592 -0.045582225486 0.821 1.92198061627e-38
0.0258299277754 -0.045582225486 0.821 1.89442996742e-38
0.0273493352916 -0.045582225486 0.821 1.91294055962e-38
0.0288687428078 -0.045582225486 0.821 1.9403477155e-38
0.030388150324 -0.045582225486 0.821 1.99555663292e-38
0.0319075578402 -0.045582225486 0.821 1.96804185731e-38
0.0334269653564 -0.045582225486 0.821 2.01403135187e-38
0.0349463728726 -0.045582225486 0.821 1.94938777216e-38
0.0364657803888 -0.045582225486 0.821 2.10597699009e-38
0.037985187905 -0.045582225486 0.821 2.04179724017e-38
0.0395045954212 -0.045582225486 0.821 2.08764324176e-38
0.0410240029374 -0.045582225486 0.821 2.08775086149e-38
0.0425434104536 -0.045582225486 0.821 2.17072622771e-38
0.0441701573558 -0.0456932662302 0.823 2.24466041625e-38
0.0458043069744 -0.0458043069744 0.825 2.16150624434e-38
0.0474458593092 -0.0459153477185 0.827 2.17097677988e-38
0.0490948143602 -0.0460263884627 0.829 2.08796610093e-38
0.0507511721276 -0.0461374292069 0.831 2.22658030294e-38
0.0524149326112 -0.0462484699511 0.833 2.0507296771e-38
0.054215643346 -0.0464705514394 0.837 2.2440864444e-38
0.0558979106203 -0.0465815921836 0.839 2.28132426953e-38
0.057587580611 -0.0466926329278 0.841 2.24476803597e-38
0.0594253049271 -0.0469147144162 0.845 2.33721337722e-38
0.060989128741 -0.0469147144162 0.845 2.3465404198e-38
0.0624048982293 -0.046803673672 0.843 2.34661216628e-38
0.063965020685 -0.046803673672 0.843 2.34744734017e-38
0.0655251431408 -0.046803673672 0.843 2.34734126187e-38
0.0670852655965 -0.046803673672 0.843 2.34762670637e-38
0.00312764762774 -0.0453508906023 0.845 1.68386133135e-38
0.00469147144162 -0.0453508906023 0.845 2.0255535285e-38
0.00627010068805 -0.0454582299883 0.847 2.15462320641e-38
0.00780061227866 -0.0452435512162 0.843 1.11368475712e-38
0.00933852658556 -0.0451362118302 0.841 1.98095832591e-38
0.0108690381762 -0.0450288724442 0.839 1.03957064186e-38
0.0123625361854 -0.0448141936721 0.835 1.63671856815e-38
0.0138412287621 -0.0445995149 0.831 1.79384140054e-38
0.0153421294876 -0.044492175514 0.829 1.784370865e-38
0.0168763424363 -0.044492175514 0.829 1.83961565566e-38
0.0183661390874 -0.0443848361279 0.827 1.89496806604e-38
0.019896650678 -0.0443848361279 0.827 1.8396515289e-38
0.0213235242407 -0.0441701573558 0.823 1.84869158555e-38
0.0228466331151 -0.0441701573558 0.823 1.83940041621e-38
0.0243697419894 -0.0441701573558 0.823 1.94981825105e-38
0.0258928508638 -0.0441701573558 0.823 1.95918284842e-38
0.0274159597381 -0.0441701573558 0.823 1.92215998248e-38
0.0289390686124 -0.0441701573558 0.823 1.9588583077e-38
0.030388150324 -0.0440628179698 0.821 2.00481192902e-38
0.0319075578402 -0.0440628179698 0.821 1.98662419599e-38
0.0334269653564 -0.0440628179698 0.821 1.94985412429e-38
0.0349463728726 -0.0440628179698 0.821 2.0143183378e-38
0.0364657803888 -0.0440628179698 0.821 2.06012846616e-38
0.0380777218585 -0.0441701573558 0.823 2.0967550449e-38
0.0396008307328 -0.0441701573558 0.823 2.08764324176e-38
0.0411239396072 -0.0441701573558 0.823 2.23540512015e-38
0.0427506865094 -0.0442774967419 0.825 2.17086916016e-38
0.0443848361279 -0.0443848361279 0.827 2.17079741368e-38
0.0460263884627 -0.044492175514 0.829 2.20753161214e-38
0.0476753435138 -0.0445995149 0.831 2.19813506516e-38
0.0493317012812 -0.044706854286 0.833 2.21678690824e-38
0.0508733169462 -0.044706854286 0.833 2.05051443765e-38
0.0526666249647 -0.0449215330581 0.837 2.34593169575e-38
0.0543451908809 -0.0450288724442 0.839 2.18956248167e-38
0.0560311595134 -0.0451362118302 0.841 2.22604220433e-38
0.0577245308621 -0.0452435512162 0.843 2.34586149069e-38
0.0595659565364 -0.0454582299883 0.847 2.34643350073e-38
0.0611334817084 -0.0454582299883 0.847 2.30944804945e-38
0.0627010068805 -0.0454582299883 0.847 2.34618168739e-38
0.0642685320525 -0.0454582299883 0.847 2.34723518358e-38
0.0658360572245 -0.0454582299883 0.847 2.34719370514e-38
0.0031424530603 -0.0439943428442 0.849 1.96033891966e-38
0.00471367959045 -0.0439943428442 0.849 1.80396185831e-38
0.0062849061206 -0.0439943428442 0.849 1.4259613173e-38
0.00781911906936 -0.0437870667884 0.845 6.97949770801e-39
0.0093607347344 -0.0436834287605 0.843 2.15523108968e-38
0.0109208571901 -0.0436834287605 0.843 1.69393442523e-38
0.0124217579156 -0.0434761527047 0.839 5.96930725027e-39
0.0139078532086 -0.0432688766489 0.835 1.88607836871e-38
0.0154531702318 -0.0432688766489 0.835 1.8209615705e-38
0.0168763424363 -0.0429579625652 0.829 1.65519132529e-38
0.0184105553851 -0.0429579625652 0.829 1.80248685154e-38
0.019896650678 -0.0428543245373 0.827 1.8303962328e-38
0.0213753432547 -0.0427506865094 0.825 2.01478497019e-38
0.0229021534872 -0.0427506865094 0.825 1.81192515722e-38
0.0244289637197 -0.0427506865094 0.825 1.88538991077e-38
0.0259557739521 -0.0427506865094 0.825 1.92219585572e-38
0.0274825841846 -0.0427506865094 0.825 1.91297643286e-38
0.0290093944171 -0.0427506865094 0.825 1.95878656122e-38
0.0305362046496 -0.0427506865094 0.825 1.96804185731e-38
0.0319852863611 -0.0426470484815 0.823 1.89442996742e-38
0.0335083952355 -0.0426470484815 0.823 1.96829297e-38
0.035116635347 -0.0427506865094 0.825 1.99587949209e-38
0.0366434455795 -0.0427506865094 0.825 2.04172549368e-38
0.038170255812 -0.0427506865094 0.825 2.27206813265e-38
0.0396970660444 -0.0427506865094 0.825 2.20796209103e-38
0.0413238129467 -0.0428543245373 0.827 2.12509490504e-38
0.0428543245373 -0.0428543245373 0.827 2.13402734197e-38
0.044492175514 -0.0429579625652 0.829 2.17072566719e-38
0.0461374292069 -0.0430616005931 0.831 2.31820055966e-38
0.0476753435138 -0.0430616005931 0.831 2.1889851467e-38
0.0494501447416 -0.0432688766489 0.835 2.12452093319e-38
0.0511176065834 -0.0433725146768 0.837 2.21671516175e-38
0.0529183173182 -0.0435797907326 0.841 2.2078544713e-38
0.0544747384158 -0.0435797907326 0.841 2.25362872642e-38
0.0561644084064 -0.0436834287605 0.843 2.2074957389e-38
0.0579984313644 -0.0438907048163 0.847 2.34615268051e-38
0.0597066081457 -0.0439943428442 0.849 2.25431648371e-38
0.0614221876433 -0.0440979808721 0.851 2.32774466337e-38
0.0629971155316 -0.0440979808721 0.851 2.34664803952e-38
0.0647996769455 -0.044253437914 0.854 2.34694959895e-38
0.066380156871 -0.044253437914 0.854 2.3473723707e-38
0.00471367959045 -0.0424231163141 0.849 1.6656312791e-38
0.0062849061206 -0.0424231163141 0.849 1.88761559312e-38
0.00783762586006 -0.0423231796443 0.847 1.13130118076e-38
0.00938294288323 -0.0422232429745 0.845 2.00693531658e-38
0.0109467666971 -0.0422232429745 0.845 6.80515375827e-39
0.0124513687807 -0.042023369635 0.841 6.24481373874e-39
0.0140077898783 -0.042023369635 0.841 1.95043860588e-38
0.0155271973945 -0.0419234329653 0.839 1.83025273984e-38
0.017079917134 -0.0419234329653 0.839 1.68284959385e-38
0.0185882205758 -0.0418234962955 0.837 1.82103331698e-38
0.0199928859897 -0.0415236862862 0.831 1.71972728528e-38
0.0215308002966 -0.0415236862862 0.831 1.68231149524e-38
0.0230131942314 -0.0414237496164 0.829 1.76532217419e-38
0.0245474071801 -0.0414237496164 0.829 1.88492355864e-38
0.0260816201289 -0.0414237496164 0.829 1.96818535028e-38
0.0275492086311 -0.0413238129467 0.827 1.95871481474e-38
0.0290797202217 -0.0413238129467 0.827 2.02343014093e-38
0.0306102318124 -0.0413238129467 0.827 1.97722582732e-38
0.032140743403 -0.0413238129467 0.827 2.0048836755e-38
0.0336712549936 -0.0413238129467 0.827 1.98676768895e-38
0.0352017665842 -0.0413238129467 0.827 1.98658832275e-38
0.0367322781748 -0.0413238129467 0.827 2.17079741368e-38
0.0382627897654 -0.0413238129467 0.827 2.10644081988e-38
0.0397933013561 -0.0413238129467 0.827 2.28125210266e-38
0.0415236862862 -0.0415236862862 0.831 2.14317501835e-38
0.0430616005931 -0.0415236862862 0.831 2.17054630099e-38
0.0445995149 -0.0415236862862 0.831 2.13370448281e-38
0.0462484699511 -0.041623622956 0.833 2.17980383917e-38
0.0479048277184 -0.0417235596257 0.835 2.12452093319e-38
0.0495685882021 -0.0418234962955 0.837 2.12448505995e-38
0.0513618962206 -0.042023369635 0.841 2.23526162719e-38
0.0530441634949 -0.0421233063048 0.843 2.18005270977e-38
0.0546042859506 -0.0421233063048 0.843 2.25366459966e-38
0.0562976572994 -0.0422232429745 0.845 2.34593309704e-38
0.0581353816156 -0.0424231163141 0.849 2.23551358065e-38
0.059847259755 -0.0425230529838 0.851 2.22636674506e-38
0.0616387170945 -0.0426729579885 0.854 2.33703513206e-38
0.06321919702 -0.0426729579885 0.854 2.34730174526e-38
0.0652549439966 -0.0429727679978 0.86 2.34748139172e-38
0.0668465279965 -0.0429727679978 0.86 2.34722369293e-38
0.00638114143223 -0.0414774193095 0.862 1.52687274335e-38
0.00787463944145 -0.0409481250955 0.851 1.71212818384e-38
0.00940515103207 -0.0407556544723 0.847 1.05736643171e-38
0.0109726762041 -0.0407556544723 0.847 1.68521876917e-38
0.0124809796459 -0.040563183849 0.843 1.4342480359e-38
0.0140077898783 -0.0404669485374 0.841 1.83086272506e-38
0.0155642109759 -0.0404669485374 0.841 1.8302168666e-38
0.0171206320735 -0.0404669485374 0.841 1.82099744374e-38
0.0186326368734 -0.0403707132258 0.839 1.82106919022e-38
0.0200891213013 -0.0401782426026 0.835 1.80255859803e-38
0.0216344383245 -0.0401782426026 0.835 1.8209615705e-38
0.0231242349755 -0.0400820072909 0.833 1.74691920172e-38
0.0246066289103 -0.0399857719793 0.831 1.80180525997e-38
0.0261445432172 -0.0399857719793 0.831 1.93141527857e-38
0.0276158330776 -0.0398895366677 0.829 1.94985412429e-38
0.0291500460264 -0.0398895366677 0.829 2.06045132532e-38
0.0306842589751 -0.0398895366677 0.829 2.06945550874e-38
0.0322184719239 -0.0398895366677 0.829 2.0141389716e-38
0.0337526848727 -0.0398895366677 0.829 1.9497823778e-38
0.0352868978214 -0.0398895366677 0.829 1.9681136038e-38
0.0368211107702 -0.0398895366677 0.829 2.14313914511e-38
0.0383553237189 -0.0398895366677 0.829 2.10651999325e-38
0.0399857719793 -0.0399857719793 0.831 2.08739212908e-38
0.0415236862862 -0.0399857719793 0.831 2.17018756858e-38
0.043165238621 -0.0400820072909 0.833 2.23486702154e-38
0.044706854286 -0.0400820072909 0.833 2.15217920176e-38
0.0463595106953 -0.0401782426026 0.835 2.15243031444e-38
0.0482490540254 -0.0404669485374 0.841 2.17086916016e-38
0.049805475123 -0.0404669485374 0.841 2.08800197417e-38
0.0514840410392 -0.040563183849 0.843 2.13399146873e-38
0.0530441634949 -0.040563183849 0.843 2.12477204587e-38
0.0547338334855 -0.0406594191607 0.845 2.18923625939e-38
0.0564309061924 -0.0407556544723 0.847 2.31849006792e-38
0.0582723318667 -0.0409481250955 0.851 2.22632933039e-38
0.060058237169 -0.041092478063 0.854 2.3462911288e-38
0.0616387170945 -0.041092478063 0.854 2.34658259888e-38
0.0633672513455 -0.0411887133746 0.856 2.34712350009e-38
0.0652549439966 -0.0413811839978 0.86 2.34712111788e-38
0.0668465279965 -0.0413811839978 0.86 2.3478409649e-38
0.00638114143223 -0.0398821339514 0.862 2.03376219477e-38
0.00793941320889 -0.0396970660444 0.858 1.535985107e-38
0.00948287955299 -0.0395119981375 0.854 1.71241236717e-38
0.011024495218 -0.0393731972073 0.851 2.09059269477e-38
0.012510590511 -0.0390955953468 0.845 1.18518012581e-38
0.0140411021016 -0.0390030613933 0.843 1.7853394425e-38
0.0156012245573 -0.0390030613933 0.843 1.9871622946e-38
0.0171206320735 -0.0389105274398 0.841 1.83947216269e-38
0.0186770531711 -0.0389105274398 0.841 1.90386462973e-38
0.0201372389571 -0.0387254595329 0.837 1.86713043126e-38
0.0216862573384 -0.0387254595329 0.837 1.8671663045e-38
0.0231797553476 -0.0386329255794 0.835 1.88538991077e-38
0.0247250723708 -0.0386329255794 0.835 1.9222676022e-38
0.0262074663056 -0.0385403916259 0.833 1.94070644791e-38
0.0277490819706 -0.0385403916259 0.833 2.02343014093e-38
0.029220371831 -0.0384478576724 0.831 2.00491954874e-38
0.0307582861379 -0.0384478576724 0.831 2.02343014093e-38
0.0322962004448 -0.0384478576724 0.831 2.00509891494e-38
0.0338341147517 -0.0384478576724 0.831 1.96804185731e-38
0.0353720290586 -0.0384478576724 0.831 2.02364538038e-38
0.0369099433655 -0.0384478576724 0.831 2.05123190247e-38
0.0385403916259 -0.0385403916259 0.833 2.21696627444e-38
0.0401782426026 -0.0386329255794 0.835 2.21671516175e-38
0.0417235596257 -0.0386329255794 0.835 2.12441331347e-38
0.0432688766489 -0.0386329255794 0.835 2.17972985061e-38
0.0449215330581 -0.0387254595329 0.837 2.19827631604e-38
0.0464705514394 -0.0387254595329 0.837 2.1614703711e-38
0.0483637961277 -0.0390030613933 0.843 2.26288402252e-38
0.0499239185834 -0.0390030613933 0.843 2.02328664797e-38
0.0514840410392 -0.0390030613933 0.843 2.34611414481e-38
0.0531700096716 -0.0390955953468 0.845 2.1156243695e-38
0.0548633810204 -0.0391881293003 0.847 2.23526190745e-38
0.0565641550854 -0.0392806632538 0.849 2.22640093674e-38
0.0582723318667 -0.0393731972073 0.851 2.23547686663e-38
0.060058237169 -0.0395119981375 0.854 2.34636539762e-38
0.0616387170945 -0.0395119981375 0.854 2.34679559625e-38
0.06321919702 -0.0395119981375 0.854 2.3472625089e-38
0.00483582440905 -0.0386865952724 0.871 1.99761163712e-38
0.00641815501362 -0.0385089300817 0.867 1.87753367106e-38
0.00795791999959 -0.038198015998 0.86 1.99692247853e-38
0.00950508770183 -0.0380203508073 0.856 1.39737034447e-38
0.0110633594785 -0.037931518212 0.854 1.30564246803e-38
0.0125698122412 -0.0377094367236 0.849 7.16316870032e-39
0.0140744143248 -0.0375317715329 0.845 1.91484646566e-38
0.0156382381387 -0.0375317715329 0.845 1.79359028785e-38
0.0171613470131 -0.0374429389376 0.843 1.94981825105e-38
0.0186770531711 -0.0373541063422 0.841 1.88539047129e-38
0.0201853566129 -0.0372652737469 0.839 1.95003349049e-38
0.0216862573384 -0.0371764411516 0.837 1.88542578401e-38
0.0232352757197 -0.0371764411516 0.837 1.91294055962e-38
0.024784294101 -0.0371764411516 0.837 1.94974650456e-38
0.026270389394 -0.0370876085562 0.835 1.99573599912e-38
0.0278157064172 -0.0370876085562 0.835 2.12484393249e-38
0.0293610234403 -0.0370876085562 0.835 1.92233934868e-38
0.0309063404635 -0.0370876085562 0.835 1.99587949209e-38
0.0324516574867 -0.0370876085562 0.835 2.02335839445e-38
0.0339969745099 -0.0370876085562 0.835 2.00474018254e-38
0.035542291533 -0.0370876085562 0.835 2.04179724017e-38
0.0370876085562 -0.0370876085562 0.835 2.13399146873e-38
0.0386329255794 -0.0370876085562 0.835 2.06020315536e-38
0.0402744779142 -0.0371764411516 0.837 2.18902101994e-38
0.0419234329653 -0.0372652737469 0.839 2.14274453946e-38
0.0434761527047 -0.0372652737469 0.839 2.17079741368e-38
0.0451362118302 -0.0373541063422 0.841 2.20760335862e-38
0.0466926329278 -0.0373541063422 0.841 2.17072566719e-38
0.0483637961277 -0.0374429389376 0.843 2.30890939032e-38
0.0500423620439 -0.0375317715329 0.845 2.16157799082e-38
0.0516061858578 -0.0375317715329 0.845 2.10644081988e-38
0.0532958558484 -0.0376206041283 0.847 2.1427804127e-38
0.0549929285553 -0.0377094367236 0.849 2.34596869003e-38
0.0566974039784 -0.037798269319 0.851 2.25387983911e-38
0.0584777572435 -0.037931518212 0.854 2.34650678864e-38
0.060058237169 -0.037931518212 0.854 2.3463610536e-38
0.0619274230293 -0.0381091834027 0.858 2.34729740123e-38
0.0641815501362 -0.0385089300817 0.867 2.34740656238e-38
0.0657860888896 -0.0385089300817 0.867 2.34748391406e-38
0.00483582440905 -0.0370746538027 0.871 2.13569040299e-38
0.00643296044618 -0.0369895225655 0.869 1.73968345697e-38
0.00797642679028 -0.0366915632353 0.862 1.86774027635e-38
0.0095495039995 -0.0366064319981 0.86 1.95060858338e-38
0.0111151784924 -0.0365213007609 0.858 1.51729458809e-38
0.0125994231063 -0.0362233414307 0.851 1.36099487841e-38
0.0141077265481 -0.0360530789563 0.847 1.86802978462e-38
0.0156752517201 -0.0360530789563 0.847 1.87667271328e-38
0.0172020619526 -0.0359679477191 0.845 1.92248284164e-38
0.0187214694688 -0.0358828164819 0.843 1.90382875648e-38
0.0202334742687 -0.0357976852446 0.841 1.9222676022e-38
0.0217380763524 -0.0357125540074 0.839 1.90382875648e-38
0.0232352757197 -0.0356274227702 0.837 1.98687670997e-38
0.024784294101 -0.0356274227702 0.837 1.94999761725e-38
0.0263333124823 -0.0356274227702 0.837 1.99602298505e-38
0.0278823308637 -0.0356274227702 0.837 1.98658832275e-38
0.029431349245 -0.0356274227702 0.837 2.06041545208e-38
0.0309803676263 -0.0356274227702 0.837 2.0695990017e-38
0.0325293860076 -0.0356274227702 0.837 2.03261369055e-38
0.0340784043889 -0.0356274227702 0.837 2.08793022769e-38
0.0356274227702 -0.0356274227702 0.837 2.04186898665e-38
0.0371764411516 -0.0356274227702 0.837 2.16168561054e-38
0.0387254595329 -0.0356274227702 0.837 2.06967074818e-38
0.0403707132258 -0.0357125540074 0.839 2.15232269472e-38
0.042023369635 -0.0357976852446 0.841 2.15217920176e-38
0.0435797907326 -0.0357976852446 0.841 2.08782260797e-38
0.0452435512162 -0.0358828164819 0.843 2.32774494363e-38
0.046803673672 -0.0358828164819 0.843 2.08800197417e-38
0.0483637961277 -0.0358828164819 0.843 2.18030382246e-38
0.0500423620439 -0.0359679477191 0.845 2.19859917521e-38
0.0517283306764 -0.0360530789563 0.847 2.18001683653e-38
0.0534217020251 -0.0361382101935 0.849 2.34636175425e-38
0.0549929285553 -0.0361382101935 0.849 2.33699813778e-38
0.056897277318 -0.0363510382865 0.854 2.29093689674e-38
0.0584777572435 -0.0363510382865 0.854 2.34618196765e-38
0.0601988887783 -0.0364361695237 0.856 2.34639692684e-38
0.0622161289642 -0.0366915632353 0.862 2.34743725082e-38
0.0641815501362 -0.0369043913283 0.867 2.34683455235e-38
0.0659378445733 -0.0369895225655 0.869 2.34704825036e-38
0.0675460846849 -0.0369895225655 0.869 2.34798768085e-38
0.00483582440905 -0.035462712333 0.871 2.07097045251e-38
0.00643296044618 -0.035381282454 0.869 2.17317990132e-38
0.00797642679028 -0.0350962778772 0.862 1.8228020359e-38
0.00957171214834 -0.0350962778772 0.862 1.90447447482e-38
0.0111410879994 -0.0350148479982 0.86 2.00585267339e-38
0.0127030611342 -0.0349334181191 0.858 1.83050385252e-38
0.0142243193295 -0.034770558361 0.854 1.70157542549e-38
0.0157492788829 -0.0346484135424 0.851 1.85819799433e-38
0.0172834918317 -0.0345669836633 0.849 1.85798275489e-38
0.0187658857665 -0.0344041239052 0.845 1.89478869983e-38
0.0203297095803 -0.0344041239052 0.845 1.93148702505e-38
0.0218417143803 -0.0343226940261 0.843 1.94996174401e-38
0.0233463164639 -0.0342412641471 0.841 1.91333516527e-38
0.0249027375615 -0.0342412641471 0.841 1.95003349049e-38
0.0263962355707 -0.034159834268 0.839 2.01435421104e-38
0.0278823308637 -0.0340784043889 0.837 2.0601643394e-38
0.029431349245 -0.0340784043889 0.837 2.03282892999e-38
0.0310543947891 -0.034159834268 0.839 2.06952725522e-38
0.0326071145285 -0.034159834268 0.839 2.06020021264e-38
0.034159834268 -0.034159834268 0.839 2.09707790406e-38
0.0357125540074 -0.034159834268 0.839 2.06012846616e-38
0.0372652737469 -0.034159834268 0.839 2.20771097834e-38
0.0388179934863 -0.034159834268 0.839 2.20806971075e-38
0.0404669485374 -0.0342412641471 0.841 2.09722139703e-38
0.042023369635 -0.0342412641471 0.841 2.18930800587e-38
0.0436834287605 -0.0343226940261 0.843 2.13427845466e-38
0.0452435512162 -0.0343226940261 0.843 2.18030382246e-38
0.046803673672 -0.0343226940261 0.843 2.21696627444e-38
0.04847853823 -0.0344041239052 0.845 2.20781859806e-38
0.0501608055044 -0.0344855537843 0.847 2.27213931862e-38
0.051850475495 -0.0345669836633 0.849 2.20789034455e-38
0.0534217020251 -0.0345669836633 0.849 2.34625427465e-38
0.0551224760902 -0.0346484135424 0.851 2.3463610536e-38
0.056897277318 -0.034770558361 0.854 2.34661216628e-38
0.0586147074946 -0.03485198824 0.856 2.34668391276e-38
0.0604801919968 -0.0350148479982 0.86 2.34732963109e-38
0.0625770113828 -0.0352998525749 0.867 2.34729375785e-38
0.0641815501362 -0.0352998525749 0.867 2.34704586816e-38
0.0659378445733 -0.035381282454 0.869 2.34755818287e-38
0.0675460846849 -0.035381282454 0.869 2.34812823109e-38
0.0691543247964 -0.035381282454 0.869 2.34870780813e-38
0.00482472033463 -0.0337730423424 0.869 1.79416650178e-38
0.00643296044618 -0.0337730423424 0.869 2.02512641273e-38
0.00799493358098 -0.0335787210401 0.864 1.56450377283e-38
0.00957171214834 -0.0335009925192 0.862 2.20907780486e-38
0.0111410879994 -0.0334232639983 0.86 1.71147643992e-38
0.0127326719993 -0.0334232639983 0.86 1.90415161565e-38
0.014290943776 -0.0333455354773 0.858 1.82139204939e-38
0.0158418128364 -0.0332678069564 0.856 1.93184575746e-38
0.0173852791805 -0.0331900784355 0.854 1.91326341879e-38
0.0188547183618 -0.0329957571332 0.849 1.91333516527e-38
0.0203778272361 -0.0329180286122 0.847 1.94992587077e-38
0.0219453524082 -0.0329180286122 0.847 1.96836471648e-38
0.0234573572081 -0.0328403000913 0.845 1.93159464478e-38
0.025021181022 -0.0328403000913 0.845 2.014497704e-38
0.0264591586591 -0.0326848430495 0.841 1.98673181571e-38
0.0279489553102 -0.0326071145285 0.839 2.07892604428e-38
0.0295016750496 -0.0326071145285 0.839 2.00495542198e-38
0.0310543947891 -0.0326071145285 0.839 2.12462855291e-38
0.0326071145285 -0.0326071145285 0.839 2.07874667807e-38
0.0342412641471 -0.0326848430495 0.841 2.02343014093e-38
0.0357976852446 -0.0326848430495 0.841 2.16150624434e-38
0.0373541063422 -0.0326848430495 0.841 2.14342613103e-38
0.0389105274398 -0.0326848430495 0.841 2.09729314351e-38
0.040563183849 -0.0327625715704 0.843 2.16186497674e-38
0.0421233063048 -0.0327625715704 0.843 2.16175735702e-38
0.0436834287605 -0.0327625715704 0.843 2.16197259647e-38
0.0452435512162 -0.0327625715704 0.843 2.29115213618e-38
0.0469147144162 -0.0328403000913 0.845 2.24466041625e-38
0.0485932803324 -0.0329180286122 0.847 2.22607807757e-38
0.0501608055044 -0.0329180286122 0.847 2.31827230614e-38
0.0519726203136 -0.0330734856541 0.851 2.30026393931e-38
0.0535475482019 -0.0330734856541 0.851 2.33699813778e-38
0.0554463449273 -0.0332678069564 0.856 2.34589470147e-38
0.057163775104 -0.0333455354773 0.858 2.34646867332e-38
0.0587516577458 -0.0333455354773 0.858 2.34636161412e-38
0.0609724726294 -0.0336953138215 0.867 2.34610994091e-38
0.0625770113828 -0.0336953138215 0.867 2.34704979179e-38
0.0643296044618 -0.0337730423424 0.869 2.34722761657e-38
0.0659378445733 -0.0337730423424 0.869 2.34802285344e-38
0.0675460846849 -0.0337730423424 0.869 2.34809053616e-38
0.0691543247964 -0.0337730423424 0.869 2.34910689794e-38
0.0707625649079 -0.0337730423424 0.869 2.35098491814e-38
0.00484692848347 -0.0323128565565 0.873 2.03383772476e-38
0.00643296044618 -0.0321648022309 0.869 1.83104643529e-38
0.00799493358098 -0.0319797343239 0.864 2.13590087802e-38
0.00957171214834 -0.0319057071611 0.862 1.98857340215e-38
0.0111410879994 -0.0318316799983 0.86 2.03463310177e-38
0.0127326719993 -0.0318316799983 0.86 1.76618313197e-38
0.014290943776 -0.0317576528356 0.858 1.9224469684e-38
0.0158788264178 -0.0317576528356 0.858 1.91315579906e-38
0.0173852791805 -0.03160959851 0.854 1.91315579906e-38
0.018965759106 -0.03160959851 0.854 1.92248284164e-38
0.0204740625478 -0.0314985577658 0.851 1.94999761725e-38
0.0219971714221 -0.031424530603 0.849 1.97762001258e-38
0.0235683979523 -0.031424530603 0.849 1.97762001258e-38
0.0251396244824 -0.031424530603 0.849 2.0235736339e-38
0.0265850048358 -0.0312764762774 0.845 1.98676768895e-38
0.0280822042032 -0.0312024491147 0.843 2.05112428274e-38
0.0296423266589 -0.0312024491147 0.843 2.10633320016e-38
0.0312024491147 -0.0312024491147 0.843 2.12473617263e-38
0.0327625715704 -0.0312024491147 0.843 2.10644081988e-38
0.0343226940261 -0.0312024491147 0.843 2.06974249466e-38
0.0357976852446 -0.0311284219519 0.841 2.06949138198e-38
0.0373541063422 -0.0311284219519 0.841 2.2077849669e-38
0.0390030613933 -0.0312024491147 0.843 2.12520252476e-38
0.040563183849 -0.0312024491147 0.843 2.15275317361e-38
0.0421233063048 -0.0312024491147 0.843 2.18934387911e-38
0.0437870667884 -0.0312764762774 0.845 2.22614982405e-38
0.0453508906023 -0.0312764762774 0.845 2.21707389416e-38
0.0470257551603 -0.0313505034402 0.847 2.21682278148e-38
0.0487080224347 -0.031424530603 0.849 2.29100864322e-38
0.0503976924253 -0.0314985577658 0.851 2.26338624789e-38
0.0519726203136 -0.0314985577658 0.851 2.34664803952e-38
0.0538621636437 -0.0316836256728 0.856 2.34625343387e-38
0.0555758924622 -0.0317576528356 0.858 2.34646895358e-38
0.057297023997 -0.0318316799983 0.86 2.34636133386e-38
0.059367933876 -0.0320907750681 0.867 2.34607406767e-38
0.0611131242387 -0.0321648022309 0.869 2.34718781969e-38
0.0627213643502 -0.0321648022309 0.869 2.34690265545e-38
0.0643296044618 -0.0321648022309 0.869 2.3479484445e-38
0.066089600257 -0.0322388293937 0.871 2.34798669994e-38
0.0677015417267 -0.0322388293937 0.871 2.34780439101e-38
0.0694726415964 -0.0323128565565 0.873 2.34950080294e-38
0.0710882844242 -0.0323128565565 0.873 2.35098309645e-38
0.00323128565565 -0.0306972137286 0.873 2.00650525808e-38
0.00484692848347 -0.0306972137286 0.873 1.8123950126e-38
0.00646257131129 -0.0306972137286 0.873 1.93209981287e-38
0.00805970734842 -0.030626887924 0.871 1.81246283544e-38
0.00957171214834 -0.0303104218031 0.862 1.95086025658e-38
0.0111669975064 -0.0303104218031 0.862 2.13561389209e-38
0.0127326719993 -0.0302400959984 0.86 1.6564139582e-38
0.0143242559993 -0.0302400959984 0.86 1.88553340373e-38
0.0159158399992 -0.0302400959984 0.86 1.94992587077e-38
0.0174667090596 -0.0301697701938 0.858 1.90393973932e-38
0.0190101754037 -0.0300994443891 0.856 1.95003349049e-38
0.0205462390315 -0.0300291185845 0.854 1.96829297e-38
0.022126718957 -0.0300291185845 0.854 1.94985412429e-38
0.0236239183244 -0.0299236298775 0.851 2.00527828115e-38
0.0251988462126 -0.0299236298775 0.851 2.01442595752e-38
0.0267108510126 -0.0298533040729 0.849 1.96854408268e-38
0.0282154530962 -0.0297829782682 0.847 2.05123190247e-38
0.0297829782682 -0.0297829782682 0.847 2.06949138198e-38
0.0312764762774 -0.0297126524636 0.845 2.1063690734e-38
0.0328403000913 -0.0297126524636 0.845 2.05119602923e-38
0.0344041239052 -0.0297126524636 0.845 2.09740076323e-38
0.0359679477191 -0.0297126524636 0.845 2.14328263807e-38
0.0375317715329 -0.0297126524636 0.845 2.17086916016e-38
0.0390955953468 -0.0297126524636 0.845 2.18927213263e-38
0.0406594191607 -0.0297126524636 0.845 2.19859917521e-38
0.0422232429745 -0.0297126524636 0.845 2.25380809262e-38
0.0438907048163 -0.0297829782682 0.847 2.22607807757e-38
0.0455655693744 -0.0298533040729 0.849 2.25384396586e-38
0.0471367959045 -0.0298533040729 0.849 2.24487565569e-38
0.048822764537 -0.0299236298775 0.851 2.24491152893e-38
0.0506938010764 -0.0300994443891 0.856 2.27249805102e-38
0.0524001271787 -0.0301697701938 0.858 2.34603819443e-38
0.0539880098204 -0.0301697701938 0.858 2.34614581415e-38
0.0557054399971 -0.0302400959984 0.86 2.34636133386e-38
0.0578966440156 -0.0305565621193 0.869 2.34625343387e-38
0.0595048841271 -0.0305565621193 0.869 2.346719786e-38
0.0611131242387 -0.0305565621193 0.869 2.34722201137e-38
0.0627213643502 -0.0305565621193 0.869 2.3476883635e-38
0.0643296044618 -0.0305565621193 0.869 2.34762740702e-38
0.066089600257 -0.030626887924 0.871 2.34812612914e-38
0.0678569987686 -0.0306972137286 0.873 2.34791074957e-38
0.0696317999964 -0.0307675395333 0.875 2.34967946849e-38
0.0712511441823 -0.0307675395333 0.875 2.35098407736e-38
0.00323868837192 -0.0291481953473 0.875 2.05245915966e-38
0.00647737674385 -0.0291481953473 0.875 1.75711448883e-38
0.00809672092981 -0.0291481953473 0.875 1.89547603673e-38
0.00957171214834 -0.028715136445 0.862 1.92284325561e-38
0.0111669975064 -0.028715136445 0.862 1.86763601975e-38
0.0127622828645 -0.028715136445 0.862 2.02486829355e-38
0.0143575682225 -0.028715136445 0.862 1.9598268852e-38
0.0159158399992 -0.0286485119985 0.86 1.91322754554e-38
0.0175074239991 -0.0286485119985 0.86 1.92251871488e-38
0.019099007999 -0.0286485119985 0.86 1.95936053307e-38
0.0206424743431 -0.028581887552 0.858 1.98683943543e-38
0.0221785379709 -0.0285152631055 0.856 1.96854408268e-38
0.0237071988825 -0.028448638659 0.854 2.01453357724e-38
0.025287678808 -0.028448638659 0.854 2.01456945048e-38
0.0267737741009 -0.0283487019892 0.851 2.01435421104e-38
0.0282820775427 -0.0282820775427 0.849 2.02368125362e-38
0.0298533040729 -0.0282820775427 0.849 2.08821721361e-38
0.0313505034402 -0.0282154530962 0.847 2.06967074818e-38
0.0329180286122 -0.0282154530962 0.847 2.125238398e-38
0.0344855537843 -0.0282154530962 0.847 2.09740076323e-38
0.0360530789563 -0.0282154530962 0.847 2.18930800587e-38
0.0376206041283 -0.0282154530962 0.847 2.15235856796e-38
0.0391881293003 -0.0282154530962 0.847 2.3462188218e-38
0.0407556544723 -0.0282154530962 0.847 2.14324676483e-38
0.0423231796443 -0.0282154530962 0.847 2.25380809262e-38
0.0440979808721 -0.0283487019892 0.851 2.26320688168e-38
0.0456729087604 -0.0283487019892 0.851 2.32774284168e-38
0.047414397765 -0.028448638659 0.854 2.20814145723e-38
0.0491096197928 -0.0285152631055 0.856 2.30923224949e-38
0.0508122445369 -0.028581887552 0.858 2.30951923541e-38
0.0525222719973 -0.0286485119985 0.86 2.3184157991e-38
0.0542397021739 -0.028715136445 0.862 2.34646867332e-38
0.055834987532 -0.028715136445 0.862 2.34646867332e-38
0.0578966440156 -0.0289483220078 0.869 2.34707949932e-38
0.0596418343783 -0.0290149464543 0.871 2.34845109026e-38
0.061253775848 -0.0290149464543 0.871 2.34719664787e-38
0.0628657173177 -0.0290149464543 0.871 2.34686818351e-38
0.0644776587873 -0.0290149464543 0.871 2.34719384527e-38
0.0662413559407 -0.0290815709008 0.873 2.34815835901e-38
0.0678569987686 -0.0290815709008 0.873 2.3480944598e-38
0.0696317999964 -0.0291481953473 0.875 2.34975149523e-38
0.0712511441823 -0.0291481953473 0.875 2.35098505827e-38
0.00656620933919 -0.0279063896916 0.887 1.86799475215e-38
0.00818925488329 -0.0278434666032 0.885 1.82200735954e-38
0.00982710585995 -0.0278434666032 0.885 1.9413886e-38
0.0114260925761 -0.0277490819706 0.882 1.87670858653e-38
0.0129991697854 -0.0276232357939 0.878 1.91329929203e-38
0.0143908804458 -0.0271827741753 0.864 1.94106518032e-38
0.0159528535806 -0.027119851087 0.862 1.94099343384e-38
0.0175481389386 -0.027119851087 0.862 1.89493219279e-38
0.019099007999 -0.0270569279986 0.86 1.95950402603e-38
0.0206905919989 -0.0270569279986 0.86 1.99609473153e-38
0.0222303569849 -0.0269940049102 0.858 2.04219184581e-38
0.0238182396267 -0.0269940049102 0.858 2.03311591592e-38
0.0253469005382 -0.0269310818219 0.856 2.05123190247e-38
0.0268681587335 -0.0268681587335 0.854 2.06970662142e-38
0.0283487019892 -0.0267737741009 0.851 2.08803784741e-38
0.0299236298775 -0.0267737741009 0.851 2.10647669312e-38
0.0314985577658 -0.0267737741009 0.851 2.08803784741e-38
0.0330734856541 -0.0267737741009 0.851 2.16197259647e-38
0.0346484135424 -0.0267737741009 0.851 2.18955911855e-38
0.0361382101935 -0.0267108510126 0.849 2.1709050334e-38
0.0377094367236 -0.0267108510126 0.849 2.19849155549e-38
0.0393731972073 -0.0267737741009 0.851 2.19838393576e-38
0.0409481250955 -0.0267737741009 0.851 2.25380809262e-38
0.0426729579885 -0.0268681587335 0.854 2.19859917521e-38
0.044253437914 -0.0268681587335 0.854 2.22632919026e-38
0.0459412572255 -0.0269310818219 0.856 2.2078544713e-38
0.0476364792533 -0.0269940049102 0.858 2.24469628949e-38
0.0493391039974 -0.0270569279986 0.86 2.34607406767e-38
0.0510491314578 -0.027119851087 0.862 2.31845167234e-38
0.0526444168159 -0.027119851087 0.862 2.34625343387e-38
0.0546801637925 -0.0273400818963 0.869 2.34625343387e-38
0.056288403904 -0.0273400818963 0.869 2.34618168739e-38
0.0580298929086 -0.0274030049846 0.871 2.34722999877e-38
0.0596418343783 -0.0274030049846 0.871 2.34718753943e-38
0.061253775848 -0.0274030049846 0.871 2.34689915221e-38
0.0628657173177 -0.0274030049846 0.871 2.34758817066e-38
0.0644776587873 -0.0274030049846 0.871 2.34676182496e-38
0.0663931116244 -0.0275288511614 0.875 2.34784138529e-38
0.0680124558104 -0.0275288511614 0.875 2.34766047766e-38
0.0696317999964 -0.0275288511614 0.875 2.35047456524e-38
0.00656620933919 -0.0262648373568 0.887 1.92377876246e-38
0.00820776167399 -0.0262648373568 0.887 1.85877771151e-38
0.00984931400879 -0.0262648373568 0.887 1.97866285889e-38
0.0114649568366 -0.0262056156265 0.885 1.86799138904e-38
0.0130583915156 -0.0261167830312 0.882 1.99656108366e-38
0.0145074732272 -0.0257910635149 0.871 1.95953989927e-38
0.0160824011154 -0.0257318417847 0.869 1.94110105356e-38
0.0176499262875 -0.0256726200545 0.867 1.97801461822e-38
0.0191878405943 -0.0255837874591 0.864 1.96879519537e-38
0.0207868273105 -0.0255837874591 0.864 1.99609473153e-38
0.0223339950128 -0.0255245657289 0.862 2.01446183076e-38
0.0239292803708 -0.0255245657289 0.862 2.03297242296e-38
0.0254653439987 -0.0254653439987 0.86 2.04219184581e-38
0.0270569279986 -0.0254653439987 0.86 2.14328263807e-38
0.0286485119985 -0.0254653439987 0.86 2.13406321521e-38
0.0301697701938 -0.0254061222684 0.858 2.11583960894e-38
0.0317576528356 -0.0254061222684 0.858 2.21725326036e-38
0.0333455354773 -0.0254061222684 0.858 2.13395559549e-38
0.0349334181191 -0.0254061222684 0.858 2.22604220433e-38
0.0366064319981 -0.0254653439987 0.86 2.18026794922e-38
0.038198015998 -0.0254653439987 0.86 2.21682278148e-38
0.0397895999979 -0.0254653439987 0.86 2.19838393576e-38
0.0413811839978 -0.0254653439987 0.86 2.24458866977e-38
0.0430727046675 -0.0255245657289 0.862 2.20781859806e-38
0.0445643519977 -0.0254653439987 0.86 2.24469628949e-38
0.0461559359976 -0.0254653439987 0.86 2.29072165729e-38
0.0478585607417 -0.0255245657289 0.862 2.3463610536e-38
0.0495685882021 -0.0255837874591 0.864 2.32777871492e-38
0.051345240109 -0.0256726200545 0.867 2.34610994091e-38
0.0529497788624 -0.0256726200545 0.867 2.34632882373e-38
0.0546801637925 -0.0257318417847 0.869 2.3463610536e-38
0.0564179514389 -0.0257910635149 0.871 2.34661216628e-38
0.0580298929086 -0.0257910635149 0.871 2.3472958598e-38
0.0597787846294 -0.0258502852452 0.873 2.34654280201e-38
0.0613944274573 -0.0258502852452 0.873 2.34744005341e-38
0.0630100702851 -0.0258502852452 0.873 2.32817682381e-38
0.0647737674385 -0.0259095069754 0.875 2.34737419239e-38
0.0663931116244 -0.0259095069754 0.875 2.34754823365e-38
0.0680124558104 -0.0259095069754 0.875 2.34810006499e-38
0.0696317999964 -0.0259095069754 0.875 2.3503687672e-38
0.00493576107881 -0.0246788053941 0.889 2.15380176525e-38
0.00658101477175 -0.0246788053941 0.889 1.99771757528e-38
0.00822626846469 -0.0246788053941 0.889 1.87735710745e-38
0.00984931400879 -0.024623285022 0.887 1.85913097885e-38
0.0114908663436 -0.024623285022 0.887 1.90494166773e-38
0.0131028078133 -0.0245677646499 0.885 1.9138015174e-38
0.0146240660085 -0.0243734433476 0.878 1.94120867328e-38
0.0161564282782 -0.0242346424173 0.873 1.97801461822e-38
0.0177313561665 -0.0241791220453 0.871 1.99638171746e-38
0.0192988813385 -0.0241236016732 0.869 1.97783525202e-38
0.0208590037943 -0.0240680813011 0.867 2.02407585927e-38
0.0223858140267 -0.0239848007429 0.864 2.01471294345e-38
