# .PCD v0.7 - Point Cloud Data file format
VERSION 0.7
FIELDS x y z rgb
SIZE 4 4 4 4
TYPE F F F F
COUNT 1 1 1 1
WIDTH 845
HEIGHT 1
VIEWPOINT 0 0 0 1 0 0 0
POINTS 845
DATA ascii
0.0509306879973 -0.0907202879953 0.86 9.39129631703e-39
0.0525222719973 -0.0907202879953 0.86 1.04061769207e-38
0.0539880098204 -0.0905093105813 0.858 1.17865497951e-38
0.0554463449273 -0.0902983331674 0.856 1.20620787043e-38
0.0521669416159 -0.0825976575585 0.783 1.21553701496e-38
0.0534790730763 -0.0823866801445 0.781 9.57133934762e-39
0.054854127625 -0.0822811914376 0.78 1.84148652924e-38
0.0562976572994 -0.0822811914376 0.78 2.34896060238e-38
0.0574450783226 -0.0818592366097 0.776 2.34936123361e-38
0.0588812052807 -0.0818592366097 0.776 2.34792153957e-38
-0.00144908171155 -0.0811485758469 0.783 2.04421574119e-38
0.0 -0.0811485758469 0.783 1.99815464027e-38
0.00144908171155 -0.0811485758469 0.783 1.97989375947e-38
0.0028981634231 -0.0811485758469 0.783 1.92464826816e-38
0.00434724513466 -0.0811485758469 0.783 2.00765992802e-38
0.00579632684621 -0.0811485758469 0.783 2.28420954307e-38
0.00724540855776 -0.0811485758469 0.783 1.34363629369e-38
0.00959392029717 -0.089543256107 0.864 1.06673074883e-38
0.0111929070134 -0.089543256107 0.864 1.59335734899e-38
0.0128363100272 -0.0898541701907 0.867 1.46439066651e-38
0.0144408487806 -0.0898541701907 0.867 1.21532205578e-38
0.0160824011154 -0.0900614462465 0.869 1.27063635084e-38
0.0177313561665 -0.0902687223023 0.871 1.04951103278e-38
0.0193432976362 -0.0902687223023 0.871 1.08635355161e-38
0.0209552391059 -0.0902687223023 0.871 1.10472275279e-38
0.0226189995895 -0.0904759983581 0.873 1.05887675119e-38
0.0242901627894 -0.0906832744139 0.875 1.04969208054e-38
0.0259983395707 -0.0909941884976 0.878 1.06831071284e-38
0.0276232357939 -0.0909941884976 0.878 1.03139756857e-38
0.0293147564636 -0.0912014645534 0.88 1.08631851915e-38
0.0309433540449 -0.0912014645534 0.88 1.08635355161e-38
0.032645978789 -0.0914087406092 0.882 1.06813218742e-38
0.0342005492075 -0.0912014645534 0.88 1.06806282315e-38
0.0358291467888 -0.0912014645534 0.88 1.08635383187e-38
0.0374577443701 -0.0912014645534 0.88 1.03135707104e-38
0.0391751745468 -0.0914087406092 0.882 9.94482322342e-39
0.0407149395328 -0.0912014645534 0.88 1.03125323483e-38
0.0423435371141 -0.0912014645534 0.88 9.57606312475e-39
0.0438721980256 -0.0909941884976 0.878 9.94591763752e-39
0.0454970942488 -0.0909941884976 0.878 9.85335626876e-39
0.047121990472 -0.0909941884976 0.878 9.94482322342e-39
0.0487468866951 -0.0909941884976 0.878 1.03125323483e-38
0.0503717829183 -0.0909941884976 0.878 9.85155419894e-39
0.0519966791415 -0.0909941884976 0.878 1.19713095963e-38
0.0522779823601 -0.0887141518838 0.856 1.19713123989e-38
0.0538621636437 -0.0887141518838 0.856 1.0588040238e-38
0.0554463449273 -0.0887141518838 0.856 9.75970889369e-39
0.056897277318 -0.0885068758279 0.854 1.04882761952e-38
0.0584777572435 -0.0885068758279 0.854 2.01655354898e-38
0.054854127625 -0.0808376617632 0.78 2.34892795212e-38
0.0562976572994 -0.0808376617632 0.78 2.34932508011e-38
0.0574450783226 -0.0804231096516 0.776 2.34845627506e-38
0.0587294495969 -0.0802158335958 0.774 2.34874872605e-38
0.0601618751969 -0.0802158335958 0.774 2.34885480434e-38
-0.00144908171155 -0.0796994941354 0.783 1.98886333081e-38
0.0 -0.0796994941354 0.783 1.9426557942e-38
0.00144908171155 -0.0796994941354 0.783 1.99811764599e-38
0.00289076070683 -0.0794959194377 0.781 1.98907800973e-38
0.00433614106024 -0.0794959194377 0.781 1.94322990619e-38
0.00579632684621 -0.0796994941354 0.783 2.1181479679e-38
0.00722690176707 -0.0794959194377 0.781 2.33016064205e-38
0.00867228212048 -0.0794959194377 0.781 1.80497569775e-38
0.0112835902878 -0.0886567808326 0.871 1.30729277724e-38
0.0128955317575 -0.0886567808326 0.871 1.1689019422e-38
0.0145074732272 -0.0886567808326 0.871 1.19673130931e-38
0.0143612695806 -0.0789869826936 0.776 1.27042055087e-38
0.0157973965387 -0.0789869826936 0.776 1.20617129654e-38
0.0193877139339 -0.0888603555303 0.873 1.14170596199e-38
0.0210033567617 -0.0888603555303 0.873 1.11386930813e-38
0.0227485471244 -0.0893692922744 0.878 1.08624663254e-38
0.0244289637197 -0.0895728669721 0.88 1.1324492646e-38
0.026057561301 -0.0895728669721 0.88 1.0955383624e-38
0.0276861588823 -0.0895728669721 0.88 1.06813218742e-38
0.0294813175799 -0.0900818037162 0.885 9.85335626876e-39
0.0311191685565 -0.0900818037162 0.885 1.00373873948e-38
0.0327570195332 -0.0900818037162 0.885 1.01277823561e-38
0.0343948705098 -0.0900818037162 0.885 1.07709741473e-38
0.0359105766679 -0.0897764416697 0.882 1.04043720483e-38
0.0375428756073 -0.0897764416697 0.882 1.04054440416e-38
0.0393084234398 -0.0900818037162 0.885 9.4838478767e-39
0.0407149395328 -0.0895728669721 0.88 1.05894317274e-38
0.0423435371141 -0.0895728669721 0.88 1.05858962514e-38
0.0438721980256 -0.0893692922744 0.878 1.03114785718e-38
0.0454970942488 -0.0893692922744 0.878 1.02196332666e-38
0.047121990472 -0.0893692922744 0.878 1.13277450597e-38
0.0487468866951 -0.0893692922744 0.878 1.09571576678e-38
0.0503717829183 -0.0893692922744 0.878 1.18777098654e-38
0.0521151226019 -0.0895728669721 0.88 1.11411986029e-38
0.0489541627509 -0.0791905573912 0.778 9.8429222004e-39
0.0531366974484 -0.0789869826936 0.776 2.34953975903e-38
0.0545728244065 -0.0789869826936 0.776 2.34910367495e-38
0.056153304332 -0.0791905573912 0.778 2.34849382986e-38
0.057297023997 -0.0787834079959 0.774 2.34838901273e-38
0.0586535717551 -0.0786816206471 0.773 2.34846174012e-38
0.0600841466759 -0.0786816206471 0.773 2.34845963818e-38
-0.00144908171155 -0.0782504124238 0.783 1.97956711679e-38
0.0 -0.0782504124238 0.783 2.00737294209e-38
0.00144538035341 -0.0780505390843 0.781 1.94290662663e-38
0.00289076070683 -0.0780505390843 0.781 1.93372335727e-38
0.00433614106024 -0.0780505390843 0.781 2.03535308892e-38
0.00578152141365 -0.0780505390843 0.781 1.92464434452e-38
0.00722690176707 -0.0780505390843 0.781 1.98900346065e-38
0.00866117804606 -0.0779506024145 0.78 2.07198050844e-38
0.0101047077204 -0.0779506024145 0.78 2.14602343773e-38
0.0128955317575 -0.0870448393629 0.871 1.58359702492e-38
0.0129584548458 -0.077750729075 0.778 1.2420415945e-38
0.0143612695806 -0.0775508557355 0.776 1.24240046704e-38
0.0157973965387 -0.0775508557355 0.776 1.22450252253e-38
0.0193877139339 -0.0872447127024 0.873 1.23379789577e-38
0.0210033567617 -0.0872447127024 0.873 1.31684304666e-38
0.0229817326872 -0.0886438260791 0.887 1.18766126487e-38
0.024623285022 -0.0886438260791 0.887 1.18773441265e-38
0.0262056156265 -0.0884439527396 0.885 1.16003788863e-38
0.0278434666032 -0.0884439527396 0.885 1.11393965331e-38
0.0295479420264 -0.0886438260791 0.887 1.08642235537e-38
0.0311191685565 -0.0884439527396 0.885 1.04976298624e-38
0.0327570195332 -0.0884439527396 0.885 1.10475806551e-38
0.0343948705098 -0.0884439527396 0.885 1.03125295457e-38
0.0360327214865 -0.0884439527396 0.885 9.39131173131e-39
0.0376705724632 -0.0884439527396 0.885 1.01270789043e-38
0.0393084234398 -0.0884439527396 0.885 1.04061769207e-38
0.0408074734862 -0.0881441427303 0.882 9.48350736118e-39
0.0424397724257 -0.0881441427303 0.882 1.16915403579e-38
0.0439721346954 -0.0879442693908 0.88 1.18773385213e-38
0.0456007322767 -0.0879442693908 0.88 1.28918393731e-38
0.047121990472 -0.0877443960512 0.878 1.16954513819e-38
0.0487468866951 -0.0877443960512 0.878 1.16954485793e-38
0.0504865250206 -0.0879442693908 0.88 1.04021692071e-38
0.0521151226019 -0.0879442693908 0.88 1.11339777119e-38
0.0503939910671 -0.077750729075 0.778 2.34892150615e-38
0.0518338193833 -0.077750729075 0.778 2.34932003543e-38
0.0531366974484 -0.0775508557355 0.776 2.34864110633e-38
0.0545728244065 -0.0775508557355 0.776 2.27470075208e-38
0.056153304332 -0.077750729075 0.778 2.34903473107e-38
0.057297023997 -0.077350982396 0.774 2.34845893753e-38
0.0586535717551 -0.0772510457262 0.773 2.34820754458e-38
0.0600841466759 -0.0772510457262 0.773 2.34831054002e-38
-0.00144908171155 -0.0768013307123 0.783 2.02541704203e-38
0.0 -0.0768013307123 0.783 1.97971201105e-38
0.00144538035341 -0.0766051587309 0.781 1.8876258226e-38
0.00288705934869 -0.0765070727402 0.78 1.86000440818e-38
0.00433058902303 -0.0765070727402 0.78 1.82312993974e-38
0.00578152141365 -0.0766051587309 0.781 2.02581360949e-38
0.00722690176707 -0.0766051587309 0.781 1.90599264157e-38
0.00866117804606 -0.0765070727402 0.78 2.17332465546e-38
0.0100787982134 -0.0763109007588 0.778 2.03510099532e-38
0.0115186265296 -0.0763109007588 0.778 2.23793011985e-38
0.0129251426226 -0.0761147287774 0.776 2.30253740594e-38
0.0143612695806 -0.0761147287774 0.776 1.72188640595e-38
0.0157973965387 -0.0761147287774 0.776 1.25101508948e-38
0.0193877139339 -0.0856290698746 0.873 1.21430919725e-38
0.0213401803524 -0.0870022737443 0.887 1.14088003668e-38
0.0229817326872 -0.0870022737443 0.887 1.2059560571e-38
0.024623285022 -0.0870022737443 0.887 1.16933410264e-38
0.0262648373568 -0.0870022737443 0.887 1.23383320849e-38
0.0279063896916 -0.0870022737443 0.887 1.17847897642e-38
0.0295479420264 -0.0870022737443 0.887 1.21539057927e-38
0.0311894943612 -0.0870022737443 0.887 1.25230344329e-38
0.032831046696 -0.0870022737443 0.887 1.2246807677e-38
0.0301586661194 -0.0761147287774 0.776 1.2154977786e-38
0.0315947930774 -0.0761147287774 0.776 1.22489754857e-38
0.0330309200355 -0.0761147287774 0.776 1.2063875169e-38
0.0344670469936 -0.0761147287774 0.776 1.20624318315e-38
0.0409462744165 -0.0868061017629 0.885 1.15110573196e-38
0.0424397724257 -0.0865118437908 0.882 1.25227107329e-38
0.0440720713651 -0.0865118437908 0.882 1.150712948e-38
0.0457043703046 -0.0865118437908 0.882 9.93943102693e-39
0.047229329858 -0.0863156718095 0.88 9.75539009182e-39
0.0488579274393 -0.0863156718095 0.88 1.36229079923e-38
0.0504865250206 -0.0863156718095 0.88 1.65709344782e-38
0.0521151226019 -0.0863156718095 0.88 2.09964045857e-38
0.0503939910671 -0.0763109007588 0.778 2.3490010999e-38
0.0518338193833 -0.0763109007588 0.778 2.24711465038e-38
0.0531366974484 -0.0761147287774 0.776 2.34831712612e-38
0.0545728244065 -0.0761147287774 0.776 2.34885466421e-38
0.056153304332 -0.0763109007588 0.778 2.34849453051e-38
0.0578152141365 -0.0766051587309 0.781 2.34813313563e-38
0.0592605944899 -0.0766051587309 0.781 2.18163968028e-38
0.0 -0.0753522490007 0.783 1.89680783079e-38
0.00144538035341 -0.0751597783775 0.781 1.88762610286e-38
0.00288705934869 -0.0750635430659 0.78 1.89688223974e-38
0.00433058902303 -0.0750635430659 0.78 1.92461169427e-38
0.00578152141365 -0.0751597783775 0.781 1.93365301209e-38
0.00722690176707 -0.0751597783775 0.781 1.97974914546e-38
0.00866117804606 -0.0750635430659 0.78 1.97045895704e-38
0.0100787982134 -0.0748710724426 0.778 1.91525144092e-38
0.0115186265296 -0.0748710724426 0.778 2.09052403115e-38
0.0129251426226 -0.0746786018194 0.776 2.15480943898e-38
0.0143612695806 -0.0746786018194 0.776 2.2376429938e-38
0.0157973965387 -0.0746786018194 0.776 2.22867678558e-38
0.0172335234968 -0.0746786018194 0.776 2.1181479679e-38
0.0213401803524 -0.0853607214095 0.887 1.74018091793e-38
0.0229817326872 -0.0853607214095 0.887 1.43558585554e-38
0.0246788053941 -0.0855531920328 0.889 1.38945076607e-38
0.026324059087 -0.0855531920328 0.889 1.04886419341e-38
0.0279693127799 -0.0855531920328 0.889 1.25168911404e-38
0.0296145664729 -0.0855531920328 0.889 1.10407072862e-38
0.0311894943612 -0.0853607214095 0.887 1.19651761129e-38
0.0286485119985 -0.0744861311961 0.774 1.18754860047e-38
0.0300809375984 -0.0744861311961 0.774 1.07673587973e-38
0.0315947930774 -0.0746786018194 0.776 1.12294103413e-38
0.0330309200355 -0.0746786018194 0.776 1.10446673556e-38
0.0344670469936 -0.0746786018194 0.776 1.13205185635e-38
0.0359031739516 -0.0746786018194 0.776 1.15963837844e-38
0.0373393009097 -0.0746786018194 0.776 1.26083679042e-38
0.0387754278677 -0.0746786018194 0.776 1.41714070398e-38
0.0458598273464 -0.0851682507863 0.885 1.76763109367e-38
0.047336669244 -0.0848795448514 0.882 1.98914415102e-38
0.0489689681835 -0.0848795448514 0.882 2.10900267374e-38
0.0506012671229 -0.0848795448514 0.882 2.34895359588e-38
0.0522335660624 -0.0848795448514 0.882 2.34931863413e-38
0.0476364792533 -0.0750635430659 0.78 2.34874788527e-38
0.0490800089277 -0.0750635430659 0.78 2.26508616305e-38
0.0503939910671 -0.0748710724426 0.778 2.28388584312e-38
0.0518338193833 -0.0748710724426 0.778 2.3299843587e-38
0.0532736476996 -0.0748710724426 0.778 2.34849411012e-38
0.0547134760158 -0.0748710724426 0.778 2.23782179948e-38
0.0562976572994 -0.0750635430659 0.78 2.14494513857e-38
0.0579632684621 -0.0753522490007 0.783 2.1715238468e-38
0.0 -0.0739031672892 0.783 1.97971355248e-38
0.00144538035341 -0.0737143980241 0.781 1.94290760754e-38
0.00289076070683 -0.0737143980241 0.781 1.87844157234e-38
0.00433614106024 -0.0737143980241 0.781 1.8508905031e-38
0.00578152141365 -0.0737143980241 0.781 1.88759050988e-38
0.00722690176707 -0.0737143980241 0.781 1.9151771721e-38
0.00867228212048 -0.0737143980241 0.781 1.97975040663e-38
0.0100528887065 -0.0732424748613 0.776 1.91517661158e-38
0.0114890156645 -0.0732424748613 0.776 2.02588143234e-38
0.0129584548458 -0.0734312441264 0.778 1.99808037145e-38
0.0143612695806 -0.0732424748613 0.776 2.13640758754e-38
0.0157973965387 -0.0732424748613 0.776 2.11822013477e-38
0.0171891071991 -0.0730537055962 0.774 2.20098404506e-38
0.018621532799 -0.0730537055962 0.774 2.19165307885e-38
0.020053958399 -0.0730537055962 0.774 2.2192760347e-38
0.0214586238128 -0.0729593209636 0.773 2.19179334883e-38
0.0228891987337 -0.0729593209636 0.773 2.00780061838e-38
0.0243197736545 -0.0729593209636 0.773 2.04464327735e-38
0.0257836607987 -0.0730537055962 0.774 1.92431784198e-38
0.0272160863986 -0.0730537055962 0.774 1.80454255639e-38
0.0286485119985 -0.0730537055962 0.774 1.83241564402e-38
0.0300809375984 -0.0730537055962 0.774 1.75854941846e-38
0.0315133631984 -0.0730537055962 0.774 1.80457772898e-38
0.0329457887983 -0.0730537055962 0.774 1.91517268794e-38
0.0343782143982 -0.0730537055962 0.774 2.02591352207e-38
0.0358106399981 -0.0730537055962 0.774 1.98921631789e-38
0.0373393009097 -0.0732424748613 0.776 2.12725935065e-38
0.0387754278677 -0.0732424748613 0.776 2.31164332362e-38
0.0402115548258 -0.0732424748613 0.776 2.34877913423e-38
0.0415403423978 -0.0730537055962 0.774 2.34892627056e-38
0.0429727679978 -0.0730537055962 0.774 2.34896186355e-38
0.0445199357 -0.0732424748613 0.776 2.34881963175e-38
0.0490800089277 -0.0736200133915 0.78 2.34849579168e-38
0.050523538602 -0.0736200133915 0.78 2.32072640014e-38
0.0520336927229 -0.0737143980241 0.781 2.24715024336e-38
0.0534790730763 -0.0737143980241 0.781 2.24697143768e-38
0.0549244534297 -0.0737143980241 0.781 2.34849256869e-38
0.0565141867505 -0.0739031672892 0.783 1.77612940834e-38
0.0584074314388 -0.0744694750845 0.789 2.34871775735e-38
0.0600952507504 -0.0747526289822 0.792 2.04335226107e-38
0.0649810434943 -0.0753189367775 0.798 2.32051144095e-38
0.00144538035341 -0.0722690176707 0.781 1.93361601781e-38
0.00289076070683 -0.0722690176707 0.781 1.89695230466e-38
0.00433614106024 -0.0722690176707 0.781 1.87851317869e-38
0.00579632684621 -0.0724540855776 0.783 1.85993013936e-38
0.00724540855776 -0.0724540855776 0.783 1.84138479497e-38
0.00867228212048 -0.0722690176707 0.781 1.92436142236e-38
0.0100528887065 -0.0718063479032 0.776 1.95223310869e-38
0.0114890156645 -0.0718063479032 0.776 2.03513658831e-38
0.0129584548458 -0.0719914158102 0.778 2.04410461822e-38
0.0143612695806 -0.0718063479032 0.776 1.99818827144e-38
0.0157973965387 -0.0718063479032 0.776 1.98925401282e-38
0.0171891071991 -0.0716212799963 0.774 1.99829533064e-38
0.018621532799 -0.0716212799963 0.774 2.12733221817e-38
0.020053958399 -0.0716212799963 0.774 2.28399220168e-38
0.0214586238128 -0.0715287460428 0.773 2.28406310738e-38
0.0228891987337 -0.0715287460428 0.773 2.28406254686e-38
0.0243512351987 -0.0716212799963 0.774 2.34852914258e-38
0.0257836607987 -0.0716212799963 0.774 2.34885200175e-38
0.0272160863986 -0.0716212799963 0.774 2.30232062507e-38
0.0286485119985 -0.0716212799963 0.774 2.34842348468e-38
0.0300809375984 -0.0716212799963 0.774 2.34831390314e-38
0.0315133631984 -0.0716212799963 0.774 2.34835089742e-38
0.0329457887983 -0.0716212799963 0.774 2.34842292416e-38
0.0343782143982 -0.0716212799963 0.774 2.3486381636e-38
0.0358106399981 -0.0716212799963 0.774 2.3492142374e-38
0.0372430655981 -0.0716212799963 0.774 2.34935955205e-38
0.038675491198 -0.0716212799963 0.774 2.34903683301e-38
0.0401079167979 -0.0716212799963 0.774 2.34856473556e-38
0.0415403423978 -0.0716212799963 0.774 2.31122125253e-38
0.0429727679978 -0.0716212799963 0.774 2.24686479886e-38
0.0445199357 -0.0718063479032 0.776 2.31143831366e-38
0.0460745061185 -0.0719914158102 0.778 2.32065633522e-38
0.0475143344347 -0.0719914158102 0.778 2.34846047896e-38
0.0490800089277 -0.0721764837172 0.78 2.24693612496e-38
0.050523538602 -0.0721764837172 0.78 2.14541331238e-38
0.0520336927229 -0.0722690176707 0.781 2.28388556286e-38
0.0534790730763 -0.0722690176707 0.781 2.07176526899e-38
0.055065105039 -0.0724540855776 0.783 2.34842656753e-38
0.0568028926854 -0.0728242213916 0.787 2.34921451766e-38
0.0584074314388 -0.0730092892985 0.789 1.88704932841e-38
0.0600952507504 -0.073286891159 0.792 2.34776585531e-38
0.0617164456154 -0.0734719590659 0.794 2.34875012735e-38
0.0635042015967 -0.0738420948799 0.798 2.34849425025e-38
0.0649810434943 -0.0738420948799 0.798 2.14433613425e-38
0.00292037157194 -0.0715491035126 0.789 1.94276271328e-38
0.00438055735791 -0.0715491035126 0.789 1.86922172909e-38
0.00582593771132 -0.0713677369637 0.787 1.86911607119e-38
0.00726391534846 -0.0711863704149 0.785 1.878334373e-38
0.00869449026931 -0.0710050038661 0.783 1.74007722184e-38
0.0101176624739 -0.0708236373172 0.781 1.81412127217e-38
0.0115482373947 -0.0707329540428 0.78 1.90599264157e-38
0.0129584548458 -0.070551587494 0.778 2.00722776757e-38
0.0143612695806 -0.0703702209452 0.776 2.02591702532e-38
0.0157973965387 -0.0703702209452 0.776 2.07208686699e-38
0.0172335234968 -0.0703702209452 0.776 2.13647947415e-38
0.018621532799 -0.0701888543963 0.774 2.1363369621e-38
0.020053958399 -0.0701888543963 0.774 2.06283227154e-38
0.0214586238128 -0.0700981711219 0.773 2.04439538765e-38
0.0228891987337 -0.0700981711219 0.773 2.16391731848e-38
0.0243197736545 -0.0700981711219 0.773 2.17332045156e-38
0.0257503485754 -0.0700981711219 0.773 2.24711465038e-38
0.0271809234963 -0.0700981711219 0.773 2.33008819492e-38
0.0286114984171 -0.0700981711219 0.773 2.24700927274e-38
0.0300809375984 -0.0701888543963 0.774 2.34834865534e-38
0.0315133631984 -0.0701888543963 0.774 2.34820838536e-38
0.0329457887983 -0.0701888543963 0.774 2.33891553447e-38
0.0343782143982 -0.0701888543963 0.774 2.24690137275e-38
0.0358106399981 -0.0701888543963 0.774 2.24689941094e-38
0.0372430655981 -0.0701888543963 0.774 2.18250344066e-38
0.038675491198 -0.0701888543963 0.774 2.26544223299e-38
0.0401079167979 -0.0701888543963 0.774 2.33005792687e-38
0.0415403423978 -0.0701888543963 0.774 2.2471499631e-38
0.0429727679978 -0.0701888543963 0.774 2.33927426687e-38
0.0445199357 -0.0703702209452 0.776 2.26537553119e-38
0.0460745061185 -0.070551587494 0.778 2.15470602315e-38
0.0475143344347 -0.070551587494 0.778 2.18239778275e-38
0.0490800089277 -0.0707329540428 0.78 2.15484839507e-38
0.050523538602 -0.0707329540428 0.78 2.25612093574e-38
0.0521669416159 -0.0710050038661 0.783 1.92385513323e-38
0.0536160233274 -0.0710050038661 0.783 2.03376191451e-38
0.0552057566483 -0.0711863704149 0.785 2.34788594658e-38
0.0569472456528 -0.0715491035126 0.789 2.31118201617e-38
0.0584814586016 -0.071639786787 0.79 2.33877498423e-38
0.0602470064341 -0.0720025198846 0.794 2.34785343646e-38
0.0617164456154 -0.0720025198846 0.794 2.34903809418e-38
0.0633450431967 -0.0721838864334 0.796 2.32036920916e-38
0.0649810434943 -0.0723652529823 0.798 1.83072203469e-38
0.0015009007255 -0.0720432348242 0.811 2.00762083179e-38
0.00292037157194 -0.0700889177266 0.789 1.85989454638e-38
0.00438055735791 -0.0700889177266 0.789 1.87836912521e-38
0.00584074314388 -0.0700889177266 0.789 1.87833409274e-38
0.00728242213916 -0.0699112525359 0.787 1.89688041805e-38
0.00873890656699 -0.0699112525359 0.787 1.86918613611e-38
0.0101694814878 -0.0697335873452 0.785 1.85089022284e-38
0.0115926536924 -0.0695559221545 0.783 1.86911410937e-38
0.0129917670691 -0.0692894243685 0.78 1.92439617456e-38
0.014398283162 -0.0691117591778 0.778 1.93368384066e-38
0.0157973965387 -0.0689340939871 0.776 1.90599264157e-38
0.0172335234968 -0.0689340939871 0.776 1.99811806638e-38
0.0186696504548 -0.0689340939871 0.776 2.0441791673e-38
0.0201057774129 -0.0689340939871 0.776 2.14581044037e-38
0.0214863839989 -0.0687564287964 0.774 2.10910959281e-38
0.0228891987337 -0.0686675962011 0.773 2.12722431819e-38
0.0243197736545 -0.0686675962011 0.773 2.18236247003e-38
0.0257503485754 -0.0686675962011 0.773 2.14548365757e-38
0.0271809234963 -0.0686675962011 0.773 2.22867524415e-38
0.0286114984171 -0.0686675962011 0.773 2.30243230856e-38
0.0300809375984 -0.0687564287964 0.774 2.21005843353e-38
0.0315133631984 -0.0687564287964 0.774 2.25604932939e-38
0.0329457887983 -0.0687564287964 0.774 2.31161655882e-38
0.0343782143982 -0.0687564287964 0.774 2.28402779466e-38
0.0358106399981 -0.0687564287964 0.774 2.3483151643e-38
0.0373393009097 -0.0689340939871 0.776 2.29300142976e-38
0.0387754278677 -0.0689340939871 0.776 2.34853096427e-38
0.0401079167979 -0.0687564287964 0.774 2.30211309277e-38
0.0415403423978 -0.0687564287964 0.774 2.20087418326e-38
0.0430838087419 -0.0689340939871 0.776 2.21942219013e-38
0.0445199357 -0.0689340939871 0.776 2.17314486886e-38
0.0460745061185 -0.0691117591778 0.778 2.17317990132e-38
0.0475143344347 -0.0691117591778 0.778 2.08105671859e-38
0.0490800089277 -0.0692894243685 0.78 1.81260310542e-38
0.0505883123695 -0.0693782569638 0.781 1.87645747384e-38
0.0521669416159 -0.0695559221545 0.783 2.34809950447e-38
0.0536160233274 -0.0695559221545 0.783 2.21841928082e-38
0.0553464082576 -0.0699112525359 0.787 2.34831838729e-38
0.0570194221366 -0.0701777503219 0.79 2.34863662217e-38
0.0584814586016 -0.0701777503219 0.79 2.06168194563e-38
0.0602470064341 -0.0705330807033 0.794 2.34892977381e-38
0.0617164456154 -0.0705330807033 0.794 2.34889460122e-38
0.0633450431967 -0.070710745894 0.796 1.94178656877e-38
0.0649810434943 -0.0708884110847 0.798 2.17177748182e-38
0.0664578853919 -0.0708884110847 0.798 2.35066009715e-38
-0.00300920416729 -0.0707162979312 0.813 2.35026002644e-38
-0.00150460208364 -0.0707162979312 0.813 1.80328236868e-38
0.0 -0.0705423340987 0.811 2.0899500593e-38
0.0015009007255 -0.0705423340987 0.811 1.85989482664e-38
0.00297959330217 -0.070020442601 0.805 1.86922172909e-38
0.00438610939512 -0.0687157138569 0.79 1.84156051779e-38
0.00584814586016 -0.0687157138569 0.79 1.85985951392e-38
0.00728242213916 -0.0684547681081 0.787 1.85071057638e-38
0.00873890656699 -0.0684547681081 0.787 1.84142010769e-38
0.0101953909948 -0.0684547681081 0.787 1.92439673508e-38
0.0116518754226 -0.0684547681081 0.787 2.00748014142e-38
0.0130084231807 -0.0679328766104 0.781 1.88759205131e-38
0.014398283162 -0.0676719308616 0.778 1.94290760754e-38
0.0158381114782 -0.0676719308616 0.778 1.90624445491e-38
0.0173223560921 -0.0678458946941 0.78 1.94312326737e-38
0.0187658857665 -0.0678458946941 0.78 1.93361601781e-38
0.0202094154408 -0.0678458946941 0.78 1.94287131391e-38
0.0214863839989 -0.0673240031965 0.774 1.98900402117e-38
0.0228891987337 -0.0672370212802 0.773 2.13644290026e-38
0.0243197736545 -0.0672370212802 0.773 2.12711613795e-38
0.0257503485754 -0.0672370212802 0.773 2.12711613795e-38
0.0272160863986 -0.0673240031965 0.774 2.21030632323e-38
0.0286485119985 -0.0673240031965 0.774 2.2747360648e-38
0.0300809375984 -0.0673240031965 0.774 2.26537553119e-38
0.0315133631984 -0.0673240031965 0.774 2.27466726104e-38
0.0329457887983 -0.0673240031965 0.774 2.16414012493e-38
0.0344670469936 -0.067497967029 0.776 2.30236140285e-38
0.0359031739516 -0.067497967029 0.776 2.19183412661e-38
0.0373393009097 -0.067497967029 0.776 2.24700703066e-38
0.0387754278677 -0.067497967029 0.776 2.17317990132e-38
0.0402115548258 -0.067497967029 0.776 2.2098451559e-38
0.0416476817839 -0.067497967029 0.776 2.21002340107e-38
0.0433058902303 -0.0678458946941 0.78 2.29292309718e-38
0.0447494199046 -0.0678458946941 0.78 2.16381642499e-38
0.046192949579 -0.0678458946941 0.78 1.92389016569e-38
0.0476975516626 -0.0679328766104 0.781 1.8313648103e-38
0.0492687781928 -0.068106840443 0.783 2.32932266557e-38
0.0508474074392 -0.0682808042755 0.785 2.34839125481e-38
0.0524334394019 -0.0684547681081 0.787 1.5087567568e-38
0.0538899238298 -0.0684547681081 0.787 2.29018650141e-38
0.0554870598669 -0.0686287319406 0.789 2.3482053025e-38
0.057163775104 -0.0688896776894 0.792 2.2463583696e-38
0.0586295129272 -0.0688896776894 0.792 2.34867417697e-38
0.0603987621178 -0.0692376053545 0.796 2.34852844193e-38
0.0620273596991 -0.0694115691871 0.798 2.26494000762e-38
0.0636633599967 -0.0695855330196 0.8 1.67431176257e-38
0.0651439032524 -0.0695855330196 0.8 2.34846552363e-38
-0.00300920416729 -0.0692116958476 0.813 2.35018870035e-38
-0.00150460208364 -0.0692116958476 0.813 2.01551224409e-38
0.0 -0.0690414333731 0.811 1.9792103462e-38
0.00149349800922 -0.0687009084243 0.807 1.76716011726e-38
0.00297219058589 -0.0683603834755 0.803 2.02559430628e-38
0.00443052569279 -0.0679347272895 0.798 1.92443316884e-38
0.00587775672528 -0.0675942023407 0.794 1.8690794973e-38
0.0073101823252 -0.0672536773918 0.79 1.87837220806e-38
0.00877221879024 -0.0672536773918 0.79 1.91514185938e-38
0.0102213005018 -0.0671685461546 0.789 1.9245033739e-38
0.0116814862878 -0.0671685461546 0.789 1.87837066663e-38
0.013041735404 -0.0666577587314 0.783 1.85078456494e-38
0.0144538035341 -0.066487496257 0.781 1.9429078878e-38
0.0158991838875 -0.066487496257 0.781 1.90631480009e-38
0.0173223560921 -0.0664023650198 0.78 1.92475518723e-38
0.0187658857665 -0.0664023650198 0.78 2.02599143427e-38
0.0202094154408 -0.0664023650198 0.78 2.01676976933e-38
0.021541904371 -0.066061840071 0.776 2.09013180771e-38
0.0229188095988 -0.0658915775966 0.774 2.14538080226e-38
0.0243512351987 -0.0658915775966 0.774 2.1734300331e-38
0.0257836607987 -0.0658915775966 0.774 1.96159938762e-38
0.0272864122032 -0.066061840071 0.776 2.04475299902e-38
0.0287225391613 -0.066061840071 0.776 1.97099621487e-38
0.0301586661194 -0.066061840071 0.776 2.0354609889e-38
0.0315947930774 -0.066061840071 0.776 2.00772999294e-38
0.0330309200355 -0.066061840071 0.776 1.99865504396e-38
0.0344670469936 -0.066061840071 0.776 1.93437005651e-38
0.0359031739516 -0.066061840071 0.776 1.87905436015e-38
0.0374355362213 -0.0662321025454 0.778 1.49179796253e-38
0.0388753645375 -0.0662321025454 0.778 2.26566896309e-38
0.0403151928537 -0.0662321025454 0.778 2.27485167192e-38
0.0417550211699 -0.0662321025454 0.778 1.83166034414e-38
0.0433058902303 -0.0664023650198 0.78 2.20717792441e-38
0.0447494199046 -0.0664023650198 0.78 1.73848899016e-38
0.0462521713092 -0.066487496257 0.781 2.32861739205e-38
0.0478196964812 -0.0666577587314 0.783 2.34817433381e-38
0.0493946243695 -0.0668280212058 0.785 1.58219236334e-38
0.0509769549741 -0.0669982836802 0.787 1.70997761109e-38
0.0525666882949 -0.0671685461546 0.789 2.26458674028e-38
0.0540268740809 -0.0671685461546 0.789 2.34846131973e-38
0.0555573856715 -0.0672536773918 0.79 2.04317625798e-38
0.0573081280714 -0.0675942023407 0.794 2.34885606551e-38
0.0589256215783 -0.0677644648151 0.796 2.34870752787e-38
0.0608540291689 -0.0682752522383 0.802 2.17242558236e-38
0.0623382737828 -0.0682752522383 0.802 2.02421935223e-38
0.0638225183967 -0.0682752522383 0.802 2.23619601301e-38
0.0653067630106 -0.0682752522383 0.802 2.3482470612e-38
-0.00300920416729 -0.0677070937639 0.813 2.35051366147e-38
-0.00150460208364 -0.0677070937639 0.813 1.91427627732e-38
0.0 -0.0675405326476 0.811 1.88664967809e-38
0.00149349800922 -0.0672074104151 0.807 1.84992094469e-38
0.00297219058589 -0.0668742881826 0.803 1.7947445374e-38
0.00443052569279 -0.0664578853919 0.798 1.97020560227e-38
0.00589256215783 -0.0662913242756 0.796 1.90599081989e-38
0.0073286891159 -0.0659582020431 0.792 1.89673776587e-38
0.00877221879024 -0.0657916409268 0.79 1.89652490863e-38
0.0102213005018 -0.0657083603687 0.789 1.87847632454e-38
0.0116814862878 -0.0657083603687 0.789 1.97982103208e-38
0.013041735404 -0.0652086770199 0.783 2.02613632853e-38
0.0144538035341 -0.0650421159036 0.781 1.92468231971e-38
0.0158991838875 -0.0650421159036 0.781 1.87844157234e-38
0.017344564241 -0.0650421159036 0.781 1.94294446169e-38
0.0187899445944 -0.0650421159036 0.781 1.92468330062e-38
0.0202094154408 -0.0649588353455 0.78 2.01662543559e-38
0.0216529451152 -0.0649588353455 0.78 2.01641033628e-38
0.022978031329 -0.0646257131129 0.776 2.29296219341e-38
0.0244141582871 -0.0646257131129 0.776 1.4913997135e-38
0.0258502852452 -0.0646257131129 0.776 8.0815236619e-39
0.0272864122032 -0.0646257131129 0.776 1.13947957899e-38
0.0287965663241 -0.0647922742292 0.778 1.6017117503e-38
0.0302363946403 -0.0647922742292 0.778 1.43522067716e-38
0.0316762229565 -0.0647922742292 0.778 1.69347353816e-38
0.0331160512727 -0.0647922742292 0.778 1.47234695893e-38
0.0345558795889 -0.0647922742292 0.778 1.92465247205e-38
0.0359957079051 -0.0647922742292 0.778 4.22443282327e-39
0.0374355362213 -0.0647922742292 0.778 1.92854541932e-39
0.0389753012073 -0.0649588353455 0.78 2.27496013242e-38
0.0404188308816 -0.0649588353455 0.78 2.13673535125e-38
0.041862360556 -0.0649588353455 0.78 1.96970309664e-38
0.0433614106024 -0.0650421159036 0.781 2.34795573125e-38
0.0448067909558 -0.0650421159036 0.781 2.28392255714e-38
0.0462521713092 -0.0650421159036 0.781 1.56443202635e-38
0.0479418412998 -0.0653752381361 0.785 2.16226350603e-38
0.0495204705463 -0.0655417992524 0.787 1.63650388922e-38
0.0509769549741 -0.0655417992524 0.787 2.34870738774e-38
0.0525666882949 -0.0657083603687 0.789 2.30243174804e-38
0.0542322994576 -0.0659582020431 0.792 2.01615670126e-38
0.056260643718 -0.0666244465082 0.8 2.34838929299e-38
0.0577411869737 -0.0666244465082 0.8 2.34824481912e-38
0.059369784555 -0.0667910076244 0.802 2.26447155355e-38
0.0608540291689 -0.0667910076244 0.802 2.17165837145e-38
0.0623382737828 -0.0667910076244 0.802 1.96883541263e-38
0.0638225183967 -0.0667910076244 0.802 2.34892907316e-38
0.0653067630106 -0.0667910076244 0.802 2.20004573561e-38
0.0 -0.0662024916803 0.813 1.99714472447e-38
0.00149349800922 -0.0657139124059 0.807 1.68371517592e-38
0.00297219058589 -0.0653881928896 0.803 1.73909883525e-38
0.00444162976721 -0.0651439032524 0.8 1.84995499624e-38
0.00590736759039 -0.0649810434943 0.798 1.97956935887e-38
0.00734719590659 -0.064655323978 0.794 1.87836940547e-38
0.00879442693908 -0.0644924642199 0.792 1.94283600119e-38
0.0102342552553 -0.0643296044618 0.79 1.86007475336e-38
0.0116962917203 -0.0643296044618 0.79 1.89684566585e-38
0.0130750476272 -0.0639224550664 0.785 1.94297655142e-38
0.0144908171155 -0.0637595953083 0.783 1.87840625962e-38
0.0159398988271 -0.0637595953083 0.783 1.93372363753e-38
0.0173889805386 -0.0637595953083 0.783 1.99822526572e-38
0.0188380622502 -0.0637595953083 0.783 1.94315928074e-38
0.0202871439617 -0.0637595953083 0.783 1.98907590778e-38
0.0216807053012 -0.0635967355502 0.781 2.24693612496e-38
0.0231260856546 -0.0635967355502 0.781 2.22874713076e-38
0.0246343890964 -0.0637595953083 0.783 1.59270868793e-38
0.0259835341382 -0.0635153056711 0.78 7.53051068496e-39
0.0274270638125 -0.0635153056711 0.78 1.43500922122e-38
0.0288705934869 -0.0635153056711 0.78 2.2660610464e-38
0.0303141231612 -0.0635153056711 0.78 2.19187084063e-38
0.0317576528356 -0.0635153056711 0.78 1.93372307701e-38
0.0332011825099 -0.0635153056711 0.78 1.96141483662e-38
0.0346447121842 -0.0635153056711 0.78 2.12733852401e-38
0.0359957079051 -0.063352445913 0.778 9.74998808624e-39
0.0374355362213 -0.063352445913 0.778 7.98968816575e-39
0.0390252695422 -0.0635967355502 0.781 2.34846454272e-38
0.0404706498956 -0.0635967355502 0.781 2.11822433867e-38
0.041916030249 -0.0635967355502 0.781 2.32998337779e-38
0.0434724513466 -0.0637595953083 0.783 2.21002340107e-38
0.0449215330581 -0.0637595953083 0.783 2.18239918405e-38
0.0463706147697 -0.0637595953083 0.783 1.66555939249e-38
0.0480639861184 -0.0640853148246 0.787 2.34788720775e-38
0.0495204705463 -0.0640853148246 0.787 2.34845767636e-38
0.051106502509 -0.0642481745827 0.789 1.86839342157e-38
0.0527665616345 -0.0644924642199 0.792 2.27448046796e-38
0.0547801004623 -0.0651439032524 0.8 2.34842474584e-38
0.0564012953273 -0.0653067630106 0.802 2.34813565797e-38
0.0578855399412 -0.0653067630106 0.802 2.16297802811e-38
0.059369784555 -0.0653067630106 0.802 2.19935657703e-38
0.0608540291689 -0.0653067630106 0.802 1.76633026831e-38
0.0623382737828 -0.0653067630106 0.802 2.34927323206e-38
0.0638225183967 -0.0653067630106 0.802 2.29328687426e-38
0.0653067630106 -0.0653067630106 0.802 2.32900667276e-38
0.0 -0.0646978895966 0.813 2.02458691282e-38
0.00150460208364 -0.0646978895966 0.813 1.84955842878e-38
0.00298699601845 -0.0642204143967 0.807 1.68392999497e-38
0.00445828587884 -0.0639020975967 0.803 1.86824908783e-38
0.00592217302295 -0.0636633599967 0.8 1.68421866245e-38
0.00736570269729 -0.0633450431967 0.796 1.93350475471e-38
0.00883884323675 -0.0633450431967 0.796 1.9152119243e-38
0.0102601647623 -0.0630267263967 0.792 1.96134449143e-38
0.0117259025854 -0.0630267263967 0.792 1.91521374599e-38
0.0131583281854 -0.0628675679967 0.79 1.93365161079e-38
0.0146018578597 -0.0627879887967 0.789 1.90617242817e-38
0.0160620436457 -0.0627879887967 0.789 1.94301508713e-38
0.0175222294316 -0.0627879887967 0.789 2.03510001442e-38
0.018886179906 -0.0624696719967 0.785 1.96148924556e-38
0.0203389629757 -0.0624696719967 0.785 2.11811713934e-38
0.0217917460454 -0.0624696719967 0.785 2.04417622457e-38
0.0231853073848 -0.0623105135968 0.783 2.19165307885e-38
0.0246343890964 -0.0623105135968 0.783 1.94290662663e-38
0.0260834708079 -0.0623105135968 0.783 1.31432379228e-38
0.0275325525195 -0.0623105135968 0.783 1.33419966957e-38
0.028981634231 -0.0623105135968 0.783 1.4720322273e-38
0.0304307159426 -0.0623105135968 0.783 1.48070458323e-38
0.0318797976542 -0.0623105135968 0.783 1.43454286909e-38
0.0333288793657 -0.0623105135968 0.783 1.48964570822e-38
0.0346891284819 -0.0621513551968 0.781 1.19500995428e-38
0.0361345088353 -0.0621513551968 0.781 1.35934470934e-38
0.0375798891887 -0.0621513551968 0.781 1.07447530505e-38
0.0391252062119 -0.0623105135968 0.783 2.34803336318e-38
0.0405742879235 -0.0623105135968 0.783 2.24726136633e-38
0.0421307090211 -0.0624696719967 0.785 2.28388556286e-38
0.0436945328349 -0.0626288303967 0.787 2.21931527105e-38
0.0451510172628 -0.0626288303967 0.787 2.29306757105e-38
0.0466075016906 -0.0626288303967 0.787 2.28370703744e-38
0.048186130937 -0.0627879887967 0.789 1.73013739144e-38
0.049646316723 -0.0627879887967 0.789 2.2922429069e-38
0.0516894664159 -0.0635042015967 0.798 2.34835229871e-38
0.0531663083135 -0.0635042015967 0.798 2.34860565348e-38
0.0549170507134 -0.0638225183967 0.802 2.21866661e-38
0.0564012953273 -0.0638225183967 0.802 2.14418353285e-38
0.0578855399412 -0.0638225183967 0.802 2.18059473202e-38
0.0594438117178 -0.0639020975967 0.803 1.57229331073e-38
0.0609299070108 -0.0639020975967 0.803 2.34737783576e-38
0.0624160023037 -0.0639020975967 0.803 2.34978989081e-38
0.0639020975967 -0.0639020975967 0.803 1.70291016228e-38
0.0 -0.0633487445548 0.815 1.95990703947e-38
0.00150460208364 -0.063193287513 0.813 1.86824908783e-38
0.00300180145101 -0.0630378304711 0.811 1.80349312397e-38
0.00448049402767 -0.0627269163874 0.807 1.84980603822e-38
0.00594438117178 -0.0624160023037 0.803 1.83176291919e-38
0.00740271627868 -0.0621828167409 0.8 1.61035495923e-38
0.00886105138558 -0.0620273596991 0.798 2.01601629115e-38
0.0103119837762 -0.0618719026572 0.796 2.00722202225e-38
0.0117555134506 -0.0617164456154 0.794 1.94276117185e-38
0.0131916404086 -0.0615609885735 0.792 1.95194626289e-38
0.0146203646504 -0.0614055315317 0.79 1.93354343055e-38
0.0160824011154 -0.0614055315317 0.79 2.00740951598e-38
0.0175444375805 -0.0614055315317 0.79 2.00744637013e-38
0.0189824152176 -0.0613278030108 0.789 1.9981885517e-38
0.0204426010036 -0.0613278030108 0.789 2.09034858858e-38
0.0218472664175 -0.0611723459689 0.787 2.12725963091e-38
0.0233037508453 -0.0611723459689 0.787 2.23778676702e-38
0.0247602352731 -0.0611723459689 0.787 1.26026281856e-38
0.026216719701 -0.0611723459689 0.787 1.93938292151e-38
0.0276732041288 -0.0611723459689 0.787 1.27680038252e-38
0.0291296885566 -0.0611723459689 0.787 2.23681860991e-38
0.0305861729845 -0.0611723459689 0.787 1.99840631348e-38
0.0319612275332 -0.0610168889271 0.785 1.99829364908e-38
0.0334140106029 -0.0610168889271 0.785 1.94287285534e-38
0.0349556262679 -0.0611723459689 0.787 2.02566521198e-38
0.0364121106958 -0.0611723459689 0.787 1.28569694621e-38
0.0378685951236 -0.0611723459689 0.787 1.30406404544e-38
0.0393250795514 -0.0611723459689 0.787 2.23455495237e-38
0.0407815639793 -0.0611723459689 0.787 2.33016484595e-38
0.0422380484071 -0.0611723459689 0.787 2.00712238993e-38
0.0438055735791 -0.0613278030108 0.789 2.12678697294e-38
0.0452657593651 -0.0613278030108 0.789 2.10820939868e-38
0.0467259451511 -0.0613278030108 0.789 2.34842544649e-38
0.0482472033463 -0.0614055315317 0.79 2.3204022798e-38
0.0498350859881 -0.0615609885735 0.792 2.32058332757e-38
0.0516894664159 -0.0620273596991 0.798 2.24668431162e-38
0.0534328060995 -0.0623382737828 0.802 2.07106980457e-38
0.054985525839 -0.0624160023037 0.803 2.12595586282e-38
0.0564716211319 -0.0624160023037 0.803 2.116592947e-38
0.0579577164249 -0.0624160023037 0.803 1.66441313035e-38
0.0595918660434 -0.0625714593456 0.805 2.09805446896e-38
0.0610816626945 -0.0625714593456 0.805 2.34968815654e-38
0.0625714593456 -0.0625714593456 0.805 1.89644853786e-38
0.0640612559967 -0.0625714593456 0.805 2.07107120586e-38
0.0 -0.0618404411131 0.815 1.86810839746e-38
0.00150460208364 -0.0616886854293 0.813 1.94182342292e-38
0.00300920416729 -0.0616886854293 0.813 1.83111369761e-38
0.00450270217651 -0.0615369297456 0.811 1.68342356571e-38
0.0059739920369 -0.0612334183782 0.807 1.72945341766e-38
0.00743047646473 -0.0609299070108 0.803 1.77577039567e-38
0.00891657175768 -0.0609299070108 0.803 1.72008601769e-38
0.0103897122971 -0.0608540291689 0.802 1.96037661458e-38
0.0118443460459 -0.0607022734852 0.8 2.19143363551e-38
0.0132582648551 -0.0603987621178 0.796 2.09956661014e-38
0.0146943918132 -0.0602470064341 0.794 1.95208849469e-38
0.0161638309945 -0.0602470064341 0.794 1.96123785262e-38
0.0175888538782 -0.0600952507504 0.792 1.99818448793e-38
0.0190064740455 -0.0599434950666 0.79 2.00740797455e-38
0.0204685105106 -0.0599434950666 0.79 2.0626545869e-38
0.0219305469756 -0.0599434950666 0.79 2.08109203131e-38
0.0233925834406 -0.0599434950666 0.79 2.13637619846e-38
0.0248546199057 -0.0599434950666 0.79 1.37039618981e-38
0.0262833441475 -0.0598676172248 0.789 1.73730769555e-38
0.0277435299334 -0.0598676172248 0.789 1.49749592234e-38
0.0292037157194 -0.0598676172248 0.789 1.43302834571e-38
0.0306639015054 -0.0598676172248 0.789 1.42355781017e-38
0.0320426574123 -0.0597158615411 0.787 1.36835183548e-38
0.0334991418401 -0.0597158615411 0.787 1.4427141207e-38
0.0349556262679 -0.0597158615411 0.787 1.57139143504e-38
0.0364121106958 -0.0597158615411 0.787 1.98681631401e-38
0.0379648304352 -0.0598676172248 0.789 2.05267566027e-38
0.0394250162212 -0.0598676172248 0.789 2.29271178137e-38
0.0409370210211 -0.0599434950666 0.79 2.2285698665e-38
0.0423990574862 -0.0599434950666 0.79 2.17310787458e-38
0.0439721346954 -0.0600952507504 0.792 2.29306602962e-38
0.0454378725186 -0.0600952507504 0.792 2.34820446173e-38
0.0469036103417 -0.0600952507504 0.792 2.3111849589e-38
0.0484914929835 -0.0602470064341 0.794 2.26483462998e-38
0.0500867783416 -0.0603987621178 0.796 2.27401761908e-38
0.0518190139508 -0.0607022734852 0.8 1.84005272065e-38
0.0534328060995 -0.0608540291689 0.802 1.9775482661e-38
0.054985525839 -0.0609299070108 0.803 2.34701531985e-38
0.0566122727412 -0.0610816626945 0.805 1.76679297706e-38
0.0581020693923 -0.0610816626945 0.805 1.95114892407e-38
0.0595918660434 -0.0610816626945 0.805 1.80472780805e-38
0.0610816626945 -0.0610816626945 0.805 2.23785164714e-38
0.0625714593456 -0.0610816626945 0.805 1.44429254329e-38
0.0640612559967 -0.0610816626945 0.805 2.34924870934e-38
0.00300920416729 -0.0601840833457 0.813 1.86788937451e-38
0.00450270217651 -0.0600360290201 0.811 1.76618509379e-38
0.0059739920369 -0.059739920369 0.807 1.69242774912e-38
0.00744898325543 -0.0595918660434 0.805 1.73848899016e-38
0.00891657175768 -0.0594438117178 0.803 1.73866835636e-38
0.0104026670506 -0.0594438117178 0.803 1.63718295846e-38
0.011873956911 -0.059369784555 0.802 1.88603632975e-38
0.0133248893016 -0.0592217302295 0.8 2.07122745064e-38
0.014768418976 -0.0590736759039 0.798 2.007229309e-38
0.016204545934 -0.0589256215783 0.796 1.99819023325e-38
0.0176332701758 -0.0587775672528 0.794 2.01644761082e-38
0.0190545917013 -0.0586295129272 0.792 2.19183412661e-38
0.0205203295245 -0.0586295129272 0.792 2.01655509041e-38
0.0219860673477 -0.0586295129272 0.792 2.14566372442e-38
0.0234518051709 -0.0586295129272 0.792 2.09052627322e-38
0.0248546199057 -0.0584814586016 0.79 2.18257953116e-38
0.0263166563707 -0.0584814586016 0.79 2.24708087909e-38
0.0277786928358 -0.0584814586016 0.79 2.18254393818e-38
0.0292037157194 -0.0584074314388 0.789 2.33916944975e-38
0.0306639015054 -0.0584074314388 0.789 2.30221819015e-38
0.0321240872913 -0.0584074314388 0.789 2.29296219341e-38
0.0335842730773 -0.0584074314388 0.789 2.31143831366e-38
0.0350444588633 -0.0584074314388 0.789 2.34842390507e-38
0.0365046446493 -0.0584074314388 0.789 2.31158152636e-38
0.038012948091 -0.0584814586016 0.79 2.31140300094e-38
0.0394749845561 -0.0584814586016 0.79 2.2284642086e-38
0.041040659049 -0.0586295129272 0.792 2.32976813835e-38
0.0425063968722 -0.0586295129272 0.792 2.26537581145e-38
0.0440831754396 -0.0587775672528 0.794 2.3112197111e-38
0.0455526146209 -0.0587775672528 0.794 2.22799309205e-38
0.0471404972627 -0.0589256215783 0.796 1.99710226513e-38
0.0486136378021 -0.0589256215783 0.796 1.88579306434e-38
0.0503384706951 -0.0592217302295 0.8 2.02343014093e-38
0.0518190139508 -0.0592217302295 0.8 2.0601643394e-38
0.0536326794391 -0.0595918660434 0.805 2.09714979068e-38
0.0551224760902 -0.0595918660434 0.805 2.34715194645e-38
0.0566122727412 -0.0595918660434 0.805 1.15899266011e-38
0.0581020693923 -0.0595918660434 0.805 2.35003497791e-38
0.059739920369 -0.059739920369 0.807 1.83298961587e-38
0.0612334183782 -0.059739920369 0.807 1.70266199232e-38
0.0627269163874 -0.059739920369 0.807 1.82204547486e-38
0.0642204143967 -0.059739920369 0.807 2.34882047253e-38
0.00451380625093 -0.0586794812621 0.813 1.69250131729e-38
0.0059739920369 -0.0582464223598 0.807 1.73856073664e-38
0.00744898325543 -0.0581020693923 0.805 1.6739889034e-38
0.00893877990651 -0.0581020693923 0.805 1.80309669664e-38
0.0104026670506 -0.0579577164249 0.803 1.71104596103e-38
0.0118887623436 -0.0579577164249 0.803 1.70143193253e-38
0.0133582015249 -0.0578855399412 0.802 1.90440272834e-38
0.0148054325574 -0.0577411869737 0.8 1.92348729238e-38
0.0162452608736 -0.0575968340063 0.798 2.11753910372e-38
0.0176776864735 -0.0574524810389 0.796 2.16385173771e-38
0.0191027093571 -0.0573081280714 0.794 2.14555680535e-38
0.0205721485385 -0.0573081280714 0.794 2.15467071043e-38
0.0219860673477 -0.057163775104 0.792 2.11789587431e-38
0.0234518051709 -0.057163775104 0.792 2.1271877443e-38
0.0249175429941 -0.057163775104 0.792 2.10885651831e-38
0.0263832808172 -0.057163775104 0.792 2.09038193948e-38
0.0277786928358 -0.0570194221366 0.79 2.13644388117e-38
0.0292407293008 -0.0570194221366 0.79 2.22846056522e-38
0.0307027657658 -0.0570194221366 0.79 2.12719208832e-38
0.0321648022309 -0.0570194221366 0.79 2.32069164794e-38
0.0336268386959 -0.0570194221366 0.79 2.18236247003e-38
0.035088875161 -0.0570194221366 0.79 2.15484839507e-38
0.0366434455795 -0.057163775104 0.792 2.17310927588e-38
0.0381091834027 -0.057163775104 0.792 2.29285471381e-38
0.0396748578956 -0.0573081280714 0.794 2.32047766966e-38
0.0411442970769 -0.0573081280714 0.794 2.01630467837e-38
0.0427210756443 -0.0574524810389 0.796 2.12610622214e-38
0.0441942161837 -0.0574524810389 0.796 2.00603694414e-38
0.0457820988255 -0.0575968340063 0.798 2.27285692356e-38
0.0472589407231 -0.0575968340063 0.798 2.08890511103e-38
0.0487357826207 -0.0575968340063 0.798 1.90447447482e-38
0.0503384706951 -0.0577411869737 0.8 1.98666006923e-38
0.0519485614857 -0.0578855399412 0.802 2.04183311341e-38
0.0536326794391 -0.0581020693923 0.805 2.24469685001e-38
0.0552594263413 -0.0582464223598 0.807 1.15719899807e-38
0.0567529243505 -0.0582464223598 0.807 2.34821286952e-38
0.0582464223598 -0.0582464223598 0.807 2.34975780107e-38
0.059739920369 -0.0582464223598 0.807 1.53695816866e-38
0.0612334183782 -0.0582464223598 0.807 1.92312912049e-38
0.0627269163874 -0.0582464223598 0.807 2.34817363316e-38
0.00451380625093 -0.0571748791784 0.813 1.72026748584e-38
0.00601840833457 -0.0571748791784 0.813 1.70164815288e-38
0.00746749004612 -0.0567529243505 0.807 1.64629476159e-38
0.00893877990651 -0.0566122727412 0.805 1.7290902011e-38
0.0104285765576 -0.0566122727412 0.805 1.61838538034e-38
0.0118887623436 -0.0564716211319 0.803 1.84862011933e-38
0.0133748576365 -0.0564716211319 0.803 1.61845712682e-38
0.0148609529295 -0.0564716211319 0.803 1.76596789253e-38
0.0163266907526 -0.0564012953273 0.802 1.86766852987e-38
0.0177665190688 -0.056260643718 0.8 1.96026100746e-38
0.019150827013 -0.0559793404994 0.796 1.95111781524e-38
0.0206239675524 -0.0559793404994 0.796 2.0803731652e-38
0.0220971080919 -0.0559793404994 0.796 2.18214610955e-38
0.0235702486313 -0.0559793404994 0.796 2.11771762915e-38
0.0250433891708 -0.0559793404994 0.796 2.14551925055e-38
0.0265165297102 -0.0559793404994 0.796 2.2007630603e-38
0.0279193444451 -0.0558386888901 0.794 2.22827853655e-38
0.0293887836264 -0.0558386888901 0.794 2.20065740239e-38
0.0307804942868 -0.0556980372808 0.792 2.20058481513e-38
0.0322462321099 -0.0556980372808 0.792 2.08980810776e-38
0.0337119699331 -0.0556980372808 0.792 2.01594692687e-38
0.0351777077563 -0.0556980372808 0.792 2.15438008113e-38
0.036735979533 -0.0558386888901 0.794 2.18192932868e-38
0.0382054187143 -0.0558386888901 0.794 1.91413040215e-38
0.0397747945654 -0.0559793404994 0.796 2.04276819987e-38
0.0412479351048 -0.0559793404994 0.796 2.00592399948e-38
0.0427210756443 -0.0559793404994 0.796 2.01496405613e-38
0.0443052569279 -0.0561199921087 0.798 2.01439008428e-38
0.0457820988255 -0.0561199921087 0.798 1.94945951864e-38
0.0472589407231 -0.0561199921087 0.798 2.00452494309e-38
0.0488579274393 -0.056260643718 0.8 2.08793022769e-38
0.0504643168718 -0.0564012953273 0.802 2.12531014448e-38
0.0520133352531 -0.0564716211319 0.803 2.13442713242e-38
0.0536326794391 -0.0566122727412 0.805 1.66426809596e-38
0.0552594263413 -0.0567529243505 0.807 1.86677253963e-38
0.0568935759598 -0.0568935759598 0.809 2.34929186933e-38
0.0583907753272 -0.0568935759598 0.809 1.8967750404e-38
0.059739920369 -0.0567529243505 0.807 1.77529549562e-38
0.0612334183782 -0.0567529243505 0.807 1.90476566464e-38
0.0627269163874 -0.0567529243505 0.807 2.34881738967e-38
0.00603321376713 -0.0558072273459 0.815 1.70157808796e-38
0.00748599683682 -0.0553963765925 0.809 1.6923201294e-38
0.00896098805535 -0.0552594263413 0.807 1.69199727023e-38
0.0104285765576 -0.0551224760902 0.805 1.71047198918e-38
0.0119183732087 -0.0551224760902 0.805 1.70118081985e-38
0.0134081698598 -0.0551224760902 0.805 1.71029262298e-38
0.0148609529295 -0.054985525839 0.803 1.7100415103e-38
0.0163470482224 -0.054985525839 0.803 1.7102208765e-38
0.0178109353665 -0.0549170507134 0.802 1.81206500681e-38
0.0192470623246 -0.0547801004623 0.8 1.9505382382e-38
0.0206757865664 -0.0546431502111 0.798 1.85837736053e-38
0.022152628464 -0.0546431502111 0.798 1.95968339223e-38
0.0236294703616 -0.0546431502111 0.798 1.96908218129e-38
