# .PCD v0.7 - Point Cloud Data file format
VERSION 0.7
FIELDS x y z rgb
SIZE 4 4 4 4
TYPE F F F F
COUNT 1 1 1 1
WIDTH 855
HEIGHT 1
VIEWPOINT 0 0 0 1 0 0 0
POINTS 855
DATA ascii
0.0408074734862 -0.014690690455 0.882 2.3184157991e-38
0.0423435371141 -0.0146573782318 0.88 2.26320688168e-38
0.0439721346954 -0.0146573782318 0.88 2.34632518036e-38
0.0456007322767 -0.0146573782318 0.88 2.3465404198e-38
0.047229329858 -0.0146573782318 0.88 2.34607406767e-38
0.0488579274393 -0.0146573782318 0.88 2.34628930711e-38
0.0507733802764 -0.0147406587899 0.885 2.34625343387e-38
0.0524112312531 -0.0147406587899 0.885 2.34646867332e-38
0.0541712270483 -0.0147739710132 0.887 2.3463610536e-38
0.0559386255599 -0.0148072832364 0.889 2.34679153248e-38
0.05790774809 -0.0148905637946 0.894 2.34672342938e-38
0.0595622551783 -0.0148905637946 0.894 2.34646867332e-38
0.0613537125177 -0.0149238760178 0.896 2.34715026489e-38
0.0635042015967 -0.0150404687992 0.903 2.34729501902e-38
0.0653918942478 -0.0150904371341 0.906 2.34762152156e-38
0.0670686094849 -0.0150904371341 0.906 2.12592629542e-38
0.00509677015787 -0.0135913870877 0.918 1.82247581362e-38
0.00675867996244 -0.0135173599249 0.913 1.89529667052e-38
0.00835581599956 -0.0133693055993 0.903 1.69206901671e-38
0.0100047710506 -0.0133396947342 0.901 1.76492756855e-38
0.011633368632 -0.0132952784365 0.898 1.930733687e-38
0.0132656675714 -0.0132656675714 0.896 2.03297858867e-38
0.0148905637946 -0.0132360567063 0.894 1.94124454652e-38
0.0164895505108 -0.0131916404086 0.891 2.09822584777e-38
0.0181385055618 -0.0131916404086 0.891 2.0800022415e-38
0.0197874606129 -0.0131916404086 0.891 2.0614916493e-38
0.0213882980082 -0.0131620295435 0.889 2.05216460672e-38
0.0229817326872 -0.0131324186784 0.887 2.09829759425e-38
0.024623285022 -0.0131324186784 0.887 2.17212542423e-38
0.0262648373568 -0.0131324186784 0.887 2.05198524052e-38
0.0279063896916 -0.0131324186784 0.887 2.14342613103e-38
0.0294813175799 -0.0131028078133 0.885 2.22614982405e-38
0.0311191685565 -0.0131028078133 0.885 2.28157398092e-38
0.032831046696 -0.0131324186784 0.887 2.17076154043e-38
0.0344725990308 -0.0131324186784 0.887 2.28128699499e-38
0.0361141513656 -0.0131324186784 0.887 2.33703401102e-38
0.0376705724632 -0.0131028078133 0.885 2.34603819443e-38
0.0393084234398 -0.0131028078133 0.885 2.33699813778e-38
0.0409462744165 -0.0131028078133 0.885 2.3463610536e-38
0.0424397724257 -0.0130583915156 0.882 2.34646867332e-38
0.0440720713651 -0.0130583915156 0.882 2.34621756063e-38
0.0457043703046 -0.0130583915156 0.882 2.34621756063e-38
0.047336669244 -0.0130583915156 0.882 2.34610994091e-38
0.0489689681835 -0.0130583915156 0.882 2.34610994091e-38
0.0507733802764 -0.0131028078133 0.885 2.34632518036e-38
0.0525296747135 -0.0131324186784 0.887 2.34643280008e-38
0.0542933718669 -0.0131620295435 0.889 2.34664803952e-38
0.0560644717366 -0.0131916404086 0.891 2.34682740572e-38
0.05790774809 -0.0132360567063 0.894 2.34661216628e-38
0.0596955040713 -0.0132656675714 0.896 2.34675565924e-38
0.0613537125177 -0.0132656675714 0.896 2.34679153248e-38
0.0637151790106 -0.013413721897 0.906 2.34711439165e-38
0.0653918942478 -0.013413721897 0.906 2.3472263554e-38
0.00509677015787 -0.0118924637017 0.918 1.80403220349e-38
0.006773485395 -0.0118535994412 0.915 2.17274507841e-38
0.00844834995305 -0.0118276899343 0.913 1.5272697312e-38
0.0100824995716 -0.0117629161668 0.908 1.62670867283e-38
0.011633368632 -0.011633368632 0.898 2.34608625897e-38
0.0132952784365 -0.011633368632 0.898 1.7749362027e-38
0.0149238760178 -0.011607459125 0.896 2.09733378116e-38
0.0165820844643 -0.011607459125 0.896 1.9871622946e-38
0.0181995779711 -0.011581549618 0.894 2.01456945048e-38
0.0198540850594 -0.011581549618 0.894 2.06992186086e-38
0.0213882980082 -0.0115167758506 0.889 2.16229545563e-38
0.0230335517011 -0.0115167758506 0.889 2.11652120052e-38
0.0246788053941 -0.0115167758506 0.889 2.09750838295e-38
0.026324059087 -0.0115167758506 0.889 2.16197259647e-38
0.0279693127799 -0.0115167758506 0.889 2.16150624434e-38
0.0296145664729 -0.0115167758506 0.889 2.28146636119e-38
0.0312598201658 -0.0115167758506 0.889 2.30923224949e-38
0.0329050738588 -0.0115167758506 0.889 2.28175334712e-38
0.0345503275517 -0.0115167758506 0.889 2.34607406767e-38
0.0361141513656 -0.0114908663436 0.887 2.30923224949e-38
0.0377557037004 -0.0114908663436 0.887 2.34585882823e-38
0.0393972560352 -0.0114908663436 0.887 2.34603819443e-38
0.04103880837 -0.0114908663436 0.887 2.34618168739e-38
0.0425841253931 -0.0114649568366 0.885 2.34600232119e-38
0.0442219763698 -0.0114649568366 0.885 2.31848754558e-38
0.0458598273464 -0.0114649568366 0.885 2.34614581415e-38
0.0474976783231 -0.0114649568366 0.885 2.34657629304e-38
0.0492465700439 -0.0114908663436 0.887 2.34614581415e-38
0.0510028644811 -0.0115167758506 0.889 2.34600232119e-38
0.052648118174 -0.0115167758506 0.889 2.34650454656e-38
0.0544155166855 -0.0115426853575 0.891 2.34668391276e-38
0.0562532410017 -0.011581549618 0.894 2.34661216628e-38
0.05790774809 -0.011581549618 0.894 2.34682740572e-38
0.0596955040713 -0.011607459125 0.896 2.34700677193e-38
0.0620384637735 -0.0117370066599 0.906 2.34711439165e-38
0.0637151790106 -0.0117370066599 0.906 2.28250836673e-38
0.0655362472152 -0.0117629161668 0.908 2.34722201137e-38
0.00679569354383 -0.0101935403157 0.918 2.05313991046e-38
0.00846685674374 -0.0101602280925 0.915 1.86886033422e-38
0.0101602280925 -0.0101602280925 0.915 1.11199871481e-38
0.0118276899343 -0.0101380199437 0.913 1.98663820897e-38
0.013413721897 -0.0100602914227 0.906 2.01471490527e-38
0.015007156576 -0.0100047710506 0.901 1.74728101698e-38
0.0166190980456 -0.00997145882739 0.898 2.24523705057e-38
0.0182402929107 -0.00994925067855 0.896 2.07935652316e-38
0.0198985013571 -0.00994925067855 0.896 2.10694304525e-38
0.021436415664 -0.00989373030646 0.891 2.09754425619e-38
0.0230853707151 -0.00989373030646 0.891 2.11601897515e-38
0.0247343257662 -0.00989373030646 0.891 2.33685464481e-38
0.0263832808172 -0.00989373030646 0.891 2.1895949918e-38
0.0280322358683 -0.00989373030646 0.891 2.34646867332e-38
0.0296811909194 -0.00989373030646 0.891 2.27264154398e-38
0.0313301459705 -0.00989373030646 0.891 2.28171747388e-38
0.0329791010215 -0.00989373030646 0.891 2.29086515025e-38
0.0346280560726 -0.00989373030646 0.891 2.3184157991e-38
0.0361955812446 -0.00987152215763 0.889 2.3184157991e-38
0.0378408349376 -0.00987152215763 0.889 2.28175334712e-38
0.0394860886305 -0.00987152215763 0.889 2.34625343387e-38
0.0411313423234 -0.00987152215763 0.889 2.29990520691e-38
0.0427765960164 -0.00987152215763 0.889 2.34614581415e-38
0.0444218497093 -0.00987152215763 0.889 2.30930399597e-38
0.0460671034023 -0.00987152215763 0.889 2.31830817938e-38
0.0477123570952 -0.00987152215763 0.889 2.34618168739e-38
0.0493576107881 -0.00987152215763 0.889 2.34621756063e-38
0.0511176065834 -0.00989373030646 0.891 2.34646867332e-38
0.0527665616345 -0.00989373030646 0.891 2.34654294214e-38
0.0545987339134 -0.00992704252972 0.894 2.34668391276e-38
0.0562532410017 -0.00992704252972 0.894 2.34693502545e-38
0.0580372956249 -0.00994925067855 0.896 2.34700677193e-38
0.00679569354383 -0.00849461692979 0.918 1.64755564995e-38
0.00849461692979 -0.00849461692979 0.918 1.61035523949e-38
0.0101935403157 -0.00849461692979 0.918 1.28753376824e-38
0.0118924637017 -0.00849461692979 0.918 1.44440913132e-38
0.0135173599249 -0.00844834995305 0.913 1.84948359944e-38
0.0151570615806 -0.008420589767 0.91 1.74788862e-38
0.0167116319991 -0.00835581599956 0.903 1.64654629467e-38
0.0182810078502 -0.00830954902282 0.898 2.18116520062e-38
0.0198985013571 -0.00829104223213 0.896 2.0699577341e-38
0.0215567098035 -0.00829104223213 0.896 2.09768774916e-38
0.02321491825 -0.00829104223213 0.896 2.25427444475e-38
0.0248731266964 -0.00829104223213 0.896 2.18937975235e-38
0.0265313351428 -0.00829104223213 0.896 2.26320688168e-38
0.0281266205009 -0.00827253544143 0.894 2.24483978245e-38
0.0297811275891 -0.00827253544143 0.894 2.27217519186e-38
0.0314356346774 -0.00827253544143 0.894 2.24466041625e-38
0.0330901417657 -0.00827253544143 0.894 2.32745585575e-38
0.034744648854 -0.00827253544143 0.894 2.24462454301e-38
0.0363991559423 -0.00827253544143 0.894 2.25413095179e-38
0.0379259661748 -0.00824477525538 0.891 2.26324275492e-38
0.0395749212258 -0.00824477525538 0.891 2.30937574245e-38
0.0412238762769 -0.00824477525538 0.891 2.28171747388e-38
0.042872831328 -0.00824477525538 0.891 2.3276710952e-38
0.0445217863791 -0.00824477525538 0.891 2.34618168739e-38
0.0461707414302 -0.00824477525538 0.891 2.34632700204e-38
0.0478196964812 -0.00824477525538 0.891 2.34628930711e-38
0.0494686515323 -0.00824477525538 0.891 2.34632518036e-38
0.0511176065834 -0.00824477525538 0.891 2.34657629304e-38
0.0530626702856 -0.00829104223213 0.896 2.34628930711e-38
0.054720878732 -0.00829104223213 0.896 2.34689915221e-38
0.0566937026203 -0.00833730920887 0.901 2.34679153248e-38
0.0586850332993 -0.00838357618561 0.906 2.34704264517e-38
0.0606282463224 -0.008420589767 0.91 2.34711439165e-38
0.0650513692989 -0.00855939069723 0.925 2.34801430552e-38
0.0667632474384 -0.00855939069723 0.925 2.34795068657e-38
0.00683270712523 -0.00683270712523 0.923 1.50933829566e-38
0.00854088390653 -0.00683270712523 0.923 1.91452696961e-38
0.0102157484646 -0.00681049897639 0.92 1.19605700449e-38
0.0118924637017 -0.00679569354383 0.918 1.92482805475e-38
0.0135913870877 -0.00679569354383 0.918 1.49978844663e-38
0.0152403421387 -0.006773485395 0.915 1.27748211422e-38
0.0168041659526 -0.00672166638105 0.908 1.04728422939e-38
0.0184438676083 -0.00670686094849 0.906 2.12524680579e-38
0.0199429176548 -0.00664763921826 0.898 2.16225958239e-38
0.0216048274593 -0.00664763921826 0.898 2.09768774916e-38
0.0232667372639 -0.00664763921826 0.898 2.16211608943e-38
0.0249286470685 -0.00664763921826 0.898 2.10654843961e-38
0.026590556873 -0.00664763921826 0.898 2.1710843996e-38
0.0281895435892 -0.0066328337857 0.896 2.29097276998e-38
0.0298477520357 -0.0066328337857 0.896 2.21707389416e-38
0.0315059604821 -0.0066328337857 0.896 2.2078544713e-38
0.0331641689285 -0.0066328337857 0.896 2.27210344537e-38
0.0348223773749 -0.0066328337857 0.896 2.22614982405e-38
0.0364805858214 -0.0066328337857 0.896 2.19867092169e-38
0.0381387942678 -0.0066328337857 0.896 2.32759934872e-38
0.0397081701189 -0.00661802835314 0.894 2.29997695339e-38
0.0413626772071 -0.00661802835314 0.894 2.32774284168e-38
0.0431134196071 -0.0066328337857 0.896 2.30930399597e-38
0.0447716280535 -0.0066328337857 0.896 2.31845167234e-38
0.0464298364999 -0.0066328337857 0.896 2.30919637624e-38
0.0480880449463 -0.0066328337857 0.896 2.3463610536e-38
0.0498572941369 -0.00664763921826 0.898 2.34621756063e-38
0.0515192039415 -0.00664763921826 0.898 2.34643560267e-38
0.0534772223972 -0.00668465279965 0.903 2.34661216628e-38
0.055331602825 -0.00670686094849 0.906 2.34661216628e-38
0.0570083180621 -0.00670686094849 0.906 2.34668391276e-38
0.0586850332993 -0.00670686094849 0.906 2.34682740572e-38
0.0606282463224 -0.0067364718136 0.91 2.34725802474e-38
0.0633394911595 -0.00684751255778 0.925 2.34722201137e-38
0.0650513692989 -0.00684751255778 0.925 2.34795194774e-38
0.0667632474384 -0.00684751255778 0.925 2.34859976802e-38
0.0686972070662 -0.00686972070662 0.928 2.34892542979e-38
0.00703998318103 -0.00527998738577 0.951 1.72112718245e-38
0.00855939069723 -0.00513563441834 0.925 1.35221139951e-38
0.0102712688367 -0.00513563441834 0.925 1.21438668905e-38
0.0119831469761 -0.00513563441834 0.925 1.83191159696e-38
0.0136654142505 -0.00512453034392 0.923 1.92399988736e-38
0.0152903104736 -0.00509677015787 0.918 1.11160410916e-38
0.0169337134875 -0.00508011404625 0.915 9.3672360224e-39
0.0185863698967 -0.00506900997183 0.913 2.08804527429e-38
0.0201205828455 -0.00503014571137 0.906 1.98766451997e-38
0.0216048274593 -0.00498572941369 0.898 2.06066656477e-38
0.0232667372639 -0.00498572941369 0.898 2.07914128372e-38
0.0249286470685 -0.00498572941369 0.898 2.125238398e-38
0.026590556873 -0.00498572941369 0.898 2.11605484839e-38
0.0282524666776 -0.00498572941369 0.898 2.18973848476e-38
0.0299143764822 -0.00498572941369 0.898 2.15282492009e-38
0.0315762862867 -0.00498572941369 0.898 2.14349787751e-38
0.0332381960913 -0.00498572941369 0.898 2.20803383751e-38
0.0349001058959 -0.00498572941369 0.898 2.22658030294e-38
0.0364805858214 -0.00497462533928 0.896 2.30955510865e-38
0.0381387942678 -0.00497462533928 0.896 2.24462454301e-38
0.0397970027142 -0.00497462533928 0.896 2.26317100844e-38
0.0415477451141 -0.00498572941369 0.898 2.33681989261e-38
0.0432096549187 -0.00498572941369 0.898 2.33699813778e-38
0.0448715647232 -0.00498572941369 0.898 2.34614581415e-38
0.0465334745278 -0.00498572941369 0.898 2.34607406767e-38
0.0483563934114 -0.00500238552532 0.901 2.34618168739e-38
0.0501348959974 -0.00501348959974 0.903 2.34628930711e-38
0.0518060591973 -0.00501348959974 0.903 2.34621756063e-38
0.0536548875879 -0.00503014571137 0.906 2.34657629304e-38
0.055331602825 -0.00503014571137 0.906 2.34664803952e-38
0.0571341642389 -0.00504124978578 0.908 2.34664803952e-38
0.058944128369 -0.0050523538602 0.91 2.34675565924e-38
0.0611612418945 -0.00509677015787 0.918 2.34697117895e-38
0.0633394911595 -0.00513563441834 0.925 2.3472221515e-38
0.0650513692989 -0.00513563441834 0.925 2.34748685678e-38
0.0669797768895 -0.00515229052996 0.928 2.34777412297e-38
0.0686972070662 -0.00515229052996 0.928 2.34907144509e-38
0.00703998318103 -0.00351999159051 0.951 1.84995597715e-38
0.00875371199954 -0.00350148479982 0.946 1.4166374977e-38
0.0103045810599 -0.00343486035331 0.928 1.53699684449e-38
0.0119831469761 -0.00342375627889 0.925 7.07133320417e-39
0.0136950251156 -0.00342375627889 0.925 2.16356152879e-38
0.0152903104736 -0.00339784677192 0.918 1.89645063981e-38
0.0169892338596 -0.00339784677192 0.918 1.6008074924e-38
0.0186270848362 -0.0033867426975 0.915 1.12039305313e-38
0.0202094154408 -0.0033682359068 0.91 2.16215756786e-38
0.0218454157384 -0.00336083319052 0.908 2.15304015954e-38
0.0234740133197 -0.00335343047424 0.906 2.09768774916e-38
0.0251507285568 -0.00335343047424 0.906 2.125238398e-38
0.0267386111986 -0.00334232639983 0.903 2.1346730603e-38
0.0284097743985 -0.00334232639983 0.903 2.0977236224e-38
0.0299143764822 -0.00332381960913 0.898 2.1990296541e-38
0.0315762862867 -0.00332381960913 0.898 2.189774358e-38
0.0332381960913 -0.00332381960913 0.898 2.1805190619e-38
0.0349001058959 -0.00332381960913 0.898 2.20817733047e-38
0.0365620157004 -0.00332381960913 0.898 2.22647268322e-38
0.038223925505 -0.00332381960913 0.898 2.26335037465e-38
0.0398858353096 -0.00332381960913 0.898 2.30951923541e-38
0.0415477451141 -0.00332381960913 0.898 2.31891802447e-38
0.0433540078861 -0.00333492368355 0.901 2.3276710952e-38
0.0450214697279 -0.00333492368355 0.901 2.34664902043e-38
0.0467925695976 -0.00334232639983 0.903 2.34628930711e-38
0.0484637327975 -0.00334232639983 0.903 2.34621756063e-38
0.0503014571137 -0.00335343047424 0.906 2.34650454656e-38
0.0519781723508 -0.00335343047424 0.906 2.34632518036e-38
0.0537733310484 -0.00336083319052 0.908 2.34650454656e-38
0.0554537476436 -0.00336083319052 0.908 2.34650454656e-38
0.0574487796807 -0.00337933998122 0.913 2.34664803952e-38
0.0592679972062 -0.0033867426975 0.915 2.34668391276e-38
0.061494364127 -0.00341635356261 0.923 2.34661216628e-38
0.0633394911595 -0.00342375627889 0.925 2.34747746808e-38
0.0652623467129 -0.00343486035331 0.928 2.34852325713e-38
0.0669797768895 -0.00343486035331 0.928 2.3481705503e-38
0.0692153972057 -0.00346076986028 0.935 2.34874816553e-38
0.00701777503219 -0.00175444375805 0.948 1.90505279069e-38
0.00875371199954 -0.00175074239991 0.946 1.24135762072e-38
0.0103823095809 -0.00173038493014 0.935 1.28871730492e-38
0.0120479207436 -0.00172113153479 0.93 1.29815210735e-38
0.0137394414132 -0.00171743017665 0.928 1.14927563617e-38
0.0153735910318 -0.00170817678131 0.923 1.77605331783e-38
0.0169892338596 -0.00169892338596 0.918 1.88668807367e-38
0.0186270848362 -0.00169337134875 0.915 1.87735654694e-38
0.0202760398873 -0.00168966999061 0.913 2.34701251725e-38
0.0218935333942 -0.0016841179534 0.91 2.10740939738e-38
0.0235258323337 -0.00168041659526 0.908 2.07924890344e-38
0.0252062489289 -0.00168041659526 0.908 2.18970261152e-38
0.026827443794 -0.00167671523712 0.906 2.07946414289e-38
0.0284097743985 -0.00167116319991 0.903 2.12531014448e-38
0.0300809375984 -0.00167116319991 0.903 2.17129963904e-38
0.0318575895053 -0.00167671523712 0.906 2.23544099339e-38
0.0335343047424 -0.00167671523712 0.906 2.2725697975e-38
0.0350166986772 -0.00166746184177 0.901 2.25423857151e-38
0.036684160519 -0.00166746184177 0.901 2.29100864322e-38
0.0383516223608 -0.00166746184177 0.901 2.26345799437e-38
0.0400190842026 -0.00166746184177 0.901 2.32799395436e-38
0.0416865460443 -0.00166746184177 0.901 2.32795808112e-38
0.0433540078861 -0.00166746184177 0.901 2.3463610536e-38
0.0451214063976 -0.00167116319991 0.903 2.34607406767e-38
0.0469480266394 -0.00167671523712 0.906 2.34625343387e-38
0.0486247418765 -0.00167671523712 0.906 2.34661216628e-38
0.0504124978578 -0.00168041659526 0.908 2.346719786e-38
0.0522076565554 -0.0016841179534 0.91 2.34632644152e-38
0.0540694396995 -0.00168966999061 0.913 2.34639692684e-38
0.0557591096901 -0.00168966999061 0.913 2.34639692684e-38
0.0577633951226 -0.00169892338596 0.918 2.34668391276e-38
0.0595918660434 -0.0017026247441 0.92 2.34708104075e-38
0.061494364127 -0.00170817678131 0.923 2.34747312406e-38
0.0633394911595 -0.00171187813945 0.925 2.34819969731e-38
0.0652623467129 -0.00171743017665 0.928 2.34856739803e-38
0.067124129857 -0.00172113153479 0.93 2.34907074444e-38
0.0692153972057 -0.00173038493014 0.935 2.34849368973e-38
0.00701777503219 0.0 0.948 1.63833090216e-38
0.00875371199954 0.0 0.946 1.21471263107e-38
0.0104156218041 0.0 0.938 1.09532718672e-38
0.012086785004 0.0 0.933 1.63038007481e-38
0.0137690522784 0.0 0.93 1.03085512593e-38
0.0154568715899 0.0 0.928 9.56380596708e-39
0.0171187813945 0.0 0.925 1.50869566019e-38
0.0187899445944 0.0 0.923 2.07081995305e-38
0.0204314969292 0.0 0.92 2.01485643641e-38
0.0220860040175 0.0 0.918 2.09765187591e-38
0.0237071988825 0.0 0.915 2.12527427124e-38
0.025261769301 0.0 0.91 2.3005512055e-38
0.0268866655242 0.0 0.908 2.0977236224e-38
0.0285670821194 0.0 0.908 2.14371311696e-38
0.0302474987147 0.0 0.908 2.20817733047e-38
0.03192791531 0.0 0.908 2.29100864322e-38
0.033682359068 0.0 0.91 2.22647268322e-38
0.0353664770214 0.0 0.91 2.25416682503e-38
0.0370505949748 0.0 0.91 2.34632518036e-38
0.0387347129282 0.0 0.91 2.27249805102e-38
0.0405520797746 0.0 0.913 2.33703401102e-38
0.0420104148815 0.0 0.908 2.29997695339e-38
0.0436908314768 0.0 0.908 2.34607406767e-38
0.0454711847418 0.0 0.91 2.34621756063e-38
0.0470516646673 0.0 0.908 2.34650454656e-38
0.0487320812626 0.0 0.908 2.34646867332e-38
0.0506900997183 0.0 0.913 2.34682740572e-38
0.0524945118112 0.0 0.915 2.34639692684e-38
0.05418788316 0.0 0.915 2.3465404198e-38
0.0560644717366 0.0 0.918 2.34679153248e-38
0.0578892412993 0.0 0.92 2.34693502545e-38
0.0597861873457 0.0 0.923 2.34661258667e-38
0.06162761302 0.0 0.925 2.34689915221e-38
0.0635449165362 0.0 0.928 2.34892430875e-38
0.0652623467129 0.0 0.928 2.34960884305e-38
0.0673406593081 0.0 0.933 2.32948087216e-38
0.0692153972057 0.0 0.935 2.3481733529e-38
0.00701777503219 0.00175444375805 0.948 1.48214231546e-38
0.00875371199954 0.00175074239991 0.946 9.38739370081e-39
0.0104711421762 0.0017451903627 0.943 1.12295112347e-38
0.0121515587715 0.00173593696735 0.938 1.22461588758e-38
0.013813468576 0.001726683572 0.933 1.12334124497e-38
0.0154568715899 0.00171743017665 0.928 8.74739406748e-39
0.0171743017665 0.00171743017665 0.928 1.04857874891e-38
0.0188306595339 0.00171187813945 0.925 1.82225328742e-38
0.0205425376733 0.00171187813945 0.925 2.02443459167e-38
0.0221341216733 0.0017026247441 0.92 2.11598310191e-38
0.0237849274034 0.00169892338596 0.918 2.16197259647e-38
0.0254005702312 0.00169337134875 0.915 2.20806971075e-38
0.0270347198498 0.00168966999061 0.913 2.18059080838e-38
0.0286300052078 0.0016841179534 0.91 2.17147900525e-38
0.0303141231612 0.0016841179534 0.91 2.12520252476e-38
0.0319982411146 0.0016841179534 0.91 2.26345799437e-38
0.0337933998122 0.00168966999061 0.913 2.23558448636e-38
0.0355607983237 0.00169337134875 0.915 2.26324275492e-38
0.0372541696725 0.00169337134875 0.915 2.34621756063e-38
0.0389475410212 0.00169337134875 0.915 2.28160985416e-38
0.04064091237 0.00169337134875 0.915 2.34643280008e-38
0.0423342837187 0.00169337134875 0.915 2.33699813778e-38
0.0440276550675 0.00169337134875 0.915 2.34621756063e-38
0.0458709314209 0.00169892338596 0.918 2.34621756063e-38
0.0475698548068 0.00169892338596 0.918 2.3463610536e-38
0.0492687781928 0.00169892338596 0.918 2.34643280008e-38
0.0510787423229 0.0017026247441 0.92 2.3463610536e-38
0.0529534802205 0.00170817678131 0.923 2.34628930711e-38
0.0546616570018 0.00170817678131 0.923 2.3465404198e-38
0.0564919786017 0.00171187813945 0.925 2.3465404198e-38
0.0582038567412 0.00171187813945 0.925 2.34639860839e-38
0.0601100561829 0.00171743017665 0.928 2.34665294407e-38
0.0618274863596 0.00171743017665 0.928 2.34722341267e-38
0.0638872921641 0.001726683572 0.933 2.34924548635e-38
0.0657546273454 0.00173038493014 0.935 2.24683074731e-38
0.0677015417267 0.00173593696735 0.938 2.19154742095e-38
0.0695855330196 0.00173963832549 0.94 2.34900011899e-38
0.00703998318103 0.00351999159051 0.951 1.33459623703e-38
0.00877221879024 0.0035088875161 0.948 1.33528427458e-38
0.0105044543995 0.00350148479982 0.946 1.00345609758e-38
0.0121774682784 0.00347927665098 0.94 1.03125743872e-38
0.0138874957388 0.0034718739347 0.938 1.00374294337e-38
0.0155734643713 0.00346076986028 0.935 9.48500394794e-39
0.01726683572 0.00345336714401 0.933 1.02221738207e-38
0.018993519292 0.00345336714401 0.933 8.829503151e-39
0.0206535784175 0.00344226306959 0.93 1.60941791095e-38
0.0222544158128 0.00342375627889 0.925 2.10702376004e-38
0.0238367464174 0.00340524948819 0.92 2.16225958239e-38
0.0255393711615 0.00340524948819 0.92 2.18952324531e-38
0.0271827741753 0.00339784677192 0.918 2.16229545563e-38
0.0287873129287 0.0033867426975 0.915 2.18984610448e-38
0.0304806842775 0.0033867426975 0.915 2.18991785096e-38
0.0321740556262 0.0033867426975 0.915 2.18981023124e-38
0.0339784677192 0.00339784677192 0.918 2.29093689674e-38
0.0356773911051 0.00339784677192 0.918 2.26324275492e-38
0.0373763144911 0.00339784677192 0.918 2.3184157991e-38
0.039075237877 0.00339784677192 0.918 2.29086515025e-38
0.040774161263 0.00339784677192 0.918 2.30926812273e-38
0.042473084649 0.00339784677192 0.918 2.31845167234e-38
0.0441720080349 0.00339784677192 0.918 2.34625343387e-38
0.0458709314209 0.00339784677192 0.918 2.34632518036e-38
0.0476734928347 0.00340524948819 0.92 2.34639692684e-38
0.0495371266579 0.00341635356261 0.923 2.3463610536e-38
0.0513563441834 0.00342375627889 0.925 2.34628930711e-38
0.0530682223228 0.00342375627889 0.925 2.34664803952e-38
0.054957765653 0.00343486035331 0.928 2.34639692684e-38
0.0566751958296 0.00343486035331 0.928 2.34682740572e-38
0.0583926260063 0.00343486035331 0.928 2.34632518036e-38
0.0602396037178 0.00344226306959 0.93 2.346719786e-38
0.0621606085921 0.00345336714401 0.933 2.34924534623e-38
0.0640242424153 0.00346076986028 0.935 2.34810034525e-38
0.0659656047594 0.0034718739347 0.938 2.22849349574e-38
0.0678458946941 0.00347927665098 0.94 2.11814824816e-38
0.0695855330196 0.00347927665098 0.94 2.34932381894e-38
0.00707699676242 0.00530774757182 0.956 1.59241749811e-38
0.00882773916233 0.0052966434974 0.954 1.23383194732e-38
0.0105266625483 0.00526333127414 0.948 1.00359832937e-38
0.0122163325389 0.0052355710881 0.943 1.00338547214e-38
0.0139171066039 0.00521891497647 0.94 1.02221710181e-38
0.0156234327062 0.00520781090205 0.938 9.30168047764e-39
0.0173593696735 0.00520781090205 0.938 9.48570459717e-39
0.0190342342316 0.00519115479043 0.935 6.53508430784e-39
0.020720202864 0.00518005071601 0.933 1.07605793153e-38
0.022446886436 0.00518005071601 0.933 1.34144396224e-38
0.0240440224732 0.00515229052996 0.928 2.1989625319e-38
0.0256781720917 0.00513563441834 0.925 2.16229545563e-38
0.0273900502311 0.00513563441834 0.925 2.13470893354e-38
0.0290390052822 0.00512453034392 0.923 2.17129963904e-38
0.0307471820635 0.00512453034392 0.923 2.18984610448e-38
0.0324553588448 0.00512453034392 0.923 2.26324275492e-38
0.0340524948819 0.00510787423229 0.92 2.2816457274e-38
0.035755119626 0.00510787423229 0.92 2.28171747388e-38
0.0374577443701 0.00510787423229 0.92 2.29093689674e-38
0.0391603691142 0.00510787423229 0.92 2.34639692684e-38
0.0408629938583 0.00510787423229 0.92 2.28175334712e-38
0.0425656186024 0.00510787423229 0.92 2.34639692684e-38
0.0442682433465 0.00510787423229 0.92 2.34625343387e-38
0.0461207730953 0.00512453034392 0.923 2.34610994091e-38
0.0479325879045 0.00513563441834 0.925 2.34650454656e-38
0.0496444660439 0.00513563441834 0.925 2.34650454656e-38
0.0515229052996 0.00515229052996 0.928 2.34679153248e-38
0.0532403354763 0.00515229052996 0.928 2.34664803952e-38
0.0550762091134 0.00516339460438 0.93 2.34668391276e-38
0.0567973406482 0.00516339460438 0.93 2.34621756063e-38
0.0587072414481 0.00518005071601 0.933 2.34736718589e-38
0.060563472555 0.00519115479043 0.935 2.3493574501e-38
0.0622938574851 0.00519115479043 0.935 2.31114418111e-38
0.064229667792 0.00520781090205 0.938 2.21916435121e-38
0.0665282111965 0.00525222719973 0.946 2.0626170321e-38
0.0682789535964 0.00525222719973 0.946 2.34863830373e-38
0.0701777503219 0.00526333127414 0.948 2.34882005214e-38
0.00709920491126 0.00709920491126 0.959 1.70337679467e-38
0.00884624595303 0.00707699676242 0.956 1.11361735466e-38
0.0105932869948 0.00706219132986 0.954 1.0035261625e-38
0.0122811063063 0.00701777503219 0.948 9.38989501857e-39
0.0139615229016 0.0069807614508 0.943 9.29949865593e-39
0.0156567449294 0.00695855330196 0.94 9.76263760748e-39
0.0173593696735 0.00694374786941 0.938 8.65808931635e-39
0.0190953066409 0.00694374786941 0.938 8.10493655665e-39
0.0207646191617 0.00692153972057 0.935 1.07714197603e-38
0.022446886436 0.00690673428801 0.933 1.35292774328e-38
0.0240958414871 0.00688452613918 0.93 1.62761012813e-38
0.0258169730219 0.00688452613918 0.93 2.18105716051e-38
0.0274788828265 0.00686972070662 0.928 2.15307603278e-38
0.0291963130031 0.00686972070662 0.928 2.17112027284e-38
0.03081380651 0.00684751255778 0.925 2.29097276998e-38
0.0324553588448 0.00683270712523 0.923 2.25395158559e-38
0.0341635356261 0.00683270712523 0.923 2.23533337367e-38
0.0358717124074 0.00683270712523 0.923 2.26309926196e-38
0.0375798891887 0.00683270712523 0.923 2.27242630454e-38
0.03928806597 0.00683270712523 0.923 2.34639692684e-38
0.0409962427514 0.00683270712523 0.923 2.34628930711e-38
0.0427044195327 0.00683270712523 0.923 2.29994108015e-38
0.044412596314 0.00683270712523 0.923 2.34628930711e-38
0.046220709765 0.00684751255778 0.925 2.34646867332e-38
0.0480880449463 0.00686972070662 0.928 2.34621756063e-38
0.049805475123 0.00686972070662 0.928 2.34628930711e-38
0.0515229052996 0.00686972070662 0.928 2.34657629304e-38
0.0532403354763 0.00686972070662 0.928 2.34661216628e-38
0.0550762091134 0.00688452613918 0.93 2.34643518228e-38
0.0569805578761 0.00690673428801 0.933 2.34866268632e-38
0.0588330876248 0.00692153972057 0.935 2.34899899796e-38
0.060563472555 0.00692153972057 0.935 2.13598117242e-38
0.0622938574851 0.00692153972057 0.935 2.19162084898e-38
0.0647774687966 0.00700296959964 0.946 1.87848066856e-38
0.0665282111965 0.00700296959964 0.946 2.32987898106e-38
0.0682789535964 0.00700296959964 0.946 2.2471124083e-38
0.00709920491126 0.00887400613907 0.959 1.78635089973e-38
0.00884624595303 0.00884624595303 0.956 1.34342399697e-38
0.0106154951436 0.00884624595303 0.956 1.07692267282e-38
0.0122811063063 0.00877221879024 0.948 9.47953187743e-39
0.0140059391993 0.00875371199954 0.946 9.11294939657e-39
0.0157067132643 0.0087259518135 0.943 8.46865898734e-39
0.017451903627 0.0087259518135 0.943 8.65339636779e-39
0.0191360215804 0.00869819162745 0.94 8.19497839077e-39
0.0208312436082 0.00867968483676 0.938 7.45634696373e-39
0.0224950040919 0.00865192465071 0.935 1.49204529171e-38
0.024173570008 0.00863341786002 0.933 2.05266991495e-38
0.02590025358 0.00863341786002 0.933 2.07946414289e-38
0.027626937152 0.00863341786002 0.933 2.12520252476e-38
0.0292592360915 0.00860565767397 0.93 2.3276710952e-38
0.0309137431798 0.00858715088327 0.928 2.18966673828e-38
0.0326311733564 0.00858715088327 0.928 2.29994108015e-38
0.0342375627889 0.00855939069723 0.925 2.32781458816e-38
0.0359494409284 0.00855939069723 0.925 2.34628930711e-38
0.0376613190678 0.00855939069723 0.925 2.25395158559e-38
0.0393731972073 0.00855939069723 0.925 2.34593057471e-38
0.0410850753467 0.00855939069723 0.925 2.34603819443e-38
0.0427969534861 0.00855939069723 0.925 2.34614581415e-38
0.0445088316256 0.00855939069723 0.925 2.34639692684e-38
0.0463706147697 0.00858715088327 0.928 2.34643280008e-38
0.0481916829742 0.00860565767397 0.93 2.34646867332e-38
0.049912814509 0.00860565767397 0.93 2.34639692684e-38
0.0518005071601 0.00863341786002 0.933 2.34679153248e-38
0.0535271907321 0.00863341786002 0.933 2.34679153248e-38
0.0553723177646 0.00865192465071 0.935 2.34885298266e-38
0.0572859199226 0.00867968483676 0.938 2.23782207974e-38
0.0590218568899 0.00867968483676 0.938 2.13622359705e-38
0.0612759839968 0.00875371199954 0.946 1.99822358416e-38
0.0630267263967 0.00875371199954 0.946 1.81400972882e-38
0.0647774687966 0.00875371199954 0.946 2.34885998915e-38
0.0665282111965 0.00875371199954 0.946 2.34860172984e-38
0.0682789535964 0.00875371199954 0.946 2.20109068388e-38
0.00884624595303 0.0106154951436 0.956 1.40763023144e-38
0.0106154951436 0.0106154951436 0.956 1.19630699613e-38
0.0123588348273 0.0105932869948 0.954 1.00305742816e-38
0.0140799663621 0.0105599747715 0.951 9.20622402625e-39
0.0157566815992 0.0105044543995 0.946 8.92821481872e-39
0.0175074239991 0.0105044543995 0.946 6.99067306326e-39
0.0191970939897 0.0104711421762 0.943 1.29765142341e-38
0.0208756599059 0.0104378299529 0.94 1.50934039761e-38
0.0224950040919 0.0103823095809 0.935 1.55597196713e-38
0.024225389022 0.0103823095809 0.935 2.04326986472e-38
0.0259557739521 0.0103823095809 0.935 2.1344936941e-38
0.0276861588823 0.0103823095809 0.935 2.1712637658e-38
0.0293536207241 0.010360101432 0.933 2.25427444475e-38
0.0310803042961 0.010360101432 0.933 2.18037556894e-38
0.0327014991611 0.0103267892088 0.93 2.29090102349e-38
0.0343486035331 0.0103045810599 0.928 2.21696627444e-38
0.0360660337097 0.0103045810599 0.928 2.34607406767e-38
0.0377834638864 0.0103045810599 0.928 2.34643280008e-38
0.0395008940631 0.0103045810599 0.928 2.33678289833e-38
0.0412183242397 0.0103045810599 0.928 2.34593057471e-38
0.0429357544164 0.0103045810599 0.928 2.34621756063e-38
0.044653184593 0.0103045810599 0.928 2.34621756063e-38
0.0464705514394 0.0103267892088 0.93 2.34621756063e-38
0.0483471400161 0.010360101432 0.933 2.34628930711e-38
0.0501811629741 0.0103823095809 0.935 2.34646867332e-38
0.0519115479043 0.0103823095809 0.935 2.34650454656e-38
0.0536419328344 0.0103823095809 0.935 2.34708090062e-38
0.0555499829552 0.0104156218041 0.938 2.16273041868e-38
0.0574080647412 0.0104378299529 0.94 2.18221827642e-38
0.0595252415969 0.0105044543995 0.946 1.8598965082e-38
0.0612759839968 0.0105044543995 0.946 1.98907800973e-38
0.0631599752897 0.0105266625483 0.948 2.22903677915e-38
0.0649144190478 0.0105266625483 0.948 2.18293826357e-38
0.0666688628058 0.0105266625483 0.948 2.09034830832e-38
0.0684233065639 0.0105266625483 0.948 2.34878347825e-38
0.0106154951436 0.0123847443342 0.956 1.57314922383e-38
0.0123588348273 0.0123588348273 0.954 1.16738699843e-38
0.0140799663621 0.0123199705668 0.951 1.23340160856e-38
0.0157899938224 0.0122811063063 0.948 6.15912433765e-39
0.0175444375805 0.0122811063063 0.948 1.38949000243e-38
0.019258166399 0.0122551967994 0.946 1.9694061615e-38
0.0209422843524 0.0122163325389 0.943 2.04312455007e-38
0.0225671805756 0.0121515587715 0.938 1.84973190953e-38
0.0243031175429 0.0121515587715 0.938 2.12588411634e-38
0.0260390545103 0.0121515587715 0.938 2.12527427124e-38
0.0276861588823 0.012112694511 0.935 2.18037556894e-38
0.0294165438124 0.012112694511 0.935 2.18934387911e-38
0.0311469287426 0.012112694511 0.935 2.2631351352e-38
0.0328069878681 0.012086785004 0.933 2.2263650635e-38
0.0344226306959 0.0120479207436 0.93 2.2723904313e-38
0.0361437622307 0.0120479207436 0.93 2.34603819443e-38
0.0379870385841 0.012086785004 0.933 2.29086515025e-38
0.0395860253003 0.0120479207436 0.93 2.34628930711e-38
0.0413071568351 0.0120479207436 0.93 2.34607406767e-38
0.0430282883699 0.0120479207436 0.93 2.34639692684e-38
0.0448937728721 0.012086785004 0.933 2.34643280008e-38
0.0466204564441 0.012086785004 0.933 2.34628930711e-38
0.048450778044 0.012112694511 0.935 2.34643280008e-38
0.0503421720532 0.0121515587715 0.938 2.34639692684e-38
0.0520781090205 0.0121515587715 0.938 2.34628930711e-38
0.0539287880902 0.0121774682784 0.94 2.34758382664e-38
0.0558460916064 0.0122163325389 0.943 2.11685288786e-38
0.057774499197 0.0122551967994 0.946 1.89637426904e-38
0.0595252415969 0.0122551967994 0.946 2.11804231e-38
0.0614055315317 0.0122811063063 0.948 2.19179881389e-38
0.0631599752897 0.0122811063063 0.948 2.2014114411e-38
0.0654622200524 0.0123847443342 0.956 2.10921553097e-38
0.067231469243 0.0123847443342 0.956 2.21920386783e-38
0.0106154951436 0.0141539935248 0.956 1.87700201842e-38
0.0123847443342 0.0141539935248 0.956 1.5359128e-38
0.0141243826597 0.0141243826597 0.954 1.5919141517e-38
0.0158399621573 0.0140799663621 0.951 9.8418235824e-39
0.0175444375805 0.0140355500644 0.948 1.94189769174e-38
0.0192988813385 0.0140355500644 0.948 1.92280570081e-38
0.0210089087989 0.0140059391993 0.946 2.07917715696e-38
0.0226152982314 0.0139171066039 0.94 2.10687129877e-38
0.0243031175429 0.0138874957388 0.938 2.10679955229e-38
0.0260390545103 0.0138874957388 0.938 2.14360549723e-38
0.0277749914776 0.0138874957388 0.938 2.18963086504e-38
0.029510928445 0.0138874957388 0.938 2.19859917521e-38
0.0312468654123 0.0138874957388 0.938 2.34610994091e-38
0.0329828023797 0.0138874957388 0.938 2.17112027284e-38
0.0346076986028 0.0138430794411 0.935 2.31848754558e-38
0.036338083533 0.0138430794411 0.935 2.29997695339e-38
0.0380684684631 0.0138430794411 0.935 2.30926812273e-38
0.0397137221561 0.013813468576 0.933 2.34600232119e-38
0.0414404057281 0.013813468576 0.933 2.34607406767e-38
0.0431670893001 0.013813468576 0.933 2.30930399597e-38
0.0448937728721 0.013813468576 0.933 2.34618168739e-38
0.0467203931138 0.0138430794411 0.935 2.34628930711e-38
0.048450778044 0.0138430794411 0.935 2.3463610536e-38
0.0503421720532 0.0138874957388 0.938 2.34628930711e-38
0.0520781090205 0.0138874957388 0.938 2.34704264517e-38
0.0541009012437 0.0139615229016 0.943 2.34697089869e-38
0.0560237567971 0.0140059391993 0.946 2.19979392228e-38
0.057774499197 0.0140059391993 0.946 2.20097928065e-38
0.0596510877736 0.0140355500644 0.948 2.1269398546e-38
0.0614055315317 0.0140355500644 0.948 2.15481308235e-38
0.0631599752897 0.0140355500644 0.948 2.00729993444e-38
0.0654622200524 0.0141539935248 0.956 2.15452651682e-38
0.067231469243 0.0141539935248 0.956 2.34925403428e-38
0.0106488073669 0.0159732110503 0.959 1.83111369761e-38
0.0124236085947 0.0159732110503 0.959 1.86781202284e-38
0.0141539935248 0.0159232427154 0.956 1.63711121198e-38
0.0159232427154 0.0159232427154 0.956 1.66577393129e-38
0.0175999579526 0.0158399621573 0.951 1.63782867679e-38
0.0192988813385 0.0157899938224 0.948 1.96011387112e-38
0.0210089087989 0.0157566815992 0.946 2.00560114031e-38
0.0227596511988 0.0157566815992 0.946 2.06048719856e-38
0.0244326650778 0.0157067132643 0.943 2.06967074818e-38
0.0261778554405 0.0157067132643 0.943 2.14356962399e-38
0.0279230458032 0.0157067132643 0.943 2.14356962399e-38
0.0296682361659 0.0157067132643 0.943 2.23536924691e-38
0.0313134898588 0.0156567449294 0.94 2.22615178587e-38
0.0330531281843 0.0156567449294 0.94 2.24462454301e-38
0.034718739347 0.0156234327062 0.938 2.34610994091e-38
0.0364546763144 0.0156234327062 0.938 2.27242630454e-38
0.0381906132817 0.0156234327062 0.938 2.34603819443e-38
0.0397988533933 0.0155734643713 0.935 2.34621756063e-38
0.0415292383234 0.0155734643713 0.935 2.34614581415e-38
0.0432596232536 0.0155734643713 0.935 2.34621756063e-38
0.0449900081837 0.0155734643713 0.935 2.3463972071e-38
0.0468702981185 0.0156234327062 0.938 2.34646867332e-38
0.0486062350858 0.0156234327062 0.938 2.34643280008e-38
0.0504495114392 0.0156567449294 0.94 2.34639692684e-38
0.0521891497647 0.0156567449294 0.94 2.34661216628e-38
0.0542730143972 0.0157566815992 0.946 2.34751025847e-38
0.0561422002575 0.0157899938224 0.948 2.20922844445e-38
0.0578966440156 0.0157899938224 0.948 2.17346534582e-38
0.0596510877736 0.0157899938224 0.948 1.90560153917e-38
0.0614055315317 0.0157899938224 0.948 2.09042089558e-38
0.0635597219688 0.0158899304922 0.954 2.05343698573e-38
0.0654622200524 0.0159232427154 0.956 2.34939388386e-38
0.067231469243 0.0159232427154 0.956 2.34939668646e-38
0.0124236085947 0.0177480122781 0.959 1.88599975586e-38
0.0141984098225 0.0177480122781 0.959 1.91355040471e-38
0.0159732110503 0.0177480122781 0.959 1.60016177407e-38
0.0176554783247 0.0176554783247 0.954 1.31457490496e-38
0.0194210261571 0.0176554783247 0.954 1.43428503018e-38
0.0211199495431 0.0175999579526 0.951 2.10690857331e-38
0.0228077688546 0.0175444375805 0.948 2.0695990017e-38
0.0245622126127 0.0175444375805 0.948 2.1803396957e-38
0.0263166563707 0.0175444375805 0.948 2.01460532373e-38
0.0280118783985 0.0175074239991 0.946 2.15271730037e-38
0.0297626207984 0.0175074239991 0.946 2.23544099339e-38
0.0315133631984 0.0175074239991 0.946 2.26317100844e-38
0.0331586168913 0.017451903627 0.943 2.28150223443e-38
0.034903807254 0.017451903627 0.943 2.24462454301e-38
0.0366489976167 0.017451903627 0.943 2.34643294021e-38
0.0383941879794 0.017451903627 0.943 2.29068578405e-38
0.0399265502491 0.0173593696735 0.938 2.34596644795e-38
0.0416624872164 0.0173593696735 0.938 2.34600232119e-38
0.0433984241838 0.0173593696735 0.938 2.34596644795e-38
0.0451343611511 0.0173593696735 0.938 2.34621756063e-38
0.0469702347883 0.0173963832549 0.94 2.34614581415e-38
0.0488653301556 0.017451903627 0.943 2.34650454656e-38
0.0507715295974 0.0175074239991 0.946 2.34657629304e-38
0.0525222719973 0.0175074239991 0.946 2.34664803952e-38
0.0543877564995 0.0175444375805 0.948 2.34750969795e-38
0.0561422002575 0.0175444375805 0.948 1.98806865445e-38
0.0580798612435 0.0175999579526 0.951 1.93357720184e-38
0.0598398570387 0.0175999579526 0.951 2.05321866343e-38
0.061599852834 0.0175999579526 0.951 2.09957039364e-38
0.0638928442013 0.0177480122781 0.959 2.34882131331e-38
0.0658730708059 0.0178035326502 0.962 2.34942947684e-38
0.0682160305081 0.0179515869758 0.97 2.31967136253e-38
0.0142428261202 0.0195838859153 0.962 1.97808636471e-38
0.0160231793852 0.0195838859153 0.962 2.00588812624e-38
0.0176924919061 0.0194617410967 0.956 1.69239187588e-38
0.0194617410967 0.0194617410967 0.956 1.44310872635e-38
0.0211865739896 0.0194210261571 0.954 2.06995997618e-38
0.0229521218221 0.0194210261571 0.954 2.17101265312e-38
0.0246399411336 0.0193599537478 0.951 2.09747250971e-38
0.0263999369289 0.0193599537478 0.951 2.05148301515e-38
0.0281599327241 0.0193599537478 0.951 2.1803396957e-38
0.0298255438868 0.0192988813385 0.948 2.18012445625e-38
0.0315799876449 0.0192988813385 0.948 2.21682278148e-38
0.0332641055983 0.019258166399 0.946 2.29068578405e-38
0.0350148479982 0.019258166399 0.946 2.21707389416e-38
0.0367655903981 0.019258166399 0.946 2.33674702509e-38
0.038516332798 0.019258166399 0.946 2.34593057471e-38
0.0401393783421 0.0191970939897 0.943 2.34596644795e-38
0.0418845687048 0.0191970939897 0.943 2.34596644795e-38
0.0436297590675 0.0191970939897 0.943 2.34621756063e-38
0.0455193023976 0.019258166399 0.946 2.34614581415e-38
0.0472700447975 0.019258166399 0.946 2.34618168739e-38
0.0490207871974 0.019258166399 0.946 2.34643280008e-38
0.0507715295974 0.019258166399 0.946 2.34643280008e-38
0.0526333127414 0.0192988813385 0.948 2.34657629304e-38
0.0543877564995 0.0192988813385 0.948 2.34740207823e-38
0.0563198654482 0.0193599537478 0.951 1.98806837419e-38
0.0580798612435 0.0193599537478 0.951 1.98893367599e-38
0.0600286263038 0.0194210261571 0.954 2.19155078406e-38
0.0617941741363 0.0194210261571 0.954 2.34914361196e-38
0.0644258397734 0.0196856732641 0.967 2.34914080936e-38
0.0662154464338 0.0196856732641 0.967 2.34743725082e-38
0.0682160305081 0.0197467456734 0.97 2.34697538284e-38
0.0142724369853 0.021408655478 0.964 1.8492655574e-38
0.0160564916085 0.021408655478 0.964 1.95024872993e-38
0.0178035326502 0.0213642391803 0.962 1.96879519537e-38
0.0195838859153 0.0213642391803 0.962 1.95957577251e-38
0.0212976147338 0.0212976147338 0.959 2.02360950714e-38
0.0230002394779 0.0212309902873 0.956 2.12470029939e-38
0.0247694886685 0.0212309902873 0.956 2.09729314351e-38
0.0265387378591 0.0212309902873 0.956 2.11551674978e-38
0.0282487653195 0.0211865739896 0.954 2.13399146873e-38
0.0299199285194 0.0211199495431 0.951 2.18927213263e-38
0.0316799243146 0.0211199495431 0.951 2.24466041625e-38
0.0334399201099 0.0211199495431 0.951 2.23547686663e-38
0.0351999159051 0.0211199495431 0.951 2.30923224949e-38
0.036843318919 0.0210533250966 0.948 2.30930399597e-38
0.0385977626771 0.0210533250966 0.948 2.34600232119e-38
0.0403522064351 0.0210533250966 0.948 2.33656765889e-38
0.0420178175978 0.0210089087989 0.946 2.3465404198e-38
0.0437685599977 0.0210089087989 0.946 2.34614581415e-38
0.0455193023976 0.0210089087989 0.946 2.34618168739e-38
0.0472700447975 0.0210089087989 0.946 2.34618168739e-38
0.0491244252253 0.0210533250966 0.948 2.34650454656e-38
0.0508788689834 0.0210533250966 0.948 2.34625343387e-38
0.0527998738577 0.0211199495431 0.951 2.3465404198e-38
0.054559869653 0.0211199495431 0.951 2.34754781327e-38
0.0564975306389 0.0211865739896 0.954 1.95085997632e-38
0.05838522329 0.0212309902873 0.956 2.34817012991e-38
0.0601544724806 0.0212309902873 0.956 2.34939234243e-38
0.0623123642758 0.0213642391803 0.962 2.32991303261e-38
0.0644258397734 0.0214752799245 0.967 2.3465404198e-38
0.0664208718105 0.021541904371 0.97 2.34747550626e-38
0.068427007922 0.0216085288175 0.973 2.34661216628e-38
0.014316853283 0.0232648865848 0.967 1.8225048205e-38
0.0161064599433 0.0232648865848 0.967 1.87652922032e-38
0.0178405462316 0.0231927101011 0.964 1.95936053307e-38
0.0196246008548 0.0231927101011 0.964 1.99616647801e-38
0.0213642391803 0.0231445924453 0.962 2.00535002763e-38
0.0230724159616 0.0230724159616 0.959 2.0695990017e-38
0.0248472171894 0.0230724159616 0.959 2.1618291035e-38
0.0265387378591 0.0230002394779 0.956 2.19874266817e-38
0.0283079870497 0.0230002394779 0.956 2.2171097674e-38
0.0300143131519 0.0229521218221 0.954 2.20789034455e-38
0.0317798609844 0.0229521218221 0.954 2.26335037465e-38
0.0335454088169 0.0229521218221 0.954 2.28150223443e-38
0.0353109566493 0.0229521218221 0.954 2.309160503e-38
0.0370765044818 0.0229521218221 0.954 2.30919637624e-38
0.0388420523143 0.0229521218221 0.954 2.34593057471e-38
0.0406076001467 0.0229521218221 0.954 2.34607406767e-38
0.0423731479792 0.0229521218221 0.954 2.34625343387e-38
0.0439998948814 0.0228799453383 0.951 2.34639692684e-38
0.0457598906767 0.0228799453383 0.951 2.34639692684e-38
0.0477697281463 0.0230002394779 0.956 2.34625343387e-38
0.049538977337 0.0230002394779 0.956 2.34643280008e-38
0.0513082265276 0.0230002394779 0.956 2.34661216628e-38
0.0530774757182 0.0230002394779 0.956 2.34689915221e-38
0.0548467249088 0.0230002394779 0.956 2.34733033174e-38
0.0566159740994 0.0230002394779 0.956 2.34967918823e-38
0.0585684405179 0.0230724159616 0.959 2.34950136345e-38
0.0603432417457 0.0230724159616 0.959 2.17205886255e-38
0.0628305544153 0.0233370630686 0.97 2.3457512085e-38
0.0646257131129 0.0233370630686 0.97 2.34697482232e-38
0.0667632474384 0.0234573572081 0.975 2.34776010998e-38
0.0687786369453 0.0235295336918 0.978 2.34811968317e-38
0.0161564282782 0.0251322217661 0.97 1.74846287211e-38
0.0178960666037 0.0250544932452 0.967 1.88592800938e-38
0.0196856732641 0.0250544932452 0.967 2.06059481829e-38
0.021408655478 0.0249767647243 0.964 2.02382474658e-38
0.0231445924453 0.0249249457103 0.962 2.06970662142e-38
0.0248472171894 0.0248472171894 0.959 2.11551674978e-38
0.0265387378591 0.0247694886685 0.956 2.17083328692e-38
0.0283079870497 0.0247694886685 0.956 2.18012445625e-38
0.0300772362403 0.0247694886685 0.956 2.24466041625e-38
0.0318464854309 0.0247694886685 0.956 2.22647268322e-38
0.0336157346215 0.0247694886685 0.956 2.25395158559e-38
0.0353849838121 0.0247694886685 0.956 2.32749172899e-38
0.0371542330027 0.0247694886685 0.956 2.34621756063e-38
0.0389234821933 0.0247694886685 0.956 2.34639692684e-38
0.0406927313839 0.0247694886685 0.956 2.34632518036e-38
0.0424619805745 0.0247694886685 0.956 2.34628930711e-38
0.0443700306954 0.0248472171894 0.959 2.34610994091e-38
0.0461448319232 0.0248472171894 0.959 2.34625343387e-38
0.047919633151 0.0248472171894 0.959 2.34632518036e-38
0.0496944343788 0.0248472171894 0.959 2.34661216628e-38
0.0514692356066 0.0248472171894 0.959 2.34643280008e-38
0.0534105979507 0.0249249457103 0.962 2.34682740572e-38
0.0551909512157 0.0249249457103 0.962 2.34718922099e-38
0.0570897479412 0.0249767647243 0.964 2.34675930262e-38
0.0588738025644 0.0249767647243 0.964 2.34772423674e-38
0.0610353957178 0.0251322217661 0.97 2.34614581415e-38
0.0630248757176 0.0252099502871 0.973 2.34715208658e-38
0.0648255864524 0.0252099502871 0.973 2.34711579295e-38
0.0667632474384 0.025261769301 0.975 2.34675579937e-38
0.0687786369453 0.0253394978219 0.978 2.35040450031e-38
0.0162896771712 0.0271494619521 0.978 1.66631469237e-38
0.0180441209293 0.0270661813939 0.975 1.73949498233e-38
0.0198078180827 0.0270106610218 0.973 1.95943284007e-38
0.021541904371 0.0269273804637 0.97 2.04212009933e-38
0.0232648865848 0.0268440999056 0.967 2.06963487494e-38
0.0250544932452 0.0268440999056 0.967 2.18005270977e-38
0.0267608193474 0.0267608193474 0.964 2.12498728532e-38
0.0285448739706 0.0267608193474 0.964 2.34589470147e-38
0.0301716208728 0.0266220184172 0.959 2.26338624789e-38
0.0319464221007 0.0266220184172 0.959 2.23569210608e-38
0.0337212233285 0.0266220184172 0.959 2.309160503e-38
0.0354960245563 0.0266220184172 0.959 2.34596644795e-38
0.0372708257841 0.0266220184172 0.959 2.29079438468e-38
0.0390456270119 0.0266220184172 0.959 2.31794944697e-38
0.0408204282397 0.0266220184172 0.959 2.34578708175e-38
0.0425952294675 0.0266220184172 0.959 2.34618168739e-38
0.0443700306954 0.0266220184172 0.959 2.34661216628e-38
0.0462891848906 0.0267052989754 0.962 2.34693502545e-38
0.0480695381556 0.0267052989754 0.962 2.34646867332e-38
0.0498498914207 0.0267052989754 0.962 2.34719188346e-38
0.0517375840717 0.0267608193474 0.964 2.33742861666e-38
0.0535216386949 0.0267608193474 0.964 2.34747452536e-38
0.055305693318 0.0267608193474 0.964 2.34823725211e-38
0.0572674131319 0.0268440999056 0.967 2.13515314516e-38
0.0592402370202 0.0269273804637 0.97 2.3488766646e-38
0.0612241649829 0.0270106610218 0.973 2.34711439165e-38
0.0630248757176 0.0270106610218 0.973 2.34697089869e-38
0.0648255864524 0.0270106610218 0.973 2.34661216628e-38
0.0199096054315 0.0289594260822 0.978 1.52727323445e-38
0.0216529451152 0.0288705934869 0.975 1.93216875676e-38
0.0234092395523 0.0288113717566 0.973 2.03311591592e-38
0.0252099502871 0.0288113717566 0.973 2.17072566719e-38
0.0269273804637 0.0287225391613 0.97 2.11576786246e-38
0.0287225391613 0.0287225391613 0.97 2.28143048795e-38
0.0305176978589 0.0287225391613 0.97 2.19859917521e-38
0.0323128565565 0.0287225391613 0.97 2.20792621779e-38
0.0340025265471 0.028633706566 0.967 2.34603819443e-38
0.0357921332074 0.028633706566 0.967 2.34589470147e-38
0.0373874185655 0.0284856522404 0.962 2.34621756063e-38
0.0391677718305 0.0284856522404 0.962 2.34607406767e-38
0.0409481250955 0.0284856522404 0.962 2.31830817938e-38
