# .PCD v0.7 - Point Cloud Data file format
VERSION 0.7
FIELDS x y z rgb
SIZE 4 4 4 4
TYPE F F F F
COUNT 1 1 1 1
WIDTH 853
HEIGHT 1
VIEWPOINT 0 0 0 1 0 0 0
POINTS 853
DATA ascii
0.0106099431064 -0.115193668013 0.819 1.56555474668e-38
0.0122144818598 -0.116037577668 0.825 1.4827594473e-38
0.0137412920923 -0.116037577668 0.825 1.53811185768e-38
0.0152681023248 -0.116037577668 0.825 1.61168563225e-38
0.0168356274968 -0.116318880887 0.827 1.49183425616e-38
0.0183661390874 -0.116318880887 0.827 1.42722598916e-38
0.019896650678 -0.116318880887 0.827 1.55626427799e-38
0.0214271622687 -0.116318880887 0.827 1.39038501175e-38
0.0229021534872 -0.116037577668 0.825 1.47321646463e-38
0.0244289637197 -0.116037577668 0.825 1.43626576555e-38
0.0260186970405 -0.116318880887 0.827 1.42719039618e-38
0.0275492086311 -0.116318880887 0.827 1.36279989097e-38
0.0290797202217 -0.116318880887 0.827 1.39963932694e-38
0.0306842589751 -0.116600184106 0.829 1.3996396072e-38
0.0322184719239 -0.116600184106 0.829 1.4179342593e-38
0.0337526848727 -0.116600184106 0.829 1.33510294656e-38
0.0352868978214 -0.116600184106 0.829 1.34432405097e-38
0.0368211107702 -0.116600184106 0.829 1.30751782577e-38
0.0383553237189 -0.116600184106 0.829 1.41815090005e-38
0.0398895366677 -0.116600184106 0.829 1.3351026663e-38
0.0413238129467 -0.116318880887 0.827 1.31684332692e-38
0.0426470484815 -0.11575627445 0.823 1.252237302e-38
0.0440628179698 -0.115474971231 0.821 1.29818868124e-38
0.0454711847418 -0.115193668013 0.819 1.24290815747e-38
0.0469868908999 -0.115193668013 0.819 1.26152370692e-38
0.0485025970579 -0.115193668013 0.819 1.22468651302e-38
0.0498961583974 -0.114912364794 0.817 1.20628017743e-38
0.0514081631973 -0.114912364794 0.817 1.23390201224e-38
0.0527906204624 -0.114631061575 0.815 1.25216149175e-38
0.0541656750111 -0.114349758357 0.813 1.35354109162e-38
0.0556702770948 -0.114349758357 0.813 9.20227376588e-39
0.0571748791784 -0.114349758357 0.813 1.04976690988e-38
0.0586794812621 -0.114349758357 0.813 9.85300314155e-39
0.0601840833457 -0.114349758357 0.813 1.03132722338e-38
0.00304621774868 -0.114233165575 0.823 1.71263587427e-38
0.0045582225486 -0.113955563715 0.821 1.6666453988e-38
0.0060776300648 -0.113955563715 0.821 1.62987616788e-38
0.007597037581 -0.113955563715 0.821 1.6576421963e-38
0.0091164450972 -0.113955563715 0.821 1.52860390747e-38
0.0106876716274 -0.114510767436 0.825 1.60228754384e-38
0.0122144818598 -0.114510767436 0.825 1.49197802938e-38
0.0137746043156 -0.114788369296 0.827 1.43666205276e-38
0.0153051159062 -0.114788369296 0.827 1.45495670486e-38
0.0168356274968 -0.114788369296 0.827 1.50094493825e-38
0.0183661390874 -0.114788369296 0.827 1.43641051969e-38
0.019896650678 -0.114788369296 0.827 1.45481335203e-38
0.0214789812826 -0.115065971157 0.829 1.3812003411e-38
0.0230131942314 -0.115065971157 0.829 1.44559224761e-38
0.0245474071801 -0.115065971157 0.829 1.42704550192e-38
0.0260816201289 -0.115065971157 0.829 1.40871427593e-38
0.0276158330776 -0.115065971157 0.829 1.36276093487e-38
0.0291500460264 -0.115065971157 0.829 1.36286855459e-38
0.0306842589751 -0.115065971157 0.829 1.33517483317e-38
0.0322184719239 -0.115065971157 0.829 1.43655247122e-38
0.0337526848727 -0.115065971157 0.829 1.30748013084e-38
0.0353720290586 -0.115343573017 0.831 1.36290526861e-38
0.0369099433655 -0.115343573017 0.831 1.37209134056e-38
0.0385403916259 -0.115621174878 0.833 1.28907701824e-38
0.0399857719793 -0.115343573017 0.831 1.29811833606e-38
0.0414237496164 -0.115065971157 0.829 1.35364871134e-38
0.0427506865094 -0.114510767436 0.825 1.27996437432e-38
0.0441701573558 -0.114233165575 0.823 1.22453783526e-38
0.045582225486 -0.113955563715 0.821 1.2337966346e-38
0.0471016330022 -0.113955563715 0.821 1.21528520163e-38
0.0486210405184 -0.113955563715 0.821 1.20624542523e-38
0.050018303216 -0.113677961855 0.819 1.1785493216e-38
0.0515340093741 -0.113677961855 0.819 1.18780475783e-38
0.0529201679972 -0.113400359994 0.817 1.20613724499e-38
0.0544321727972 -0.113400359994 0.817 1.21553883665e-38
0.0556702770948 -0.112845156273 0.813 1.09550445097e-38
0.0571748791784 -0.112845156273 0.813 1.0036683943e-38
0.0586794812621 -0.112845156273 0.813 1.00370188533e-38
0.0601840833457 -0.112845156273 0.813 1.03121764184e-38
0.00304621774868 -0.112710056701 0.823 1.69437653489e-38
0.00456932662302 -0.112710056701 0.823 1.74965831983e-38
0.00610724092991 -0.112983957203 0.825 1.62065632463e-38
0.00763405116239 -0.112983957203 0.825 1.61143704191e-38
0.00916086139487 -0.112983957203 0.825 1.55611938373e-38
0.0106876716274 -0.112983957203 0.825 1.61143676165e-38
0.0122440927249 -0.113257857706 0.827 1.50105437966e-38
0.0137746043156 -0.113257857706 0.827 1.46428374744e-38
0.0153051159062 -0.113257857706 0.827 1.45506362393e-38
0.0168763424363 -0.113531758208 0.829 1.51956006731e-38
0.0184105553851 -0.113531758208 0.829 1.4180455224e-38
0.0199447683338 -0.113531758208 0.829 1.41818621277e-38
0.0215308002966 -0.11380565871 0.831 1.42733262797e-38
0.0230687146034 -0.11380565871 0.831 1.3719436437e-38
0.0246066289103 -0.11380565871 0.831 1.3719436437e-38
0.0261445432172 -0.11380565871 0.831 1.35357640434e-38
0.0276824575241 -0.11380565871 0.831 1.49201306184e-38
0.0292906976357 -0.114079559213 0.833 1.33520958537e-38
0.0308323133007 -0.114079559213 0.833 1.32591813577e-38
0.0324516574867 -0.114353459715 0.835 1.28003710171e-38
0.0339969745099 -0.114353459715 0.835 1.31677003901e-38
0.0356274227702 -0.114627360217 0.837 1.2981889615e-38
0.0371764411516 -0.114627360217 0.837 1.35350605916e-38
0.0388179934863 -0.11490126072 0.839 1.362688768e-38
0.0402744779142 -0.114627360217 0.837 1.28900443098e-38
0.041623622956 -0.114079559213 0.833 1.31666508175e-38
0.0428543245373 -0.113257857706 0.827 1.26138245604e-38
0.0442774967419 -0.112983957203 0.825 1.28904338707e-38
0.0456932662302 -0.112710056701 0.823 1.24301381538e-38
0.0472163751045 -0.112710056701 0.823 1.23375557655e-38
0.0487394839789 -0.112710056701 0.823 1.21535582707e-38
0.0501404480346 -0.112436156199 0.821 1.20610221253e-38
0.0515340093741 -0.112162255696 0.819 1.17848051785e-38
0.0530497155321 -0.112162255696 0.819 1.17854721966e-38
0.0544321727972 -0.111888355194 0.817 1.16028998222e-38
0.0558072273459 -0.111614454692 0.815 1.04947305759e-38
0.0573155307877 -0.111614454692 0.815 9.66790842999e-39
0.0588238342295 -0.111614454692 0.815 1.01285264456e-38
0.0603321376713 -0.111614454692 0.815 9.39131173131e-39
0.00305362046496 -0.111457146971 0.825 1.57477430966e-38
0.00458043069744 -0.111457146971 0.825 1.58385037969e-38
0.00610724092991 -0.111457146971 0.825 1.56537453969e-38
0.00763405116239 -0.111457146971 0.825 1.53764522529e-38
0.00916086139487 -0.111457146971 0.825 1.54689982074e-38
0.0107135811343 -0.111727346115 0.827 1.54693513346e-38
0.0122737035901 -0.111997545259 0.829 1.48265252823e-38
0.0138079165388 -0.111997545259 0.829 1.47328793085e-38
0.0153421294876 -0.111997545259 0.829 1.49186956888e-38
0.0169170573759 -0.112267744403 0.831 1.38134257289e-38
0.0184993879804 -0.112537943548 0.833 1.35357892668e-38
0.0200410036455 -0.112537943548 0.833 1.39971023265e-38
0.0216344383245 -0.112808142692 0.835 1.39042004422e-38
0.0232352757197 -0.113078341836 0.837 1.42729731525e-38
0.0247250723708 -0.112808142692 0.835 1.32595470966e-38
0.026270389394 -0.112808142692 0.835 1.31688018107e-38
0.0278157064172 -0.112808142692 0.835 1.30758424732e-38
0.029431349245 -0.113078341836 0.837 1.32598834083e-38
0.0309803676263 -0.113078341836 0.837 1.31691044912e-38
0.0325293860076 -0.113078341836 0.837 1.26170769741e-38
0.034159834268 -0.11334854098 0.839 1.31669983396e-38
0.0357976852446 -0.113618740124 0.841 1.27975207761e-38
0.0373541063422 -0.113618740124 0.841 1.29818742007e-38
0.0389105274398 -0.113618740124 0.841 1.2891120507e-38
0.0404669485374 -0.113618740124 0.841 1.25219848603e-38
0.0418234962955 -0.113078341836 0.837 1.27063761201e-38
0.0432688766489 -0.112808142692 0.835 1.25234141848e-38
0.044492175514 -0.111997545259 0.829 1.2429782224e-38
0.0459153477185 -0.111727346115 0.827 1.23361642762e-38
0.0474458593092 -0.111727346115 0.827 1.22461042252e-38
0.0489763708998 -0.111727346115 0.827 1.16929500642e-38
0.0503847376718 -0.111457146971 0.825 1.15078511487e-38
0.0516598555508 -0.110916748683 0.821 1.16929472616e-38
0.053179263067 -0.110916748683 0.821 1.16929472616e-38
0.0545654216902 -0.110646549538 0.819 1.14170820407e-38
0.0559441775971 -0.110376350394 0.817 1.08628320643e-38
0.057456182397 -0.110376350394 0.817 9.48316264175e-39
0.0588238342295 -0.11010615125 0.815 9.57535967292e-39
0.0603321376713 -0.11010615125 0.815 1.01288823754e-38
0.00153421294876 -0.110463332311 0.829 1.52885572081e-38
0.00305362046496 -0.109930336738 0.825 1.53803997107e-38
0.00458043069744 -0.109930336738 0.825 1.63927565759e-38
0.00612204636247 -0.110196834524 0.827 1.51934903176e-38
0.00765255795309 -0.110196834524 0.827 1.57481284537e-38
0.00918306954371 -0.110196834524 0.827 1.50083956061e-38
0.0107394906413 -0.110463332311 0.829 1.5471869468e-38
0.0122737035901 -0.110463332311 0.829 1.45488369721e-38
0.0138745409853 -0.110996327883 0.833 1.51038086172e-38
0.0154531702318 -0.111262825669 0.835 1.38116502838e-38
0.0170392021945 -0.111529323455 0.837 1.44570196928e-38
0.0185882205758 -0.111529323455 0.837 1.36272800435e-38
0.0201853566129 -0.111795821241 0.839 1.39045689837e-38
0.0217380763524 -0.111795821241 0.839 1.37202001447e-38
0.0232907960918 -0.111795821241 0.839 1.32588310331e-38
0.0248435158313 -0.111795821241 0.839 1.31677003901e-38
0.0263962355707 -0.111795821241 0.839 1.29836888822e-38
0.0279489553102 -0.111795821241 0.839 1.31677003901e-38
0.0295016750496 -0.111795821241 0.839 1.31684304666e-38
0.0311284219519 -0.112062319027 0.841 1.29847552704e-38
0.0326848430495 -0.112062319027 0.841 1.32617008924e-38
0.0343226940261 -0.112328816813 0.843 1.27978682981e-38
0.0358828164819 -0.112328816813 0.843 1.26145336174e-38
0.0374429389376 -0.112328816813 0.843 1.24315716821e-38
0.0390030613933 -0.112328816813 0.843 1.2891120507e-38
0.0404669485374 -0.112062319027 0.841 1.28918393731e-38
0.0419234329653 -0.111795821241 0.839 1.21546484809e-38
0.0433725146768 -0.111529323455 0.837 1.26163286807e-38
0.0448141936721 -0.111262825669 0.835 1.16018068094e-38
0.0462484699511 -0.110996327883 0.833 1.20606563864e-38
0.0475606014115 -0.110463332311 0.829 1.39041976396e-38
0.0490948143602 -0.110463332311 0.829 1.141673592e-38
0.0505068824904 -0.110196834524 0.827 1.12319691122e-38
0.0519115479043 -0.109930336738 0.825 1.15081468227e-38
0.0533088106019 -0.109663838952 0.823 1.10483247446e-38
0.0546986705832 -0.109397341166 0.821 1.03125323483e-38
0.0560811278482 -0.10913084338 0.819 1.14155826513e-38
0.0575968340063 -0.10913084338 0.819 1.13234416721e-38
0.0592568931318 -0.109397341166 0.821 1.12323404563e-38
0.060776300648 -0.109397341166 0.821 1.01281382859e-38
-0.00306842589751 -0.108929119362 0.829 1.39042004422e-38
-0.00153051159062 -0.108666322934 0.827 1.55647965756e-38
0.0 -0.108666322934 0.827 1.61165031953e-38
0.00153051159062 -0.108666322934 0.827 1.56551663136e-38
0.00306842589751 -0.108929119362 0.829 1.44587769211e-38
0.00460263884627 -0.108929119362 0.829 1.57452361737e-38
0.00613685179503 -0.108929119362 0.829 1.50080228607e-38
0.00767106474379 -0.108929119362 0.829 1.51027422291e-38
0.00920527769254 -0.108929119362 0.829 1.45492139214e-38
0.0107654001483 -0.10919191579 0.831 1.46403291501e-38
0.0123033144552 -0.10919191579 0.831 1.4458086081e-38
0.0138745409853 -0.109454712218 0.833 1.35354081136e-38
0.0154531702318 -0.109717508645 0.835 1.44570196928e-38
0.0170392021945 -0.109980305073 0.837 1.38120006084e-38
0.0186326368734 -0.110243101501 0.839 1.35347074644e-38
0.0202334742687 -0.110505897929 0.841 1.31680773394e-38
0.0217898953663 -0.110505897929 0.841 1.32598806057e-38
0.0233463164639 -0.110505897929 0.841 1.30762320341e-38
0.0249027375615 -0.110505897929 0.841 1.31695024599e-38
0.0264591586591 -0.110505897929 0.841 1.11411986029e-38
0.0280822042032 -0.110768694357 0.843 1.39031018242e-38
0.0296423266589 -0.110768694357 0.843 1.43633765217e-38
0.0312024491147 -0.110768694357 0.843 1.49176447149e-38
0.0327625715704 -0.110768694357 0.843 1.24304856758e-38
0.0343226940261 -0.110768694357 0.843 1.2985105595e-38
0.0358828164819 -0.110768694357 0.843 1.25244833755e-38
0.0374429389376 -0.110768694357 0.843 1.27996437432e-38
0.0390030613933 -0.110768694357 0.843 1.2706741859e-38
0.040563183849 -0.110768694357 0.843 1.25212617903e-38
0.042023369635 -0.110505897929 0.841 1.24315716821e-38
0.0435797907326 -0.110505897929 0.841 1.27070795719e-38
0.0449215330581 -0.109980305073 0.837 1.18784287315e-38
0.0463595106953 -0.109717508645 0.835 1.26141776876e-38
0.0477900856161 -0.109454712218 0.833 1.2059950132e-38
0.0492132578207 -0.10919191579 0.831 1.18766532863e-38
0.050629027309 -0.108929119362 0.829 1.20628241951e-38
0.052037394081 -0.108666322934 0.827 1.11401392213e-38
0.0534383581368 -0.108403526506 0.825 1.14160030409e-38
0.0548319194762 -0.108140730078 0.823 1.06816693962e-38
0.0562180780994 -0.10787793365 0.821 1.16926095486e-38
0.0577374856156 -0.10787793365 0.821 1.15074826072e-38
0.0592568931318 -0.10787793365 0.821 1.10483247446e-38
0.060776300648 -0.10787793365 0.821 1.12316187876e-38
-0.00306842589751 -0.107394906413 0.829 1.37212539212e-38
-0.00153051159062 -0.107135811343 0.827 1.53796962589e-38
0.0 -0.107135811343 0.827 1.51038114198e-38
0.00153051159062 -0.107135811343 0.827 1.51030925537e-38
0.00306842589751 -0.107394906413 0.829 1.58406575926e-38
0.00460263884627 -0.107394906413 0.829 1.4365171585e-38
0.00615165722759 -0.107654001483 0.831 1.48250581228e-38
0.00768957153448 -0.107654001483 0.831 1.4364824063e-38
0.00922748584138 -0.107654001483 0.831 1.41800740708e-38
0.0107913096553 -0.107913096553 0.833 1.40893133706e-38
0.0123329253203 -0.107913096553 0.833 1.3903847315e-38
0.0139078532086 -0.108172191622 0.835 1.37198049785e-38
0.0154901838131 -0.108431286692 0.837 1.39974652628e-38
0.017079917134 -0.108690381762 0.839 1.35354109162e-38
0.0186770531711 -0.108949476832 0.841 1.37198021759e-38
0.0202334742687 -0.108949476832 0.841 1.34464452793e-38
0.0217898953663 -0.108949476832 0.841 1.34467984065e-38
0.0233463164639 -0.108949476832 0.841 1.26159811587e-38
0.0249027375615 -0.108949476832 0.841 1.31687835938e-38
0.0264591586591 -0.108949476832 0.841 1.27070767693e-38
0.0280822042032 -0.109208571901 0.843 1.31684304666e-38
0.0296423266589 -0.109208571901 0.843 1.44559252787e-38
0.0312024491147 -0.109208571901 0.843 1.62101631821e-38
0.0327625715704 -0.109208571901 0.843 1.10497064249e-38
0.0344041239052 -0.109467666971 0.845 1.2891092481e-38
0.0359679477191 -0.109467666971 0.845 1.22464699641e-38
0.0374429389376 -0.109208571901 0.843 1.27063887317e-38
0.0390030613933 -0.109208571901 0.843 1.27063789227e-38
0.040563183849 -0.109208571901 0.843 1.27056572539e-38
0.042023369635 -0.108949476832 0.841 1.20617255771e-38
0.0435797907326 -0.108949476832 0.841 1.18776650238e-38
0.0449215330581 -0.108431286692 0.837 1.19702586225e-38
0.0464705514394 -0.108431286692 0.837 1.18769909993e-38
0.0479048277184 -0.108172191622 0.835 1.16922466123e-38
0.0493317012812 -0.107913096553 0.833 1.17847505279e-38
0.0507511721276 -0.107654001483 0.831 1.13252423406e-38
0.0521632402577 -0.107394906413 0.829 1.12323404563e-38
0.0535679056716 -0.107135811343 0.827 1.1139776285e-38
0.0549651683692 -0.106876716274 0.825 1.09557339486e-38
0.0563550283506 -0.106617621204 0.823 1.09557339486e-38
0.0578781372249 -0.106617621204 0.823 1.0680968747e-38
0.0594012460992 -0.106617621204 0.823 1.10468744007e-38
-0.00306842589751 -0.105860693464 0.829 1.42711612736e-38
-0.00153421294876 -0.105860693464 0.829 1.55626427799e-38
0.0 -0.105860693464 0.829 1.4551733456e-38
0.00153421294876 -0.105860693464 0.829 1.45499215771e-38
0.00307582861379 -0.106116087176 0.831 1.49197802938e-38
0.00461374292069 -0.106116087176 0.831 1.42737046303e-38
0.00616646266014 -0.106371480887 0.833 1.44573700174e-38
0.00770807832518 -0.106371480887 0.833 1.45484866475e-38
0.00924969399022 -0.106371480887 0.833 1.41811278473e-38
0.0108172191622 -0.106626874599 0.835 1.39056227601e-38
0.0123625361854 -0.106626874599 0.835 1.34442942862e-38
0.0139411654318 -0.106882268311 0.837 1.39045633785e-38
0.0155271973945 -0.107137662022 0.839 1.3997480677e-38
0.0171206320735 -0.107393055734 0.841 1.29843923341e-38
0.0186770531711 -0.107393055734 0.841 1.3167704594e-38
0.0202815919245 -0.107648449446 0.843 1.29847412574e-38
0.0218417143803 -0.107648449446 0.843 1.28014402079e-38
0.023401836836 -0.107648449446 0.843 1.27077956354e-38
0.0249619592917 -0.107648449446 0.843 1.24287102306e-38
0.0265220817475 -0.107648449446 0.843 1.28903946344e-38
0.0280822042032 -0.107648449446 0.843 1.28911233096e-38
0.0296423266589 -0.107648449446 0.843 1.37223105002e-38
0.0312024491147 -0.107648449446 0.843 1.30758845121e-38
0.0328403000913 -0.107903843157 0.845 1.10472457448e-38
0.0344041239052 -0.107903843157 0.845 1.23383292823e-38
0.0359679477191 -0.107903843157 0.845 1.25216541539e-38
0.0374429389376 -0.107648449446 0.843 1.24290815747e-38
0.0390030613933 -0.107648449446 0.843 1.2337966346e-38
0.040563183849 -0.107648449446 0.843 1.25205611411e-38
0.0421233063048 -0.107648449446 0.843 1.21521611761e-38
0.0435797907326 -0.107393055734 0.841 1.27078236614e-38
0.0450288724442 -0.107137662022 0.839 1.1601100555e-38
0.0464705514394 -0.106882268311 0.837 1.22450252253e-38
0.0479048277184 -0.106626874599 0.835 1.17837387904e-38
0.0494501447416 -0.106626874599 0.835 1.16929500642e-38
0.0508733169462 -0.106371480887 0.833 1.11401392213e-38
0.0522890864345 -0.106116087176 0.831 1.12316215902e-38
0.0536974532065 -0.105860693464 0.829 1.11390728332e-38
0.0550984172622 -0.105605299753 0.827 1.15074952189e-38
0.0564919786017 -0.105349906041 0.825 1.11416035782e-38
0.0580187888342 -0.105349906041 0.825 1.08649970704e-38
0.0595455990667 -0.105349906041 0.825 1.04962187549e-38
-0.00153421294876 -0.104326480515 0.829 1.46424717355e-38
0.0 -0.104326480515 0.829 1.43673239794e-38
0.00153421294876 -0.104326480515 0.829 1.46428346718e-38
0.00308323133007 -0.104829865222 0.833 1.47364820469e-38
0.00462484699511 -0.104829865222 0.833 1.38112971566e-38
0.00616646266014 -0.104829865222 0.833 1.41793552047e-38
0.00772658511588 -0.105081557576 0.835 1.35364927186e-38
0.00927190213905 -0.105081557576 0.835 1.36283128005e-38
0.0108431286692 -0.105333249929 0.837 1.35347074644e-38
0.0123921470505 -0.105333249929 0.837 1.31669983396e-38
0.0139744776551 -0.105584942283 0.839 1.32584751033e-38
0.0155642109759 -0.105836634636 0.841 1.27992878134e-38
0.0171206320735 -0.105836634636 0.841 1.36279568707e-38
0.0187214694688 -0.10608832699 0.843 1.30769410912e-38
0.0202815919245 -0.10608832699 0.843 1.27081165327e-38
0.0218417143803 -0.10608832699 0.843 1.27078012406e-38
0.023401836836 -0.10608832699 0.843 1.26138245604e-38
0.0249619592917 -0.10608832699 0.843 1.26145336174e-38
0.0265850048358 -0.106340019343 0.845 1.27989248771e-38
0.0281488286497 -0.106340019343 0.845 1.41825809938e-38
0.0297126524636 -0.106340019343 0.845 1.19688082785e-38
0.0312764762774 -0.106340019343 0.845 1.24283655112e-38
0.0328403000913 -0.106340019343 0.845 1.16918962877e-38
0.0344041239052 -0.106340019343 0.845 1.24301227395e-38
0.0359679477191 -0.106340019343 0.845 1.2337966346e-38
0.0375317715329 -0.106340019343 0.845 1.23368705306e-38
0.0390955953468 -0.106340019343 0.845 1.2152498889e-38
0.040563183849 -0.10608832699 0.843 1.21525016916e-38
0.0421233063048 -0.10608832699 0.843 1.23383320849e-38
0.0435797907326 -0.105836634636 0.841 1.15078511487e-38
0.0450288724442 -0.105584942283 0.839 1.24290815747e-38
0.0464705514394 -0.105333249929 0.837 1.15078511487e-38
0.0480195698208 -0.105333249929 0.837 1.1599344728e-38
0.0494501447416 -0.105081557576 0.835 1.15996950527e-38
0.0509954617648 -0.105081557576 0.835 1.14145989398e-38
0.0524149326112 -0.104829865222 0.833 1.15074952189e-38
0.0538270007414 -0.104578172869 0.831 1.206104875e-38
0.0552316661553 -0.104326480515 0.829 1.07710105811e-38
0.0566289288529 -0.104074788162 0.827 1.01274320315e-38
0.0581594404435 -0.104074788162 0.827 1.04983501298e-38
0.0598343050015 -0.104326480515 0.829 1.01295830246e-38
-0.0015379143069 -0.103040258562 0.831 1.3813449551e-38
0.0 -0.103040258562 0.831 1.42729759551e-38
0.0015379143069 -0.103040258562 0.831 1.4641032602e-38
0.00308323133007 -0.103288249557 0.833 1.44577231447e-38
0.00463595106953 -0.103536240553 0.835 1.39967491992e-38
0.0061812680927 -0.103536240553 0.835 1.36286883485e-38
0.00774509190657 -0.103784231548 0.837 1.35368584575e-38
0.00929411028789 -0.103784231548 0.837 1.35368584575e-38
0.0108690381762 -0.104032222543 0.839 1.28922345393e-38
0.0124217579156 -0.104032222543 0.839 1.30758845121e-38
0.0140077898783 -0.104280213539 0.841 1.31680535173e-38
0.0156012245573 -0.104528204534 0.843 1.30755075628e-38
0.0171613470131 -0.104528204534 0.843 1.3074067028e-38
0.0187214694688 -0.104528204534 0.843 1.27060384071e-38
0.0202815919245 -0.104528204534 0.843 1.27989248771e-38
0.0218417143803 -0.104528204534 0.843 1.26145336174e-38
0.0234573572081 -0.104776195529 0.845 1.28900695331e-38
0.025021181022 -0.104776195529 0.845 1.28893226411e-38
0.0265850048358 -0.104776195529 0.845 1.27985717499e-38
0.0281488286497 -0.104776195529 0.845 1.26127735865e-38
0.0297126524636 -0.104776195529 0.845 1.25212645929e-38
0.0312764762774 -0.104776195529 0.845 1.24297275733e-38
0.0328403000913 -0.104776195529 0.845 1.21521611761e-38
0.0344855537843 -0.105024186525 0.847 1.21528520163e-38
0.0360530789563 -0.105024186525 0.847 1.20606535838e-38
0.0375317715329 -0.104776195529 0.845 1.22446692955e-38
0.0390955953468 -0.104776195529 0.845 1.22447113345e-38
0.0406594191607 -0.104776195529 0.845 1.22450476461e-38
0.0422232429745 -0.104776195529 0.845 1.20613752525e-38
0.0436834287605 -0.104528204534 0.843 1.17847925668e-38
0.0450288724442 -0.104032222543 0.839 1.18769909993e-38
0.0465815921836 -0.104032222543 0.839 1.16000481799e-38
0.0480195698208 -0.103784231548 0.837 1.25220072811e-38
0.0495685882021 -0.103784231548 0.837 1.14156555188e-38
0.0511176065834 -0.103784231548 0.837 1.10475960694e-38
0.0526666249647 -0.103784231548 0.837 1.10479491966e-38
0.0540860958111 -0.103536240553 0.835 1.1600753033e-38
0.0556314128343 -0.103536240553 0.835 1.03118260938e-38
0.0571767298575 -0.103536240553 0.835 1.04043748509e-38
-0.0015379143069 -0.101502344255 0.831 1.31666480149e-38
0.0 -0.101502344255 0.831 1.45473992399e-38
0.00154531702318 -0.10199092353 0.835 1.39956659955e-38
0.00309063404635 -0.10199092353 0.835 1.41811306499e-38
0.00463595106953 -0.10199092353 0.835 1.36275939344e-38
0.00619607352526 -0.102235213167 0.837 1.35354109162e-38
0.00774509190657 -0.102235213167 0.837 1.30762320341e-38
0.00931631843672 -0.102479502804 0.839 1.27088942534e-38
0.0108690381762 -0.102479502804 0.839 1.28003738197e-38
0.0124513687807 -0.102723792441 0.841 1.27992780043e-38
0.0140411021016 -0.102968082078 0.843 1.28003738197e-38
0.0156012245573 -0.102968082078 0.843 1.28904366733e-38
0.0172020619526 -0.103212371716 0.845 1.3443551598e-38
0.0187658857665 -0.103212371716 0.845 1.41814837771e-38
0.0203297095803 -0.103212371716 0.845 1.29822245254e-38
0.0218935333942 -0.103212371716 0.845 1.28918267614e-38
0.0234573572081 -0.103212371716 0.845 1.22457482954e-38
0.025021181022 -0.103212371716 0.845 1.27070767693e-38
0.0266479279242 -0.103456661353 0.847 1.21532205578e-38
0.0281488286497 -0.103212371716 0.845 1.24283795242e-38
0.0297126524636 -0.103212371716 0.845 1.24283767216e-38
0.0312764762774 -0.103212371716 0.845 1.25216149175e-38
0.0329180286122 -0.103456661353 0.847 1.22439686463e-38
0.0344855537843 -0.103456661353 0.847 1.21528520163e-38
0.0360530789563 -0.103456661353 0.847 1.20613752525e-38
0.0376206041283 -0.103456661353 0.847 1.21535554681e-38
0.0391881293003 -0.103456661353 0.847 1.22439714489e-38
0.0407556544723 -0.103456661353 0.847 1.22439504294e-38
0.0422232429745 -0.103212371716 0.845 1.16003999058e-38
0.0437870667884 -0.103212371716 0.845 1.16011201732e-38
0.0452435512162 -0.102968082078 0.843 1.07738804404e-38
0.0466926329278 -0.102723792441 0.841 1.16007698486e-38
0.0482490540254 -0.102723792441 0.841 1.12305397878e-38
0.049805475123 -0.102723792441 0.841 1.14170876459e-38
0.051239751402 -0.102479502804 0.839 1.11397734824e-38
0.0527924711414 -0.102479502804 0.839 1.11419567054e-38
0.054215643346 -0.102235213167 0.837 1.12352061117e-38
0.0557646617273 -0.102235213167 0.837 1.0955031898e-38
0.0577245308621 -0.102968082078 0.843 1.1139776285e-38
-0.00154901838131 -0.100686194785 0.837 1.55651497028e-38
0.0 -0.100686194785 0.837 1.39027669138e-38
0.00154901838131 -0.100686194785 0.837 1.37198049785e-38
0.00309803676263 -0.100686194785 0.837 1.33520804394e-38
0.00465815921836 -0.100926783065 0.839 1.34435908343e-38
0.00621087895782 -0.100926783065 0.839 1.29836832771e-38
0.00778210548797 -0.101167371344 0.841 1.27070921836e-38
0.0093607347344 -0.101407959623 0.843 1.24315814912e-38
0.0109467666971 -0.101648547902 0.845 1.28914736342e-38
0.0125402013761 -0.101889136181 0.847 1.27985899668e-38
0.0141077265481 -0.101889136181 0.847 1.24305123005e-38
0.0157122653015 -0.10212972446 0.849 1.3351763746e-38
0.0173242067712 -0.102370312739 0.851 1.28903918318e-38
0.0188991346595 -0.102370312739 0.851 1.27049538021e-38
0.0204740625478 -0.102370312739 0.851 1.28893198385e-38
0.022126718957 -0.102731195157 0.854 1.2614160872e-38
0.0237071988825 -0.102731195157 0.854 1.25234169874e-38
0.0254061222684 -0.103212371716 0.858 1.1786568012e-38
0.0270569279986 -0.103452959995 0.86 1.19677516995e-38
0.0286485119985 -0.103452959995 0.86 1.21525143033e-38
0.0302400959984 -0.103452959995 0.86 1.14167331174e-38
0.0318316799983 -0.103452959995 0.86 1.22457482954e-38
0.0330734856541 -0.102370312739 0.851 1.2336867728e-38
0.0345669836633 -0.10212972446 0.849 1.16929500642e-38
0.0361382101935 -0.10212972446 0.849 1.1879158808e-38
0.0376206041283 -0.101889136181 0.847 1.1601114568e-38
0.0391881293003 -0.101889136181 0.847 1.18773539356e-38
0.0408518897839 -0.10212972446 0.849 1.16000313643e-38
0.0423231796443 -0.101889136181 0.847 1.15082014733e-38
0.0437870667884 -0.101648547902 0.845 1.16011173706e-38
0.0452435512162 -0.101407959623 0.843 1.10508428779e-38
0.0466926329278 -0.101167371344 0.841 1.12323404563e-38
0.0482490540254 -0.101167371344 0.841 1.13245332836e-38
0.049805475123 -0.101167371344 0.841 1.07728294665e-38
0.051239751402 -0.100926783065 0.839 1.09560688589e-38
0.0527924711414 -0.100926783065 0.839 1.07706364344e-38
0.0543451908809 -0.100926783065 0.839 1.10472247253e-38
0.0558979106203 -0.100926783065 0.839 1.08631851915e-38
0.0577245308621 -0.101407959623 0.843 1.10479309797e-38
-0.00154901838131 -0.0991371764041 0.837 1.53803997107e-38
0.0 -0.0991371764041 0.837 1.36257918646e-38
0.00155271973945 -0.0993740633251 0.839 1.39971121355e-38
0.00310543947891 -0.0993740633251 0.839 1.33524671978e-38
0.00466926329278 -0.099610950246 0.841 1.29844301691e-38
0.00622568439037 -0.099610950246 0.841 1.27074733368e-38
0.00780061227866 -0.0998478371669 0.843 1.27063943369e-38
0.00938294288323 -0.100084724088 0.845 1.34439439616e-38
0.0109726762041 -0.100321611009 0.847 1.28911177044e-38
0.0125698122412 -0.10055849793 0.849 1.25216695682e-38
0.0141410387714 -0.10055849793 0.849 1.2705319541e-38
0.0157492788829 -0.100795384851 0.851 1.27067292473e-38
0.0173852791805 -0.101150715232 0.854 1.2707798438e-38
0.018965759106 -0.101150715232 0.854 1.24305123005e-38
0.0205462390315 -0.101150715232 0.854 1.16933003888e-38
0.0221785379709 -0.101387602153 0.856 1.1968092215e-38
0.0238182396267 -0.101624489074 0.858 1.23368705306e-38
0.0254653439987 -0.101861375995 0.86 1.22446720981e-38
0.0270569279986 -0.101861375995 0.86 1.21517547996e-38
0.028715136445 -0.102098262916 0.862 1.20606535838e-38
0.0303104218031 -0.102098262916 0.862 1.15100007406e-38
0.0319057071611 -0.102098262916 0.862 1.20617129654e-38
0.0334232639983 -0.101861375995 0.86 1.17840652929e-38
0.0349334181191 -0.101624489074 0.858 1.16929500642e-38
0.0364361695237 -0.101387602153 0.856 1.16929472616e-38
0.0380203508073 -0.101387602153 0.856 1.16011201732e-38
0.039604532091 -0.101387602153 0.856 1.14170988563e-38
0.0411887133746 -0.101387602153 0.856 1.20613724499e-38
0.0426729579885 -0.101150715232 0.854 1.13245332836e-38
0.044253437914 -0.101150715232 0.854 1.10479435914e-38
0.0458339178395 -0.101150715232 0.854 1.06813218742e-38
0.0472478366487 -0.100795384851 0.851 1.09575486301e-38
0.048822764537 -0.100795384851 0.851 1.10475806551e-38
0.0502792489648 -0.10055849793 0.849 1.11390728332e-38
0.0517283306764 -0.100321611009 0.847 1.11394231578e-38
0.0531700096716 -0.100084724088 0.845 1.11394231578e-38
0.0547338334855 -0.100084724088 0.845 1.05891360534e-38
0.0562976572994 -0.100084724088 0.845 1.04043720483e-38
0.0578614811133 -0.100084724088 0.845 1.01299361519e-38
0.0 -0.0978213435856 0.839 1.38101999399e-38
0.00155271973945 -0.0978213435856 0.839 1.32609974405e-38
0.00311284219519 -0.0980545291484 0.841 1.36294086159e-38
0.00466926329278 -0.0980545291484 0.841 1.27996703679e-38
0.00624048982293 -0.0982877147112 0.843 1.28000178899e-38
0.00781911906936 -0.0985209002739 0.845 1.27978682981e-38
0.00940515103207 -0.0987540858367 0.847 1.27067292473e-38
0.011024495218 -0.0992204569623 0.851 1.30755047602e-38
0.0125994231063 -0.0992204569623 0.851 1.24290843773e-38
0.0141743509946 -0.0992204569623 0.851 1.26116749685e-38
0.015804799255 -0.0995702353064 0.854 1.24290661605e-38
0.0173852791805 -0.0995702353064 0.854 1.22464517472e-38
0.0190101754037 -0.0998034208692 0.856 1.19699251134e-38
0.0205943566873 -0.0998034208692 0.856 1.20613724499e-38
0.0222303569849 -0.100036606432 0.858 1.21535708824e-38
0.0238737599988 -0.100269791995 0.86 1.2428359906e-38
0.0254653439987 -0.100269791995 0.86 1.22446720981e-38
0.027119851087 -0.100502977558 0.862 1.25230610575e-38
0.028715136445 -0.100502977558 0.862 1.22468230913e-38
0.0303807476077 -0.10073616312 0.864 1.16025677145e-38
0.0319057071611 -0.100502977558 0.862 1.18769881967e-38
0.0335009925192 -0.100502977558 0.862 1.17851583057e-38
0.0350148479982 -0.100269791995 0.86 1.16003788863e-38
0.0366064319981 -0.100269791995 0.86 1.20606115448e-38
0.0381091834027 -0.100036606432 0.858 1.15082042759e-38
0.0396970660444 -0.100036606432 0.858 1.11401392213e-38
0.0411887133746 -0.0998034208692 0.856 1.12337319457e-38
0.0427728946582 -0.0998034208692 0.856 1.12323250421e-38
0.0443570759419 -0.0998034208692 0.856 1.18809314506e-38
0.0459412572255 -0.0998034208692 0.856 1.04061769207e-38
0.0475254385092 -0.0998034208692 0.856 1.0865347395e-38
0.0489948776905 -0.0995702353064 0.854 1.0955031898e-38
0.0503976924253 -0.0992204569623 0.851 1.04940509461e-38
0.051850475495 -0.0989872713995 0.849 1.14152715631e-38
0.0532958558484 -0.0987540858367 0.847 1.08635355161e-38
0.0548633810204 -0.0987540858367 0.847 1.03128826729e-38
0.0564309061924 -0.0987540858367 0.847 9.57639383118e-39
0.0579984313644 -0.0987540858367 0.847 1.02224442713e-38
0.059847259755 -0.0992204569623 0.851 1.04050755001e-38
0.00312024491147 -0.0967275922554 0.843 1.27049664138e-38
0.0046803673672 -0.0967275922554 0.843 1.30744776085e-38
0.00625529525549 -0.0969570764601 0.845 1.25234267964e-38
0.00785613265075 -0.0974160448693 0.849 1.27067264447e-38
0.00944956732974 -0.097645529074 0.851 1.22468202887e-38
0.0110633594785 -0.0979897553809 0.854 1.22453727474e-38
0.012643839404 -0.0979897553809 0.854 1.22454175889e-38
0.0142243193295 -0.0979897553809 0.854 1.25212786059e-38
0.0158418128364 -0.0982192395856 0.856 1.2798943094e-38
0.01742599412 -0.0982192395856 0.856 1.18773539356e-38
0.0190545917013 -0.0984487237902 0.858 1.17851583057e-38
0.0206424743431 -0.0984487237902 0.858 1.19681048267e-38
0.0222821759988 -0.0986782079949 0.86 1.21535554681e-38
0.0239292803708 -0.0989076921995 0.862 1.20617522018e-38
0.0255245657289 -0.0989076921995 0.862 1.2245413385e-38
0.027119851087 -0.0989076921995 0.862 1.16007922694e-38
0.0287817608915 -0.0991371764041 0.864 1.16928870057e-38
0.0304862363147 -0.0994814027111 0.867 1.16018180198e-38
0.0319797343239 -0.0991371764041 0.864 1.16929472616e-38
0.0335787210401 -0.0991371764041 0.864 1.17858491459e-38
0.0351777077563 -0.0991371764041 0.864 1.14163589707e-38
0.0367766944725 -0.0991371764041 0.864 1.16000481799e-38
0.0382868485934 -0.0989076921995 0.862 1.16003971032e-38
0.0397895999979 -0.0986782079949 0.86 1.13248892134e-38
0.0413811839978 -0.0986782079949 0.86 1.14181414223e-38
0.0429727679978 -0.0986782079949 0.86 1.14163435564e-38
0.0444607139698 -0.0984487237902 0.858 1.1139776285e-38
0.0460485966116 -0.0984487237902 0.858 1.06816721988e-38
0.0476364792533 -0.0984487237902 0.858 1.08657033248e-38
0.0492243618951 -0.0984487237902 0.858 1.04965718821e-38
0.0506938010764 -0.0982192395856 0.856 1.02199807886e-38
0.0521558375415 -0.0979897553809 0.854 9.48240033539e-39
0.053736317467 -0.0979897553809 0.854 9.75972570927e-39
0.0551224760902 -0.097645529074 0.851 1.02199835912e-38
0.0566974039784 -0.097645529074 0.851 9.76007743519e-39
0.0582723318667 -0.097645529074 0.851 9.94482322342e-39
0.059847259755 -0.097645529074 0.851 9.29694829273e-39
0.0616387170945 -0.0979897553809 0.854 1.25220044785e-38
0.06321919702 -0.0979897553809 0.854 1.1785145694e-38
0.00472478366487 -0.0960706011857 0.851 1.26134742358e-38
0.00629971155316 -0.0960706011857 0.851 1.22461168368e-38
0.0079023996275 -0.0964092754554 0.854 1.22457510979e-38
0.00948287955299 -0.0964092754554 0.854 1.22461042252e-38
0.0110633594785 -0.0964092754554 0.854 1.19702586225e-38
0.0126734502691 -0.0966350583019 0.856 1.20617676161e-38
0.0142576315527 -0.0966350583019 0.856 1.17847897642e-38
0.0158788264178 -0.0968608411484 0.858 1.1785145694e-38
0.0174667090596 -0.0968608411484 0.858 1.16025523002e-38
0.019099007999 -0.0970866239949 0.86 1.1601114568e-38
0.0206905919989 -0.0970866239949 0.86 1.1785145694e-38
0.0223339950128 -0.0973124068414 0.862 1.16929472616e-38
0.0239292803708 -0.0973124068414 0.862 1.12323376537e-38
0.0255245657289 -0.0973124068414 0.862 1.21550044107e-38
0.0271827741753 -0.0975381896879 0.864 1.16018208224e-38
0.0287817608915 -0.0975381896879 0.864 1.16018180198e-38
0.0304862363147 -0.0978768639577 0.867 1.16003999058e-38
0.0320907750681 -0.0978768639577 0.867 1.21542715316e-38
0.0337730423424 -0.0981026468042 0.869 1.15089021226e-38
0.035381282454 -0.0981026468042 0.869 1.13252423406e-38
0.0369895225655 -0.0981026468042 0.869 1.12326935836e-38
0.0385977626771 -0.0981026468042 0.869 1.13245360862e-38
0.0398821339514 -0.0973124068414 0.862 1.01285264456e-38
0.0414774193095 -0.0973124068414 0.862 1.16011173706e-38
0.0429727679978 -0.0970866239949 0.86 1.15078329318e-38
0.0445643519977 -0.0970866239949 0.86 1.20628241951e-38
0.0461559359976 -0.0970866239949 0.86 1.10482967186e-38
0.0476364792533 -0.0968608411484 0.858 1.0680968747e-38
0.0492243618951 -0.0968608411484 0.858 1.077354553e-38
0.0506938010764 -0.0966350583019 0.856 1.10515463298e-38
0.0521558375415 -0.0964092754554 0.854 1.16021739496e-38
0.053736317467 -0.0964092754554 0.854 1.03099931954e-38
0.0553167973925 -0.0964092754554 0.854 1.05858738306e-38
0.056897277318 -0.0964092754554 0.854 9.944116969e-39
0.0584777572435 -0.0964092754554 0.854 9.7611578363e-39
0.060058237169 -0.0964092754554 0.854 1.05862521812e-38
0.0616387170945 -0.0964092754554 0.854 1.27063887317e-38
0.06321919702 -0.0964092754554 0.854 1.12301894632e-38
0.00633672513455 -0.0950508770183 0.856 1.17848051785e-38
0.00792090641819 -0.0950508770183 0.856 1.18769881967e-38
0.00950508770183 -0.0950508770183 0.856 1.19684579539e-38
0.0111151784924 -0.0952729585067 0.858 1.15996782371e-38
0.0127030611342 -0.0952729585067 0.858 1.15081888616e-38
0.014290943776 -0.0952729585067 0.858 1.15082014733e-38
0.0159158399992 -0.095495039995 0.86 1.15082014733e-38
0.0175074239991 -0.095495039995 0.86 1.15085391863e-38
0.0191434242967 -0.0957171214834 0.862 1.11401294122e-38
0.0207387096547 -0.0957171214834 0.862 1.06816455741e-38
0.0223339950128 -0.0957171214834 0.862 1.12319873291e-38
0.0239292803708 -0.0957171214834 0.862 1.09546815734e-38
0.0255837874591 -0.0959392029717 0.864 1.08628348669e-38
0.0271827741753 -0.0959392029717 0.864 1.17858197186e-38
0.0288816975613 -0.0962723252043 0.867 1.05894737664e-38
0.0304862363147 -0.0962723252043 0.867 1.14160030409e-38
0.0321648022309 -0.0964944066926 0.869 1.11390462085e-38
0.0338507708634 -0.096716488181 0.871 1.14173917276e-38
0.035462712333 -0.096716488181 0.871 1.05891206391e-38
0.0370746538027 -0.096716488181 0.871 1.0865347395e-38
0.0385977626771 -0.0964944066926 0.869 1.09554004395e-38
0.0402060027886 -0.0964944066926 0.869 1.0221410113e-38
0.0415736546211 -0.0959392029717 0.864 1.02214297312e-38
0.0430727046675 -0.0957171214834 0.862 1.04962187549e-38
0.0446679900256 -0.0957171214834 0.862 1.02196332666e-38
0.0461559359976 -0.095495039995 0.86 1.09550276941e-38
0.0477475199975 -0.095495039995 0.86 1.06816693962e-38
0.0492243618951 -0.0952729585067 0.858 9.57570719494e-39
0.0506938010764 -0.0950508770183 0.856 9.48351296637e-39
0.0522779823601 -0.0950508770183 0.856 1.30755047602e-38
0.0538621636437 -0.0950508770183 0.856 1.07706602565e-38
0.0554463449273 -0.0950508770183 0.856 1.08638704264e-38
0.057030526211 -0.0950508770183 0.856 1.04018553163e-38
0.0586147074946 -0.0950508770183 0.856 1.08617754852e-38
0.0601988887783 -0.0950508770183 0.856 1.2430880842e-38
0.0616387170945 -0.0948287955299 0.854 1.16933158031e-38
0.06321919702 -0.0948287955299 0.854 8.09659042299e-39
0.00635153056711 -0.0936850758649 0.858 1.18773595408e-38
0.00793941320889 -0.0936850758649 0.858 1.14174547861e-38
0.0095495039995 -0.0939034559951 0.86 1.15096504159e-38
0.0111410879994 -0.0939034559951 0.86 1.16011201732e-38
0.0127326719993 -0.0939034559951 0.86 1.16011201732e-38
0.0143242559993 -0.0939034559951 0.86 1.14156555188e-38
0.0159528535806 -0.0941218361253 0.862 1.15082014733e-38
0.0175481389386 -0.0941218361253 0.862 1.14163379512e-38
0.0191434242967 -0.0941218361253 0.862 1.14152869774e-38
0.0207387096547 -0.0941218361253 0.862 1.10479435914e-38
0.0223339950128 -0.0941218361253 0.862 1.33520804394e-38
0.0239848007429 -0.0943402162556 0.864 1.2891120507e-38
0.0255837874591 -0.0943402162556 0.864 1.23387076329e-38
0.0272771588079 -0.0946677864509 0.867 1.16922438097e-38
0.0289483220078 -0.0948861665811 0.869 1.13245332836e-38
0.030626887924 -0.0951045467113 0.871 1.09579017573e-38
0.0322388293937 -0.0951045467113 0.871 1.0589476569e-38
0.0339284993843 -0.0953229268415 0.873 1.09575458275e-38
0.035462712333 -0.0951045467113 0.871 1.01299361519e-38
0.0370746538027 -0.0951045467113 0.871 1.09575486301e-38
0.0385977626771 -0.0948861665811 0.869 1.04033350874e-38
0.0402060027886 -0.0948861665811 0.869 1.09593450947e-38
0.0415736546211 -0.0943402162556 0.864 1.01281354833e-38
0.0430727046675 -0.0941218361253 0.862 1.05891206391e-38
0.0446679900256 -0.0941218361253 0.862 9.85159343529e-39
0.0462632753836 -0.0941218361253 0.862 1.02199807886e-38
0.0477475199975 -0.0939034559951 0.86 1.02206814378e-38
0.0493391039974 -0.0939034559951 0.86 9.7611606389e-39
0.0508122445369 -0.0936850758649 0.858 9.66861188182e-39
0.0524001271787 -0.0936850758649 0.858 9.75863690036e-39
0.0541138559972 -0.0939034559951 0.86 1.03125323483e-38
0.0555758924622 -0.0936850758649 0.858 1.04047279781e-38
0.057163775104 -0.0936850758649 0.858 1.19699054952e-38
0.0587516577458 -0.0936850758649 0.858 1.26159811587e-38
0.0545728244065 -0.0847314905258 0.776 1.1601100555e-38
0.0560089513645 -0.0847314905258 0.776 1.01252642228e-38
0.0574450783226 -0.0847314905258 0.776 1.68518780047e-38
0.00797642679028 -0.0925265507673 0.862 1.18787818587e-38
0.00957171214834 -0.0925265507673 0.862 1.14178051107e-38
0.0111669975064 -0.0925265507673 0.862 1.13248892134e-38
0.0127622828645 -0.0925265507673 0.862 1.14152869774e-38
0.0143575682225 -0.0925265507673 0.862 1.1783699554e-38
0.0159528535806 -0.0925265507673 0.862 1.18755448593e-38
0.0175481389386 -0.0925265507673 0.862 1.13238298318e-38
0.0191878405943 -0.0927412295394 0.864 1.15078483461e-38
0.0207868273105 -0.0927412295394 0.864 1.34439565732e-38
0.0223858140267 -0.0927412295394 0.864 1.17847687447e-38
0.0240680813011 -0.0930632476975 0.867 1.15975300465e-38
0.0256726200545 -0.0930632476975 0.867 1.15074980215e-38
0.0273400818963 -0.0932779264696 0.869 1.13230885449e-38
0.0290149464543 -0.0934926052416 0.871 1.20620759017e-38
0.030626887924 -0.0934926052416 0.871 1.14199687155e-38
0.0323128565565 -0.0937072840137 0.873 1.12348431754e-38
0.0339284993843 -0.0937072840137 0.873 1.04987004544e-38
0.035462712333 -0.0934926052416 0.871 1.00373873948e-38
0.0370746538027 -0.0934926052416 0.871 1.03139784883e-38
0.0386865952724 -0.0934926052416 0.871 1.04969208054e-38
0.0402060027886 -0.0932779264696 0.869 1.04050811053e-38
0.0415736546211 -0.0927412295394 0.864 1.04969208054e-38
0.0431726413373 -0.0927412295394 0.864 1.0589476569e-38
0.0447716280535 -0.0927412295394 0.864 1.0037031465e-38
0.0462632753836 -0.0925265507673 0.862 1.01295830246e-38
0.0477475199975 -0.0923118719952 0.86 9.85335626876e-39
0.0493391039974 -0.0923118719952 0.86 9.76080470909e-39
0.0509306879973 -0.0923118719952 0.86 9.85300314155e-39
0.0525222719973 -0.0923118719952 0.86 9.7604305624e-39
0.0541138559972 -0.0923118719952 0.86 1.01295858272e-38
0.0557054399971 -0.0923118719952 0.86 1.04969264106e-38
0.057297023997 -0.0923118719952 0.86 1.21550044107e-38
0.0588886079969 -0.0923118719952 0.86 1.2154977786e-38
0.0545728244065 -0.0832953635678 0.776 8.0083422509e-39
0.0560089513645 -0.0832953635678 0.776 1.6850433266e-38
0.0574450783226 -0.0832953635678 0.776 2.34863942477e-38
0.0588812052807 -0.0832953635678 0.776 2.34903473107e-38
0.00802269376702 -0.0914587089441 0.867 1.20628017743e-38
0.00962723252043 -0.0914587089441 0.867 1.23393886639e-38
0.0111929070134 -0.0911422428232 0.864 1.18783951003e-38
0.0127918937296 -0.0911422428232 0.864 1.1786568012e-38
0.0143908804458 -0.0911422428232 0.864 1.19691614058e-38
0.015989867162 -0.0911422428232 0.864 1.16929500642e-38
0.0175888538782 -0.0911422428232 0.864 1.12326879784e-38
0.0192544650409 -0.0914587089441 0.867 1.09554004395e-38
0.0208590037943 -0.0914587089441 0.867 1.07710105811e-38
0.0224635425477 -0.0914587089441 0.867 1.13223850931e-38
0.0241236016732 -0.091669686358 0.869 1.13230759332e-38
0.0257910635149 -0.091880663772 0.871 1.076993018e-38
0.0274030049846 -0.091880663772 0.871 1.11376266931e-38
0.0290815709008 -0.0920916411859 0.873 1.08628320643e-38
0.0306972137286 -0.0920916411859 0.873 9.85335626876e-39
0.0323868837192 -0.0923026185998 0.875 1.04047279781e-38
0.0340062279052 -0.0923026185998 0.875 1.04969208054e-38
0.0356255720912 -0.0923026185998 0.875 1.02214129156e-38
0.0371597850399 -0.0920916411859 0.873 9.85300314155e-39
0.0387754278677 -0.0920916411859 0.873 1.08631823889e-38
0.0402985367421 -0.091880663772 0.871 1.10479309797e-38
0.0419104782118 -0.091880663772 0.871 9.94410715991e-39
0.0434224830117 -0.091669686358 0.869 1.01277823561e-38
0.0450307231232 -0.091669686358 0.869 9.39201518314e-39
0.0465316238487 -0.0914587089441 0.867 1.03149930284e-38
0.0479696014859 -0.0911422428232 0.864 1.01278103821e-38
0.0494538460997 -0.0909312654092 0.862 9.57606032215e-39
0.0510491314578 -0.0909312654092 0.862 1.02192801393e-38
0.0526444168159 -0.0909312654092 0.862 9.1136528484e-39
0.0542397021739 -0.0909312654092 0.862 1.10511904e-38
0.055834987532 -0.0909312654092 0.862 1.14170848433e-38
0.05743027289 -0.0909312654092 0.862 1.18783951003e-38
0.0588886079969 -0.0907202879953 0.86 9.0182034035e-39
0.0604801919968 -0.0907202879953 0.86 1.75886807373e-38
0.0560089513645 -0.0818592366097 0.776 2.34875054774e-38
0.057297023997 -0.0816482591957 0.774 2.34979129211e-38
0.0587294495969 -0.0816482591957 0.774 2.32966121928e-38
0.0601618751969 -0.0816482591957 0.774 2.34885816746e-38
0.00804120055772 -0.0900614462465 0.869 1.24283248736e-38
0.00964944066926 -0.0900614462465 0.869 1.29843881302e-38
0.0112317712738 -0.0898541701907 0.867 1.30772886132e-38
0.0128363100272 -0.0898541701907 0.867 1.1785145694e-38
0.0144408487806 -0.0898541701907 0.867 1.0769582658e-38
0.016045387534 -0.0898541701907 0.867 1.09539585034e-38
0.0176499262875 -0.0898541701907 0.867 1.1417041403e-38
0.0192544650409 -0.0898541701907 0.867 1.13248892134e-38
0.0209071214501 -0.0900614462465 0.869 1.10472457448e-38
0.0225153615616 -0.0900614462465 0.869 1.16929598733e-38
0.0241791220453 -0.0902687223023 0.871 1.08628348669e-38
0.0258502852452 -0.0904759983581 0.873 1.10472275279e-38
0.027465928073 -0.0904759983581 0.873 1.10472275279e-38
0.0291481953473 -0.0906832744139 0.875 1.10475806551e-38
0.0307675395333 -0.0906832744139 0.875 1.01281382859e-38
0.0324979244634 -0.0909941884976 0.878 1.04976298624e-38
0.0341228206866 -0.0909941884976 0.878 1.10479309797e-38
0.0357477169098 -0.0909941884976 0.878 1.05894709638e-38
0.0372449162771 -0.0906832744139 0.875 1.03114729666e-38
0.0388642604631 -0.0906832744139 0.875 1.05866025058e-38
0.0404836046491 -0.0906832744139 0.875 1.05862521812e-38
0.0420067135234 -0.0904759983581 0.873 1.01277851587e-38
0.0436223563512 -0.0904759983581 0.873 1.02199835912e-38
0.045237999179 -0.0904759983581 0.873 9.7611578363e-39
0.0467463026208 -0.0902687223023 0.871 1.04050811053e-38
0.0483582440905 -0.0902687223023 0.871 1.01277851587e-38
0.051345240109 -0.0898541701907 0.867 1.14160030409e-38
0.0529497788624 -0.0898541701907 0.867 1.23397417911e-38
0.0543655483507 -0.089543256107 0.864 1.18791293807e-38
0.055834987532 -0.0893359800512 0.862 1.04940537487e-38
0.05743027289 -0.0893359800512 0.862 1.01209173949e-38
0.0590255582481 -0.0893359800512 0.862 1.93386362725e-38
0.0547134760158 -0.0806303857074 0.778 2.30232819208e-38
0.0560089513645 -0.0804231096516 0.776 2.34925305337e-38
0.057297023997 -0.0802158335958 0.774 2.34845669545e-38
0.0586535717551 -0.0801121955679 0.773 2.34867641905e-38
0.0600841466759 -0.0801121955679 0.773 2.34863774321e-38
0.0615147215968 -0.0801121955679 0.773 2.31103852321e-38
0.00804120055772 -0.0884532061349 0.869 1.28838954121e-38
0.00964944066926 -0.0884532061349 0.869 1.16850018993e-38
0.0112576807808 -0.0884532061349 0.869 1.2155367347e-38
0.0128659208924 -0.0884532061349 0.869 1.2152498889e-38
0.0144741610039 -0.0884532061349 0.869 1.22457665122e-38
0.0160824011154 -0.0884532061349 0.869 1.14149310475e-38
0.017690641227 -0.0884532061349 0.869 1.13230885449e-38
0.0192988813385 -0.0884532061349 0.869 1.06813218742e-38
0.0209071214501 -0.0884532061349 0.869 1.0589138856e-38
0.0225671805756 -0.0886567808326 0.871 1.08628348669e-38
0.0242346424173 -0.0888603555303 0.873 1.04040217237e-38
0.0258502852452 -0.0888603555303 0.873 1.02214297312e-38
0.0275288511614 -0.0890639302279 0.875 1.01274320315e-38
0.0292481320171 -0.0893692922744 0.878 1.10475778525e-38
0.0308730282403 -0.0893692922744 0.878 1.09553808214e-38
0.0324979244634 -0.0893692922744 0.878 1.04969208054e-38
0.0341228206866 -0.0893692922744 0.878 1.04972739326e-38
0.0357477169098 -0.0893692922744 0.878 1.0037740522e-38
0.0373726131329 -0.0893692922744 0.878 9.85335346616e-39
0.0389975093561 -0.0893692922744 0.878 1.0220687043e-38
0.0406224055793 -0.0893692922744 0.878 1.02192773368e-38
0.042102948835 -0.0890639302279 0.875 9.85155419894e-39
0.043722293021 -0.0890639302279 0.875 9.85265001434e-39
0.0453416372069 -0.0890639302279 0.875 9.94340090548e-39
0.0468536420069 -0.0888603555303 0.873 1.02192801393e-38
0.0484692848347 -0.0888603555303 0.873 1.1139776285e-38
0.0488283165742 -0.0789869826936 0.776 1.01259704772e-38
0.0531366974484 -0.0789869826936 0.776 2.34853208531e-38
0.0545728244065 -0.0789869826936 0.776 2.34870976995e-38
0.0560089513645 -0.0789869826936 0.776 2.34856753816e-38
0.057297023997 -0.0787834079959 0.774 2.34831614521e-38
0.0586535717551 -0.0786816206471 0.773 2.34853404712e-38
0.0600841466759 -0.0786816206471 0.773 2.11746567568e-38
0.0615147215968 -0.0786816206471 0.773 2.34842670766e-38
0.0096716488181 -0.0870448393629 0.871 1.78646048127e-38
