# .PCD v0.7 - Point Cloud Data file format
VERSION 0.7
FIELDS x y z rgb
SIZE 4 4 4 4
TYPE F F F F
COUNT 1 1 1 1
WIDTH 843
HEIGHT 1
VIEWPOINT 0 0 0 1 0 0 0
POINTS 843
DATA ascii
-0.00158418128364 -0.0665356139128 0.856 1.4635206003e-38
0.0 -0.066380156871 0.854 1.74965285477e-38
0.0015804799255 -0.066380156871 0.854 1.73100213272e-38
0.00314985577658 -0.0661469713082 0.851 1.39941511919e-38
0.00472478366487 -0.0661469713082 0.851 1.14069730736e-38
0.0062849061206 -0.0659915142663 0.849 1.38007944246e-38
0.00785613265075 -0.0659915142663 0.849 1.16864256185e-38
0.0094273591809 -0.0659915142663 0.849 1.35303732482e-38
0.0109726762041 -0.0658360572245 0.847 1.26019107208e-38
0.0125402013761 -0.0658360572245 0.847 1.35224180769e-38
0.0140744143248 -0.0656806001826 0.845 1.49971670015e-38
0.0156382381387 -0.0656806001826 0.845 1.3521700612e-38
0.0172020619526 -0.0656806001826 0.845 1.74871300389e-38
0.0187658857665 -0.0656806001826 0.845 1.43514486691e-38
0.0203297095803 -0.0656806001826 0.845 1.50882850328e-38
0.0218417143803 -0.0655251431408 0.843 1.20458754902e-38
0.023401836836 -0.0655251431408 0.843 1.48995917868e-38
0.025021181022 -0.0656806001826 0.845 1.36146123054e-38
0.0265850048358 -0.0656806001826 0.845 1.08495029133e-38
0.0281488286497 -0.0656806001826 0.845 1.5193825228e-38
0.0297126524636 -0.0656806001826 0.845 9.94482322342e-39
0.0313505034402 -0.0658360572245 0.847 1.214273324e-38
0.0329180286122 -0.0658360572245 0.847 1.4711974738e-38
0.0345669836633 -0.0659915142663 0.849 1.61027802795e-38
0.0361382101935 -0.0659915142663 0.849 1.61124660544e-38
0.037798269319 -0.0661469713082 0.851 1.98910365349e-38
0.0395119981375 -0.066380156871 0.854 1.99810937833e-38
0.041092478063 -0.066380156871 0.854 1.76751044188e-38
0.0427728946582 -0.0665356139128 0.856 1.85895133239e-38
0.0443570759419 -0.0665356139128 0.856 1.89582902381e-38
0.0459412572255 -0.0665356139128 0.856 1.91408850332e-38
0.0476364792533 -0.0666910709547 0.858 2.02479374447e-38
0.0494538460997 -0.0670019850384 0.862 1.93277846172e-38
0.0511675749183 -0.0671574420802 0.864 2.05256159458e-38
0.053071923681 -0.0675460846849 0.869 2.0526316595e-38
0.0548060099692 -0.0677015417267 0.871 2.09858598147e-38
0.0565474989738 -0.0678569987686 0.873 2.3483503369e-38
-0.0129991697854 -0.06662074515 0.878 1.77760623679e-38
-0.0112835902878 -0.066089600257 0.871 1.31626627221e-38
-0.00959392029717 -0.065558455364 0.864 1.25180023701e-38
-0.00799493358098 -0.065558455364 0.864 1.64816647595e-38
-0.00638114143223 -0.0654066996803 0.862 1.1963725769e-38
-0.00478585607417 -0.0654066996803 0.862 1.40791959957e-38
-0.00318316799983 -0.0652549439966 0.86 1.25089990275e-38
-0.00158788264178 -0.0651031883129 0.858 1.15006022318e-38
0.0 -0.0649514326292 0.856 1.28835156602e-38
0.00158418128364 -0.0649514326292 0.856 1.4912151625e-38
0.003160959851 -0.0647996769455 0.854 1.72224373706e-38
0.00472478366487 -0.0645720434199 0.851 1.73121498996e-38
0.00629971155316 -0.0645720434199 0.851 1.72174025052e-38
0.00787463944145 -0.0645720434199 0.851 1.48221055869e-38
0.00944956732974 -0.0645720434199 0.851 1.32544449689e-38
0.0109985857111 -0.0644202877362 0.849 1.28777759417e-38
0.0125698122412 -0.0644202877362 0.849 1.30535548211e-38
0.0141410387714 -0.0644202877362 0.849 1.29588494657e-38
0.0156752517201 -0.0642685320525 0.847 1.43471438802e-38
0.0172427768921 -0.0642685320525 0.847 1.3887607667e-38
0.0187658857665 -0.0641167763688 0.845 1.36095900517e-38
0.0203297095803 -0.0641167763688 0.845 1.7393512091e-38
0.0218935333942 -0.0641167763688 0.845 1.3518113288e-38
0.0234573572081 -0.0641167763688 0.845 1.38825854134e-38
0.025021181022 -0.0641167763688 0.845 1.44407730384e-38
0.0265850048358 -0.0641167763688 0.845 1.55481799784e-38
0.0282154530962 -0.0642685320525 0.847 1.58337309743e-38
0.0297829782682 -0.0642685320525 0.847 1.39059030198e-38
0.031424530603 -0.0644202877362 0.849 1.78666731292e-38
0.0329957571332 -0.0644202877362 0.849 2.0442139195e-38
0.0346484135424 -0.0645720434199 0.851 1.878334373e-38
0.0362233414307 -0.0645720434199 0.851 2.00740559235e-38
0.037931518212 -0.0647996769455 0.854 1.70290539787e-38
0.0395119981375 -0.0647996769455 0.854 1.89640958177e-38
0.0411887133746 -0.0649514326292 0.856 1.74896663891e-38
0.0427728946582 -0.0649514326292 0.856 1.89579315057e-38
0.0443570759419 -0.0649514326292 0.856 2.01578942093e-38
0.0460485966116 -0.0651031883129 0.858 1.96987139259e-38
0.0477475199975 -0.0652549439966 0.86 1.95110968771e-38
0.0494538460997 -0.0654066996803 0.862 1.97858859008e-38
0.051345240109 -0.0657860888896 0.867 2.03408589472e-38
0.053071923681 -0.0659378445733 0.869 2.08947557964e-38
0.0548060099692 -0.066089600257 0.871 2.0986931808e-38
0.0565474989738 -0.0662413559407 0.873 2.34849537129e-38
0.0581631418016 -0.0662413559407 0.873 2.34893285667e-38
-0.0129991697854 -0.0649958489268 0.878 1.76853128781e-38
-0.0113094997948 -0.0646257131129 0.873 1.39902625886e-38
-0.00962723252043 -0.0641815501362 0.867 1.29761036537e-38
-0.00799493358098 -0.0639594686478 0.864 1.25158766003e-38
-0.00639594686478 -0.0639594686478 0.864 1.6573567518e-38
-0.00478585607417 -0.0638114143223 0.862 1.25140212812e-38
-0.00318316799983 -0.0636633599967 0.86 1.28763410121e-38
-0.00158788264178 -0.0635153056711 0.858 1.25172498728e-38
0.0 -0.0635153056711 0.858 1.32555239687e-38
0.00158418128364 -0.0633672513455 0.856 9.65492399842e-39
0.00316836256728 -0.0633672513455 0.856 1.28835156602e-38
0.0047414397765 -0.06321919702 0.854 1.5552135844e-38
0.00629971155316 -0.0629971155316 0.851 1.56536473061e-38
0.00787463944145 -0.0629971155316 0.851 1.73146512174e-38
0.00944956732974 -0.0629971155316 0.851 1.78653460996e-38
0.0109985857111 -0.062849061206 0.849 1.85081987766e-38
0.0125698122412 -0.062849061206 0.849 1.87851289843e-38
0.0141410387714 -0.062849061206 0.849 1.79575487359e-38
0.0157122653015 -0.062849061206 0.849 1.7772053253e-38
0.0172427768921 -0.0627010068805 0.847 1.84159989428e-38
0.0188103020641 -0.0627010068805 0.847 1.76798253933e-38
0.0203778272361 -0.0627010068805 0.847 1.90606116507e-38
0.0219453524082 -0.0627010068805 0.847 1.89680811105e-38
0.0235128775802 -0.0627010068805 0.847 1.92472043503e-38
0.0250804027522 -0.0627010068805 0.847 1.88791294866e-38
0.0266479279242 -0.0627010068805 0.847 1.89720285683e-38
0.0282154530962 -0.0627010068805 0.847 1.85089022284e-38
0.0297829782682 -0.0627010068805 0.847 1.90617410972e-38
0.031424530603 -0.062849061206 0.849 1.80486009062e-38
0.0330734856541 -0.0629971155316 0.851 1.64801667715e-38
0.034770558361 -0.06321919702 0.854 1.54620842008e-38
0.0363510382865 -0.06321919702 0.854 1.33369534225e-38
0.037931518212 -0.06321919702 0.854 1.73009661366e-38
0.039604532091 -0.0633672513455 0.856 1.9055885071e-38
0.0411887133746 -0.0633672513455 0.856 1.74896888098e-38
0.042872831328 -0.0635153056711 0.858 1.87742605134e-38
0.0444607139698 -0.0635153056711 0.858 1.89597251677e-38
0.0461559359976 -0.0636633599967 0.86 1.8866454742e-38
0.0478585607417 -0.0638114143223 0.862 1.99720680199e-38
0.0495685882021 -0.0639594686478 0.864 1.96032911057e-38
0.0514636835694 -0.0643296044618 0.869 1.9789131308e-38
0.0531940684996 -0.0644776587873 0.871 2.01565027199e-38
0.054931856146 -0.0646257131129 0.873 2.16308943134e-38
0.0566770465087 -0.0647737674385 0.875 2.34838901273e-38
0.0582963906946 -0.0647737674385 0.875 2.34875180891e-38
-0.0129991697854 -0.0633709527037 0.878 1.75005684911e-38
-0.0113354093017 -0.0631544232525 0.875 1.4174628625e-38
-0.00969385696694 -0.0630100702851 0.873 1.29775525963e-38
-0.00802269376702 -0.0625770113828 0.867 1.27009587002e-38
-0.00641815501362 -0.0625770113828 0.867 1.21477877236e-38
-0.00479696014859 -0.0623604819316 0.864 1.72170830092e-38
-0.00319057071611 -0.0622161289642 0.862 1.15942313899e-38
-0.00159528535806 -0.0622161289642 0.862 1.15945901224e-38
0.0 -0.0620717759968 0.86 1.30700593144e-38
0.00158788264178 -0.0619274230293 0.858 1.31575886204e-38
0.00317576528356 -0.0619274230293 0.858 1.41760285222e-38
0.00475254385092 -0.0617830700619 0.856 1.33430518734e-38
0.006321919702 -0.0616387170945 0.854 1.0677311358e-38
0.0079023996275 -0.0616387170945 0.854 1.03935540242e-38
0.00944956732974 -0.0614221876433 0.851 1.39848241493e-38
0.011024495218 -0.0614221876433 0.851 1.46323361437e-38
0.0125994231063 -0.0614221876433 0.851 1.47306288232e-38
0.0141743509946 -0.0614221876433 0.851 1.45512626198e-38
0.0157122653015 -0.0612778346759 0.849 1.56554900135e-38
0.0172834918317 -0.0612778346759 0.849 1.52888682963e-38
0.0188547183618 -0.0612778346759 0.849 1.58395155344e-38
0.020425944892 -0.0612778346759 0.849 1.6205786927e-38
0.0219971714221 -0.0612778346759 0.849 1.51923174308e-38
0.0235683979523 -0.0612778346759 0.849 1.49178871396e-38
0.0251396244824 -0.0612778346759 0.849 1.41796158462e-38
0.0267108510126 -0.0612778346759 0.849 1.37150573793e-38
0.0282820775427 -0.0612778346759 0.849 1.40798882371e-38
0.0298533040729 -0.0612778346759 0.849 1.37950547061e-38
0.0314985577658 -0.0614221876433 0.851 1.36135361082e-38
0.0330734856541 -0.0614221876433 0.851 1.3988775811e-38
0.034770558361 -0.0616387170945 0.854 1.35260054009e-38
0.0363510382865 -0.0616387170945 0.854 1.51804792614e-38
0.0380203508073 -0.0617830700619 0.856 1.48170875371e-38
0.0396970660444 -0.0619274230293 0.858 1.95233274101e-38
0.0412849486862 -0.0619274230293 0.858 1.75822697968e-38
0.0429727679978 -0.0620717759968 0.86 1.8773901781e-38
0.0445643519977 -0.0620717759968 0.86 1.88671722068e-38
0.0462632753836 -0.0622161289642 0.862 1.92352316562e-38
0.0479696014859 -0.0623604819316 0.864 1.97880382952e-38
0.0497407013555 -0.0625770113828 0.867 2.02497269028e-38
0.0514636835694 -0.0627213643502 0.869 1.99749448857e-38
0.0531940684996 -0.0628657173177 0.871 2.07104023717e-38
0.054931856146 -0.0630100702851 0.873 2.03397995655e-38
0.0566770465087 -0.0631544232525 0.875 2.34849747323e-38
-0.0130287806505 -0.0618867080898 0.88 1.93437580184e-38
-0.0113742735622 -0.0617460564805 0.878 1.44519792223e-38
-0.00969385696694 -0.0613944274573 0.873 1.29793280414e-38
-0.00805970734842 -0.061253775848 0.871 1.3251614346e-38
-0.00643296044618 -0.0611131242387 0.869 1.17800687897e-38
-0.00481361626021 -0.0609724726294 0.867 1.21434591127e-38
-0.00319797343239 -0.0607614952154 0.864 1.71241685132e-38
-0.00159528535806 -0.0606208436061 0.862 1.39959560643e-38
0.0 -0.0604801919968 0.86 1.19608559098e-38
0.00159158399992 -0.0604801919968 0.86 1.42607089884e-38
0.00317576528356 -0.0603395403876 0.858 1.44479476866e-38
0.00476364792533 -0.0603395403876 0.858 1.34366810316e-38
0.00633672513455 -0.0601988887783 0.856 1.13237471552e-38
0.0079023996275 -0.060058237169 0.854 1.38036642838e-38
0.00948287955299 -0.060058237169 0.854 1.37964896357e-38
0.011024495218 -0.059847259755 0.851 1.38958585124e-38
0.0125994231063 -0.059847259755 0.851 1.16903898919e-38
0.0141743509946 -0.059847259755 0.851 1.1233705321e-38
0.0157492788829 -0.059847259755 0.851 1.15067006827e-38
0.0173242067712 -0.059847259755 0.851 1.31669142617e-38
0.0188991346595 -0.059847259755 0.851 1.14119953273e-38
0.0204740625478 -0.059847259755 0.851 1.07616134736e-38
0.0220489904361 -0.059847259755 0.851 1.44465267699e-38
0.0236239183244 -0.059847259755 0.851 1.25208371969e-38
0.0251988462126 -0.059847259755 0.851 1.25212211527e-38
0.0267737741009 -0.059847259755 0.851 1.27938577819e-38
0.0283487019892 -0.059847259755 0.851 1.31565110219e-38
0.0299236298775 -0.059847259755 0.851 1.462731389e-38
0.03160959851 -0.060058237169 0.854 1.6103857878e-38
0.0331900784355 -0.060058237169 0.854 1.47299113584e-38
0.034770558361 -0.060058237169 0.854 1.27945668389e-38
0.0364361695237 -0.0601988887783 0.856 1.66559498547e-38
0.0380203508073 -0.0601988887783 0.856 1.51815554586e-38
0.0396970660444 -0.0603395403876 0.858 1.99789105603e-38
0.0412849486862 -0.0603395403876 0.858 1.74885971983e-38
0.0429727679978 -0.0604801919968 0.86 1.89590077029e-38
0.0446679900256 -0.0606208436061 0.862 1.91426786952e-38
0.0462632753836 -0.0606208436061 0.862 1.94199788458e-38
0.0479696014859 -0.0607614952154 0.864 1.96040085705e-38
0.0497407013555 -0.0609724726294 0.867 2.01553802798e-38
0.0515821270299 -0.061253775848 0.871 2.04323511252e-38
0.0533162133182 -0.0613944274573 0.873 2.02479822862e-38
0.0550577023227 -0.0615350790666 0.875 2.17252353312e-38
0.0566770465087 -0.0615350790666 0.875 2.34878319799e-38
-0.0147739710132 -0.0607374363875 0.887 2.28436116356e-38
-0.0130583915156 -0.0603950607596 0.882 1.98962129315e-38
-0.0114001830692 -0.0602581105085 0.88 1.26995545991e-38
-0.00971606511577 -0.0599157348806 0.875 1.25179869558e-38
-0.00807821413911 -0.0597787846294 0.873 1.36243471259e-38
-0.00644776587873 -0.0596418343783 0.871 1.15946013327e-38
-0.00481361626021 -0.059367933876 0.867 1.43579408849e-38
-0.00319797343239 -0.0591625084992 0.864 1.12225846164e-38
-0.0015989867162 -0.0591625084992 0.864 1.54692756645e-38
0.0 -0.0590255582481 0.862 1.67611831655e-38
0.00159158399992 -0.0588886079969 0.86 1.49128648859e-38
0.00318316799983 -0.0588886079969 0.86 1.33416169438e-38
0.00476364792533 -0.0587516577458 0.858 1.3340899479e-38
0.00633672513455 -0.0586147074946 0.856 1.18718902729e-38
0.00792090641819 -0.0586147074946 0.856 1.29728400295e-38
0.00948287955299 -0.0584777572435 0.854 1.49982431987e-38
0.0110633594785 -0.0584777572435 0.854 1.53724081056e-38
0.012643839404 -0.0584777572435 0.854 1.35364086407e-38
0.0142243193295 -0.0584777572435 0.854 1.30765136951e-38
0.0157492788829 -0.0582723318667 0.851 1.36268092073e-38
0.0173242067712 -0.0582723318667 0.851 1.61110899793e-38
0.018965759106 -0.0584777572435 0.854 1.35249292037e-38
0.0205462390315 -0.0584777572435 0.854 1.58323282745e-38
0.022126718957 -0.0584777572435 0.854 1.50958184134e-38
0.0236239183244 -0.0582723318667 0.851 1.473313995e-38
0.0251988462126 -0.0582723318667 0.851 1.32630545467e-38
0.0267737741009 -0.0582723318667 0.851 1.48282040379e-38
0.028448638659 -0.0584777572435 0.854 1.44497413486e-38
0.0300291185845 -0.0584777572435 0.854 1.58294261854e-38
0.03160959851 -0.0584777572435 0.854 1.45351196614e-38
0.0331900784355 -0.0584777572435 0.854 1.26058567773e-38
0.034770558361 -0.0584777572435 0.854 1.59284363297e-38
0.0364361695237 -0.0586147074946 0.856 1.77658637177e-38
0.0381091834027 -0.0587516577458 0.858 1.85945355776e-38
0.0397895999979 -0.0588886079969 0.86 1.9977463019e-38
0.0413811839978 -0.0588886079969 0.86 1.8317235427e-38
0.0430727046675 -0.0590255582481 0.862 1.83143655678e-38
0.0446679900256 -0.0590255582481 0.862 1.92348729238e-38
0.0463706147697 -0.0591625084992 0.864 2.0158615878e-38
0.0481361626021 -0.059367933876 0.867 1.9328502082e-38
0.0498554434579 -0.0595048841271 0.869 1.99717092875e-38
0.0515821270299 -0.0596418343783 0.871 2.06163514227e-38
0.0533162133182 -0.0597787846294 0.873 2.0617812977e-38
0.0552464715878 -0.0601211602573 0.878 2.16322984145e-38
0.056871367811 -0.0601211602573 0.878 2.34867655918e-38
-0.0147739710132 -0.0590958840527 0.887 2.34893187576e-38
-0.0131028078133 -0.0589626351597 0.885 1.97114685445e-38
-0.0114260925761 -0.0587627618202 0.882 1.36218710315e-38
-0.00974937733903 -0.0584962640342 0.878 1.24268549115e-38
-0.00809672092981 -0.0582963906946 0.875 1.29786245896e-38
-0.00644776587873 -0.0580298929086 0.871 1.1963030725e-38
-0.00482472033463 -0.0578966440156 0.869 1.22360050671e-38
-0.00320907750681 -0.0577633951226 0.867 1.36189423177e-38
-0.0015989867162 -0.057563521783 0.864 1.13194423663e-38
0.0 -0.05743027289 0.862 1.19640845014e-38
0.00159528535806 -0.05743027289 0.862 1.66653007194e-38
0.00318316799983 -0.057297023997 0.86 1.75887788282e-38
0.00477475199975 -0.057297023997 0.86 1.60217459919e-38
0.00633672513455 -0.057030526211 0.856 1.35338975139e-38
0.00792090641819 -0.057030526211 0.856 1.40806057019e-38
0.00950508770183 -0.057030526211 0.856 1.2693746217e-38
0.0110892689855 -0.057030526211 0.856 1.24200333906e-38
0.012643839404 -0.056897277318 0.854 1.29814734294e-38
0.0142243193295 -0.056897277318 0.854 1.04947165629e-38
0.015804799255 -0.056897277318 0.854 1.20591485892e-38
0.0173852791805 -0.056897277318 0.854 1.39923575299e-38
0.018965759106 -0.056897277318 0.854 1.3529592725e-38
0.0205462390315 -0.056897277318 0.854 1.37125462525e-38
0.022126718957 -0.056897277318 0.854 1.26984097383e-38
0.0237071988825 -0.056897277318 0.854 1.40871049242e-38
0.025287678808 -0.056897277318 0.854 1.17854988212e-38
0.0268681587335 -0.056897277318 0.854 1.17822071711e-38
0.028448638659 -0.056897277318 0.854 1.31568697543e-38
0.0300291185845 -0.056897277318 0.854 1.64740683206e-38
0.03160959851 -0.056897277318 0.854 1.34302238483e-38
0.0332678069564 -0.057030526211 0.856 1.64748306269e-38
0.03485198824 -0.057030526211 0.856 1.99815492053e-38
0.0364361695237 -0.057030526211 0.856 2.02581136741e-38
0.038198015998 -0.057297023997 0.86 1.80464499131e-38
0.0397895999979 -0.057297023997 0.86 2.09942143562e-38
0.0413811839978 -0.057297023997 0.86 1.7762996661e-38
0.0430727046675 -0.05743027289 0.862 1.91426786952e-38
0.0446679900256 -0.05743027289 0.862 1.94199788458e-38
0.0463706147697 -0.057563521783 0.864 1.98809499886e-38
0.0481361626021 -0.0577633951226 0.867 1.96036694562e-38
0.0498554434579 -0.0578966440156 0.869 1.99724267523e-38
0.0515821270299 -0.0580298929086 0.871 2.04323216979e-38
0.0540490822297 -0.0589626351597 0.885 2.07089548304e-38
0.0556869332064 -0.0589626351597 0.885 2.08011084213e-38
-0.0147739710132 -0.0574543317179 0.887 2.24737403073e-38
-0.0131028078133 -0.0573247841831 0.885 2.09096445925e-38
-0.0114260925761 -0.0571304628807 0.882 1.26991860576e-38
-0.00974937733903 -0.056871367811 0.878 1.28878204491e-38
-0.00809672092981 -0.0566770465087 0.875 1.24272486763e-38
-0.00646257131129 -0.0565474989738 0.873 1.24261360454e-38
-0.00483582440905 -0.0564179514389 0.871 1.32555211661e-38
-0.00321648022309 -0.056288403904 0.869 1.27019970624e-38
-0.0016045387534 -0.0561588563692 0.867 1.24257731091e-38
0.0 -0.0559645350669 0.864 1.25150974784e-38
0.0015989867162 -0.0559645350669 0.864 1.24218270526e-38
0.00319057071611 -0.055834987532 0.862 1.1316572507e-38
0.00477475199975 -0.0557054399971 0.86 1.53703033553e-38
0.00635153056711 -0.0555758924622 0.858 1.84191840942e-38
0.00793941320889 -0.0555758924622 0.858 1.768059891e-38
0.00952729585067 -0.0555758924622 0.858 1.7404737893e-38
0.0111151784924 -0.0555758924622 0.858 1.639197325e-38
0.0127030611342 -0.0555758924622 0.858 1.39980972484e-38
0.0142576315527 -0.0554463449273 0.856 1.36271679397e-38
0.0158418128364 -0.0554463449273 0.856 1.27037907244e-38
0.01742599412 -0.0554463449273 0.856 1.32540862365e-38
0.0190545917013 -0.0555758924622 0.858 1.27913214317e-38
0.0205943566873 -0.0554463449273 0.856 1.62003751123e-38
0.0221785379709 -0.0554463449273 0.856 1.33437693382e-38
0.0237627192546 -0.0554463449273 0.856 1.45437292392e-38
0.0253469005382 -0.0554463449273 0.856 1.61157170669e-38
0.0269310818219 -0.0554463449273 0.856 1.76830469784e-38
0.0285152631055 -0.0554463449273 0.856 1.93393873685e-38
0.0300994443891 -0.0554463449273 0.856 2.02598961258e-38
0.0316836256728 -0.0554463449273 0.856 1.8695081545e-38
0.0332678069564 -0.0554463449273 0.856 1.9157504433e-38
0.0349334181191 -0.0555758924622 0.858 1.41767824207e-38
0.0365213007609 -0.0555758924622 0.858 1.42603306378e-38
0.038198015998 -0.0557054399971 0.86 1.31543586274e-38
0.0397895999979 -0.0557054399971 0.86 2.08969390194e-38
0.0413811839978 -0.0557054399971 0.86 1.81332449387e-38
0.0430727046675 -0.055834987532 0.862 1.89597251677e-38
0.0446679900256 -0.055834987532 0.862 1.89579315057e-38
0.0463706147697 -0.0559645350669 0.864 1.97862446332e-38
0.0481361626021 -0.0561588563692 0.867 2.00635447837e-38
0.0498554434579 -0.056288403904 0.869 2.04326804303e-38
0.0517005704903 -0.0565474989738 0.873 2.00639035161e-38
0.0533162133182 -0.0565474989738 0.873 2.09848158474e-38
-0.0148405954597 -0.0560644717366 0.891 2.21989330667e-38
-0.0131620295435 -0.0559386255599 0.889 1.99894833572e-38
-0.0114908663436 -0.0558127793831 0.887 1.30690475769e-38
-0.00974937733903 -0.0552464715878 0.878 1.32569897269e-38
-0.00812448111586 -0.0552464715878 0.878 1.20591920295e-38
-0.00647737674385 -0.0550577023227 0.875 1.18744013997e-38
-0.00484692848347 -0.054931856146 0.873 1.21513428178e-38
-0.00322388293937 -0.0548060099692 0.871 1.06780288228e-38
-0.00160824011154 -0.0546801637925 0.869 1.27988548122e-38
0.0 -0.0546801637925 0.869 1.2884233125e-38
0.0016045387534 -0.0545543176158 0.867 1.25176086052e-38
0.00319797343239 -0.0543655483507 0.864 1.34373984964e-38
0.00478585607417 -0.0542397021739 0.862 1.214273324e-38
0.00636633599967 -0.0541138559972 0.86 1.36181996295e-38
0.00795791999959 -0.0541138559972 0.86 1.34338111724e-38
0.0095495039995 -0.0541138559972 0.86 1.38987283717e-38
0.0111410879994 -0.0541138559972 0.86 1.43611512597e-38
0.0127030611342 -0.0539880098204 0.858 1.74993577693e-38
0.014290943776 -0.0539880098204 0.858 1.78667558058e-38
0.0158788264178 -0.0539880098204 0.858 1.79604157926e-38
0.0174667090596 -0.0539880098204 0.858 1.81440811797e-38
0.0190545917013 -0.0539880098204 0.858 1.89720439825e-38
0.0206424743431 -0.0539880098204 0.858 1.86039845331e-38
0.0222303569849 -0.0539880098204 0.858 1.86043208447e-38
0.0238182396267 -0.0539880098204 0.858 1.84203163434e-38
0.0254061222684 -0.0539880098204 0.858 1.66696321329e-38
0.0270569279986 -0.0541138559972 0.86 1.54685469893e-38
0.0286485119985 -0.0541138559972 0.86 1.435754712e-38
0.0302400959984 -0.0541138559972 0.86 1.43546772608e-38
0.0317576528356 -0.0539880098204 0.858 1.37093176608e-38
0.0333455354773 -0.0539880098204 0.858 1.36171234323e-38
0.0349334181191 -0.0539880098204 0.858 1.63836845696e-38
0.0366915632353 -0.0542397021739 0.862 1.50003955932e-38
0.0382868485934 -0.0542397021739 0.862 1.41727999305e-38
0.0398821339514 -0.0542397021739 0.862 2.05314257292e-38
0.0414774193095 -0.0542397021739 0.862 1.76729856555e-38
0.0431726413373 -0.0543655483507 0.864 1.88671722068e-38
0.0449270850953 -0.0545543176158 0.867 1.95128905391e-38
0.0465316238487 -0.0545543176158 0.867 1.93277846172e-38
0.0482472033463 -0.0546801637925 0.869 1.96951266018e-38
0.0499701855602 -0.0548060099692 0.871 1.95096619475e-38
0.0519966791415 -0.0552464715878 0.878 2.07096218484e-38
0.0536215753646 -0.0552464715878 0.878 2.08015035874e-38
-0.0148405954597 -0.0544155166855 0.891 2.20156180042e-38
-0.0131620295435 -0.0542933718669 0.889 2.05430172701e-38
-0.0114908663436 -0.0541712270483 0.887 1.30719188375e-38
-0.0097937936367 -0.0538658650018 0.882 1.25201645736e-38
-0.00812448111586 -0.0536215753646 0.878 1.205844794e-38
-0.00649958489268 -0.0536215753646 0.878 1.16914478722e-38
-0.00485803255789 -0.0534383581368 0.875 1.18765537942e-38
-0.00323128565565 -0.0533162133182 0.873 1.1599612376e-38
-0.00161194146968 -0.0531940684996 0.871 1.2058072392e-38
0.0 -0.0531940684996 0.871 1.26991286044e-38
0.00160824011154 -0.053071923681 0.869 1.26076504393e-38
0.00321648022309 -0.053071923681 0.869 1.33434106058e-38
0.00481361626021 -0.0529497788624 0.867 1.35288752602e-38
0.00639594686478 -0.0527665616345 0.864 1.31644031348e-38
0.00799493358098 -0.0527665616345 0.864 1.35270815981e-38
0.00957171214834 -0.0526444168159 0.862 1.4448306419e-38
0.0111669975064 -0.0526444168159 0.862 1.2795984953e-38
0.0127326719993 -0.0525222719973 0.86 1.29803818179e-38
0.0143242559993 -0.0525222719973 0.86 1.26984097383e-38
0.0159528535806 -0.0526444168159 0.862 1.22385147927e-38
0.0175481389386 -0.0526444168159 0.862 1.23256867675e-38
0.019099007999 -0.0525222719973 0.86 1.36121011786e-38
0.0206905919989 -0.0525222719973 0.86 1.33358772253e-38
0.0222821759988 -0.0525222719973 0.86 1.38015118894e-38
0.0238737599988 -0.0525222719973 0.86 1.37143399145e-38
0.0254653439987 -0.0525222719973 0.86 1.21509840854e-38
0.0270569279986 -0.0525222719973 0.86 1.40867349814e-38
0.0286485119985 -0.0525222719973 0.86 1.4358997464e-38
0.0302400959984 -0.0525222719973 0.86 1.50936660189e-38
0.0319057071611 -0.0526444168159 0.862 1.48163658684e-38
0.0335009925192 -0.0526444168159 0.862 1.52780544761e-38
0.0350962778772 -0.0526444168159 0.862 1.73041989321e-38
0.0366915632353 -0.0526444168159 0.862 1.50911548921e-38
0.0382868485934 -0.0526444168159 0.862 1.44490252851e-38
0.0399746679049 -0.0527665616345 0.864 1.93364754703e-38
0.0415736546211 -0.0527665616345 0.864 1.84108645852e-38
0.0433225463419 -0.0529497788624 0.867 1.88675309392e-38
0.0449270850953 -0.0529497788624 0.867 1.90522781287e-38
0.0466389632348 -0.053071923681 0.869 1.94199788458e-38
0.0483582440905 -0.0531940684996 0.871 1.88671722068e-38
0.0503717829183 -0.0536215753646 0.878 2.02490360627e-38
0.0519966791415 -0.0536215753646 0.878 2.02479402473e-38
0.0536215753646 -0.0536215753646 0.878 2.01572327964e-38
-0.0148072832364 -0.052648118174 0.889 2.19223391706e-38
-0.0131620295435 -0.052648118174 0.889 2.06355660272e-38
-0.0114908663436 -0.0525296747135 0.887 1.2518368109e-38
-0.00982710585995 -0.0524112312531 0.885 1.26101615662e-38
-0.00816149469725 -0.0522335660624 0.882 1.27023908272e-38
-0.00651439032524 -0.0521151226019 0.88 1.15985445866e-38
-0.00487468866951 -0.0519966791415 0.878 1.17840008332e-38
-0.00323868837192 -0.0518190139508 0.875 1.35342814697e-38
-0.00161564282782 -0.0517005704903 0.873 1.30686215822e-38
0.0 -0.0515821270299 0.871 1.28827981954e-38
0.00161194146968 -0.0515821270299 0.871 1.38994458365e-38
0.00321648022309 -0.0514636835694 0.869 1.16842732241e-38
0.00482472033463 -0.0514636835694 0.869 1.38987283717e-38
0.00641815501362 -0.051345240109 0.867 1.27030732596e-38
0.00799493358098 -0.0511675749183 0.864 1.41742348601e-38
0.00959392029717 -0.0511675749183 0.864 1.42621242998e-38
0.0111669975064 -0.0510491314578 0.862 1.26069329745e-38
0.0127622828645 -0.0510491314578 0.862 1.26119552282e-38
0.0143575682225 -0.0510491314578 0.862 1.36250155452e-38
0.0159528535806 -0.0510491314578 0.862 1.32551624337e-38
0.0175481389386 -0.0510491314578 0.862 1.33423344086e-38
0.0191434242967 -0.0510491314578 0.862 1.45419355772e-38
0.0207387096547 -0.0510491314578 0.862 1.40798882371e-38
0.0223339950128 -0.0510491314578 0.862 1.39876940086e-38
0.0239292803708 -0.0510491314578 0.862 1.43618519089e-38
0.0255245657289 -0.0510491314578 0.862 1.38112172826e-38
0.0271827741753 -0.0511675749183 0.864 1.61124772648e-38
0.0287817608915 -0.0511675749183 0.864 1.42657116239e-38
0.0303807476077 -0.0511675749183 0.864 1.41695713388e-38
0.0319797343239 -0.0511675749183 0.864 1.48138547416e-38
0.0335787210401 -0.0511675749183 0.864 1.57401046187e-38
0.0351777077563 -0.0511675749183 0.864 1.50007543256e-38
0.0367766944725 -0.0511675749183 0.864 1.4814213474e-38
0.0385089300817 -0.051345240109 0.867 1.38036642838e-38
0.0401134688351 -0.051345240109 0.867 2.00747831974e-38
0.0417180075885 -0.051345240109 0.867 1.81335980659e-38
0.0434224830117 -0.0514636835694 0.869 1.87742605134e-38
0.0451343611511 -0.0515821270299 0.871 1.9790549422e-38
0.0468536420069 -0.0517005704903 0.873 2.0343356061e-38
0.0487468866951 -0.0519966791415 0.878 1.90522781287e-38
0.0504865250206 -0.0521151226019 0.88 1.99717289057e-38
0.0521151226019 -0.0521151226019 0.88 2.07089127914e-38
-0.0148072832364 -0.0510028644811 0.889 2.17393954522e-38
-0.0131620295435 -0.0510028644811 0.889 2.09121571207e-38
-0.0114908663436 -0.0508881223787 0.887 1.29775708132e-38
-0.00982710585995 -0.0507733802764 0.885 1.29771448184e-38
-0.00818925488329 -0.0507733802764 0.885 1.27927885912e-38
-0.0065291957578 -0.0506012671229 0.882 1.25165352106e-38
-0.00487468866951 -0.0503717829183 0.878 1.20569961948e-38
-0.00324979244634 -0.0503717829183 0.878 1.21491904234e-38
-0.00161934418596 -0.0501996697648 0.875 1.32515751097e-38
0.0 -0.0500849276625 0.873 1.27913214317e-38
0.00161194146968 -0.0499701855602 0.871 1.29818083397e-38
0.00321648022309 -0.0498554434579 0.869 1.36242980804e-38
0.00482472033463 -0.0498554434579 0.869 1.30682628498e-38
0.00643296044618 -0.0498554434579 0.869 1.38987283717e-38
0.00802269376702 -0.0497407013555 0.867 1.34366810316e-38
0.00962723252043 -0.0497407013555 0.867 1.36189170943e-38
0.0111929070134 -0.0495685882021 0.864 1.65694925421e-38
0.0127918937296 -0.0495685882021 0.864 1.36225044184e-38
0.0143908804458 -0.0495685882021 0.864 1.3902359136e-38
0.0159528535806 -0.0494538460997 0.862 1.28888966463e-38
0.0175481389386 -0.0494538460997 0.862 1.32540862365e-38
0.0191434242967 -0.0494538460997 0.862 1.61103262717e-38
0.0207387096547 -0.0494538460997 0.862 1.27941912909e-38
0.0223339950128 -0.0494538460997 0.862 1.29782210156e-38
0.0239848007429 -0.0495685882021 0.864 1.32583910254e-38
0.0255837874591 -0.0495685882021 0.864 1.36279022201e-38
0.0272771588079 -0.0497407013555 0.867 1.53738360287e-38
0.0288816975613 -0.0497407013555 0.867 1.45401419151e-38
0.0304862363147 -0.0497407013555 0.867 1.36171234323e-38
0.0320907750681 -0.0497407013555 0.867 1.54635191304e-38
0.0336953138215 -0.0497407013555 0.867 1.53734800989e-38
0.0352998525749 -0.0497407013555 0.867 1.48163658684e-38
0.0369043913283 -0.0497407013555 0.867 1.63825915568e-38
0.0385089300817 -0.0497407013555 0.867 1.28856680547e-38
0.0401134688351 -0.0497407013555 0.867 2.01644354705e-38
0.0418142429001 -0.0498554434579 0.869 1.84083534584e-38
0.0434224830117 -0.0498554434579 0.869 1.9235949121e-38
0.0451343611511 -0.0499701855602 0.871 1.90512019315e-38
0.0468536420069 -0.0500849276625 0.873 1.93256322227e-38
0.0487468866951 -0.0503717829183 0.878 1.97848097035e-38
0.0504865250206 -0.0504865250206 0.88 2.07993133579e-38
0.0521151226019 -0.0504865250206 0.88 2.05259508561e-38
-0.0131620295435 -0.0493576107881 0.889 2.15560831923e-38
-0.0114908663436 -0.0492465700439 0.887 1.47282143859e-38
-0.00982710585995 -0.0491355292998 0.885 1.20552417691e-38
-0.00818925488329 -0.0491355292998 0.885 1.28853149275e-38
-0.00655140390664 -0.0491355292998 0.885 1.3067555194e-38
-0.00489689681835 -0.0489689681835 0.882 1.27920388965e-38
-0.00324979244634 -0.0487468866951 0.878 1.28856680547e-38
-0.00161934418596 -0.0485803255789 0.875 1.24250556443e-38
0.0 -0.0484692848347 0.873 1.29807321425e-38
0.00161194146968 -0.0483582440905 0.871 1.14123540597e-38
0.00322388293937 -0.0483582440905 0.871 1.28871029843e-38
0.00483582440905 -0.0483582440905 0.871 1.26083679042e-38
0.00643296044618 -0.0482472033463 0.869 1.50947422162e-38
0.00804120055772 -0.0482472033463 0.869 1.30661104553e-38
0.00964944066926 -0.0482472033463 0.869 1.5189806304e-38
0.0112576807808 -0.0482472033463 0.869 1.4355753458e-38
0.0128363100272 -0.0481361626021 0.867 1.40795295047e-38
0.0143908804458 -0.0479696014859 0.864 1.42704003685e-38
0.015989867162 -0.0479696014859 0.864 1.41814109096e-38
0.0175888538782 -0.0479696014859 0.864 1.17818484387e-38
0.0191878405943 -0.0479696014859 0.864 1.44540657557e-38
0.0207868273105 -0.0479696014859 0.864 1.3349886006e-38
0.0223858140267 -0.0479696014859 0.864 1.43636525775e-38
0.0240680813011 -0.0481361626021 0.867 1.34438556798e-38
0.0256726200545 -0.0481361626021 0.867 1.58394875084e-38
0.0273400818963 -0.0482472033463 0.869 1.47284764287e-38
0.0289483220078 -0.0482472033463 0.869 1.5368813775e-38
0.0305565621193 -0.0482472033463 0.869 1.50965526938e-38
0.0321648022309 -0.0482472033463 0.869 1.39934337271e-38
0.0337730423424 -0.0482472033463 0.869 1.44547664049e-38
0.035381282454 -0.0482472033463 0.869 1.6014173375e-38
0.0369043913283 -0.0481361626021 0.867 1.55521260349e-38
0.0385089300817 -0.0481361626021 0.867 1.2884233125e-38
0.0402060027886 -0.0482472033463 0.869 2.10874791767e-38
0.0418142429001 -0.0482472033463 0.869 1.76715437194e-38
0.0434224830117 -0.0482472033463 0.869 1.90508431991e-38
0.045237999179 -0.0484692848347 0.873 2.00646223822e-38
0.047121990472 -0.0487468866951 0.878 1.96936916722e-38
0.0488579274393 -0.0488579274393 0.88 2.01557390122e-38
0.0504865250206 -0.0488579274393 0.88 2.08010986122e-38
0.0522335660624 -0.0489689681835 0.882 1.97873208304e-38
-0.0131916404086 -0.0478196964812 0.891 2.20145614252e-38
-0.0114908663436 -0.0476050177091 0.887 1.32548779702e-38
-0.00982710585995 -0.0474976783231 0.885 1.40821429264e-38
-0.00818925488329 -0.0474976783231 0.885 1.35310276546e-38
-0.00655140390664 -0.0474976783231 0.885 1.22403182638e-38
-0.00489689681835 -0.047336669244 0.882 1.3342693141e-38
-0.00324979244634 -0.047121990472 0.878 1.2880645801e-38
-0.00161934418596 -0.0469609813929 0.875 1.2793492043e-38
0.0 -0.0468536420069 0.873 1.31644031348e-38
0.00161564282782 -0.0468536420069 0.873 1.30686215822e-38
0.00322388293937 -0.0467463026208 0.871 1.34409858205e-38
0.00483582440905 -0.0467463026208 0.871 1.26094441014e-38
0.00643296044618 -0.0466389632348 0.869 1.4542653042e-38
0.00804120055772 -0.0466389632348 0.869 1.33477224012e-38
0.00964944066926 -0.0466389632348 0.869 1.39919987974e-38
0.0112576807808 -0.0466389632348 0.869 1.3155793557e-38
0.0128659208924 -0.0466389632348 0.869 1.42628417646e-38
0.0144741610039 -0.0466389632348 0.869 1.52827179974e-38
0.016045387534 -0.0465316238487 0.867 1.33495090567e-38
0.0176499262875 -0.0465316238487 0.867 1.34431424188e-38
0.0192544650409 -0.0465316238487 0.867 1.3812632594e-38
0.0208590037943 -0.0465316238487 0.867 1.32594672226e-38
0.0224635425477 -0.0465316238487 0.867 1.29803734101e-38
0.0241236016732 -0.0466389632348 0.869 1.57429884909e-38
0.0257318417847 -0.0466389632348 0.869 1.5368813775e-38
0.0273400818963 -0.0466389632348 0.869 1.54599318063e-38
0.0289483220078 -0.0466389632348 0.869 1.51790443318e-38
0.0305565621193 -0.0466389632348 0.869 1.44490238838e-38
0.0321648022309 -0.0466389632348 0.869 1.46384345946e-38
0.0337730423424 -0.0466389632348 0.869 1.50976120754e-38
0.035381282454 -0.0466389632348 0.869 1.4629107552e-38
0.0369895225655 -0.0466389632348 0.869 1.65666338932e-38
0.0385977626771 -0.0466389632348 0.869 1.37114700553e-38
0.0402985367421 -0.0467463026208 0.871 2.10841917306e-38
0.0419104782118 -0.0467463026208 0.871 1.83168766946e-38
0.0436223563512 -0.0468536420069 0.873 1.91451898221e-38
0.0454970942488 -0.047121990472 0.878 1.92352316562e-38
0.047229329858 -0.047229329858 0.88 1.94174677189e-38
0.0488579274393 -0.047229329858 0.88 1.99724323575e-38
0.0504865250206 -0.047229329858 0.88 2.08010986122e-38
0.0522335660624 -0.047336669244 0.882 2.02482933745e-38
-0.0131916404086 -0.0461707414302 0.891 2.12798662455e-38
-0.0115167758506 -0.0460671034023 0.889 1.18733910635e-38
-0.00984931400879 -0.0459634653743 0.887 1.50972939807e-38
-0.00820776167399 -0.0459634653743 0.887 1.29821670721e-38
-0.00656620933919 -0.0459634653743 0.887 1.23321803846e-38
-0.00491355292998 -0.0458598273464 0.885 1.35285193304e-38
-0.00325719516262 -0.0456007322767 0.88 1.27873753752e-38
-0.00162489622317 -0.0454970942488 0.878 1.34356048344e-38
0.0 -0.0453416372069 0.875 1.28853093223e-38
0.00161564282782 -0.045237999179 0.873 1.3527799063e-38
0.00323128565565 -0.045237999179 0.873 1.3529592725e-38
0.00483582440905 -0.0451343611511 0.871 1.27023557948e-38
0.00644776587873 -0.0451343611511 0.871 1.23303502888e-38
0.00805970734842 -0.0451343611511 0.871 1.49103845876e-38
0.0096716488181 -0.0451343611511 0.871 1.28853093223e-38
0.0112835902878 -0.0451343611511 0.871 1.36181996295e-38
0.0128659208924 -0.0450307231232 0.869 1.42621242998e-38
0.0144741610039 -0.0450307231232 0.869 1.42642766943e-38
0.016045387534 -0.0449270850953 0.867 1.59255706744e-38
0.0176499262875 -0.0449270850953 0.867 1.44540461375e-38
0.0192544650409 -0.0449270850953 0.867 1.41796158462e-38
0.0209071214501 -0.0450307231232 0.869 1.33487915919e-38
0.0225153615616 -0.0450307231232 0.869 1.50054458728e-38
0.0241236016732 -0.0450307231232 0.869 1.4725266054e-38
0.0257318417847 -0.0450307231232 0.869 1.49957320719e-38
0.0273400818963 -0.0450307231232 0.869 1.5827273791e-38
0.0289483220078 -0.0450307231232 0.869 1.58265563262e-38
0.030626887924 -0.0451343611511 0.871 1.51876539095e-38
0.0322388293937 -0.0451343611511 0.871 1.43604323936e-38
0.0338507708634 -0.0451343611511 0.871 1.46319774113e-38
0.035462712333 -0.0451343611511 0.871 1.52759020816e-38
0.0370746538027 -0.0451343611511 0.871 1.6568435963e-38
0.0386865952724 -0.0451343611511 0.871 1.45376307883e-38
0.0403910706956 -0.045237999179 0.873 2.21880309647e-38
0.0420067135234 -0.045237999179 0.873 1.76719122608e-38
0.043722293021 -0.0453416372069 0.875 1.88671722068e-38
0.0454970942488 -0.0454970942488 0.878 1.98809499886e-38
0.047229329858 -0.0456007322767 0.88 2.02511618325e-38
0.0488579274393 -0.0456007322767 0.88 2.01564564771e-38
0.0506012671229 -0.0457043703046 0.882 2.01564564771e-38
0.0522335660624 -0.0457043703046 0.882 2.11713230678e-38
-0.0131916404086 -0.0445217863791 0.891 2.15560803897e-38
-0.0115167758506 -0.0444218497093 0.889 1.43644709358e-38
-0.00984931400879 -0.0443219130396 0.887 1.20570214182e-38
-0.00820776167399 -0.0443219130396 0.887 1.54704051111e-38
-0.00656620933919 -0.0443219130396 0.887 1.15974725933e-38
-0.00492465700439 -0.0443219130396 0.887 1.22417461869e-38
-0.0032645978789 -0.0440720713651 0.882 1.3347369274e-38
-0.00162859758131 -0.0439721346954 0.88 1.27938325585e-38
0.0 -0.0438721980256 0.878 1.19594209801e-38
0.00162489622317 -0.0438721980256 0.878 1.49089342437e-38
0.00323868837192 -0.043722293021 0.875 1.32515751097e-38
0.00484692848347 -0.0436223563512 0.873 1.25150974784e-38
0.00646257131129 -0.0436223563512 0.873 1.53724263224e-38
0.00805970734842 -0.0435224196815 0.871 1.51876539095e-38
0.0096716488181 -0.0435224196815 0.871 1.37157748442e-38
0.0112835902878 -0.0435224196815 0.871 1.3161892008e-38
0.0128955317575 -0.0435224196815 0.871 1.41710062685e-38
0.0145074732272 -0.0435224196815 0.871 1.49049727729e-38
0.0161194146968 -0.0435224196815 0.871 1.50000368607e-38
0.017690641227 -0.0434224830117 0.869 1.4908560097e-38
0.0192988813385 -0.0434224830117 0.869 1.42653528915e-38
0.0209552391059 -0.0435224196815 0.871 1.42653528915e-38
0.0225671805756 -0.0435224196815 0.871 1.44493826162e-38
0.0241791220453 -0.0435224196815 0.871 1.46319774113e-38
0.0257910635149 -0.0435224196815 0.871 1.52730322224e-38
0.0274030049846 -0.0435224196815 0.871 1.52759020816e-38
0.0290149464543 -0.0435224196815 0.871 1.57375906893e-38
0.030626887924 -0.0435224196815 0.871 1.49117886887e-38
0.0322388293937 -0.0435224196815 0.871 1.44490238838e-38
0.0338507708634 -0.0435224196815 0.871 1.51829903882e-38
0.035462712333 -0.0435224196815 0.871 1.56436027987e-38
0.0370746538027 -0.0435224196815 0.871 1.51826316558e-38
0.0387754278677 -0.0436223563512 0.873 1.49960908043e-38
0.0404836046491 -0.043722293021 0.875 2.09905415529e-38
0.042102948835 -0.043722293021 0.875 1.84076359936e-38
0.0438721980256 -0.0438721980256 0.878 1.91430374277e-38
0.0456007322767 -0.0439721346954 0.88 1.94199788458e-38
0.047229329858 -0.0439721346954 0.88 2.0341562399e-38
0.0489689681835 -0.0440720713651 0.882 2.01568152095e-38
0.0508881223787 -0.0443219130396 0.887 2.00642622485e-38
0.0525296747135 -0.0443219130396 0.887 2.05270466715e-38
0.0545987339134 -0.0446716913837 0.894 2.17255884584e-38
-0.0132360567063 -0.0430171842954 0.894 2.04501055767e-38
-0.0115426853575 -0.042872831328 0.891 1.45506824822e-38
-0.00987152215763 -0.0427765960164 0.889 1.39949891684e-38
-0.00822626846469 -0.0427765960164 0.889 1.18690204136e-38
-0.00658101477175 -0.0427765960164 0.889 1.64791942703e-38
-0.00492465700439 -0.0426803607048 0.887 1.10485993991e-38
-0.00327570195332 -0.0425841253931 0.885 1.25197609997e-38
-0.00163229893945 -0.0424397724257 0.882 1.31608158107e-38
0.0 -0.0423435371141 0.88 1.2789886502e-38
0.00162859758131 -0.0423435371141 0.88 1.46355871561e-38
0.00324979244634 -0.0422473018025 0.878 1.2976786086e-38
0.00485803255789 -0.042102948835 0.875 1.25158149432e-38
0.00647737674385 -0.042102948835 0.875 1.30682628498e-38
0.00807821413911 -0.0420067135234 0.873 1.42649941591e-38
0.00969385696694 -0.0420067135234 0.873 1.33495090567e-38
0.0113094997948 -0.0420067135234 0.873 1.20598660541e-38
0.0129251426226 -0.0420067135234 0.873 1.43568296552e-38
0.0145074732272 -0.0419104782118 0.871 1.60120209805e-38
0.0161194146968 -0.0419104782118 0.871 1.42624830322e-38
0.0177313561665 -0.0419104782118 0.871 1.49096362942e-38
0.0193432976362 -0.0419104782118 0.871 1.38022293542e-38
0.0209552391059 -0.0419104782118 0.871 1.57383081541e-38
0.0225671805756 -0.0419104782118 0.871 1.5555713359e-38
0.0241791220453 -0.0419104782118 0.871 1.46309012141e-38
0.0257910635149 -0.0419104782118 0.871 1.42624830322e-38
0.0274030049846 -0.0419104782118 0.871 1.49078426322e-38
0.0290149464543 -0.0419104782118 0.871 1.65684205488e-38
0.030626887924 -0.0419104782118 0.871 1.40788120399e-38
0.0322388293937 -0.0419104782118 0.871 1.51826316558e-38
0.0338507708634 -0.0419104782118 0.871 1.59191092871e-38
0.035462712333 -0.0419104782118 0.871 1.6934680731e-38
0.0371597850399 -0.0420067135234 0.873 1.49074838998e-38
0.0387754278677 -0.0420067135234 0.873 1.35245704713e-38
0.0406224055793 -0.0422473018025 0.878 2.18214190565e-38
0.0422473018025 -0.0422473018025 0.878 1.80381808509e-38
0.0439721346954 -0.0423435371141 0.88 2.01557390122e-38
0.0456007322767 -0.0423435371141 0.88 1.9881308721e-38
0.0474976783231 -0.0425841253931 0.885 1.99717092875e-38
0.0492465700439 -0.0426803607048 0.887 1.99710002305e-38
0.0510028644811 -0.0427765960164 0.889 2.07107008483e-38
0.0529442268251 -0.0430171842954 0.894 2.07096610848e-38
0.0545987339134 -0.0430171842954 0.894 2.1540128008e-38
-0.0132360567063 -0.0413626772071 0.894 1.98047207534e-38
-0.0115426853575 -0.0412238762769 0.891 1.46446493533e-38
-0.00989373030646 -0.0412238762769 0.891 1.3723830909e-38
-0.00824477525538 -0.0412238762769 0.891 1.35342562463e-38
-0.00658101477175 -0.0411313423234 0.889 1.26033778803e-38
-0.00492465700439 -0.04103880837 0.887 1.62976098114e-38
-0.0032831046696 -0.04103880837 0.887 1.17832833684e-38
-0.00163785097666 -0.0409462744165 0.885 1.35263641333e-38
0.0 -0.0408074734862 0.882 1.29739162268e-38
0.00163229893945 -0.0408074734862 0.882 1.24250556443e-38
0.00324979244634 -0.0406224055793 0.878 1.44529755455e-38
0.00487468866951 -0.0406224055793 0.878 1.2978579748e-38
0.00649958489268 -0.0406224055793 0.878 1.39001731104e-38
0.00809672092981 -0.0404836046491 0.875 1.36189170943e-38
0.00971606511577 -0.0404836046491 0.875 1.57393983643e-38
0.0113094997948 -0.0403910706956 0.873 1.44515350106e-38
0.0129251426226 -0.0403910706956 0.873 1.40791707723e-38
0.0145407854504 -0.0403910706956 0.873 1.59230553436e-38
0.0161194146968 -0.0402985367421 0.871 1.38022293542e-38
0.0177313561665 -0.0402985367421 0.871 1.54617254684e-38
0.0193432976362 -0.0402985367421 0.871 1.42592544406e-38
0.0209552391059 -0.0402985367421 0.871 1.55514085701e-38
0.0226189995895 -0.0403910706956 0.873 1.61049326739e-38
0.0242346424173 -0.0403910706956 0.873 1.45376307883e-38
0.0258502852452 -0.0403910706956 0.873 1.53713249019e-38
0.027465928073 -0.0403910706956 0.873 1.43593407821e-38
0.0290815709008 -0.0403910706956 0.873 1.64783857211e-38
0.0306972137286 -0.0403910706956 0.873 1.64776696576e-38
0.0323128565565 -0.0403910706956 0.873 1.58265563262e-38
0.0340062279052 -0.0404836046491 0.875 1.72083935574e-38
0.0356255720912 -0.0404836046491 0.875 1.49114299562e-38
0.0372449162771 -0.0404836046491 0.875 1.51858602475e-38
0.0388642604631 -0.0404836046491 0.875 1.40802469695e-38
0.0406224055793 -0.0406224055793 0.878 2.13600947865e-38
0.0423435371141 -0.0407149395328 0.88 1.86838599469e-38
0.0439721346954 -0.0407149395328 0.88 1.91423199628e-38
0.0457043703046 -0.0408074734862 0.882 1.96954853342e-38
0.0474976783231 -0.0409462744165 0.885 2.00639035161e-38
0.0493576107881 -0.0411313423234 0.889 2.01560977446e-38
0.0511176065834 -0.0412238762769 0.891 2.06163542253e-38
0.0529442268251 -0.0413626772071 0.894 2.00635489876e-38
0.054720878732 -0.0414552111606 0.896 2.3012732946e-38
0.0563790871785 -0.0414552111606 0.896 2.31053405576e-38
-0.0132656675714 -0.0397970027142 0.896 1.9343760821e-38
-0.011581549618 -0.0397081701189 0.894 1.34461117703e-38
-0.00992704252972 -0.0397081701189 0.894 1.54780029513e-38
-0.00827253544143 -0.0397081701189 0.894 1.19717075651e-38
-0.00661802835314 -0.0397081701189 0.894 1.46341424174e-38
-0.00493576107881 -0.0394860886305 0.889 1.46341298057e-38
-0.0032831046696 -0.0393972560352 0.887 1.71266263907e-38
-0.0016415523348 -0.0393972560352 0.887 1.27916801641e-38
0.0 -0.0393084234398 0.885 1.33419756762e-38
0.00163229893945 -0.0391751745468 0.882 1.26080091718e-38
0.00325719516262 -0.0390863419515 0.88 1.3897293442e-38
0.00488579274393 -0.0390863419515 0.88 1.35270815981e-38
0.00649958489268 -0.0389975093561 0.878 1.22406671871e-38
0.00812448111586 -0.0389975093561 0.878 1.52802068705e-38
0.00974937733903 -0.0389975093561 0.878 1.49056902377e-38
0.0113354093017 -0.0388642604631 0.875 1.52769782788e-38
0.0129547534877 -0.0388642604631 0.875 1.35288752602e-38
0.0145740976737 -0.0388642604631 0.875 1.39891289382e-38
0.0161564282782 -0.0387754278677 0.873 1.38015118894e-38
0.0177720711061 -0.0387754278677 0.873 1.5829067453e-38
0.0193877139339 -0.0387754278677 0.873 1.5829067453e-38
0.0210033567617 -0.0387754278677 0.873 1.49089188294e-38
0.0226189995895 -0.0387754278677 0.873 1.45369133235e-38
0.0242346424173 -0.0387754278677 0.873 1.5276260814e-38
0.0258502852452 -0.0387754278677 0.873 1.42653528915e-38
0.0275288511614 -0.0388642604631 0.875 1.58355344454e-38
0.0291481953473 -0.0388642604631 0.875 1.5004700382e-38
0.0307675395333 -0.0388642604631 0.875 1.52780544761e-38
0.0323868837192 -0.0388642604631 0.875 1.57325684356e-38
0.0341228206866 -0.0389975093561 0.878 1.70232876355e-38
0.0357477169098 -0.0389975093561 0.878 1.41731586629e-38
0.0373726131329 -0.0389975093561 0.878 1.52802068705e-38
0.0390863419515 -0.0390863419515 0.88 1.45401419151e-38
0.0407149395328 -0.0390863419515 0.88 2.1176418189e-38
0.0424397724257 -0.0391751745468 0.882 1.86842186793e-38
0.0442219763698 -0.0393084234398 0.885 1.94189026485e-38
0.0459634653743 -0.0393972560352 0.887 1.99691981607e-38
0.0476050177091 -0.0393972560352 0.887 2.02468570436e-38
0.0494686515323 -0.0395749212258 0.891 2.02475745084e-38
0.0511176065834 -0.0395749212258 0.891 2.08922166435e-38
0.0529442268251 -0.0397081701189 0.894 2.14464680212e-38
0.054720878732 -0.0397970027142 0.896 2.12617236343e-38
0.0563790871785 -0.0397970027142 0.896 2.26436463448e-38
-0.0132952784365 -0.038223925505 0.898 1.98050864923e-38
-0.011607459125 -0.0381387942678 0.896 1.34475158713e-38
-0.00992704252972 -0.0380536630306 0.894 1.4092592409e-38
-0.00827253544143 -0.0380536630306 0.894 1.40000240338e-38
-0.00661802835314 -0.0380536630306 0.894 1.38111976644e-38
-0.00493576107881 -0.0378408349376 0.889 1.43582645849e-38
-0.0032831046696 -0.0377557037004 0.887 1.51851427827e-38
-0.0016415523348 -0.0377557037004 0.887 1.70340776336e-38
0.0 -0.0376705724632 0.885 1.55601274491e-38
0.00163785097666 -0.0376705724632 0.885 1.20548438004e-38
0.0032645978789 -0.0375428756073 0.882 1.41735328096e-38
0.00488579274393 -0.0374577443701 0.88 1.40809714408e-38
0.00651439032524 -0.0374577443701 0.88 1.33444868031e-38
0.00814298790655 -0.0374577443701 0.88 1.41742348601e-38
0.00974937733903 -0.0373726131329 0.878 1.46309012141e-38
0.0113742735622 -0.0373726131329 0.878 1.41727999305e-38
0.0129991697854 -0.0373726131329 0.878 1.36250281569e-38
0.0145740976737 -0.0372449162771 0.875 1.28881791815e-38
0.0161934418596 -0.0372449162771 0.875 1.50007543256e-38
0.0178127860456 -0.0372449162771 0.875 1.48127785444e-38
0.0194321302315 -0.0372449162771 0.875 1.42628417646e-38
0.0210514744175 -0.0372449162771 0.875 1.4448306419e-38
0.0226708186035 -0.0372449162771 0.875 1.44457952921e-38
0.0242901627894 -0.0372449162771 0.875 1.60141901905e-38
0.0259095069754 -0.0372449162771 0.875 1.39945099243e-38
0.0275288511614 -0.0372449162771 0.875 1.51930348956e-38
0.0291481953473 -0.0372449162771 0.875 1.49135823507e-38
0.0308730282403 -0.0373726131329 0.878 1.48163658684e-38
0.0324979244634 -0.0373726131329 0.878 1.49978844663e-38
0.0341228206866 -0.0373726131329 0.878 1.684212777e-38
0.0357477169098 -0.0373726131329 0.878 1.46309012141e-38
0.0374577443701 -0.0374577443701 0.88 1.60109447833e-38
0.0390863419515 -0.0374577443701 0.88 1.73002360601e-38
