# .PCD v0.7 - Point Cloud Data file format
VERSION 0.7
FIELDS x y z rgb
SIZE 4 4 4 4
TYPE F F F F
COUNT 1 1 1 1
WIDTH 852
HEIGHT 1
VIEWPOINT 0 0 0 1 0 0 0
POINTS 852
DATA ascii
0.0312080011519 -0.202108959841 0.803 8.93467480464e-39
-0.0386255228631 -0.193127614316 0.773 1.79492474438e-38
-0.0371949479422 -0.193127614316 0.773 1.85031190696e-38
-0.0357643730214 -0.193127614316 0.773 1.5743735383e-38
-0.0343782143982 -0.19337745599 0.774 1.40896819121e-38
-0.0330309200355 -0.193877139339 0.776 1.62119806662e-38
-0.0315133631984 -0.19337745599 0.774 1.15114510845e-38
-0.0300809375984 -0.19337745599 0.774 1.10504897507e-38
-0.0297219058589 -0.200622864548 0.803 1.09586570572e-38
-0.0282006476636 -0.200373022873 0.802 1.2157536557e-38
-0.0267164030498 -0.200373022873 0.802 1.21575407609e-38
-0.0252321584359 -0.200373022873 0.802 1.18788028782e-38
-0.0237775246871 -0.200622864548 0.803 1.16036607273e-38
-0.0223469497663 -0.201122547896 0.805 1.17884079168e-38
-0.0208571531152 -0.201122547896 0.805 1.16965654142e-38
-0.0193673564641 -0.201122547896 0.805 1.16972842803e-38
-0.0179219761107 -0.201622231245 0.807 1.11437573739e-38
-0.016469193041 -0.202121914594 0.809 1.11437447622e-38
-0.015009007255 -0.202621597943 0.811 1.13281500349e-38
-0.0135414187528 -0.203121281292 0.813 1.12356026792e-38
-0.0120368166691 -0.203121281292 0.813 1.06849470333e-38
-0.0105322145855 -0.203121281292 0.813 1.05927514035e-38
-0.00904982065069 -0.203620964641 0.815 1.05909535375e-38
-0.00754151720891 -0.203620964641 0.815 1.09582913183e-38
-0.00603321376713 -0.203620964641 0.815 1.08667963376e-38
-0.00452491032535 -0.203620964641 0.815 1.06831491674e-38
-0.00301660688356 -0.203620964641 0.815 9.85483043475e-39
-0.00151200479992 -0.204120647989 0.817 1.03143694505e-38
0.0 -0.204120647989 0.817 9.76263480488e-39
0.00151200479992 -0.204120647989 0.817 9.67186849945e-39
0.00302400959984 -0.204120647989 0.817 9.94737919182e-39
0.00453601439976 -0.204120647989 0.817 1.02228772725e-38
0.00603321376713 -0.203620964641 0.815 9.85374022454e-39
0.00754151720891 -0.203620964641 0.815 9.7626221932e-39
0.00904982065069 -0.203620964641 0.815 9.67044197762e-39
0.0105581240925 -0.203620964641 0.815 9.39385508803e-39
0.0120368166691 -0.203121281292 0.813 9.67044197762e-39
0.0135414187528 -0.203121281292 0.813 9.02614876579e-39
0.0150460208364 -0.203121281292 0.813 9.11869752287e-39
0.0165506229201 -0.203121281292 0.813 8.84317982401e-39
0.018010808706 -0.202621597943 0.811 9.11869752287e-39
0.0194635917757 -0.202121914594 0.809 9.11869752287e-39
0.0209607911431 -0.202121914594 0.809 9.30272864889e-39
0.0224579905105 -0.202121914594 0.809 9.11905065008e-39
0.0238959681476 -0.201622231245 0.807 9.11977231879e-39
0.0253894661568 -0.201622231245 0.807 8.7506562903e-39
0.026882964166 -0.201622231245 0.807 8.84210783068e-39
0.0283061363706 -0.201122547896 0.805 8.65879557077e-39
0.0297959330217 -0.201122547896 0.805 8.8428266968e-39
0.0312857296728 -0.201122547896 0.805 8.84247637218e-39
0.0328569562029 -0.201622231245 0.807 9.57967567219e-39
-0.0386255228631 -0.191697039395 0.773 1.82269259449e-38
-0.0371949479422 -0.191697039395 0.773 1.83194298604e-38
-0.0357643730214 -0.191697039395 0.773 1.65734946505e-38
-0.0343337981005 -0.191697039395 0.773 1.38141838314e-38
-0.0346058479238 -0.201616679208 0.813 1.40000240338e-38
-0.0330198159611 -0.201120697217 0.811 1.54758799842e-38
-0.0314411867146 -0.200624715227 0.809 1.06824274987e-38
-0.0297959330217 -0.199632751245 0.805 1.05909535375e-38
-0.028235810566 -0.199136769255 0.803 1.07749496311e-38
-0.026749715273 -0.199136769255 0.803 1.17891295856e-38
-0.0252636199801 -0.199136769255 0.803 1.20649877999e-38
-0.0237775246871 -0.199136769255 0.803 1.14196183909e-38
-0.0223469497663 -0.199632751245 0.805 1.11423098326e-38
-0.0209089721291 -0.200128733236 0.807 1.10508428779e-38
-0.0194154741199 -0.200128733236 0.807 1.10512114194e-38
-0.0179663924084 -0.200624715227 0.809 1.10512058142e-38
-0.016469193041 -0.200624715227 0.809 1.12359558064e-38
-0.0150460208364 -0.201616679208 0.813 1.11444790426e-38
-0.013574730976 -0.202112661199 0.815 1.11445056673e-38
-0.0120664275343 -0.202112661199 0.815 1.07774957904e-38
-0.0105581240925 -0.202112661199 0.815 1.09618814449e-38
-0.00907202879953 -0.202608643189 0.817 1.01317732541e-38
-0.00756002399961 -0.202608643189 0.817 1.12366760738e-38
-0.00604801919968 -0.202608643189 0.817 1.02225269479e-38
-0.00453601439976 -0.202608643189 0.817 9.94738479702e-39
-0.00302400959984 -0.202608643189 0.817 1.01317760567e-38
-0.00151570615806 -0.20310462518 0.819 1.00392272997e-38
0.0 -0.20310462518 0.819 1.00388517517e-38
0.00151200479992 -0.202608643189 0.817 9.76442286172e-39
0.00302400959984 -0.202608643189 0.817 9.6708175256e-39
0.00453601439976 -0.202608643189 0.817 9.85483603994e-39
0.00604801919968 -0.202608643189 0.817 9.76193135305e-39
0.00756002399961 -0.202608643189 0.817 9.4856807751e-39
0.00904982065069 -0.202112661199 0.815 1.01306942543e-38
0.0105581240925 -0.202112661199 0.815 1.00377797584e-38
0.0120664275343 -0.202112661199 0.815 9.85412978551e-39
0.013574730976 -0.202112661199 0.815 9.57822953217e-39
0.0150830344178 -0.202112661199 0.815 9.39528301116e-39
0.0165913378596 -0.202112661199 0.815 8.84282949939e-39
0.018010808706 -0.201120697217 0.811 8.93467200204e-39
0.0195117094315 -0.201120697217 0.811 8.8428266968e-39
0.0209607911431 -0.200624715227 0.809 9.3027188398e-39
0.0224579905105 -0.200624715227 0.809 9.11832197488e-39
0.0239551898778 -0.200624715227 0.809 8.84317982401e-39
0.0254523892452 -0.200624715227 0.809 9.3027188398e-39
0.0269495886125 -0.200624715227 0.809 9.02722075912e-39
0.0283764621753 -0.200128733236 0.807 8.7506562903e-39
0.0297959330217 -0.199632751245 0.805 8.93467200204e-39
0.0312857296728 -0.199632751245 0.805 9.30272864889e-39
0.0328569562029 -0.200128733236 0.807 9.76226906598e-39
0.0344355854494 -0.200624715227 0.809 7.91835646872e-39
-0.0346058479238 -0.200112077124 0.813 1.35419325593e-38
-0.0330198159611 -0.199619796492 0.811 1.48286958936e-38
-0.0315189152356 -0.199619796492 0.811 1.34461215794e-38
-0.0298699601845 -0.198635235227 0.807 9.94480500654e-39
-0.0283061363706 -0.198142954594 0.805 1.0960445114e-38
-0.0268163397195 -0.198142954594 0.805 1.08678935543e-38
-0.0253265430684 -0.198142954594 0.805 1.06813499002e-38
-0.0238367464174 -0.198142954594 0.805 1.07735483326e-38
-0.0224024701384 -0.198635235227 0.807 1.07735483326e-38
-0.0209607911431 -0.199127515859 0.809 1.08657453638e-38
-0.0194635917757 -0.199127515859 0.809 1.05902528883e-38
-0.0179663924084 -0.199127515859 0.809 1.068315197e-38
-0.0165099079805 -0.199619796492 0.811 1.05913038621e-38
-0.0150460208364 -0.200112077124 0.813 1.05009089008e-38
-0.013574730976 -0.200604357757 0.815 1.04083601437e-38
-0.0120960383994 -0.20109663839 0.817 1.05913066647e-38
-0.0105840335994 -0.20109663839 0.817 1.0132129184e-38
-0.00909423694836 -0.201588919022 0.819 1.04984005766e-38
-0.0075785307903 -0.201588919022 0.819 1.05909507349e-38
-0.00606282463224 -0.201588919022 0.819 1.03157945711e-38
-0.00454711847418 -0.201588919022 0.819 1.03161617113e-38
-0.00303141231612 -0.201588919022 0.819 9.85553949177e-39
-0.00151570615806 -0.201588919022 0.819 9.85483043475e-39
0.0 -0.201588919022 0.819 9.48712411251e-39
0.0015194075162 -0.202081199655 0.821 9.57967847478e-39
0.0030388150324 -0.202081199655 0.821 9.76262499579e-39
0.0045582225486 -0.202081199655 0.821 9.76299073469e-39
0.00606282463224 -0.201588919022 0.819 1.01303285154e-38
0.0075785307903 -0.201588919022 0.819 1.08689627451e-38
0.00909423694836 -0.201588919022 0.819 9.7626193906e-39
0.0105840335994 -0.20109663839 0.817 9.94628758032e-39
0.0120960383994 -0.20109663839 0.817 9.4856751699e-39
0.0136080431993 -0.20109663839 0.817 9.4856807751e-39
0.0151200479992 -0.20109663839 0.817 9.85446469585e-39
0.0166320527991 -0.20109663839 0.817 9.30203080226e-39
0.0180552250037 -0.200112077124 0.813 8.7506562903e-39
0.0195598270874 -0.200112077124 0.813 8.84247637218e-39
0.021012610157 -0.199619796492 0.811 8.8428266968e-39
0.0225135108825 -0.199619796492 0.811 8.65879557077e-39
0.0240144116081 -0.199619796492 0.811 8.84247637218e-39
0.0254523892452 -0.199127515859 0.809 8.84247637218e-39
0.0269495886125 -0.199127515859 0.809 8.47334633071e-39
0.0283764621753 -0.198635235227 0.807 8.84177011775e-39
0.0298699601845 -0.198635235227 0.807 8.84177011775e-39
0.0313634581937 -0.198635235227 0.807 9.39528301116e-39
0.0328569562029 -0.198635235227 0.807 8.56516641258e-39
0.0327329607053 -0.189281903209 0.769 1.09564317952e-38
0.0341561329098 -0.189281903209 0.769 1.69463591524e-38
0.0355793051144 -0.189281903209 0.769 2.03604112646e-38
-0.0346058479238 -0.198607475041 0.813 1.1790225401e-38
-0.0330198159611 -0.198118895766 0.811 1.40914965936e-38
-0.0315189152356 -0.198118895766 0.811 1.55666112571e-38
-0.0299439873473 -0.197630316492 0.809 1.37223777625e-38
-0.0283764621753 -0.197141737218 0.807 1.03107316797e-38
-0.026882964166 -0.197141737218 0.807 1.03143694505e-38
-0.0253894661568 -0.197141737218 0.807 1.05912898492e-38
-0.0238959681476 -0.197141737218 0.807 1.05909535375e-38
-0.0224579905105 -0.197630316492 0.809 1.10504869481e-38
-0.021012610157 -0.198118895766 0.811 1.0498022226e-38
-0.0195117094315 -0.198118895766 0.811 1.00392048789e-38
-0.018010808706 -0.198118895766 0.811 9.94737919182e-39
-0.0165506229201 -0.198607475041 0.813 9.66971890761e-39
-0.0150830344178 -0.199096054315 0.815 1.03154442465e-38
-0.013574730976 -0.199096054315 0.815 9.85483043475e-39
-0.0120960383994 -0.19958463359 0.817 1.05927486009e-38
-0.0105840335994 -0.19958463359 0.817 9.94737919182e-39
-0.00909423694836 -0.200073212864 0.819 1.1053373623e-38
-0.0075785307903 -0.200073212864 0.819 9.94773231904e-39
-0.00606282463224 -0.200073212864 0.819 1.06852973579e-38
-0.00454711847418 -0.200073212864 0.819 9.85483043475e-39
-0.00303141231612 -0.200073212864 0.819 9.57932254497e-39
-0.00151570615806 -0.200073212864 0.819 9.7637138047e-39
0.0 -0.200561792138 0.821 9.57967847478e-39
0.0015194075162 -0.200561792138 0.821 9.85448571532e-39
0.0030388150324 -0.200561792138 0.821 9.67008604781e-39
0.0045582225486 -0.200561792138 0.821 9.4864108516e-39
0.0060776300648 -0.200561792138 0.821 9.67007483742e-39
0.007597037581 -0.200561792138 0.821 9.85516814768e-39
0.00909423694836 -0.200073212864 0.819 9.8562429436e-39
0.0106099431064 -0.200073212864 0.819 9.02685502022e-39
0.0121552601296 -0.200561792138 0.821 9.39383546985e-39
0.0136413554225 -0.200073212864 0.819 9.39312641283e-39
0.0151570615806 -0.200073212864 0.819 9.30237832428e-39
0.0166727677387 -0.200073212864 0.819 9.02615156839e-39
0.0181440575991 -0.19958463359 0.817 8.93395313593e-39
0.019656062399 -0.19958463359 0.817 9.02757108374e-39
0.021064429171 -0.198607475041 0.813 8.65952704857e-39
0.0225690312546 -0.198607475041 0.813 8.93572577849e-39
0.0240144116081 -0.198118895766 0.811 8.93467480464e-39
0.0255153123336 -0.198118895766 0.811 9.0268704345e-39
0.0270162130591 -0.198118895766 0.811 8.65844524616e-39
0.0284467879799 -0.197630316492 0.809 8.93504755003e-39
0.0299439873473 -0.197630316492 0.809 1.00384986245e-38
0.0314411867146 -0.197630316492 0.809 8.74814095956e-39
0.032938386082 -0.197630316492 0.809 1.12337599717e-38
0.0326478294681 -0.18737015173 0.767 1.78690203041e-38
0.0340673003145 -0.18737015173 0.767 1.97147013401e-38
0.0354867711609 -0.18737015173 0.767 1.89786104671e-38
-0.0315189152356 -0.196617995041 0.811 1.35408437504e-38
-0.0299439873473 -0.196133117125 0.809 1.51963994133e-38
-0.0284467879799 -0.196133117125 0.809 1.40914811793e-38
-0.0269495886125 -0.196133117125 0.809 1.0406192335e-38
-0.0254523892452 -0.196133117125 0.809 1.07728462821e-38
-0.0239551898778 -0.196133117125 0.809 1.0500552971e-38
-0.0225135108825 -0.196617995041 0.811 1.00381328856e-38
-0.021012610157 -0.196617995041 0.811 1.01299753882e-38
-0.0195117094315 -0.196617995041 0.811 1.02225241453e-38
-0.018010808706 -0.196617995041 0.811 1.02221738207e-38
-0.0165506229201 -0.197102872957 0.813 9.4856807751e-39
-0.0150830344178 -0.197587750873 0.815 1.01324935216e-38
-0.0136080431993 -0.19807262879 0.817 9.30273145149e-39
-0.0120960383994 -0.19807262879 0.817 9.11834719825e-39
-0.0105840335994 -0.19807262879 0.817 9.57787640496e-39
-0.00909423694836 -0.198557506706 0.819 9.48603109971e-39
-0.0075785307903 -0.198557506706 0.819 9.67006923222e-39
-0.00606282463224 -0.198557506706 0.819 9.57822672957e-39
-0.00454711847418 -0.198557506706 0.819 9.76227186858e-39
-0.00303141231612 -0.198557506706 0.819 9.30237832428e-39
-0.00151570615806 -0.198557506706 0.819 9.76226906598e-39
0.0 -0.199042384622 0.821 8.93395593853e-39
0.0015194075162 -0.199042384622 0.821 9.67044197762e-39
0.0030388150324 -0.199042384622 0.821 9.67007483742e-39
0.0045582225486 -0.199042384622 0.821 9.39492708135e-39
0.0060776300648 -0.199042384622 0.821 9.39527740597e-39
0.007597037581 -0.199042384622 0.821 8.93465939036e-39
0.0091164450972 -0.199042384622 0.821 8.65914869799e-39
0.0106358526134 -0.199042384622 0.821 9.11906326177e-39
0.0121552601296 -0.199042384622 0.821 9.11941638898e-39
0.0136746676458 -0.199042384622 0.821 9.3038118526e-39
0.015194075162 -0.199042384622 0.821 9.21161482144e-39
0.0166727677387 -0.198557506706 0.819 9.3030817761e-39
0.0181884738967 -0.198557506706 0.819 9.02650189301e-39
0.019656062399 -0.19807262879 0.817 9.11869752287e-39
0.0211162481849 -0.197587750873 0.815 8.93502512926e-39
0.0225690312546 -0.197102872957 0.813 9.11869752287e-39
0.0240736333383 -0.197102872957 0.813 9.02686763191e-39
0.0255153123336 -0.196617995041 0.811 9.11834719825e-39
0.0269495886125 -0.196133117125 0.809 9.30273425409e-39
0.0284467879799 -0.196133117125 0.809 8.38078215935e-39
0.0298699601845 -0.195648239208 0.807 7.82471469884e-39
0.0313634581937 -0.195648239208 0.807 1.39970728992e-38
0.0312283586216 -0.185950680883 0.767 1.86058272406e-38
0.0326052638495 -0.185708241925 0.766 2.03586077935e-38
0.0340228840168 -0.185708241925 0.766 1.87012780868e-38
0.0352554362772 -0.184738486093 0.762 1.71328733793e-38
0.0366656537283 -0.184738486093 0.762 1.96214183026e-38
-0.0284467879799 -0.194635917757 0.809 1.51996209984e-38
-0.0269495886125 -0.194635917757 0.809 1.47372135247e-38
-0.0254523892452 -0.194635917757 0.809 1.25227135355e-38
-0.0239551898778 -0.194635917757 0.809 9.48244097305e-39
-0.0225690312546 -0.195598270874 0.813 1.03154554568e-38
-0.021064429171 -0.195598270874 0.813 1.05909563401e-38
-0.0195598270874 -0.195598270874 0.813 1.03147253803e-38
-0.0180552250037 -0.195598270874 0.813 1.0592382862e-38
-0.0165506229201 -0.195598270874 0.813 1.10537141385e-38
-0.0151200479992 -0.19656062399 0.817 1.03172435137e-38
-0.0136080431993 -0.19656062399 0.817 1.01332025786e-38
-0.0121256492645 -0.197041800548 0.819 9.67187130205e-39
-0.0106099431064 -0.197041800548 0.819 9.67186849945e-39
-0.00909423694836 -0.197041800548 0.819 1.0224691954e-38
-0.007597037581 -0.197522977106 0.821 9.94809805793e-39
-0.0060776300648 -0.197522977106 0.821 1.01314243308e-38
-0.0045582225486 -0.197522977106 0.821 9.7637138047e-39
-0.0030388150324 -0.197522977106 0.821 9.85553949177e-39
-0.0015194075162 -0.197522977106 0.821 1.00392020763e-38
0.0 -0.197522977106 0.821 9.48712691511e-39
0.0015194075162 -0.197522977106 0.821 9.85446749844e-39
0.00304621774868 -0.198004153664 0.823 9.67007483742e-39
0.00456932662302 -0.198004153664 0.823 9.30273145149e-39
0.00609243549736 -0.198004153664 0.823 9.11941638898e-39
0.007597037581 -0.197522977106 0.821 9.30416217722e-39
0.0091164450972 -0.197522977106 0.821 9.1197695162e-39
0.0106358526134 -0.197522977106 0.821 9.21161201885e-39
0.0121552601296 -0.197522977106 0.821 8.93505035263e-39
0.0136746676458 -0.197522977106 0.821 9.2105596437e-39
0.015194075162 -0.197522977106 0.821 9.30347413967e-39
0.0167134826782 -0.197522977106 0.821 9.11941638898e-39
0.0182328901944 -0.197522977106 0.821 8.65846066044e-39
0.0197041800548 -0.197041800548 0.819 9.30131193614e-39
0.0211162481849 -0.196079447432 0.815 9.48460878177e-39
0.0226245516267 -0.196079447432 0.815 9.57680721423e-39
0.0240736333383 -0.195598270874 0.813 1.08664488156e-38
0.0255153123336 -0.195117094315 0.811 1.19741962711e-38
0.0269495886125 -0.194635917757 0.809 7.82504960917e-39
0.0284467879799 -0.194635917757 0.809 1.0955731146e-38
0.0298699601845 -0.194154741199 0.807 1.66704504912e-38
0.0313634581937 -0.194154741199 0.807 1.91582919627e-38
0.031024783924 -0.183328268642 0.762 2.10043709674e-38
0.0324350013751 -0.183328268642 0.762 1.80577051424e-38
0.0339340514215 -0.1838094452 0.764 1.72265179518e-38
0.0352554362772 -0.183328268642 0.762 1.85172469608e-38
0.0366656537283 -0.183328268642 0.762 1.92540833245e-38
-0.0285171137846 -0.19361619359 0.811 1.41858600322e-38
-0.0270162130591 -0.19361619359 0.811 1.38166865505e-38
-0.0255153123336 -0.19361619359 0.811 1.53807710548e-38
-0.0240144116081 -0.19361619359 0.811 1.46446521559e-38
-0.0225690312546 -0.19409366879 0.813 1.12344928508e-38
-0.021064429171 -0.19409366879 0.813 9.85086756269e-39
-0.0195598270874 -0.19409366879 0.813 9.94668134519e-39
-0.0180552250037 -0.19409366879 0.813 9.76371940989e-39
-0.0165913378596 -0.19457114399 0.815 8.19533151798e-39
-0.0151200479992 -0.19504861919 0.817 8.37756337677e-39
-0.0136413554225 -0.19552609439 0.819 8.37791370139e-39
-0.0121256492645 -0.19552609439 0.819 8.00981221299e-39
-0.0106099431064 -0.19552609439 0.819 9.02544811656e-39
-0.0091164450972 -0.19600356959 0.821 9.58004421368e-39
-0.007597037581 -0.19600356959 0.821 8.84355817459e-39
-0.0060776300648 -0.19600356959 0.821 9.39457535544e-39
-0.0045582225486 -0.19600356959 0.821 9.39457535544e-39
-0.0030388150324 -0.19600356959 0.821 9.11834719825e-39
-0.0015194075162 -0.19600356959 0.821 9.11834719825e-39
0.0 -0.19648104479 0.823 9.02615156839e-39
0.00152310887434 -0.19648104479 0.823 9.48638142433e-39
0.00304621774868 -0.19648104479 0.823 9.39385508803e-39
0.00458043069744 -0.19695851999 0.825 8.28752995044e-39
0.00609243549736 -0.19648104479 0.823 8.65844524616e-39
0.0076155443717 -0.19648104479 0.823 9.30271603721e-39
0.00913865324604 -0.19648104479 0.823 9.02686763191e-39
0.0106617621204 -0.19648104479 0.823 8.65846066044e-39
0.0121848709947 -0.19648104479 0.823 8.7506562903e-39
0.0136746676458 -0.19600356959 0.821 9.30237832428e-39
0.015194075162 -0.19600356959 0.821 9.30237832428e-39
0.0167134826782 -0.19600356959 0.821 9.48603109971e-39
0.0182328901944 -0.19600356959 0.821 9.11726819844e-39
0.0197522977106 -0.19600356959 0.821 1.03157917685e-38
0.0211680671989 -0.19504861919 0.817 1.07742517845e-38
0.0226245516267 -0.19457114399 0.815 9.85159343529e-39
0.0240736333383 -0.19409366879 0.813 1.1048321942e-38
0.0255153123336 -0.19361619359 0.811 1.25209114657e-38
0.0269495886125 -0.19313871839 0.809 1.54711632135e-38
0.0283764621753 -0.19266124319 0.807 1.89739161173e-38
0.0297959330217 -0.19218376799 0.805 2.24798009231e-38
0.0312857296728 -0.19218376799 0.805 1.99005471476e-38
0.031024783924 -0.181918051191 0.762 1.63063469074e-38
0.0324350013751 -0.181918051191 0.762 1.78715244245e-38
0.0338452188261 -0.181918051191 0.762 1.842506114e-38
0.0352554362772 -0.181918051191 0.762 2.01760424257e-38
-0.0285171137846 -0.192115292864 0.811 1.13306849839e-38
-0.0270162130591 -0.192115292864 0.811 1.13303360605e-38
-0.0255153123336 -0.192115292864 0.811 1.37266811501e-38
-0.0240144116081 -0.192115292864 0.811 1.33550049493e-38
-0.0225690312546 -0.192589066706 0.813 1.5749923517e-38
-0.021064429171 -0.192589066706 0.813 1.48290616325e-38
-0.0195598270874 -0.192589066706 0.813 1.16022117847e-38
-0.0180552250037 -0.192589066706 0.813 1.0771028798e-38
-0.0165913378596 -0.193062840548 0.815 9.85121788731e-39
-0.0151200479992 -0.19353661439 0.817 1.05912898492e-38
-0.0136413554225 -0.194010388232 0.819 1.00374294337e-38
-0.0121256492645 -0.194010388232 0.819 7.73435617126e-39
-0.0106358526134 -0.194484162074 0.821 1.01314551594e-38
-0.0091164450972 -0.194484162074 0.821 9.76371940989e-39
-0.007597037581 -0.194484162074 0.821 9.76443267081e-39
-0.0060776300648 -0.194484162074 0.821 9.57932254497e-39
-0.0045582225486 -0.194484162074 0.821 9.76371940989e-39
-0.00304621774868 -0.194957935915 0.823 9.7637138047e-39
-0.00152310887434 -0.194957935915 0.823 9.39492988395e-39
0.0 -0.194957935915 0.823 9.48712971771e-39
0.00152310887434 -0.194957935915 0.823 9.67007203482e-39
0.00305362046496 -0.195431709757 0.825 9.85482062566e-39
0.00458043069744 -0.195431709757 0.825 9.67007483742e-39
0.00609243549736 -0.194957935915 0.823 9.48748004232e-39
0.0076155443717 -0.194957935915 0.823 9.48712411251e-39
0.00913865324604 -0.194957935915 0.823 9.48712971771e-39
0.0106617621204 -0.194957935915 0.823 9.39637602396e-39
0.0121848709947 -0.194957935915 0.823 9.39457815803e-39
0.0137079798691 -0.194957935915 0.823 1.03158085841e-38
0.0152310887434 -0.194957935915 0.823 1.0315075705e-38
0.0167541976177 -0.194957935915 0.823 1.0499106831e-38
0.0182773064921 -0.194957935915 0.823 1.00359804911e-38
0.0180441209293 -0.177665190688 0.75 1.16925997395e-38
0.0194321302315 -0.177665190688 0.75 1.22468202887e-38
0.0208201395338 -0.177665190688 0.75 1.27070921836e-38
0.024251298529 -0.194010388232 0.819 1.57495577781e-38
0.025767004687 -0.194010388232 0.819 1.98025655564e-38
0.026882964166 -0.191167745181 0.807 2.28485217854e-38
0.0283764621753 -0.191167745181 0.807 2.10061912541e-38
0.0282043490218 -0.180507833739 0.762 1.84246925985e-38
0.0296145664729 -0.180507833739 0.762 1.59372336815e-38
0.031024783924 -0.180507833739 0.762 1.80595212252e-38
0.0324350013751 -0.180507833739 0.762 1.88874686137e-38
0.0338452188261 -0.180507833739 0.762 2.04519174557e-38
0.0352554362772 -0.180507833739 0.762 1.60265748664e-38
-0.0255782354219 -0.191084464623 0.813 1.15161496382e-38
-0.0240736333383 -0.191084464623 0.813 1.25306560952e-38
-0.0225690312546 -0.191084464623 0.813 1.3819585837e-38
-0.021064429171 -0.191084464623 0.813 1.35397549415e-38
-0.0195598270874 -0.191084464623 0.813 1.53832891881e-38
-0.0180996413014 -0.191554537106 0.815 1.56591726259e-38
-0.0165913378596 -0.191554537106 0.815 1.47379450025e-38
-0.0151200479992 -0.19202460959 0.817 1.13263507677e-38
-0.0136413554225 -0.192494682074 0.819 1.1784089115e-38
-0.0121256492645 -0.192494682074 0.819 1.09557507642e-38
-0.0106358526134 -0.192964754557 0.821 9.57606032215e-39
-0.0091164450972 -0.192964754557 0.821 1.00374168221e-38
-0.007597037581 -0.192964754557 0.821 1.01310740062e-38
-0.00609243549736 -0.193434827041 0.823 1.04090888189e-38
-0.00456932662302 -0.193434827041 0.823 1.0040299293e-38
-0.00305362046496 -0.193904899525 0.825 9.67081472301e-39
-0.00152681023248 -0.193904899525 0.825 1.01321431969e-38
0.0 -0.193904899525 0.825 1.01317760567e-38
0.00152681023248 -0.193904899525 0.825 1.06849470333e-38
0.00306102318124 -0.194374972008 0.827 1.05009060982e-38
0.00458043069744 -0.193904899525 0.825 9.85553668917e-39
0.00610724092991 -0.193904899525 0.825 9.76263480488e-39
0.0076155443717 -0.193434827041 0.823 9.76263480488e-39
0.00913865324604 -0.193434827041 0.823 9.67152378003e-39
0.0106876716274 -0.193904899525 0.825 9.66973572319e-39
0.0122144818598 -0.193904899525 0.825 9.57642886364e-39
0.0137079798691 -0.193434827041 0.823 8.28460123665e-39
0.0152310887434 -0.193434827041 0.823 1.29804827114e-38
0.0167541976177 -0.193434827041 0.823 1.04940299267e-38
0.0167449442224 -0.177217326354 0.754 1.47324869449e-38
0.0180441209293 -0.176277181386 0.75 1.60257691197e-38
0.0194321302315 -0.176277181386 0.75 1.78678824498e-38
0.0208201395338 -0.176277181386 0.75 1.86986996976e-38
0.0223562031616 -0.177452362595 0.755 2.16508123698e-38
0.0238163889476 -0.177922435079 0.757 2.08206677452e-38
0.0252173530033 -0.177922435079 0.757 1.83324969686e-38
0.0266886428637 -0.178392507563 0.759 1.49237978165e-38
0.0281673354404 -0.178862580046 0.761 1.65818575997e-38
0.0296145664729 -0.179097616288 0.762 1.90715249631e-38
0.031024783924 -0.179097616288 0.762 1.83357353694e-38
0.0325201326123 -0.179567688772 0.764 1.98094207085e-38
0.0338452188261 -0.179097616288 0.762 1.78729859788e-38
0.0352554362772 -0.179097616288 0.762 1.3541569623e-38
-0.0253506018964 -0.177454213274 0.761 1.22555349638e-38
-0.0255782354219 -0.189579862539 0.813 1.28086891248e-38
-0.0240736333383 -0.189579862539 0.813 1.11480901888e-38
-0.0225690312546 -0.189579862539 0.813 1.18834930241e-38
-0.0211162481849 -0.190046233665 0.815 1.32685952808e-38
-0.0196079447432 -0.190046233665 0.815 1.34515361966e-38
-0.0180996413014 -0.190046233665 0.815 1.50152703763e-38
-0.0165913378596 -0.190046233665 0.815 1.40932944595e-38
-0.0151200479992 -0.19051260479 0.817 1.51974531897e-38
-0.0136413554225 -0.190978975916 0.819 1.53811606158e-38
-0.0121256492645 -0.190978975916 0.819 1.64871536456e-38
-0.0106358526134 -0.191445347041 0.821 1.45517516729e-38
-0.0091164450972 -0.191445347041 0.821 1.32617107015e-38
-0.0076155443717 -0.191911718167 0.823 1.16000663968e-38
-0.00610724092991 -0.192378089292 0.825 1.07710133837e-38
-0.00458043069744 -0.192378089292 0.825 1.12305369852e-38
-0.00306102318124 -0.192844460418 0.827 1.0307507292e-38
-0.00153051159062 -0.192844460418 0.827 1.02160375347e-38
0.0 -0.192844460418 0.827 1.03071597699e-38
0.00153051159062 -0.192844460418 0.827 1.0123138453e-38
0.00306102318124 -0.192844460418 0.827 9.11186058766e-39
0.00459153477185 -0.192844460418 0.827 1.06813218742e-38
0.00612204636247 -0.192844460418 0.827 9.2947846879e-39
0.00763405116239 -0.192378089292 0.825 1.12283747817e-38
0.00916086139487 -0.192378089292 0.825 1.15063881931e-38
0.0106876716274 -0.192378089292 0.825 1.21510541503e-38
0.0111632961483 -0.175821914335 0.754 1.41804720396e-38
0.0124920837203 -0.174889172084 0.75 1.57506115546e-38
0.0138800930225 -0.174889172084 0.75 1.69481009664e-38
0.0153088172643 -0.175355543209 0.752 1.68541284901e-38
0.0167449442224 -0.175821914335 0.754 1.91589982172e-38
0.0180922385851 -0.175355543209 0.752 2.11904970347e-38
0.0194839492455 -0.175355543209 0.752 2.06395162876e-38
0.020931180278 -0.175821914335 0.754 1.94410333552e-38
0.0223562031616 -0.176055099898 0.755 1.58432457909e-38
0.0237534658592 -0.176055099898 0.755 1.51993309296e-38
0.0252173530033 -0.176521471023 0.757 1.63982020217e-38
0.0266886428637 -0.176987842149 0.759 1.81509979889e-38
0.0281673354404 -0.177454213274 0.761 1.91644310513e-38
0.0296145664729 -0.177687398837 0.762 1.85176098971e-38
0.031106213803 -0.178153769963 0.764 1.88885434097e-38
0.0326052638495 -0.178620141088 0.766 1.74127070774e-38
0.0340228840168 -0.178620141088 0.766 1.84272317513e-38
0.0354867711609 -0.178853326651 0.767 2.93877231082e-39
-0.0296922949938 -0.176739851154 0.764 1.23477151794e-38
-0.0282043490218 -0.176277181386 0.762 1.19789522781e-38
-0.0267589686684 -0.176045846502 0.761 1.32704071597e-38
-0.0253506018964 -0.176045846502 0.761 1.22573300272e-38
-0.0239422351243 -0.176045846502 0.761 1.22573328298e-38
-0.0225338683523 -0.176045846502 0.761 1.26246734131e-38
-0.0226800719988 -0.18900059999 0.817 1.30842236393e-38
-0.021012610157 -0.187612590688 0.811 1.12420864872e-38
-0.0195117094315 -0.187612590688 0.811 1.17019688211e-38
-0.0180996413014 -0.188537930223 0.815 1.22537567161e-38
-0.0154106046132 -0.175120506968 0.757 1.45593312963e-38
-0.013972626976 -0.1746578372 0.755 1.55727601548e-38
-0.0125753642784 -0.1746578372 0.755 1.56616935618e-38
-0.0121552601296 -0.189925939525 0.821 1.52929124437e-38
-0.0106358526134 -0.189925939525 0.821 1.54765610152e-38
-0.00913865324604 -0.190388609292 0.823 1.50152269361e-38
-0.00763405116239 -0.19085127906 0.825 1.5658806887e-38
-0.00612204636247 -0.191313948827 0.827 1.65825610516e-38
-0.00459153477185 -0.191313948827 0.827 1.60275894065e-38
-0.00306842589751 -0.191776618595 0.829 1.66718601975e-38
-0.00153421294876 -0.191776618595 0.829 1.68566017818e-38
0.0 -0.191776618595 0.829 1.64860298043e-38
0.00153421294876 -0.191776618595 0.829 1.63927719902e-38
0.00306842589751 -0.191776618595 0.829 1.63949271872e-38
0.00459153477185 -0.191313948827 0.827 1.66708008159e-38
0.00554463449273 -0.173269827898 0.749 1.75902614019e-38
0.00693079311592 -0.173269827898 0.749 1.68544816173e-38
0.00916086139487 -0.19085127906 0.825 1.70403092079e-38
0.00974197462275 -0.173963832549 0.752 1.86083215518e-38
0.0111336852831 -0.173963832549 0.752 1.83320919934e-38
0.0124920837203 -0.173501162782 0.75 2.04536634735e-38
0.0138800930225 -0.173501162782 0.75 1.96264587732e-38
0.0153088172643 -0.173963832549 0.752 1.97190201419e-38
0.0167449442224 -0.174426502316 0.754 1.87030899657e-38
0.0181403562409 -0.174426502316 0.754 1.65836694786e-38
0.0195357682594 -0.174426502316 0.754 1.44653602213e-38
0.020958940464 -0.1746578372 0.755 1.5385129093e-38
0.0223562031616 -0.1746578372 0.755 1.72286857605e-38
0.0237534658592 -0.1746578372 0.755 1.87048906342e-38
0.0252173530033 -0.175120506968 0.757 1.86123390745e-38
0.0266886428637 -0.175583176735 0.759 1.82417670969e-38
0.0281673354404 -0.176045846502 0.761 1.93498943044e-38
0.0296145664729 -0.176277181386 0.762 1.76896863306e-38
0.031106213803 -0.176739851154 0.764 1.67659279621e-38
0.0326052638495 -0.177202520921 0.766 1.89789635944e-38
0.0340673003145 -0.177433855805 0.767 1.62148897618e-38
0.0354867711609 -0.177433855805 0.767 9.85151356128e-39
-0.0361345088353 -0.179227163823 0.781 1.78556028713e-38
-0.0346447121842 -0.178997679619 0.78 1.82236609195e-38
-0.0329457887983 -0.177620774391 0.774 1.77684393043e-38
-0.031106213803 -0.175325932344 0.764 8.37144670898e-39
-0.0296922949938 -0.175325932344 0.764 1.28958793166e-38
-0.0282043490218 -0.174866963935 0.762 1.15186929949e-38
-0.0267589686684 -0.17463747973 0.761 1.18881747623e-38
-0.0253506018964 -0.17463747973 0.761 1.23491739311e-38
-0.0239422351243 -0.17463747973 0.761 1.24417254908e-38
-0.0225338683523 -0.17463747973 0.761 1.41909215222e-38
-0.0211255015803 -0.17463747973 0.761 1.29930817859e-38
-0.0195616777664 -0.173260574503 0.755 1.29009043729e-38
-0.0181644150688 -0.173260574503 0.755 1.41902152678e-38
-0.0167671523712 -0.173260574503 0.755 1.29916748822e-38
-0.0153698896736 -0.173260574503 0.755 1.207004929e-38
-0.013972626976 -0.173260574503 0.755 1.32678890264e-38
-0.0125753642784 -0.173260574503 0.755 1.39139773015e-38
-0.0111781015808 -0.173260574503 0.755 1.4560776035e-38
-0.00978083888321 -0.173260574503 0.755 1.58511673311e-38
-0.00838357618561 -0.173260574503 0.755 1.65876351533e-38
-0.00698631348801 -0.173260574503 0.755 1.78790956401e-38
-0.00558905079041 -0.173260574503 0.755 1.76947085843e-38
-0.00460263884627 -0.190242405646 0.829 1.6679102108e-38
-0.00306842589751 -0.190242405646 0.829 1.65840352175e-38
-0.00153421294876 -0.190242405646 0.829 1.88885378045e-38
0.0 -0.190242405646 0.829 1.83350319175e-38
0.00153421294876 -0.190242405646 0.829 1.86119761382e-38
0.00306842589751 -0.190242405646 0.829 1.82424551345e-38
0.00416402790676 -0.172113153479 0.75 1.92569924201e-38
0.00554463449273 -0.171883669275 0.749 1.93491880499e-38
0.00693079311592 -0.171883669275 0.749 1.95361030482e-38
0.00916086139487 -0.189324468827 0.825 1.95364659845e-38
0.00974197462275 -0.172572121889 0.752 1.9166960395e-38
0.0111336852831 -0.172572121889 0.752 1.86123418771e-38
0.0125253959435 -0.172572121889 0.752 1.65851366381e-38
0.0139171066039 -0.172572121889 0.752 1.49256307149e-38
0.0153495322039 -0.173031090298 0.754 1.5016381606e-38
0.0167449442224 -0.173031090298 0.754 1.49237978165e-38
0.0182125327246 -0.173719542912 0.757 1.64010732823e-38
0.0196134967804 -0.173719542912 0.757 1.70482461624e-38
0.0210144608361 -0.173719542912 0.757 1.7874799259e-38
0.0224746466221 -0.174178511321 0.759 1.78740607747e-38
0.023879312036 -0.174178511321 0.759 1.81510007915e-38
0.0252839774498 -0.174178511321 0.759 1.83361095161e-38
0.0267589686684 -0.17463747973 0.761 1.79669724681e-38
0.0282043490218 -0.174866963935 0.762 1.66762364526e-38
0.0296145664729 -0.174866963935 0.762 1.73219828109e-38
0.031106213803 -0.175325932344 0.764 1.75981941525e-38
0.0326052638495 -0.175784900754 0.766 1.8610176871e-38
0.0340673003145 -0.176014384958 0.767 1.57535556827e-38
0.0355793051144 -0.176473353368 0.769 1.23297351188e-38
-0.0361345088353 -0.17778178347 0.781 1.73960862763e-38
-0.0345558795889 -0.177098882893 0.778 1.83180229568e-38
-0.0329032231797 -0.175960715265 0.773 1.79531878951e-38
-0.031106213803 -0.173912013535 0.764 1.0029876435e-38
-0.0296922949938 -0.173912013535 0.764 1.18812677622e-38
-0.0282783761846 -0.173912013535 0.764 1.28087059404e-38
-0.0267941315707 -0.173456746484 0.762 1.23502459244e-38
-0.0253506018964 -0.173229112958 0.761 1.207366464e-38
-0.0239422351243 -0.173229112958 0.761 1.18889202531e-38
-0.0225338683523 -0.173229112958 0.761 1.30856641741e-38
-0.0210699812082 -0.172773845907 0.759 1.32696910962e-38
-0.0195616777664 -0.171863311805 0.755 1.37313684935e-38
-0.0181644150688 -0.171863311805 0.755 1.37299433729e-38
-0.0167671523712 -0.171863311805 0.755 1.36377505457e-38
-0.0153698896736 -0.171863311805 0.755 1.35455549158e-38
-0.013972626976 -0.171863311805 0.755 1.47437379703e-38
-0.0125753642784 -0.171863311805 0.755 1.18860489925e-38
-0.0111781015808 -0.171863311805 0.755 1.28991261251e-38
-0.00978083888321 -0.171863311805 0.755 1.32689848418e-38
-0.00838357618561 -0.171863311805 0.755 1.27154369159e-38
-0.00698631348801 -0.171863311805 0.755 1.37292427237e-38
-0.00558905079041 -0.171863311805 0.755 1.36366967692e-38
-0.0041917880928 -0.171863311805 0.755 1.48356000911e-38
-0.0027945253952 -0.171863311805 0.755 1.59444363556e-38
-0.00139171066039 -0.171180411228 0.752 1.74191880828e-38
0.0 -0.171180411228 0.752 1.65880275169e-38
0.00139171066039 -0.171180411228 0.752 1.68646130052e-38
0.00277601860451 -0.170725144177 0.75 1.79705906207e-38
0.00416402790676 -0.170725144177 0.75 1.59426314832e-38
0.00554463449273 -0.170497510652 0.749 1.55738741871e-38
0.00693079311592 -0.170497510652 0.749 1.42845843116e-38
0.00835026396236 -0.171180411228 0.752 1.39147101806e-38
0.00976788412972 -0.171635678279 0.754 1.45579089784e-38
0.0111632961483 -0.171635678279 0.754 1.49263341667e-38
0.0125587081668 -0.171635678279 0.754 1.43735303303e-38
0.0139541201853 -0.171635678279 0.754 1.69553260613e-38
0.0153495322039 -0.171635678279 0.754 1.75059957201e-38
0.0167671523712 -0.171863311805 0.755 1.72297857798e-38
0.0182606503804 -0.172773845907 0.759 1.71393866145e-38
0.0196653157943 -0.172773845907 0.759 1.69553442781e-38
0.0210699812082 -0.172773845907 0.759 1.72297829772e-38
0.0224746466221 -0.172773845907 0.759 1.78751551888e-38
0.023879312036 -0.172773845907 0.759 1.75063642616e-38
0.0253506018964 -0.173229112958 0.761 1.65826283139e-38
0.0267589686684 -0.173229112958 0.761 1.62167254628e-38
0.0282043490218 -0.173456746484 0.762 1.72297857798e-38
0.0296922949938 -0.173912013535 0.764 1.82439293005e-38
0.0311876436821 -0.174367280586 0.766 1.73219533837e-38
0.0326478294681 -0.174594914112 0.767 1.92548246113e-38
0.0343782143982 -0.176188348791 0.774 1.51989357635e-38
-0.0362270427888 -0.176787968809 0.783 1.74882566828e-38
-0.0345558795889 -0.175659054577 0.778 1.7489694415e-38
-0.0329032231797 -0.174530140344 0.773 1.82308635936e-38
-0.0311876436821 -0.172949660419 0.766 1.27046160892e-38
-0.0297700235147 -0.172949660419 0.766 8.19464908563e-39
-0.0282783761846 -0.172498094726 0.764 6.902485147e-39
-0.0267941315707 -0.172046529033 0.762 1.33533247925e-38
-0.0253506018964 -0.171820746186 0.761 1.20740177673e-38
-0.0239422351243 -0.171820746186 0.761 1.29045141177e-38
-0.0225338683523 -0.171820746186 0.761 1.24445981526e-38
-0.0210699812082 -0.171369180493 0.759 1.30878137659e-38
-0.0195616777664 -0.170466049107 0.755 1.31800093958e-38
-0.0181644150688 -0.170466049107 0.755 1.36399113479e-38
-0.0167671523712 -0.170466049107 0.755 1.38228606715e-38
-0.0153698896736 -0.170466049107 0.755 1.40072533325e-38
-0.0140096405574 -0.1709176148 0.757 1.41916403884e-38
-0.0126086765017 -0.1709176148 0.757 1.4375312782e-38
-0.0112077124459 -0.1709176148 0.757 1.41902152678e-38
-0.00978083888321 -0.170466049107 0.755 1.43749596548e-38
-0.00838357618561 -0.170466049107 0.755 1.52065013739e-38
-0.00698631348801 -0.170466049107 0.755 1.6219947048e-38
-0.00558905079041 -0.170466049107 0.755 1.66801965221e-38
-0.0041862360556 -0.170240266261 0.754 1.59440958401e-38
-0.00279082403706 -0.170240266261 0.754 1.55760223776e-38
-0.00139171066039 -0.169788700568 0.752 1.47469917854e-38
0.0 -0.169337134875 0.75 1.57614744203e-38
0.00138800930225 -0.169337134875 0.75 1.5021419274e-38
0.00277601860451 -0.169337134875 0.75 1.50217541843e-38
0.00417513198118 -0.169788700568 0.752 1.63114364234e-38
0.00555203720901 -0.169337134875 0.75 1.54809695002e-38
0.00694004651127 -0.169337134875 0.75 1.64961836129e-38
0.00835026396236 -0.169788700568 0.752 1.6588356822e-38
0.00976788412972 -0.170240266261 0.754 1.60337607249e-38
0.0111632961483 -0.170240266261 0.754 1.61266794248e-38
0.0125587081668 -0.170240266261 0.754 1.62192281818e-38
0.0139541201853 -0.170240266261 0.754 1.65880008922e-38
0.0153495322039 -0.170240266261 0.754 1.65880036948e-38
0.0167671523712 -0.170466049107 0.755 1.67713285664e-38
0.0182606503804 -0.171369180493 0.759 1.72326542377e-38
0.0196653157943 -0.171369180493 0.759 1.73252057974e-38
0.0210699812082 -0.171369180493 0.759 1.65876505676e-38
0.0224746466221 -0.171369180493 0.759 1.66798461974e-38
0.023879312036 -0.171369180493 0.759 1.6679849e-38
0.0253506018964 -0.171820746186 0.761 1.69549883483e-38
0.0267589686684 -0.171820746186 0.761 1.69546380237e-38
0.0282043490218 -0.172046529033 0.762 1.76918121003e-38
0.0296922949938 -0.172498094726 0.764 1.76911142537e-38
0.0312283586216 -0.173175443265 0.767 1.76903953876e-38
0.0329032231797 -0.174530140344 0.773 1.9163345045e-38
0.0343782143982 -0.174755923191 0.774 1.50141731597e-38
0.0358106399981 -0.174755923191 0.774 7.16316870032e-39
-0.0363195767423 -0.175786751433 0.785 1.7673354197e-38
-0.0346891284819 -0.174891022763 0.781 1.85960391708e-38
-0.0330309200355 -0.173771361926 0.776 1.86910878443e-38
-0.0314726482588 -0.173099565424 0.773 8.82988290288e-39
-0.029964344817 -0.172651701089 0.771 1.22505379335e-38
-0.0283894169288 -0.171755972419 0.767 1.2989875615e-38
-0.02693478318 -0.171532040252 0.766 1.26153323575e-38
-0.0254505385661 -0.171084175917 0.764 1.26246734131e-38
-0.0239736966685 -0.170636311582 0.762 1.25364420566e-38
-0.0225634792174 -0.170636311582 0.762 1.25367937825e-38
-0.0211255015803 -0.170412379414 0.761 1.26268384192e-38
-0.0197171348083 -0.170412379414 0.761 1.29027190544e-38
-0.0182606503804 -0.16996451508 0.759 1.34544508974e-38
-0.0168115686689 -0.169516650745 0.757 1.43760470624e-38
-0.0154106046132 -0.169516650745 0.757 1.4007621874e-38
-0.0140096405574 -0.169516650745 0.757 1.48373853454e-38
-0.0126086765017 -0.169516650745 0.757 1.40065498807e-38
-0.0112077124459 -0.169516650745 0.757 1.43753281963e-38
-0.00978083888321 -0.16906878641 0.755 1.45600767871e-38
-0.00838357618561 -0.16906878641 0.755 1.47462561037e-38
-0.00698631348801 -0.16906878641 0.755 1.44700321504e-38
-0.00558905079041 -0.16906878641 0.755 1.44696818258e-38
-0.0041862360556 -0.168844854242 0.754 1.49299537206e-38
-0.00279082403706 -0.168844854242 0.754 1.44693258959e-38
-0.00139171066039 -0.168396989908 0.752 1.52061650622e-38
0.0 -0.167949125573 0.75 1.51139652285e-38
0.00138800930225 -0.167949125573 0.75 1.52987166219e-38
0.00277601860451 -0.167949125573 0.75 1.52987166219e-38
0.00417513198118 -0.168396989908 0.752 1.52983634947e-38
0.00556684264157 -0.168396989908 0.752 1.58508170065e-38
0.00695855330196 -0.168396989908 0.752 1.55735056456e-38
0.00835026396236 -0.168396989908 0.752 1.57568207081e-38
0.00976788412972 -0.168844854242 0.754 1.67727676999e-38
0.0111632961483 -0.168844854242 0.754 1.57593192232e-38
0.0125587081668 -0.168844854242 0.754 1.65883806441e-38
0.0139541201853 -0.168844854242 0.754 1.61277458129e-38
0.0153698896736 -0.16906878641 0.755 1.67738438971e-38
0.0167671523712 -0.16906878641 0.755 1.68656892024e-38
0.0182606503804 -0.16996451508 0.759 1.61273954883e-38
0.0196653157943 -0.16996451508 0.759 1.61259731703e-38
0.0210699812082 -0.16996451508 0.759 1.61281269661e-38
0.0224746466221 -0.16996451508 0.759 1.64050571738e-38
0.023879312036 -0.16996451508 0.759 1.69557086157e-38
0.0253506018964 -0.170412379414 0.761 1.69556974053e-38
0.0267589686684 -0.170412379414 0.761 1.72323039131e-38
0.0282783761846 -0.171084175917 0.764 1.74156007587e-38
0.0297700235147 -0.171532040252 0.766 1.82435663642e-38
0.0313912183798 -0.172651701089 0.771 1.76885933178e-38
0.0329457887983 -0.173323497591 0.774 1.95328534371e-38
0.0343782143982 -0.173323497591 0.774 1.40918469182e-38
0.0358106399981 -0.173323497591 0.774 1.34238030987e-38
-0.0362270427888 -0.173889805386 0.783 1.70279875905e-38
-0.0346891284819 -0.17344564241 0.781 1.93325041904e-38
-0.0330309200355 -0.172335234968 0.776 1.90587941666e-38
-0.0315133631984 -0.171891071991 0.774 1.02149487258e-38
-0.030042073338 -0.171668990503 0.773 8.55434558584e-39
-0.0285374712543 -0.171224827526 0.771 1.27139711577e-38
-0.0269699460823 -0.170336501573 0.767 7.08355673067e-39
-0.0255171630126 -0.170114420084 0.766 1.39917241429e-38
-0.0240995428453 -0.170114420084 0.766 1.37295706275e-38
-0.0225634792174 -0.169226094131 0.762 1.29948978687e-38
-0.0211255015803 -0.169004012642 0.761 1.30878165685e-38
-0.0197171348083 -0.169004012642 0.761 1.29034211049e-38
-0.0182606503804 -0.168559849666 0.759 1.37306776533e-38
-0.0168559849666 -0.168559849666 0.759 1.34540977702e-38
-0.0154106046132 -0.168115686689 0.757 1.36402840933e-38
-0.0140096405574 -0.168115686689 0.757 1.41016223763e-38
-0.0126086765017 -0.168115686689 0.757 1.41920159363e-38
-0.0112077124459 -0.168115686689 0.757 1.41920159363e-38
-0.00978083888321 -0.167671523712 0.755 1.4653357022e-38
-0.00838357618561 -0.167671523712 0.755 1.5023203127e-38
-0.00698631348801 -0.167671523712 0.755 1.50228528023e-38
-0.00558905079041 -0.167671523712 0.755 1.55760363906e-38
-0.0041917880928 -0.167671523712 0.755 1.50253891526e-38
-0.00279082403706 -0.167449442224 0.754 1.49310201088e-38
-0.00139541201853 -0.167449442224 0.754 1.52990669465e-38
0.0 -0.167005279247 0.752 1.53008648125e-38
0.00139171066039 -0.167005279247 0.752 1.60369977243e-38
0.00278342132079 -0.167005279247 0.752 1.53912751881e-38
0.0041862360556 -0.167449442224 0.754 1.57611367074e-38
0.00558164807413 -0.167449442224 0.754 1.53923611944e-38
0.00697706009266 -0.167449442224 0.754 1.55738741871e-38
0.00837247211119 -0.167449442224 0.754 1.62192407935e-38
0.00976788412972 -0.167449442224 0.754 1.56678662816e-38
0.0111781015808 -0.167671523712 0.755 1.58533351398e-38
0.0125753642784 -0.167671523712 0.755 1.55756734543e-38
0.013972626976 -0.167671523712 0.755 1.62203225959e-38
0.0153698896736 -0.167671523712 0.755 1.59444517699e-38
0.0168115686689 -0.168115686689 0.757 1.54834736205e-38
0.0182606503804 -0.168559849666 0.759 1.59426609104e-38
0.0196653157943 -0.168559849666 0.759 1.67720614455e-38
0.0211255015803 -0.169004012642 0.761 1.70490014623e-38
0.0225338683523 -0.169004012642 0.761 1.68646074e-38
0.0239422351243 -0.169004012642 0.761 1.72326542377e-38
0.0253506018964 -0.169004012642 0.761 1.70475441119e-38
0.0267941315707 -0.169226094131 0.762 1.69549883483e-38
0.0283894169288 -0.170336501573 0.767 1.75067145862e-38
0.029964344817 -0.171224827526 0.771 1.75989158212e-38
0.0314726482588 -0.171668990503 0.773 1.75981969551e-38
0.0329457887983 -0.171891071991 0.774 1.93495383745e-38
0.0344670469936 -0.172335234968 0.776 1.37230672014e-38
0.0359031739516 -0.172335234968 0.776 8.90804312733e-39
-0.0362270427888 -0.172440723675 0.783 1.77640700557e-38
-0.0346447121842 -0.171780031247 0.78 1.73956953141e-38
-0.0330309200355 -0.17089910801 0.776 1.87789828892e-38
-0.0315133631984 -0.170458646391 0.774 1.33499434593e-38
-0.0300809375984 -0.170458646391 0.774 7.17794118873e-39
-0.0286114984171 -0.170238415582 0.773 1.11430413104e-38
-0.027040271887 -0.169357492345 0.769 1.30806265061e-38
-0.0255504752359 -0.168917030726 0.767 7.26684236591e-39
-0.0241310043894 -0.168917030726 0.767 1.19534220214e-38
-0.0226227009477 -0.168256338298 0.764 1.26207497774e-38
-0.0211532617663 -0.16781587668 0.762 1.38205555355e-38
-0.0197430443153 -0.16781587668 0.762 1.45607816402e-38
-0.0183087680363 -0.16759564587 0.761 1.43760470624e-38
-0.0168559849666 -0.167155184252 0.759 1.37339272645e-38
-0.0154513195527 -0.167155184252 0.759 1.36406316153e-38
-0.0140466541388 -0.167155184252 0.759 1.40097728672e-38
-0.0126419887249 -0.167155184252 0.759 1.39172269127e-38
-0.011237323311 -0.167155184252 0.759 1.43782022594e-38
-0.00978083888321 -0.166274261015 0.755 1.42856535023e-38
-0.00838357618561 -0.166274261015 0.755 1.44700475647e-38
-0.00698631348801 -0.166274261015 0.755 1.44703978893e-38
-0.00558905079041 -0.166274261015 0.755 1.45640396592e-38
-0.0041917880928 -0.166274261015 0.755 1.48402748228e-38
-0.0027945253952 -0.166274261015 0.755 1.50250136046e-38
-0.00139541201853 -0.166054030205 0.754 1.49310201088e-38
0.0 -0.166054030205 0.754 1.53012277488e-38
0.00139541201853 -0.166054030205 0.754 1.57614898346e-38
0.00279082403706 -0.166054030205 0.754 1.51154141711e-38
0.0041862360556 -0.166054030205 0.754 1.52987292336e-38
0.00558164807413 -0.166054030205 0.754 1.56675187596e-38
0.00697706009266 -0.166054030205 0.754 1.52987292336e-38
0.00838357618561 -0.166274261015 0.755 1.60359411453e-38
0.00978083888321 -0.166274261015 0.755 1.54849253658e-38
0.0111781015808 -0.166274261015 0.755 1.53923611944e-38
0.0125753642784 -0.166274261015 0.755 1.61291961568e-38
0.0140096405574 -0.166714722633 0.757 1.64057872503e-38
0.0154513195527 -0.167155184252 0.759 1.59444489673e-38
0.0168559849666 -0.167155184252 0.759 1.60377039788e-38
0.0182606503804 -0.167155184252 0.759 1.66816482673e-38
0.0196653157943 -0.167155184252 0.759 1.62192407935e-38
0.0211255015803 -0.16759564587 0.761 1.67724145727e-38
0.0225338683523 -0.16759564587 0.761 1.67727648973e-38
0.0239422351243 -0.16759564587 0.761 1.67716760884e-38
0.0253506018964 -0.16759564587 0.761 1.76007136872e-38
0.02693478318 -0.168696799917 0.766 1.7140092869e-38
0.0284634440915 -0.169357492345 0.769 1.76007136872e-38
0.029964344817 -0.169797953963 0.771 1.75992885666e-38
0.0314726482588 -0.170238415582 0.773 1.77825854123e-38
0.0329457887983 -0.170458646391 0.774 1.93495439797e-38
0.0344670469936 -0.17089910801 0.776 8.28315369534e-39
0.0359031739516 -0.17089910801 0.776 1.24111155271e-38
-0.0346447121842 -0.170336501573 0.78 1.7488637836e-38
-0.0332011825099 -0.170336501573 0.78 1.88708436087e-38
-0.0315947930774 -0.169462981052 0.776 1.40853631102e-38
-0.0300809375984 -0.169026220791 0.774 8.10274632715e-39
-0.0286114984171 -0.168807840661 0.773 1.30765879639e-38
-0.0271105976916 -0.168371080401 0.771 1.30856333455e-38
-0.0256170996824 -0.16793432014 0.769 1.10541177125e-38
-0.0241939274778 -0.16793432014 0.769 1.02006134425e-38
-0.022711533543 -0.16749755988 0.767 1.27125698593e-38
-0.0212643025105 -0.167279179749 0.766 1.09539585034e-38
-0.0197948633292 -0.166842419489 0.764 1.17854357628e-38
-0.0183328268642 -0.166405659229 0.762 1.59400152589e-38
-0.0169226094131 -0.166405659229 0.762 1.42856506997e-38
-0.0154920344922 -0.166187279098 0.761 1.38253788048e-38
-0.0140836677202 -0.166187279098 0.761 1.42860066295e-38
-0.0126753009482 -0.166187279098 0.761 1.41008866946e-38
-0.0112669341762 -0.166187279098 0.761 1.41909341339e-38
-0.00978083888321 -0.164876998317 0.755 1.40994671793e-38
-0.00838357618561 -0.164876998317 0.755 1.42856535023e-38
-0.00698631348801 -0.164876998317 0.755 1.44718440293e-38
-0.00558905079041 -0.164876998317 0.755 1.47469889828e-38
-0.0041917880928 -0.164876998317 0.755 1.5300158558e-38
-0.0027945253952 -0.164876998317 0.755 1.51161176229e-38
-0.0013972626976 -0.164876998317 0.755 1.47484239124e-38
0.0 -0.164876998317 0.755 1.45633362073e-38
0.0013972626976 -0.164876998317 0.755 1.51161330372e-38
0.0027945253952 -0.164876998317 0.755 1.55763895178e-38
0.0041917880928 -0.164876998317 0.755 1.62213917867e-38
0.00558905079041 -0.164876998317 0.755 1.54834736205e-38
