# .PCD v0.7 - Point Cloud Data file format
VERSION 0.7
FIELDS x y z rgb
SIZE 4 4 4 4
TYPE F F F F
COUNT 1 1 1 1
WIDTH 858
HEIGHT 1
VIEWPOINT 0 0 0 1 0 0 0
POINTS 858
DATA ascii
0.0328569562029 -0.123960334766 0.807 1.52856985592e-38
0.0343504542122 -0.123960334766 0.807 1.51959916354e-38
0.0358439522214 -0.123960334766 0.807 1.48264972563e-38
0.0373374502306 -0.123960334766 0.807 1.4090367147e-38
0.0388309482398 -0.123960334766 0.807 1.41807621084e-38
0.0403244462491 -0.123960334766 0.807 1.45474020425e-38
0.0418179442583 -0.123960334766 0.807 1.41786545555e-38
0.0433114422675 -0.123960334766 0.807 1.39949471294e-38
0.0448049402767 -0.123960334766 0.807 1.32566786387e-38
0.0461836961836 -0.12365312204 0.805 1.50091186761e-38
0.0476734928347 -0.12365312204 0.805 1.48286538547e-38
0.0491632894858 -0.12365312204 0.805 1.47353806263e-38
0.0506530861369 -0.12365312204 0.805 1.39045535694e-38
0.052142882788 -0.12365312204 0.805 1.42729759551e-38
0.0534994305461 -0.123345909315 0.803 1.14138772711e-38
0.0546431502111 -0.122577877501 0.798 1.15071448943e-38
0.0561199921087 -0.122577877501 0.798 1.20606689981e-38
0.0575968340063 -0.122577877501 0.798 1.36276289669e-38
0.0590736759039 -0.122577877501 0.798 1.30737293151e-38
0.0600952507504 -0.121656239324 0.792 8.00799332758e-39
0.0617164456154 -0.121963452049 0.794 1.97107202511e-38
0.0631858847967 -0.121963452049 0.794 2.34986359911e-38
0.0 -0.121101035603 0.798 1.97942810799e-38
0.0014768418976 -0.121101035603 0.798 1.44504952472e-38
0.00296108651147 -0.12140454697 0.8 1.48243616775e-38
0.00445273384163 -0.121708058338 0.802 1.38098496153e-38
0.00595918660434 -0.122163325389 0.805 1.7590191337e-38
0.00748599683682 -0.122770348124 0.809 1.58370576569e-38
0.00898319620418 -0.122770348124 0.809 1.46388717997e-38
0.0105063050785 -0.123073859491 0.811 1.35328927829e-38
0.0120368166691 -0.123377370859 0.813 1.33481301791e-38
0.0136080431993 -0.123984393594 0.817 1.26094945481e-38
0.0151200479992 -0.123984393594 0.817 1.740443241e-38
0.0165913378596 -0.123680882226 0.815 1.69455379915e-38
0.0180996413014 -0.123680882226 0.815 1.6759368484e-38
0.0196079447432 -0.123680882226 0.815 1.70356246672e-38
0.0211680671989 -0.123984393594 0.817 1.67593740892e-38
0.0226245516267 -0.123680882226 0.815 1.66682672682e-38
0.0241328550685 -0.123680882226 0.815 1.52853328203e-38
0.0256411585103 -0.123680882226 0.815 1.52853356229e-38
0.0271494619521 -0.123680882226 0.815 1.53771557048e-38
0.0286577653939 -0.123680882226 0.815 1.49176264981e-38
0.0302400959984 -0.123984393594 0.817 1.546900101e-38
0.0318298293193 -0.124287904961 0.819 1.5100225497e-38
0.0333455354773 -0.124287904961 0.819 1.41804145864e-38
0.0348612416354 -0.124287904961 0.819 1.51027240122e-38
0.0366434455795 -0.125198439063 0.825 1.43655219096e-38
0.0375225181376 -0.123073859491 0.811 1.36286855459e-38
0.0390234188631 -0.123073859491 0.811 1.51027240122e-38
0.0405243195886 -0.123073859491 0.811 1.39960191227e-38
0.0419215822862 -0.122770348124 0.809 1.35350605916e-38
0.0434187816536 -0.122770348124 0.809 1.399637225e-38
0.0448049402767 -0.122466836756 0.807 1.35346920501e-38
0.046298438286 -0.122466836756 0.807 1.30740796397e-38
0.0476734928347 -0.122163325389 0.805 1.37212539212e-38
0.0491632894858 -0.122163325389 0.805 1.45499187745e-38
0.0506530861369 -0.122163325389 0.805 1.48250805436e-38
0.052142882788 -0.122163325389 0.805 1.31651808555e-38
0.0534994305461 -0.121859814022 0.803 1.36294086159e-38
0.0547801004623 -0.12140454697 0.8 1.05859144683e-38
0.0561199921087 -0.121101035603 0.798 1.08628348669e-38
0.0574524810389 -0.120797524236 0.796 1.28911387239e-38
0.0586295129272 -0.120190501501 0.792 1.25237799237e-38
0.0600952507504 -0.120190501501 0.792 1.27078208588e-38
0.0617164456154 -0.120494012868 0.794 8.83270932188e-39
0.0631858847967 -0.120494012868 0.794 2.34863620178e-38
0.064655323978 -0.120494012868 0.794 2.34910703807e-38
0.0659582020431 -0.120190501501 0.792 2.32980289055e-38
-0.00293887836264 -0.119024573687 0.794 2.29271023994e-38
-0.00146943918132 -0.119024573687 0.794 1.97942712708e-38
0.0 -0.119324383696 0.796 1.65673611671e-38
0.0014768418976 -0.119624193705 0.798 1.41797083319e-38
0.00296108651147 -0.119924003715 0.8 1.34413978022e-38
0.00445828587884 -0.120373718729 0.803 1.89731552122e-38
0.0059739920369 -0.120973338747 0.807 1.81440657654e-38
0.00750450362752 -0.121572958766 0.811 1.85121644512e-38
0.00900540435302 -0.121572958766 0.811 1.80515324226e-38
0.0105322145855 -0.121872768775 0.813 1.76817129423e-38
0.0120664275343 -0.122172578784 0.815 1.80501129073e-38
0.0136080431993 -0.122472388794 0.817 1.79571928061e-38
0.0151570615806 -0.122772198803 0.819 1.68529766227e-38
0.0166727677387 -0.122772198803 0.819 1.62983987425e-38
0.0181884738967 -0.122772198803 0.819 1.61143676165e-38
0.0197041800548 -0.122772198803 0.819 1.61143676165e-38
0.0212198862128 -0.122772198803 0.819 1.57441403583e-38
0.0227355923709 -0.122772198803 0.819 1.55611938373e-38
0.024251298529 -0.122772198803 0.819 1.52856859475e-38
0.025767004687 -0.122772198803 0.819 1.5195285381e-38
0.0273493352916 -0.123072008812 0.821 1.49205159755e-38
0.0288687428078 -0.123072008812 0.821 1.45492139214e-38
0.0304621774868 -0.123371818821 0.823 1.43655275148e-38
0.0319852863611 -0.123371818821 0.823 1.46410354046e-38
0.0335898251145 -0.123671628831 0.825 1.42729731525e-38
0.035116635347 -0.123671628831 0.825 1.43637240437e-38
0.0366434455795 -0.123671628831 0.825 1.40882175552e-38
0.038170255812 -0.123671628831 0.825 1.3812017424e-38
0.0396970660444 -0.123671628831 0.825 1.36261842281e-38
0.0411239396072 -0.123371818821 0.823 1.39956687981e-38
0.0423361343978 -0.122472388794 0.817 1.36269058968e-38
0.0435261210396 -0.121572958766 0.811 1.35347046618e-38
0.0449159810209 -0.121273148756 0.809 1.33517427265e-38
0.046298438286 -0.120973338747 0.807 1.31680535173e-38
0.0477919362952 -0.120973338747 0.807 1.29832937161e-38
0.0492854343044 -0.120973338747 0.807 1.42744108848e-38
0.0506530861369 -0.120673528738 0.805 1.49176264981e-38
0.052142882788 -0.120673528738 0.805 1.399637225e-38
0.0534994305461 -0.120373718729 0.803 1.26138245604e-38
0.0549170507134 -0.120223813724 0.802 1.01249405228e-38
0.0561199921087 -0.119624193705 0.798 1.04057999714e-38
0.0574524810389 -0.119324383696 0.796 9.94305058087e-39
0.0586295129272 -0.118724763678 0.792 1.27078432795e-38
0.0600952507504 -0.118724763678 0.792 1.2616344095e-38
0.0617164456154 -0.119024573687 0.794 1.09536081788e-38
0.0630267263967 -0.118724763678 0.792 1.48196659263e-38
0.0644924642199 -0.118724763678 0.792 2.34928626414e-38
0.0659582020431 -0.118724763678 0.792 2.34964835966e-38
0.0674239398663 -0.118724763678 0.792 2.27452250691e-38
-0.00441942161837 -0.117851243157 0.796 1.96117325276e-38
-0.00293887836264 -0.117555134506 0.794 2.34809796304e-38
-0.00146943918132 -0.117555134506 0.794 1.88725826201e-38
0.0 -0.117851243157 0.796 1.40846596584e-38
0.0014768418976 -0.118147351808 0.798 1.36283548395e-38
0.00296108651147 -0.118443460459 0.8 1.56530615633e-38
0.00446938995326 -0.119183732087 0.805 1.77731476671e-38
0.00600360290201 -0.12007205804 0.811 1.7589106732e-38
0.00752301041821 -0.120368166691 0.813 1.69441156735e-38
0.00902761250186 -0.120368166691 0.813 1.73125422632e-38
0.0105322145855 -0.120368166691 0.813 1.68526361072e-38
0.0120664275343 -0.120664275343 0.815 1.71295831305e-38
0.0136413554225 -0.121256492645 0.819 1.69448317371e-38
0.015194075162 -0.121552601296 0.821 1.65771282174e-38
0.0167134826782 -0.121552601296 0.821 1.67611887707e-38
0.0182328901944 -0.121552601296 0.821 1.61147235463e-38
0.0198004153664 -0.121848709947 0.823 1.58388569241e-38
0.0212717052268 -0.121552601296 0.821 1.5469348532e-38
0.022791112743 -0.121552601296 0.821 1.57480962238e-38
0.0243105202592 -0.121552601296 0.821 1.5470433137e-38
0.0258299277754 -0.121552601296 0.821 1.5102023363e-38
0.0274159597381 -0.121848709947 0.823 1.46421186083e-38
0.0290093944171 -0.122144818598 0.825 1.45506418445e-38
0.0305362046496 -0.122144818598 0.825 1.43655275148e-38
0.0320630148821 -0.122144818598 0.825 1.44580902849e-38
0.0336712549936 -0.122440927249 0.827 1.41822278666e-38
0.0352017665842 -0.122440927249 0.827 1.38141558054e-38
0.0367322781748 -0.122440927249 0.827 1.39974680654e-38
0.038170255812 -0.122144818598 0.825 1.36283324187e-38
0.0396970660444 -0.122144818598 0.825 1.36275939344e-38
0.0412238762769 -0.122144818598 0.825 1.41807831279e-38
0.0426470484815 -0.121848709947 0.823 1.31673486642e-38
0.0439554785838 -0.121256492645 0.819 1.35361395914e-38
0.0454711847418 -0.121256492645 0.819 1.31666283968e-38
0.0467574066952 -0.120664275343 0.815 1.26131239111e-38
0.0481472666766 -0.120368166691 0.813 1.28907673798e-38
0.0495297239416 -0.12007205804 0.811 1.34436062486e-38
0.0510306246671 -0.12007205804 0.811 1.42755221144e-38
0.0522724303229 -0.119479840738 0.807 1.4367326782e-38
0.0536326794391 -0.119183732087 0.805 1.30744537864e-38
0.054985525839 -0.118887623436 0.803 9.94161424994e-39
0.056260643718 -0.118443460459 0.8 1.04051175391e-38
0.0575968340063 -0.118147351808 0.798 1.01278075795e-38
0.0587775672528 -0.117555134506 0.794 1.06806184224e-38
0.0602470064341 -0.117555134506 0.794 1.33531930704e-38
0.0617164456154 -0.117555134506 0.794 1.26131084969e-38
0.0630267263967 -0.117259025854 0.792 1.08606810711e-38
0.0644924642199 -0.117259025854 0.792 1.6297654653e-38
0.0659582020431 -0.117259025854 0.792 2.34935773036e-38
-0.00441942161837 -0.116378102617 0.796 1.96952765408e-38
-0.00294628107892 -0.116378102617 0.796 2.16381614473e-38
-0.00147314053946 -0.116378102617 0.796 1.43575905603e-38
0.0 -0.116378102617 0.796 1.39967491992e-38
0.0014768418976 -0.11667050991 0.798 1.46417780928e-38
0.00299439873473 -0.118278750022 0.809 1.86054320744e-38
0.00449159810209 -0.118278750022 0.809 1.81447846315e-38
0.00601840833457 -0.118863564608 0.813 1.6299462328e-38
0.00754151720891 -0.119155971901 0.815 1.71292300033e-38
0.00904982065069 -0.119155971901 0.815 1.67604657007e-38
0.0105840335994 -0.119448379194 0.817 1.67608188279e-38
0.0121256492645 -0.119740786487 0.819 1.64845766577e-38
0.0136746676458 -0.12003319378 0.821 1.65757030969e-38
0.0152310887434 -0.120325601073 0.823 1.58384939878e-38
0.0167541976177 -0.120325601073 0.823 1.51920679997e-38
0.0182773064921 -0.120325601073 0.823 1.51920651971e-38
0.0198485330222 -0.120618008366 0.825 1.56544628618e-38
0.0213235242407 -0.120325601073 0.823 1.49179796253e-38
0.0228466331151 -0.120325601073 0.823 1.48250805436e-38
0.0243697419894 -0.120325601073 0.823 1.46403347553e-38
0.0258928508638 -0.120325601073 0.823 1.47328849137e-38
0.0275492086311 -0.120910415659 0.827 1.43648212604e-38
0.0290797202217 -0.120910415659 0.827 1.49204991599e-38
0.0306102318124 -0.120910415659 0.827 1.36312092844e-38
0.0322184719239 -0.121202822952 0.829 1.41807775227e-38
0.0337526848727 -0.121202822952 0.829 1.37201581058e-38
0.0352868978214 -0.121202822952 0.829 1.36283324187e-38
0.0367322781748 -0.120910415659 0.827 1.37194546539e-38
0.0382627897654 -0.120910415659 0.827 1.38134229263e-38
0.0397933013561 -0.120910415659 0.827 1.38122934798e-38
0.0412238762769 -0.120618008366 0.825 1.27971676489e-38
0.0427506865094 -0.120618008366 0.825 1.35361550057e-38
0.0441701573558 -0.120325601073 0.823 1.27989276797e-38
0.045582225486 -0.12003319378 0.821 1.33506735358e-38
0.0469868908999 -0.119740786487 0.819 1.27056852799e-38
0.0483841535975 -0.119448379194 0.817 1.22461168368e-38
0.0497740135788 -0.119155971901 0.815 1.20624570549e-38
0.0511564708438 -0.118863564608 0.813 1.36301246794e-38
0.0525315253926 -0.118571157315 0.811 1.34449949354e-38
0.0537659283321 -0.117986342729 0.807 1.40882147526e-38
0.0551224760902 -0.117693935436 0.805 1.02181661071e-38
0.0564012953273 -0.117255324496 0.802 1.05887731171e-38
0.0577411869737 -0.116962917203 0.8 1.01277851587e-38
0.0587775672528 -0.116085695324 0.794 9.75969347941e-39
0.0602470064341 -0.116085695324 0.794 1.3351763746e-38
0.0618719026572 -0.116378102617 0.796 1.27992780043e-38
0.0631858847967 -0.116085695324 0.794 1.15993307151e-38
0.0644924642199 -0.115793288031 0.792 1.25176338286e-38
0.0659582020431 -0.115793288031 0.792 2.34856753816e-38
0.0675942023407 -0.116085695324 0.794 2.34939724698e-38
0.069063641522 -0.116085695324 0.794 3.94892633479e-39
-0.00441942161837 -0.114904962078 0.796 2.31096537543e-38
-0.00294628107892 -0.114904962078 0.796 1.91495156305e-38
-0.00147314053946 -0.114904962078 0.796 1.40857106322e-38
0.0 -0.114904962078 0.796 1.41818341017e-38
0.00147314053946 -0.114904962078 0.796 1.63927719902e-38
0.00300920416729 -0.117358962524 0.813 1.69451876669e-38
0.00451380625093 -0.117358962524 0.813 1.68526389098e-38
0.00604801919968 -0.117936374394 0.817 1.68519200437e-38
0.00756002399961 -0.117936374394 0.817 1.67597244138e-38
0.00907202879953 -0.117936374394 0.817 1.70377504369e-38
0.0105840335994 -0.117936374394 0.817 1.59307022293e-38
0.0121256492645 -0.118225080329 0.819 1.5746308167e-38
0.0136746676458 -0.118513786264 0.821 1.54704303344e-38
0.0152310887434 -0.118802492198 0.823 1.66685349162e-38
0.0167949125573 -0.119091198133 0.825 1.58399583447e-38
0.0183217227897 -0.119091198133 0.825 1.5194586133e-38
0.019896650678 -0.119379904068 0.827 1.48264972563e-38
0.0214271622687 -0.119379904068 0.827 1.46413731175e-38
0.0229576738593 -0.119379904068 0.827 1.45495670486e-38
0.0244881854499 -0.119379904068 0.827 1.45502859147e-38
0.0260186970405 -0.119379904068 0.827 1.39974652628e-38
0.0276158330776 -0.119668610003 0.829 1.38123537356e-38
0.0291500460264 -0.119668610003 0.829 1.35368178199e-38
0.0306842589751 -0.119668610003 0.829 1.34450103497e-38
0.0322184719239 -0.119668610003 0.829 1.36272408072e-38
0.0337526848727 -0.119668610003 0.829 1.38112537163e-38
0.0352868978214 -0.119668610003 0.829 1.41807775227e-38
0.0367322781748 -0.119379904068 0.827 1.36272856487e-38
0.0382627897654 -0.119379904068 0.827 1.31666283968e-38
0.0397933013561 -0.119379904068 0.827 1.39034549514e-38
0.0412238762769 -0.119091198133 0.825 1.2799290616e-38
0.0427506865094 -0.119091198133 0.825 1.27070977888e-38
0.0442774967419 -0.119091198133 0.825 1.22464573524e-38
0.0456932662302 -0.118802492198 0.823 1.35364871134e-38
0.0471016330022 -0.118513786264 0.821 1.2152498889e-38
0.0486210405184 -0.118513786264 0.821 1.22464699641e-38
0.050018303216 -0.118225080329 0.819 1.19706061445e-38
0.0515340093741 -0.118225080329 0.819 1.19684607565e-38
0.0527906204624 -0.117647668459 0.815 1.50098249305e-38
0.0537659283321 -0.11649284472 0.807 1.27056278267e-38
0.0551224760902 -0.116204138785 0.805 1.01245453567e-38
0.0564716211319 -0.11591543285 0.803 1.04043720483e-38
0.0579577164249 -0.11591543285 0.803 1.04969208054e-38
0.0589256215783 -0.114904962078 0.796 9.85407513487e-39
0.0603987621178 -0.114904962078 0.796 9.48386048839e-39
0.0620273596991 -0.115193668013 0.798 1.34467984065e-38
0.0633450431967 -0.114904962078 0.796 1.27070921836e-38
0.064655323978 -0.114616256143 0.794 1.02163682411e-38
0.0661247631593 -0.114616256143 0.794 1.99761990478e-38
0.0675942023407 -0.114616256143 0.794 2.35022289203e-38
0.069063641522 -0.114616256143 0.794 8.46183746642e-39
0.070710745894 -0.114904962078 0.796 6.64234389619e-39
0.0721838864334 -0.114904962078 0.796 6.92580835865e-39
-0.00738420948799 -0.113716826115 0.798 2.35076379324e-38
-0.00589256215783 -0.113431821538 0.796 1.73056927163e-38
-0.00441942161837 -0.113431821538 0.796 2.2834889954e-38
-0.00294628107892 -0.113431821538 0.796 1.60164140512e-38
-0.00147314053946 -0.113431821538 0.796 1.41797083319e-38
0.0 -0.113431821538 0.796 1.36272590241e-38
0.00147314053946 -0.113431821538 0.796 1.75880977971e-38
0.00303141231612 -0.116709374171 0.819 1.71270804114e-38
0.00454711847418 -0.116709374171 0.819 1.68508662672e-38
0.00606282463224 -0.116709374171 0.819 1.65757030969e-38
0.0075785307903 -0.116709374171 0.819 1.64838577916e-38
0.00909423694836 -0.116709374171 0.819 1.64842263331e-38
0.0106099431064 -0.116709374171 0.819 1.59307022293e-38
0.0121552601296 -0.116994378747 0.821 1.58392128539e-38
0.0137079798691 -0.117279383324 0.823 1.53789563733e-38
0.0152681023248 -0.117564387901 0.825 1.51924155217e-38
0.0168356274968 -0.117849392478 0.827 1.5010540994e-38
0.0184105553851 -0.118134397054 0.829 1.50101752551e-38
0.0199447683338 -0.118134397054 0.829 1.49186830771e-38
0.0214789812826 -0.118134397054 0.829 1.51037932029e-38
0.0230131942314 -0.118134397054 0.829 1.40896791095e-38
0.0245474071801 -0.118134397054 0.829 1.42729759551e-38
0.0261445432172 -0.118419401631 0.831 1.38134257289e-38
0.0276824575241 -0.118419401631 0.831 1.40896608926e-38
0.029220371831 -0.118419401631 0.831 1.35365025277e-38
0.0307582861379 -0.118419401631 0.831 1.40896608926e-38
0.0322962004448 -0.118419401631 0.831 1.36276037435e-38
0.0338341147517 -0.118419401631 0.831 1.37201553032e-38
0.0352868978214 -0.118134397054 0.829 1.33517483317e-38
0.0368211107702 -0.118134397054 0.829 1.30751782577e-38
0.0382627897654 -0.117849392478 0.827 1.29836832771e-38
0.0397933013561 -0.117849392478 0.827 1.35357486291e-38
0.0413238129467 -0.117849392478 0.827 1.30748251305e-38
0.0428543245373 -0.117849392478 0.827 1.27074733368e-38
0.0442774967419 -0.117564387901 0.825 1.27071216108e-38
0.0458043069744 -0.117564387901 0.825 1.28907701824e-38
0.0473311172068 -0.117564387901 0.825 1.27070823745e-38
0.0487394839789 -0.117279383324 0.823 1.26141776876e-38
0.0501404480346 -0.116994378747 0.821 1.2246512003e-38
0.0516598555508 -0.116994378747 0.821 1.19687956669e-38
0.0530497155321 -0.116709374171 0.819 1.24298116512e-38
0.0544321727972 -0.116424369594 0.817 1.35386605274e-38
0.0556702770948 -0.11585436044 0.813 1.07717154342e-38
0.0567529243505 -0.11499934671 0.807 1.04940565513e-38
0.0581020693923 -0.114714342134 0.805 9.85262479096e-39
0.0594438117178 -0.114429337557 0.803 9.02610952944e-39
0.0608540291689 -0.114286835268 0.802 9.02394592461e-39
0.0620273596991 -0.113716826115 0.798 1.29837014939e-38
0.0631858847967 -0.113146816962 0.794 1.27070921836e-38
0.064655323978 -0.113146816962 0.794 1.09553682097e-38
0.0659582020431 -0.112861812385 0.792 1.63840671241e-38
0.0674239398663 -0.112861812385 0.792 2.34993226273e-38
0.0688896776894 -0.112861812385 0.792 1.79597095382e-38
0.0703554155126 -0.112861812385 0.792 7.55679904415e-39
0.0720025198846 -0.113146816962 0.794 7.29708939326e-39
0.0734719590659 -0.113146816962 0.794 6.65388218775e-39
-0.00738420948799 -0.112239984217 0.798 2.35033373474e-38
-0.00589256215783 -0.111958680999 0.796 1.70248080443e-38
-0.00441942161837 -0.111958680999 0.796 2.24668459188e-38
-0.00294628107892 -0.111958680999 0.796 1.38008448713e-38
-0.00147314053946 -0.111958680999 0.796 1.48239819256e-38
0.0 -0.111958680999 0.796 1.44534043428e-38
0.00147314053946 -0.111958680999 0.796 1.6668637211e-38
0.00303141231612 -0.115193668013 0.819 1.75895004969e-38
0.00454711847418 -0.115193668013 0.819 1.61154494189e-38
0.00606282463224 -0.115193668013 0.819 1.63916621618e-38
0.0075785307903 -0.115193668013 0.819 1.71288796787e-38
0.00909423694836 -0.115193668013 0.819 1.6025023629e-38
0.0106358526134 -0.115474971231 0.821 1.53785878318e-38
0.0121848709947 -0.11575627445 0.823 1.56544656644e-38
0.0137746043156 -0.116318880887 0.827 1.56544656644e-38
0.0153421294876 -0.116600184106 0.829 1.53778815774e-38
0.0169170573759 -0.116881487324 0.831 1.56548187916e-38
0.0184549716828 -0.116881487324 0.831 1.40875127021e-38
0.0199928859897 -0.116881487324 0.831 1.42719039618e-38
0.0215826193105 -0.117162790543 0.833 1.37194490487e-38
0.0231242349755 -0.117162790543 0.833 1.47325121683e-38
0.0246066289103 -0.116881487324 0.831 1.37194336344e-38
0.0261445432172 -0.116881487324 0.831 1.36286631251e-38
0.0277490819706 -0.117162790543 0.833 1.35368430432e-38
0.0292906976357 -0.117162790543 0.833 1.45509921691e-38
0.0308323133007 -0.117162790543 0.833 1.35354137188e-38
0.0323739289658 -0.117162790543 0.833 1.39034941877e-38
0.0339155446308 -0.117162790543 0.833 1.35364927186e-38
0.0353720290586 -0.116881487324 0.831 1.38120426474e-38
0.0368211107702 -0.116600184106 0.829 1.28914862459e-38
0.0383553237189 -0.116600184106 0.829 1.28007213418e-38
0.0398895366677 -0.116600184106 0.829 1.31680535173e-38
0.0414237496164 -0.116600184106 0.829 1.29840392069e-38
0.0428543245373 -0.116318880887 0.827 1.27078012406e-38
0.0443848361279 -0.116318880887 0.827 1.34468152221e-38
0.0459153477185 -0.116318880887 0.827 1.2338313868e-38
0.0473311172068 -0.116037577668 0.825 1.2153921207e-38
0.0488579274393 -0.116037577668 0.825 1.23386669952e-38
0.0502625928532 -0.11575627445 0.823 1.24315842938e-38
0.0516598555508 -0.115474971231 0.821 1.16018432432e-38
0.053179263067 -0.115474971231 0.821 1.20628017743e-38
0.0545654216902 -0.115193668013 0.819 1.36297575392e-38
0.0559441775971 -0.114912364794 0.817 1.08635383187e-38
0.0571748791784 -0.114349758357 0.813 1.04962187549e-38
0.0585351282946 -0.114068455138 0.811 1.01295830246e-38
0.0595918660434 -0.113224545482 0.805 9.76222982963e-39
0.0608540291689 -0.112802590655 0.802 9.39309418296e-39
0.0620273596991 -0.112239984217 0.798 1.22497518051e-38
0.0631858847967 -0.11167737778 0.794 1.24323423963e-38
0.0644924642199 -0.111396074562 0.792 1.14167092953e-38
0.0659582020431 -0.111396074562 0.792 1.36236086416e-38
0.0674239398663 -0.111396074562 0.792 2.34896410562e-38
0.0687157138569 -0.111114771343 0.79 2.16475165158e-38
0.0701777503219 -0.111114771343 0.79 5.89112740765e-39
0.071639786787 -0.111114771343 0.79 7.1127303634e-39
0.073101823252 -0.111114771343 0.79 7.29854814496e-39
-0.00738420948799 -0.11076314232 0.798 2.34965074187e-38
-0.00589256215783 -0.110485540459 0.796 2.04381763229e-38
-0.00441942161837 -0.110485540459 0.796 2.10889155077e-38
-0.00294628107892 -0.110485540459 0.796 1.44501645407e-38
-0.00147314053946 -0.110485540459 0.796 1.40889574408e-38
0.0 -0.110485540459 0.796 1.60229034644e-38
0.00152310887434 -0.114233165575 0.823 1.69448373422e-38
0.0030388150324 -0.113955563715 0.821 1.62980428127e-38
0.0045582225486 -0.113955563715 0.821 1.59300015801e-38
0.0060776300648 -0.113955563715 0.821 1.53775312527e-38
0.007597037581 -0.113955563715 0.821 1.50087403255e-38
0.0091164450972 -0.113955563715 0.821 1.51924183243e-38
0.0106617621204 -0.114233165575 0.823 1.5745960645e-38
0.0122144818598 -0.114510767436 0.825 1.40875155047e-38
0.0138079165388 -0.115065971157 0.829 1.52849796931e-38
0.015379143069 -0.115343573017 0.831 1.4363026197e-38
0.0169577723154 -0.115621174878 0.833 1.43630205918e-38
0.0185438042781 -0.115898776738 0.835 1.39042004422e-38
0.0200891213013 -0.115898776738 0.835 1.41807831279e-38
0.0216344383245 -0.115898776738 0.835 1.3166634002e-38
0.0231797553476 -0.115898776738 0.835 1.45484894501e-38
0.0246658506406 -0.115621174878 0.833 1.36279568707e-38
0.0262074663056 -0.115621174878 0.833 1.39971149381e-38
0.0277490819706 -0.115621174878 0.833 1.32591771538e-38
0.0292906976357 -0.115621174878 0.833 1.3629366577e-38
0.0309063404635 -0.115898776738 0.835 1.36290386731e-38
0.0324516574867 -0.115898776738 0.835 1.34435880317e-38
0.0339969745099 -0.115898776738 0.835 1.28918393731e-38
0.035542291533 -0.115898776738 0.835 1.32577716515e-38
0.0369987759609 -0.115621174878 0.833 1.2706741859e-38
0.0384478576724 -0.115343573017 0.831 1.27074481134e-38
0.0399857719793 -0.115343573017 0.831 1.30754893459e-38
0.0414237496164 -0.115065971157 0.829 1.27992723991e-38
0.0429579625652 -0.115065971157 0.829 1.22475265431e-38
0.044492175514 -0.115065971157 0.829 1.21550170224e-38
0.0459153477185 -0.114788369296 0.827 1.24308682303e-38
0.0474458593092 -0.114788369296 0.827 1.20610249279e-38
0.0489763708998 -0.114788369296 0.827 1.25223576057e-38
0.0503847376718 -0.114510767436 0.825 1.18766098461e-38
0.0517857017275 -0.114233165575 0.823 1.16925969369e-38
0.0533088106019 -0.114233165575 0.823 1.16025523002e-38
0.0546986705832 -0.113955563715 0.821 1.27056544513e-38
0.0560811278482 -0.113677961855 0.819 1.18776916485e-38
0.057456182397 -0.113400359994 0.817 1.01270789043e-38
0.0588238342295 -0.113122758134 0.815 1.04047251755e-38
0.059739920369 -0.112012350692 0.807 1.02214129156e-38
0.0608540291689 -0.111318346041 0.802 9.29945101178e-39
0.0620273596991 -0.11076314232 0.798 1.02214297312e-38
0.0631858847967 -0.110207938599 0.794 1.25252022416e-38
0.0644924642199 -0.109930336738 0.792 1.24305123005e-38
0.0659582020431 -0.109930336738 0.792 1.24279941671e-38
0.0672536773918 -0.109652734878 0.79 2.31169447102e-38
0.0687157138569 -0.109652734878 0.79 2.34979367431e-38
0.0700889177266 -0.109513933948 0.789 5.60842665286e-39
0.0715491035126 -0.109513933948 0.789 6.56243344997e-39
0.073101823252 -0.109652734878 0.79 6.74609883709e-39
-0.00738420948799 -0.109286300422 0.798 1.98082884593e-38
-0.00589256215783 -0.10901239992 0.796 2.25550786766e-38
-0.00441942161837 -0.10901239992 0.796 1.85074378715e-38
-0.00294628107892 -0.10901239992 0.796 1.42679382871e-38
-0.00147314053946 -0.10901239992 0.796 1.39041738175e-38
0.0 -0.10901239992 0.796 1.63927719902e-38
0.00152310887434 -0.112710056701 0.823 1.5377508832e-38
0.00304621774868 -0.112710056701 0.823 1.58352696e-38
0.00456932662302 -0.112710056701 0.823 1.53760682972e-38
0.00609243549736 -0.112710056701 0.823 1.52874880173e-38
0.0076155443717 -0.112710056701 0.823 1.59328546238e-38
0.00913865324604 -0.112710056701 0.823 1.46414305707e-38
0.0106876716274 -0.112983957203 0.825 1.53768249983e-38
0.0122440927249 -0.113257857706 0.827 1.46424871498e-38
0.0138745409853 -0.114079559213 0.833 1.44559224761e-38
0.0154901838131 -0.114627360217 0.837 1.51020205604e-38
0.0170392021945 -0.114627360217 0.837 1.42740577575e-38
0.0185882205758 -0.114627360217 0.837 1.38130697991e-38
0.0201372389571 -0.114627360217 0.837 1.39967618109e-38
0.0216862573384 -0.114627360217 0.837 1.39038627292e-38
0.0232352757197 -0.114627360217 0.837 1.34439439616e-38
0.0247250723708 -0.114353459715 0.835 1.39045493655e-38
0.026270389394 -0.114353459715 0.835 1.26145686499e-38
0.0278157064172 -0.114353459715 0.835 1.34428845799e-38
0.0293610234403 -0.114353459715 0.835 1.37205056278e-38
0.0309803676263 -0.114627360217 0.837 1.3351026663e-38
0.0326071145285 -0.11490126072 0.839 1.31673794927e-38
0.034159834268 -0.11490126072 0.839 1.28921518627e-38
0.0357125540074 -0.11490126072 0.839 1.28911233096e-38
0.0372652737469 -0.11490126072 0.839 1.35354081136e-38
0.0388179934863 -0.11490126072 0.839 1.30744355695e-38
0.0402744779142 -0.114627360217 0.837 1.27985899668e-38
0.041623622956 -0.114079559213 0.833 1.29844049458e-38
0.0430616005931 -0.11380565871 0.831 1.20639186092e-38
0.044492175514 -0.113531758208 0.829 1.25227261472e-38
0.0460263884627 -0.113531758208 0.829 1.24308682303e-38
0.0475606014115 -0.113531758208 0.829 1.22450476461e-38
0.0490948143602 -0.113531758208 0.829 1.25230946887e-38
0.0505068824904 -0.113257857706 0.827 1.24301591733e-38
0.0519115479043 -0.112983957203 0.825 1.13248864108e-38
0.0533088106019 -0.112710056701 0.823 1.16011173706e-38
0.0548319194762 -0.112710056701 0.823 1.14174547861e-38
0.0562180780994 -0.112436156199 0.821 1.25230918861e-38
0.0575968340063 -0.112162255696 0.819 1.03068038401e-38
0.0591125401644 -0.112162255696 0.819 1.02160179165e-38
0.0604801919968 -0.111888355194 0.817 9.85155419894e-39
0.0609299070108 -0.109971051678 0.803 1.01288613559e-38
0.0620273596991 -0.109286300422 0.798 9.75935856907e-39
0.0630267263967 -0.108464598915 0.792 1.30769382886e-38
0.0644924642199 -0.108464598915 0.792 1.23393886639e-38
0.0657916409268 -0.108190698413 0.79 1.049188594e-38
0.0672536773918 -0.108190698413 0.79 2.11800853871e-38
0.0687157138569 -0.108190698413 0.79 2.34968437303e-38
0.0700889177266 -0.108053748162 0.789 2.75506488474e-39
0.0715491035126 -0.108053748162 0.789 6.18241251683e-39
0.073101823252 -0.108190698413 0.79 4.98895043684e-39
-0.00738420948799 -0.107809458525 0.798 1.89781620516e-38
-0.00589256215783 -0.10753925938 0.796 2.34776879803e-38
-0.00441942161837 -0.10753925938 0.796 1.76766234263e-38
-0.00294628107892 -0.10753925938 0.796 1.48207449261e-38
-0.00146943918132 -0.107269060236 0.794 1.38137998756e-38
0.0 -0.107269060236 0.794 1.52878509536e-38
0.00152310887434 -0.111186947827 0.823 1.60243075655e-38
0.00304621774868 -0.111186947827 0.823 1.5100225497e-38
0.00458043069744 -0.111457146971 0.825 1.52853328203e-38
0.00610724092991 -0.111457146971 0.825 1.48261497343e-38
0.00763405116239 -0.111457146971 0.825 1.48257966071e-38
0.00916086139487 -0.111457146971 0.825 1.4917992237e-38
0.0107394906413 -0.111997545259 0.829 1.45499327875e-38
0.0123329253203 -0.112537943548 0.833 1.49194565939e-38
0.0139078532086 -0.112808142692 0.835 1.43648030435e-38
0.0155271973945 -0.11334854098 0.839 1.43648058461e-38
0.017079917134 -0.11334854098 0.839 1.34442942862e-38
0.0186326368734 -0.11334854098 0.839 1.39971121355e-38
0.0202334742687 -0.113618740124 0.841 1.37194518513e-38
0.0217898953663 -0.113618740124 0.841 1.35350605916e-38
0.0232907960918 -0.11334854098 0.839 1.35350605916e-38
0.024784294101 -0.113078341836 0.837 1.34421404904e-38
0.0263333124823 -0.113078341836 0.837 1.32591813577e-38
0.0278823308637 -0.113078341836 0.837 1.24312157523e-38
0.029431349245 -0.113078341836 0.837 1.27999940679e-38
0.0311284219519 -0.113618740124 0.841 1.35354081136e-38
0.0326848430495 -0.113618740124 0.841 1.3536489916e-38
0.0342412641471 -0.113618740124 0.841 1.2707798438e-38
0.0357976852446 -0.113618740124 0.841 1.27081515652e-38
0.0373541063422 -0.113618740124 0.841 1.27074326991e-38
0.0389105274398 -0.113618740124 0.841 1.28889695139e-38
0.0404669485374 -0.113618740124 0.841 1.32595302811e-38
0.0419234329653 -0.11334854098 0.839 1.21542743342e-38
0.0433725146768 -0.113078341836 0.837 1.2337966346e-38
0.0448141936721 -0.112808142692 0.835 1.2338313868e-38
0.0462484699511 -0.112537943548 0.833 1.17854960186e-38
0.0477900856161 -0.112537943548 0.833 1.22446594864e-38
0.0493317012812 -0.112537943548 0.833 1.14160030409e-38
0.050629027309 -0.111997545259 0.829 1.17847659421e-38
0.052037394081 -0.111727346115 0.827 1.12326515446e-38
0.0534383581368 -0.111457146971 0.825 1.19706117497e-38
0.0548319194762 -0.111186947827 0.823 1.09557479616e-38
0.0563550283506 -0.111186947827 0.823 1.15074952189e-38
0.0577374856156 -0.110916748683 0.821 1.10443562674e-38
0.0591125401644 -0.110646549538 0.819 1.03989840557e-38
0.0604801919968 -0.110376350394 0.817 1.09582520819e-38
0.0619921967968 -0.110376350394 0.817 1.0866056452e-38
0.0635042015967 -0.110376350394 0.817 1.02199835912e-38
0.0630267263967 -0.106998861092 0.792 1.28007213418e-38
0.0644924642199 -0.106998861092 0.792 1.25234113822e-38
0.0657916409268 -0.106728661948 0.79 9.20185057374e-39
0.0672536773918 -0.106728661948 0.79 2.02570416808e-38
0.0687157138569 -0.106728661948 0.79 2.34971772394e-38
0.0700889177266 -0.106593562376 0.789 2.35040464044e-38
0.0715491035126 -0.106593562376 0.789 2.34957549214e-38
-0.00736570269729 -0.106066118841 0.796 1.74057916695e-38
-0.00589256215783 -0.106066118841 0.796 2.34788020126e-38
-0.00441942161837 -0.106066118841 0.796 1.70337707493e-38
-0.00294628107892 -0.106066118841 0.796 1.39920534481e-38
-0.00146943918132 -0.105799621055 0.794 1.36269058968e-38
0.0 -0.105799621055 0.794 1.51023862993e-38
0.00152681023248 -0.109930336738 0.825 1.53811059651e-38
0.00305362046496 -0.109930336738 0.825 1.43666205276e-38
0.00458043069744 -0.109930336738 0.825 1.51016674332e-38
0.00610724092991 -0.109930336738 0.825 1.4825077741e-38
0.00765255795309 -0.110196834524 0.827 1.49183425616e-38
0.00918306954371 -0.110196834524 0.827 1.39049165057e-38
0.0107394906413 -0.110463332311 0.829 1.3813449551e-38
0.0123625361854 -0.111262825669 0.835 1.39031438631e-38
0.0139411654318 -0.111529323455 0.837 1.44555721515e-38
0.0155271973945 -0.111795821241 0.839 1.31669843266e-38
0.0171206320735 -0.112062319027 0.841 1.37219545704e-38
0.0186770531711 -0.112062319027 0.841 1.31687863964e-38
0.0202334742687 -0.112062319027 0.841 1.362688768e-38
0.0218417143803 -0.112328816813 0.843 1.3442143293e-38
0.0233463164639 -0.112062319027 0.841 1.41800614591e-38
0.0248435158313 -0.111795821241 0.839 1.29818868124e-38
0.0263962355707 -0.111795821241 0.839 1.32599030264e-38
0.0279489553102 -0.111795821241 0.839 1.22475811937e-38
0.0295720008543 -0.112062319027 0.841 1.39056059445e-38
0.0311284219519 -0.112062319027 0.841 1.51985125713e-38
0.0326848430495 -0.112062319027 0.841 1.53818066144e-38
0.0342412641471 -0.112062319027 0.841 1.11390279916e-38
0.0357976852446 -0.112062319027 0.841 1.13245360862e-38
0.0373541063422 -0.112062319027 0.841 1.26163468976e-38
0.0390030613933 -0.112328816813 0.843 1.25227387589e-38
0.0404669485374 -0.112062319027 0.841 1.25230638601e-38
0.042023369635 -0.112062319027 0.841 1.23372208552e-38
0.0434761527047 -0.111795821241 0.839 1.24301353512e-38
0.0449215330581 -0.111529323455 0.837 1.24298116512e-38
0.0463595106953 -0.111262825669 0.835 1.22464727667e-38
0.0479048277184 -0.111262825669 0.835 1.24298088486e-38
0.0494501447416 -0.111262825669 0.835 1.17858463433e-38
0.0508733169462 -0.110996327883 0.833 1.15082014733e-38
0.0521632402577 -0.110463332311 0.829 1.15088923135e-38
0.0535679056716 -0.110196834524 0.827 1.12323404563e-38
0.0549651683692 -0.109930336738 0.825 1.12323404563e-38
0.0564919786017 -0.109930336738 0.825 1.11401448265e-38
0.0578781372249 -0.109663838952 0.823 1.12326935836e-38
0.0592568931318 -0.109397341166 0.821 1.13248892134e-38
0.0604801919968 -0.108864345594 0.817 1.12319901317e-38
0.0619921967968 -0.108864345594 0.817 1.06816665936e-38
0.0635042015967 -0.108864345594 0.817 9.66860907923e-39
0.0628675679967 -0.105266625483 0.79 1.31687990081e-38
0.0643296044618 -0.105266625483 0.79 1.22461042252e-38
0.0657916409268 -0.105266625483 0.79 1.05858598176e-38
0.0672536773918 -0.105266625483 0.79 2.1366637449e-38
0.0686287319406 -0.10513337659 0.789 2.34928542336e-38
0.0700889177266 -0.10513337659 0.789 2.35098127476e-38
0.071639786787 -0.105266625483 0.79 2.35098505827e-38
-0.00736570269729 -0.104592978302 0.796 1.7774612024e-38
-0.00589256215783 -0.104592978302 0.796 2.34755439937e-38
-0.00441942161837 -0.104592978302 0.796 1.73103590402e-38
-0.00293887836264 -0.104330181874 0.794 1.30708048052e-38
-0.00146943918132 -0.104330181874 0.794 1.35329194075e-38
0.0 -0.104330181874 0.794 1.55615469645e-38
0.00152681023248 -0.108403526506 0.825 1.45509893666e-38
0.00306102318124 -0.108666322934 0.827 1.49176264981e-38
0.00460263884627 -0.108929119362 0.829 1.50080228607e-38
0.00613685179503 -0.108929119362 0.829 1.46406822774e-38
0.00767106474379 -0.108929119362 0.829 1.39949625437e-38
0.00922748584138 -0.10919191579 0.831 1.46410382072e-38
0.0107913096553 -0.109454712218 0.833 1.39974680654e-38
0.0123625361854 -0.109717508645 0.835 1.55637119706e-38
0.0139411654318 -0.109980305073 0.837 1.3719436437e-38
0.0155271973945 -0.110243101501 0.839 1.39981715172e-38
0.0171206320735 -0.110505897929 0.841 1.30762054095e-38
0.0187214694688 -0.110768694357 0.843 1.36283071953e-38
0.0202815919245 -0.110768694357 0.843 1.34428481462e-38
0.0218417143803 -0.110768694357 0.843 1.3442143293e-38
0.023401836836 -0.110768694357 0.843 1.32591813577e-38
0.0249619592917 -0.110768694357 0.843 1.31673486642e-38
0.0265220817475 -0.110768694357 0.843 1.27074172848e-38
0.0281488286497 -0.111031490785 0.845 1.2984758073e-38
0.0297126524636 -0.111031490785 0.845 1.28911233096e-38
0.0312024491147 -0.110768694357 0.843 1.30751782577e-38
0.0327625715704 -0.110768694357 0.843 1.37202001447e-38
0.0343226940261 -0.110768694357 0.843 1.17836813371e-38
0.0358828164819 -0.110768694357 0.843 1.27063312785e-38
0.0374429389376 -0.110768694357 0.843 1.20631549016e-38
0.0390030613933 -0.110768694357 0.843 1.24315870964e-38
0.040563183849 -0.110768694357 0.843 1.2339022925e-38
0.0421233063048 -0.110768694357 0.843 1.22464545498e-38
0.0435797907326 -0.110505897929 0.841 1.23404228222e-38
0.0450288724442 -0.110243101501 0.839 1.21557036586e-38
0.0464705514394 -0.109980305073 0.837 1.19709592717e-38
0.0480195698208 -0.109980305073 0.837 1.20610193227e-38
0.0495685882021 -0.109980305073 0.837 1.13256052769e-38
0.0508733169462 -0.109454712218 0.833 1.14160058435e-38
0.0524149326112 -0.109454712218 0.833 1.1325201703e-38
0.0538270007414 -0.10919191579 0.831 1.06816693962e-38
0.0552316661553 -0.108929119362 0.829 1.14163561681e-38
0.056765879104 -0.108929119362 0.829 1.12326935836e-38
0.0581594404435 -0.108666322934 0.827 1.05894891806e-38
0.0595455990667 -0.108403526506 0.825 1.05887675119e-38
0.0609243549736 -0.108140730078 0.823 1.12323222395e-38
0.0624474638479 -0.108140730078 0.823 1.0129580222e-38
0.0639705727222 -0.108140730078 0.823 1.06824064792e-38
0.0627879887967 -0.103673190804 0.789 1.28010758703e-38
0.0642481745827 -0.103673190804 0.789 1.3167704594e-38
0.0657083603687 -0.103673190804 0.789 9.01781524383e-39
0.0671685461546 -0.103673190804 0.789 2.28428563357e-38
0.068106840443 -0.10288480152 0.783 2.34935969218e-38
0.0695559221545 -0.10288480152 0.783 2.35087575699e-38
-0.00736570269729 -0.103119837762 0.796 1.97146705115e-38
-0.00589256215783 -0.103119837762 0.796 2.27394321013e-38
-0.00441942161837 -0.103119837762 0.796 1.57444360323e-38
-0.00293887836264 -0.102860742692 0.794 1.36204066746e-38
-0.00146943918132 -0.102860742692 0.794 1.35339857957e-38
0.0 -0.102860742692 0.794 1.49179950396e-38
0.00146943918132 -0.102860742692 0.794 1.4090367147e-38
0.00293887836264 -0.102860742692 0.794 1.43640799735e-38
0.00460263884627 -0.107394906413 0.829 1.48243350528e-38
0.00613685179503 -0.107394906413 0.829 1.41800614591e-38
0.00768957153448 -0.107654001483 0.831 1.41807775227e-38
0.00924969399022 -0.107913096553 0.833 1.445737282e-38
0.0108172191622 -0.108172191622 0.835 1.38113139722e-38
0.0123921470505 -0.108431286692 0.837 1.32584807085e-38
0.0139744776551 -0.108690381762 0.839 1.36250856101e-38
0.0155642109759 -0.108949476832 0.841 1.35353786864e-38
0.0171613470131 -0.109208571901 0.843 1.31673346512e-38
0.0187214694688 -0.109208571901 0.843 1.31669843266e-38
0.0203297095803 -0.109467666971 0.845 1.3535057789e-38
0.0218935333942 -0.109467666971 0.845 1.28003710171e-38
0.0234573572081 -0.109467666971 0.845 1.2800736756e-38
0.025021181022 -0.109467666971 0.845 1.32598974213e-38
0.0265850048358 -0.109467666971 0.845 1.30765879639e-38
0.0281488286497 -0.109467666971 0.845 1.289330373e-38
0.0297126524636 -0.109467666971 0.845 1.26138245604e-38
0.0312764762774 -0.109467666971 0.845 1.28914736342e-38
0.0328403000913 -0.109467666971 0.845 1.27999968705e-38
0.0344041239052 -0.109467666971 0.845 1.24301353512e-38
0.0359679477191 -0.109467666971 0.845 1.28907673798e-38
0.0375317715329 -0.109467666971 0.845 1.27996437432e-38
0.0390955953468 -0.109467666971 0.845 1.25237981405e-38
0.040563183849 -0.109208571901 0.843 1.21543163732e-38
0.0421233063048 -0.109208571901 0.843 1.22486223585e-38
0.0435797907326 -0.108949476832 0.841 1.19713095963e-38
0.0451362118302 -0.108949476832 0.841 1.1879116769e-38
0.0465815921836 -0.108690381762 0.839 1.16950982547e-38
0.0480195698208 -0.108431286692 0.837 1.1968791463e-38
0.0495685882021 -0.108431286692 0.837 1.141673592e-38
0.0509954617648 -0.108172191622 0.835 1.16922438097e-38
0.052540778788 -0.108172191622 0.835 1.12326935836e-38
0.0539565482763 -0.107913096553 0.833 1.11401448265e-38
0.0553649150483 -0.107654001483 0.831 1.14160030409e-38
0.056765879104 -0.107394906413 0.829 1.13245388888e-38
0.0583000920528 -0.107394906413 0.829 1.10479435914e-38
0.0596899520341 -0.107135811343 0.827 1.0955031898e-38
0.0610724092991 -0.106876716274 0.825 1.13270360027e-38
0.0597158615411 -0.101953909948 0.787 1.01295858272e-38
0.0610168889271 -0.101694814878 0.785 1.01270817069e-38
0.0624696719967 -0.101694814878 0.785 1.32595330837e-38
0.0640853148246 -0.101953909948 0.787 1.26134770384e-38
0.0655417992524 -0.101953909948 0.787 9.93978695674e-39
0.0668280212058 -0.101694814878 0.785 2.33949735359e-38
0.068106840443 -0.101435719809 0.783 2.34928752531e-38
0.0695559221545 -0.101435719809 0.783 2.35083904297e-38
-0.00736570269729 -0.101646697223 0.796 2.18351475776e-38
-0.00589256215783 -0.101646697223 0.796 2.05253496991e-38
-0.00440831754396 -0.101391303511 0.794 1.94315928074e-38
-0.00293887836264 -0.101391303511 0.794 1.33417010217e-38
-0.00146943918132 -0.101391303511 0.794 1.34439439616e-38
0.0 -0.101391303511 0.794 1.39045465629e-38
0.00146943918132 -0.101391303511 0.794 1.40903797587e-38
0.00293887836264 -0.101391303511 0.794 1.40900266315e-38
0.00462484699511 -0.106371480887 0.833 1.39038206903e-38
0.00616646266014 -0.106371480887 0.833 1.39960429448e-38
0.00772658511588 -0.106626874599 0.835 1.38120006084e-38
0.00927190213905 -0.106626874599 0.835 1.37194518513e-38
0.0108172191622 -0.106626874599 0.835 1.36265527696e-38
0.0124217579156 -0.107137662022 0.839 1.41804300006e-38
0.0140077898783 -0.107393055734 0.841 1.3166634002e-38
0.0156012245573 -0.107648449446 0.843 1.32591813577e-38
0.0171613470131 -0.107648449446 0.843 1.28900415072e-38
0.0187658857665 -0.107903843157 0.845 1.30744355695e-38
0.0203297095803 -0.107903843157 0.845 1.39041976396e-38
0.0218935333942 -0.107903843157 0.845 1.28007213418e-38
0.0234573572081 -0.107903843157 0.845 1.24316235302e-38
0.025021181022 -0.107903843157 0.845 1.30758845121e-38
0.0266479279242 -0.108159236869 0.847 1.26141804902e-38
0.0282154530962 -0.108159236869 0.847 1.21546540861e-38
0.0300994443891 -0.109308508571 0.856 1.24308654277e-38
0.0312764762774 -0.107903843157 0.845 1.27992780043e-38
0.0328403000913 -0.107903843157 0.845 1.24297696123e-38
0.0344041239052 -0.107903843157 0.845 1.25234141848e-38
0.0359679477191 -0.107903843157 0.845 1.2707798438e-38
0.0375317715329 -0.107903843157 0.845 1.27074481134e-38
0.0390955953468 -0.107903843157 0.845 1.27996437432e-38
0.0406594191607 -0.107903843157 0.845 1.13252563536e-38
0.0421233063048 -0.107648449446 0.843 1.22475237405e-38
0.0436834287605 -0.107648449446 0.843 1.15096630276e-38
0.0452435512162 -0.107648449446 0.843 1.160178579e-38
0.0466926329278 -0.107393055734 0.841 1.17869631781e-38
0.0481343119231 -0.107137662022 0.839 1.18773413239e-38
0.0496870316625 -0.107137662022 0.839 1.1970974686e-38
0.0511176065834 -0.106882268311 0.837 1.16922620266e-38
0.052540778788 -0.106626874599 0.835 1.15996950527e-38
0.0540860958111 -0.106626874599 0.835 1.10479688148e-38
0.0553649150483 -0.106116087176 0.831 1.1324492646e-38
0.0569028293552 -0.106116087176 0.831 1.05884326016e-38
0.0555573856715 -0.100880516088 0.79 1.05887675119e-38
0.0570194221366 -0.100880516088 0.79 1.0589476569e-38
0.0584814586016 -0.100880516088 0.79 1.01295830246e-38
0.0595641058574 -0.100242031809 0.785 1.01281382859e-38
0.0610168889271 -0.100242031809 0.785 1.18766154513e-38
0.0624696719967 -0.100242031809 0.785 1.28921925003e-38
0.0639224550664 -0.100242031809 0.785 1.13252367354e-38
0.0655417992524 -0.10049742552 0.787 1.30708230221e-38
0.0666577587314 -0.0999866380971 0.783 2.34950500683e-38
0.068106840443 -0.0999866380971 0.783 2.34971730355e-38
0.0695559221545 -0.0999866380971 0.783 2.35091163023e-38
-0.00587775672528 -0.0999218643297 0.794 1.80371424887e-38
-0.00439721346954 -0.0996701719762 0.792 2.22882350152e-38
-0.00293147564636 -0.0996701719762 0.792 1.2884261151e-38
-0.00146573782318 -0.0996701719762 0.792 1.38127012576e-38
0.0 -0.0996701719762 0.792 1.3446096356e-38
0.00146573782318 -0.0996701719762 0.792 1.40889574408e-38
0.00293147564636 -0.0996701719762 0.792 1.34443335225e-38
0.00439721346954 -0.0996701719762 0.792 1.42733515031e-38
0.00586295129272 -0.0996701719762 0.792 1.43655247122e-38
0.00772658511588 -0.105081557576 0.835 1.28907701824e-38
0.00927190213905 -0.105081557576 0.835 1.34432405097e-38
0.0109985857111 -0.10684340405 0.849 1.36272534189e-38
0.012510590511 -0.106340019343 0.845 1.29836832771e-38
0.0140744143248 -0.106340019343 0.845 1.33524643952e-38
0.0156752517201 -0.106591711697 0.847 1.31673794927e-38
0.0172427768921 -0.106591711697 0.847 1.30747886967e-38
0.0188547183618 -0.10684340405 0.849 1.27989248771e-38
0.020425944892 -0.10684340405 0.849 1.2891120507e-38
0.0219971714221 -0.10684340405 0.849 1.27063789227e-38
0.0235683979523 -0.10684340405 0.849 1.27992934186e-38
0.0251396244824 -0.10684340405 0.849 1.27081767886e-38
0.0269310818219 -0.107724327287 0.856 1.22479189067e-38
0.0285152631055 -0.107724327287 0.856 1.23386852121e-38
0.0300994443891 -0.107724327287 0.856 1.31666508175e-38
0.0319057071611 -0.108479404348 0.862 1.25216541539e-38
0.0334232639983 -0.108227711994 0.86 1.26127553697e-38
0.0345669836633 -0.10684340405 0.849 1.25216149175e-38
0.0361382101935 -0.10684340405 0.849 1.22457539005e-38
0.0376206041283 -0.106591711697 0.847 1.25223323823e-38
0.0391881293003 -0.106591711697 0.847 1.24308654277e-38
0.0407556544723 -0.106591711697 0.847 1.16926095486e-38
0.0422232429745 -0.106340019343 0.845 1.17862120822e-38
0.0436834287605 -0.10608832699 0.843 1.17855114329e-38
0.0452435512162 -0.10608832699 0.843 1.20638779716e-38
0.0466926329278 -0.105836634636 0.841 1.14160030409e-38
0.0482490540254 -0.105836634636 0.841 1.13248892134e-38
0.049805475123 -0.105836634636 0.841 1.16011173706e-38
0.051239751402 -0.105584942283 0.839 1.13245360862e-38
0.0526666249647 -0.105333249929 0.837 1.13245388888e-38
0.0540860958111 -0.105081557576 0.835 1.10497414573e-38
0.0554981639413 -0.104829865222 0.833 1.09575458275e-38
0.0540953492065 -0.0994184796227 0.79 1.13248892134e-38
0.0555573856715 -0.0994184796227 0.79 1.0496923608e-38
0.0570194221366 -0.0994184796227 0.79 1.11429992714e-38
0.0584814586016 -0.0994184796227 0.79 1.01281789236e-38
0.0595641058574 -0.098789248739 0.785 1.0037031465e-38
0.0610168889271 -0.098789248739 0.785 1.29829826278e-38
0.0623105135968 -0.0985375563856 0.783 1.25237645094e-38
0.0637595953083 -0.0985375563856 0.783 9.84758572169e-39
0.0652086770199 -0.0985375563856 0.783 1.7765301797e-38
0.066487496257 -0.0982858640321 0.781 2.34946885333e-38
0.0679328766104 -0.0982858640321 0.781 2.34993520546e-38
0.0693782569638 -0.0982858640321 0.781 2.35065589326e-38
-0.00587775672528 -0.0984524251484 0.794 1.6562397768e-38
-0.00438610939512 -0.0979564431577 0.79 2.34849509103e-38
-0.00292407293008 -0.0979564431577 0.79 1.30657517229e-38
-0.00146203646504 -0.0979564431577 0.79 1.38094544491e-38
0.0 -0.098204434153 0.792 1.35354109162e-38
0.00146203646504 -0.0979564431577 0.79 1.3351026663e-38
0.00292407293008 -0.0979564431577 0.79 1.41822124523e-38
0.00438610939512 -0.0979564431577 0.79 1.33506469111e-38
0.00584814586016 -0.0979564431577 0.79 1.30765879639e-38
0.0073286891159 -0.098204434153 0.792 1.34446600251e-38
0.00879442693908 -0.098204434153 0.792 1.34436062486e-38
0.0109985857111 -0.10527217752 0.849 1.30758817095e-38
0.0125698122412 -0.10527217752 0.849 1.31687835938e-38
0.0141410387714 -0.10527217752 0.849 1.34450103497e-38
0.0157122653015 -0.10527217752 0.849 1.31680829446e-38
0.0173242067712 -0.105520168515 0.851 1.27989220745e-38
0.0188991346595 -0.105520168515 0.851 1.31669983396e-38
0.0204740625478 -0.105520168515 0.851 1.28911233096e-38
0.0220489904361 -0.105520168515 0.851 1.24308626251e-38
0.0236239183244 -0.105520168515 0.851 1.2337966346e-38
0.025287678808 -0.105892155008 0.854 1.2337966346e-38
0.0269310818219 -0.106140146004 0.856 1.25230638601e-38
0.0285152631055 -0.106140146004 0.856 1.22464699641e-38
0.0303104218031 -0.10688411899 0.862 1.27996409406e-38
0.0319057071611 -0.10688411899 0.862 1.18776944511e-38
0.0334232639983 -0.106636127994 0.86 1.21528646279e-38
0.0350148479982 -0.106636127994 0.86 1.21535708824e-38
0.0364361695237 -0.106140146004 0.856 1.2153573685e-38
0.037931518212 -0.105892155008 0.854 1.17844450448e-38
0.0393731972073 -0.105520168515 0.851 1.23383292823e-38
0.0408518897839 -0.10527217752 0.849 1.16937039627e-38
0.0423231796443 -0.105024186525 0.847 1.18780447757e-38
0.0437870667884 -0.104776195529 0.845 1.12319873291e-38
0.0453508906023 -0.104776195529 0.845 1.16018180198e-38
0.0469147144162 -0.104776195529 0.845 1.114230703e-38
0.0483637961277 -0.104528204534 0.843 1.13284793401e-38
0.0499239185834 -0.104528204534 0.843 1.11437167363e-38
0.0513618962206 -0.104280213539 0.841 1.1143016087e-38
0.0527924711414 -0.104032222543 0.839 1.11430132844e-38
