# .PCD v0.7 - Point Cloud Data file format
VERSION 0.7
FIELDS x y z rgb
SIZE 4 4 4 4
TYPE F F F F
COUNT 1 1 1 1
WIDTH 844
HEIGHT 1
VIEWPOINT 0 0 0 1 0 0 0
POINTS 844
DATA ascii
0.0312598201658 -0.0822626846469 0.889 1.91521220456e-38
0.0329050738588 -0.0822626846469 0.889 1.89684314351e-38
0.030042073338 -0.0715287460428 0.773 2.00747593753e-38
0.0314726482588 -0.0715287460428 0.773 1.96141511688e-38
0.0329032231797 -0.0715287460428 0.773 2.18286091189e-38
0.0343337981005 -0.0715287460428 0.773 2.34903332977e-38
0.0358106399981 -0.0716212799963 0.774 2.34892613043e-38
0.0372430655981 -0.0716212799963 0.774 2.34964541694e-38
0.0387754278677 -0.0718063479032 0.776 2.34921577883e-38
0.0401079167979 -0.0716212799963 0.774 2.34881921136e-38
0.0415403423978 -0.0716212799963 0.774 2.182473593e-38
0.0430838087419 -0.0718063479032 0.776 2.20995053355e-38
0.0445199357 -0.0718063479032 0.776 2.11779245848e-38
0.0459560626581 -0.0718063479032 0.776 2.28374515276e-38
0.0475143344347 -0.0719914158102 0.778 2.34853012349e-38
0.0489541627509 -0.0719914158102 0.778 2.2008781069e-38
0.0503939910671 -0.0719914158102 0.778 2.23760950277e-38
0.0521669416159 -0.0724540855776 0.783 2.34827957132e-38
0.0534105979507 -0.0721764837172 0.78 2.22838993978e-38
0.054854127625 -0.0721764837172 0.78 2.34813649875e-38
-0.00439721346954 -0.0718211533358 0.792 1.99728821743e-38
-0.00293147564636 -0.0718211533358 0.792 1.98871437278e-38
-0.00146203646504 -0.071639786787 0.79 1.94283333872e-38
0.0 -0.071639786787 0.79 1.89688041805e-38
0.00146018578597 -0.0715491035126 0.789 1.54607417569e-38
0.00292037157194 -0.0715491035126 0.789 1.72056007696e-38
0.00436945328349 -0.0713677369637 0.787 1.94193874978e-38
0.00579632684621 -0.0710050038661 0.783 1.8322005447e-38
0.00721764837172 -0.0707329540428 0.78 2.07208868868e-38
0.00863896989722 -0.070551587494 0.778 1.94308487179e-38
0.0100528887065 -0.0703702209452 0.776 1.97985578428e-38
0.0114890156645 -0.0703702209452 0.776 1.96145295193e-38
0.0129251426226 -0.0703702209452 0.776 1.94287131391e-38
0.0143242559993 -0.0701888543963 0.774 2.09030977261e-38
0.0157566815992 -0.0701888543963 0.774 2.19183160427e-38
0.0171668990503 -0.0700981711219 0.773 2.24715024336e-38
0.0185974739711 -0.0700981711219 0.773 2.27488278075e-38
0.020053958399 -0.0701888543963 0.774 2.26544615663e-38
0.0214863839989 -0.0701888543963 0.774 2.26530098211e-38
0.0228891987337 -0.0700981711219 0.773 2.34806096876e-38
0.0243197736545 -0.0700981711219 0.773 2.30200042837e-38
0.0256837241289 -0.0699168045731 0.771 2.29267352592e-38
0.027040271887 -0.0697354380243 0.769 2.33880609306e-38
0.0284634440915 -0.0697354380243 0.769 2.34867109411e-38
0.0298866162961 -0.0697354380243 0.769 2.3489597616e-38
0.0313912183798 -0.0699168045731 0.771 2.3489236081e-38
0.0329032231797 -0.0700981711219 0.773 2.34935646919e-38
0.0343337981005 -0.0700981711219 0.773 2.34924856921e-38
0.0357643730214 -0.0700981711219 0.773 2.30253712568e-38
0.0372430655981 -0.0701888543963 0.774 2.24690109249e-38
0.0387754278677 -0.0703702209452 0.776 2.20069439667e-38
0.0401079167979 -0.0701888543963 0.774 2.19158245341e-38
0.0415403423978 -0.0701888543963 0.774 2.22857140793e-38
0.0430838087419 -0.0703702209452 0.776 2.34860313114e-38
0.0445199357 -0.0703702209452 0.776 2.3023635048e-38
0.0459560626581 -0.0703702209452 0.776 2.21013032014e-38
0.0475143344347 -0.070551587494 0.778 2.28381241508e-38
0.0489541627509 -0.070551587494 0.778 2.34838803182e-38
0.0509769549741 -0.0713677369637 0.787 2.23760978303e-38
0.0525666882949 -0.0715491035126 0.789 2.25604932939e-38
0.0540268740809 -0.0715491035126 0.789 2.34831712612e-38
-0.00293887836264 -0.0705330807033 0.794 2.05307404943e-38
-0.00146203646504 -0.0701777503219 0.79 2.00740951598e-38
0.0 -0.0701777503219 0.79 1.96152427803e-38
0.00146203646504 -0.0701777503219 0.79 1.91539213128e-38
0.00292037157194 -0.0700889177266 0.789 1.66592401035e-38
0.00436945328349 -0.0699112525359 0.787 1.72987941239e-38
0.00579632684621 -0.0695559221545 0.783 1.90574447162e-38
0.00721764837172 -0.0692894243685 0.78 1.95223703232e-38
0.00863896989722 -0.0691117591778 0.778 1.89677279833e-38
0.0100528887065 -0.0689340939871 0.776 1.90592229639e-38
0.0114890156645 -0.0689340939871 0.776 1.97971509391e-38
0.0129251426226 -0.0689340939871 0.776 2.07208868868e-38
0.0143242559993 -0.0687564287964 0.774 1.9888942995e-38
0.0157566815992 -0.0687564287964 0.774 2.02591702532e-38
0.0171668990503 -0.0686675962011 0.773 2.09978465218e-38
0.0185974739711 -0.0686675962011 0.773 1.97071105063e-38
0.020053958399 -0.0687564287964 0.774 2.07198204987e-38
0.0213475830687 -0.0683122658197 0.769 2.10875058014e-38
0.0227707552732 -0.0683122658197 0.769 2.25611673184e-38
0.0242568505662 -0.0684899310104 0.771 2.1732145134e-38
0.0256170996824 -0.0683122658197 0.769 2.28374263042e-38
0.027040271887 -0.0683122658197 0.769 2.28395913103e-38
0.0284634440915 -0.0683122658197 0.769 2.25618945923e-38
0.0298866162961 -0.0683122658197 0.769 2.3204398346e-38
0.0313912183798 -0.0684899310104 0.771 2.17285592112e-38
0.0329032231797 -0.0686675962011 0.773 2.21002059847e-38
0.0343337981005 -0.0686675962011 0.773 2.14573280843e-38
0.0357643730214 -0.0686675962011 0.773 2.28399444375e-38
0.0372430655981 -0.0687564287964 0.774 2.21956540283e-38
0.0387754278677 -0.0689340939871 0.776 2.27452278717e-38
0.0401079167979 -0.0687564287964 0.774 2.34838691079e-38
0.0415403423978 -0.0687564287964 0.774 2.24693668547e-38
0.0430838087419 -0.0689340939871 0.776 2.19165405976e-38
0.0446346778023 -0.0691117591778 0.778 2.14548421809e-38
0.046192949579 -0.0692894243685 0.78 2.21020066532e-38
0.0476364792533 -0.0692894243685 0.78 1.97052930222e-38
0.0490800089277 -0.0692894243685 0.78 1.67489610403e-38
0.0509769549741 -0.0699112525359 0.787 1.85823793134e-38
0.0525666882949 -0.0700889177266 0.789 2.34838901273e-38
0.0540268740809 -0.0700889177266 0.789 2.22835462706e-38
-0.00294628107892 -0.0692376053545 0.796 1.94222237259e-38
-0.00146943918132 -0.069063641522 0.794 2.02552298019e-38
0.0 -0.069063641522 0.794 1.77659772229e-38
0.00146573782318 -0.0688896776894 0.792 1.97063467986e-38
0.00292407293008 -0.0687157138569 0.79 1.50883635055e-38
0.00436945328349 -0.0684547681081 0.787 2.05311034306e-38
0.00579632684621 -0.068106840443 0.783 1.40770436012e-38
0.00722690176707 -0.0679328766104 0.781 2.05292873478e-38
0.00866117804606 -0.0678458946941 0.78 1.92424595537e-38
0.0100787982134 -0.0676719308616 0.778 2.02584345715e-38
0.0114890156645 -0.067497967029 0.776 1.89673776587e-38
0.0129251426226 -0.067497967029 0.776 1.91521066313e-38
0.0143242559993 -0.0673240031965 0.774 2.06261549067e-38
0.0157566815992 -0.0673240031965 0.774 2.04442677673e-38
0.0171891071991 -0.0673240031965 0.774 2.08145174463e-38
0.018621532799 -0.0673240031965 0.774 2.13669569451e-38
0.020053958399 -0.0673240031965 0.774 2.13644416143e-38
0.0213475830687 -0.0668890936151 0.769 2.16410453195e-38
0.0227707552732 -0.0668890936151 0.769 2.17317850003e-38
0.0242568505662 -0.0670630574477 0.771 2.19161748587e-38
0.0256170996824 -0.0668890936151 0.769 2.23775201482e-38
0.027040271887 -0.0668890936151 0.769 2.22867706584e-38
0.0284634440915 -0.0668890936151 0.769 2.2010161348e-38
0.0298866162961 -0.0668890936151 0.769 2.23757264862e-38
0.0313912183798 -0.0670630574477 0.771 2.34849270882e-38
0.0329457887983 -0.0673240031965 0.774 2.27459313236e-38
0.0343782143982 -0.0673240031965 0.774 2.33927482739e-38
0.0358106399981 -0.0673240031965 0.774 2.34860369166e-38
0.0373393009097 -0.067497967029 0.776 2.22864049195e-38
0.0387754278677 -0.067497967029 0.776 2.20087418326e-38
0.0402115548258 -0.067497967029 0.776 2.19150944576e-38
0.0416476817839 -0.067497967029 0.776 2.17321521405e-38
0.0431948494861 -0.0676719308616 0.778 2.13648213662e-38
0.0447494199046 -0.0678458946941 0.78 2.23775411677e-38
0.046192949579 -0.0678458946941 0.78 1.80450430094e-38
0.0478196964812 -0.068106840443 0.783 1.17588895647e-38
0.049646316723 -0.0686287319406 0.789 1.94197784601e-38
0.0511712762764 -0.0687157138569 0.79 2.00719273511e-38
0.0527665616345 -0.0688896776894 0.792 2.34853124453e-38
0.0542322994576 -0.0688896776894 0.792 2.34882089292e-38
-0.00294628107892 -0.0677644648151 0.796 1.78516792356e-38
-0.00147314053946 -0.0677644648151 0.796 2.08977279504e-38
0.0 -0.0675942023407 0.794 1.93354581276e-38
0.00146943918132 -0.0675942023407 0.794 1.86000020429e-38
0.00293147564636 -0.0674239398663 0.792 1.74858016079e-38
0.00438610939512 -0.0672536773918 0.79 1.26927022496e-38
0.00582593771132 -0.0669982836802 0.787 2.01619593761e-38
0.00728242213916 -0.0669982836802 0.787 1.89645063981e-38
0.00869449026931 -0.0666577587314 0.783 1.46227190323e-38
0.0101176624739 -0.066487496257 0.781 2.15398505509e-38
0.0115186265296 -0.0662321025454 0.778 1.62930233616e-38
0.0129584548458 -0.0662321025454 0.778 1.9701014858e-38
0.0143612695806 -0.066061840071 0.776 1.97974760404e-38
0.0157973965387 -0.066061840071 0.776 1.90599236131e-38
0.0172335234968 -0.066061840071 0.776 1.98907534726e-38
0.0186696504548 -0.066061840071 0.776 2.05347061689e-38
0.0201057774129 -0.066061840071 0.776 2.06265234482e-38
0.021541904371 -0.066061840071 0.776 2.12711739911e-38
0.0229188095988 -0.0658915775966 0.774 2.15488202624e-38
0.0243197736545 -0.0658064463594 0.773 2.21927547418e-38
0.0257503485754 -0.0658064463594 0.773 2.20998430484e-38
0.0271105976916 -0.065636183885 0.771 2.09949598469e-38
0.0285374712543 -0.065636183885 0.771 2.23789536765e-38
0.029964344817 -0.065636183885 0.771 2.20094452845e-38
0.0315133631984 -0.0658915775966 0.774 2.13637353599e-38
0.0330309200355 -0.066061840071 0.776 2.18239974457e-38
0.0345558795889 -0.0662321025454 0.778 2.16378237343e-38
0.0359957079051 -0.0662321025454 0.778 2.19147707576e-38
0.0374355362213 -0.0662321025454 0.778 2.21012905897e-38
0.0388753645375 -0.0662321025454 0.778 2.31147306586e-38
0.0403151928537 -0.0662321025454 0.778 2.2101991239e-38
0.0417550211699 -0.0662321025454 0.778 2.12729718571e-38
0.0433058902303 -0.0664023650198 0.78 1.97988983583e-38
0.0447494199046 -0.0664023650198 0.78 2.34845991844e-38
0.0462521713092 -0.066487496257 0.781 1.26029869181e-38
0.048186130937 -0.0671685461546 0.789 2.10598301567e-38
0.049646316723 -0.0671685461546 0.789 1.76783932662e-38
0.0511712762764 -0.0672536773918 0.79 1.91564828864e-38
0.0527665616345 -0.0674239398663 0.792 2.34882019227e-38
0.0542322994576 -0.0674239398663 0.792 2.34835047703e-38
-0.00294628107892 -0.0662913242756 0.796 1.96059101325e-38
-0.00147314053946 -0.0662913242756 0.796 1.84955940969e-38
0.0 -0.0661247631593 0.794 1.99786387084e-38
0.00146943918132 -0.0661247631593 0.794 1.98911360271e-38
0.00293147564636 -0.0659582020431 0.792 1.86007657505e-38
0.00438610939512 -0.0657916409268 0.79 1.88740904173e-38
0.00584074314388 -0.0657083603687 0.789 1.38007944246e-38
0.00730092892985 -0.0657083603687 0.789 1.68353118543e-38
0.00873890656699 -0.0655417992524 0.787 2.08037694871e-38
0.0101435719809 -0.0652086770199 0.783 2.05339396587e-38
0.0115482373947 -0.0649588353455 0.78 1.841635207e-38
0.0129584548458 -0.0647922742292 0.778 1.55331132173e-38
0.014398283162 -0.0647922742292 0.778 2.13536810434e-38
0.0157973965387 -0.0646257131129 0.776 2.08055267153e-38
0.0172335234968 -0.0646257131129 0.776 2.09027670197e-38
0.0186696504548 -0.0646257131129 0.776 1.97978571935e-38
0.0201057774129 -0.0646257131129 0.776 2.06279695882e-38
0.021541904371 -0.0646257131129 0.776 2.11807734246e-38
0.0230372530593 -0.0647922742292 0.778 2.21020094558e-38
0.0244141582871 -0.0646257131129 0.776 2.23767956769e-38
0.0257836607987 -0.0644591519966 0.774 2.09027768288e-38
0.0272160863986 -0.0644591519966 0.774 2.01669998467e-38
0.0287225391613 -0.0646257131129 0.776 2.13640884871e-38
0.0301586661194 -0.0646257131129 0.776 2.1456993174e-38
0.0315947930774 -0.0646257131129 0.776 2.19175971766e-38
0.0332011825099 -0.0649588353455 0.78 2.11782566926e-38
0.0346447121842 -0.0649588353455 0.78 2.31143831366e-38
0.0360882418586 -0.0649588353455 0.78 2.2101306004e-38
0.0375317715329 -0.0649588353455 0.78 2.28345368268e-38
0.0390252695422 -0.0650421159036 0.781 1.96969735132e-38
0.0405742879235 -0.0652086770199 0.783 1.74753184941e-38
0.0421307090211 -0.0653752381361 0.785 1.52676988804e-38
0.0436945328349 -0.0655417992524 0.787 2.22844851406e-38
0.0451510172628 -0.0655417992524 0.787 2.34878473942e-38
0.0467259451511 -0.0657083603687 0.789 1.4635206003e-38
0.0482472033463 -0.0657916409268 0.79 1.27795281038e-38
0.0497092398114 -0.0657916409268 0.79 9.46948737004e-39
0.0513008238113 -0.0659582020431 0.792 2.1909063269e-38
0.0528998105275 -0.0661247631593 0.794 2.34896144316e-38
0.05450619996 -0.0662913242756 0.796 2.26501581787e-38
0.0585351282946 -0.0675405326476 0.811 2.34683427209e-38
0.0600360290201 -0.0675405326476 0.811 2.34679839885e-38
0.0615369297456 -0.0675405326476 0.811 2.34695156077e-38
-0.00147314053946 -0.0648181837362 0.796 1.75726218569e-38
0.0 -0.0648181837362 0.796 1.78537994002e-38
0.00146943918132 -0.064655323978 0.794 1.97942110149e-38
0.00293147564636 -0.0644924642199 0.792 2.02584317689e-38
0.00438610939512 -0.0643296044618 0.79 1.7212790832e-38
0.00584074314388 -0.0642481745827 0.789 2.11772183304e-38
0.00730092892985 -0.0642481745827 0.789 1.74929706509e-38
0.00873890656699 -0.0640853148246 0.787 1.51754570077e-38
0.0101953909948 -0.0640853148246 0.787 2.09827685503e-38
0.0115926536924 -0.0637595953083 0.783 2.06239927032e-38
0.0130084231807 -0.0635967355502 0.781 2.22803092711e-38
0.0144352967434 -0.0635153056711 0.78 1.49964495367e-38
0.0158788264178 -0.0635153056711 0.78 1.83932866973e-38
0.0172779397944 -0.063352445913 0.778 1.4712002764e-38
0.0187177681107 -0.063352445913 0.778 1.74782303923e-38
0.0201575964269 -0.063352445913 0.778 2.27470103234e-38
0.0215974247431 -0.063352445913 0.778 1.17739563258e-38
0.0230372530593 -0.063352445913 0.778 2.20837056953e-38
0.0244770813755 -0.063352445913 0.778 1.9230657818e-38
0.0258502852452 -0.0631895861548 0.776 1.93264687979e-38
0.0272864122032 -0.0631895861548 0.776 2.27441362602e-38
0.0287965663241 -0.063352445913 0.778 2.22824378435e-38
0.0302363946403 -0.063352445913 0.778 2.04395986409e-38
0.0316762229565 -0.063352445913 0.778 2.23728300022e-38
0.0332011825099 -0.0635153056711 0.78 1.83133538303e-38
0.0346891284819 -0.0635967355502 0.781 2.17228166901e-38
0.0361345088353 -0.0635967355502 0.781 1.75692867665e-38
0.0375798891887 -0.0635967355502 0.781 1.95936431657e-38
0.0391252062119 -0.0637595953083 0.783 1.96901996364e-38
0.0406779259514 -0.0639224550664 0.785 2.34799048345e-38
0.0422380484071 -0.0640853148246 0.787 2.31158152636e-38
0.0436945328349 -0.0640853148246 0.787 2.23775173456e-38
0.0451510172628 -0.0640853148246 0.787 2.34871159164e-38
0.0467259451511 -0.0642481745827 0.789 3.67341984632e-39
0.0482472033463 -0.0643296044618 0.79 1.18673024217e-38
0.0497092398114 -0.0643296044618 0.79 1.90581243459e-38
0.0514303713462 -0.064655323978 0.794 2.34875545228e-38
0.0530330594205 -0.0648181837362 0.796 2.24650284347e-38
0.05450619996 -0.0648181837362 0.796 2.21819395202e-38
0.0570342275691 -0.0660396319221 0.811 2.31035482969e-38
0.0585351282946 -0.0660396319221 0.811 2.3472357441e-38
0.0600360290201 -0.0660396319221 0.811 2.34665672757e-38
0.0615369297456 -0.0660396319221 0.811 2.34737587394e-38
-0.00918306954371 -0.0658119983966 0.827 2.35011835517e-38
-0.00765255795309 -0.0658119983966 0.827 2.35011583283e-38
-0.0014768418976 -0.0635042015967 0.798 2.10792647652e-38
0.0 -0.0635042015967 0.798 1.65641101547e-38
0.0014768418976 -0.0635042015967 0.798 1.82211273719e-38
0.00294628107892 -0.0633450431967 0.796 1.98846830477e-38
0.00439721346954 -0.0630267263967 0.792 1.94261655785e-38
0.00584814586016 -0.0628675679967 0.79 1.73964590217e-38
0.0073101823252 -0.0628675679967 0.79 1.94265733563e-38
0.00876111471582 -0.0627879887967 0.789 1.97052776079e-38
0.0102213005018 -0.0627879887967 0.789 2.02544688968e-38
0.0116518754226 -0.0626288303967 0.787 1.9333619624e-38
0.0130750476272 -0.0624696719967 0.785 1.90566838111e-38
0.0144908171155 -0.0623105135968 0.783 2.07194225299e-38
0.0159398988271 -0.0623105135968 0.783 2.1917246852e-38
0.017344564241 -0.0621513551968 0.781 1.74865260792e-38
0.0187899445944 -0.0621513551968 0.781 1.46197931212e-38
0.0202094154408 -0.0620717759968 0.78 2.21916855511e-38
0.0216529451152 -0.0620717759968 0.78 1.52759216998e-38
0.0230964747895 -0.0620717759968 0.78 1.85835311807e-38
0.0245400044638 -0.0620717759968 0.78 1.85819799433e-38
0.0259835341382 -0.0620717759968 0.78 1.71076626186e-38
0.0274270638125 -0.0620717759968 0.78 1.70126125438e-38
0.0288705934869 -0.0620717759968 0.78 1.57186115029e-38
0.0303141231612 -0.0620717759968 0.78 1.68303568629e-38
0.0317576528356 -0.0620717759968 0.78 2.14415999104e-38
0.0332437481285 -0.0621513551968 0.781 1.84030733658e-38
0.0347779610773 -0.0623105135968 0.783 2.33862644659e-38
0.0362270427888 -0.0623105135968 0.783 2.34841633805e-38
0.0376761245004 -0.0623105135968 0.783 2.34863844386e-38
0.0392251428817 -0.0624696719967 0.785 1.81311556027e-38
0.0407815639793 -0.0626288303967 0.787 2.34835145793e-38
0.0422380484071 -0.0626288303967 0.787 2.19165462028e-38
0.0438055735791 -0.0627879887967 0.789 2.25611939431e-38
0.0452657593651 -0.0627879887967 0.789 2.32987898106e-38
0.0467851668813 -0.0628675679967 0.79 3.30607786169e-39
0.0483693481649 -0.0630267263967 0.792 1.55486634264e-38
0.0498350859881 -0.0630267263967 0.792 2.3493255005e-38
0.051559918881 -0.0633450431967 0.796 2.22817301878e-38
0.0530330594205 -0.0633450431967 0.796 2.13528598825e-38
0.0555333268436 -0.0645387311966 0.811 2.18056362319e-38
0.0570342275691 -0.0645387311966 0.811 2.30974344317e-38
0.0585351282946 -0.0645387311966 0.811 2.29155416871e-38
0.0600360290201 -0.0645387311966 0.811 2.34665981043e-38
0.0616886854293 -0.0646978895966 0.813 2.34723392241e-38
-0.0122440927249 -0.064281486806 0.827 2.35008122076e-38
-0.0107135811343 -0.064281486806 0.827 2.35015296724e-38
-0.00918306954371 -0.064281486806 0.827 2.34986373924e-38
-0.00765255795309 -0.064281486806 0.827 2.35036792642e-38
-0.00612204636247 -0.064281486806 0.827 2.3507668761e-38
-0.00459153477185 -0.064281486806 0.827 1.39841263027e-38
-0.00303141231612 -0.0636596586385 0.819 2.28349025657e-38
-0.00151200479992 -0.0635042015967 0.817 1.8405609716e-38
0.0 -0.0623382737828 0.802 1.78537531574e-38
0.00148424461388 -0.0623382737828 0.802 1.63765295397e-38
0.00295368379519 -0.0620273596991 0.798 1.89572434682e-38
0.00441942161837 -0.0618719026572 0.796 1.91491919305e-38
0.00589256215783 -0.0618719026572 0.796 2.06272269e-38
0.0073286891159 -0.0615609885735 0.792 1.77691665782e-38
0.00877221879024 -0.0614055315317 0.79 1.73056352631e-38
0.0102342552553 -0.0614055315317 0.79 1.97020686344e-38
0.0116814862878 -0.0613278030108 0.789 2.10896343738e-38
0.0131416720737 -0.0613278030108 0.789 2.06297674542e-38
0.0145648442783 -0.0611723459689 0.787 1.68490207572e-38
0.0160213287061 -0.0611723459689 0.787 1.71126120048e-38
0.0174333968363 -0.0610168889271 0.785 2.08046859363e-38
0.0188380622502 -0.0608614318852 0.783 1.96979964611e-38
0.0202871439617 -0.0608614318852 0.783 2.22834734031e-38
0.0217362256733 -0.0608614318852 0.783 2.3203299728e-38
0.0231853073848 -0.0608614318852 0.783 2.27445090056e-38
0.0246343890964 -0.0608614318852 0.783 2.19158427509e-38
0.0260168463614 -0.0607059748433 0.781 2.30193008319e-38
0.0274622267148 -0.0607059748433 0.781 2.32987743963e-38
0.028981634231 -0.0608614318852 0.783 2.3391673478e-38
0.0304307159426 -0.0608614318852 0.783 2.24697550144e-38
0.0318797976542 -0.0608614318852 0.783 2.24686858237e-38
0.0334140106029 -0.0610168889271 0.785 2.292852752e-38
0.0348667936726 -0.0610168889271 0.785 2.1545926581e-38
0.0363195767423 -0.0610168889271 0.785 1.91449137663e-38
0.037772359812 -0.0610168889271 0.785 1.72948480675e-38
0.0393250795514 -0.0611723459689 0.787 2.0708314437e-38
0.0407815639793 -0.0611723459689 0.787 2.29278044499e-38
0.0423453877931 -0.0613278030108 0.789 2.21924492587e-38
0.0438610939512 -0.0614055315317 0.79 2.0532199246e-38
0.0453231304162 -0.0614055315317 0.79 2.31136642705e-38
0.0467851668813 -0.0614055315317 0.79 1.92461715933e-38
0.0483693481649 -0.0615609885735 0.792 2.0075387157e-38
0.0499609321648 -0.0617164456154 0.794 2.29285681576e-38
0.051559918881 -0.0618719026572 0.796 2.06156339578e-38
0.0530330594205 -0.0618719026572 0.796 2.0883678532e-38
0.0556702770948 -0.063193287513 0.813 2.23573456542e-38
0.0571748791784 -0.063193287513 0.813 2.27268694606e-38
0.0586794812621 -0.063193287513 0.813 2.34708790711e-38
-0.0122440927249 -0.0627509752153 0.827 2.3499696774e-38
-0.0107135811343 -0.0627509752153 0.827 2.35000933415e-38
-0.00918306954371 -0.0627509752153 0.827 2.35040478057e-38
-0.00765255795309 -0.0627509752153 0.827 2.34982814626e-38
-0.00610724092991 -0.0625992195316 0.825 2.35087477608e-38
-0.00458043069744 -0.0625992195316 0.825 7.07169193657e-39
-0.00303141231612 -0.0621439524805 0.819 2.29256506542e-38
-0.00151200479992 -0.0619921967968 0.817 1.94215412935e-38
0.0 -0.0619921967968 0.817 1.80378305262e-38
0.00148609529295 -0.0609299070108 0.803 1.70208143437e-38
0.00296848922775 -0.0608540291689 0.802 1.711084777e-38
0.00444162976721 -0.0607022734852 0.8 1.77576661217e-38
0.00590736759039 -0.0605505178015 0.798 1.97913103271e-38
0.00736570269729 -0.0603987621178 0.796 2.04417468314e-38
0.00881663508791 -0.0602470064341 0.794 1.96130945897e-38
0.0102860742692 -0.0602470064341 0.794 1.89658978875e-38
0.0117259025854 -0.0600952507504 0.792 1.85045413876e-38
0.0131583281854 -0.0599434950666 0.79 1.73968317671e-38
0.0146018578597 -0.0598676172248 0.789 2.14541233147e-38
0.0160620436457 -0.0598676172248 0.789 1.63733373818e-38
0.0175222294316 -0.0598676172248 0.789 2.0894383051e-38
0.0189342975618 -0.0597158615411 0.787 1.6834277696e-38
0.0203907819896 -0.0597158615411 0.787 1.99675222077e-38
0.0217917460454 -0.0595641058574 0.785 1.47012127658e-38
0.0232445291151 -0.0595641058574 0.785 1.74677570876e-38
0.0246973121848 -0.0595641058574 0.785 1.85848498026e-38
0.0261500952545 -0.0595641058574 0.785 2.05148427632e-38
0.0276028783241 -0.0595641058574 0.785 1.76596789253e-38
0.0290556613938 -0.0595641058574 0.785 2.06981522205e-38
0.0305084444635 -0.0595641058574 0.785 1.96911805453e-38
0.0319612275332 -0.0595641058574 0.785 1.92284157405e-38
0.0334140106029 -0.0595641058574 0.785 1.74767253978e-38
0.0349556262679 -0.0597158615411 0.787 2.19936078092e-38
0.0364121106958 -0.0597158615411 0.787 2.33870071541e-38
0.0378685951236 -0.0597158615411 0.787 2.34831292223e-38
0.0393250795514 -0.0597158615411 0.787 2.29288778446e-38
0.0408852020072 -0.0598676172248 0.789 2.14530218942e-38
0.0423990574862 -0.0599434950666 0.79 1.91466443699e-38
0.0439721346954 -0.0600952507504 0.792 2.23703567105e-38
0.0454378725186 -0.0600952507504 0.792 2.32051564485e-38
0.0470220538022 -0.0602470064341 0.794 2.34842152286e-38
0.0486136378021 -0.0603987621178 0.796 2.34795741281e-38
0.0500867783416 -0.0603987621178 0.796 1.98792347993e-38
0.0516894664159 -0.0605505178015 0.798 2.18055787787e-38
0.0540324261181 -0.0615369297456 0.811 2.12520700892e-38
0.0555333268436 -0.0615369297456 0.811 2.34672006626e-38
0.0571748791784 -0.0616886854293 0.813 2.34690699948e-38
0.0586794812621 -0.0616886854293 0.813 2.33750750977e-38
-0.0107135811343 -0.0612204636247 0.827 2.3503687672e-38
-0.00916086139487 -0.0610724092991 0.825 2.34986822339e-38
-0.00763405116239 -0.0610724092991 0.825 2.35008066024e-38
-0.00610724092991 -0.0610724092991 0.825 2.35069330793e-38
-0.00456932662302 -0.0609243549736 0.823 1.17707277341e-38
-0.00303141231612 -0.0606282463224 0.819 2.34755243755e-38
-0.00151200479992 -0.0604801919968 0.817 1.87786325646e-38
0.0 -0.0604801919968 0.817 1.81279354188e-38
0.00149349800922 -0.059739920369 0.807 1.78487603309e-38
0.00297219058589 -0.0594438117178 0.803 1.72019742092e-38
0.00445273384163 -0.059369784555 0.802 1.73856339911e-38
0.00592217302295 -0.0592217302295 0.8 1.6645917959e-38
0.00738420948799 -0.0590736759039 0.798 1.95075207634e-38
0.00883884323675 -0.0589256215783 0.796 1.98846522191e-38
0.0103119837762 -0.0589256215783 0.796 2.08087483005e-38
0.0117555134506 -0.0587775672528 0.794 2.02584668014e-38
0.0132249526319 -0.0587775672528 0.794 1.98874940524e-38
0.0146203646504 -0.0584814586016 0.79 1.63783834575e-38
0.0160824011154 -0.0584814586016 0.79 1.6925422352e-38
0.0175444375805 -0.0584814586016 0.79 2.1818547796e-38
0.0189342975618 -0.0582593771132 0.787 2.15477804989e-38
0.0203907819896 -0.0582593771132 0.787 2.22849559768e-38
0.0218472664175 -0.0582593771132 0.787 2.23761146458e-38
0.0233037508453 -0.0582593771132 0.787 2.21002368133e-38
0.0247602352731 -0.0582593771132 0.787 2.33005372298e-38
0.026216719701 -0.0582593771132 0.787 2.22835336589e-38
0.0276732041288 -0.0582593771132 0.787 2.20987696538e-38
0.0291296885566 -0.0582593771132 0.787 2.34831488404e-38
0.0305861729845 -0.0582593771132 0.787 2.34820768471e-38
0.0320426574123 -0.0582593771132 0.787 2.34831208145e-38
0.0334991418401 -0.0582593771132 0.787 2.32973296576e-38
0.0349556262679 -0.0582593771132 0.787 2.28355934058e-38
0.0364121106958 -0.0582593771132 0.787 2.11753644125e-38
0.0378685951236 -0.0582593771132 0.787 1.83151713144e-38
0.0394250162212 -0.0584074314388 0.789 1.97874749732e-38
0.0409370210211 -0.0584814586016 0.79 2.34778197024e-38
0.0423990574862 -0.0584814586016 0.79 2.2468645186e-38
0.0439721346954 -0.0586295129272 0.792 2.33906197016e-38
0.0456673567232 -0.0589256215783 0.796 2.32969625174e-38
0.0471404972627 -0.0589256215783 0.796 2.15427610478e-38
0.0487357826207 -0.0590736759039 0.798 2.0614916493e-38
0.0502126245183 -0.0590736759039 0.798 2.10672780581e-38
0.0518190139508 -0.0592217302295 0.8 2.15272178452e-38
0.0540324261181 -0.0600360290201 0.811 2.34755005534e-38
0.0555333268436 -0.0600360290201 0.811 2.24549292767e-38
0.0571748791784 -0.0601840833457 0.813 2.29137816562e-38
0.0586794812621 -0.0601840833457 0.813 2.34658512122e-38
-0.0107135811343 -0.0596899520341 0.827 2.35004394622e-38
-0.00916086139487 -0.0595455990667 0.825 2.35011653348e-38
-0.00763405116239 -0.0595455990667 0.825 2.35018715892e-38
-0.00610724092991 -0.0595455990667 0.825 2.35062044041e-38
-0.00456932662302 -0.0594012460992 0.823 1.50883214666e-38
-0.0030388150324 -0.0592568931318 0.821 2.34590409017e-38
-0.00151570615806 -0.0591125401644 0.819 2.01641397965e-38
0.0 -0.0589681871969 0.817 1.82183289788e-38
0.00150830344178 -0.0588238342295 0.815 1.72944949403e-38
0.00297959330217 -0.0581020693923 0.805 1.74774820989e-38
0.00445828587884 -0.0579577164249 0.803 1.73856213794e-38
0.0059369784555 -0.0578855399412 0.802 1.73849179276e-38
0.00740271627868 -0.0577411869737 0.8 1.65537069149e-38
0.00886105138558 -0.0575968340063 0.798 1.81213675329e-38
0.0103119837762 -0.0574524810389 0.796 1.99695624983e-38
0.0117851243157 -0.0574524810389 0.796 1.99782827786e-38
0.0132249526319 -0.0573081280714 0.794 2.11799929014e-38
0.0146573782318 -0.057163775104 0.792 2.1457382735e-38
0.0160824011154 -0.0570194221366 0.79 2.09034858858e-38
0.0175444375805 -0.0570194221366 0.79 2.16384865485e-38
0.0189824152176 -0.0569472456528 0.789 1.85981845588e-38
0.0204426010036 -0.0569472456528 0.789 1.85935350504e-38
0.0219027867896 -0.0569472456528 0.789 1.78516007629e-38
0.0233629725755 -0.0569472456528 0.789 1.77576128723e-38
0.0248231583615 -0.0569472456528 0.789 1.96025876538e-38
0.0262833441475 -0.0569472456528 0.789 1.81285519901e-38
0.0277435299334 -0.0569472456528 0.789 1.85910015028e-38
0.0292037157194 -0.0569472456528 0.789 2.15465879939e-38
0.0306639015054 -0.0569472456528 0.789 1.69343219986e-38
0.0321240872913 -0.0569472456528 0.789 1.92321081619e-38
0.0335842730773 -0.0569472456528 0.789 1.96008696619e-38
0.0350444588633 -0.0569472456528 0.789 1.85881484592e-38
0.036550911626 -0.0570194221366 0.79 2.34785021347e-38
0.038012948091 -0.0570194221366 0.79 2.33919985792e-38
0.0395749212258 -0.057163775104 0.792 2.24700647014e-38
0.041040659049 -0.057163775104 0.792 2.20080355782e-38
0.0425063968722 -0.057163775104 0.792 2.2561559682e-38
0.0440831754396 -0.0573081280714 0.794 2.29296219341e-38
0.0457820988255 -0.0575968340063 0.798 2.13590382074e-38
0.0472589407231 -0.0575968340063 0.798 2.04308867683e-38
0.0487357826207 -0.0575968340063 0.798 2.08904846386e-38
0.0503384706951 -0.0577411869737 0.8 2.15293828514e-38
0.0519485614857 -0.0578855399412 0.802 2.30963203994e-38
0.0542989239041 -0.0588238342295 0.815 2.32861136647e-38
0.0558072273459 -0.0588238342295 0.815 2.34679811859e-38
0.0573155307877 -0.0588238342295 0.815 2.30963203994e-38
0.0588238342295 -0.0588238342295 0.815 2.30037688397e-38
0.0633579979502 -0.0602673639038 0.835 2.18945149883e-38
-0.00916086139487 -0.0580187888342 0.825 2.35025974618e-38
-0.00763405116239 -0.0580187888342 0.825 2.35044135446e-38
-0.00610724092991 -0.0580187888342 0.825 2.35087211361e-38
-0.00458043069744 -0.0580187888342 0.825 1.59248840381e-38
-0.00304621774868 -0.0578781372249 0.823 1.27658514308e-38
-0.0015194075162 -0.0577374856156 0.821 2.12654384765e-38
0.0 -0.0575968340063 0.819 1.71137190306e-38
0.00150830344178 -0.0573155307877 0.815 1.76614978107e-38
0.00300920416729 -0.0571748791784 0.813 1.76611348744e-38
0.00448049402767 -0.0567529243505 0.807 1.76603963901e-38
0.00595918660434 -0.0566122727412 0.805 1.80317488909e-38
0.00742122306938 -0.0564012953273 0.802 1.65540656473e-38
0.00888325953442 -0.056260643718 0.8 1.71054373566e-38
0.0103378932832 -0.0561199921087 0.798 1.76578880658e-38
0.0118147351808 -0.0561199921087 0.798 1.82153778443e-38
0.0132582648551 -0.0559793404994 0.796 1.96043883224e-38
0.0147314053946 -0.0559793404994 0.796 1.96976517417e-38
0.0161638309945 -0.0558386888901 0.794 2.11770501746e-38
0.0175888538782 -0.0556980372808 0.792 2.14562687027e-38
0.0190064740455 -0.0555573856715 0.79 2.0813069905e-38
0.0204685105106 -0.0555573856715 0.79 2.12719376988e-38
0.0219305469756 -0.0555573856715 0.79 2.19147413304e-38
0.0233925834406 -0.0555573856715 0.79 2.21002059847e-38
0.0248546199057 -0.0555573856715 0.79 2.19158217315e-38
0.0263166563707 -0.0555573856715 0.79 2.2838505304e-38
0.0277786928358 -0.0555573856715 0.79 2.27455781963e-38
0.0292407293008 -0.0555573856715 0.79 2.15481336261e-38
0.0307804942868 -0.0556980372808 0.792 2.23789662882e-38
0.0322462321099 -0.0556980372808 0.792 2.26552070571e-38
0.0337119699331 -0.0556980372808 0.792 2.16406823832e-38
0.0351777077563 -0.0556980372808 0.792 2.21027549466e-38
0.0366434455795 -0.0556980372808 0.792 2.20097928065e-38
0.0381091834027 -0.0556980372808 0.792 2.17321143054e-38
0.0396748578956 -0.0558386888901 0.794 2.33923517065e-38
0.0411442970769 -0.0558386888901 0.794 2.30235902065e-38
0.0427210756443 -0.0559793404994 0.796 2.13625862952e-38
0.0441942161837 -0.0559793404994 0.796 2.01568978861e-38
0.0457820988255 -0.0561199921087 0.798 1.96876801018e-38
0.0472589407231 -0.0561199921087 0.798 2.34798824137e-38
0.0488579274393 -0.056260643718 0.8 1.90461796778e-38
0.0504643168718 -0.0564012953273 0.802 2.26320800272e-38
0.0519485614857 -0.0564012953273 0.802 2.17151992316e-38
0.0534328060995 -0.0564012953273 0.802 2.31006363986e-38
0.0566289288529 -0.0581594404435 0.827 2.30956141449e-38
0.0583000920528 -0.0583000920528 0.829 2.18030578428e-38
0.0602673639038 -0.0587220468807 0.835 2.34716287658e-38
0.061812680927 -0.0587220468807 0.835 2.10698144083e-38
0.0633579979502 -0.0587220468807 0.835 2.33674968756e-38
-0.00916086139487 -0.0564919786017 0.825 2.35004282518e-38
-0.00763405116239 -0.0564919786017 0.825 2.35022331242e-38
-0.00610724092991 -0.0564919786017 0.825 2.35076337285e-38
-0.00458043069744 -0.0564919786017 0.825 1.48221518298e-38
-0.00304621774868 -0.0563550283506 0.823 1.80255859803e-38
-0.0015194075162 -0.0562180780994 0.821 2.26439518278e-38
0.0 -0.0560811278482 0.819 1.76679872239e-38
0.00151200479992 -0.0559441775971 0.817 1.84001068169e-38
0.00300920416729 -0.0556702770948 0.813 1.76611348744e-38
0.00451380625093 -0.0556702770948 0.813 1.7661832721e-38
0.00595918660434 -0.0551224760902 0.805 1.72930544054e-38
0.00743047646473 -0.054985525839 0.803 1.71994308524e-38
0.00890546768326 -0.0549170507134 0.802 1.72923369406e-38
0.0103638027902 -0.0547801004623 0.8 2.0978358664e-38
0.0118147351808 -0.0546431502111 0.798 1.81253135894e-38
0.0132915770784 -0.0546431502111 0.798 1.78447848472e-38
0.014768418976 -0.0546431502111 0.798 1.92276982757e-38
0.016204545934 -0.05450619996 0.796 1.86781930959e-38
0.0176332701758 -0.0543692497088 0.794 1.89551331127e-38
0.0190545917013 -0.0542322994576 0.792 2.00682993894e-38
0.0205203295245 -0.0542322994576 0.792 2.19143335525e-38
0.0219860673477 -0.0542322994576 0.792 2.06232864488e-38
0.0234518051709 -0.0542322994576 0.792 2.13622766082e-38
0.0249175429941 -0.0542322994576 0.792 2.14541177096e-38
0.0263832808172 -0.0542322994576 0.792 2.17342849167e-38
0.0278490186404 -0.0542322994576 0.792 2.21005591119e-38
0.0293147564636 -0.0542322994576 0.792 2.23775201482e-38
0.0308582228077 -0.0543692497088 0.794 2.200873903e-38
0.032327661989 -0.0543692497088 0.794 2.21934890222e-38
0.0337971011703 -0.0543692497088 0.794 2.24697003638e-38
0.0352665403517 -0.0543692497088 0.794 2.28377612145e-38
0.036735979533 -0.0543692497088 0.794 2.27412453815e-38
0.0383016540259 -0.05450619996 0.796 2.30171049972e-38
0.0397747945654 -0.05450619996 0.796 2.08047868297e-38
0.0412479351048 -0.05450619996 0.796 2.09859326822e-38
0.0428284150303 -0.0546431502111 0.798 1.93256322227e-38
0.0443052569279 -0.0546431502111 0.798 1.93195337718e-38
0.0457820988255 -0.0546431502111 0.798 2.23598245512e-38
0.0472589407231 -0.0546431502111 0.798 2.05184174756e-38
0.0489800722579 -0.0549170507134 0.802 2.15297205643e-38
0.0504643168718 -0.0549170507134 0.802 2.22651360114e-38
0.0520133352531 -0.054985525839 0.803 2.34679825872e-38
0.0550984172622 -0.0566289288529 0.827 2.18098555416e-38
0.0566289288529 -0.0566289288529 0.827 2.26360639188e-38
0.0583000920528 -0.056765879104 0.829 2.24466041625e-38
0.0601230109364 -0.0570397796063 0.833 2.34697888609e-38
0.0616646266014 -0.0570397796063 0.833 2.13442559099e-38
0.0633579979502 -0.0571767298575 0.835 2.34657965616e-38
0.0649033149734 -0.0571767298575 0.835 2.3499710787e-38
-0.00916086139487 -0.0549651683692 0.825 2.35014946399e-38
-0.00763405116239 -0.0549651683692 0.825 2.35008080037e-38
-0.00612204636247 -0.0550984172622 0.827 2.3506903652e-38
-0.00459153477185 -0.0550984172622 0.827 1.96213608494e-38
-0.00305362046496 -0.0549651683692 0.825 1.81210116031e-38
-0.00152681023248 -0.0549651683692 0.825 2.0524213246e-38
0.0 -0.0545654216902 0.819 1.90523257729e-38
0.00151200479992 -0.0544321727972 0.817 1.84033830527e-38
0.00301660688356 -0.0542989239041 0.815 1.71097757767e-38
0.00452491032535 -0.0542989239041 0.815 1.80327788453e-38
0.0059739920369 -0.0537659283321 0.807 1.68331664663e-38
0.00744898325543 -0.0536326794391 0.805 1.79369804771e-38
0.00891657175768 -0.0534994305461 0.803 1.66466186083e-38
0.0103897122971 -0.0534328060995 0.802 1.60005415435e-38
0.0118443460459 -0.0532995572065 0.8 1.60077245994e-38
0.0132915770784 -0.0531663083135 0.798 1.3980160628e-38
0.014768418976 -0.0531663083135 0.798 1.5546750654e-38
0.0162859758131 -0.0532995572065 0.8 1.7387042296e-38
0.0177221027712 -0.0531663083135 0.798 1.87678033301e-38
0.0191027093571 -0.0528998105275 0.794 1.71061548215e-38
0.0205203295245 -0.0527665616345 0.792 1.99649059835e-38
0.0219860673477 -0.0527665616345 0.792 1.87714004632e-38
0.0235702486313 -0.0530330594205 0.796 1.91394865373e-38
0.0249804660824 -0.0528998105275 0.794 1.9783774144e-38
0.0264499052637 -0.0528998105275 0.794 2.0894758599e-38
0.0279193444451 -0.0528998105275 0.794 1.95136192143e-38
0.0293887836264 -0.0528998105275 0.794 2.15397720782e-38
0.0309359513286 -0.0530330594205 0.796 2.0062902989e-38
0.0324090918681 -0.0530330594205 0.796 2.05235504319e-38
0.0338822324075 -0.0530330594205 0.796 2.07079010539e-38
0.035355372947 -0.0530330594205 0.796 1.97823350104e-38
0.0368285134865 -0.0530330594205 0.796 2.06106257171e-38
0.0383978893375 -0.0531663083135 0.798 2.27310887702e-38
0.0398747312351 -0.0531663083135 0.798 1.78419149879e-38
0.0413515731327 -0.0531663083135 0.798 2.0235736339e-38
0.0429357544164 -0.0532995572065 0.8 1.90372113676e-38
0.0445273384163 -0.0534328060995 0.802 2.13438999801e-38
0.0460115830302 -0.0534328060995 0.802 1.99609473153e-38
0.0475550493743 -0.0534994305461 0.803 2.06952725522e-38
0.0492854343044 -0.0537659283321 0.807 2.1617262482e-38
0.0511564708438 -0.0541656750111 0.813 2.34625791803e-38
0.0534383581368 -0.0549651683692 0.825 2.34654434344e-38
0.0550984172622 -0.0550984172622 0.827 2.1067643797e-38
0.0566289288529 -0.0550984172622 0.827 2.25388460352e-38
0.0583000920528 -0.0552316661553 0.829 2.34668433315e-38
0.0601230109364 -0.0554981639413 0.833 2.11558905678e-38
0.0616646266014 -0.0554981639413 0.833 2.34626030024e-38
0.0633579979502 -0.0556314128343 0.835 2.34701279751e-38
0.0649033149734 -0.0556314128343 0.835 2.34990227495e-38
-0.00767106474379 -0.0536974532065 0.829 2.35022583476e-38
-0.00613685179503 -0.0536974532065 0.829 2.35051338121e-38
-0.00460263884627 -0.0536974532065 0.829 2.0727709809e-38
0.0015194075162 -0.053179263067 0.821 1.84037389825e-38
0.00302400959984 -0.0529201679972 0.817 1.76636502051e-38
0.00453601439976 -0.0529201679972 0.817 1.77561961596e-38
0.00603321376713 -0.0527906204624 0.815 1.91387606647e-38
0.00746749004612 -0.0522724303229 0.807 1.38836616106e-38
0.00893877990651 -0.052142882788 0.805 1.02877279641e-38
0.0104285765576 -0.052142882788 0.805 1.18528774553e-38
0.0118887623436 -0.0520133352531 0.803 1.01115903524e-38
0.0133582015249 -0.0519485614857 0.802 9.92899555727e-39
0.0148424461388 -0.0519485614857 0.802 1.05725614952e-38
0.0163470482224 -0.0520133352531 0.803 1.14869704003e-38
0.0178109353665 -0.0519485614857 0.802 1.70193948283e-38
0.0192951799804 -0.0519485614857 0.802 1.84933730388e-38
0.0207276055803 -0.0518190139508 0.8 1.69206985749e-38
0.0222081488361 -0.0518190139508 0.8 1.82171490855e-38
0.0236886920918 -0.0518190139508 0.8 1.53623565917e-38
0.0251063122592 -0.0516894664159 0.798 1.77547430131e-38
0.0265831541568 -0.0516894664159 0.798 1.85798275489e-38
0.0280599960544 -0.0516894664159 0.798 1.94999761725e-38
0.0295368379519 -0.0516894664159 0.798 1.85830561405e-38
0.0310136798495 -0.0516894664159 0.798 1.95024872993e-38
0.0324905217471 -0.0516894664159 0.798 1.98701880164e-38
0.0339673636447 -0.0516894664159 0.798 2.05166238135e-38
0.0354442055423 -0.0516894664159 0.798 2.15337170675e-38
0.0370135813934 -0.0518190139508 0.8 1.92291332053e-38
0.0384941246492 -0.0518190139508 0.8 2.1251003701e-38
0.0400746045747 -0.0519485614857 0.802 2.04208688856e-38
0.0415588491885 -0.0519485614857 0.802 1.96843646296e-38
0.0430430938024 -0.0519485614857 0.802 1.99584361885e-38
0.0445828587884 -0.0520133352531 0.803 2.03250607083e-38
0.0460689540813 -0.0520133352531 0.803 2.00484780226e-38
0.0476734928347 -0.052142882788 0.805 2.24466125703e-38
0.0496518687602 -0.0526610729275 0.813 2.2636468894e-38
0.0514081631973 -0.0529201679972 0.817 2.26349498865e-38
0.0534383581368 -0.0534383581368 0.825 2.26306450976e-38
0.0550984172622 -0.0535679056716 0.827 2.16154449979e-38
0.0566289288529 -0.0535679056716 0.827 2.32767642013e-38
0.0583000920528 -0.0536974532065 0.829 2.32774284168e-38
0.0602673639038 -0.0540860958111 0.835 2.26296193471e-38
0.061812680927 -0.0540860958111 0.835 2.34658147784e-38
0.0633579979502 -0.0540860958111 0.835 2.34698182882e-38
0.0649033149734 -0.0540860958111 0.835 2.35054813341e-38
0.0030388150324 -0.0516598555508 0.821 1.73867059844e-38
0.0045582225486 -0.0516598555508 0.821 1.89539854492e-38
0.00606282463224 -0.0515340093741 0.819 1.60974034972e-38
0.00750450362752 -0.0510306246671 0.811 1.77558640518e-38
0.00900540435302 -0.0510306246671 0.811 1.9893980663e-38
0.0104803955715 -0.0509047784904 0.809 1.81437308551e-38
0.0119775949389 -0.0509047784904 0.809 1.5838753228e-38
0.013441482083 -0.0507789323136 0.807 1.85128286667e-38
0.0149349800922 -0.0507789323136 0.807 1.74017867585e-38
0.0163877631619 -0.0506530861369 0.805 1.21406621209e-38
0.017877559813 -0.0506530861369 0.805 1.22284702853e-38
0.0193673564641 -0.0506530861369 0.805 1.47995054453e-38
0.0208053341012 -0.0505272399602 0.803 1.14794370197e-38
0.0222914293942 -0.0505272399602 0.803 9.91823358506e-39
0.0237775246871 -0.0505272399602 0.803 9.9200272471e-39
0.0252321584359 -0.0504643168718 0.802 1.24092714183e-38
0.0266497786033 -0.0503384706951 0.8 1.59105067159e-38
0.028130321859 -0.0503384706951 0.8 1.71115358076e-38
0.0296108651147 -0.0503384706951 0.8 1.72930544054e-38
0.0310914083705 -0.0503384706951 0.8 1.87613461467e-38
0.0325719516262 -0.0503384706951 0.8 1.9681136038e-38
0.0340524948819 -0.0503384706951 0.8 2.03264956379e-38
0.035621870733 -0.0504643168718 0.802 1.94996174401e-38
0.0371061153469 -0.0504643168718 0.802 2.13452956734e-38
0.0385903599608 -0.0504643168718 0.802 2.34698084791e-38
0.0401245729095 -0.0505272399602 0.803 2.05184174756e-38
0.0416106682025 -0.0505272399602 0.803 2.05130378908e-38
0.0430967634954 -0.0505272399602 0.803 1.99580774561e-38
0.0448049402767 -0.0507789323136 0.807 2.04161787396e-38
0.046298438286 -0.0507789323136 0.807 2.05112428274e-38
0.0480288232161 -0.0510306246671 0.811 2.34665056186e-38
0.050018303216 -0.0515340093741 0.819 2.26367323381e-38
0.0517857017275 -0.0517857017275 0.823 2.13460131382e-38
0.0535679056716 -0.052037394081 0.827 2.20799908531e-38
0.0552316661553 -0.0521632402577 0.829 2.28189922229e-38
0.056765879104 -0.0521632402577 0.829 2.30956141449e-38
0.0591440017085 -0.0529183173182 0.841 2.1709050334e-38
0.0604117168713 -0.0526666249647 0.837 2.34618463012e-38
0.0619607352526 -0.0526666249647 0.837 2.34640687606e-38
0.0635097536339 -0.0526666249647 0.837 2.34773881025e-38
0.0650587720152 -0.0526666249647 0.837 2.35037002837e-38
0.00458043069744 -0.0503847376718 0.825 1.81217570939e-38
0.00609243549736 -0.0502625928532 0.823 1.07519276986e-38
0.00756002399961 -0.0498961583974 0.817 2.34806853577e-38
0.00907202879953 -0.0498961583974 0.817 1.23332201481e-38
0.0105581240925 -0.0497740135788 0.815 2.07165512693e-38
0.0120368166691 -0.0496518687602 0.813 2.08178090964e-38
0.0135081065295 -0.0495297239416 0.811 2.1645324885e-38
0.0149719936736 -0.049407579123 0.809 2.2932518418e-38
0.0164284781015 -0.0492854343044 0.807 7.53660913587e-39
0.0179219761107 -0.0492854343044 0.807 2.23740435267e-38
0.0193673564641 -0.0491632894858 0.805 2.0539739633e-38
0.0208571531152 -0.0491632894858 0.805 2.06322715745e-38
0.0223469497663 -0.0491632894858 0.805 1.9527350538e-38
0.0237775246871 -0.0490411446672 0.803 1.61157563032e-38
0.0252636199801 -0.0490411446672 0.803 1.2509071895e-38
0.0267164030498 -0.0489800722579 0.802 1.19536812616e-38
0.0282006476636 -0.0489800722579 0.802 1.23170771898e-38
0.0297219058589 -0.0490411446672 0.803 1.23999443758e-38
0.0312080011519 -0.0490411446672 0.803 1.78369039446e-38
0.0326940964448 -0.0490411446672 0.803 1.9035776438e-38
0.0341801917378 -0.0490411446672 0.803 1.90354191069e-38
0.0356662870307 -0.0490411446672 0.803 2.04194409624e-38
0.0371523823236 -0.0490411446672 0.803 2.34755075599e-38
0.0386384776166 -0.0490411446672 0.803 2.07054025388e-38
0.0402245095793 -0.0491632894858 0.805 1.89486044631e-38
0.0417143062304 -0.0491632894858 0.805 1.99555663292e-38
0.0434187816536 -0.049407579123 0.809 2.08782260797e-38
0.0450270217651 -0.0495297239416 0.811 2.03290067648e-38
0.0466426645929 -0.0496518687602 0.813 2.22651079854e-38
0.0483841535975 -0.0498961583974 0.817 2.17094090664e-38
0.0501404480346 -0.0501404480346 0.821 2.22600633109e-38
0.0517857017275 -0.0502625928532 0.823 2.23544099339e-38
0.0535679056716 -0.0505068824904 0.827 2.253707059e-38
0.0552316661553 -0.050629027309 0.829 2.30033638644e-38
0.0569028293552 -0.0507511721276 0.831 2.08778673473e-38
0.0591440017085 -0.0513618962206 0.841 2.34579226655e-38
0.0607004228061 -0.0513618962206 0.841 2.34697524271e-38
0.0622568439037 -0.0513618962206 0.841 2.34665518614e-38
0.0638132650013 -0.0513618962206 0.841 2.34745140393e-38
0.0656806001826 -0.0516061858578 0.845 2.35076491428e-38
0.0672444239965 -0.0516061858578 0.845 2.35098183528e-38
0.00459153477185 -0.0489763708998 0.827 1.85852183441e-38
0.00610724092991 -0.0488579274393 0.825 1.35163196259e-38
0.0076155443717 -0.0487394839789 0.823 2.31954230294e-38
0.0091164450972 -0.0486210405184 0.821 1.09521185985e-38
0.0105840335994 -0.0483841535975 0.817 1.22180726507e-38
0.0120664275343 -0.048265710137 0.815 1.93396494113e-38
0.0135414187528 -0.0481472666766 0.813 1.99858497903e-38
0.015009007255 -0.0480288232161 0.811 2.02645428315e-38
0.016469193041 -0.0479103797556 0.809 1.35397143038e-38
0.0179663924084 -0.0479103797556 0.809 1.82410174023e-38
0.0194635917757 -0.0479103797556 0.809 2.02667638896e-38
0.0209607911431 -0.0479103797556 0.809 2.11836474878e-38
0.0224024701384 -0.0477919362952 0.807 2.15488496896e-38
0.0238959681476 -0.0477919362952 0.807 2.33020366191e-38
0.0253894661568 -0.0477919362952 0.807 1.1871172808e-38
0.026882964166 -0.0477919362952 0.807 2.34845907766e-38
0.0283764621753 -0.0477919362952 0.807 2.29346567994e-38
0.0298699601845 -0.0477919362952 0.807 2.24772379482e-38
0.0313634581937 -0.0477919362952 0.807 1.83277129357e-38
0.0328569562029 -0.0477919362952 0.807 2.05291794478e-38
0.0343504542122 -0.0477919362952 0.807 1.4898874322e-38
0.0358439522214 -0.0477919362952 0.807 1.89435892159e-38
0.0373374502306 -0.0477919362952 0.807 1.99605885829e-38
0.0388309482398 -0.0477919362952 0.807 2.09714965055e-38
0.0405243195886 -0.0480288232161 0.811 2.05133952219e-38
0.0420252203141 -0.0480288232161 0.811 1.97726128017e-38
0.0436334604256 -0.0481472666766 0.813 2.06012846616e-38
0.0451380625093 -0.0481472666766 0.813 2.04212009933e-38
0.0467574066952 -0.048265710137 0.815 2.23519282343e-38
0.0486210405184 -0.0486210405184 0.821 2.27203253967e-38
0.0502625928532 -0.0487394839789 0.823 2.17072566719e-38
0.0519115479043 -0.0488579274393 0.825 2.17990949707e-38
0.0536974532065 -0.0490948143602 0.829 2.3466155294e-38
0.0553649150483 -0.0492132578207 0.831 2.10615481487e-38
0.0570397796063 -0.0493317012812 0.833 2.29958234774e-38
0.0591440017085 -0.049805475123 0.841 2.28182621464e-38
0.0608447757736 -0.0499239185834 0.843 2.29105026178e-38
0.0624048982293 -0.0499239185834 0.843 2.34690854091e-38
0.063965020685 -0.0499239185834 0.843 2.34795096683e-38
0.0656806001826 -0.0500423620439 0.845 2.35097805178e-38
0.0672444239965 -0.0500423620439 0.845 2.35098337671e-38
0.00459153477185 -0.0474458593092 0.827 1.92305681349e-38
0.00612204636247 -0.0474458593092 0.827 1.79423656671e-38
0.00763405116239 -0.0473311172068 0.825 1.43399692321e-38
0.00913865324604 -0.0472163751045 0.823 2.25648219048e-38
0.0106358526134 -0.0471016330022 0.821 7.44333871009e-39
0.0120960383994 -0.0468721487976 0.817 1.02945438799e-38
0.013574730976 -0.0467574066952 0.815 1.33322941051e-38
0.0150460208364 -0.0466426645929 0.813 1.21477554937e-38
0.0165099079805 -0.0465279224906 0.811 1.23346550777e-38
0.018010808706 -0.0465279224906 0.811 1.12304767294e-38
0.0194635917757 -0.0464131803883 0.809 1.07587436144e-38
0.0209607911431 -0.0464131803883 0.809 1.57369530985e-38
0.0224579905105 -0.0464131803883 0.809 2.08149280267e-38
0.0239551898778 -0.0464131803883 0.809 2.26623676922e-38
0.0254523892452 -0.0464131803883 0.809 1.70370343734e-38
0.0270162130591 -0.0465279224906 0.811 1.90624795815e-38
0.0285171137846 -0.0465279224906 0.811 2.0811623765e-38
0.0300180145101 -0.0465279224906 0.811 2.04428454494e-38
0.0314411867146 -0.0464131803883 0.809 1.31583313086e-38
0.032938386082 -0.0464131803883 0.809 1.88669171705e-38
0.0345207166866 -0.0465279224906 0.811 2.349144733e-38
0.0359327848167 -0.0464131803883 0.809 7.71489914208e-39
0.0374299841841 -0.0464131803883 0.809 2.02364790272e-38
0.0390234188631 -0.0465279224906 0.811 2.05098078978e-38
0.0406242562583 -0.0466426645929 0.813 2.03264956379e-38
0.0422324963699 -0.0467574066952 0.815 2.02343014093e-38
0.0438481391977 -0.0468721487976 0.817 2.05094491654e-38
