# .PCD v0.7 - Point Cloud Data file format
VERSION 0.7
FIELDS x y z rgb
SIZE 4 4 4 4
TYPE F F F F
COUNT 1 1 1 1
WIDTH 844
HEIGHT 1
VIEWPOINT 0 0 0 1 0 0 0
POINTS 844
DATA ascii
0.0460745061185 -0.0719914158102 0.778 2.23753509382e-38
0.0476975516626 -0.0722690176707 0.781 2.27455809989e-38
0.0493946243695 -0.0726391534846 0.785 2.25608562302e-38
0.051106502509 -0.0730092892985 0.789 2.34863942477e-38
0.0528998105275 -0.0734719590659 0.794 1.47249339462e-38
0.0543692497088 -0.0734719590659 0.794 1.70997312693e-38
-0.00579632684621 -0.0710050038661 0.783 2.09031145417e-38
-0.00434724513466 -0.0710050038661 0.783 1.86886299668e-38
-0.00291296885566 -0.0713677369637 0.787 1.67514371347e-38
-0.00145278306969 -0.0711863704149 0.785 1.97924692009e-38
0.0 -0.0711863704149 0.785 1.9058148168e-38
0.00144908171155 -0.0710050038661 0.783 1.39851828817e-38
0.0028981634231 -0.0710050038661 0.783 2.04342456807e-38
0.00433614106024 -0.0708236373172 0.781 1.97056853857e-38
0.00575931326482 -0.070551587494 0.778 1.92443316884e-38
0.00718063479032 -0.0703702209452 0.776 1.96116750744e-38
0.00861676174839 -0.0703702209452 0.776 2.03517134051e-38
0.0100528887065 -0.0703702209452 0.776 2.03524602972e-38
0.0114890156645 -0.0703702209452 0.776 2.09963849675e-38
0.0129251426226 -0.0703702209452 0.776 2.18243449677e-38
0.0143612695806 -0.0703702209452 0.776 2.09956661014e-38
0.0157566815992 -0.0701888543963 0.774 2.07190750079e-38
0.0171891071991 -0.0701888543963 0.774 2.0070818924e-38
0.0186696504548 -0.0703702209452 0.776 2.22824378435e-38
0.0201057774129 -0.0703702209452 0.776 2.22824490539e-38
0.0214863839989 -0.0701888543963 0.774 2.163708525e-38
0.0229188095988 -0.0701888543963 0.774 2.29281743927e-38
0.0243512351987 -0.0701888543963 0.774 2.27448747445e-38
0.0258502852452 -0.0703702209452 0.776 2.25601107394e-38
0.0273567380079 -0.070551587494 0.778 2.30236168311e-38
0.0286485119985 -0.0701888543963 0.774 2.29303225833e-38
0.0300809375984 -0.0701888543963 0.774 2.33891553447e-38
0.0315133631984 -0.0701888543963 0.774 2.29278184629e-38
0.0329457887983 -0.0701888543963 0.774 2.18236415159e-38
0.0343782143982 -0.0701888543963 0.774 2.29325128128e-38
0.0358106399981 -0.0701888543963 0.774 2.23764453523e-38
0.0372430655981 -0.0701888543963 0.774 2.34820446173e-38
0.038675491198 -0.0701888543963 0.774 2.34841970117e-38
0.0402115548258 -0.0703702209452 0.776 2.18253875338e-38
0.0416476817839 -0.0703702209452 0.776 2.21009402651e-38
0.0430838087419 -0.0703702209452 0.776 2.15499314921e-38
0.0445199357 -0.0703702209452 0.776 2.15502846193e-38
0.046192949579 -0.0707329540428 0.78 2.24689941094e-38
0.0478196964812 -0.0710050038661 0.783 2.34831544456e-38
0.0495204705463 -0.0713677369637 0.787 2.34831348275e-38
0.051106502509 -0.0715491035126 0.789 2.34878221708e-38
0.0528998105275 -0.0720025198846 0.794 1.02023496513e-38
0.0543692497088 -0.0720025198846 0.794 2.34626926855e-38
-0.00444162976721 -0.0710660762754 0.8 1.93350629614e-38
-0.00293147564636 -0.0703554155126 0.792 1.92428673315e-38
-0.00145648442783 -0.0699112525359 0.787 1.83187432242e-38
0.0 -0.0697335873452 0.785 1.8131838035e-38
0.00144908171155 -0.0695559221545 0.783 2.05328900861e-38
0.0028981634231 -0.0695559221545 0.783 1.61989247684e-38
0.00433614106024 -0.0693782569638 0.781 1.47155620621e-38
0.00575931326482 -0.0691117591778 0.778 2.18149898992e-38
0.00718063479032 -0.0689340939871 0.776 2.10871708911e-38
0.00861676174839 -0.0689340939871 0.776 1.99840084841e-38
0.0100528887065 -0.0689340939871 0.776 1.97982047156e-38
0.0114890156645 -0.0689340939871 0.776 2.02588395468e-38
0.0129251426226 -0.0689340939871 0.776 2.11793314885e-38
0.0143612695806 -0.0689340939871 0.776 2.21942050857e-38
0.0157973965387 -0.0689340939871 0.776 2.17342877193e-38
0.0172335234968 -0.0689340939871 0.776 2.23778704728e-38
0.0186696504548 -0.0689340939871 0.776 2.21020066532e-38
0.0201057774129 -0.0689340939871 0.776 2.23789690908e-38
0.0214863839989 -0.0687564287964 0.774 2.23789634856e-38
0.0229188095988 -0.0687564287964 0.774 2.25637134778e-38
0.0243512351987 -0.0687564287964 0.774 2.15484839507e-38
0.0258502852452 -0.0689340939871 0.776 2.24690165301e-38
0.0273567380079 -0.0691117591778 0.778 2.23789662882e-38
0.0287965663241 -0.0691117591778 0.778 2.23775201482e-38
0.0301586661194 -0.0689340939871 0.776 2.28367046355e-38
0.0315947930774 -0.0689340939871 0.776 2.31114964617e-38
0.0330309200355 -0.0689340939871 0.776 2.28399220168e-38
0.0344670469936 -0.0689340939871 0.776 2.23829319629e-38
0.0359031739516 -0.0689340939871 0.776 2.22860517922e-38
0.0373393009097 -0.0689340939871 0.776 2.12715663547e-38
0.0387754278677 -0.0689340939871 0.776 2.21009374625e-38
0.0402115548258 -0.0689340939871 0.776 2.14537505694e-38
0.0416476817839 -0.0689340939871 0.776 2.2285351143e-38
0.0430838087419 -0.0689340939871 0.776 2.12747921438e-38
0.0451510172628 -0.0699112525359 0.787 2.1826867305e-38
0.0466075016906 -0.0699112525359 0.787 2.21934890222e-38
0.0480639861184 -0.0699112525359 0.787 2.34845963818e-38
0.049646316723 -0.0700889177266 0.789 2.24700506884e-38
0.0511712762764 -0.0701777503219 0.79 2.25608408159e-38
0.0528998105275 -0.0705330807033 0.794 2.05224560178e-38
0.0543692497088 -0.0705330807033 0.794 2.34875643319e-38
-0.00444162976721 -0.0695855330196 0.8 1.99801030653e-38
-0.00294628107892 -0.0692376053545 0.796 1.804614443e-38
-0.00146573782318 -0.0688896776894 0.792 1.85960784072e-38
0.0 -0.0687157138569 0.79 1.73925157678e-38
0.00146203646504 -0.0687157138569 0.79 1.41663875887e-38
0.00294628107892 -0.0692376053545 0.796 2.08973916388e-38
0.00434724513466 -0.068106840443 0.783 1.90545762582e-38
0.00577411869737 -0.0678458946941 0.78 1.65633996964e-38
0.00719914158102 -0.0676719308616 0.778 1.72026902727e-38
0.00861676174839 -0.067497967029 0.776 2.08059372958e-38
0.0100528887065 -0.067497967029 0.776 2.00755020635e-38
0.0114890156645 -0.067497967029 0.776 2.04435741246e-38
0.0129251426226 -0.067497967029 0.776 2.05361228817e-38
0.0143612695806 -0.067497967029 0.776 2.00758579933e-38
0.0157973965387 -0.067497967029 0.776 2.12733277869e-38
0.0172335234968 -0.067497967029 0.776 2.04428426468e-38
0.0186696504548 -0.067497967029 0.776 2.07180156262e-38
0.0201057774129 -0.067497967029 0.776 2.16399789314e-38
0.021541904371 -0.067497967029 0.776 2.26548301078e-38
0.0229188095988 -0.0673240031965 0.774 2.26548118909e-38
0.0243512351987 -0.0673240031965 0.774 2.26558838842e-38
0.0258502852452 -0.067497967029 0.776 2.24725716243e-38
0.0273567380079 -0.0676719308616 0.778 2.18261428337e-38
0.0287965663241 -0.0676719308616 0.778 2.2010536896e-38
0.0302363946403 -0.0676719308616 0.778 2.17321479366e-38
0.0316762229565 -0.0676719308616 0.778 2.24700703066e-38
0.0331160512727 -0.0676719308616 0.778 2.16402844144e-38
0.0344670469936 -0.067497967029 0.776 2.17339472038e-38
0.0359031739516 -0.067497967029 0.776 2.16406795806e-38
0.0374355362213 -0.0676719308616 0.778 2.12718956598e-38
0.0388753645375 -0.0676719308616 0.778 2.18239918405e-38
0.0403151928537 -0.0676719308616 0.778 2.25619100066e-38
0.041862360556 -0.0678458946941 0.78 2.20091075715e-38
0.0436945328349 -0.0684547681081 0.787 2.20108900232e-38
0.0451510172628 -0.0684547681081 0.787 2.21927393275e-38
0.0467259451511 -0.0686287319406 0.789 2.31140145951e-38
0.048186130937 -0.0686287319406 0.789 2.32065605496e-38
0.0497092398114 -0.0687157138569 0.79 2.33895252874e-38
0.0513008238113 -0.0688896776894 0.792 2.34842348468e-38
0.0530330594205 -0.0692376053545 0.796 2.34885312278e-38
0.0546431502111 -0.0694115691871 0.798 2.34867515788e-38
-0.00595918660434 -0.0685306459499 0.805 1.45377134649e-38
-0.00445273384163 -0.0682752522383 0.802 1.9332840502e-38
-0.00296108651147 -0.0681049897639 0.8 1.97963746198e-38
-0.00147314053946 -0.0677644648151 0.796 1.92421638797e-38
0.0 -0.0675942023407 0.794 1.82279769188e-38
0.00146943918132 -0.0675942023407 0.794 2.02573373548e-38
0.00294628107892 -0.0677644648151 0.796 1.5829067453e-38
0.00440831754396 -0.0675942023407 0.794 2.12624845394e-38
0.00579632684621 -0.0666577587314 0.783 1.96120436159e-38
0.00721764837172 -0.0664023650198 0.78 1.9239996071e-38
0.00863896989722 -0.0662321025454 0.778 1.99808037145e-38
0.0100787982134 -0.0662321025454 0.778 2.02595584129e-38
0.0115186265296 -0.0662321025454 0.778 1.52777952358e-38
0.0129584548458 -0.0662321025454 0.778 1.9798173887e-38
0.014398283162 -0.0662321025454 0.778 2.14595505437e-38
0.0158381114782 -0.0662321025454 0.778 2.08123636505e-38
0.0172779397944 -0.0662321025454 0.778 2.10900267374e-38
0.0187177681107 -0.0662321025454 0.778 2.07205211479e-38
0.0201575964269 -0.0662321025454 0.778 2.11807790298e-38
0.0215974247431 -0.0662321025454 0.778 2.10875058014e-38
0.0230964747895 -0.0664023650198 0.78 2.05329055004e-38
0.024571466008 -0.066487496257 0.781 2.13651871051e-38
0.0260168463614 -0.066487496257 0.781 2.06269158118e-38
0.0274622267148 -0.066487496257 0.781 2.11832789463e-38
0.0289076070683 -0.066487496257 0.781 2.04435797298e-38
0.0303529874217 -0.066487496257 0.781 2.09024138925e-38
0.0317576528356 -0.0664023650198 0.78 2.09027796314e-38
0.0332011825099 -0.0664023650198 0.78 2.12704733419e-38
0.0346447121842 -0.0664023650198 0.78 2.12701202147e-38
0.0360882418586 -0.0664023650198 0.78 2.11782721068e-38
0.0375317715329 -0.0664023650198 0.78 2.17314108536e-38
0.0390252695422 -0.066487496257 0.781 2.27445090056e-38
0.0404706498956 -0.066487496257 0.781 2.1548499365e-38
0.0421307090211 -0.0668280212058 0.785 2.18246784768e-38
0.0438055735791 -0.0671685461546 0.789 2.17328780131e-38
0.0452657593651 -0.0671685461546 0.789 2.34831530443e-38
0.0467851668813 -0.0672536773918 0.79 2.21927547418e-38
0.0482472033463 -0.0672536773918 0.79 2.33895224849e-38
0.0498350859881 -0.0674239398663 0.792 2.34831600508e-38
0.0514303713462 -0.0675942023407 0.794 2.34871229229e-38
0.0530330594205 -0.0677644648151 0.796 2.3489987177e-38
0.0546431502111 -0.0679347272895 0.798 2.31121704863e-38
0.0582464223598 -0.0687009084243 0.807 2.34798655981e-38
-0.00595918660434 -0.0670408492988 0.805 1.30683048887e-38
-0.00445828587884 -0.0668742881826 0.803 1.74835609317e-38
-0.00296848922775 -0.0667910076244 0.802 2.05252656212e-38
-0.00148054325574 -0.0666244465082 0.8 2.01644929237e-38
0.0 -0.0662913242756 0.796 1.71256552909e-38
0.00147314053946 -0.0662913242756 0.796 1.62897008829e-38
0.00294628107892 -0.0662913242756 0.796 2.0531851724e-38
0.00440831754396 -0.0661247631593 0.794 1.89691573077e-38
0.00586295129272 -0.0659582020431 0.792 1.96138008441e-38
0.0073101823252 -0.0657916409268 0.79 1.97981949065e-38
0.00869449026931 -0.0652086770199 0.783 1.97985606454e-38
0.0101176624739 -0.0650421159036 0.781 2.0537208888e-38
0.0115482373947 -0.0649588353455 0.78 7.99184056019e-39
0.0129584548458 -0.0647922742292 0.778 1.2495367196e-38
0.014398283162 -0.0647922742292 0.778 1.66545107212e-38
0.0158788264178 -0.0649588353455 0.78 1.86843658156e-38
0.0173223560921 -0.0649588353455 0.78 2.12733417999e-38
0.0187658857665 -0.0649588353455 0.78 2.02595640181e-38
0.0202094154408 -0.0649588353455 0.78 2.16417739947e-38
0.0216529451152 -0.0649588353455 0.78 2.06261577093e-38
0.0231260856546 -0.0650421159036 0.781 2.09031145417e-38
0.024571466008 -0.0650421159036 0.781 2.12736921245e-38
0.0260168463614 -0.0650421159036 0.781 2.02588395468e-38
0.0274622267148 -0.0650421159036 0.781 2.12726355454e-38
0.0289076070683 -0.0650421159036 0.781 2.17339500064e-38
0.0303529874217 -0.0650421159036 0.781 2.09034858858e-38
0.0317983677751 -0.0650421159036 0.781 2.13648185636e-38
0.0332437481285 -0.0650421159036 0.781 2.14544708368e-38
0.0346891284819 -0.0650421159036 0.781 2.20091075715e-38
0.0360882418586 -0.0649588353455 0.78 2.17346926946e-38
0.0375317715329 -0.0649588353455 0.78 2.17321521405e-38
0.0391252062119 -0.0652086770199 0.783 2.22846056522e-38
0.0406779259514 -0.0653752381361 0.785 2.21020094558e-38
0.0423453877931 -0.0657083603687 0.789 2.21016563286e-38
0.0438055735791 -0.0657083603687 0.789 2.29317715259e-38
0.0453231304162 -0.0657916409268 0.79 2.22867524415e-38
0.0467851668813 -0.0657916409268 0.79 2.27466571962e-38
0.0483693481649 -0.0659582020431 0.792 2.23764509575e-38
0.0498350859881 -0.0659582020431 0.792 2.32973296576e-38
0.0514303713462 -0.0661247631593 0.794 2.34914305144e-38
0.0531663083135 -0.0664578853919 0.798 2.34813677901e-38
0.0549170507134 -0.0667910076244 0.802 2.3475892917e-38
0.0567529243505 -0.0672074104151 0.807 2.27351539371e-38
0.0582464223598 -0.0672074104151 0.807 2.34730707019e-38
-0.00445828587884 -0.0653881928896 0.803 1.29703289027e-38
-0.00297219058589 -0.0653881928896 0.803 1.7020506058e-38
-0.00148424461388 -0.0653067630106 0.802 1.92391945283e-38
0.0 -0.0651439032524 0.8 1.95209269858e-38
0.0014768418976 -0.0649810434943 0.798 2.02591380233e-38
0.00294628107892 -0.0648181837362 0.796 1.62911834567e-38
0.00440831754396 -0.064655323978 0.794 1.8504951968e-38
0.00587775672528 -0.064655323978 0.794 1.99822106182e-38
0.0073286891159 -0.0644924642199 0.792 1.92468203945e-38
0.00873890656699 -0.0640853148246 0.787 2.11811685908e-38
0.0101435719809 -0.0637595953083 0.783 2.14595365307e-38
0.0115926536924 -0.0637595953083 0.783 9.36724583149e-39
0.0130084231807 -0.0635967355502 0.781 1.72920917134e-38
0.0144538035341 -0.0635967355502 0.781 1.83197829877e-38
0.0158991838875 -0.0635967355502 0.781 8.44922437894e-39
0.0173223560921 -0.0635153056711 0.78 2.17335520376e-38
0.0187658857665 -0.0635153056711 0.78 2.04428608637e-38
0.0202353249478 -0.0635967355502 0.781 2.02570276678e-38
0.0216807053012 -0.0635967355502 0.781 2.09038039805e-38
0.0231260856546 -0.0635967355502 0.781 2.00744637013e-38
0.024571466008 -0.0635967355502 0.781 2.11779217822e-38
0.0260834708079 -0.0637595953083 0.783 2.16406851858e-38
0.0275325525195 -0.0637595953083 0.783 2.09038586312e-38
0.028981634231 -0.0637595953083 0.783 2.10882302727e-38
0.0304307159426 -0.0637595953083 0.783 2.13641151118e-38
0.0318797976542 -0.0637595953083 0.783 2.15474105561e-38
0.0333288793657 -0.0637595953083 0.783 2.15488356767e-38
0.0347779610773 -0.0637595953083 0.783 2.25640638024e-38
0.0361345088353 -0.0635967355502 0.781 2.18271966101e-38
0.0375798891887 -0.0635967355502 0.781 2.2009813826e-38
0.0392251428817 -0.0639224550664 0.785 2.10878743429e-38
0.0408852020072 -0.0642481745827 0.789 2.19169091391e-38
0.0423453877931 -0.0642481745827 0.789 2.20087544443e-38
0.0438610939512 -0.0643296044618 0.79 2.32072850209e-38
0.0453231304162 -0.0643296044618 0.79 2.24700647014e-38
0.0469036103417 -0.0644924642199 0.792 2.24693640521e-38
0.0483693481649 -0.0644924642199 0.792 2.34806391149e-38
0.0499609321648 -0.064655323978 0.794 2.34874872605e-38
0.0516894664159 -0.0649810434943 0.798 2.34809936434e-38
0.0536326794391 -0.0655510526477 0.805 2.06142284555e-38
0.0551224760902 -0.0655510526477 0.805 2.34680316326e-38
0.0567529243505 -0.0657139124059 0.807 2.31917362131e-38
0.0583907753272 -0.065876772164 0.809 2.32846941493e-38
-0.00600360290201 -0.0645387311966 0.811 2.1452345067e-38
-0.00449159810209 -0.0643795727966 0.809 1.51869882928e-38
-0.00297959330217 -0.0640612559967 0.805 1.54538613814e-38
-0.00148979665109 -0.0640612559967 0.805 1.60999202293e-38
0.0 -0.0638225183967 0.802 1.90530292247e-38
0.00148054325574 -0.0636633599967 0.8 2.03509132636e-38
0.00295368379519 -0.0635042015967 0.798 2.01669522025e-38
0.00441942161837 -0.0633450431967 0.796 1.85074504832e-38
0.00589256215783 -0.0633450431967 0.796 1.65663129959e-38
0.00734719590659 -0.0631858847967 0.794 1.93364908845e-38
0.00879442693908 -0.0630267263967 0.792 2.07187218807e-38
0.0102213005018 -0.0627879887967 0.789 1.85085519038e-38
0.0116814862878 -0.0627879887967 0.789 8.44887825822e-39
0.0130750476272 -0.0624696719967 0.785 9.74935890323e-39
0.0144908171155 -0.0623105135968 0.783 1.33431513656e-38
0.0159398988271 -0.0623105135968 0.783 1.85997512104e-38
0.0173889805386 -0.0623105135968 0.783 1.88812384408e-38
0.0188380622502 -0.0623105135968 0.783 2.00758930257e-38
0.0202871439617 -0.0623105135968 0.783 2.0810201447e-38
0.0217362256733 -0.0623105135968 0.783 2.01651823626e-38
0.0231853073848 -0.0623105135968 0.783 2.06286716388e-38
0.0246343890964 -0.0623105135968 0.783 2.11782594952e-38
0.0261500952545 -0.0624696719967 0.785 2.08991446631e-38
0.0276028783241 -0.0624696719967 0.785 2.09016936251e-38
0.0290556613938 -0.0624696719967 0.785 2.1363369621e-38
0.0305084444635 -0.0624696719967 0.785 2.14555652509e-38
0.0319612275332 -0.0624696719967 0.785 2.28385025014e-38
0.0334140106029 -0.0624696719967 0.785 2.12708418834e-38
0.0348667936726 -0.0624696719967 0.785 2.12715425326e-38
0.0363195767423 -0.0624696719967 0.785 2.21956119894e-38
0.037772359812 -0.0624696719967 0.785 2.15506321413e-38
0.0393250795514 -0.0626288303967 0.787 2.21960197672e-38
0.0408852020072 -0.0627879887967 0.789 2.17328387767e-38
0.0423990574862 -0.0628675679967 0.79 2.25619100066e-38
0.0438610939512 -0.0628675679967 0.79 2.24643417985e-38
0.0454378725186 -0.0630267263967 0.792 2.34817209173e-38
0.0470220538022 -0.0631858847967 0.794 2.25590415487e-38
0.0484914929835 -0.0631858847967 0.794 2.34885410369e-38
0.0502126245183 -0.0635042015967 0.798 2.34835173819e-38
0.0516894664159 -0.0635042015967 0.798 2.00614652568e-38
0.0537659283321 -0.0642204143967 0.807 2.11588178803e-38
0.0552594263413 -0.0642204143967 0.807 2.14292810956e-38
0.0568935759598 -0.0643795727966 0.809 2.34633863282e-38
0.0583907753272 -0.0643795727966 0.809 2.27300868418e-38
-0.00600360290201 -0.0630378304711 0.811 1.69318655224e-38
-0.00449159810209 -0.0628823734293 0.809 2.28356480564e-38
-0.00299439873473 -0.0628823734293 0.809 1.25126115749e-38
-0.00149349800922 -0.0627269163874 0.807 1.69289410125e-38
0.0 -0.0625714593456 0.805 1.73899527929e-38
0.00148054325574 -0.0621828167409 0.8 1.83140600847e-38
0.00296108651147 -0.0621828167409 0.8 2.00708889889e-38
0.00443052569279 -0.0620273596991 0.798 1.87851191752e-38
0.00590736759039 -0.0620273596991 0.798 1.97981921039e-38
0.00736570269729 -0.0618719026572 0.796 1.93354315029e-38
0.00883884323675 -0.0618719026572 0.796 1.82279951356e-38
0.0103119837762 -0.0618719026572 0.796 2.15488356767e-38
0.0117555134506 -0.0617164456154 0.794 3.67341984632e-39
0.0131916404086 -0.0615609885735 0.792 8.92356390912e-39
0.0146018578597 -0.0613278030108 0.789 8.64695740135e-39
0.0160213287061 -0.0611723459689 0.787 1.61958236949e-38
0.0174333968363 -0.0610168889271 0.785 1.91507571809e-38
0.018886179906 -0.0610168889271 0.785 2.00784139617e-38
0.0203389629757 -0.0610168889271 0.785 2.18250512221e-38
0.0217917460454 -0.0610168889271 0.785 2.05339620794e-38
0.0232445291151 -0.0610168889271 0.785 2.18254043494e-38
0.0246973121848 -0.0610168889271 0.785 1.97981921039e-38
0.026216719701 -0.0611723459689 0.787 2.25622631338e-38
0.0276732041288 -0.0611723459689 0.787 2.09034802806e-38
0.0291296885566 -0.0611723459689 0.787 2.27466571962e-38
0.0305861729845 -0.0611723459689 0.787 2.14555652509e-38
0.0320426574123 -0.0611723459689 0.787 2.200873903e-38
0.0334991418401 -0.0611723459689 0.787 2.23771656197e-38
0.0349556262679 -0.0611723459689 0.787 2.13644388117e-38
0.0364121106958 -0.0611723459689 0.787 2.24693640521e-38
0.0378685951236 -0.0611723459689 0.787 2.16410355104e-38
0.0394749845561 -0.0614055315317 0.79 2.31172221673e-38
0.041040659049 -0.0615609885735 0.792 2.15484839507e-38
0.0425063968722 -0.0615609885735 0.792 2.28392409857e-38
0.0440831754396 -0.0617164456154 0.794 2.23757264862e-38
0.0455526146209 -0.0617164456154 0.794 2.26494267009e-38
0.0471404972627 -0.0618719026572 0.796 2.34885606551e-38
0.0487357826207 -0.0620273596991 0.798 2.34853208531e-38
0.0502126245183 -0.0620273596991 0.798 1.84926667844e-38
0.0520133352531 -0.0624160023037 0.803 2.18030382246e-38
0.0540324261181 -0.0630378304711 0.811 2.2821922338e-38
0.0553963765925 -0.0628823734293 0.809 2.31863664374e-38
0.0568935759598 -0.0628823734293 0.809 2.32810647863e-38
0.0583907753272 -0.0628823734293 0.809 2.34690980207e-38
-0.00452491032535 -0.0618404411131 0.815 1.67500330336e-38
-0.00300180145101 -0.0615369297456 0.811 1.88773120025e-38
-0.00149719936736 -0.0613851740619 0.809 1.60120209805e-38
0.0 -0.0612334183782 0.807 1.70189842479e-38
0.00148424461388 -0.0608540291689 0.802 1.8769291509e-38
0.00296108651147 -0.0607022734852 0.8 1.95139695389e-38
0.00444162976721 -0.0607022734852 0.8 2.03484918199e-38
0.00590736759039 -0.0605505178015 0.798 2.03477911707e-38
0.00738420948799 -0.0605505178015 0.798 1.99815071664e-38
0.00886105138558 -0.0605505178015 0.798 2.08109048988e-38
0.0103378932832 -0.0605505178015 0.798 2.20091341962e-38
0.0117851243157 -0.0603987621178 0.796 1.66678566878e-38
0.0132249526319 -0.0602470064341 0.794 1.04753576246e-38
0.0146203646504 -0.0599434950666 0.79 1.66599855943e-38
0.0160620436457 -0.0598676172248 0.789 1.13990809606e-38
0.0175222294316 -0.0598676172248 0.789 2.07983450607e-38
0.0189342975618 -0.0597158615411 0.787 2.08109175105e-38
0.0203907819896 -0.0597158615411 0.787 2.1086409986e-38
0.0218472664175 -0.0597158615411 0.787 2.11782566926e-38
0.0233037508453 -0.0597158615411 0.787 2.19168937248e-38
0.0248231583615 -0.0598676172248 0.789 2.00772999294e-38
0.0262833441475 -0.0598676172248 0.789 2.09978170945e-38
0.0277435299334 -0.0598676172248 0.789 2.11786252341e-38
0.0292037157194 -0.0598676172248 0.789 2.14555652509e-38
0.0306639015054 -0.0598676172248 0.789 2.16392362432e-38
0.0321240872913 -0.0598676172248 0.789 2.17310815484e-38
0.0335842730773 -0.0598676172248 0.789 2.19165462028e-38
0.0350444588633 -0.0598676172248 0.789 2.20998556601e-38
0.0365046446493 -0.0598676172248 0.789 2.23768012821e-38
0.038012948091 -0.0599434950666 0.79 2.15481196131e-38
0.0395749212258 -0.0600952507504 0.792 2.21945694233e-38
0.0411442970769 -0.0602470064341 0.794 2.20108928258e-38
0.0427210756443 -0.0603987621178 0.796 2.2654474178e-38
0.0441942161837 -0.0603987621178 0.796 2.34827676873e-38
0.0457820988255 -0.0605505178015 0.798 2.34867235528e-38
0.0472589407231 -0.0605505178015 0.798 2.20026237635e-38
0.0488579274393 -0.0607022734852 0.8 2.03329528212e-38
0.0504643168718 -0.0608540291689 0.802 2.09750838295e-38
0.052142882788 -0.0610816626945 0.805 2.18970261152e-38
0.0541656750111 -0.0616886854293 0.813 2.1344265719e-38
0.0556702770948 -0.0616886854293 0.813 2.34633386841e-38
0.0570342275691 -0.0615369297456 0.811 2.32796732969e-38
0.0585351282946 -0.0615369297456 0.811 2.34773264453e-38
-0.00452491032535 -0.0603321376713 0.815 1.33445134277e-38
-0.00300920416729 -0.0601840833457 0.813 1.97052327663e-38
-0.00150460208364 -0.0601840833457 0.813 1.50001153335e-38
0.0 -0.0600360290201 0.811 1.64597190243e-38
0.00148609529295 -0.0594438117178 0.803 1.75678434291e-38
0.00296848922775 -0.059369784555 0.802 1.82171546907e-38
0.00444162976721 -0.0592217302295 0.8 1.78473001779e-38
0.00592217302295 -0.0592217302295 0.8 2.04327617057e-38
0.00738420948799 -0.0590736759039 0.798 2.09931227447e-38
0.00886105138558 -0.0590736759039 0.798 2.09020187263e-38
0.0103378932832 -0.0590736759039 0.798 2.09030977261e-38
0.0118147351808 -0.0590736759039 0.798 2.15466692692e-38
0.0132582648551 -0.0589256215783 0.796 1.45359562366e-38
0.0146943918132 -0.0587775672528 0.794 2.19087073392e-38
0.0161638309945 -0.0587775672528 0.794 2.26552070571e-38
0.0175888538782 -0.0586295129272 0.792 2.18251086754e-38
0.0190064740455 -0.0584814586016 0.79 2.16388677017e-38
0.0204685105106 -0.0584814586016 0.79 2.13637227482e-38
0.0219027867896 -0.0584074314388 0.789 2.10875268209e-38
0.0233629725755 -0.0584074314388 0.789 2.1363369621e-38
0.0248546199057 -0.0584814586016 0.79 2.09034802806e-38
0.0263166563707 -0.0584814586016 0.79 2.16410299052e-38
0.0277786928358 -0.0584814586016 0.79 2.1180075578e-38
0.0292407293008 -0.0584814586016 0.79 2.18243449677e-38
0.0307027657658 -0.0584814586016 0.79 2.1917246852e-38
0.0321648022309 -0.0584814586016 0.79 2.30210986978e-38
0.0336268386959 -0.0584814586016 0.79 2.30211309277e-38
0.035088875161 -0.0584814586016 0.79 2.15474329769e-38
0.0366434455795 -0.0586295129272 0.792 2.23761118432e-38
0.0382054187143 -0.0587775672528 0.794 2.32976785809e-38
0.0397747945654 -0.0589256215783 0.796 2.14559183781e-38
0.0413515731327 -0.0590736759039 0.798 2.28367046355e-38
0.0428284150303 -0.0590736759039 0.798 2.22810155256e-38
0.0443052569279 -0.0590736759039 0.798 2.34781139751e-38
0.0458968409278 -0.0592217302295 0.8 1.99682102452e-38
0.0473773841836 -0.0592217302295 0.8 2.00484780226e-38
0.0489800722579 -0.059369784555 0.802 2.0695990017e-38
0.0505272399602 -0.0594438117178 0.803 2.2632853544e-38
0.052142882788 -0.0595918660434 0.805 2.060850275e-38
0.0541656750111 -0.0601840833457 0.813 2.34687364857e-38
0.0556702770948 -0.0601840833457 0.813 2.2912278063e-38
0.0570342275691 -0.0600360290201 0.811 2.33707773153e-38
0.0585351282946 -0.0600360290201 0.811 2.34766271974e-38
-0.00454711847418 -0.0591125401644 0.819 1.88769770921e-38
-0.00302400959984 -0.0589681871969 0.817 1.52766433685e-38
-0.00150830344178 -0.0588238342295 0.815 1.30661735138e-38
0.0 -0.0586794812621 0.813 1.63801715144e-38
0.00148979665109 -0.0581020693923 0.805 1.64672776282e-38
0.00297219058589 -0.0579577164249 0.803 1.92316989828e-38
0.00445273384163 -0.0578855399412 0.802 1.6741339378e-38
0.0059369784555 -0.0578855399412 0.802 1.71987077824e-38
0.00740271627868 -0.0577411869737 0.8 1.96926182776e-38
0.00888325953442 -0.0577411869737 0.8 1.95115256744e-38
0.0103378932832 -0.0575968340063 0.798 2.11753588073e-38
0.0118147351808 -0.0575968340063 0.798 2.1820731019e-38
0.0132915770784 -0.0575968340063 0.798 2.1731431873e-38
0.0147314053946 -0.0574524810389 0.796 2.099349549e-38
0.016204545934 -0.0574524810389 0.796 2.14541331238e-38
0.0176776864735 -0.0574524810389 0.796 2.14527009968e-38
0.0191027093571 -0.0573081280714 0.794 2.21895331566e-38
0.0205203295245 -0.057163775104 0.792 2.14541331238e-38
0.0219860673477 -0.057163775104 0.792 2.20098110234e-38
0.0234518051709 -0.057163775104 0.792 2.14555680535e-38
0.0249175429941 -0.057163775104 0.792 2.17328780131e-38
0.0263832808172 -0.057163775104 0.792 2.1732145134e-38
0.0278490186404 -0.057163775104 0.792 2.32983792301e-38
0.0293147564636 -0.057163775104 0.792 2.33909293885e-38
0.0307804942868 -0.057163775104 0.792 2.09934702667e-38
0.0322462321099 -0.057163775104 0.792 2.25575771918e-38
0.0337119699331 -0.057163775104 0.792 2.23735390593e-38
0.0352665403517 -0.0573081280714 0.794 2.08998355033e-38
0.0368285134865 -0.0574524810389 0.796 2.06214465439e-38
0.0383978893375 -0.0575968340063 0.798 2.04298876425e-38
0.0399746679049 -0.0577411869737 0.8 2.14421618311e-38
0.0414552111606 -0.0577411869737 0.8 2.07979512958e-38
0.0430430938024 -0.0578855399412 0.802 2.08893467843e-38
0.0445273384163 -0.0578855399412 0.802 2.05166238135e-38
0.0460115830302 -0.0578855399412 0.802 2.06063069153e-38
0.0475550493743 -0.0579577164249 0.803 2.23558840999e-38
0.0491632894858 -0.0581020693923 0.805 1.98698390931e-38
0.0506530861369 -0.0581020693923 0.805 2.34687224728e-38
0.0522724303229 -0.0582464223598 0.807 2.2736618294e-38
0.0542989239041 -0.0588238342295 0.815 2.30988917821e-38
0.0558072273459 -0.0588238342295 0.815 2.28186096684e-38
0.0571748791784 -0.0586794812621 0.813 2.34640631554e-38
0.0586794812621 -0.0586794812621 0.813 2.34766524208e-38
-0.00456932662302 -0.0578781372249 0.823 2.14577358622e-38
-0.0030388150324 -0.0577374856156 0.821 1.51884708665e-38
-0.00151200479992 -0.057456182397 0.817 1.02984899363e-38
0.0 -0.0573155307877 0.815 1.98896842819e-38
0.0015009007255 -0.0570342275691 0.811 1.4902841398e-38
0.00298699601845 -0.0567529243505 0.807 1.99703234033e-38
0.00446938995326 -0.0566122727412 0.805 1.81286486797e-38
0.00595918660434 -0.0566122727412 0.805 1.79355441461e-38
0.00743047646473 -0.0564716211319 0.803 1.6828854671e-38
0.00890546768326 -0.0564012953273 0.802 1.89486058644e-38
0.0103638027902 -0.056260643718 0.8 1.87663684004e-38
0.0118443460459 -0.056260643718 0.8 1.75682021615e-38
0.0132915770784 -0.0561199921087 0.798 1.77536836314e-38
0.014768418976 -0.0561199921087 0.798 1.99652997483e-38
0.0162452608736 -0.0561199921087 0.798 1.86777614959e-38
0.0177221027712 -0.0561199921087 0.798 1.95049984262e-38
0.019150827013 -0.0559793404994 0.796 1.81196018968e-38
0.0206239675524 -0.0559793404994 0.796 2.01475596331e-38
0.0220415877198 -0.0558386888901 0.794 1.97826853351e-38
0.0235110269011 -0.0558386888901 0.794 2.04291267374e-38
0.0250433891708 -0.0559793404994 0.796 1.96955315771e-38
0.0264499052637 -0.0558386888901 0.794 1.90469405829e-38
0.0279193444451 -0.0558386888901 0.794 2.06117257364e-38
0.0294628107892 -0.0559793404994 0.796 1.94128336249e-38
0.0309359513286 -0.0559793404994 0.796 2.06121335143e-38
0.0324090918681 -0.0559793404994 0.796 1.8582729638e-38
0.0338822324075 -0.0559793404994 0.796 1.92263095889e-38
0.0354442055423 -0.0561199921087 0.798 1.94095868163e-38
0.0369210474399 -0.0561199921087 0.798 1.93191750394e-38
0.0384941246492 -0.056260643718 0.8 1.90404399593e-38
0.0400746045747 -0.0564012953273 0.802 1.98648070303e-38
0.0415588491885 -0.0564012953273 0.802 2.14324676483e-38
0.0430430938024 -0.0564012953273 0.802 2.00502716846e-38
0.0445828587884 -0.0564716211319 0.803 1.94949539188e-38
0.0460689540813 -0.0564716211319 0.803 2.11576786246e-38
0.0475550493743 -0.0564716211319 0.803 2.04169018096e-38
0.0491632894858 -0.0566122727412 0.805 2.23580070671e-38
0.0507789323136 -0.0567529243505 0.807 2.14400010288e-38
0.0522724303229 -0.0567529243505 0.807 2.34711481204e-38
0.0544321727972 -0.057456182397 0.817 2.32807270734e-38
0.0559441775971 -0.057456182397 0.817 2.26349919254e-38
0.057456182397 -0.057456182397 0.817 2.34661959316e-38
0.0589681871969 -0.057456182397 0.817 2.34759391598e-38
0.0604801919968 -0.057456182397 0.817 2.2725697975e-38
-0.00458043069744 -0.0564919786017 0.825 1.5085450206e-38
-0.00304621774868 -0.0563550283506 0.823 2.17321927781e-38
-0.00151570615806 -0.0560811278482 0.819 1.40842490779e-38
0.0 -0.0559441775971 0.817 2.23789242493e-38
0.00150460208364 -0.0556702770948 0.813 9.65600019564e-39
0.00300180145101 -0.0555333268436 0.811 1.79388077703e-38
0.00448049402767 -0.0552594263413 0.807 1.82185840152e-38
0.0059739920369 -0.0552594263413 0.807 1.75678434291e-38
0.00744898325543 -0.0551224760902 0.805 1.76557328688e-38
0.00891657175768 -0.054985525839 0.803 1.78408387907e-38
0.0104026670506 -0.054985525839 0.803 1.83950817606e-38
0.011873956911 -0.0549170507134 0.802 2.34723069942e-38
0.0133248893016 -0.0547801004623 0.8 2.08959244793e-38
0.0148054325574 -0.0547801004623 0.8 1.88596906743e-38
0.0162859758131 -0.0547801004623 0.8 1.78447848472e-38
0.0177221027712 -0.0546431502111 0.798 1.72873146869e-38
0.0191989446688 -0.0546431502111 0.798 1.81134754199e-38
0.0206757865664 -0.0546431502111 0.798 1.87595524847e-38
0.022152628464 -0.0546431502111 0.798 1.96825709676e-38
0.0236294703616 -0.0546431502111 0.798 2.01482056317e-38
0.0251063122592 -0.0546431502111 0.798 1.85791100841e-38
0.0265831541568 -0.0546431502111 0.798 1.89471695335e-38
0.0280599960544 -0.0546431502111 0.798 1.90382875648e-38
0.0295368379519 -0.0546431502111 0.798 1.83947216269e-38
0.0310136798495 -0.0546431502111 0.798 2.02375482179e-38
0.0324905217471 -0.0546431502111 0.798 2.2087267796e-38
0.0339673636447 -0.0546431502111 0.798 2.20905033941e-38
0.0355330381377 -0.0547801004623 0.8 1.96875932213e-38
0.0370135813934 -0.0547801004623 0.8 2.0790350653e-38
0.0385903599608 -0.0549170507134 0.802 2.0792130302e-38
0.0400746045747 -0.0549170507134 0.802 1.90361351704e-38
0.0416106682025 -0.054985525839 0.803 2.20771111847e-38
0.0430967634954 -0.054985525839 0.803 1.96779074463e-38
0.0446938995326 -0.0551224760902 0.805 2.00481192902e-38
0.0461836961836 -0.0551224760902 0.805 2.01456945048e-38
0.0476734928347 -0.0551224760902 0.805 2.0510884095e-38
0.049407579123 -0.0553963765925 0.809 2.06949152211e-38
0.0511564708438 -0.0556702770948 0.813 2.21700677196e-38
0.0527906204624 -0.0558072273459 0.815 2.2359804933e-38
0.0545654216902 -0.0560811278482 0.819 2.20824991773e-38
0.0560811278482 -0.0560811278482 0.819 2.23565875517e-38
0.0577374856156 -0.0562180780994 0.821 2.34687154663e-38
0.0592568931318 -0.0562180780994 0.821 2.34734084148e-38
-0.00459153477185 -0.0550984172622 0.827 1.99732451106e-38
-0.00305362046496 -0.0549651683692 0.825 1.24153908887e-38
-0.0015194075162 -0.0546986705832 0.821 2.03563881367e-38
0.0 -0.0545654216902 0.819 2.21067360356e-38
0.00150830344178 -0.0542989239041 0.815 5.23641694304e-39
0.00300920416729 -0.0541656750111 0.813 1.6191411006e-38
0.00450270217651 -0.0540324261181 0.811 1.82135617615e-38
0.00598879746946 -0.0538991772251 0.809 1.75678434291e-38
0.00746749004612 -0.0537659283321 0.807 1.81181389412e-38
0.00893877990651 -0.0536326794391 0.805 1.83929279649e-38
0.0104285765576 -0.0536326794391 0.805 1.7655015404e-38
0.0118887623436 -0.0534994305461 0.803 1.83929279649e-38
0.0133748576365 -0.0534994305461 0.803 1.90397224945e-38
0.0148424461388 -0.0534328060995 0.802 1.80277439799e-38
0.0163266907526 -0.0534328060995 0.802 2.02404138732e-38
0.0178109353665 -0.0534328060995 0.802 1.83975914862e-38
0.0192470623246 -0.0532995572065 0.8 1.87620636116e-38
0.0207276055803 -0.0532995572065 0.8 1.87602699495e-38
0.0222081488361 -0.0532995572065 0.8 1.82060283809e-38
0.023747913822 -0.0534328060995 0.802 1.90375701e-38
0.0252321584359 -0.0534328060995 0.802 1.96875932213e-38
0.0266497786033 -0.0532995572065 0.8 2.11624360329e-38
0.028130321859 -0.0532995572065 0.8 1.94117280004e-38
0.0296108651147 -0.0532995572065 0.8 1.82092569726e-38
0.0310914083705 -0.0532995572065 0.8 2.04201990649e-38
0.0325719516262 -0.0532995572065 0.8 2.25471305117e-38
0.0340524948819 -0.0532995572065 0.8 1.95900698547e-38
0.035621870733 -0.0534328060995 0.802 1.98651657627e-38
0.0371061153469 -0.0534328060995 0.802 2.00474018254e-38
0.0386384776166 -0.0534994305461 0.803 1.99552075968e-38
0.0401245729095 -0.0534994305461 0.803 2.1061897072e-38
0.0417143062304 -0.0536326794391 0.805 1.97733302665e-38
0.0432041028815 -0.0536326794391 0.805 2.05998665475e-38
0.0448049402767 -0.0537659283321 0.807 2.13402902353e-38
0.046298438286 -0.0537659283321 0.807 2.00527828115e-38
0.0477919362952 -0.0537659283321 0.807 2.1990296541e-38
0.0495297239416 -0.0540324261181 0.811 2.1618291035e-38
0.0512823170206 -0.0542989239041 0.815 2.22636856675e-38
0.0529201679972 -0.0544321727972 0.817 2.25410082387e-38
0.0546986705832 -0.0546986705832 0.821 2.23583826151e-38
0.0562180780994 -0.0546986705832 0.821 2.34654490395e-38
0.0578781372249 -0.0548319194762 0.823 2.34694679635e-38
0.0594012460992 -0.0548319194762 0.823 2.34619163661e-38
-0.00780061227866 -0.0546042859506 0.843 2.35065785508e-38
-0.00460263884627 -0.0536974532065 0.829 1.67481398794e-38
-0.00306102318124 -0.0535679056716 0.827 1.53731746158e-38
-0.00152310887434 -0.0533088106019 0.823 1.5283495718e-38
0.0 -0.053179263067 0.821 1.48052886041e-38
0.00151570615806 -0.0530497155321 0.819 1.33337248308e-38
0.00302400959984 -0.0529201679972 0.817 1.72034077375e-38
0.00452491032535 -0.0527906204624 0.815 1.78419149879e-38
0.00601840833457 -0.0526610729275 0.813 1.75664183086e-38
0.00748599683682 -0.0524019778577 0.809 1.75649735698e-38
0.00898319620418 -0.0524019778577 0.809 1.78404800583e-38
0.0104544860646 -0.0522724303229 0.807 1.857552276e-38
0.0119479840738 -0.0522724303229 0.807 1.80255859803e-38
0.013441482083 -0.0522724303229 0.807 1.95918116686e-38
0.0148979665109 -0.052142882788 0.805 1.90404399593e-38
0.0163877631619 -0.052142882788 0.805 1.86691519182e-38
0.017877559813 -0.052142882788 0.805 1.87620636116e-38
0.0193192388083 -0.0520133352531 0.803 1.99609473153e-38
0.0208053341012 -0.0520133352531 0.803 2.0518776208e-38
0.0222914293942 -0.0520133352531 0.803 1.83968740214e-38
0.0238367464174 -0.052142882788 0.805 2.00513632961e-38
0.0252636199801 -0.0520133352531 0.803 1.95943227955e-38
0.026749715273 -0.0520133352531 0.803 1.9684723362e-38
0.028235810566 -0.0520133352531 0.803 2.10712241146e-38
0.0297219058589 -0.0520133352531 0.803 1.93177401098e-38
0.0312080011519 -0.0520133352531 0.803 2.09743663647e-38
0.0326940964448 -0.0520133352531 0.803 1.86673582561e-38
0.0341801917378 -0.0520133352531 0.803 2.15225333045e-38
0.0356662870307 -0.0520133352531 0.803 2.11566024274e-38
0.0372449162771 -0.052142882788 0.805 2.04183311341e-38
0.0387347129282 -0.052142882788 0.805 1.97729715341e-38
0.0403244462491 -0.0522724303229 0.807 2.1061897072e-38
0.0418179442583 -0.0522724303229 0.807 1.99595151883e-38
0.0433114422675 -0.0522724303229 0.807 1.9681136038e-38
0.0448049402767 -0.0522724303229 0.807 2.10608208748e-38
0.046298438286 -0.0522724303229 0.807 2.34679307391e-38
0.0479103797556 -0.0524019778577 0.809 2.33812394096e-38
0.0496518687602 -0.0526610729275 0.813 2.09733406142e-38
0.0514081631973 -0.0529201679972 0.817 2.26317899584e-38
0.053179263067 -0.053179263067 0.821 2.24487831816e-38
0.0548319194762 -0.0533088106019 0.823 2.27239407468e-38
0.0563550283506 -0.0533088106019 0.823 2.34640281229e-38
0.0581594404435 -0.0535679056716 0.827 2.34668965809e-38
0.0596899520341 -0.0535679056716 0.827 2.34689943247e-38
0.0621087895782 -0.0543451908809 0.839 2.34874928657e-38
0.0636615093176 -0.0543451908809 0.839 2.35098169515e-38
-0.00780061227866 -0.0530441634949 0.843 2.35069162637e-38
-0.00624048982293 -0.0530441634949 0.843 1.92453686493e-38
-0.00461374292069 -0.0522890864345 0.831 1.70218527058e-38
-0.00307582861379 -0.0522890864345 0.831 1.6295457417e-38
-0.00153421294876 -0.0521632402577 0.829 1.87840023403e-38
0.0 -0.0519115479043 0.825 1.71108870064e-38
0.00152681023248 -0.0519115479043 0.825 1.7481041397e-38
0.0030388150324 -0.0516598555508 0.821 1.82142792263e-38
0.0045582225486 -0.0516598555508 0.821 1.79359028785e-38
0.00606282463224 -0.0515340093741 0.819 1.74749317357e-38
0.00752301041821 -0.0511564708438 0.813 1.80252272479e-38
0.00902761250186 -0.0511564708438 0.813 1.83018099335e-38
0.0105063050785 -0.0510306246671 0.811 1.83932866973e-38
0.012007205804 -0.0510306246671 0.811 1.83010924687e-38
0.0135414187528 -0.0511564708438 0.813 1.88531816429e-38
0.015009007255 -0.0510306246671 0.811 1.94049120847e-38
0.016469193041 -0.0509047784904 0.809 1.88521054457e-38
0.0179219761107 -0.0507789323136 0.807 1.89435822094e-38
0.0194154741199 -0.0507789323136 0.807 1.97758413934e-38
0.0209089721291 -0.0507789323136 0.807 2.12588411634e-38
0.0224024701384 -0.0507789323136 0.807 1.83093881556e-38
0.0238959681476 -0.0507789323136 0.807 1.95896592742e-38
0.0253894661568 -0.0507789323136 0.807 1.90368526352e-38
0.026882964166 -0.0507789323136 0.807 1.86666407913e-38
0.0283764621753 -0.0507789323136 0.807 2.03232670462e-38
0.0298699601845 -0.0507789323136 0.807 2.03261369055e-38
0.0313634581937 -0.0507789323136 0.807 2.03239845111e-38
0.0328569562029 -0.0507789323136 0.807 2.06941963549e-38
0.0343504542122 -0.0507789323136 0.807 1.95875068798e-38
0.0358439522214 -0.0507789323136 0.807 2.00474018254e-38
0.0373374502306 -0.0507789323136 0.807 1.98658832275e-38
0.0388309482398 -0.0507789323136 0.807 1.98658832275e-38
0.0404243829188 -0.0509047784904 0.809 2.00481192902e-38
0.0419215822862 -0.0509047784904 0.809 1.98648070303e-38
0.0434187816536 -0.0509047784904 0.809 2.0510884095e-38
0.0450270217651 -0.0510306246671 0.811 2.06941963549e-38
0.0466426645929 -0.0511564708438 0.813 2.11605484839e-38
0.0481472666766 -0.0511564708438 0.813 2.13445782086e-38
0.050018303216 -0.0515340093741 0.819 2.18041326387e-38
0.0516598555508 -0.0516598555508 0.821 2.19871618363e-38
0.0533088106019 -0.0517857017275 0.823 2.1894555626e-38
0.0549651683692 -0.0519115479043 0.825 2.2631351352e-38
0.0564919786017 -0.0519115479043 0.825 2.34665336446e-38
0.0581594404435 -0.052037394081 0.827 2.14339207948e-38
0.0605560698387 -0.0527924711414 0.839 2.34794339982e-38
0.0621087895782 -0.0527924711414 0.839 2.34867347632e-38
0.0636615093176 -0.0527924711414 0.839 2.35098155502e-38
-0.00783762586006 -0.0517283306764 0.847 2.35065547287e-38
-0.00624048982293 -0.0514840410392 0.843 1.92500601966e-38
-0.00464705514394 -0.0511176065834 0.837 1.9969279436e-38
-0.00309063404635 -0.0509954617648 0.835 1.42667878211e-38
-0.00154161566504 -0.0508733169462 0.833 1.78616732963e-38
0.0 -0.0508733169462 0.833 1.62814626492e-38
0.0015379143069 -0.0507511721276 0.831 1.68335336065e-38
0.00306842589751 -0.050629027309 0.829 1.72941306027e-38
0.00459153477185 -0.0505068824904 0.827 1.78444261148e-38
0.00609243549736 -0.0502625928532 0.823 1.72905432786e-38
0.0076155443717 -0.0502625928532 0.823 1.79312393573e-38
0.00909423694836 -0.050018303216 0.819 1.8573729098e-38
0.0105840335994 -0.0498961583974 0.817 1.88521054457e-38
0.0120960383994 -0.0498961583974 0.817 1.86695106506e-38
0.013574730976 -0.0497740135788 0.815 1.95896620768e-38
0.0150830344178 -0.0497740135788 0.815 1.9587883829e-38
0.0165099079805 -0.0495297239416 0.811 1.94031184226e-38
0.018010808706 -0.0495297239416 0.811 1.91290496664e-38
0.0195117094315 -0.0495297239416 0.811 1.92219585572e-38
0.0209607911431 -0.049407579123 0.809 1.89450171391e-38
0.0224579905105 -0.049407579123 0.809 1.95003349049e-38
0.0239551898778 -0.049407579123 0.809 1.95871481474e-38
0.0254523892452 -0.049407579123 0.809 1.97726128017e-38
0.0269495886125 -0.049407579123 0.809 2.10640494664e-38
0.0284467879799 -0.049407579123 0.809 2.01410309836e-38
0.0299439873473 -0.049407579123 0.809 2.06927670305e-38
0.0315189152356 -0.0495297239416 0.811 1.97704604073e-38
0.032938386082 -0.049407579123 0.809 2.00481192902e-38
0.0344355854494 -0.049407579123 0.809 1.97726128017e-38
0.0360216174121 -0.0495297239416 0.811 1.99580774561e-38
0.0375225181376 -0.0495297239416 0.811 1.96829297e-38
0.0390234188631 -0.0495297239416 0.811 1.95907354714e-38
0.0406242562583 -0.0496518687602 0.813 2.03254194407e-38
0.042128858342 -0.0496518687602 0.813 1.99562936031e-38
0.0436334604256 -0.0496518687602 0.813 1.98658832275e-38
0.0452491032535 -0.0497740135788 0.815 2.03257781731e-38
0.0468721487976 -0.0498961583974 0.817 2.01406722511e-38
0.0485025970579 -0.050018303216 0.819 2.14310383238e-38
0.0501404480346 -0.0501404480346 0.821 2.27260637139e-38
0.0517857017275 -0.0502625928532 0.823 2.20793140259e-38
0.0535679056716 -0.0505068824904 0.827 2.20807209296e-38
0.0550984172622 -0.0505068824904 0.827 2.2542403932e-38
0.0566289288529 -0.0505068824904 0.827 2.19859917521e-38
0.0591440017085 -0.0513618962206 0.841 2.34672342938e-38
0.0605560698387 -0.051239751402 0.839 2.34762950897e-38
0.0621087895782 -0.051239751402 0.839 2.34914263105e-38
0.0636615093176 -0.051239751402 0.839 2.35098337671e-38
-0.00940515103207 -0.0501608055044 0.847 2.34961108512e-38
-0.00783762586006 -0.0501608055044 0.847 2.35094175815e-38
-0.00625529525549 -0.0500423620439 0.845 1.98075485737e-38
-0.00465815921836 -0.0496870316625 0.839 1.9514382922e-38
-0.00309803676263 -0.0495685882021 0.837 1.52773370113e-38
-0.00154531702318 -0.0494501447416 0.835 1.66585086257e-38
0.0 -0.0493317012812 0.833 2.24624514468e-38
0.00154161566504 -0.0493317012812 0.833 1.7479637296e-38
0.00306842589751 -0.0490948143602 0.829 1.59133695686e-38
0.00459153477185 -0.0489763708998 0.827 1.77569150257e-38
0.00610724092991 -0.0488579274393 0.825 1.72001427121e-38
0.00763405116239 -0.0488579274393 0.825 1.84854809259e-38
0.00913865324604 -0.0487394839789 0.823 1.85758814924e-38
0.0106358526134 -0.0486210405184 0.821 1.86662820589e-38
0.0121256492645 -0.0485025970579 0.819 1.93123591237e-38
0.0136080431993 -0.0483841535975 0.817 1.98648070303e-38
0.0151200479992 -0.0483841535975 0.817 1.95882243446e-38
0.0166320527991 -0.0483841535975 0.817 1.96822122352e-38
0.0180996413014 -0.048265710137 0.815 1.87602713508e-38
0.0196079447432 -0.048265710137 0.815 2.01410309836e-38
0.0211162481849 -0.048265710137 0.815 2.0048836755e-38
0.0226245516267 -0.048265710137 0.815 1.99577187236e-38
0.0241328550685 -0.048265710137 0.815 2.13399146873e-38
0.0256411585103 -0.048265710137 0.815 2.00484780226e-38
0.0272160863986 -0.0483841535975 0.817 2.00484780226e-38
0.0287280911985 -0.0483841535975 0.817 2.0141389716e-38
0.0302400959984 -0.0483841535975 0.817 2.00509891494e-38
0.0317521007983 -0.0483841535975 0.817 1.8024509783e-38
0.0332641055983 -0.0483841535975 0.817 2.03272131027e-38
0.0348612416354 -0.0485025970579 0.819 2.03286480323e-38
0.0361992826028 -0.048265710137 0.815 2.01442595752e-38
0.0377075860445 -0.048265710137 0.815 1.99602298505e-38
0.039312124798 -0.0483841535975 0.817 2.03282892999e-38
0.0409240662676 -0.0485025970579 0.819 2.03282892999e-38
0.0424397724257 -0.0485025970579 0.819 2.11566024274e-38
0.0438481391977 -0.0483841535975 0.817 2.03290067648e-38
0.0453601439976 -0.0483841535975 0.817 2.02339426769e-38
0.0469868908999 -0.0485025970579 0.819 2.10647669312e-38
0.0485025970579 -0.0485025970579 0.819 2.10636963392e-38
0.0501404480346 -0.0486210405184 0.821 2.12491862169e-38
0.0517857017275 -0.0487394839789 0.823 2.24480951441e-38
0.0535679056716 -0.0489763708998 0.827 2.23580294879e-38
0.0552316661553 -0.0490948143602 0.829 2.19856330197e-38
0.056765879104 -0.0490948143602 0.829 2.31816566733e-38
0.0591440017085 -0.049805475123 0.841 2.34709267152e-38
0.0607004228061 -0.049805475123 0.841 2.26407442556e-38
0.0622568439037 -0.049805475123 0.841 2.34968465329e-38
0.0638132650013 -0.049805475123 0.841 2.35098295632e-38
-0.00787463944145 -0.048822764537 0.851 2.35011919595e-38
-0.00629971155316 -0.048822764537 0.851 2.17454560681e-38
-0.00465815921836 -0.0481343119231 0.839 1.90504844667e-38
-0.00310543947891 -0.0481343119231 0.839 1.39855416141e-38
-0.00154901838131 -0.0480195698208 0.837 1.58273382507e-38
0.0 -0.0479048277184 0.835 2.08976270569e-38
0.00154161566504 -0.0477900856161 0.833 2.19081468198e-38
0.00307582861379 -0.0476753435138 0.831 1.70164815288e-38
0.00460263884627 -0.0475606014115 0.829 1.51794086694e-38
0.00612204636247 -0.0474458593092 0.827 1.80284558395e-38
0.00765255795309 -0.0474458593092 0.827 1.9130123061e-38
0.00916086139487 -0.0473311172068 0.825 1.91294055962e-38
0.0106617621204 -0.0472163751045 0.823 1.96807773055e-38
0.0121848709947 -0.0472163751045 0.823 1.93112927356e-38
0.0136413554225 -0.0469868908999 0.819 1.95878656122e-38
0.0151570615806 -0.0469868908999 0.819 1.93130765885e-38
0.0166727677387 -0.0469868908999 0.819 1.99605885829e-38
0.0181440575991 -0.0468721487976 0.817 1.98666006923e-38
0.019656062399 -0.0468721487976 0.817 2.06938376225e-38
0.0211680671989 -0.0468721487976 0.817 1.9956283794e-38
0.0226800719988 -0.0468721487976 0.817 2.00484780226e-38
0.0241920767987 -0.0468721487976 0.817 2.06031301716e-38
0.025767004687 -0.0469868908999 0.819 2.02310728177e-38
0.0272827108451 -0.0469868908999 0.819 2.0510884095e-38
0.0287984170032 -0.0469868908999 0.819 1.96843646296e-38
0.0303141231612 -0.0469868908999 0.819 1.96829297e-38
0.0318298293193 -0.0469868908999 0.819 1.96850820944e-38
0.0333455354773 -0.0469868908999 0.819 2.00509891494e-38
0.0348612416354 -0.0469868908999 0.819 2.03268543703e-38
0.0363769477935 -0.0469868908999 0.819 1.99580774561e-38
0.0378926539515 -0.0469868908999 0.819 1.9866251769e-38
0.0394083601096 -0.0469868908999 0.819 1.98658832275e-38
0.0409240662676 -0.0469868908999 0.819 2.03261369055e-38
0.0425434104536 -0.0471016330022 0.821 2.19842050965e-38
0.0440628179698 -0.0471016330022 0.821 2.04194255482e-38
0.045582225486 -0.0471016330022 0.821 2.08793022769e-38
0.0472163751045 -0.0472163751045 0.823 2.09729314351e-38
0.0487394839789 -0.0472163751045 0.823 2.16183162584e-38
0.0503847376718 -0.0473311172068 0.825 2.26331940595e-38
0.0521632402577 -0.0475606014115 0.829 2.18966954087e-38
0.0543451908809 -0.0481343119231 0.839 2.22629976299e-38
0.0560311595134 -0.0482490540254 0.841 2.32749285003e-38
0.057587580611 -0.0482490540254 0.841 2.32759934872e-38
0.0592846533178 -0.0483637961277 0.843 2.34752076821e-38
0.0608447757736 -0.0483637961277 0.843 2.09822851023e-38
0.0624048982293 -0.0483637961277 0.843 2.35007869842e-38
0.063965020685 -0.0483637961277 0.843 2.35098435762e-38
-0.00948287955299 -0.047414397765 0.854 2.34990101378e-38
-0.00787463944145 -0.0472478366487 0.851 2.35018982139e-38
