# .PCD v0.7 - Point Cloud Data file format
VERSION 0.7
FIELDS x y z rgb
SIZE 4 4 4 4
TYPE F F F F
COUNT 1 1 1 1
WIDTH 854
HEIGHT 1
VIEWPOINT 0 0 0 1 0 0 0
POINTS 854
DATA ascii
-0.0162859758131 -0.143316587155 0.88 1.23149247953e-38
-0.0146573782318 -0.143316587155 0.88 1.29606431277e-38
-0.0130287806505 -0.143316587155 0.88 1.26847779068e-38
-0.0113742735622 -0.142990867639 0.878 1.31432379228e-38
-0.00974937733903 -0.142990867639 0.878 1.34187444113e-38
-0.00812448111586 -0.142990867639 0.878 1.30510436942e-38
-0.00647737674385 -0.142502288365 0.875 1.25918662134e-38
-0.00485803255789 -0.142502288365 0.875 1.26847779068e-38
-0.00323868837192 -0.142502288365 0.875 1.36034916008e-38
-0.00161564282782 -0.142176568848 0.873 1.34187444113e-38
0.0 -0.142176568848 0.873 1.32357908838e-38
0.00161194146968 -0.141850849332 0.871 1.36034916008e-38
0.00322388293937 -0.141850849332 0.871 1.36034916008e-38
0.00483582440905 -0.141850849332 0.871 1.34191031437e-38
0.00644776587873 -0.141850849332 0.871 1.38782806245e-38
0.00804120055772 -0.141525129816 0.869 1.35105799074e-38
0.00964944066926 -0.141525129816 0.869 1.42502861304e-38
0.0112576807808 -0.141525129816 0.869 1.47105398084e-38
0.0128659208924 -0.141525129816 0.869 1.47091048788e-38
0.0144741610039 -0.141525129816 0.869 1.45243576892e-38
0.0160824011154 -0.141525129816 0.869 1.47091048788e-38
0.017690641227 -0.141525129816 0.869 1.498353517e-38
0.0192988813385 -0.141525129816 0.869 1.47073112167e-38
0.0209552391059 -0.141850849332 0.871 1.4981741508e-38
0.0225671805756 -0.141850849332 0.871 1.49828177052e-38
0.0242346424173 -0.142176568848 0.873 1.47995054453e-38
0.0258502852452 -0.142176568848 0.873 1.56253074459e-38
0.0275288511614 -0.142502288365 0.875 1.65497608584e-38
0.0292481320171 -0.142990867639 0.878 1.5536341809e-38
0.0309433540449 -0.143316587155 0.88 1.68267022765e-38
0.0325719516262 -0.143316587155 0.88 7.4386751888e-39
0.0342782777284 -0.143642306672 0.882 1.37209554446e-38
0.0360327214865 -0.144130885946 0.885 1.92540637063e-38
0.0376705724632 -0.144130885946 0.885 1.88780757101e-38
0.0393972560352 -0.144456605462 0.887 1.98014739449e-38
0.04103880837 -0.144456605462 0.887 1.31658716956e-38
-0.0314356346774 -0.143942116681 0.894 1.9975655344e-38
-0.0296811909194 -0.143459089444 0.891 2.292664978e-38
-0.0280322358683 -0.143459089444 0.891 8.45783395671e-39
-0.026324059087 -0.143137071286 0.889 1.09363203596e-38
-0.024623285022 -0.142815053127 0.887 9.371525397e-39
-0.0229817326872 -0.142815053127 0.887 1.26890826957e-38
-0.0213401803524 -0.142815053127 0.887 1.21351998595e-38
-0.0196542117199 -0.142493034969 0.885 1.13972872986e-38
-0.0179552883339 -0.142010007732 0.882 1.18564647794e-38
-0.0163229893945 -0.142010007732 0.882 1.2591507481e-38
-0.0146573782318 -0.141687989574 0.88 1.24092714183e-38
-0.0130287806505 -0.141687989574 0.88 1.27773308678e-38
-0.0114001830692 -0.141687989574 0.88 1.30510436942e-38
-0.00974937733903 -0.141365971416 0.878 1.36935334349e-38
-0.00812448111586 -0.141365971416 0.878 1.25929424107e-38
-0.00649958489268 -0.141365971416 0.878 1.25925836783e-38
-0.00485803255789 -0.140882944179 0.875 1.34198206085e-38
-0.00323868837192 -0.140882944179 0.875 1.36956858294e-38
-0.00161564282782 -0.140560926021 0.873 1.3142520458e-38
0.0 -0.140560926021 0.873 1.33276263799e-38
0.00161564282782 -0.140560926021 0.873 1.42470575387e-38
0.00322388293937 -0.140238907862 0.871 1.35105799074e-38
0.00483582440905 -0.140238907862 0.871 1.3142520458e-38
0.00644776587873 -0.140238907862 0.871 1.38782806245e-38
0.00805970734842 -0.140238907862 0.871 1.36016979388e-38
0.0096716488181 -0.140238907862 0.871 1.44335983903e-38
0.0112835902878 -0.140238907862 0.871 1.49874812265e-38
0.0128659208924 -0.139916889704 0.869 1.47080286816e-38
0.0144741610039 -0.139916889704 0.869 1.47991467129e-38
0.0160824011154 -0.139916889704 0.869 1.49828177052e-38
0.0177313561665 -0.140238907862 0.871 1.66433900166e-38
0.0193432976362 -0.140238907862 0.871 1.4802734037e-38
0.0209552391059 -0.140238907862 0.871 1.47995054453e-38
0.0225671805756 -0.140238907862 0.871 1.54423539184e-38
0.0242346424173 -0.140560926021 0.873 1.47995054453e-38
0.0258502852452 -0.140560926021 0.873 1.60877135184e-38
0.0275288511614 -0.140882944179 0.875 1.55374180062e-38
0.0292481320171 -0.141365971416 0.878 1.61838538034e-38
0.0309433540449 -0.141687989574 0.88 1.64615126863e-38
0.032645978789 -0.142010007732 0.882 1.4702288963e-38
0.0343948705098 -0.142493034969 0.885 6.06114274643e-39
0.0360327214865 -0.142493034969 0.885 1.37179846918e-38
0.0377557037004 -0.142815053127 0.887 1.72278828165e-38
0.0393972560352 -0.142815053127 0.887 1.69509708256e-38
0.04103880837 -0.142815053127 0.887 4.49993931174e-39
-0.0314356346774 -0.142287609593 0.894 2.04380712255e-38
-0.0296811909194 -0.141810134393 0.891 2.26511825279e-38
-0.0280322358683 -0.141810134393 0.891 8.54931072046e-39
-0.0263832808172 -0.141810134393 0.891 1.14844592734e-38
-0.024623285022 -0.141173500793 0.887 1.18589759062e-38
-0.0229817326872 -0.141173500793 0.887 1.20426468985e-38
-0.0213401803524 -0.141173500793 0.887 1.21301776058e-38
-0.0196542117199 -0.140855183993 0.885 1.16731525195e-38
-0.0180163607432 -0.140855183993 0.885 1.21319712678e-38
-0.0163229893945 -0.140377708793 0.882 1.21301776058e-38
-0.014690690455 -0.140377708793 0.882 1.26847779068e-38
-0.0130287806505 -0.140059391993 0.88 1.29606431277e-38
-0.0114001830692 -0.140059391993 0.88 1.32354321514e-38
-0.00977158548786 -0.140059391993 0.88 1.33258327179e-38
-0.00812448111586 -0.139741075193 0.878 1.32354321514e-38
-0.00649958489268 -0.139741075193 0.878 1.30503262294e-38
-0.00487468866951 -0.139741075193 0.878 1.3049967497e-38
-0.00323868837192 -0.139263599993 0.875 1.36013392064e-38
-0.00161934418596 -0.139263599993 0.875 1.30510436942e-38
0.0 -0.139263599993 0.875 1.33258327179e-38
0.00161564282782 -0.138945283193 0.873 1.44303697986e-38
0.00323128565565 -0.138945283193 0.873 1.31428791904e-38
0.00483582440905 -0.138626966393 0.871 1.36034916008e-38
0.00644776587873 -0.138626966393 0.871 1.38782806245e-38
0.00805970734842 -0.138626966393 0.871 1.3602774136e-38
0.0096716488181 -0.138626966393 0.871 1.45247164216e-38
0.0112835902878 -0.138626966393 0.871 1.73845423796e-38
0.0128955317575 -0.138626966393 0.871 1.61903179932e-38
0.0145074732272 -0.138626966393 0.871 1.51733046133e-38
0.0161194146968 -0.138626966393 0.871 1.50775230606e-38
0.0177313561665 -0.138626966393 0.871 1.55388529359e-38
0.0193432976362 -0.138626966393 0.871 1.56331995589e-38
0.0209552391059 -0.138626966393 0.871 1.52576067289e-38
0.0226189995895 -0.138945283193 0.873 1.5904042526e-38
0.0242346424173 -0.138945283193 0.873 1.46147582558e-38
0.0259095069754 -0.139263599993 0.875 1.5441995186e-38
0.0276232357939 -0.139741075193 0.878 1.59940843602e-38
0.0293147564636 -0.140059391993 0.88 1.52597591233e-38
0.0309433540449 -0.140059391993 0.88 1.5721447731e-38
0.032645978789 -0.140377708793 0.882 1.65508370556e-38
0.0343948705098 -0.140855183993 0.885 1.23081088796e-38
0.0361141513656 -0.141173500793 0.887 8.99987862348e-39
0.0377557037004 -0.141173500793 0.887 6.61215572338e-39
0.0393972560352 -0.141173500793 0.887 7.71418167727e-39
0.04103880837 -0.141173500793 0.887 5.32645877716e-39
-0.0315059604821 -0.140947717946 0.896 1.93292279546e-38
-0.0297811275891 -0.140633102504 0.894 2.15430090776e-38
-0.0280322358683 -0.140161179342 0.891 9.19574651763e-39
-0.0263832808172 -0.140161179342 0.891 1.14909164568e-38
-0.0246788053941 -0.1398465639 0.889 1.09377510854e-38
-0.0230335517011 -0.1398465639 0.889 1.11207046129e-38
-0.0213882980082 -0.1398465639 0.889 1.17621181564e-38
-0.0196986280176 -0.139531948458 0.887 1.19475828107e-38
-0.0180163607432 -0.139217333016 0.885 1.2131253803e-38
-0.0163785097666 -0.139217333016 0.885 1.24071190239e-38
-0.014690690455 -0.138745409853 0.882 1.21316125354e-38
-0.0130287806505 -0.138430794411 0.88 1.29602843953e-38
-0.0114001830692 -0.138430794411 0.88 1.33287025771e-38
-0.00977158548786 -0.138430794411 0.88 1.30524786239e-38
-0.00812448111586 -0.13811617897 0.878 1.28695250964e-38
-0.00649958489268 -0.13811617897 0.878 1.30510436942e-38
-0.00487468866951 -0.13811617897 0.878 1.32354321514e-38
-0.00324979244634 -0.13811617897 0.878 1.36935334349e-38
-0.00161934418596 -0.137644255807 0.875 1.33279851123e-38
0.0 -0.137644255807 0.875 1.31432379228e-38
0.00161564282782 -0.137329640365 0.873 1.30506849618e-38
0.00323128565565 -0.137329640365 0.873 1.31432379228e-38
0.00484692848347 -0.137329640365 0.873 1.32354321514e-38
0.00646257131129 -0.137329640365 0.873 1.36956858294e-38
0.00805970734842 -0.137015024923 0.871 1.4708387414e-38
0.0096716488181 -0.137015024923 0.871 1.43428390914e-38
0.0112835902878 -0.137015024923 0.871 1.48931346035e-38
0.0128955317575 -0.137015024923 0.871 1.50768055958e-38
0.0145074732272 -0.137015024923 0.871 1.52611940529e-38
0.0161194146968 -0.137015024923 0.871 1.52626289826e-38
0.0177720711061 -0.137329640365 0.873 1.52626289826e-38
0.0193877139339 -0.137329640365 0.873 1.49849700997e-38
0.0210033567617 -0.137329640365 0.873 1.55352656118e-38
0.0226189995895 -0.137329640365 0.873 1.73795089155e-38
0.0243734433476 -0.13811617897 0.878 1.69221250967e-38
0.0259983395707 -0.13811617897 0.878 1.61845712682e-38
0.0276232357939 -0.13811617897 0.878 1.6917102843e-38
0.0293147564636 -0.138430794411 0.88 1.72873146869e-38
0.0309433540449 -0.138430794411 0.88 1.784370865e-38
0.032645978789 -0.138745409853 0.882 1.5723241393e-38
0.0343948705098 -0.139217333016 0.885 1.50710658773e-38
0.0361141513656 -0.139531948458 0.887 1.5440201524e-38
0.0377557037004 -0.139531948458 0.887 1.56245899811e-38
0.0393972560352 -0.139531948458 0.887 1.44310872635e-38
0.04103880837 -0.139531948458 0.887 6.70399121953e-39
-0.0315059604821 -0.1392895095 0.896 1.95146884051e-38
-0.0298477520357 -0.1392895095 0.896 2.08983277061e-38
-0.0281266205009 -0.138978595416 0.894 7.81139815953e-39
-0.0263832808172 -0.13851222429 0.891 1.04764212101e-38
-0.0246788053941 -0.138201310207 0.889 1.10277929195e-38
-0.0230335517011 -0.138201310207 0.889 1.12128988414e-38
-0.0213882980082 -0.138201310207 0.889 1.12136163063e-38
-0.0196986280176 -0.137890396123 0.887 1.2131253803e-38
-0.0180570756828 -0.137890396123 0.887 1.22245242288e-38
-0.0163785097666 -0.137579482039 0.885 1.24078364887e-38
-0.014690690455 -0.137113110914 0.882 1.24092714183e-38
-0.0130583915156 -0.137113110914 0.882 1.30535548211e-38
-0.0114001830692 -0.13680219683 0.88 1.31457490496e-38
-0.00977158548786 -0.13680219683 0.88 1.2685854104e-38
-0.00812448111586 -0.136491282746 0.878 1.25918662134e-38
-0.00649958489268 -0.136491282746 0.878 1.34187444113e-38
-0.00487468866951 -0.136491282746 0.878 1.32354321514e-38
-0.00324979244634 -0.136491282746 0.878 1.33276263799e-38
-0.00162489622317 -0.136491282746 0.878 1.32365083486e-38
0.0 -0.136024911621 0.875 1.33279851123e-38
0.00161934418596 -0.136024911621 0.875 1.33279851123e-38
0.00323868837192 -0.136024911621 0.875 1.35112973722e-38
0.00484692848347 -0.135713997537 0.873 1.36034916008e-38
0.00646257131129 -0.135713997537 0.873 1.38804330189e-38
0.00807821413911 -0.135713997537 0.873 1.45250751541e-38
0.00969385696694 -0.135713997537 0.873 1.47098223436e-38
0.0113094997948 -0.135713997537 0.873 1.5077881793e-38
0.0129251426226 -0.135713997537 0.873 1.47091048788e-38
0.0145407854504 -0.135713997537 0.873 1.52601178557e-38
0.0161564282782 -0.135713997537 0.873 1.5170434754e-38
0.0177720711061 -0.135713997537 0.873 1.53526708167e-38
0.0193877139339 -0.135713997537 0.873 1.47094636112e-38
0.0210514744175 -0.136024911621 0.875 1.69192552375e-38
0.0226708186035 -0.136024911621 0.875 1.53490834926e-38
0.0243734433476 -0.136491282746 0.878 1.5440201524e-38
0.0259983395707 -0.136491282746 0.878 1.63642962041e-38
0.0276232357939 -0.136491282746 0.878 1.86734567071e-38
0.0293147564636 -0.13680219683 0.88 1.78419149879e-38
0.0309433540449 -0.13680219683 0.88 1.52608353205e-38
0.032645978789 -0.137113110914 0.882 1.59962367546e-38
0.0343948705098 -0.137579482039 0.885 1.62731781727e-38
0.0361141513656 -0.137890396123 0.887 1.55334719498e-38
0.0377557037004 -0.137890396123 0.887 1.7009655804e-38
0.0394860886305 -0.138201310207 0.889 1.42520797924e-38
0.0411313423234 -0.138201310207 0.889 8.55325677693e-39
0.0430171842954 -0.138978595416 0.894 2.19157278445e-38
-0.0318575895053 -0.139167364681 0.906 1.85913097885e-38
-0.0300143131519 -0.138399332867 0.901 2.12675011879e-38
-0.0282524666776 -0.137938513779 0.898 1.02080893698e-38
-0.0265313351428 -0.137631301053 0.896 1.09445670011e-38
-0.0248176063243 -0.137324088328 0.894 9.82962668057e-39
-0.023163099236 -0.137324088328 0.894 1.17610419591e-38
-0.021436415664 -0.136863269239 0.891 1.18535949201e-38
-0.0197430443153 -0.136556056514 0.889 1.1763553086e-38
-0.0180977906223 -0.136556056514 0.889 1.2131253803e-38
-0.016415523348 -0.136248843788 0.887 1.24993132525e-38
-0.0147739710132 -0.136248843788 0.887 1.25925836783e-38
-0.0131028078133 -0.135941631063 0.885 1.32372258134e-38
-0.0114260925761 -0.135480811974 0.882 1.25929424107e-38
-0.00977158548786 -0.135173599249 0.88 1.28695250964e-38
-0.00814298790655 -0.135173599249 0.88 1.28706012936e-38
-0.00651439032524 -0.135173599249 0.88 1.33287025771e-38
-0.00487468866951 -0.134866386523 0.878 1.34208968057e-38
-0.00324979244634 -0.134866386523 0.878 1.36056439953e-38
-0.00162489622317 -0.134866386523 0.878 1.29602843953e-38
0.0 -0.134866386523 0.878 1.34187444113e-38
0.00161934418596 -0.134405567435 0.875 1.33276263799e-38
0.00323868837192 -0.134405567435 0.875 1.34219730029e-38
0.00485803255789 -0.134405567435 0.875 1.3604567798e-38
0.00647737674385 -0.134405567435 0.875 1.46151169882e-38
0.00807821413911 -0.134098354709 0.873 1.45250751541e-38
0.00969385696694 -0.134098354709 0.873 1.59076298501e-38
0.0113094997948 -0.134098354709 0.873 1.46169106502e-38
0.0129251426226 -0.134098354709 0.873 1.50775230606e-38
0.0145407854504 -0.134098354709 0.873 1.49853288321e-38
0.0161564282782 -0.134098354709 0.873 1.69232167082e-38
0.0178127860456 -0.134405567435 0.875 1.46172693826e-38
0.0194321302315 -0.134405567435 0.875 1.48949282655e-38
0.0210514744175 -0.134405567435 0.875 1.5441995186e-38
0.0227485471244 -0.134866386523 0.878 1.56278185728e-38
0.0243734433476 -0.134866386523 0.878 1.54423539184e-38
0.0259983395707 -0.134866386523 0.878 1.59033250612e-38
0.0276861588823 -0.135173599249 0.88 1.70993389057e-38
0.0293147564636 -0.135173599249 0.88 1.67327143859e-38
0.0310136798495 -0.135480811974 0.882 1.70092970716e-38
0.0327570195332 -0.135941631063 0.885 1.59044012585e-38
0.0344725990308 -0.136248843788 0.887 1.54441475804e-38
0.0361955812446 -0.136556056514 0.889 1.59944430926e-38
0.0378408349376 -0.136556056514 0.889 1.86684414599e-38
0.0395749212258 -0.136863269239 0.891 6.70399121953e-39
0.0412238762769 -0.136863269239 0.891 9.93975752948e-39
0.0430171842954 -0.137324088328 0.894 2.15451628734e-38
-0.0318575895053 -0.137490649444 0.906 1.90522823326e-38
-0.0300809375984 -0.137035382393 0.903 2.1358585588e-38
-0.0282524666776 -0.136276603974 0.898 1.17764688539e-38
-0.026590556873 -0.136276603974 0.898 1.19637313742e-38
-0.0248731266964 -0.135973092607 0.896 1.2885693278e-38
-0.023163099236 -0.135669581239 0.894 1.1407331806e-38
-0.021436415664 -0.135214314188 0.891 1.0939186015e-38
-0.0197430443153 -0.134910802821 0.889 1.10234881306e-38
-0.0180977906223 -0.134910802821 0.889 1.1940766895e-38
-0.016415523348 -0.134607291453 0.887 1.24060428267e-38
-0.0147739710132 -0.134607291453 0.887 1.28680901667e-38
-0.0131028078133 -0.134303780086 0.885 1.27751784734e-38
-0.0114649568366 -0.134303780086 0.885 1.29602843953e-38
-0.0097937936367 -0.133848513035 0.882 1.28695250964e-38
-0.00814298790655 -0.133545001667 0.88 1.29627955221e-38
-0.00651439032524 -0.133545001667 0.88 1.33287025771e-38
-0.00488579274393 -0.133545001667 0.88 1.35112973722e-38
-0.00324979244634 -0.1332414903 0.878 1.31432379228e-38
-0.00162489622317 -0.1332414903 0.878 1.33279851123e-38
0.0 -0.1332414903 0.878 1.36960445618e-38
0.00162489622317 -0.1332414903 0.878 1.34191031437e-38
0.00324979244634 -0.1332414903 0.878 1.3235073419e-38
0.00485803255789 -0.132786223249 0.875 1.38804330189e-38
0.00647737674385 -0.132786223249 0.875 1.44318047283e-38
0.00809672092981 -0.132786223249 0.875 1.44339571227e-38
0.00971606511577 -0.132786223249 0.875 1.58150768891e-38
0.0113354093017 -0.132786223249 0.875 1.48956457303e-38
0.0129547534877 -0.132786223249 0.875 1.51700760216e-38
0.0145740976737 -0.132786223249 0.875 1.52611940529e-38
0.0161934418596 -0.132786223249 0.875 1.56274598404e-38
0.0178127860456 -0.132786223249 0.875 1.54455825101e-38
0.0194987546781 -0.1332414903 0.878 1.55399291331e-38
0.0211236509012 -0.1332414903 0.878 1.60916595748e-38
0.0227485471244 -0.1332414903 0.878 1.54484523693e-38
0.0243734433476 -0.1332414903 0.878 1.5536341809e-38
0.026057561301 -0.133545001667 0.88 1.59054774557e-38
0.0276861588823 -0.133545001667 0.88 1.67337905831e-38
0.0293147564636 -0.133545001667 0.88 1.65472497316e-38
0.0311191685565 -0.134303780086 0.885 1.70075034096e-38
0.032831046696 -0.134607291453 0.887 1.78383276639e-38
0.0344725990308 -0.134607291453 0.887 1.73830962396e-38
0.0361955812446 -0.134910802821 0.889 1.25933011431e-38
0.0378408349376 -0.134910802821 0.889 1.91409116579e-38
0.0395749212258 -0.135214314188 0.891 6.97949770801e-39
0.0412238762769 -0.135214314188 0.891 1.03117630354e-38
0.042872831328 -0.135214314188 0.891 2.31132088485e-38
-0.0300809375984 -0.135364219193 0.903 2.12671536658e-38
-0.0283468513102 -0.135064409184 0.901 9.83787752592e-39
-0.026590556873 -0.13461469417 0.898 1.25165352106e-38
-0.0248731266964 -0.13431488416 0.896 1.09507144975e-38
-0.02321491825 -0.13431488416 0.896 1.28853527625e-38
-0.0215567098035 -0.13431488416 0.896 1.15967845557e-38
-0.0197874606129 -0.133565359137 0.891 1.41789474269e-38
-0.0180977906223 -0.133265549128 0.889 1.66653007194e-38
-0.0164525369294 -0.133265549128 0.889 9.56524089671e-39
-0.0147739710132 -0.132965739119 0.887 1.35080687806e-38
-0.0131324186784 -0.132965739119 0.887 1.32347146865e-38
-0.0114649568366 -0.132665929109 0.885 1.27773308678e-38
-0.0097937936367 -0.132216214095 0.882 1.30535548211e-38
-0.00816149469725 -0.132216214095 0.882 1.28706012936e-38
-0.00651439032524 -0.131916404086 0.88 1.34208968057e-38
-0.00488579274393 -0.131916404086 0.88 1.36034916008e-38
-0.00325719516262 -0.131916404086 0.88 1.32357908838e-38
-0.00162489622317 -0.131616594077 0.878 1.36956858294e-38
0.0 -0.131616594077 0.878 1.38793568217e-38
0.00162489622317 -0.131616594077 0.878 1.33261914503e-38
0.00324979244634 -0.131616594077 0.878 1.39708335854e-38
0.00485803255789 -0.131166879063 0.875 1.45268688161e-38
0.00647737674385 -0.131166879063 0.875 1.39737034447e-38
0.00809672092981 -0.131166879063 0.875 1.46194217771e-38
0.00971606511577 -0.131166879063 0.875 1.48020165722e-38
0.0113354093017 -0.131166879063 0.875 1.48952869979e-38
0.0129547534877 -0.131166879063 0.875 1.48945695331e-38
0.0146240660085 -0.131616594077 0.878 1.48924171387e-38
0.0162489622317 -0.131616594077 0.878 1.61806252117e-38
0.0178738584549 -0.131616594077 0.878 1.49878399589e-38
0.0194987546781 -0.131616594077 0.878 1.53555406759e-38
0.0211236509012 -0.131616594077 0.878 1.49860462969e-38
0.0228003661383 -0.131916404086 0.88 1.55352656118e-38
0.0244289637197 -0.131916404086 0.88 1.58111308327e-38
0.026057561301 -0.131916404086 0.88 1.64590015595e-38
0.0276861588823 -0.131916404086 0.88 1.64590015595e-38
0.0293813809101 -0.132216214095 0.882 1.63664485985e-38
0.0311191685565 -0.132665929109 0.885 1.61824188738e-38
0.032831046696 -0.132965739119 0.887 1.91283336029e-38
0.0345503275517 -0.133265549128 0.889 1.09284240428e-38
0.0361955812446 -0.133265549128 0.889 7.34683969264e-39
0.0378408349376 -0.133265549128 0.889 1.3144379981e-38
0.0395749212258 -0.133565359137 0.891 1.42610621156e-38
0.0412238762769 -0.133565359137 0.891 9.47986258387e-39
0.042872831328 -0.133565359137 0.891 2.25622084832e-38
-0.0318575895053 -0.13413721897 0.906 1.96976377287e-38
-0.0300809375984 -0.133693055993 0.903 2.12660522453e-38
-0.0283468513102 -0.133396947342 0.901 7.80745210306e-39
-0.0266793894684 -0.133396947342 0.901 1.33419994983e-38
-0.0249286470685 -0.132952784365 0.898 1.26083847197e-38
-0.02321491825 -0.132656675714 0.896 1.06737394482e-38
-0.0215567098035 -0.132656675714 0.896 1.41793734216e-38
-0.0197874606129 -0.131916404086 0.891 6.62076530114e-39
-0.0180977906223 -0.131620295435 0.889 1.39902906146e-38
-0.0164525369294 -0.131620295435 0.889 1.19630279224e-38
-0.0147739710132 -0.131324186784 0.887 1.24939322664e-38
-0.0131324186784 -0.131324186784 0.887 1.33254739855e-38
-0.0114649568366 -0.131028078133 0.885 1.27758959382e-38
-0.0097937936367 -0.130583915156 0.882 1.27758959382e-38
-0.00816149469725 -0.130583915156 0.882 1.36964032942e-38
-0.0065291957578 -0.130583915156 0.882 1.34191031437e-38
-0.00488579274393 -0.130287806505 0.88 1.35112973722e-38
-0.00325719516262 -0.130287806505 0.88 1.37868038607e-38
-0.00162859758131 -0.130287806505 0.88 1.37889562552e-38
0.0 -0.130287806505 0.88 1.38807917513e-38
0.00162489622317 -0.129991697854 0.878 1.4064821476e-38
0.00324979244634 -0.129991697854 0.878 1.38815092161e-38
0.00487468866951 -0.129991697854 0.878 1.45261513513e-38
0.00649958489268 -0.129991697854 0.878 1.42513623276e-38
0.00812448111586 -0.129991697854 0.878 1.44371857144e-38
0.00974937733903 -0.129991697854 0.878 1.51718696836e-38
0.0113742735622 -0.129991697854 0.878 1.47108985408e-38
0.0129991697854 -0.129991697854 0.878 1.47098223436e-38
0.0146240660085 -0.129991697854 0.878 1.52604765881e-38
0.0162489622317 -0.129991697854 0.878 1.58118482975e-38
0.0178738584549 -0.129991697854 0.878 1.61831363386e-38
0.0194987546781 -0.129991697854 0.878 1.55388529359e-38
0.0211236509012 -0.129991697854 0.878 1.5723241393e-38
0.0228003661383 -0.130287806505 0.88 1.53530295491e-38
0.0244289637197 -0.130287806505 0.88 1.60884309832e-38
0.026057561301 -0.130287806505 0.88 1.66484122703e-38
0.0276861588823 -0.130287806505 0.88 1.63668073309e-38
0.0293813809101 -0.130583915156 0.882 1.62735369051e-38
0.0311191685565 -0.131028078133 0.885 1.75646148374e-38
0.032831046696 -0.131324186784 0.887 1.06550699488e-38
0.0345503275517 -0.131620295435 0.889 1.39891289382e-38
0.0361955812446 -0.131620295435 0.889 1.8970872497e-38
0.0378408349376 -0.131620295435 0.889 5.51012976948e-39
0.0395749212258 -0.131916404086 0.891 1.47314331685e-38
0.0412238762769 -0.131916404086 0.891 8.55289804453e-39
0.0431134196071 -0.132656675714 0.896 2.13614974863e-38
-0.0318575895053 -0.132460503733 0.906 1.96979964611e-38
-0.0300809375984 -0.132021892793 0.903 2.25564379361e-38
-0.0283468513102 -0.1317294855 0.901 8.82051242005e-39
-0.0266793894684 -0.1317294855 0.901 1.03842269816e-38
-0.0249286470685 -0.131290874561 0.898 1.1033532638e-38
-0.02321491825 -0.130998467268 0.896 1.40759926274e-38
-0.0215567098035 -0.130998467268 0.896 1.16879278105e-38
-0.0198985013571 -0.130998467268 0.896 1.40882021409e-38
-0.0181385055618 -0.130267449035 0.891 1.29793504622e-38
-0.0164525369294 -0.129975041742 0.889 1.62962575584e-38
-0.0148072832364 -0.129975041742 0.889 1.24128587424e-38
-0.0131324186784 -0.129682634449 0.887 1.31432379228e-38
-0.0114908663436 -0.129682634449 0.887 1.32357908838e-38
-0.00982710585995 -0.129390227156 0.885 1.34198206085e-38
-0.00816149469725 -0.128951616217 0.882 1.36034916008e-38
-0.0065291957578 -0.128951616217 0.882 1.33279851123e-38
-0.00488579274393 -0.128659208924 0.88 1.40644627436e-38
-0.00325719516262 -0.128659208924 0.88 1.3604567798e-38
-0.00162859758131 -0.128659208924 0.88 1.4064821476e-38
0.0 -0.128659208924 0.88 1.40644627436e-38
0.00162859758131 -0.128659208924 0.88 1.44339571227e-38
0.00324979244634 -0.128366801631 0.878 1.45272275485e-38
0.00487468866951 -0.128366801631 0.878 1.48967219276e-38
0.00649958489268 -0.128366801631 0.878 1.42506448628e-38
0.00812448111586 -0.128366801631 0.878 1.45272275485e-38
0.00974937733903 -0.128366801631 0.878 1.49856875645e-38
0.0113742735622 -0.128366801631 0.878 1.54455825101e-38
0.0129991697854 -0.128366801631 0.878 1.48945695331e-38
0.0146573782318 -0.128659208924 0.88 1.48002229101e-38
0.0162859758131 -0.128659208924 0.88 1.65483259288e-38
0.0179145733944 -0.128659208924 0.88 1.52626289826e-38
0.0195431709757 -0.128659208924 0.88 1.55388529359e-38
0.021171768557 -0.128659208924 0.88 1.5536341809e-38
0.0228003661383 -0.128659208924 0.88 1.53505184223e-38
0.0244289637197 -0.128659208924 0.88 1.59065536529e-38
0.026057561301 -0.128659208924 0.88 1.62800543443e-38
0.0276861588823 -0.128659208924 0.88 1.6183495071e-38
0.0293813809101 -0.128951616217 0.882 1.76575265308e-38
0.0311191685565 -0.129390227156 0.885 1.05661043119e-38
0.032831046696 -0.129682634449 0.887 1.25850573042e-38
0.0346280560726 -0.130267449035 0.891 1.90648407694e-38
0.0362770111237 -0.130267449035 0.891 1.805069865e-38
0.0379259661748 -0.130267449035 0.891 1.73020353273e-38
0.0397081701189 -0.130706059975 0.894 9.20005130652e-39
0.0413626772071 -0.130706059975 0.894 1.19612146422e-38
0.0431134196071 -0.130998467268 0.896 2.21005268821e-38
-0.0318575895053 -0.130783788496 0.906 2.03423176989e-38
-0.0300809375984 -0.130350729593 0.903 2.14490436078e-38
-0.0284097743985 -0.130350729593 0.903 8.9119891838e-39
-0.0266793894684 -0.130062023658 0.901 1.0846633054e-38
-0.0250119276266 -0.130062023658 0.901 1.12143337711e-38
-0.0232667372639 -0.129628964756 0.898 1.10263579899e-38
-0.0216048274593 -0.129628964756 0.898 1.07494165718e-38
-0.0198985013571 -0.129340258821 0.896 1.50922465036e-38
-0.0181385055618 -0.128618493984 0.891 9.9304304869e-39
-0.0164525369294 -0.128329788049 0.889 1.59166373966e-38
-0.0148072832364 -0.128329788049 0.889 1.0939909085e-38
-0.0131324186784 -0.128041082114 0.887 1.34201793409e-38
-0.0114908663436 -0.128041082114 0.887 1.36056439953e-38
-0.00982710585995 -0.127752376179 0.885 1.33287025771e-38
-0.00818925488329 -0.127752376179 0.885 1.36042090656e-38
-0.00655140390664 -0.127752376179 0.885 1.34208968057e-38
-0.00489689681835 -0.127319317277 0.882 1.38822266809e-38
-0.0032645978789 -0.127319317277 0.882 1.36056439953e-38
-0.00162859758131 -0.127030611342 0.88 1.38822266809e-38
0.0 -0.127030611342 0.88 1.39733447123e-38
0.00162859758131 -0.127030611342 0.88 1.39737034447e-38
0.00325719516262 -0.127030611342 0.88 1.45250751541e-38
0.00487468866951 -0.126741905407 0.878 1.45272275485e-38
0.00649958489268 -0.126741905407 0.878 1.4802734037e-38
0.00814298790655 -0.127030611342 0.88 1.45272275485e-38
0.00977158548786 -0.127030611342 0.88 1.54484523693e-38
0.0114001830692 -0.127030611342 0.88 1.52626289826e-38
0.0130287806505 -0.127030611342 0.88 1.48945695331e-38
0.0146573782318 -0.127030611342 0.88 1.50800341875e-38
0.0162859758131 -0.127030611342 0.88 1.51700760216e-38
0.0179145733944 -0.127030611342 0.88 1.52626289826e-38
0.0195431709757 -0.127030611342 0.88 1.64586428271e-38
0.021171768557 -0.127030611342 0.88 1.60905833776e-38
0.0228003661383 -0.127030611342 0.88 1.48967219276e-38
0.0244289637197 -0.127030611342 0.88 1.60001828111e-38
0.026057561301 -0.127030611342 0.88 1.59994653463e-38
0.0276861588823 -0.127030611342 0.88 1.67352255128e-38
0.0294813175799 -0.127752376179 0.885 1.75678434291e-38
0.0312598201658 -0.128329788049 0.889 7.25500419648e-39
0.0329050738588 -0.128329788049 0.889 2.23799780257e-38
0.034744648854 -0.129051552886 0.894 4.04076183095e-39
0.0363991559423 -0.129051552886 0.894 1.69508278932e-38
0.0380536630306 -0.129051552886 0.894 2.0621038766e-38
0.0397081701189 -0.129051552886 0.894 9.37654765069e-39
0.0413626772071 -0.129051552886 0.894 1.28817248008e-38
0.0430171842954 -0.129051552886 0.894 2.20997435562e-38
-0.0318575895053 -0.129107073258 0.906 2.04348664559e-38
-0.0301808742682 -0.129107073258 0.906 2.14505037608e-38
-0.0284097743985 -0.128679566393 0.903 9.37403652385e-39
-0.0267386111986 -0.128679566393 0.903 1.13951349041e-38
-0.0250119276266 -0.128394561817 0.901 1.15813170233e-38
-0.0232667372639 -0.127967054951 0.898 1.18586171738e-38
-0.0216048274593 -0.127967054951 0.898 1.19497352052e-38
-0.0198985013571 -0.127682050375 0.896 1.14858942031e-38
-0.0181995779711 -0.127397045798 0.894 1.28645028427e-38
-0.0164895505108 -0.126969538933 0.891 1.1761759424e-38
-0.0148072832364 -0.126684534356 0.889 1.27748197409e-38
-0.0131620295435 -0.126684534356 0.889 1.31457490496e-38
-0.0114908663436 -0.126399529779 0.887 1.31471839793e-38
-0.00984931400879 -0.126399529779 0.887 1.32404544051e-38
-0.00818925488329 -0.126114525203 0.885 1.34201793409e-38
-0.00655140390664 -0.126114525203 0.885 1.39744209095e-38
-0.00489689681835 -0.125687018338 0.882 1.36981969562e-38
-0.0032645978789 -0.125687018338 0.882 1.38822266809e-38
-0.00162859758131 -0.125402013761 0.88 1.38833028782e-38
0.0 -0.125402013761 0.88 1.3698914421e-38
0.00162859758131 -0.125402013761 0.88 1.39754971067e-38
0.00325719516262 -0.125402013761 0.88 1.45279450133e-38
0.00488579274393 -0.125402013761 0.88 1.46194217771e-38
0.00651439032524 -0.125402013761 0.88 1.50785992578e-38
0.00814298790655 -0.125402013761 0.88 1.49874812265e-38
0.00977158548786 -0.125402013761 0.88 1.52633464474e-38
0.0114001830692 -0.125402013761 0.88 1.52633464474e-38
0.0130287806505 -0.125402013761 0.88 1.49874812265e-38
0.0146573782318 -0.125402013761 0.88 1.56339170237e-38
0.0162859758131 -0.125402013761 0.88 1.49874812265e-38
0.0179145733944 -0.125402013761 0.88 1.5630688432e-38
0.0195431709757 -0.125402013761 0.88 1.59061949205e-38
0.021171768557 -0.125402013761 0.88 1.64582840947e-38
0.0228003661383 -0.125402013761 0.88 1.47148445973e-38
0.0244289637197 -0.125402013761 0.88 1.53533882815e-38
0.0261167830312 -0.125687018338 0.882 1.74756492005e-38
0.0278434666032 -0.126114525203 0.885 1.74752904681e-38
0.0294813175799 -0.126114525203 0.885 1.0290239091e-38
0.0312598201658 -0.126684534356 0.889 1.39795202346e-38
0.0329791010215 -0.126969538933 0.891 1.85167635128e-38
0.034744648854 -0.127397045798 0.894 5.41829427332e-39
0.0363991559423 -0.127397045798 0.894 1.73199649411e-38
0.0380536630306 -0.127397045798 0.894 1.89647474214e-38
0.0397081701189 -0.127397045798 0.894 1.32375845458e-38
0.0413626772071 -0.127397045798 0.894 1.03860206436e-38
0.0430171842954 -0.127397045798 0.894 2.32968770382e-38
-0.0318575895053 -0.127430358021 0.906 1.96047358444e-38
-0.0300809375984 -0.127008403193 0.903 2.17259990389e-38
-0.0284097743985 -0.127008403193 0.903 7.53051068496e-39
-0.0267386111986 -0.127008403193 0.903 1.11228584086e-38
-0.0250119276266 -0.126727099975 0.901 1.17667816776e-38
-0.0232667372639 -0.126305145147 0.898 1.16749461815e-38
-0.0216048274593 -0.126305145147 0.898 1.21341236623e-38
-0.0199429176548 -0.126305145147 0.898 1.22266766233e-38
-0.0181995779711 -0.12574253871 0.894 1.23188708518e-38
-0.0164895505108 -0.125320583882 0.891 1.25014656469e-38
-0.0148072832364 -0.125039280663 0.889 1.26854953716e-38
-0.0131620295435 -0.125039280663 0.889 1.31457490496e-38
-0.0114908663436 -0.124757977445 0.887 1.2778407065e-38
-0.00984931400879 -0.124757977445 0.887 1.36052852628e-38
-0.00820776167399 -0.124757977445 0.887 1.34219730029e-38
-0.00656620933919 -0.124757977445 0.887 1.39733447123e-38
-0.00491355292998 -0.124476674226 0.885 1.40658976733e-38
-0.00327570195332 -0.124476674226 0.885 1.35134497667e-38
-0.00163229893945 -0.124054719398 0.882 1.39744209095e-38
0.0 -0.124054719398 0.882 1.41570157046e-38
0.00163229893945 -0.124054719398 0.882 1.45261513513e-38
0.0032645978789 -0.124054719398 0.882 1.46194217771e-38
0.00488579274393 -0.12377341618 0.88 1.45265100837e-38
0.00651439032524 -0.12377341618 0.88 1.47105398084e-38
0.00814298790655 -0.12377341618 0.88 1.5725035055e-38
0.00977158548786 -0.12377341618 0.88 1.50789579903e-38
0.0114260925761 -0.124054719398 0.882 1.5077881793e-38
0.0130583915156 -0.124054719398 0.882 1.47091048788e-38
0.014690690455 -0.124054719398 0.882 1.50800341875e-38
0.0163229893945 -0.124054719398 0.882 1.59065536529e-38
0.0179552883339 -0.124054719398 0.882 1.55410053303e-38
0.0195875872734 -0.124054719398 0.882 1.5630688432e-38
0.0212198862128 -0.124054719398 0.882 1.59991066139e-38
0.0229299136732 -0.124476674226 0.885 1.55410053303e-38
0.0244844840917 -0.124054719398 0.882 1.58161530864e-38
0.0261167830312 -0.124054719398 0.882 1.63671660633e-38
0.0278434666032 -0.124476674226 0.885 1.79359028785e-38
0.0294813175799 -0.124476674226 0.885 8.72437213501e-39
0.0313301459705 -0.125320583882 0.891 1.56372437062e-38
0.0329791010215 -0.125320583882 0.891 1.5657975917e-38
0.034744648854 -0.12574253871 0.894 1.08448688193e-38
0.0363991559423 -0.12574253871 0.894 1.22499942297e-38
0.0380536630306 -0.12574253871 0.894 1.77676755966e-38
0.0397970027142 -0.126023841928 0.896 1.35991910158e-38
-0.0318575895053 -0.125753642784 0.906 2.1540128008e-38
-0.0300809375984 -0.125337239993 0.903 2.23713712505e-38
-0.0284097743985 -0.125337239993 0.903 5.60196526564e-39
-0.0267386111986 -0.125337239993 0.903 1.06629788773e-38
-0.0250119276266 -0.125059638133 0.901 1.13076041969e-38
-0.0232667372639 -0.124643235342 0.898 1.19518875996e-38
-0.0216048274593 -0.124643235342 0.898 1.20419294337e-38
-0.0199429176548 -0.124643235342 0.898 1.23174359222e-38
-0.0182402929107 -0.124365633482 0.896 1.24092714183e-38
-0.0165450708829 -0.124088031621 0.894 1.29624367897e-38
-0.0148405954597 -0.123671628831 0.891 1.26869303013e-38
-0.0131620295435 -0.12339402697 0.889 1.31457490496e-38
-0.0115167758506 -0.12339402697 0.889 1.36042090656e-38
-0.00984931400879 -0.12311642511 0.887 1.36978382238e-38
-0.00820776167399 -0.12311642511 0.887 1.3698914421e-38
-0.00656620933919 -0.12311642511 0.887 1.39754971067e-38
-0.00491355292998 -0.122838823249 0.885 1.37893149876e-38
-0.00327570195332 -0.122838823249 0.885 1.35134497667e-38
-0.00163785097666 -0.122838823249 0.885 1.48023753046e-38
0.0 -0.122838823249 0.885 1.43428390914e-38
0.00163229893945 -0.122422420459 0.882 1.50775230606e-38
0.0032645978789 -0.122422420459 0.882 1.48942108007e-38
0.00489689681835 -0.122422420459 0.882 1.50796754551e-38
0.0065291957578 -0.122422420459 0.882 1.51729458809e-38
0.00816149469725 -0.122422420459 0.882 1.51729458809e-38
0.0097937936367 -0.122422420459 0.882 1.50800341875e-38
0.0114260925761 -0.122422420459 0.882 1.60938119693e-38
0.0130583915156 -0.122422420459 0.882 1.48945695331e-38
0.014690690455 -0.122422420459 0.882 1.52633464474e-38
0.0163229893945 -0.122422420459 0.882 1.59051187233e-38
0.0179552883339 -0.122422420459 0.882 1.55438751896e-38
0.0196542117199 -0.122838823249 0.885 1.51733046133e-38
0.0212920626966 -0.122838823249 0.885 1.58140006919e-38
0.0229299136732 -0.122838823249 0.885 1.55402878655e-38
0.0245677646499 -0.122838823249 0.885 1.59094235122e-38
0.0262056156265 -0.122838823249 0.885 1.63686009929e-38
0.0278434666032 -0.122838823249 0.885 1.93191834472e-38
0.0294813175799 -0.122838823249 0.885 7.98968816575e-39
0.0314356346774 -0.124088031621 0.894 1.87700930518e-38
0.0330901417657 -0.124088031621 0.894 1.3259825955e-38
0.034744648854 -0.124088031621 0.894 2.12511003906e-38
0.0364805858214 -0.124365633482 0.896 2.20405190779e-39
0.0381387942678 -0.124365633482 0.896 1.46452533129e-38
0.0397970027142 -0.124365633482 0.896 9.91823358506e-39
-0.0300809375984 -0.123666076794 0.903 2.23728173906e-38
-0.0284097743985 -0.123666076794 0.903 8.64437480828e-39
-0.0267386111986 -0.123666076794 0.903 9.46373223725e-39
-0.0250119276266 -0.123392176291 0.901 1.13093978589e-38
-0.0232667372639 -0.122981325538 0.898 1.19515288672e-38
-0.0216048274593 -0.122981325538 0.898 1.24089126859e-38
-0.0199429176548 -0.122981325538 0.898 1.20412119689e-38
-0.0182402929107 -0.122707425035 0.896 1.28680901667e-38
-0.0165820844643 -0.122707425035 0.896 1.26854953716e-38
-0.0148905637946 -0.122433524533 0.894 1.2963512987e-38
-0.0131916404086 -0.12202267378 0.891 1.29627955221e-38
-0.0115167758506 -0.121748773277 0.889 1.35141672315e-38
-0.00987152215763 -0.121748773277 0.889 1.33315724364e-38
-0.00822626846469 -0.121748773277 0.889 1.37918261144e-38
-0.00658101477175 -0.121748773277 0.889 1.40666151381e-38
-0.00492465700439 -0.121474872775 0.887 1.37911086496e-38
-0.0032831046696 -0.121474872775 0.887 1.39737034447e-38
-0.0016415523348 -0.121474872775 0.887 1.4342480359e-38
0.0 -0.121200972273 0.885 1.47126922028e-38
0.00163785097666 -0.121200972273 0.885 1.48020165722e-38
0.00327570195332 -0.121200972273 0.885 1.50785992578e-38
0.00491355292998 -0.121200972273 0.885 1.48974393924e-38
0.00655140390664 -0.121200972273 0.885 1.46219329039e-38
0.00818925488329 -0.121200972273 0.885 1.54484523693e-38
0.00982710585995 -0.121200972273 0.885 1.54480936369e-38
0.0114649568366 -0.121200972273 0.885 1.53555406759e-38
0.0131028078133 -0.121200972273 0.885 1.48956457303e-38
0.0147406587899 -0.121200972273 0.885 1.73841766407e-38
0.0163785097666 -0.121200972273 0.885 1.52654988418e-38
0.0180163607432 -0.121200972273 0.885 1.60956056313e-38
0.0196542117199 -0.121200972273 0.885 1.52673303389e-38
0.0212920626966 -0.121200972273 0.885 1.60913008424e-38
0.0229299136732 -0.121200972273 0.885 1.59991066139e-38
0.0245677646499 -0.121200972273 0.885 1.57257525198e-38
0.0262056156265 -0.121200972273 0.885 1.65515545204e-38
0.0279063896916 -0.121474872775 0.887 1.8398308951e-38
0.0295479420264 -0.121474872775 0.887 6.88766221185e-39
0.0314356346774 -0.122433524533 0.894 2.09806273662e-38
0.0331641689285 -0.122707425035 0.896 1.06758764284e-38
0.0348223773749 -0.122707425035 0.896 2.21873303154e-38
0.0365620157004 -0.122981325538 0.898 3.489748854e-39
0.0381387942678 -0.122707425035 0.896 1.18844459071e-38
0.0397970027142 -0.122707425035 0.896 9.09171411964e-39
-0.0301808742682 -0.12240021231 0.906 2.20965766217e-38
-0.0285041590311 -0.12240021231 0.906 9.38085243958e-39
-0.0267386111986 -0.121994913594 0.903 8.63397156848e-39
-0.0250119276266 -0.121724714449 0.901 1.0665831921e-38
-0.0232667372639 -0.121319415733 0.898 1.20426468985e-38
-0.0216048274593 -0.121319415733 0.898 1.23188708518e-38
-0.0199429176548 -0.121319415733 0.898 1.22266766233e-38
-0.0182402929107 -0.121049216589 0.896 1.25922249459e-38
-0.0165820844643 -0.121049216589 0.896 1.31457490496e-38
-0.0148905637946 -0.120779017445 0.894 1.31482601765e-38
-0.0132360567063 -0.120779017445 0.894 1.31482601765e-38
-0.0115426853575 -0.120373718729 0.891 1.33326486336e-38
-0.00989373030646 -0.120373718729 0.891 1.31482601765e-38
-0.00824477525538 -0.120373718729 0.891 1.38829441458e-38
-0.00658101477175 -0.120103519584 0.889 1.3976573304e-38
-0.00493576107881 -0.120103519584 0.889 1.43446327534e-38
-0.0032831046696 -0.11983332044 0.887 1.43417628941e-38
-0.0016415523348 -0.11983332044 0.887 1.47116160056e-38
0.0 -0.11983332044 0.887 1.46215741715e-38
0.00163785097666 -0.119563121296 0.885 1.43439152886e-38
0.00327570195332 -0.119563121296 0.885 1.48048864314e-38
0.00491355292998 -0.119563121296 0.885 1.48048864314e-38
0.00655140390664 -0.119563121296 0.885 1.46197805095e-38
0.00818925488329 -0.119563121296 0.885 1.55384942035e-38
0.00982710585995 -0.119563121296 0.885 1.57257525198e-38
0.0114649568366 -0.119563121296 0.885 1.59083473149e-38
0.0131028078133 -0.119563121296 0.885 1.56331995589e-38
0.0147406587899 -0.119563121296 0.885 1.57257525198e-38
0.0163785097666 -0.119563121296 0.885 1.57239588578e-38
0.0180163607432 -0.119563121296 0.885 1.59991066139e-38
0.0196986280176 -0.11983332044 0.887 1.53551819435e-38
0.0213401803524 -0.11983332044 0.887 1.62738956375e-38
0.0229817326872 -0.11983332044 0.887 1.58132832271e-38
0.024623285022 -0.11983332044 0.887 1.59987478815e-38
0.0262648373568 -0.11983332044 0.887 1.65497608584e-38
0.0279693127799 -0.120103519584 0.889 1.89486114696e-38
0.0296145664729 -0.120103519584 0.889 5.6938007618e-39
0.0314356346774 -0.120779017445 0.894 2.21816844839e-38
0.0331641689285 -0.121049216589 0.896 1.28856680547e-38
0.0349001058959 -0.121319415733 0.898 1.35303101898e-38
0.0365620157004 -0.121319415733 0.898 5.78563625795e-39
0.038223925505 -0.121319415733 0.898 1.04053921936e-38
0.0398858353096 -0.121319415733 0.898 1.35959722332e-38
-0.0301808742682 -0.120723497073 0.906 2.21894630917e-38
-0.0285041590311 -0.120723497073 0.906 7.35329687596e-39
-0.0267386111986 -0.120323750394 0.903 9.46661610949e-39
-0.0250119276266 -0.120057252608 0.901 1.03924778269e-38
-0.0233444657848 -0.120057252608 0.901 1.20437230958e-38
-0.0216770039431 -0.120057252608 0.901 1.33340835633e-38
-0.0199429176548 -0.119657505929 0.898 1.24121412776e-38
-0.0182810078502 -0.119657505929 0.898 1.25032593089e-38
-0.0165820844643 -0.119391008143 0.896 1.25014656469e-38
-0.0149238760178 -0.119391008143 0.896 1.37885975228e-38
-0.0132656675714 -0.119391008143 0.896 1.30560659479e-38
-0.011581549618 -0.119124510357 0.894 1.32404544051e-38
-0.00992704252972 -0.119124510357 0.894 1.37911086496e-38
-0.00824477525538 -0.118724763678 0.891 1.37911086496e-38
-0.00659582020431 -0.118724763678 0.891 1.3976573304e-38
-0.00493576107881 -0.118458265892 0.889 1.40669738705e-38
-0.00329050738588 -0.118458265892 0.889 1.45250751541e-38
-0.0016415523348 -0.118191768105 0.887 1.45272275485e-38
0.0 -0.118191768105 0.887 1.44379031792e-38
0.0016415523348 -0.118191768105 0.887 1.44371857144e-38
0.0032831046696 -0.118191768105 0.887 1.51736633457e-38
0.00492465700439 -0.118191768105 0.887 1.48974393924e-38
0.00656620933919 -0.118191768105 0.887 1.52654988418e-38
0.00820776167399 -0.118191768105 0.887 1.54488111017e-38
0.00984931400879 -0.118191768105 0.887 1.55410053303e-38
0.0114908663436 -0.118191768105 0.887 1.57228826606e-38
0.0131324186784 -0.118191768105 0.887 1.59069123853e-38
0.0147739710132 -0.118191768105 0.887 1.60005415435e-38
0.016415523348 -0.118191768105 0.887 1.55392116683e-38
0.0180570756828 -0.118191768105 0.887 1.81210144057e-38
0.0196986280176 -0.118191768105 0.887 1.50807516523e-38
0.0213401803524 -0.118191768105 0.887 1.57228826606e-38
0.0229817326872 -0.118191768105 0.887 1.59054774557e-38
0.024623285022 -0.118191768105 0.887 1.62742543699e-38
0.0262648373568 -0.118191768105 0.887 1.67352255128e-38
0.0279693127799 -0.118458265892 0.889 1.96872456993e-38
0.0296811909194 -0.118724763678 0.891 4.49993931174e-39
0.0314356346774 -0.119124510357 0.894 2.12679552086e-38
0.0331641689285 -0.119391008143 0.896 2.0903773152e-38
0.0349001058959 -0.119657505929 0.898 5.32645877716e-39
0.0365620157004 -0.119657505929 0.898 8.91632900514e-39
0.038223925505 -0.119657505929 0.898 5.60196526564e-39
0.0398858353096 -0.119657505929 0.898 1.54391603592e-38
0.0415477451141 -0.119657505929 0.898 2.09812313259e-38
-0.0302474987147 -0.119309578264 0.908 2.08047307778e-38
-0.0285670821194 -0.119309578264 0.908 4.95911679253e-39
-0.026827443794 -0.119046781836 0.906 8.36351115577e-39
-0.0250674479987 -0.118652587194 0.903 1.10364024973e-38
-0.0233962847988 -0.118652587194 0.903 1.16760223787e-38
-0.0217251215989 -0.118652587194 0.903 1.24121412776e-38
-0.0199429176548 -0.117995596124 0.898 1.25954535375e-38
-0.0182810078502 -0.117995596124 0.898 1.23188708518e-38
-0.0166190980456 -0.117995596124 0.898 1.26869303013e-38
-0.0149238760178 -0.117732799696 0.896 1.36978382238e-38
-0.0132656675714 -0.117732799696 0.896 1.37911086496e-38
-0.011581549618 -0.117470003268 0.894 1.2963512987e-38
-0.00992704252972 -0.117470003268 0.894 1.39733447123e-38
-0.00824477525538 -0.117075808626 0.891 1.39744209095e-38
-0.00659582020431 -0.117075808626 0.891 1.42492099332e-38
-0.00493576107881 -0.116813012199 0.889 1.43439152886e-38
-0.00329050738588 -0.116813012199 0.889 1.4436826982e-38
-0.00164525369294 -0.116813012199 0.889 1.45300974077e-38
0.0 -0.116550215771 0.887 1.46215741715e-38
0.0016415523348 -0.116550215771 0.887 1.48048864314e-38
0.0032831046696 -0.116550215771 0.887 1.48974393924e-38
0.00492465700439 -0.116550215771 0.887 1.52654988418e-38
0.00656620933919 -0.116550215771 0.887 1.5449887299e-38
0.00820776167399 -0.116550215771 0.887 1.55410053303e-38
0.00984931400879 -0.116550215771 0.887 1.59083473149e-38
0.0114908663436 -0.116550215771 0.887 1.59069123853e-38
0.0131324186784 -0.116550215771 0.887 1.61831363386e-38
0.0147739710132 -0.116550215771 0.887 1.57246763226e-38
0.016415523348 -0.116550215771 0.887 1.68302896006e-38
0.0180570756828 -0.116550215771 0.887 1.59994653463e-38
0.0196986280176 -0.116550215771 0.887 1.60938119693e-38
0.0213401803524 -0.116550215771 0.887 1.58168705512e-38
0.0230335517011 -0.116813012199 0.889 1.609094211e-38
0.0246788053941 -0.116813012199 0.889 1.609094211e-38
0.026324059087 -0.116813012199 0.889 1.81184976736e-38
0.0279693127799 -0.116813012199 0.889 1.89507596602e-38
0.0296811909194 -0.117075808626 0.891 4.68361030406e-39
0.0314356346774 -0.117470003268 0.894 2.19201559476e-38
0.0331641689285 -0.117732799696 0.896 7.26361377425e-39
0.0349001058959 -0.117995596124 0.898 1.30507199943e-38
0.036684160519 -0.118389790766 0.901 4.86728129637e-39
0.038223925505 -0.117995596124 0.898 1.32430075709e-38
0.0398858353096 -0.117995596124 0.898 1.45279450133e-38
0.0415477451141 -0.117995596124 0.898 2.13518789736e-38
-0.0303141231612 -0.117888256738 0.91 2.0987307356e-38
-0.0286300052078 -0.117888256738 0.91 8.5514631149e-39
-0.0268866655242 -0.117629161668 0.908 8.35882381241e-39
-0.0251507285568 -0.117370066599 0.906 1.13111915209e-38
-0.0233962847988 -0.116981423994 0.903 1.22270353557e-38
-0.0217251215989 -0.116981423994 0.903 1.23206645139e-38
-0.0200095421013 -0.116722328924 0.901 1.22273940881e-38
-0.0182810078502 -0.11633368632 0.898 1.25043355062e-38
-0.0166190980456 -0.11633368632 0.898 1.28695250964e-38
-0.0149238760178 -0.11607459125 0.896 1.29627955221e-38
-0.0132656675714 -0.11607459125 0.896 1.35130910343e-38
-0.011607459125 -0.11607459125 0.896 1.36063614601e-38
-0.00992704252972 -0.11581549618 0.894 1.39754971067e-38
-0.00827253544143 -0.11581549618 0.894 1.41598855639e-38
-0.00661802835314 -0.11581549618 0.894 1.4159168099e-38
-0.00494686515323 -0.115426853575 0.891 1.40669738705e-38
-0.00329050738588 -0.115167758506 0.889 1.4342480359e-38
-0.00164525369294 -0.115167758506 0.889 1.43439152886e-38
0.0 -0.115167758506 0.889 1.48974393924e-38
0.00164525369294 -0.115167758506 0.889 1.50796754551e-38
0.00329050738588 -0.115167758506 0.889 1.51736633457e-38
0.00492465700439 -0.114908663436 0.887 1.53584105352e-38
0.00656620933919 -0.114908663436 0.887 1.52654988418e-38
0.00820776167399 -0.114908663436 0.887 1.59983891491e-38
0.00984931400879 -0.114908663436 0.887 1.59083473149e-38
0.0114908663436 -0.114908663436 0.887 1.60012590083e-38
0.0131324186784 -0.114908663436 0.887 1.61838538034e-38
0.0147739710132 -0.114908663436 0.887 1.63714708522e-38
0.016415523348 -0.114908663436 0.887 1.60948881665e-38
0.0180570756828 -0.114908663436 0.887 1.68302896006e-38
0.0197430443153 -0.115167758506 0.889 1.60948881665e-38
0.0213882980082 -0.115167758506 0.889 1.57246763226e-38
0.0230335517011 -0.115167758506 0.889 1.61838538034e-38
0.0246788053941 -0.115167758506 0.889 1.66451836786e-38
0.026324059087 -0.115167758506 0.889 1.69221250967e-38
0.0280322358683 -0.115426853575 0.891 1.8951477125e-38
0.0297811275891 -0.11581549618 0.894 5.51012976948e-39
0.0315059604821 -0.11607459125 0.896 2.2568339164e-38
0.0331641689285 -0.11607459125 0.896 3.03057137321e-39
0.0349001058959 -0.11633368632 0.898 1.86750135497e-38
0.036684160519 -0.116722328924 0.901 7.98968816575e-39
0.038223925505 -0.11633368632 0.898 1.74692550756e-38
0.0398858353096 -0.11633368632 0.898 1.72998703212e-38
0.0416865460443 -0.116722328924 0.901 1.94233111335e-38
-0.030414059831 -0.116587229352 0.913 2.15419454921e-38
-0.0286300052078 -0.116204138785 0.91 5.60196526564e-39
-0.0269458872544 -0.116204138785 0.91 6.79762037773e-39
-0.0252062489289 -0.115948745073 0.908 1.13137026478e-38
-0.0234740133197 -0.115693351361 0.906 1.2044799293e-38
-0.0217972980826 -0.115693351361 0.906 1.24128587424e-38
-0.0200095421013 -0.115054867082 0.901 1.20440818282e-38
-0.0182810078502 -0.114671776515 0.898 1.23192295842e-38
-0.0166190980456 -0.114671776515 0.898 1.31457490496e-38
-0.0149571882411 -0.114671776515 0.898 1.35141672315e-38
