# .PCD v0.7 - Point Cloud Data file format
VERSION 0.7
FIELDS x y z rgb
SIZE 4 4 4 4
TYPE F F F F
COUNT 1 1 1 1
WIDTH 840
HEIGHT 1
VIEWPOINT 0 0 0 1 0 0 0
POINTS 840
DATA ascii
0.023401836836 -0.0358828164819 0.843 1.90587521276e-38
0.0249619592917 -0.0358828164819 0.843 1.71242077496e-38
0.0264591586591 -0.0357976852446 0.841 2.14633592729e-38
0.0279489553102 -0.0357125540074 0.839 4.68361030406e-39
0.0295016750496 -0.0357125540074 0.839 1.86904152211e-38
0.0311284219519 -0.0357976852446 0.841 2.34887918694e-38
0.0326848430495 -0.0357976852446 0.841 6.3366492349e-39
0.0342412641471 -0.0357976852446 0.841 1.78416207153e-38
0.0358828164819 -0.0358828164819 0.843 2.09790354912e-38
0.0374429389376 -0.0358828164819 0.843 2.05126777571e-38
0.0390955953468 -0.0359679477191 0.845 2.07871080483e-38
0.0406594191607 -0.0359679477191 0.845 2.06963487494e-38
0.0422232429745 -0.0359679477191 0.845 2.15232269472e-38
0.0438907048163 -0.0360530789563 0.847 2.06938376225e-38
0.0454582299883 -0.0360530789563 0.847 2.18005270977e-38
0.0470257551603 -0.0360530789563 0.847 2.27206757213e-38
0.0485932803324 -0.0360530789563 0.847 2.22607807757e-38
0.0501608055044 -0.0360530789563 0.847 2.18934387911e-38
0.051850475495 -0.0361382101935 0.849 2.22640093674e-38
0.0535475482019 -0.0362233414307 0.851 2.23547686663e-38
0.0551224760902 -0.0362233414307 0.851 2.33674702509e-38
0.056897277318 -0.0363510382865 0.854 2.34647147591e-38
0.0588886079969 -0.0366064319981 0.86 2.34625343387e-38
0.0607614952154 -0.0367766944725 0.864 2.34668657523e-38
0.0625770113828 -0.0369043913283 0.867 2.34736550434e-38
0.0641815501362 -0.0369043913283 0.867 2.34737363187e-38
0.0659378445733 -0.0369895225655 0.869 2.34791453307e-38
0.0675460846849 -0.0369895225655 0.869 2.34874690436e-38
0.0691543247964 -0.0369895225655 0.869 2.35097735113e-38
-0.00329050738588 -0.0361955812446 0.889 2.3504762468e-38
-0.0016415523348 -0.0361141513656 0.887 2.34997233987e-38
0.0 -0.0361141513656 0.887 2.34978834938e-38
0.00163229893945 -0.0359105766679 0.882 1.65631012198e-38
0.00325719516262 -0.0358291467888 0.88 1.93321566684e-38
0.00485803255789 -0.0356255720912 0.875 1.85928315986e-38
0.00641815501362 -0.0352998525749 0.867 2.13626115185e-38
0.00797642679028 -0.0350962778772 0.862 1.68367804151e-38
0.0095495039995 -0.0350148479982 0.86 2.02443697388e-38
0.0111410879994 -0.0350148479982 0.86 1.12046479961e-38
0.0126734502691 -0.03485198824 0.856 1.55514478065e-38
0.0142576315527 -0.03485198824 0.856 2.06224821034e-38
0.015804799255 -0.034770558361 0.854 1.6570567338e-38
0.0173242067712 -0.0346484135424 0.851 6.06114274643e-39
0.0188547183618 -0.0345669836633 0.849 1.5930606941e-38
0.0203778272361 -0.0344855537843 0.847 1.64851890252e-38
0.0218935333942 -0.0344041239052 0.845 1.72238190509e-38
0.0234573572081 -0.0344041239052 0.845 1.99832615921e-38
0.025021181022 -0.0344041239052 0.845 1.01937400735e-38
0.0265850048358 -0.0344041239052 0.845 1.6827793888e-38
0.0281488286497 -0.0344041239052 0.845 1.3698914421e-38
0.0297126524636 -0.0344041239052 0.845 5.23462328101e-39
0.0312764762774 -0.0344041239052 0.845 2.34878235721e-38
0.0328403000913 -0.0344041239052 0.845 2.04409452887e-38
0.0344041239052 -0.0344041239052 0.845 1.0469246562e-38
0.0359679477191 -0.0344041239052 0.845 2.29126676239e-38
0.0375317715329 -0.0344041239052 0.845 2.08861237978e-38
0.0390955953468 -0.0344041239052 0.845 2.10629732692e-38
0.0407556544723 -0.0344855537843 0.847 2.10629732692e-38
0.0423231796443 -0.0344855537843 0.847 2.11566024274e-38
0.0438907048163 -0.0344855537843 0.847 2.21707389416e-38
0.0454582299883 -0.0344855537843 0.847 2.14346200427e-38
0.0470257551603 -0.0344855537843 0.847 2.16150624434e-38
0.0487080224347 -0.0345669836633 0.849 2.24440930356e-38
0.0502792489648 -0.0345669836633 0.849 2.17086916016e-38
0.0519726203136 -0.0346484135424 0.851 2.20806971075e-38
0.0535475482019 -0.0346484135424 0.851 2.29082927701e-38
0.0553167973925 -0.034770558361 0.854 2.34646965423e-38
0.057163775104 -0.0349334181191 0.858 2.31873865827e-38
0.0590255582481 -0.0350962778772 0.862 2.34657909564e-38
0.0609724726294 -0.0352998525749 0.867 2.34661735109e-38
0.0627213643502 -0.035381282454 0.869 2.34726292929e-38
0.0643296044618 -0.035381282454 0.869 2.34755341846e-38
0.0659378445733 -0.035381282454 0.869 2.34816480498e-38
0.0675460846849 -0.035381282454 0.869 2.34874592345e-38
0.0691543247964 -0.035381282454 0.869 2.35098491814e-38
0.00162489622317 -0.0341228206866 0.878 1.87768753363e-38
0.00324979244634 -0.0341228206866 0.878 2.16338062116e-38
0.00485803255789 -0.0340062279052 0.875 1.88654710304e-38
0.00644776587873 -0.0338507708634 0.871 2.06240473538e-38
0.00797642679028 -0.0335009925192 0.862 1.82240126454e-38
0.00957171214834 -0.0335009925192 0.862 1.87710795659e-38
0.0111410879994 -0.0334232639983 0.86 2.00581764093e-38
0.0127030611342 -0.0333455354773 0.858 1.48981568572e-38
0.014290943776 -0.0333455354773 0.858 1.29502398879e-38
0.0158418128364 -0.0332678069564 0.856 9.09171411964e-39
0.0173852791805 -0.0331900784355 0.854 1.48899872871e-38
0.0188991346595 -0.0330734856541 0.851 1.43461251363e-38
0.020425944892 -0.0329957571332 0.849 1.21305363382e-38
0.0219971714221 -0.0329957571332 0.849 1.12064416581e-38
0.0235683979523 -0.0329957571332 0.849 1.49874812265e-38
0.0251396244824 -0.0329957571332 0.849 1.87742997497e-38
0.0266479279242 -0.0329180286122 0.847 1.5919826752e-38
0.0282154530962 -0.0329180286122 0.847 1.92424063044e-38
0.0297126524636 -0.0328403000913 0.845 1.7407512464e-38
0.0312764762774 -0.0328403000913 0.845 2.16484581884e-38
0.0329180286122 -0.0329180286122 0.847 1.71266025687e-38
0.0344855537843 -0.0329180286122 0.847 7.71418167727e-39
0.0360530789563 -0.0329180286122 0.847 2.22745064942e-38
0.0376206041283 -0.0329180286122 0.847 2.0699577341e-38
0.0392806632538 -0.0329957571332 0.849 2.14331851131e-38
0.0408518897839 -0.0329957571332 0.849 2.17072566719e-38
0.0424231163141 -0.0329957571332 0.849 2.14324676483e-38
0.0439943428442 -0.0329957571332 0.849 2.12498728532e-38
0.0455655693744 -0.0329957571332 0.849 2.15253793417e-38
0.0471367959045 -0.0329957571332 0.849 2.21703802092e-38
0.048822764537 -0.0330734856541 0.851 2.21703802092e-38
0.0503976924253 -0.0330734856541 0.851 2.26291989576e-38
0.0519726203136 -0.0330734856541 0.851 2.24469628949e-38
0.053736317467 -0.0331900784355 0.854 2.34610994091e-38
0.0554463449273 -0.0332678069564 0.856 2.34636693905e-38
0.057563521783 -0.0335787210401 0.864 2.3463610536e-38
0.0595048841271 -0.0337730423424 0.869 2.34694049051e-38
0.0611131242387 -0.0337730423424 0.869 2.34636287528e-38
0.0627213643502 -0.0337730423424 0.869 2.34758438716e-38
0.0643296044618 -0.0337730423424 0.869 2.34777160063e-38
0.0659378445733 -0.0337730423424 0.869 2.34816368394e-38
0.0675460846849 -0.0337730423424 0.869 2.34906668067e-38
0.00162489622317 -0.0324979244634 0.878 1.67467385809e-38
0.00324979244634 -0.0324979244634 0.878 1.98785313474e-38
0.00485803255789 -0.0323868837192 0.875 1.95093634709e-38
0.00646257131129 -0.0323128565565 0.873 1.74806714542e-38
0.00799493358098 -0.0319797343239 0.864 2.12649802519e-38
0.00957171214834 -0.0319057071611 0.862 2.18195637374e-38
0.0111669975064 -0.0319057071611 0.862 1.78530805341e-38
0.0127326719993 -0.0318316799983 0.86 1.84022550075e-38
0.0143242559993 -0.0318316799983 0.86 1.79341092165e-38
0.0159158399992 -0.0318316799983 0.86 1.6739889034e-38
0.01742599412 -0.0316836256728 0.856 1.80288145719e-38
0.018965759106 -0.03160959851 0.854 1.96857995592e-38
0.0204740625478 -0.0314985577658 0.851 1.98712684175e-38
0.0220489904361 -0.0314985577658 0.851 1.98683943543e-38
0.0236239183244 -0.0314985577658 0.851 1.82103331698e-38
0.0251988462126 -0.0314985577658 0.851 1.52615527853e-38
0.0267108510126 -0.031424530603 0.849 1.52672925039e-38
0.0282820775427 -0.031424530603 0.849 1.43446327534e-38
0.0298533040729 -0.031424530603 0.849 1.44335983903e-38
0.031424530603 -0.031424530603 0.849 1.31360632747e-38
0.0329957571332 -0.031424530603 0.849 1.26732984698e-38
0.0345669836633 -0.031424530603 0.849 1.69174938053e-38
0.0361382101935 -0.031424530603 0.849 1.8119955024e-38
0.037798269319 -0.0314985577658 0.851 2.14314012601e-38
0.0393731972073 -0.0314985577658 0.851 2.11573198922e-38
0.0409481250955 -0.0314985577658 0.851 2.19849155549e-38
0.0425230529838 -0.0314985577658 0.851 2.19849155549e-38
0.0440979808721 -0.0314985577658 0.851 2.18927213263e-38
0.0456729087604 -0.0314985577658 0.851 2.18927213263e-38
0.0472478366487 -0.0314985577658 0.851 2.18001683653e-38
0.0489948776905 -0.03160959851 0.854 2.25391571235e-38
0.050575357616 -0.03160959851 0.854 2.26306338872e-38
0.0521558375415 -0.03160959851 0.854 2.34668433315e-38
0.0538621636437 -0.0316836256728 0.856 2.26320688168e-38
0.055834987532 -0.0319057071611 0.862 2.3276710952e-38
0.0578966440156 -0.0321648022309 0.869 2.34632518036e-38
0.0595048841271 -0.0321648022309 0.869 2.34636147399e-38
0.061253775848 -0.0322388293937 0.871 2.34672342938e-38
0.0628657173177 -0.0322388293937 0.871 2.34740670251e-38
0.0644776587873 -0.0322388293937 0.871 2.34761969988e-38
0.066089600257 -0.0322388293937 0.871 2.34748139172e-38
0.0677015417267 -0.0322388293937 0.871 2.3492114348e-38
0.00162859758131 -0.0309433540449 0.88 1.60106729314e-38
0.00325719516262 -0.0309433540449 0.88 2.03376948152e-38
0.00487468866951 -0.0308730282403 0.878 2.10777625732e-38
0.00649958489268 -0.0308730282403 0.878 1.90505251043e-38
0.00807821413911 -0.0306972137286 0.873 1.85873819489e-38
0.00959392029717 -0.0303807476077 0.864 2.24596152187e-38
0.0111669975064 -0.0303104218031 0.862 1.88726036396e-38
0.0127622828645 -0.0303104218031 0.862 2.043928475e-38
0.0143575682225 -0.0303104218031 0.862 1.97902635572e-38
0.0159528535806 -0.0303104218031 0.862 1.77561779427e-38
0.0174667090596 -0.0301697701938 0.858 1.98701880164e-38
0.0190545917013 -0.0301697701938 0.858 2.03315178916e-38
0.0205462390315 -0.0300291185845 0.854 1.98691118192e-38
0.022126718957 -0.0300291185845 0.854 2.12520252476e-38
0.0237071988825 -0.0300291185845 0.854 2.07899779076e-38
0.025287678808 -0.0300291185845 0.854 2.09754425619e-38
0.0267737741009 -0.0299236298775 0.851 2.06999360735e-38
0.0283487019892 -0.0299236298775 0.851 2.06063069153e-38
0.0299236298775 -0.0299236298775 0.851 2.04222771905e-38
0.0314985577658 -0.0299236298775 0.851 2.0792130302e-38
0.0330734856541 -0.0299236298775 0.851 2.06985011438e-38
0.0346484135424 -0.0299236298775 0.851 2.02378887334e-38
0.0363510382865 -0.0300291185845 0.854 2.01467707021e-38
0.037931518212 -0.0300291185845 0.854 2.11598310191e-38
0.0395119981375 -0.0300291185845 0.854 2.13427845466e-38
0.041092478063 -0.0300291185845 0.854 2.16157953225e-38
0.0426729579885 -0.0300291185845 0.854 2.21703802092e-38
0.044253437914 -0.0300291185845 0.854 2.2074957389e-38
0.0458339178395 -0.0300291185845 0.854 2.21682278148e-38
0.047414397765 -0.0300291185845 0.854 2.2263650635e-38
0.0491096197928 -0.0300994443891 0.856 2.2357997258e-38
0.0506938010764 -0.0300994443891 0.856 2.33717750398e-38
0.0524001271787 -0.0301697701938 0.858 2.33703401102e-38
0.0541138559972 -0.0302400959984 0.86 2.3184157991e-38
0.0561588563692 -0.0304862363147 0.867 2.33706988426e-38
0.0580298929086 -0.030626887924 0.871 2.34643294021e-38
0.0596418343783 -0.030626887924 0.871 2.34650454656e-38
0.061253775848 -0.030626887924 0.871 2.34708202166e-38
0.0628657173177 -0.030626887924 0.871 2.34751516301e-38
0.0644776587873 -0.030626887924 0.871 2.34801850942e-38
0.0662413559407 -0.0306972137286 0.873 2.34758522793e-38
0.00324979244634 -0.0292481320171 0.878 1.79355707708e-38
0.00487468866951 -0.0292481320171 0.878 2.03359319818e-38
0.00649958489268 -0.0292481320171 0.878 1.84062346951e-38
0.00812448111586 -0.0292481320171 0.878 1.94135468858e-38
0.00971606511577 -0.0291481953473 0.875 1.99652969457e-38
0.0113354093017 -0.0291481953473 0.875 1.96976979845e-38
0.0130287806505 -0.0293147564636 0.88 1.72974040359e-38
0.0146240660085 -0.0292481320171 0.878 2.26490735737e-38
0.0161934418596 -0.0291481953473 0.875 2.10845995084e-38
0.0177313561665 -0.0290149464543 0.871 1.77608863055e-38
0.0192544650409 -0.0288816975613 0.867 1.90400812269e-38
0.0207387096547 -0.028715136445 0.862 1.9779069985e-38
0.0222821759988 -0.0286485119985 0.86 2.01460532373e-38
0.0238182396267 -0.028581887552 0.858 2.00513478818e-38
0.0254061222684 -0.028581887552 0.858 2.07896191752e-38
0.0269310818219 -0.0285152631055 0.856 2.08825308686e-38
0.0285152631055 -0.0285152631055 0.856 2.1158037357e-38
0.0300291185845 -0.028448638659 0.854 2.11594722867e-38
0.03160959851 -0.028448638659 0.854 2.13413496169e-38
0.0331900784355 -0.028448638659 0.854 2.16186497674e-38
0.034770558361 -0.028448638659 0.854 2.13420670817e-38
0.0364361695237 -0.0285152631055 0.856 2.14360549723e-38
0.0380203508073 -0.0285152631055 0.856 2.18030382246e-38
0.039604532091 -0.0285152631055 0.856 2.16186497674e-38
0.0411887133746 -0.0285152631055 0.856 2.15250206092e-38
0.0427728946582 -0.0285152631055 0.856 2.18934387911e-38
0.0443570759419 -0.0285152631055 0.856 2.30012044635e-38
0.0459412572255 -0.0285152631055 0.856 2.24491152893e-38
0.0476364792533 -0.028581887552 0.858 2.18934387911e-38
0.0492243618951 -0.028581887552 0.858 2.28189684008e-38
0.0509306879973 -0.0286485119985 0.86 2.24483978245e-38
0.0525222719973 -0.0286485119985 0.86 2.33696226454e-38
0.0543655483507 -0.0287817608915 0.864 2.32781458816e-38
0.056288403904 -0.0289483220078 0.869 2.3278504614e-38
0.0580298929086 -0.0290149464543 0.871 2.3465404198e-38
0.0596418343783 -0.0290149464543 0.871 2.34668391276e-38
0.061253775848 -0.0290149464543 0.871 2.34715208658e-38
0.0628657173177 -0.0290149464543 0.871 2.34737082927e-38
0.0644776587873 -0.0290149464543 0.871 2.34773236427e-38
0.066089600257 -0.0290149464543 0.871 2.34787655789e-38
0.00492465700439 -0.0279063896916 0.887 1.60023352055e-38
0.00656620933919 -0.0279063896916 0.887 2.08965732805e-38
0.00818925488329 -0.0278434666032 0.885 1.85845120896e-38
0.00982710585995 -0.0278434666032 0.885 1.95950402603e-38
0.0114649568366 -0.0278434666032 0.885 1.92273395433e-38
0.0130287806505 -0.0276861588823 0.88 1.96875960239e-38
0.0146240660085 -0.0276232357939 0.878 2.301425896e-38
0.0161934418596 -0.0275288511614 0.875 2.00697245099e-38
0.0177313561665 -0.0274030049846 0.871 2.07158520214e-38
0.0192544650409 -0.0272771588079 0.867 2.16322956119e-38
0.0207387096547 -0.027119851087 0.862 2.22792596986e-38
0.0223339950128 -0.027119851087 0.862 2.18117276763e-38
0.0238737599988 -0.0270569279986 0.86 2.0341642273e-38
0.0254653439987 -0.0270569279986 0.86 2.03343877509e-38
0.0269940049102 -0.0269940049102 0.858 1.99663283014e-38
0.028581887552 -0.0269940049102 0.858 2.02389649306e-38
0.0301697701938 -0.0269940049102 0.858 2.07889017104e-38
0.0316836256728 -0.0269310818219 0.856 2.13456544058e-38
0.0332678069564 -0.0269310818219 0.856 2.07906953724e-38
0.03485198824 -0.0269310818219 0.856 2.14349787751e-38
0.0365213007609 -0.0269940049102 0.858 2.12498728532e-38
0.0381091834027 -0.0269940049102 0.858 2.17079741368e-38
0.0397895999979 -0.0270569279986 0.86 2.1614703711e-38
0.0413811839978 -0.0270569279986 0.86 2.20781859806e-38
0.0429727679978 -0.0270569279986 0.86 2.1710843996e-38
0.0445643519977 -0.0270569279986 0.86 2.28157398092e-38
0.0461559359976 -0.0270569279986 0.86 2.20792621779e-38
0.0478585607417 -0.027119851087 0.862 2.34632644152e-38
0.0494538460997 -0.027119851087 0.862 2.30026393931e-38
0.0511675749183 -0.0271827741753 0.864 2.3463610536e-38
0.0529497788624 -0.0272771588079 0.867 2.34632518036e-38
0.0546801637925 -0.0273400818963 0.869 2.32781458816e-38
0.0564179514389 -0.0274030049846 0.871 2.3465404198e-38
0.0581631418016 -0.027465928073 0.873 2.34646867332e-38
0.0597787846294 -0.027465928073 0.873 2.34682740572e-38
0.0613944274573 -0.027465928073 0.873 2.34715026489e-38
0.0630100702851 -0.027465928073 0.873 2.34751516301e-38
0.00331641689285 -0.0265313351428 0.896 1.8220104424e-38
0.00493576107881 -0.026324059087 0.889 1.62815144973e-38
0.00658101477175 -0.026324059087 0.889 1.96026703304e-38
0.00822626846469 -0.026324059087 0.889 2.0613498379e-38
0.00987152215763 -0.026324059087 0.889 1.94124454652e-38
0.0114908663436 -0.0262648373568 0.887 1.94124454652e-38
0.0130583915156 -0.0261167830312 0.882 1.91355040471e-38
0.014690690455 -0.0261167830312 0.882 1.95946815279e-38
0.0162489622317 -0.0259983395707 0.878 1.90443860158e-38
0.0178127860456 -0.0259095069754 0.875 2.27376146172e-38
0.0193432976362 -0.0257910635149 0.871 2.03413101653e-38
0.0209071214501 -0.0257318417847 0.869 2.34763525429e-38
0.0224635425477 -0.0256726200545 0.867 1.99638171746e-38
0.0239848007429 -0.0255837874591 0.864 2.34820362095e-38
0.0255837874591 -0.0255837874591 0.864 2.20987444304e-38
0.0271827741753 -0.0255837874591 0.864 2.22835462706e-38
0.0287817608915 -0.0255837874591 0.864 1.80295446484e-38
0.0303807476077 -0.0255837874591 0.864 2.34830325327e-38
0.0319797343239 -0.0255837874591 0.864 2.34842054195e-38
0.0335787210401 -0.0255837874591 0.864 1.99714332317e-38
0.0352998525749 -0.0256726200545 0.867 2.12473617263e-38
0.0369043913283 -0.0256726200545 0.867 2.1710843996e-38
0.0385089300817 -0.0256726200545 0.867 2.26320688168e-38
0.0401134688351 -0.0256726200545 0.867 2.19849155549e-38
0.0417180075885 -0.0256726200545 0.867 2.18023207598e-38
0.0433225463419 -0.0256726200545 0.867 2.18930800587e-38
0.0446679900256 -0.0255245657289 0.862 2.34636175425e-38
0.0462632753836 -0.0255245657289 0.862 2.2356203596e-38
0.0481361626021 -0.0256726200545 0.867 2.3276710952e-38
0.0497407013555 -0.0256726200545 0.867 2.32781458816e-38
0.0514636835694 -0.0257318417847 0.869 2.26309926196e-38
0.053071923681 -0.0257318417847 0.869 2.33699813778e-38
0.0548060099692 -0.0257910635149 0.871 2.34618168739e-38
0.0565474989738 -0.0258502852452 0.873 2.34646867332e-38
0.0582963906946 -0.0259095069754 0.875 2.34704306556e-38
0.0599157348806 -0.0259095069754 0.875 2.34693502545e-38
0.0615350790666 -0.0259095069754 0.875 2.34700677193e-38
0.0631544232525 -0.0259095069754 0.875 2.34736886745e-38
0.00331641689285 -0.0248731266964 0.896 2.10795604391e-38
0.00497462533928 -0.0248731266964 0.896 2.00700117761e-38
0.00659582020431 -0.0247343257662 0.891 1.97012698943e-38
0.00822626846469 -0.0246788053941 0.889 1.80320753934e-38
0.00987152215763 -0.0246788053941 0.889 1.90429510861e-38
0.0115167758506 -0.0246788053941 0.889 1.97801461822e-38
0.0131324186784 -0.024623285022 0.887 1.95024872993e-38
0.0147406587899 -0.0245677646499 0.885 1.99634584422e-38
0.0163229893945 -0.0244844840917 0.882 1.99627409773e-38
0.0178738584549 -0.0243734433476 0.878 1.88582038966e-38
0.0194321302315 -0.0242901627894 0.875 1.9317022645e-38
0.0210033567617 -0.0242346424173 0.873 2.06063069153e-38
0.0225153615616 -0.0241236016732 0.869 2.17140725877e-38
0.0240680813011 -0.0240680813011 0.867 2.34826906159e-38
0.0256726200545 -0.0240680813011 0.867 1.93300014714e-38
0.0272771588079 -0.0240680813011 0.867 2.32966121928e-38
0.0288816975613 -0.0240680813011 0.867 2.26476372428e-38
0.0304862363147 -0.0240680813011 0.867 2.33877078033e-38
0.0320907750681 -0.0240680813011 0.867 2.07989462178e-38
0.0336953138215 -0.0240680813011 0.867 2.34834865534e-38
0.0352998525749 -0.0240680813011 0.867 2.17206713021e-38
0.0369895225655 -0.0241236016732 0.869 2.12498728532e-38
0.0385089300817 -0.0240680813011 0.867 2.2356203596e-38
0.0401134688351 -0.0240680813011 0.867 2.19863504845e-38
0.0417180075885 -0.0240680813011 0.867 2.15272178452e-38
0.0434224830117 -0.0241236016732 0.869 2.34628930711e-38
0.0450307231232 -0.0241236016732 0.869 2.23569210608e-38
0.0467463026208 -0.0241791220453 0.871 2.20803383751e-38
0.0483582440905 -0.0241791220453 0.871 2.30026393931e-38
0.0500849276625 -0.0242346424173 0.873 2.30019219283e-38
0.0517005704903 -0.0242346424173 0.873 2.34603959573e-38
0.0534383581368 -0.0242901627894 0.875 2.3465404198e-38
0.0550577023227 -0.0242901627894 0.875 2.34632518036e-38
0.056871367811 -0.0243734433476 0.878 2.34643280008e-38
0.0584962640342 -0.0243734433476 0.878 2.34675565924e-38
0.0601211602573 -0.0243734433476 0.878 2.34682740572e-38
0.0617460564805 -0.0243734433476 0.878 2.34744061393e-38
0.00331641689285 -0.02321491825 0.896 2.19085924327e-38
0.00497462533928 -0.02321491825 0.896 2.04352167806e-38
0.00661802835314 -0.023163099236 0.894 1.94221452532e-38
0.00827253544143 -0.023163099236 0.894 1.89561616657e-38
0.00992704252972 -0.023163099236 0.894 1.91394501036e-38
0.0115426853575 -0.0230853707151 0.891 1.98730578756e-38
0.0131620295435 -0.0230335517011 0.889 1.85812624785e-38
0.0147739710132 -0.0229817326872 0.887 1.9317022645e-38
0.0163229893945 -0.0228521851523 0.882 2.01482056317e-38
0.0179552883339 -0.0228521851523 0.882 1.94102930708e-38
0.0194987546781 -0.0227485471244 0.878 1.99634584422e-38
0.0211236509012 -0.0227485471244 0.878 2.03311591592e-38
0.0226189995895 -0.0226189995895 0.873 2.11598310191e-38
0.0241791220453 -0.0225671805756 0.871 2.12498728532e-38
0.0257910635149 -0.0225671805756 0.871 2.01446183076e-38
0.0274030049846 -0.0225671805756 0.871 2.03315178916e-38
0.0290149464543 -0.0225671805756 0.871 1.95932465983e-38
0.030626887924 -0.0225671805756 0.871 1.98676768895e-38
0.0322388293937 -0.0225671805756 0.871 2.20817803112e-38
0.0338507708634 -0.0225671805756 0.871 2.03293654972e-38
0.035462712333 -0.0225671805756 0.871 2.09729314351e-38
0.0369895225655 -0.0225153615616 0.869 2.27249805102e-38
0.0385977626771 -0.0225153615616 0.869 2.18988197772e-38
0.0402060027886 -0.0225153615616 0.869 2.20817733047e-38
0.0418142429001 -0.0225153615616 0.869 2.29111626294e-38
0.0434224830117 -0.0225153615616 0.869 2.21714564064e-38
0.0451343611511 -0.0225671805756 0.871 2.26324275492e-38
0.0467463026208 -0.0225671805756 0.871 2.23573008127e-38
0.0484692848347 -0.0226189995895 0.873 2.32792220788e-38
0.0500849276625 -0.0226189995895 0.873 2.31855929206e-38
0.0518190139508 -0.0226708186035 0.875 2.34610994091e-38
0.0534383581368 -0.0226708186035 0.875 2.34603819443e-38
0.0552464715878 -0.0227485471244 0.878 2.34618168739e-38
0.0570009153459 -0.0228003661383 0.88 2.34700719232e-38
0.0584962640342 -0.0227485471244 0.878 2.34711551269e-38
0.0601211602573 -0.0227485471244 0.878 2.34697678414e-38
0.0618867080898 -0.0228003661383 0.88 2.346719786e-38
0.00167116319991 -0.0217251215989 0.903 2.28460428884e-38
0.00332381960913 -0.0216048274593 0.898 2.05253104627e-38
0.00498572941369 -0.0216048274593 0.898 1.96029603992e-38
0.0066328337857 -0.0215567098035 0.896 2.00653888925e-38
0.00827253544143 -0.0215085921477 0.894 1.90487104228e-38
0.00992704252972 -0.0215085921477 0.894 1.95979101196e-38
0.0115426853575 -0.021436415664 0.891 1.96879519537e-38
0.0131620295435 -0.0213882980082 0.889 1.98726991432e-38
0.0147739710132 -0.0213401803524 0.887 1.95957577251e-38
0.0163785097666 -0.0212920626966 0.885 1.97805049147e-38
0.0179552883339 -0.0212198862128 0.882 2.26396204143e-38
0.0195431709757 -0.021171768557 0.88 2.09837074203e-38
0.021171768557 -0.021171768557 0.88 1.97819398443e-38
0.0227485471244 -0.0211236509012 0.878 2.06077418449e-38
0.0242901627894 -0.0210514744175 0.875 2.11594722867e-38
0.0258502852452 -0.0210033567617 0.873 2.11573198922e-38
0.027465928073 -0.0210033567617 0.873 2.18973848476e-38
0.0290815709008 -0.0210033567617 0.873 2.10654843961e-38
0.0306972137286 -0.0210033567617 0.873 2.2263650635e-38
0.0323128565565 -0.0210033567617 0.873 2.12502315856e-38
0.0338507708634 -0.0209552391059 0.871 2.26335037465e-38
0.035462712333 -0.0209552391059 0.871 2.20803383751e-38
0.0370746538027 -0.0209552391059 0.871 2.24491152893e-38
0.0386865952724 -0.0209552391059 0.871 2.18044801607e-38
0.0402985367421 -0.0209552391059 0.871 2.24469628949e-38
0.0419104782118 -0.0209552391059 0.871 2.25395158559e-38
0.0435224196815 -0.0209552391059 0.871 2.33699813778e-38
0.0451343611511 -0.0209552391059 0.871 2.27249805102e-38
0.0468536420069 -0.0210033567617 0.873 2.34650454656e-38
0.0484692848347 -0.0210033567617 0.873 2.30930399597e-38
0.0501996697648 -0.0210514744175 0.875 2.3276710952e-38
0.0518190139508 -0.0210514744175 0.875 2.34639692684e-38
0.0536215753646 -0.0211236509012 0.878 2.34603819443e-38
0.0553723177646 -0.021171768557 0.88 2.34668391276e-38
0.0570009153459 -0.021171768557 0.88 2.34646867332e-38
0.0586295129272 -0.021171768557 0.88 2.34664803952e-38
0.0602581105085 -0.021171768557 0.88 2.34704460699e-38
0.00167116319991 -0.020053958399 0.903 2.34953849786e-38
0.00333492368355 -0.0200095421013 0.901 2.01565629757e-38
0.00498572941369 -0.0199429176548 0.898 1.96940504046e-38
0.00664763921826 -0.0199429176548 0.898 2.05231216345e-38
0.00829104223213 -0.0198985013571 0.896 1.90483629008e-38
0.00992704252972 -0.0198540850594 0.894 1.94145978597e-38
0.0115426853575 -0.0197874606129 0.891 1.94128070002e-38
0.0131916404086 -0.0197874606129 0.891 1.94142391272e-38
0.0147739710132 -0.0196986280176 0.887 1.99656108366e-38
0.016415523348 -0.0196986280176 0.887 1.96890281509e-38
0.0180163607432 -0.0196542117199 0.885 2.07942826965e-38
0.0196542117199 -0.0196542117199 0.885 2.09829759425e-38
0.0212198862128 -0.0195875872734 0.882 1.85794688165e-38
0.0228003661383 -0.0195431709757 0.88 1.86691519182e-38
0.0243734433476 -0.0194987546781 0.878 1.88538991077e-38
0.0259095069754 -0.0194321302315 0.875 2.07882248832e-38
0.0275288511614 -0.0194321302315 0.875 2.08861181926e-38
0.0291481953473 -0.0194321302315 0.875 2.16222370915e-38
0.0307675395333 -0.0194321302315 0.875 2.18084192107e-38
0.0323868837192 -0.0194321302315 0.875 2.18062668162e-38
0.0339284993843 -0.0193877139339 0.873 2.18055493514e-38
0.0355441422121 -0.0193877139339 0.873 2.18963086504e-38
0.0371597850399 -0.0193877139339 0.873 2.20803383751e-38
0.0387754278677 -0.0193877139339 0.873 2.23547686663e-38
0.0403910706956 -0.0193877139339 0.873 2.28150223443e-38
0.0420067135234 -0.0193877139339 0.873 2.33674702509e-38
0.043722293021 -0.0194321302315 0.875 2.30941161569e-38
0.0453416372069 -0.0194321302315 0.875 2.30941161569e-38
0.0469609813929 -0.0194321302315 0.875 2.29086515025e-38
0.0485803255789 -0.0194321302315 0.875 2.3184157991e-38
0.0503717829183 -0.0194987546781 0.878 2.34607406767e-38
0.0519966791415 -0.0194987546781 0.878 2.34596644795e-38
0.0537437201832 -0.0195431709757 0.88 2.34675635989e-38
0.0554981639413 -0.0195875872734 0.882 2.34668769627e-38
0.0573247841831 -0.0196542117199 0.885 2.34646867332e-38
0.0589626351597 -0.0196542117199 0.885 2.34643280008e-38
0.0614906627689 -0.0199429176548 0.898 2.34661216628e-38
0.00333492368355 -0.0183420802595 0.901 1.95108222226e-38
0.00500238552532 -0.0183420802595 0.901 1.99702743579e-38
0.00664763921826 -0.0182810078502 0.898 1.87682237196e-38
0.00830954902282 -0.0182810078502 0.898 1.95990129415e-38
0.00994925067855 -0.0182402929107 0.896 2.09819347777e-38
0.011607459125 -0.0182402929107 0.896 1.78487309037e-38
0.0132360567063 -0.0181995779711 0.894 1.92327205294e-38
0.0148072832364 -0.0180977906223 0.889 1.95053571586e-38
0.0164525369294 -0.0180977906223 0.889 1.98726991432e-38
0.0180570756828 -0.0180570756828 0.887 1.96857995592e-38
0.0196986280176 -0.0180570756828 0.887 1.78426324528e-38
0.0212920626966 -0.0180163607432 0.885 1.95925557581e-38
0.0228521851523 -0.0179552883339 0.882 1.95932465983e-38
0.0244844840917 -0.0179552883339 0.882 1.91304817934e-38
0.0261167830312 -0.0179552883339 0.882 2.07006717551e-38
0.0277490819706 -0.0179552883339 0.882 1.95064333558e-38
0.0293147564636 -0.0179145733944 0.88 1.9871622946e-38
0.0308730282403 -0.0178738584549 0.878 2.24580835995e-38
0.0324979244634 -0.0178738584549 0.878 2.12574062337e-38
0.0340062279052 -0.0178127860456 0.875 2.17133551229e-38
0.0356255720912 -0.0178127860456 0.875 2.27246217778e-38
0.0372449162771 -0.0178127860456 0.875 2.20803383751e-38
0.0388642604631 -0.0178127860456 0.875 2.2723904313e-38
0.0406224055793 -0.0178738584549 0.878 2.29100864322e-38
0.0422473018025 -0.0178738584549 0.878 2.2723904313e-38
0.0438721980256 -0.0178738584549 0.878 2.25423857151e-38
0.0454970942488 -0.0178738584549 0.878 2.34628930711e-38
0.047121990472 -0.0178738584549 0.878 2.34628930711e-38
0.0487468866951 -0.0178738584549 0.878 2.34643280008e-38
0.0504865250206 -0.0179145733944 0.88 2.34639692684e-38
0.0521151226019 -0.0179145733944 0.88 2.34679153248e-38
0.0538658650018 -0.0179552883339 0.882 2.34614581415e-38
0.0559386255599 -0.0180977906223 0.889 2.34682782611e-38
0.05790774809 -0.0181995779711 0.894 2.34664803952e-38
0.0596955040713 -0.0182402929107 0.896 2.3468995726e-38
0.0614906627689 -0.0182810078502 0.898 2.34722229163e-38
0.0633635499874 -0.0183420802595 0.901 2.34704264517e-38
0.00336083319052 -0.0168041659526 0.908 1.95126256937e-38
0.00501348959974 -0.0167116319991 0.903 2.09844557137e-38
0.00668465279965 -0.0167116319991 0.903 1.87750200172e-38
0.00833730920887 -0.0166746184177 0.901 1.93231491219e-38
0.00997145882739 -0.0166190980456 0.898 1.93220448987e-38
0.011633368632 -0.0166190980456 0.898 1.93206099691e-38
0.0132656675714 -0.0165820844643 0.896 2.0152869153e-38
0.0148905637946 -0.0165450708829 0.894 2.02482919732e-38
0.0164895505108 -0.0164895505108 0.891 2.16304879369e-38
0.0180977906223 -0.0164525369294 0.889 1.95110968771e-38
0.0197430443153 -0.0164525369294 0.889 2.00617511216e-38
0.0213401803524 -0.016415523348 0.887 1.88599975586e-38
0.0229299136732 -0.0163785097666 0.885 2.12595586282e-38
0.0245677646499 -0.0163785097666 0.885 1.94099343384e-38
0.0262056156265 -0.0163785097666 0.885 2.20878815647e-38
0.0278434666032 -0.0163785097666 0.885 1.99717092875e-38
0.0294813175799 -0.0163785097666 0.885 2.12591998958e-38
0.0310136798495 -0.0163229893945 0.882 1.92294919377e-38
0.032645978789 -0.0163229893945 0.882 2.34744173497e-38
0.0342005492075 -0.0162859758131 0.88 2.07985874853e-38
0.0358291467888 -0.0162859758131 0.88 2.2725697975e-38
0.0374577443701 -0.0162859758131 0.88 2.22643680998e-38
0.0390863419515 -0.0162859758131 0.88 2.29097276998e-38
0.0407149395328 -0.0162859758131 0.88 2.29115213618e-38
0.0423435371141 -0.0162859758131 0.88 2.27267741723e-38
0.0439721346954 -0.0162859758131 0.88 2.22658030294e-38
0.0456007322767 -0.0162859758131 0.88 2.32781458816e-38
0.047336669244 -0.0163229893945 0.882 2.34625343387e-38
0.0489689681835 -0.0163229893945 0.882 2.34689915221e-38
0.0507733802764 -0.0163785097666 0.885 2.34668391276e-38
0.0525296747135 -0.016415523348 0.887 2.34632518036e-38
0.0544155166855 -0.0164895505108 0.891 2.34657629304e-38
0.0562532410017 -0.0165450708829 0.894 2.3465404198e-38
0.05790774809 -0.0165450708829 0.894 2.34650454656e-38
0.0598287529643 -0.0166190980456 0.898 2.34690027325e-38
0.0616960881456 -0.0166746184177 0.901 2.34722229163e-38
0.0633635499874 -0.0166746184177 0.901 2.34747466549e-38
0.0653918942478 -0.0167671523712 0.906 2.34779598322e-38
0.0670686094849 -0.0167671523712 0.906 2.34723210072e-38
0.00336083319052 -0.0151237493574 0.908 2.18196786438e-38
0.00504124978578 -0.0151237493574 0.908 1.94167726749e-38
0.00672166638105 -0.0151237493574 0.908 2.03398247889e-38
0.00833730920887 -0.015007156576 0.901 1.9413900013e-38
0.0100047710506 -0.015007156576 0.901 2.00581637976e-38
0.011633368632 -0.0149571882411 0.898 1.94128041976e-38
0.0132656675714 -0.0149238760178 0.896 1.97808636471e-38
0.0148905637946 -0.0148905637946 0.894 1.93209687015e-38
0.0165450708829 -0.0148905637946 0.894 2.13506920738e-38
0.0181385055618 -0.0148405954597 0.891 2.15411635676e-38
0.0197430443153 -0.0148072832364 0.889 2.12652983467e-38
0.0213401803524 -0.0147739710132 0.887 2.09862255536e-38
0.0229817326872 -0.0147739710132 0.887 2.10791162275e-38
0.024623285022 -0.0147739710132 0.887 2.16304879369e-38
0.0262648373568 -0.0147739710132 0.887 2.08010986122e-38
0.0279063896916 -0.0147739710132 0.887 2.09833346749e-38
0.0295479420264 -0.0147739710132 0.887 2.17237583627e-38
0.0311894943612 -0.0147739710132 0.887 2.08882705871e-38
0.0327570195332 -0.0147406587899 0.885 2.23608671173e-38
0.0343948705098 -0.0147406587899 0.885 2.29190547423e-38
0.0360327214865 -0.0147406587899 0.885 2.20839256991e-38
0.0376705724632 -0.0147406587899 0.885 2.24491152893e-38
0.0393084234398 -0.0147406587899 0.885 2.27267741723e-38
0.0408074734862 -0.014690690455 0.882 2.28168160064e-38
0.0424397724257 -0.014690690455 0.882 2.22661617618e-38
0.0440720713651 -0.014690690455 0.882 2.34639692684e-38
0.0457043703046 -0.014690690455 0.882 2.34650454656e-38
0.0474976783231 -0.0147406587899 0.885 2.34628930711e-38
0.0491355292998 -0.0147406587899 0.885 2.34621756063e-38
0.0510028644811 -0.0148072832364 0.889 2.34628930711e-38
0.0527665616345 -0.0148405954597 0.891 2.34650454656e-38
0.0545987339134 -0.0148905637946 0.894 2.34668391276e-38
0.0562532410017 -0.0148905637946 0.894 2.34650454656e-38
0.0581668431598 -0.0149571882411 0.898 2.34664803952e-38
0.0600286263038 -0.015007156576 0.901 2.34643280008e-38
0.0618330383968 -0.0150404687992 0.903 2.34736928784e-38
0.0635042015967 -0.0150404687992 0.903 2.34729375785e-38
0.0653918942478 -0.0150904371341 0.906 2.34790710619e-38
0.0050523538602 -0.0134729436272 0.91 1.99713897915e-38
0.00672166638105 -0.0134433327621 0.908 1.93231491219e-38
0.00838357618561 -0.013413721897 0.906 1.8394773475e-38
0.0100269791995 -0.0133693055993 0.903 2.02403998603e-38
0.0116722328924 -0.0133396947342 0.901 2.02436284519e-38
0.0132952784365 -0.0132952784365 0.898 2.02436284519e-38
0.0149238760178 -0.0132656675714 0.896 1.96886694185e-38
0.0165820844643 -0.0132656675714 0.896 2.05180587432e-38
0.0181995779711 -0.0132360567063 0.894 2.04298105711e-38
0.0197874606129 -0.0131916404086 0.891 2.14453820149e-38
0.0213882980082 -0.0131620295435 0.889 2.18163113236e-38
0.0230335517011 -0.0131620295435 0.889 2.16322844015e-38
0.024623285022 -0.0131324186784 0.887 2.11717154313e-38
0.0262648373568 -0.0131324186784 0.887 2.17226947771e-38
0.0279063896916 -0.0131324186784 0.887 2.22740538748e-38
0.0295479420264 -0.0131324186784 0.887 2.11662882024e-38
0.0311894943612 -0.0131324186784 0.887 2.23630195117e-38
0.0329050738588 -0.0131620295435 0.889 2.34700677193e-38
0.0344725990308 -0.0131324186784 0.887 2.23626607793e-38
0.0361141513656 -0.0131324186784 0.887 2.20810558399e-38
0.0377557037004 -0.0131324186784 0.887 2.28168160064e-38
0.0393972560352 -0.0131324186784 0.887 2.1895949918e-38
0.0409462744165 -0.0131028078133 0.885 2.34628930711e-38
0.0425841253931 -0.0131028078133 0.885 2.34661216628e-38
0.0442219763698 -0.0131028078133 0.885 2.3465404198e-38
0.0459634653743 -0.0131324186784 0.887 2.34639692684e-38
0.0476050177091 -0.0131324186784 0.887 2.34628930711e-38
0.0493576107881 -0.0131620295435 0.889 2.34632518036e-38
0.0511176065834 -0.0131916404086 0.891 2.34643280008e-38
0.0529442268251 -0.0132360567063 0.894 2.34632518036e-38
0.0545987339134 -0.0132360567063 0.894 2.34628930711e-38
0.0563790871785 -0.0132656675714 0.896 2.34668391276e-38
0.0581668431598 -0.0132952784365 0.898 2.34736550434e-38
0.0601618751969 -0.0133693055993 0.903 2.34682740572e-38
0.0620384637735 -0.013413721897 0.906 2.34711439165e-38
0.0637151790106 -0.013413721897 0.906 2.34711439165e-38
0.0653918942478 -0.013413721897 0.906 2.34761661702e-38
0.0670686094849 -0.013413721897 0.906 2.34841900052e-38
0.00506900997183 -0.0118276899343 0.913 1.93270671524e-38
0.00675867996244 -0.0118276899343 0.913 2.1631620186e-38
0.00840208297631 -0.0117629161668 0.908 1.39744209095e-38
0.0100602914227 -0.0117370066599 0.906 1.70024965702e-38
0.0116722328924 -0.0116722328924 0.901 1.81992124652e-38
0.0133396947342 -0.0116722328924 0.901 1.97693968217e-38
0.0149571882411 -0.011633368632 0.898 2.09743663647e-38
0.0166190980456 -0.011633368632 0.898 2.08843245306e-38
0.0182402929107 -0.011607459125 0.896 1.96857995592e-38
0.0198540850594 -0.011581549618 0.894 2.09765187591e-38
0.021436415664 -0.0115426853575 0.891 2.07971525557e-38
0.0230335517011 -0.0115167758506 0.889 2.17212472358e-38
0.0246788053941 -0.0115167758506 0.889 2.18155938588e-38
0.026324059087 -0.0115167758506 0.889 2.19052769605e-38
0.0279693127799 -0.0115167758506 0.889 2.17208885034e-38
0.0296145664729 -0.0115167758506 0.889 2.18109303375e-38
0.0312598201658 -0.0115167758506 0.889 2.23637369765e-38
0.0329050738588 -0.0115167758506 0.889 2.31935354803e-38
0.0345503275517 -0.0115167758506 0.889 2.14385660992e-38
0.0361955812446 -0.0115167758506 0.889 2.25391571235e-38
0.0378408349376 -0.0115167758506 0.889 2.34596644795e-38
0.0393972560352 -0.0114908663436 0.887 2.34593057471e-38
0.04103880837 -0.0114908663436 0.887 2.34650454656e-38
0.0426803607048 -0.0114908663436 0.887 2.34618168739e-38
0.0443219130396 -0.0114908663436 0.887 2.34589470147e-38
0.0459634653743 -0.0114908663436 0.887 2.3457512085e-38
0.0478196964812 -0.0115426853575 0.891 2.34632518036e-38
0.0496352126486 -0.011581549618 0.894 2.34621756063e-38
0.0512897197369 -0.011581549618 0.894 2.34614581415e-38
0.0530626702856 -0.011607459125 0.896 2.34610994091e-38
0.0548430235506 -0.011633368632 0.898 2.3465404198e-38
0.0566937026203 -0.0116722328924 0.901 2.34689915221e-38
0.0583611644621 -0.0116722328924 0.901 2.34693502545e-38
0.0603617485364 -0.0117370066599 0.906 2.34686327897e-38
0.0620384637735 -0.0117370066599 0.906 2.34732963109e-38
0.0638558306199 -0.0117629161668 0.908 2.34744285601e-38
0.0655362472152 -0.0117629161668 0.908 2.34776010998e-38
0.0672166638105 -0.0117629161668 0.908 2.34791425281e-38
0.006773485395 -0.0101602280925 0.915 2.13546773666e-38
0.00844834995305 -0.0101380199437 0.913 1.92349345809e-38
0.0101047077204 -0.0101047077204 0.91 1.35087862454e-38
0.0117629161668 -0.0100824995716 0.908 1.8749882124e-38
0.0134433327621 -0.0100824995716 0.908 1.78268482269e-38
0.015007156576 -0.0100047710506 0.901 1.79133027369e-38
0.0166746184177 -0.0100047710506 0.901 2.03128694116e-38
0.0182810078502 -0.00997145882739 0.898 2.20789090506e-38
0.0198985013571 -0.00994925067855 0.896 2.06999360735e-38
0.0215567098035 -0.00994925067855 0.896 2.06077418449e-38
0.023163099236 -0.00992704252972 0.894 2.079033664e-38
0.0247343257662 -0.00989373030646 0.891 2.1437489902e-38
0.0263832808172 -0.00989373030646 0.891 2.17155075173e-38
0.0280322358683 -0.00989373030646 0.891 2.19942425974e-38
0.0296811909194 -0.00989373030646 0.891 2.24538054353e-38
0.0313301459705 -0.00989373030646 0.891 2.16240307535e-38
0.0329791010215 -0.00989373030646 0.891 2.14378486344e-38
0.0346280560726 -0.00989373030646 0.891 2.26320688168e-38
0.0361955812446 -0.00987152215763 0.889 2.2722110651e-38
0.0378408349376 -0.00987152215763 0.889 2.34614581415e-38
0.0394860886305 -0.00987152215763 0.889 2.34621756063e-38
0.0411313423234 -0.00987152215763 0.889 2.34582295499e-38
0.042872831328 -0.00989373030646 0.891 2.34582295499e-38
0.0445217863791 -0.00989373030646 0.891 2.34603819443e-38
0.046326198472 -0.00992704252972 0.894 2.34607406767e-38
0.0479807055603 -0.00992704252972 0.894 2.34621756063e-38
0.0497462533928 -0.00994925067855 0.896 2.34614581415e-38
0.0515192039415 -0.00997145882739 0.898 2.34614581415e-38
0.0531811137461 -0.00997145882739 0.898 2.34621840141e-38
0.0550262407785 -0.0100047710506 0.901 2.34657629304e-38
0.056819548797 -0.0100269791995 0.903 2.34682740572e-38
0.058490711997 -0.0100269791995 0.903 2.34689915221e-38
0.0603617485364 -0.0100602914227 0.906 2.34689915221e-38
0.0621754140247 -0.0100824995716 0.908 2.34722243176e-38
0.0638558306199 -0.0100824995716 0.908 2.34718613813e-38
0.0656806001826 -0.0101047077204 0.91 2.34784152542e-38
0.00849461692979 -0.00849461692979 0.918 2.17267024907e-38
0.0101602280925 -0.00846685674374 0.915 1.09399034798e-38
0.0118535994412 -0.00846685674374 0.915 1.94907121883e-38
0.0135173599249 -0.00844834995305 0.913 1.73741279294e-38
0.0151237493574 -0.00840208297631 0.908 1.75531354004e-38
0.0168041659526 -0.00840208297631 0.908 2.02149312607e-38
0.018382795199 -0.00835581599956 0.903 1.90181985501e-38
0.0199429176548 -0.00830954902282 0.898 1.82921241586e-38
0.0216048274593 -0.00830954902282 0.898 2.25313350754e-38
0.0232667372639 -0.00830954902282 0.898 2.19002547068e-38
0.0249286470685 -0.00830954902282 0.898 2.15304015954e-38
0.026590556873 -0.00830954902282 0.898 2.18984610448e-38
0.0281895435892 -0.00829104223213 0.896 2.18973848476e-38
0.0298477520357 -0.00829104223213 0.896 2.20799796427e-38
0.0315059604821 -0.00829104223213 0.896 2.30022806607e-38
0.0330901417657 -0.00827253544143 0.894 2.30944748893e-38
0.034744648854 -0.00827253544143 0.894 2.34646867332e-38
0.0362770111237 -0.00824477525538 0.891 2.34628930711e-38
0.0379259661748 -0.00824477525538 0.891 2.34610994091e-38
0.0395749212258 -0.00824477525538 0.891 2.34618168739e-38
0.0412238762769 -0.00824477525538 0.891 2.28153810768e-38
0.042872831328 -0.00824477525538 0.891 2.34621756063e-38
0.0446716913837 -0.00827253544143 0.894 2.34621756063e-38
0.046326198472 -0.00827253544143 0.894 2.34628930711e-38
0.0480880449463 -0.00829104223213 0.896 2.3463610536e-38
0.0498572941369 -0.00830954902282 0.898 2.34639692684e-38
0.0515192039415 -0.00830954902282 0.898 2.3465404198e-38
0.0533587789368 -0.00833730920887 0.901 2.3463610536e-38
0.0550262407785 -0.00833730920887 0.901 2.34693502545e-38
0.0570083180621 -0.00838357618561 0.906 2.34632518036e-38
0.0586850332993 -0.00838357618561 0.906 2.34725788461e-38
0.0603617485364 -0.00838357618561 0.906 2.34697089869e-38
0.0625177896526 -0.00844834995305 0.913 2.34686650195e-38
0.0642074596432 -0.00844834995305 0.913 2.34732963109e-38
0.0660414826012 -0.00846685674374 0.915 2.34744734017e-38
0.00679569354383 -0.00679569354383 0.918 1.95143955337e-38
0.00849461692979 -0.00679569354383 0.918 1.91506745043e-38
0.0101935403157 -0.00679569354383 0.918 1.46330536085e-38
0.0118535994412 -0.006773485395 0.915 1.87739606355e-38
0.01354697079 -0.006773485395 0.915 1.98753237752e-38
0.0152070299155 -0.00675867996244 0.913 1.41562982398e-38
0.0168966999061 -0.00675867996244 0.913 1.52533075452e-38
0.0184845825479 -0.00672166638105 0.908 2.34687420909e-38
0.020053958399 -0.00668465279965 0.903 2.08862765393e-38
0.0217251215989 -0.00668465279965 0.903 1.98677133233e-38
0.0233962847988 -0.00668465279965 0.903 1.94156740569e-38
0.0250674479987 -0.00668465279965 0.903 2.13470893354e-38
0.0267386111986 -0.00668465279965 0.903 2.29122388266e-38
0.0282524666776 -0.00664763921826 0.898 2.27260567074e-38
0.0299143764822 -0.00664763921826 0.898 2.32792220788e-38
0.0315762862867 -0.00664763921826 0.898 2.29104451646e-38
0.0333492368355 -0.00666984736709 0.901 2.34621756063e-38
0.0349001058959 -0.00664763921826 0.898 2.23536924691e-38
0.0364805858214 -0.0066328337857 0.896 2.23511813423e-38
0.0381387942678 -0.0066328337857 0.896 2.32745585575e-38
0.0398858353096 -0.00664763921826 0.898 2.3276710952e-38
0.0414552111606 -0.0066328337857 0.896 2.34643280008e-38
0.0431134196071 -0.0066328337857 0.896 2.33717750398e-38
0.0447716280535 -0.0066328337857 0.896 2.29097276998e-38
0.0465334745278 -0.00664763921826 0.898 2.34621756063e-38
0.0483563934114 -0.00666984736709 0.901 2.34600232119e-38
0.0501348959974 -0.00668465279965 0.903 2.34610994091e-38
0.0518060591973 -0.00668465279965 0.903 2.34643280008e-38
0.0534772223972 -0.00668465279965 0.903 2.3465404198e-38
0.0551483855971 -0.00668465279965 0.903 2.34657629304e-38
0.0571341642389 -0.00672166638105 0.908 2.34661216628e-38
0.0588145808341 -0.00672166638105 0.908 2.34689915221e-38
0.0606282463224 -0.0067364718136 0.91 2.34689915221e-38
0.0626547399037 -0.006773485395 0.915 2.34675804145e-38
0.0645590886664 -0.00679569354383 0.918 2.34737335161e-38
0.0664023650198 -0.00681049897639 0.92 2.34798095462e-38
0.00851312372049 -0.00510787423229 0.92 1.86933271193e-38
0.0102157484646 -0.00510787423229 0.92 1.26012128742e-38
0.0118924637017 -0.00509677015787 0.918 2.15394792068e-38
0.0135913870877 -0.00509677015787 0.918 2.11743092348e-38
0.0152403421387 -0.00508011404625 0.915 1.56429245702e-38
0.0169337134875 -0.00508011404625 0.915 1.12157995293e-38
0.0185863698967 -0.00506900997183 0.913 1.35034052593e-38
0.0201649991431 -0.00504124978578 0.908 2.16169485911e-38
0.0218454157384 -0.00504124978578 0.908 2.15344597557e-38
0.0234740133197 -0.00503014571137 0.906 1.68346182115e-38
0.0251507285568 -0.00503014571137 0.906 1.95071508206e-38
0.026827443794 -0.00503014571137 0.906 2.21764786601e-38
0.0283468513102 -0.00500238552532 0.901 2.19867092169e-38
0.0300143131519 -0.00500238552532 0.901 2.23547686663e-38
0.0316817749937 -0.00500238552532 0.901 2.2723904313e-38
0.0333492368355 -0.00500238552532 0.901 2.27217519186e-38
0.0350166986772 -0.00500238552532 0.901 2.262955769e-38
0.0365620157004 -0.00498572941369 0.898 2.34614581415e-38
0.038223925505 -0.00498572941369 0.898 2.23533337367e-38
0.0400190842026 -0.00500238552532 0.901 2.29064991081e-38
0.0416865460443 -0.00500238552532 0.901 2.26327862817e-38
0.0433540078861 -0.00500238552532 0.901 2.34618168739e-38
0.0450214697279 -0.00500238552532 0.901 2.32752760224e-38
0.0467925695976 -0.00501348959974 0.903 2.34578708175e-38
0.0484637327975 -0.00501348959974 0.903 2.34657629304e-38
0.0503014571137 -0.00503014571137 0.906 2.34646867332e-38
0.0519781723508 -0.00503014571137 0.906 2.3465404198e-38
0.0537733310484 -0.00504124978578 0.908 2.34610994091e-38
0.0554537476436 -0.00504124978578 0.908 2.34700677193e-38
0.0571341642389 -0.00504124978578 0.908 2.34704264517e-38
0.058944128369 -0.0050523538602 0.91 2.34675790132e-38
0.060961368555 -0.00508011404625 0.915 2.346719786e-38
0.0628601652804 -0.00509677015787 0.918 2.34740137758e-38
0.0645590886664 -0.00509677015787 0.918 2.34754879417e-38
0.0666188944709 -0.00512453034392 0.923 2.3476883635e-38
0.0694374786941 -0.00520781090205 0.938 2.34906429846e-38
0.00701777503219 -0.0035088875161 0.948 1.85884987838e-38
0.00855939069723 -0.00342375627889 0.925 1.87836548183e-38
0.0102712688367 -0.00342375627889 0.925 1.79542949209e-38
0.0119572374691 -0.00341635356261 0.923 1.66534569448e-38
0.0135913870877 -0.00339784677192 0.918 1.97899356533e-38
0.0152903104736 -0.00339784677192 0.918 1.19565511209e-38
0.0169892338596 -0.00339784677192 0.918 1.54643136666e-38
0.0186270848362 -0.0033867426975 0.915 1.58316696643e-38
0.0202760398873 -0.00337933998122 0.913 1.43421216265e-38
0.0218935333942 -0.0033682359068 0.91 1.38721821736e-38
0.0235776513476 -0.0033682359068 0.91 1.64529031086e-38
0.0252062489289 -0.00336083319052 0.908 1.22169908483e-38
0.0268866655242 -0.00336083319052 0.908 2.24545214988e-38
0.0285670821194 -0.00336083319052 0.908 2.18059080838e-38
0.0301808742682 -0.00335343047424 0.906 2.18062668162e-38
0.0318575895053 -0.00335343047424 0.906 2.22643680998e-38
0.0334232639983 -0.00334232639983 0.903 2.23547686663e-38
0.0350944271982 -0.00334232639983 0.903 2.27242630454e-38
0.0367655903981 -0.00334232639983 0.903 2.20810558399e-38
0.038436753598 -0.00334232639983 0.903 2.29097276998e-38
0.0401079167979 -0.00334232639983 0.903 2.30026393931e-38
0.0417790799978 -0.00334232639983 0.903 2.24476803597e-38
0.0434502431977 -0.00334232639983 0.903 2.32749172899e-38
0.0451214063976 -0.00334232639983 0.903 2.34632518036e-38
0.0467925695976 -0.00334232639983 0.903 2.34668391276e-38
0.0486247418765 -0.00335343047424 0.906 2.34632518036e-38
0.0503014571137 -0.00335343047424 0.906 2.3463610536e-38
0.0520929144531 -0.00336083319052 0.908 2.34657629304e-38
0.0537733310484 -0.00336083319052 0.908 2.34679153248e-38
0.0554537476436 -0.00336083319052 0.908 2.34646867332e-38
0.0572600104156 -0.0033682359068 0.91 2.34675565924e-38
0.0591384496713 -0.00337933998122 0.913 2.3470427853e-38
0.060961368555 -0.0033867426975 0.915 2.34704264517e-38
0.0633394911595 -0.00342375627889 0.925 2.34704754971e-38
0.0652623467129 -0.00343486035331 0.928 2.34700719232e-38
0.0673406593081 -0.00345336714401 0.933 2.34920821182e-38
0.0694374786941 -0.0034718739347 0.938 2.25605059056e-38
0.00701777503219 -0.00175444375805 0.948 1.96944147422e-38
0.00869819162745 -0.00173963832549 0.94 1.60081295747e-38
0.0103823095809 -0.00173038493014 0.935 1.91539367271e-38
0.0120479207436 -0.00172113153479 0.93 1.27899215345e-38
0.0136950251156 -0.00171187813945 0.925 1.75747013838e-38
0.0153236226969 -0.0017026247441 0.92 1.41688917091e-38
0.0169892338596 -0.00169892338596 0.918 1.20516152087e-38
