# .PCD v0.7 - Point Cloud Data file format
VERSION 0.7
FIELDS x y z rgb
SIZE 4 4 4 4
TYPE F F F F
COUNT 1 1 1 1
WIDTH 842
HEIGHT 1
VIEWPOINT 0 0 0 1 0 0 0
POINTS 842
DATA ascii
0.0325293860076 -0.0356274227702 0.837 2.04215723374e-38
0.0340784043889 -0.0356274227702 0.837 2.06037957884e-38
0.0357125540074 -0.0357125540074 0.839 2.07867493159e-38
0.0373541063422 -0.0357976852446 0.841 2.10626145368e-38
0.0389105274398 -0.0357976852446 0.841 2.0601643394e-38
0.040563183849 -0.0358828164819 0.843 2.06952725522e-38
0.0422232429745 -0.0359679477191 0.845 2.30977427173e-38
0.0437870667884 -0.0359679477191 0.845 2.13402734197e-38
0.0453508906023 -0.0359679477191 0.845 2.33707142569e-38
0.0470257551603 -0.0360530789563 0.847 9.45905610427e-39
0.0487080224347 -0.0361382101935 0.849 2.3471310671e-38
0.0503976924253 -0.0362233414307 0.851 2.31153023884e-38
0.0521558375415 -0.0363510382865 0.854 2.30109743164e-38
0.053736317467 -0.0363510382865 0.854 1.39841066845e-38
0.0555758924622 -0.0365213007609 0.858 1.7114477133e-38
0.057163775104 -0.0365213007609 0.858 2.34813383628e-38
-0.00483582440905 -0.035462712333 0.871 2.07215721217e-38
-0.00322388293937 -0.035462712333 0.871 2.11706770692e-38
-0.00161194146968 -0.035462712333 0.871 1.90508810341e-38
0.0 -0.035381282454 0.869 1.96008122087e-38
0.0016045387534 -0.0352998525749 0.867 1.85820093706e-38
0.00319057071611 -0.0350962778772 0.862 1.88592800938e-38
0.00478585607417 -0.0350962778772 0.862 1.95053571586e-38
0.00636633599967 -0.0350148479982 0.86 1.89496806604e-38
0.00792090641819 -0.03485198824 0.856 1.79373490186e-38
0.00948287955299 -0.034770558361 0.854 1.86730979747e-38
0.0110633594785 -0.034770558361 0.854 1.88556927698e-38
0.0125994231063 -0.0346484135424 0.851 1.89471695335e-38
0.0141743509946 -0.0346484135424 0.851 1.89471695335e-38
0.0156752517201 -0.0344855537843 0.847 1.93148702505e-38
0.0172427768921 -0.0344855537843 0.847 1.90375701e-38
0.0187214694688 -0.0343226940261 0.843 1.93159464478e-38
0.0202334742687 -0.0342412641471 0.841 1.94996174401e-38
0.0217898953663 -0.0342412641471 0.841 1.9130123061e-38
0.0232907960918 -0.034159834268 0.839 1.95871481474e-38
0.0248435158313 -0.034159834268 0.839 2.00481192902e-38
0.0263962355707 -0.034159834268 0.839 2.02343014093e-38
0.0279489553102 -0.034159834268 0.839 2.13406349547e-38
0.0295016750496 -0.034159834268 0.839 2.06949138198e-38
0.0310543947891 -0.034159834268 0.839 2.0141389716e-38
0.0326071145285 -0.034159834268 0.839 2.11576786246e-38
0.034159834268 -0.034159834268 0.839 2.06041545208e-38
0.0357976852446 -0.0342412641471 0.841 2.13399146873e-38
0.0373541063422 -0.0342412641471 0.841 2.14328263807e-38
0.0390030613933 -0.0343226940261 0.843 2.07892604428e-38
0.0406594191607 -0.0344041239052 0.845 2.05119602923e-38
0.0422232429745 -0.0344041239052 0.845 2.16154211758e-38
0.0437870667884 -0.0344041239052 0.845 2.18930800587e-38
0.0454582299883 -0.0344855537843 0.847 2.3466488803e-38
0.0471367959045 -0.0345669836633 0.849 7.98968816575e-39
0.048822764537 -0.0346484135424 0.851 2.34838578975e-38
0.050575357616 -0.034770558361 0.854 2.34873653475e-38
0.0522779823601 -0.03485198824 0.856 1.75729021166e-38
0.0539880098204 -0.0349334181191 0.858 2.12563314378e-38
0.0555758924622 -0.0349334181191 0.858 1.95067920882e-38
0.057163775104 -0.0349334181191 0.858 2.34792097905e-38
0.0587516577458 -0.0349334181191 0.858 2.34838480884e-38
-0.00484692848347 -0.0339284993843 0.873 1.97117614159e-38
-0.00323128565565 -0.0339284993843 0.873 2.13531877864e-38
-0.00161564282782 -0.0339284993843 0.873 2.01554461409e-38
0.0 -0.0338507708634 0.871 1.99681836206e-38
0.00160824011154 -0.0337730423424 0.869 1.90468985439e-38
0.00320907750681 -0.0336953138215 0.867 1.91372977091e-38
0.00479696014859 -0.0335787210401 0.864 1.85823498861e-38
0.00638114143223 -0.0335009925192 0.862 1.91340691175e-38
0.00793941320889 -0.0333455354773 0.858 1.90418748889e-38
0.00950508770183 -0.0332678069564 0.856 1.88571276994e-38
0.0110892689855 -0.0332678069564 0.856 1.87656775603e-38
0.012643839404 -0.0331900784355 0.854 1.89478869983e-38
0.0142243193295 -0.0331900784355 0.854 1.91315579906e-38
0.0157492788829 -0.0330734856541 0.851 1.90393637621e-38
0.0173242067712 -0.0330734856541 0.851 1.90390050297e-38
0.0188103020641 -0.0329180286122 0.847 1.95003349049e-38
0.0203297095803 -0.0328403000913 0.845 1.94999761725e-38
0.0218935333942 -0.0328403000913 0.845 2.02364538038e-38
0.0234573572081 -0.0328403000913 0.845 2.05119602923e-38
0.0249619592917 -0.0327625715704 0.843 1.99584361885e-38
0.0265220817475 -0.0327625715704 0.843 2.04183311341e-38
0.0280155797567 -0.0326848430495 0.841 2.02332252121e-38
0.0295720008543 -0.0326848430495 0.841 2.06938376225e-38
0.0311284219519 -0.0326848430495 0.841 2.07863905835e-38
0.0326848430495 -0.0326848430495 0.841 2.08785848121e-38
0.0342412641471 -0.0326848430495 0.841 2.09697252642e-38
0.0358828164819 -0.0327625715704 0.843 2.24451706342e-38
0.0374429389376 -0.0327625715704 0.843 2.16186497674e-38
0.0390955953468 -0.0328403000913 0.845 2.19913979615e-38
0.0407556544723 -0.0329180286122 0.847 2.18948737207e-38
0.0423231796443 -0.0329180286122 0.847 2.34657699369e-38
0.0438907048163 -0.0329180286122 0.847 2.17133551229e-38
0.0454582299883 -0.0329180286122 0.847 2.34712616256e-38
0.0472478366487 -0.0330734856541 0.851 6.97949770801e-39
0.0489948776905 -0.0331900784355 0.854 2.3492489896e-38
0.0506938010764 -0.0332678069564 0.856 2.23774584911e-38
0.0522779823601 -0.0332678069564 0.856 1.6008074924e-38
0.0539880098204 -0.0333455354773 0.858 2.33811217006e-38
0.0555758924622 -0.0333455354773 0.858 2.3470897288e-38
0.0587627618202 -0.0342782777284 0.882 2.34790878775e-38
0.0606004861364 -0.0343948705098 0.885 2.34745098354e-38
0.062238337113 -0.0343948705098 0.885 2.34777188089e-38
-0.00668465279965 -0.0334232639983 0.903 2.35040744304e-38
-0.00501348959974 -0.0334232639983 0.903 2.18340811895e-38
-0.00334232639983 -0.0334232639983 0.903 2.08018693263e-38
-0.00162489622317 -0.0324979244634 0.878 1.90490859708e-38
0.0 -0.0324979244634 0.878 2.07068080411e-38
0.00161194146968 -0.0322388293937 0.871 1.97855341748e-38
0.00321648022309 -0.0321648022309 0.869 1.87692382597e-38
0.00479696014859 -0.0319797343239 0.864 1.90425923537e-38
0.00639594686478 -0.0319797343239 0.864 1.90418748889e-38
0.00795791999959 -0.0318316799983 0.86 1.89489631955e-38
0.00952729585067 -0.0317576528356 0.858 1.86730979747e-38
0.0111151784924 -0.0317576528356 0.858 1.89478869983e-38
0.0126734502691 -0.0316836256728 0.856 1.90393637621e-38
0.0142243193295 -0.03160959851 0.854 1.9222676022e-38
0.015804799255 -0.03160959851 0.854 1.89471695335e-38
0.0173242067712 -0.0314985577658 0.851 1.9777276323e-38
0.0188991346595 -0.0314985577658 0.851 1.94084994087e-38
0.020425944892 -0.031424530603 0.849 1.95882243446e-38
0.0219453524082 -0.0313505034402 0.847 2.10633320016e-38
0.0235128775802 -0.0313505034402 0.847 1.98669594247e-38
0.0250804027522 -0.0313505034402 0.847 2.10647669312e-38
0.0265850048358 -0.0312764762774 0.845 2.02371712686e-38
0.0281488286497 -0.0312764762774 0.845 2.0695990017e-38
0.0296423266589 -0.0312024491147 0.843 2.05112428274e-38
0.0312024491147 -0.0312024491147 0.843 2.06041545208e-38
0.0327625715704 -0.0312024491147 0.843 2.06941963549e-38
0.0343226940261 -0.0312024491147 0.843 2.14317501835e-38
0.0358828164819 -0.0312024491147 0.843 2.16157799082e-38
0.0375317715329 -0.0312764762774 0.845 2.14303152538e-38
0.0390955953468 -0.0312764762774 0.845 2.15228682148e-38
0.0407556544723 -0.0313505034402 0.847 2.34621784089e-38
0.0424231163141 -0.031424530603 0.849 2.18030382246e-38
0.0439943428442 -0.031424530603 0.849 2.1712637658e-38
0.0456729087604 -0.0314985577658 0.851 2.34639734723e-38
0.047414397765 -0.03160959851 0.854 6.52032022722e-39
0.0491096197928 -0.0316836256728 0.856 2.34924408506e-38
0.0506938010764 -0.0316836256728 0.856 1.82271935929e-38
0.0524001271787 -0.0317576528356 0.858 1.91244225789e-38
0.0553723177646 -0.0325719516262 0.88 2.348056905e-38
0.0570009153459 -0.0325719516262 0.88 2.34725788461e-38
0.0587627618202 -0.032645978789 0.882 2.34762208208e-38
0.0606004861364 -0.0327570195332 0.885 2.34845529415e-38
0.062238337113 -0.0327570195332 0.885 2.34852269661e-38
-0.00840208297631 -0.03192791531 0.908 2.34954130046e-38
-0.00668465279965 -0.0317521007983 0.903 2.35018842009e-38
-0.00501348959974 -0.0317521007983 0.903 2.26659830423e-38
-0.00334232639983 -0.0317521007983 0.903 1.84962583124e-38
-0.00162489622317 -0.0308730282403 0.878 2.03434177182e-38
0.0 -0.0308730282403 0.878 1.97855776151e-38
0.00161564282782 -0.0306972137286 0.873 1.94157034841e-38
0.00322388293937 -0.030626887924 0.871 1.96922567426e-38
0.00482472033463 -0.0305565621193 0.869 1.84915793768e-38
0.00641815501362 -0.0304862363147 0.867 1.92298506701e-38
0.00797642679028 -0.0303104218031 0.862 1.86741741719e-38
0.0095495039995 -0.0302400959984 0.86 1.9224469684e-38
0.0111151784924 -0.0301697701938 0.858 1.95936053307e-38
0.0126734502691 -0.0300994443891 0.856 1.84854809259e-38
0.0142576315527 -0.0300994443891 0.856 2.10658459311e-38
0.015804799255 -0.0300291185845 0.854 1.94074232115e-38
0.0173852791805 -0.0300291185845 0.854 1.99605885829e-38
0.0188991346595 -0.0299236298775 0.851 1.94999761725e-38
0.0204740625478 -0.0299236298775 0.851 2.06059481829e-38
0.0219971714221 -0.0298533040729 0.849 2.01435421104e-38
0.0235683979523 -0.0298533040729 0.849 2.03282892999e-38
0.0251396244824 -0.0298533040729 0.849 2.0235736339e-38
0.0266479279242 -0.0297829782682 0.847 2.09725727027e-38
0.0281488286497 -0.0297126524636 0.845 2.06967074818e-38
0.0297126524636 -0.0297126524636 0.845 2.09725727027e-38
0.0312764762774 -0.0297126524636 0.845 2.09729314351e-38
0.0328403000913 -0.0297126524636 0.845 2.11566024274e-38
0.0344041239052 -0.0297126524636 0.845 2.15253793417e-38
0.0359679477191 -0.0297126524636 0.845 2.19859917521e-38
0.0376206041283 -0.0297829782682 0.847 2.17983747033e-38
0.0392806632538 -0.0298533040729 0.849 2.22600633109e-38
0.0409481250955 -0.0299236298775 0.851 2.1709050334e-38
0.0425230529838 -0.0299236298775 0.851 2.31834405262e-38
0.0440979808721 -0.0299236298775 0.851 2.28178936049e-38
0.0458339178395 -0.0300291185845 0.854 2.3467225886e-38
0.047414397765 -0.0300291185845 0.854 6.3366492349e-39
0.0491096197928 -0.0300994443891 0.856 2.34928626414e-38
0.0508122445369 -0.0301697701938 0.858 1.45390657179e-38
0.0531940684996 -0.030626887924 0.871 2.13474929094e-38
0.0553723177646 -0.0309433540449 0.88 2.34730076435e-38
0.0570009153459 -0.0309433540449 0.88 2.3475089973e-38
0.0587627618202 -0.0310136798495 0.882 2.34820362095e-38
0.0606004861364 -0.0311191685565 0.885 2.34798641968e-38
0.062238337113 -0.0311191685565 0.885 2.34798529865e-38
0.0638761880897 -0.0311191685565 0.885 2.34964443603e-38
-0.0101047077204 -0.0303141231612 0.91 2.35000807298e-38
-0.00840208297631 -0.0302474987147 0.908 2.35008262206e-38
-0.00668465279965 -0.0300809375984 0.903 2.34982520353e-38
-0.00501348959974 -0.0300809375984 0.903 2.35036736591e-38
-0.00334232639983 -0.0300809375984 0.903 1.84037543968e-38
-0.00166190980456 -0.0299143764822 0.898 1.98827940974e-38
0.0 -0.0299143764822 0.898 1.96976951819e-38
0.00163229893945 -0.0293813809101 0.882 1.95078963114e-38
0.00323868837192 -0.0291481953473 0.875 1.90443972262e-38
0.00483582440905 -0.0290149464543 0.871 1.93195365744e-38
0.00644776587873 -0.0290149464543 0.871 1.85844910702e-38
0.00799493358098 -0.0287817608915 0.864 1.86730979747e-38
0.00957171214834 -0.028715136445 0.862 2.02386061982e-38
0.0111410879994 -0.0286485119985 0.86 1.90422336213e-38
0.0127030611342 -0.028581887552 0.858 1.95925291335e-38
0.0142576315527 -0.0285152631055 0.856 1.95028460317e-38
0.0158418128364 -0.0285152631055 0.856 1.98705467488e-38
0.0173852791805 -0.028448638659 0.854 1.97758413934e-38
0.018965759106 -0.028448638659 0.854 2.05119602923e-38
0.0204740625478 -0.0283487019892 0.851 1.95932564074e-38
0.0220489904361 -0.0283487019892 0.851 1.99602298505e-38
0.0236239183244 -0.0283487019892 0.851 2.0328299109e-38
0.0251988462126 -0.0283487019892 0.851 2.07899779076e-38
0.0267108510126 -0.0282820775427 0.849 2.09725727027e-38
0.0282820775427 -0.0282820775427 0.849 2.05119841143e-38
0.0297829782682 -0.0282154530962 0.847 2.10640494664e-38
0.0313505034402 -0.0282154530962 0.847 2.12499064843e-38
0.0329180286122 -0.0282154530962 0.847 2.1250590318e-38
0.0344855537843 -0.0282154530962 0.847 2.1710843996e-38
0.0360530789563 -0.0282154530962 0.847 2.20778272482e-38
0.0377094367236 -0.0282820775427 0.849 2.12470029939e-38
0.0393731972073 -0.0283487019892 0.851 2.22611395081e-38
0.041092478063 -0.028448638659 0.854 2.18934387911e-38
0.0426729579885 -0.028448638659 0.854 2.33689051805e-38
0.0443570759419 -0.0285152631055 0.856 2.3463610536e-38
0.0459412572255 -0.0285152631055 0.856 2.33764385611e-38
0.0476364792533 -0.028581887552 0.858 7.16316870032e-39
0.0494538460997 -0.028715136445 0.862 2.34942625386e-38
0.0511675749183 -0.0287817608915 0.864 1.45361958587e-38
0.0531940684996 -0.0290149464543 0.871 2.34687533013e-38
0.0552464715878 -0.0292481320171 0.878 2.34730174526e-38
0.056871367811 -0.0292481320171 0.878 2.34862793412e-38
0.0587627618202 -0.0293813809101 0.882 1.82207742447e-38
0.0606004861364 -0.0294813175799 0.885 2.18960199829e-38
0.062238337113 -0.0294813175799 0.885 2.34802649682e-38
0.0638761880897 -0.0294813175799 0.885 2.34899843744e-38
-0.0101047077204 -0.0286300052078 0.91 2.35011471179e-38
-0.00840208297631 -0.0285670821194 0.908 2.34990101378e-38
-0.00670686094849 -0.0285041590311 0.906 2.35007911881e-38
-0.00501348959974 -0.0284097743985 0.903 2.35054785315e-38
-0.00333492368355 -0.0283468513102 0.901 1.69300662551e-38
-0.00166190980456 -0.0282524666776 0.898 1.87735430486e-38
0.0 -0.0282524666776 0.898 1.96969735132e-38
0.0016415523348 -0.0279063896916 0.887 1.90497894226e-38
0.0032645978789 -0.0277490819706 0.882 1.85845303065e-38
0.00488579274393 -0.0276861588823 0.88 1.95049984262e-38
0.00651439032524 -0.0276861588823 0.88 1.9318816307e-38
0.00812448111586 -0.0276232357939 0.878 1.9317022645e-38
0.00969385696694 -0.027465928073 0.873 1.94102930708e-38
0.0113094997948 -0.027465928073 0.873 1.95928878659e-38
0.0127918937296 -0.0271827741753 0.864 2.04226359229e-38
0.0143242559993 -0.0270569279986 0.86 1.90425923537e-38
0.0158418128364 -0.0269310818219 0.856 1.98705467488e-38
0.01742599412 -0.0269310818219 0.856 1.98680356219e-38
0.018965759106 -0.0268681587335 0.854 2.08839657982e-38
0.0205462390315 -0.0268681587335 0.854 1.99609473153e-38
0.022126718957 -0.0268681587335 0.854 2.02364538038e-38
0.0237071988825 -0.0268681587335 0.854 2.06045132532e-38
0.025287678808 -0.0268681587335 0.854 2.08803784741e-38
0.0268681587335 -0.0268681587335 0.854 2.06952725522e-38
0.0283487019892 -0.0267737741009 0.851 2.12466442615e-38
0.0299236298775 -0.0267737741009 0.851 2.20778272482e-38
0.0314985577658 -0.0267737741009 0.851 2.14331851131e-38
0.0330734856541 -0.0267737741009 0.851 2.13420670817e-38
0.034770558361 -0.0268681587335 0.854 2.16175735702e-38
0.0363510382865 -0.0268681587335 0.854 2.18934387911e-38
0.0381091834027 -0.0269940049102 0.858 2.23558448636e-38
0.039604532091 -0.0269310818219 0.856 2.25391571235e-38
0.0411887133746 -0.0269310818219 0.856 2.2263650635e-38
0.0427728946582 -0.0269310818219 0.856 2.21689452796e-38
0.0445643519977 -0.0270569279986 0.86 2.29076327586e-38
0.0462632753836 -0.027119851087 0.862 2.3465793759e-38
0.0478585607417 -0.027119851087 0.862 8.26519465422e-39
0.0497407013555 -0.0272771588079 0.867 1.83123575071e-38
0.0514636835694 -0.0273400818963 0.869 2.18109303375e-38
0.0533162133182 -0.027465928073 0.873 2.34819409212e-38
0.0552464715878 -0.0276232357939 0.878 2.3483808852e-38
0.056871367811 -0.0276232357939 0.878 1.97923669062e-38
0.0589626351597 -0.0278434666032 0.885 2.27337063958e-38
0.0607374363875 -0.0279063896916 0.887 2.34575975642e-38
0.0623789887223 -0.0279063896916 0.887 2.34841801961e-38
0.0640205410571 -0.0279063896916 0.887 2.34936039283e-38
-0.00840208297631 -0.0268866655242 0.908 2.34961206603e-38
-0.00670686094849 -0.026827443794 0.906 2.35007925894e-38
-0.00501348959974 -0.0267386111986 0.903 2.35040295889e-38
-0.00333492368355 -0.0266793894684 0.901 2.01583426248e-38
-0.00166190980456 -0.026590556873 0.898 1.90498468759e-38
0.0 -0.026590556873 0.898 1.86821013173e-38
0.00164895505108 -0.0263832808172 0.891 1.90501593654e-38
0.0032831046696 -0.0262648373568 0.887 1.89564993787e-38
0.00489689681835 -0.0261167830312 0.882 1.94128041976e-38
0.00651439032524 -0.026057561301 0.88 1.95035634966e-38
0.00814298790655 -0.026057561301 0.88 1.93177401098e-38
0.00974937733903 -0.0259983395707 0.878 1.93180988422e-38
0.0113354093017 -0.0259095069754 0.875 1.95014111021e-38
0.0129251426226 -0.0258502852452 0.873 1.95943284007e-38
0.0144408487806 -0.0256726200545 0.867 1.99627409773e-38
0.016045387534 -0.0256726200545 0.867 2.02403998603e-38
0.0175481389386 -0.0255245657289 0.862 1.96879519537e-38
0.019099007999 -0.0254653439987 0.86 1.97794287174e-38
0.0205943566873 -0.0253469005382 0.856 1.99630997098e-38
0.0221785379709 -0.0253469005382 0.856 2.08814546713e-38
0.0238182396267 -0.0254061222684 0.858 2.07899779076e-38
0.0254061222684 -0.0254061222684 0.858 2.12516665152e-38
0.0269940049102 -0.0254061222684 0.858 2.08821721361e-38
0.028581887552 -0.0254061222684 0.858 2.17998096329e-38
0.0302400959984 -0.0254653439987 0.86 2.14306739862e-38
0.0318316799983 -0.0254653439987 0.86 2.23540512015e-38
0.0334232639983 -0.0254653439987 0.86 2.18041144218e-38
0.0350148479982 -0.0254653439987 0.86 2.18030382246e-38
0.0366915632353 -0.0255245657289 0.862 2.18012445625e-38
0.0382868485934 -0.0255245657289 0.862 2.20760335862e-38
0.0398821339514 -0.0255245657289 0.862 2.23533337367e-38
0.0414774193095 -0.0255245657289 0.862 2.27246217778e-38
0.0430727046675 -0.0255245657289 0.862 2.27260567074e-38
0.0447716280535 -0.0255837874591 0.864 2.30944748893e-38
0.0463706147697 -0.0255837874591 0.864 2.21707389416e-38
0.0481361626021 -0.0256726200545 0.867 1.46057899456e-38
0.0498554434579 -0.0257318417847 0.869 2.22677270122e-38
0.0514636835694 -0.0257318417847 0.869 2.34773432609e-38
0.0533162133182 -0.0258502852452 0.873 2.34858715634e-38
0.0552464715878 -0.0259983395707 0.878 1.79513521941e-38
0.0573247841831 -0.0262056156265 0.885 2.10805861896e-38
0.0589626351597 -0.0262056156265 0.885 2.24542888833e-38
0.0607374363875 -0.0262648373568 0.887 2.34583542654e-38
0.0625196403316 -0.026324059087 0.889 2.3486691323e-38
-0.00840208297631 -0.0252062489289 0.908 2.3497579412e-38
-0.00670686094849 -0.0251507285568 0.906 2.34975597939e-38
-0.00501348959974 -0.0250674479987 0.903 2.35065673404e-38
-0.00333492368355 -0.0250119276266 0.901 1.83176123763e-38
-0.00166190980456 -0.0249286470685 0.898 1.99739387534e-38
0.0 -0.0249286470685 0.898 1.75736476073e-38
0.00165450708829 -0.0248176063243 0.894 1.75739951294e-38
0.00329050738588 -0.0246788053941 0.889 1.98784766968e-38
0.00491355292998 -0.0245677646499 0.885 1.90458209454e-38
0.0065291957578 -0.0244844840917 0.882 2.10712311211e-38
0.00814298790655 -0.0244289637197 0.88 1.89500393928e-38
0.00977158548786 -0.0244289637197 0.88 2.05173412784e-38
0.0113742735622 -0.0243734433476 0.878 1.90422336213e-38
0.0129991697854 -0.0243734433476 0.878 1.95035634966e-38
0.0145407854504 -0.0242346424173 0.873 2.15300428629e-38
0.0161194146968 -0.0241791220453 0.871 2.01464119697e-38
0.0176499262875 -0.0240680813011 0.867 2.01456945048e-38
0.0191878405943 -0.0239848007429 0.864 1.97783525202e-38
0.0207387096547 -0.0239292803708 0.862 2.03311591592e-38
0.0223339950128 -0.0239292803708 0.862 2.06970662142e-38
0.0238737599988 -0.0238737599988 0.86 2.09736488999e-38
0.0254653439987 -0.0238737599988 0.86 2.05144714191e-38
0.0270569279986 -0.0238737599988 0.86 2.14353375075e-38
0.0286485119985 -0.0238737599988 0.86 2.23544099339e-38
0.0302400959984 -0.0238737599988 0.86 2.15250206092e-38
0.0318316799983 -0.0238737599988 0.86 2.2078544713e-38
0.0334232639983 -0.0238737599988 0.86 2.12498728532e-38
0.0350962778772 -0.0239292803708 0.862 2.19863504845e-38
0.0366915632353 -0.0239292803708 0.862 2.18030382246e-38
0.0382868485934 -0.0239292803708 0.862 2.20774993444e-38
0.0399746679049 -0.0239848007429 0.864 2.26320688168e-38
0.0415736546211 -0.0239848007429 0.864 2.2263650635e-38
0.0431726413373 -0.0239848007429 0.864 2.33714163074e-38
0.0449270850953 -0.0240680813011 0.867 2.32792220788e-38
0.0466389632348 -0.0241236016732 0.869 2.21707389416e-38
0.0483582440905 -0.0241791220453 0.871 2.33746448991e-38
0.0500849276625 -0.0242346424173 0.873 2.34822912458e-38
0.0518190139508 -0.0242901627894 0.875 2.34881612851e-38
0.0537437201832 -0.0244289637197 0.88 1.75782494715e-38
0.0556869332064 -0.0245677646499 0.885 1.72155682056e-38
0.0573247841831 -0.0245677646499 0.885 2.00650553834e-38
0.0590958840527 -0.024623285022 0.887 1.7100424912e-38
0.0608743866387 -0.0246788053941 0.889 2.34824790198e-38
0.0628712693549 -0.0248176063243 0.894 2.34856417504e-38
-0.00840208297631 -0.0235258323337 0.908 2.34974981367e-38
-0.00668465279965 -0.0233962847988 0.903 2.34993296338e-38
-0.00501348959974 -0.0233962847988 0.903 2.35057994288e-38
-0.00334232639983 -0.0233962847988 0.903 1.81404658297e-38
-0.00166746184177 -0.0233444657848 0.901 2.05239035591e-38
0.0 -0.0233444657848 0.901 1.75754749005e-38
0.00165820844643 -0.02321491825 0.896 1.78530356926e-38
0.00329791010215 -0.0230853707151 0.891 1.6560895576e-38
0.00492465700439 -0.0229817326872 0.887 2.0152559466e-38
0.00655140390664 -0.0229299136732 0.885 1.93209687015e-38
0.00816149469725 -0.0228521851523 0.882 1.94110105356e-38
0.00977158548786 -0.0228003661383 0.88 1.93184575746e-38
0.0114001830692 -0.0228003661383 0.88 1.9777290336e-38
0.0129991697854 -0.0227485471244 0.878 1.95928878659e-38
0.0145740976737 -0.0226708186035 0.875 2.09758012943e-38
0.0161564282782 -0.0226189995895 0.873 1.98680356219e-38
0.0177313561665 -0.0225671805756 0.871 2.11576786246e-38
0.0192988813385 -0.0225153615616 0.869 2.05137539543e-38
0.0208590037943 -0.0224635425477 0.867 2.09754425619e-38
0.0224635425477 -0.0224635425477 0.867 2.09747250971e-38
0.0239848007429 -0.0223858140267 0.864 2.1250590318e-38
0.0255837874591 -0.0223858140267 0.864 2.09747250971e-38
0.027119851087 -0.0223339950128 0.862 2.16204434295e-38
0.028715136445 -0.0223339950128 0.862 2.15275317361e-38
0.0303104218031 -0.0223339950128 0.862 2.1710843996e-38
0.0319057071611 -0.0223339950128 0.862 2.14331851131e-38
0.0335009925192 -0.0223339950128 0.862 2.16165141886e-38
0.0350962778772 -0.0223339950128 0.862 2.14346200427e-38
0.0367766944725 -0.0223858140267 0.864 2.32759934872e-38
0.0383756811887 -0.0223858140267 0.864 2.20792621779e-38
0.0399746679049 -0.0223858140267 0.864 2.30955510865e-38
0.0415736546211 -0.0223858140267 0.864 2.28193271332e-38
0.0431726413373 -0.0223858140267 0.864 2.30969860161e-38
0.0451343611511 -0.0225671805756 0.871 2.34693502545e-38
0.0468536420069 -0.0226189995895 0.873 2.34769004506e-38
0.0485803255789 -0.0226708186035 0.875 2.34830787755e-38
0.0503717829183 -0.0227485471244 0.878 2.34878431903e-38
0.0519966791415 -0.0227485471244 0.878 1.80356304877e-38
0.0538658650018 -0.0228521851523 0.882 1.61892347895e-38
0.0558127793831 -0.0229817326872 0.887 1.72066755655e-38
0.0575838792528 -0.0230335517011 0.889 1.96898465092e-38
0.0592291329458 -0.0230335517011 0.889 1.83032812969e-38
0.0610113368898 -0.0230853707151 0.891 2.34891968446e-38
0.0628712693549 -0.023163099236 0.894 2.3481264094e-38
0.0645257764432 -0.023163099236 0.894 2.35015422841e-38
-0.00846685674374 -0.0220138275337 0.915 2.34993394429e-38
-0.00668465279965 -0.0217251215989 0.903 2.34986093664e-38
-0.00501348959974 -0.0217251215989 0.903 2.35029449839e-38
-0.00334232639983 -0.0217251215989 0.903 1.96152427803e-38
-0.00166746184177 -0.0216770039431 0.901 1.85852729947e-38
0.0 -0.0216770039431 0.901 1.99753428544e-38
0.00165820844643 -0.0215567098035 0.896 1.69339772791e-38
0.00330901417657 -0.0215085921477 0.894 1.52730322224e-38
0.00493576107881 -0.0213882980082 0.889 1.81260730931e-38
0.00655140390664 -0.0212920626966 0.885 1.99702785618e-38
0.00816149469725 -0.0212198862128 0.882 1.86753092236e-38
0.0097937936367 -0.0212198862128 0.882 2.06084593097e-38
0.0114001830692 -0.021171768557 0.88 1.95946815279e-38
0.0130287806505 -0.021171768557 0.88 1.95950402603e-38
0.0146240660085 -0.0211236509012 0.878 2.06088180421e-38
0.0161934418596 -0.0210514744175 0.875 2.00563981615e-38
0.0177720711061 -0.0210033567617 0.873 2.08843245306e-38
0.0193432976362 -0.0209552391059 0.871 2.06070243801e-38
0.0209552391059 -0.0209552391059 0.871 2.11573198922e-38
0.0225153615616 -0.0209071214501 0.869 2.09740076323e-38
0.0241236016732 -0.0209071214501 0.869 2.1618291035e-38
0.0256726200545 -0.0208590037943 0.867 2.09722139703e-38
0.0271827741753 -0.0207868273105 0.864 2.2725697975e-38
0.0287817608915 -0.0207868273105 0.864 2.1343143279e-38
0.0303807476077 -0.0207868273105 0.864 2.24483978245e-38
0.0319797343239 -0.0207868273105 0.864 2.20832082343e-38
0.0335787210401 -0.0207868273105 0.864 2.20810558399e-38
0.0351777077563 -0.0207868273105 0.864 2.14346200427e-38
0.0369043913283 -0.0208590037943 0.867 2.2631351352e-38
0.0385089300817 -0.0208590037943 0.867 2.30923224949e-38
0.0401134688351 -0.0208590037943 0.867 2.22643680998e-38
0.0418142429001 -0.0209071214501 0.869 2.30033610618e-38
0.0434224830117 -0.0209071214501 0.869 2.34718613813e-38
0.0453416372069 -0.0210514744175 0.875 2.34797534943e-38
0.0469609813929 -0.0210514744175 0.875 2.1991395159e-38
0.0487468866951 -0.0211236509012 0.878 1.76399976883e-38
0.0504865250206 -0.021171768557 0.88 2.34593575951e-38
0.0521151226019 -0.021171768557 0.88 1.91384327609e-38
0.0540490822297 -0.0212920626966 0.885 1.79384574456e-38
0.0559386255599 -0.0213882980082 0.889 1.91362397288e-38
0.0577134267877 -0.021436415664 0.891 1.65501728402e-38
0.0595622551783 -0.0215085921477 0.894 2.34676434729e-38
0.0612167622666 -0.0215085921477 0.894 2.34860215023e-38
0.0628712693549 -0.0215085921477 0.894 2.34783816231e-38
-0.00846685674374 -0.020320456185 0.915 2.34950360553e-38
-0.00672166638105 -0.0201649991431 0.908 2.34914221066e-38
-0.00503014571137 -0.0201205828455 0.906 2.35033051176e-38
-0.00334232639983 -0.020053958399 0.903 2.09999975149e-38
-0.00166746184177 -0.0200095421013 0.901 1.81257381828e-38
0.0 -0.0200095421013 0.901 1.98799200342e-38
0.00166190980456 -0.0199429176548 0.898 1.72080642523e-38
0.00330901417657 -0.0198540850594 0.894 1.7668288503e-38
0.00494686515323 -0.0197874606129 0.891 1.48109848823e-38
0.00658101477175 -0.0197430443153 0.889 1.87696250181e-38
0.00818925488329 -0.0196542117199 0.885 2.09790410964e-38
0.00982710585995 -0.0196542117199 0.885 2.15343476518e-38
0.0114260925761 -0.0195875872734 0.882 1.96890309535e-38
0.0130287806505 -0.0195431709757 0.88 1.96883106861e-38
0.0146240660085 -0.0194987546781 0.878 2.0886476925e-38
0.0162489622317 -0.0194987546781 0.878 2.0426223247e-38
0.0178127860456 -0.0194321302315 0.875 2.0424429585e-38
0.0193877139339 -0.0193877139339 0.873 2.11616246811e-38
0.0210033567617 -0.0193877139339 0.873 2.14353375075e-38
0.0225671805756 -0.0193432976362 0.871 2.18973848476e-38
0.0241791220453 -0.0193432976362 0.871 2.18973848476e-38
0.0257318417847 -0.0192988813385 0.869 2.15275317361e-38
0.0272771588079 -0.0192544650409 0.867 2.14346200427e-38
0.0288816975613 -0.0192544650409 0.867 2.28193271332e-38
0.0304862363147 -0.0192544650409 0.867 2.14356962399e-38
0.0320907750681 -0.0192544650409 0.867 2.16200846971e-38
0.0337730423424 -0.0192988813385 0.869 2.1710843996e-38
0.035381282454 -0.0192988813385 0.869 2.22640093674e-38
0.0369895225655 -0.0192988813385 0.869 2.29122388266e-38
0.0385977626771 -0.0192988813385 0.869 2.30955510865e-38
0.0402985367421 -0.0193432976362 0.871 2.31902564419e-38
0.0419104782118 -0.0193432976362 0.871 2.34747732795e-38
0.0435224196815 -0.0193432976362 0.871 2.34826695964e-38
0.0454970942488 -0.0194987546781 0.878 2.11627008783e-38
0.047121990472 -0.0194987546781 0.878 2.34697958674e-38
0.0489689681835 -0.0195875872734 0.882 2.07861145277e-38
0.0506012671229 -0.0195875872734 0.882 2.34730875175e-38
0.0522335660624 -0.0195875872734 0.882 1.87699935596e-38
0.0544155166855 -0.0197874606129 0.891 1.90379288324e-38
0.0563790871785 -0.0198985013571 0.896 1.94075142959e-38
0.0580372956249 -0.0198985013571 0.896 1.82103822152e-38
0.0598287529643 -0.0199429176548 0.898 2.34813649875e-38
0.0614906627689 -0.0199429176548 0.898 2.34784138529e-38
0.0631525725735 -0.0199429176548 0.898 2.34676280587e-38
-0.00855939069723 -0.0188306595339 0.925 2.34961080486e-38
-0.006773485395 -0.0186270848362 0.915 2.34961136538e-38
-0.0050523538602 -0.0185252974874 0.91 2.3498250634e-38
-0.0033682359068 -0.0185252974874 0.91 2.3211966759e-38
-0.0016841179534 -0.0185252974874 0.91 1.87743544004e-38
0.0 -0.0183420802595 0.901 1.68410753949e-38
0.00166190980456 -0.0182810078502 0.898 2.01561495927e-38
0.00331641689285 -0.0182402929107 0.896 1.78526769602e-38
0.00494686515323 -0.0181385055618 0.891 1.69292997449e-38
0.00658101477175 -0.0180977906223 0.889 1.6287527469e-38
0.00820776167399 -0.0180570756828 0.887 1.75728656828e-38
0.00984931400879 -0.0180570756828 0.887 1.941316293e-38
0.0114649568366 -0.0180163607432 0.885 1.95957577251e-38
0.0130583915156 -0.0179552883339 0.882 1.95939640631e-38
0.0146573782318 -0.0179145733944 0.88 2.10690717201e-38
0.0162859758131 -0.0179145733944 0.88 2.06045132532e-38
0.0178738584549 -0.0178738584549 0.878 2.08825308686e-38
0.0194321302315 -0.0178127860456 0.875 2.05144714191e-38
0.0210514744175 -0.0178127860456 0.875 2.04222771905e-38
0.0226708186035 -0.0178127860456 0.875 2.31863608322e-38
0.0242346424173 -0.0177720711061 0.873 2.29173367504e-38
0.0257910635149 -0.0177313561665 0.871 2.16197259647e-38
0.0274030049846 -0.0177313561665 0.871 2.16200846971e-38
0.0290149464543 -0.0177313561665 0.871 2.18955911855e-38
0.030626887924 -0.0177313561665 0.871 2.21703802092e-38
0.0322388293937 -0.0177313561665 0.871 2.2631351352e-38
0.0339284993843 -0.0177720711061 0.873 2.28189684008e-38
0.0355441422121 -0.0177720711061 0.873 2.26338624789e-38
0.0370746538027 -0.0177313561665 0.871 2.30015631959e-38
0.0386865952724 -0.0177313561665 0.871 2.34682740572e-38
0.0403910706956 -0.0177720711061 0.873 2.34783185646e-38
0.0420067135234 -0.0177720711061 0.873 2.34834108833e-38
0.0439721346954 -0.0179145733944 0.88 2.07068444749e-38
0.0456007322767 -0.0179145733944 0.88 1.80148240081e-38
0.047229329858 -0.0179145733944 0.88 2.34643560267e-38
0.0489689681835 -0.0179552883339 0.882 1.96797053122e-38
0.0507733802764 -0.0180163607432 0.885 1.75503243957e-38
0.0530626702856 -0.0182402929107 0.896 1.98602149752e-38
0.054720878732 -0.0182402929107 0.896 1.88554012997e-38
0.0563790871785 -0.0182402929107 0.896 1.7101551556e-38
0.0581668431598 -0.0182810078502 0.898 2.26314788702e-38
0.0598287529643 -0.0182810078502 0.898 2.34838060494e-38
0.0614906627689 -0.0182810078502 0.898 2.34802243306e-38
0.0631525725735 -0.0182810078502 0.898 2.34737195031e-38
-0.00855939069723 -0.0171187813945 0.925 2.34953933864e-38
-0.00684751255778 -0.0171187813945 0.925 2.34957353033e-38
0.0 -0.016841179534 0.91 1.94243396866e-38
0.00166746184177 -0.0166746184177 0.901 1.67456791993e-38
0.00332381960913 -0.0166190980456 0.898 2.05253104627e-38
0.00497462533928 -0.0165820844643 0.896 1.60077161916e-38
0.00659582020431 -0.0164895505108 0.891 1.62886050675e-38
0.00822626846469 -0.0164525369294 0.889 1.53666613806e-38
0.00984931400879 -0.016415523348 0.887 1.99674255181e-38
0.0114908663436 -0.016415523348 0.887 1.90436937743e-38
0.0131028078133 -0.0163785097666 0.885 2.16240391613e-38
0.0147406587899 -0.0163785097666 0.885 2.03340290185e-38
0.0163229893945 -0.0163229893945 0.882 2.03297242296e-38
0.0179552883339 -0.0163229893945 0.882 2.06059481829e-38
0.0195875872734 -0.0163229893945 0.882 2.07899779076e-38
0.021171768557 -0.0162859758131 0.88 2.079033664e-38
0.0227485471244 -0.0162489622317 0.878 2.10647669312e-38
0.0243734433476 -0.0162489622317 0.878 2.09729314351e-38
0.0259983395707 -0.0162489622317 0.878 2.18023207598e-38
0.0275288511614 -0.0161934418596 0.875 2.18030382246e-38
0.0290815709008 -0.0161564282782 0.873 2.27242630454e-38
0.0306972137286 -0.0161564282782 0.873 2.23580098697e-38
0.0323868837192 -0.0161934418596 0.875 2.2725697975e-38
0.0340062279052 -0.0161934418596 0.875 2.27289265667e-38
0.0356255720912 -0.0161934418596 0.875 2.2914391221e-38
0.0372449162771 -0.0161934418596 0.875 2.34707851841e-38
0.0389975093561 -0.0162489622317 0.878 2.3478677297e-38
0.0406224055793 -0.0162489622317 0.878 2.34776641583e-38
0.0422473018025 -0.0162489622317 0.878 1.44278754874e-38
0.0440720713651 -0.0163229893945 0.882 1.86426057201e-38
0.0457043703046 -0.0163229893945 0.882 2.22486623466e-38
0.047336669244 -0.0163229893945 0.882 1.97679773064e-38
0.0491355292998 -0.0163785097666 0.885 1.912622605e-38
0.0508881223787 -0.016415523348 0.887 1.86691911545e-38
0.0530626702856 -0.0165820844643 0.896 1.80259895542e-38
0.054720878732 -0.0165820844643 0.896 1.88542844648e-38
0.0565049333552 -0.0166190980456 0.898 1.78408766258e-38
0.0583611644621 -0.0166746184177 0.901 2.34774217336e-38
0.0600286263038 -0.0166746184177 0.901 2.34784166555e-38
0.0616960881456 -0.0166746184177 0.901 2.3481278107e-38
0.0638558306199 -0.0168041659526 0.908 2.34798992293e-38
0.0 -0.0152403421387 0.915 1.79467615403e-38
0.00167116319991 -0.0150404687992 0.903 1.88693358116e-38
0.00332381960913 -0.0149571882411 0.898 1.66552618172e-38
0.00498572941369 -0.0149571882411 0.898 1.92388442037e-38
0.0066328337857 -0.0149238760178 0.896 1.64715571937e-38
0.00824477525538 -0.0148405954597 0.891 1.66545135238e-38
0.00987152215763 -0.0148072832364 0.889 1.73823787747e-38
0.0114908663436 -0.0147739710132 0.887 2.02382782944e-38
0.0131324186784 -0.0147739710132 0.887 2.22733518243e-38
0.0147406587899 -0.0147406587899 0.885 2.00570876003e-38
0.0163785097666 -0.0147406587899 0.885 2.01471294345e-38
0.0179552883339 -0.014690690455 0.882 2.10705066497e-38
0.0195875872734 -0.014690690455 0.882 2.11601897515e-38
0.021171768557 -0.0146573782318 0.88 2.12520252476e-38
0.0228003661383 -0.0146573782318 0.88 2.1710843996e-38
0.0244289637197 -0.0146573782318 0.88 2.22661617618e-38
0.026057561301 -0.0146573782318 0.88 2.15286079333e-38
0.0276861588823 -0.0146573782318 0.88 2.18037556894e-38
0.0293147564636 -0.0146573782318 0.88 2.18055493514e-38
0.0309433540449 -0.0146573782318 0.88 2.32788633464e-38
0.0325719516262 -0.0146573782318 0.88 2.27267741723e-38
0.0342005492075 -0.0146573782318 0.88 2.30062267172e-38
0.0358291467888 -0.0146573782318 0.88 2.31016495374e-38
0.0374577443701 -0.0146573782318 0.88 2.34736550434e-38
0.0390863419515 -0.0146573782318 0.88 2.34848121817e-38
0.0408074734862 -0.014690690455 0.882 2.1539832334e-38
0.0424397724257 -0.014690690455 0.882 1.65307480408e-38
0.0442219763698 -0.0147406587899 0.885 2.3464868902e-38
0.0458598273464 -0.0147406587899 0.885 2.20840616251e-38
0.0474976783231 -0.0147406587899 0.885 1.98569149173e-38
0.0492465700439 -0.0147739710132 0.887 1.8387604432e-38
0.0510028644811 -0.0148072832364 0.889 1.94067547921e-38
0.0529442268251 -0.0148905637946 0.894 2.01475400149e-38
0.054720878732 -0.0149238760178 0.896 1.85791605308e-38
0.0565049333552 -0.0149571882411 0.898 2.18034291868e-38
0.0586850332993 -0.0150904371341 0.906 2.34813397641e-38
0.0603617485364 -0.0150904371341 0.906 2.3477672566e-38
0.0620384637735 -0.0150904371341 0.906 2.3482348699e-38
0.0638558306199 -0.0151237493574 0.908 2.34798726046e-38
0.0655362472152 -0.0151237493574 0.908 2.35069484936e-38
0.00169337134875 -0.01354697079 0.915 1.90522781287e-38
0.00334232639983 -0.0133693055993 0.903 1.73942281546e-38
0.00500238552532 -0.0133396947342 0.901 1.6195002534e-38
0.00664763921826 -0.0132952784365 0.898 1.9790243939e-38
0.00829104223213 -0.0132656675714 0.896 1.72083935574e-38
0.00989373030646 -0.0131916404086 0.891 1.72912607434e-38
0.0115167758506 -0.0131620295435 0.889 1.82146435639e-38
0.0131324186784 -0.0131324186784 0.887 2.10759002475e-38
0.0147739710132 -0.0131324186784 0.887 1.97787112526e-38
0.016415523348 -0.0131324186784 0.887 2.12520252476e-38
0.0180570756828 -0.0131324186784 0.887 2.06999360735e-38
0.0196986280176 -0.0131324186784 0.887 2.09747250971e-38
0.021171768557 -0.0130287806505 0.88 2.13420670817e-38
0.0228003661383 -0.0130287806505 0.88 2.12498728532e-38
0.0244289637197 -0.0130287806505 0.88 2.20810558399e-38
0.0262056156265 -0.0131028078133 0.885 2.17129963904e-38
0.0278434666032 -0.0131028078133 0.885 2.19906552734e-38
0.0293813809101 -0.0130583915156 0.882 2.22672379591e-38
0.0310136798495 -0.0130583915156 0.882 2.26335037465e-38
0.032645978789 -0.0130583915156 0.882 2.28168160064e-38
0.0342782777284 -0.0130583915156 0.882 2.25438206448e-38
0.0359105766679 -0.0130583915156 0.882 2.34725788461e-38
0.0375428756073 -0.0130583915156 0.882 2.34822758315e-38
0.0391751745468 -0.0130583915156 0.882 2.34794830437e-38
0.0409462744165 -0.0131028078133 0.885 1.78487477193e-38
0.0425841253931 -0.0131028078133 0.885 2.05751013998e-38
0.0443219130396 -0.0131324186784 0.887 2.34745252497e-38
0.0459634653743 -0.0131324186784 0.887 2.07007165967e-38
0.0476050177091 -0.0131324186784 0.887 2.05094547706e-38
0.0492465700439 -0.0131324186784 0.887 1.94978700209e-38
0.0512897197369 -0.0132360567063 0.894 1.85776807596e-38
0.0529442268251 -0.0132360567063 0.894 1.75639141882e-38
0.0548430235506 -0.0132952784365 0.898 1.78361906837e-38
0.056819548797 -0.0133693055993 0.903 2.34806685422e-38
0.0586850332993 -0.013413721897 0.906 2.3476949496e-38
0.0604949974294 -0.0134433327621 0.908 2.34740894459e-38
0.0621754140247 -0.0134433327621 0.908 2.34780200881e-38
0.0638558306199 -0.0134433327621 0.908 2.34877941449e-38
-0.00171743017665 -0.0120220112366 0.928 1.88730142201e-38
0.0 -0.0120220112366 0.928 1.72120299269e-38
0.00171743017665 -0.0120220112366 0.928 1.80392178117e-38
0.00501348959974 -0.0116981423994 0.903 1.75743244345e-38
0.00666984736709 -0.0116722328924 0.901 1.5912657709e-38
0.00830954902282 -0.011633368632 0.898 2.03365653687e-38
0.00992704252972 -0.011581549618 0.894 1.92345534278e-38
0.011581549618 -0.011581549618 0.894 1.77568954075e-38
0.0131620295435 -0.0115167758506 0.889 2.20864746611e-38
0.0148072832364 -0.0115167758506 0.889 1.99663283014e-38
0.0164525369294 -0.0115167758506 0.889 2.06070243801e-38
0.0180977906223 -0.0115167758506 0.889 2.11583960894e-38
0.0197430443153 -0.0115167758506 0.889 2.25405920531e-38
0.0213401803524 -0.0114908663436 0.887 2.16186497674e-38
0.0229817326872 -0.0114908663436 0.887 2.16197259647e-38
0.024623285022 -0.0114908663436 0.887 2.12527427124e-38
0.0262648373568 -0.0114908663436 0.887 2.16204434295e-38
0.0278434666032 -0.0114649568366 0.885 2.18030382246e-38
0.0294813175799 -0.0114649568366 0.885 2.22632919026e-38
0.0311191685565 -0.0114649568366 0.885 2.26320688168e-38
0.0327570195332 -0.0114649568366 0.885 2.33721337722e-38
0.0343948705098 -0.0114649568366 0.885 2.34679153248e-38
0.0360327214865 -0.0114649568366 0.885 2.34732963109e-38
0.0376705724632 -0.0114649568366 0.885 2.34790360295e-38
0.0393084234398 -0.0114649568366 0.885 2.34798263618e-38
0.04103880837 -0.0114908663436 0.887 1.66476948055e-38
0.0426803607048 -0.0114908663436 0.887 2.05794145964e-38
0.0443219130396 -0.0114908663436 0.887 2.34777916764e-38
0.0459634653743 -0.0114908663436 0.887 1.76431772345e-38
0.0476050177091 -0.0114908663436 0.887 1.93999332712e-38
0.0493576107881 -0.0115167758506 0.889 1.88510628796e-38
0.0512897197369 -0.011581549618 0.894 1.90365037119e-38
0.0531811137461 -0.011633368632 0.898 1.73802263803e-38
0.0550262407785 -0.0116722328924 0.901 2.30016458725e-38
0.0570083180621 -0.0117370066599 0.906 2.34827368587e-38
0.0588145808341 -0.0117629161668 0.908 2.34754739288e-38
0.0604949974294 -0.0117629161668 0.908 2.34773334518e-38
0.0621754140247 -0.0117629161668 0.908 2.34812598901e-38
0.0639964822292 -0.0117888256738 0.91 2.34910563677e-38
-0.00171743017665 -0.0103045810599 0.928 1.89644909838e-38
0.0 -0.0103045810599 0.928 1.75771774782e-38
0.00170817678131 -0.0102490606878 0.923 1.73002752964e-38
0.00341635356261 -0.0102490606878 0.923 1.70229499225e-38
0.00501348959974 -0.0100269791995 0.903 1.91448338923e-38
0.00668465279965 -0.0100269791995 0.903 1.85910015028e-38
0.00833730920887 -0.0100047710506 0.901 1.89525505196e-38
0.00997145882739 -0.00997145882739 0.898 2.02454235153e-38
0.011633368632 -0.00997145882739 0.898 1.95989863168e-38
0.0132360567063 -0.00992704252972 0.894 2.01492818289e-38
0.0148405954597 -0.00989373030646 0.891 2.01485643641e-38
0.0164895505108 -0.00989373030646 0.891 2.06088180421e-38
0.0181385055618 -0.00989373030646 0.891 2.09747250971e-38
0.0197874606129 -0.00989373030646 0.891 2.09729314351e-38
0.0213882980082 -0.00987152215763 0.889 2.16175735702e-38
0.0230335517011 -0.00987152215763 0.889 2.18973848476e-38
0.0246788053941 -0.00987152215763 0.889 2.18059080838e-38
0.026324059087 -0.00987152215763 0.889 2.14364207112e-38
0.0279063896916 -0.00984931400879 0.887 2.28168160064e-38
0.0295479420264 -0.00984931400879 0.887 2.27260693191e-38
0.0311894943612 -0.00984931400879 0.887 2.22668792267e-38
0.032831046696 -0.00984931400879 0.887 2.31877453151e-38
0.0344725990308 -0.00984931400879 0.887 2.34657629304e-38
0.0361141513656 -0.00984931400879 0.887 2.34707851841e-38
0.0378408349376 -0.00987152215763 0.889 2.34779598322e-38
0.0394860886305 -0.00987152215763 0.889 2.3481278107e-38
0.0411313423234 -0.00987152215763 0.889 2.03315823513e-38
0.0427765960164 -0.00987152215763 0.889 1.5613476283e-38
0.0445217863791 -0.00989373030646 0.891 2.34658231862e-38
0.0461707414302 -0.00989373030646 0.891 1.87481094815e-38
0.0478196964812 -0.00989373030646 0.891 1.90303954519e-38
0.0497462533928 -0.00994925067855 0.896 1.74638516688e-38
0.0515192039415 -0.00997145882739 0.898 1.79194404242e-38
0.0533587789368 -0.0100047710506 0.901 2.31777526557e-38
0.0551483855971 -0.0100269791995 0.903 2.34777468349e-38
0.0572600104156 -0.0101047077204 0.91 2.34758074378e-38
0.0591384496713 -0.0101380199437 0.913 2.34751264067e-38
0.0608281196619 -0.0101380199437 0.913 2.34762054066e-38
0.0625177896526 -0.0101380199437 0.913 2.34913590482e-38
0.0643481112525 -0.0101602280925 0.915 2.34878011513e-38
-0.00172113153479 -0.00860565767397 0.93 1.98875206771e-38
0.0 -0.00855939069723 0.925 1.85914064781e-38
0.00170817678131 -0.00854088390653 0.923 1.80396157805e-38
0.00341635356261 -0.00854088390653 0.923 1.6840371943e-38
0.00506900997183 -0.00844834995305 0.913 1.68410599806e-38
0.00672166638105 -0.00840208297631 0.908 1.78526769602e-38
0.00838357618561 -0.00838357618561 0.906 1.89536281181e-38
0.0100602914227 -0.00838357618561 0.906 2.04273260689e-38
0.0117370066599 -0.00838357618561 0.906 2.02396823954e-38
0.0133693055993 -0.00835581599956 0.903 2.07024472003e-38
0.0150404687992 -0.00835581599956 0.903 2.01496405613e-38
0.0166190980456 -0.00830954902282 0.898 2.06088180421e-38
0.0182402929107 -0.00829104223213 0.896 2.07924890344e-38
0.0197874606129 -0.00824477525538 0.891 2.11594722867e-38
0.021436415664 -0.00824477525538 0.891 2.1990296541e-38
0.0230853707151 -0.00824477525538 0.891 2.07946414289e-38
0.0247343257662 -0.00824477525538 0.891 2.10694304525e-38
0.0263832808172 -0.00824477525538 0.891 2.16215196267e-38
0.0280322358683 -0.00824477525538 0.891 2.17129963904e-38
0.0296145664729 -0.00822626846469 0.889 2.2265444297e-38
0.0312598201658 -0.00822626846469 0.889 2.22675966915e-38
0.0329791010215 -0.00824477525538 0.891 2.23569210608e-38
0.0346280560726 -0.00824477525538 0.891 2.34643280008e-38
0.0362770111237 -0.00824477525538 0.891 2.28214795277e-38
0.0379259661748 -0.00824477525538 0.891 2.34733005148e-38
0.0395749212258 -0.00824477525538 0.891 2.34822898445e-38
0.0412238762769 -0.00824477525538 0.891 2.1165286274e-38
0.0430171842954 -0.00827253544143 0.894 1.56123930793e-38
0.0445217863791 -0.00824477525538 0.891 2.16144108396e-38
0.0461707414302 -0.00824477525538 0.891 1.81002023209e-38
0.0481953843324 -0.00830954902282 0.898 1.81012785181e-38
0.0500238552532 -0.00833730920887 0.901 2.0031263071e-38
0.0518060591973 -0.00835581599956 0.903 2.34626128115e-38
0.0537733310484 -0.00840208297631 0.908 2.34780579231e-38
0.0555758924622 -0.008420589767 0.91 2.34722201137e-38
0.0575746258575 -0.00846685674374 0.915 2.34783255711e-38
0.0592679972062 -0.00846685674374 0.915 2.34748293315e-38
0.060961368555 -0.00846685674374 0.915 2.34816200238e-38
0.0626547399037 -0.00846685674374 0.915 2.3491363252e-38
0.0643481112525 -0.00846685674374 0.915 2.3481705503e-38
-0.00346076986028 -0.00692153972057 0.935 2.29289030679e-38
-0.001726683572 -0.00690673428801 0.933 2.14551770912e-38
0.0 -0.00684751255778 0.925 1.73010390041e-38
0.00171187813945 -0.00684751255778 0.925 1.72077139277e-38
0.00342375627889 -0.00684751255778 0.925 1.71169658391e-38
0.00513563441834 -0.00684751255778 0.925 1.67474224146e-38
0.00672166638105 -0.00672166638105 0.908 1.60995516878e-38
0.00838357618561 -0.00670686094849 0.906 1.77565520894e-38
0.0100602914227 -0.00670686094849 0.906 2.06117397494e-38
0.0117370066599 -0.00670686094849 0.906 1.96904630805e-38
0.013413721897 -0.00670686094849 0.906 1.99630997098e-38
0.0150904371341 -0.00670686094849 0.906 2.05144714191e-38
0.0167116319991 -0.00668465279965 0.903 2.06066656477e-38
0.018382795199 -0.00668465279965 0.903 2.07924890344e-38
0.0198985013571 -0.0066328337857 0.896 2.13445782086e-38
0.0215085921477 -0.00661802835314 0.894 2.15311190602e-38
0.023163099236 -0.00661802835314 0.894 2.14403597612e-38
0.0248176063243 -0.00661802835314 0.894 2.13460131382e-38
0.0264721134126 -0.00661802835314 0.894 2.20817733047e-38
0.0281266205009 -0.00661802835314 0.894 2.24487565569e-38
0.0297811275891 -0.00661802835314 0.894 2.29100864322e-38
0.0314356346774 -0.00661802835314 0.894 2.2265444297e-38
0.0330901417657 -0.00661802835314 0.894 2.32752760224e-38
0.0348223773749 -0.0066328337857 0.896 2.3182364329e-38
0.0364805858214 -0.0066328337857 0.896 2.32781458816e-38
0.0381387942678 -0.0066328337857 0.896 2.34654126058e-38
0.0397081701189 -0.00661802835314 0.894 2.34711439165e-38
0.0413626772071 -0.00661802835314 0.894 2.34829890924e-38
0.0431134196071 -0.0066328337857 0.896 2.33771980649e-38
0.0448715647232 -0.00664763921826 0.898 2.00538590087e-38
0.0465334745278 -0.00664763921826 0.898 2.28179664724e-38
0.0484637327975 -0.00668465279965 0.903 2.32828374289e-38
0.0503014571137 -0.00670686094849 0.906 2.34801150293e-38
0.0522076565554 -0.0067364718136 0.91 2.34794227878e-38
0.0540694396995 -0.00675867996244 0.913 2.34758102404e-38
0.0557591096901 -0.00675867996244 0.913 2.34719300449e-38
0.0575746258575 -0.006773485395 0.915 2.34712069749e-38
0.0592679972062 -0.006773485395 0.915 2.34795208787e-38
0.060961368555 -0.006773485395 0.915 2.34819577368e-38
0.0626547399037 -0.006773485395 0.915 2.34777384271e-38
0.0643481112525 -0.006773485395 0.915 2.34842026169e-38
-0.00520781090205 -0.00520781090205 0.938 2.2193149908e-38
-0.00346076986028 -0.00519115479043 0.935 2.2930307169e-38
-0.00173038493014 -0.00519115479043 0.935 2.08094671666e-38
0.0 -0.00518005071601 0.933 1.86846642922e-38
0.00172113153479 -0.00516339460438 0.93 1.739210799e-38
0.00343486035331 -0.00515229052996 0.928 1.73935275053e-38
0.00513563441834 -0.00513563441834 0.925 1.65644688871e-38
0.00684751255778 -0.00513563441834 0.925 1.76657787775e-38
0.008420589767 -0.0050523538602 0.91 1.59133723712e-38
0.0101047077204 -0.0050523538602 0.91 2.07986323269e-38
0.0117888256738 -0.0050523538602 0.91 1.9138015174e-38
0.0134729436272 -0.0050523538602 0.91 1.99630997098e-38
0.0151237493574 -0.00504124978578 0.908 2.05123190247e-38
0.0167671523712 -0.00503014571137 0.906 2.22665204942e-38
0.0184438676083 -0.00503014571137 0.906 2.09768774916e-38
0.020053958399 -0.00501348959974 0.903 2.09758012943e-38
0.0215567098035 -0.00497462533928 0.896 2.16193672323e-38
0.02321491825 -0.00497462533928 0.896 2.15282492009e-38
0.0248731266964 -0.00497462533928 0.896 2.18963086504e-38
