# .PCD v0.7 - Point Cloud Data file format
VERSION 0.7
FIELDS x y z rgb
SIZE 4 4 4 4
TYPE F F F F
COUNT 1 1 1 1
WIDTH 845
HEIGHT 1
VIEWPOINT 0 0 0 1 0 0 0
POINTS 845
DATA ascii
0.0341228206866 -0.0991186696134 0.878 1.04043748509e-38
0.0357477169098 -0.0991186696134 0.878 1.02214297312e-38
0.0372449162771 -0.0987799953437 0.875 1.02217786545e-38
0.0388642604631 -0.0987799953437 0.875 1.06816721988e-38
0.0402985367421 -0.0983284296507 0.871 1.04987228752e-38
0.0419104782118 -0.0983284296507 0.871 1.02210794066e-38
0.0434224830117 -0.0981026468042 0.869 9.76010125726e-39
0.0450307231232 -0.0981026468042 0.869 9.85265001434e-39
0.0466389632348 -0.0981026468042 0.869 1.01295830246e-38
-0.00871669841815 -0.0871669841815 0.785 2.35054771302e-38
-0.00726391534846 -0.0871669841815 0.785 2.23894311851e-38
-0.00581113227877 -0.0871669841815 0.785 1.7762785065e-38
-0.00435834920908 -0.0871669841815 0.785 1.89673748561e-38
-0.00290556613938 -0.0871669841815 0.785 1.92407569761e-38
-0.00144908171155 -0.0869449026931 0.783 2.34853446751e-38
0.0 -0.0869449026931 0.783 2.27459537443e-38
0.00144908171155 -0.0869449026931 0.783 8.73513410722e-39
0.00479696014859 -0.0959392029717 0.864 1.19699054952e-38
0.00639594686478 -0.0959392029717 0.864 1.11401420239e-38
0.00799493358098 -0.0959392029717 0.864 1.09571983055e-38
0.00964944066926 -0.0964944066926 0.869 1.14156555188e-38
0.0112835902878 -0.096716488181 0.871 1.11397916993e-38
0.0129547534877 -0.0971606511577 0.875 1.10490548211e-38
0.0145740976737 -0.0971606511577 0.875 1.04965718821e-38
0.0162489622317 -0.0974937733903 0.878 1.06816721988e-38
0.0178738584549 -0.0974937733903 0.878 1.06813218742e-38
0.0194987546781 -0.0974937733903 0.878 1.11401420239e-38
0.0211236509012 -0.0974937733903 0.878 1.11386958839e-38
0.0227485471244 -0.0974937733903 0.878 1.1047946394e-38
0.0243734433476 -0.0974937733903 0.878 1.13223822905e-38
0.0259983395707 -0.0974937733903 0.878 1.14145807229e-38
0.0276232357939 -0.0974937733903 0.878 1.10490576237e-38
0.0292481320171 -0.0974937733903 0.878 1.10497442599e-38
0.0308730282403 -0.0974937733903 0.878 1.04976719014e-38
0.0325719516262 -0.0977158548786 0.88 1.05891234417e-38
0.0342005492075 -0.0977158548786 0.88 1.0955031898e-38
0.0358291467888 -0.0977158548786 0.88 9.85335626876e-39
0.0373726131329 -0.0974937733903 0.878 1.01299361519e-38
0.0389975093561 -0.0974937733903 0.878 1.04057691429e-38
-0.00728242213916 -0.085932581242 0.787 2.34043061837e-38
-0.00581113227877 -0.0857142011118 0.785 1.9977932454e-38
-0.00435834920908 -0.0857142011118 0.785 1.86900648965e-38
-0.00290556613938 -0.0857142011118 0.785 1.89673748561e-38
-0.00144908171155 -0.0854958209816 0.783 1.82297747847e-38
0.0 -0.0854958209816 0.783 2.3483127821e-38
0.00144908171155 -0.0854958209816 0.783 2.14555806651e-38
0.0028981634231 -0.0854958209816 0.783 1.1042147821e-38
0.00484692848347 -0.0953229268415 0.873 1.20566374624e-38
0.00646257131129 -0.0953229268415 0.873 1.14167513342e-38
0.00807821413911 -0.0953229268415 0.873 1.16936689303e-38
0.00969385696694 -0.0953229268415 0.873 1.12301894632e-38
0.0113354093017 -0.0955413069718 0.875 1.11379910307e-38
0.0129991697854 -0.0958688771671 0.878 1.08624817397e-38
0.0146240660085 -0.0958688771671 0.878 1.07706364344e-38
0.0162489622317 -0.0958688771671 0.878 1.14167092953e-38
0.0179145733944 -0.0960872572973 0.88 1.14174547861e-38
0.0195431709757 -0.0960872572973 0.88 1.1140832864e-38
0.021171768557 -0.0960872572973 0.88 1.14170596199e-38
0.0228003661383 -0.0960872572973 0.88 1.01295858272e-38
0.0244289637197 -0.0960872572973 0.88 1.14167092953e-38
0.026057561301 -0.0960872572973 0.88 1.05866179201e-38
0.0276861588823 -0.0960872572973 0.88 1.15100161548e-38
0.0293147564636 -0.0960872572973 0.88 1.04065300479e-38
0.0309433540449 -0.0960872572973 0.88 1.04047279781e-38
0.032645978789 -0.0963056374275 0.882 1.1324492646e-38
0.0342782777284 -0.0963056374275 0.882 1.04040413419e-38
0.0358291467888 -0.0960872572973 0.88 1.03125323483e-38
0.0374577443701 -0.0960872572973 0.88 9.66860627663e-39
0.0390863419515 -0.0960872572973 0.88 9.85335346616e-39
-0.00582593771132 -0.0844760968142 0.787 1.97888762717e-38
-0.00436945328349 -0.0844760968142 0.787 1.84138535549e-38
-0.00290556613938 -0.0842614180421 0.785 1.94297977441e-38
-0.00144908171155 -0.08404673927 0.783 1.86907907691e-38
0.0 -0.08404673927 0.783 2.00740951598e-38
0.00144908171155 -0.08404673927 0.783 2.13662212634e-38
0.00433614106024 -0.083832060498 0.781 1.27963661061e-38
0.00809672092981 -0.0939219627858 0.875 1.23375711798e-38
0.00971606511577 -0.0939219627858 0.875 1.24315842938e-38
0.0113742735622 -0.0942439809439 0.878 1.18769657759e-38
0.0129991697854 -0.0942439809439 0.878 1.18769881967e-38
0.0146573782318 -0.094458659716 0.88 1.04947698122e-38
0.0162859758131 -0.094458659716 0.88 1.09550276941e-38
0.0179145733944 -0.094458659716 0.88 9.94340370808e-39
0.0195431709757 -0.094458659716 0.88 1.01299207376e-38
0.021171768557 -0.094458659716 0.88 9.76080751169e-39
0.0228003661383 -0.094458659716 0.88 9.85300594415e-39
0.0244289637197 -0.094458659716 0.88 9.85366455442e-39
0.0261167830312 -0.0946733384881 0.882 1.01292298974e-38
0.0277490819706 -0.0946733384881 0.882 9.76045438447e-39
0.0293147564636 -0.094458659716 0.88 1.04058209909e-38
0.0309433540449 -0.094458659716 0.88 9.85300314155e-39
0.032645978789 -0.0946733384881 0.882 1.04043776535e-38
0.0342782777284 -0.0946733384881 0.882 9.94340090548e-39
0.0318797976542 -0.08404673927 0.783 1.04047279781e-38
0.0332437481285 -0.083832060498 0.781 1.00370370702e-38
0.0346891284819 -0.083832060498 0.781 1.00363308157e-38
-0.00290556613938 -0.0828086349724 0.785 1.84145542041e-38
-0.00144908171155 -0.0825976575585 0.783 1.90588544224e-38
0.0 -0.0823866801445 0.781 1.83209334537e-38
0.00144538035341 -0.0823866801445 0.781 1.97063285817e-38
0.00289076070683 -0.0823866801445 0.781 2.06283787674e-38
0.00433614106024 -0.0823866801445 0.781 2.29342882579e-38
0.00578152141365 -0.0823866801445 0.781 1.91532150584e-38
0.00812448111586 -0.0926190847208 0.878 1.08527595309e-38
0.00974937733903 -0.0926190847208 0.878 1.15945901224e-38
0.0113742735622 -0.0926190847208 0.878 1.14163379512e-38
0.0130287806505 -0.0928300621347 0.88 1.20603004566e-38
0.0146573782318 -0.0928300621347 0.88 1.20613724499e-38
0.0163229893945 -0.0930410395486 0.882 1.1693653516e-38
0.0179552883339 -0.0930410395486 0.882 1.1048293916e-38
0.0195875872734 -0.0930410395486 0.882 1.04962187549e-38
0.0212198862128 -0.0930410395486 0.882 1.16926123512e-38
0.0228521851523 -0.0930410395486 0.882 1.105046733e-38
0.0245677646499 -0.0933575056696 0.885 1.03118260938e-38
0.0261167830312 -0.0930410395486 0.882 1.02192773368e-38
0.0277490819706 -0.0930410395486 0.882 9.66825595201e-39
0.0293813809101 -0.0930410395486 0.882 9.94340090548e-39
0.0311191685565 -0.0933575056696 0.885 1.0128120069e-38
0.0327570195332 -0.0933575056696 0.885 1.04944068759e-38
0.0342782777284 -0.0930410395486 0.882 1.0124560771e-38
0.0315947930774 -0.0818592366097 0.776 1.07695644411e-38
0.0330309200355 -0.0818592366097 0.776 1.01274320315e-38
0.0346891284819 -0.0823866801445 0.781 1.09546759682e-38
0.0361345088353 -0.0823866801445 0.781 1.08617628736e-38
-0.00290556613938 -0.0813558519027 0.785 1.82298070146e-38
-0.00144908171155 -0.0811485758469 0.783 1.9152119243e-38
0.0 -0.0809412997911 0.781 1.95209241832e-38
0.00144538035341 -0.0809412997911 0.781 1.98925401282e-38
0.00289076070683 -0.0809412997911 0.781 1.88780336712e-38
0.00433614106024 -0.0809412997911 0.781 2.04439272518e-38
0.00578152141365 -0.0809412997911 0.781 2.09956604962e-38
0.00814298790655 -0.0912014645534 0.88 2.34892865277e-38
0.00977158548786 -0.0912014645534 0.88 1.72189201115e-38
0.0114001830692 -0.0912014645534 0.88 1.38951410476e-38
0.0130287806505 -0.0912014645534 0.88 1.20509047504e-38
0.0146573782318 -0.0912014645534 0.88 1.17833057891e-38
0.0163229893945 -0.0914087406092 0.882 1.20617129654e-38
0.0179552883339 -0.0914087406092 0.882 1.15093000913e-38
0.0196542117199 -0.0917196546929 0.885 1.16936885485e-38
0.0212920626966 -0.0917196546929 0.885 1.13252591562e-38
0.0229299136732 -0.0917196546929 0.885 1.18780447757e-38
0.0245677646499 -0.0917196546929 0.885 1.14184889443e-38
0.0262056156265 -0.0917196546929 0.885 1.16943723821e-38
0.0278434666032 -0.0917196546929 0.885 1.15107168041e-38
0.0295479420264 -0.0919269307487 0.887 1.0402924507e-38
0.0311894943612 -0.0919269307487 0.887 1.14163589707e-38
0.032831046696 -0.0919269307487 0.887 1.16007348161e-38
0.0301586661194 -0.0804231096516 0.776 1.17858491459e-38
0.0315133631984 -0.0802158335958 0.774 1.18783979029e-38
0.0329457887983 -0.0802158335958 0.774 1.18783979029e-38
0.0344670469936 -0.0804231096516 0.776 1.21546246588e-38
-0.00290556613938 -0.079903068833 0.785 1.85085645155e-38
-0.00144908171155 -0.0796994941354 0.783 1.66653735869e-38
0.0 -0.0796994941354 0.783 1.72170675949e-38
0.00144908171155 -0.0796994941354 0.783 1.89691895376e-38
0.00289076070683 -0.0794959194377 0.781 2.0074786e-38
0.00433614106024 -0.0794959194377 0.781 1.87830214314e-38
0.00724540855776 -0.0796994941354 0.783 2.18261610505e-38
0.00869449026931 -0.0796994941354 0.783 2.01637320187e-38
0.0114260925761 -0.0897764416697 0.882 2.23775201482e-38
0.0130583915156 -0.0897764416697 0.882 1.9523439514e-38
0.014690690455 -0.0897764416697 0.882 1.58380567827e-38
0.0163229893945 -0.0897764416697 0.882 1.35268139501e-38
0.0180163607432 -0.0900818037162 0.885 1.14988478061e-38
0.0196542117199 -0.0900818037162 0.885 1.15956705235e-38
0.0212920626966 -0.0900818037162 0.885 1.15070748294e-38
0.0229299136732 -0.0900818037162 0.885 1.13241451239e-38
0.024623285022 -0.0902853784139 0.887 1.17843974006e-38
0.0262648373568 -0.0902853784139 0.887 1.15078511487e-38
0.0279063896916 -0.0902853784139 0.887 1.1969514533e-38
0.0296145664729 -0.0904889531116 0.889 1.15096532185e-38
0.0312598201658 -0.0904889531116 0.889 1.18769881967e-38
0.0329050738588 -0.0904889531116 0.889 1.13223878957e-38
0.0301586661194 -0.0789869826936 0.776 1.1230892915e-38
0.0315133631984 -0.0787834079959 0.774 1.13223276398e-38
0.0329457887983 -0.0787834079959 0.774 1.04932900411e-38
0.0344670469936 -0.0789869826936 0.776 1.04907915259e-38
0.0359031739516 -0.0789869826936 0.776 1.29746841383e-38
-0.00290556613938 -0.0784502857634 0.785 1.93390734776e-38
-0.00145278306969 -0.0784502857634 0.785 1.68536954888e-38
0.0 -0.0782504124238 0.783 8.17335915806e-39
0.00144908171155 -0.0782504124238 0.783 1.87837066663e-38
0.00289076070683 -0.0780505390843 0.781 1.91560849177e-38
0.00433614106024 -0.0780505390843 0.781 2.07183659509e-38
0.00579632684621 -0.0782504124238 0.783 1.97074412127e-38
0.00724540855776 -0.0782504124238 0.783 1.96130973923e-38
0.00869449026931 -0.0782504124238 0.783 1.96127414625e-38
0.0101176624739 -0.0780505390843 0.781 1.91496151226e-38
0.0115630428273 -0.0780505390843 0.781 1.98885926704e-38
0.0147406587899 -0.0884439527396 0.885 2.20083312522e-38
0.0163785097666 -0.0884439527396 0.885 2.13629744548e-38
0.0180163607432 -0.0884439527396 0.885 2.17320918846e-38
0.0196542117199 -0.0884439527396 0.885 1.86925101623e-38
0.0213401803524 -0.0886438260791 0.887 1.75887017567e-38
0.0229817326872 -0.0886438260791 0.887 1.46366829715e-38
0.024623285022 -0.0886438260791 0.887 1.41710721295e-38
0.026324059087 -0.0888436994186 0.889 1.46316635204e-38
0.0279693127799 -0.0888436994186 0.889 1.33427576007e-38
0.0296145664729 -0.0888436994186 0.889 1.33430911098e-38
0.0312598201658 -0.0888436994186 0.889 1.31597564291e-38
0.0287965663241 -0.077750729075 0.778 1.40809868551e-38
0.0301586661194 -0.0775508557355 0.776 1.51862848409e-38
0.0315133631984 -0.077350982396 0.774 1.57384048437e-38
0.0329457887983 -0.077350982396 0.774 1.83216369055e-38
0.0343782143982 -0.077350982396 0.774 1.97070110141e-38
0.0358106399981 -0.077350982396 0.774 2.04435222766e-38
0.0372430655981 -0.077350982396 0.774 2.26536614249e-38
0.0387754278677 -0.0775508557355 0.776 2.34842012156e-38
0.0402115548258 -0.0775508557355 0.776 2.34913646533e-38
0.0532995572065 -0.0799493358098 0.8 2.23775047339e-38
0.0547801004623 -0.0799493358098 0.8 2.1907429355e-38
0.056260643718 -0.0799493358098 0.8 2.34889165849e-38
-0.00595918660434 -0.0789592225075 0.805 1.94337087681e-38
-0.00445828587884 -0.0787630505261 0.803 2.0530016023e-38
-0.00297219058589 -0.0787630505261 0.803 1.91528829507e-38
-0.00145648442783 -0.077193674675 0.787 1.92489839993e-38
0.0 -0.0769975026937 0.785 5.05095228869e-39
0.00145278306969 -0.0769975026937 0.785 1.52771366256e-38
0.00290556613938 -0.0769975026937 0.785 1.51022755967e-38
0.00435834920908 -0.0769975026937 0.785 1.93408671397e-38
0.00579632684621 -0.0768013307123 0.783 1.99847665866e-38
0.00724540855776 -0.0768013307123 0.783 1.96148770414e-38
0.00867228212048 -0.0766051587309 0.781 2.12736753089e-38
0.0101176624739 -0.0766051587309 0.781 1.94312018452e-38
0.0115630428273 -0.0766051587309 0.781 1.97052902196e-38
0.0130084231807 -0.0766051587309 0.781 2.27463250884e-38
0.0144538035341 -0.0766051587309 0.781 2.25623065741e-38
0.0158991838875 -0.0766051587309 0.781 2.34863928464e-38
0.0196986280176 -0.0870022737443 0.887 2.34852760115e-38
0.0213401803524 -0.0870022737443 0.887 2.17328359741e-38
0.0202353249478 -0.0766051587309 0.781 2.21927393275e-38
0.0216807053012 -0.0766051587309 0.781 2.11775294187e-38
0.0231260856546 -0.0766051587309 0.781 2.11771762915e-38
0.0279693127799 -0.0871984457257 0.889 2.07161855304e-38
0.0260168463614 -0.0766051587309 0.781 2.16384725355e-38
0.0274270638125 -0.0765070727402 0.78 2.11785551691e-38
0.0287965663241 -0.0763109007588 0.778 2.09927668148e-38
0.0300809375984 -0.075918556796 0.774 2.15459111668e-38
0.0315133631984 -0.075918556796 0.774 2.34819815588e-38
0.0329457887983 -0.075918556796 0.774 2.34823655146e-38
0.0343782143982 -0.075918556796 0.774 2.34838466871e-38
0.0358106399981 -0.075918556796 0.774 2.34931891439e-38
0.0372430655981 -0.075918556796 0.774 2.3492865444e-38
0.0387754278677 -0.0761147287774 0.776 2.34856683751e-38
0.0402115548258 -0.0761147287774 0.776 2.29278072525e-38
0.0516894664159 -0.0782726205727 0.798 2.21913534433e-38
0.0531663083135 -0.0782726205727 0.798 1.6837855211e-38
0.0547801004623 -0.0784687925541 0.8 2.34835734339e-38
0.056260643718 -0.0784687925541 0.8 2.34871509489e-38
-0.00746749004612 -0.0776618964797 0.807 2.35076575506e-38
-0.00595918660434 -0.0774694258564 0.805 1.86032362397e-38
-0.00445828587884 -0.0772769552332 0.803 1.93300435103e-38
-0.00297219058589 -0.0772769552332 0.803 1.95180248967e-38
-0.00146203646504 -0.0760258961821 0.79 1.97081614801e-38
0.0 -0.0759296608705 0.789 6.79582671569e-39
0.00145648442783 -0.0757371902472 0.787 2.13591138776e-38
0.00290556613938 -0.075544719624 0.785 1.4915433466e-38
0.00435834920908 -0.075544719624 0.785 1.30772311599e-38
0.00579632684621 -0.0753522490007 0.783 1.88812552563e-38
0.00724540855776 -0.0753522490007 0.783 1.98014571293e-38
0.00867228212048 -0.0751597783775 0.781 2.09981800308e-38
0.0101176624739 -0.0751597783775 0.781 2.01698683047e-38
0.0115630428273 -0.0751597783775 0.781 2.03531665516e-38
0.0130084231807 -0.0751597783775 0.781 2.11800727754e-38
0.0144538035341 -0.0751597783775 0.781 2.0445378997e-38
0.0158991838875 -0.0751597783775 0.781 2.01680480179e-38
0.017344564241 -0.0751597783775 0.781 2.24693612496e-38
0.0187899445944 -0.0751597783775 0.781 2.3022874143e-38
0.0202353249478 -0.0751597783775 0.781 2.34864012542e-38
0.0216529451152 -0.0750635430659 0.78 2.34856501582e-38
0.0230964747895 -0.0750635430659 0.78 2.3489625642e-38
0.0279693127799 -0.0855531920328 0.889 2.34903248899e-38
0.0260168463614 -0.0751597783775 0.781 2.34892556992e-38
0.0274270638125 -0.0750635430659 0.78 2.34917640234e-38
0.0287225391613 -0.0746786018194 0.776 2.34903389029e-38
0.0300809375984 -0.0744861311961 0.774 2.34910465586e-38
0.0315133631984 -0.0744861311961 0.774 2.34885452408e-38
0.0329457887983 -0.0744861311961 0.774 2.34888843551e-38
0.0343782143982 -0.0744861311961 0.774 2.34827424639e-38
0.0358106399981 -0.0744861311961 0.774 2.32054675368e-38
0.0372430655981 -0.0744861311961 0.774 2.33001967142e-38
0.038675491198 -0.0744861311961 0.774 2.33009295933e-38
0.0404188308816 -0.0750635430659 0.78 2.33898615991e-38
0.0516894664159 -0.0767957786751 0.798 2.08923147344e-38
0.0531663083135 -0.0767957786751 0.798 2.34810076564e-38
0.0547801004623 -0.0769882492983 0.8 2.34838691079e-38
0.0561199921087 -0.0767957786751 0.798 2.34845823688e-38
0.0575968340063 -0.0767957786751 0.798 2.34896270432e-38
-0.00746749004612 -0.0761683984705 0.807 2.35094750347e-38
-0.00595918660434 -0.0759796292053 0.805 1.85154042533e-38
-0.00446938995326 -0.0759796292053 0.805 2.20029712856e-38
-0.00297219058589 -0.0757908599402 0.803 1.9888942995e-38
-0.00146573782318 -0.0747526289822 0.792 1.67521812242e-38
0.0 -0.0744694750845 0.789 1.58168705512e-38
0.00146018578597 -0.0744694750845 0.789 1.37007080831e-38
0.00290556613938 -0.0740919365543 0.785 1.87819494381e-38
0.00435834920908 -0.0740919365543 0.785 1.68569114688e-38
0.00579632684621 -0.0739031672892 0.783 9.65495062309e-39
0.00724540855776 -0.0739031672892 0.783 1.64798080391e-38
0.00867228212048 -0.0737143980241 0.781 1.94362269014e-38
0.0101176624739 -0.0737143980241 0.781 1.93369210832e-38
0.0115630428273 -0.0737143980241 0.781 2.06283087025e-38
0.0130084231807 -0.0737143980241 0.781 2.17332465546e-38
0.0144352967434 -0.0736200133915 0.78 2.20112753803e-38
0.0158788264178 -0.0736200133915 0.78 2.03510155584e-38
0.017344564241 -0.0737143980241 0.781 2.1638883116e-38
0.0187658857665 -0.0736200133915 0.78 2.14552177288e-38
0.0202094154408 -0.0736200133915 0.78 2.21009402651e-38
0.0215974247431 -0.0734312441264 0.778 2.13637381625e-38
0.0230372530593 -0.0734312441264 0.778 2.09946095223e-38
0.0244770813755 -0.0734312441264 0.778 2.23764621679e-38
0.0259169096917 -0.0734312441264 0.778 2.21916883537e-38
0.0272864122032 -0.0732424748613 0.776 2.16384921537e-38
0.0287225391613 -0.0732424748613 0.776 2.26551804324e-38
0.0300809375984 -0.0730537055962 0.774 2.22845846327e-38
0.0315133631984 -0.0730537055962 0.774 2.24682920588e-38
0.0330309200355 -0.0732424748613 0.776 2.34863984516e-38
0.0343782143982 -0.0730537055962 0.774 2.30200042837e-38
0.0358106399981 -0.0730537055962 0.774 2.34827915093e-38
0.0374355362213 -0.0734312441264 0.778 2.3484935496e-38
0.0388753645375 -0.0734312441264 0.778 2.33009029687e-38
0.0404188308816 -0.0736200133915 0.78 2.34838466871e-38
0.041862360556 -0.0736200133915 0.78 2.2376082416e-38
0.0434724513466 -0.0739031672892 0.783 2.23782502247e-38
0.0471404972627 -0.0751301675124 0.796 2.34799188475e-38
0.0486136378021 -0.0751301675124 0.796 1.65605228306e-38
0.0502126245183 -0.0753189367775 0.798 2.3474554677e-38
0.0516894664159 -0.0753189367775 0.798 2.34791299165e-38
0.0531663083135 -0.0753189367775 0.798 2.23685392263e-38
0.0547801004623 -0.0755077060426 0.8 2.34820978666e-38
0.0561199921087 -0.0753189367775 0.798 2.34863844386e-38
0.0575968340063 -0.0753189367775 0.798 2.34863830373e-38
0.0598879746946 -0.0763571677356 0.809 2.34820726432e-38
-0.00746749004612 -0.0746749004612 0.807 2.35040688252e-38
-0.00595918660434 -0.0744898325543 0.805 2.07309706305e-38
-0.00446938995326 -0.0744898325543 0.805 1.98745502585e-38
-0.00297219058589 -0.0743047646473 0.803 1.99811540392e-38
-0.00147314053946 -0.0736570269729 0.796 2.09027670197e-38
0.0 -0.073101823252 0.79 1.2323900112e-38
0.00146018578597 -0.0730092892985 0.789 1.69257348416e-38
0.00292037157194 -0.0730092892985 0.789 1.19561937898e-38
0.00436945328349 -0.0728242213916 0.787 1.77687616029e-38
0.00581113227877 -0.0726391534846 0.785 2.00755202803e-38
0.00724540855776 -0.0724540855776 0.783 2.66322938858e-39
0.00869449026931 -0.0724540855776 0.783 5.05455222444e-39
0.0101435719809 -0.0724540855776 0.783 2.18275945789e-38
0.0115630428273 -0.0722690176707 0.781 1.95212773104e-38
0.0130084231807 -0.0722690176707 0.781 2.05318363097e-38
0.0144352967434 -0.0721764837172 0.78 2.0256324216e-38
0.0158788264178 -0.0721764837172 0.78 2.14544890536e-38
0.017344564241 -0.0722690176707 0.781 2.16388803134e-38
0.0187658857665 -0.0721764837172 0.78 2.21002115899e-38
0.0202094154408 -0.0721764837172 0.78 2.2746304069e-38
0.0215974247431 -0.0719914158102 0.778 2.33927272544e-38
0.0230372530593 -0.0719914158102 0.778 2.22867552441e-38
0.0244770813755 -0.0719914158102 0.778 2.33001967142e-38
0.0259835341382 -0.0721764837172 0.78 2.3487090693e-38
0.0274270638125 -0.0721764837172 0.78 2.3299843587e-38
0.0287225391613 -0.0718063479032 0.776 2.3487452228e-38
0.0301586661194 -0.0718063479032 0.776 2.34874732475e-38
0.0315947930774 -0.0718063479032 0.776 2.25612065548e-38
0.0330309200355 -0.0718063479032 0.776 2.34856837894e-38
0.0345558795889 -0.0719914158102 0.778 2.21002087873e-38
0.0359957079051 -0.0719914158102 0.778 2.22846028496e-38
0.0374355362213 -0.0719914158102 0.778 2.32069136768e-38
0.0388753645375 -0.0719914158102 0.778 2.27459537443e-38
0.0404188308816 -0.0721764837172 0.78 2.23768180977e-38
0.041862360556 -0.0721764837172 0.78 2.31140272068e-38
0.0434724513466 -0.0724540855776 0.783 2.28385025014e-38
0.0453231304162 -0.073101823252 0.79 1.8961576283e-38
0.0469036103417 -0.073286891159 0.792 2.125238398e-38
0.0484914929835 -0.0734719590659 0.794 2.34835103755e-38
0.0500867783416 -0.0736570269729 0.796 2.17278711736e-38
0.0516894664159 -0.0738420948799 0.798 2.19085349795e-38
0.0531663083135 -0.0738420948799 0.798 2.34860186997e-38
0.0547801004623 -0.0740271627868 0.8 2.33884532941e-38
0.056260643718 -0.0740271627868 0.8 2.34871271268e-38
0.0581020693923 -0.0744898325543 0.805 2.34834865534e-38
0.0595918660434 -0.0744898325543 0.805 2.14454086396e-38
-0.00748599683682 -0.0733627690008 0.809 2.35047890926e-38
-0.00598879746946 -0.0733627690008 0.809 2.32213218276e-38
-0.00446938995326 -0.0730000359032 0.805 1.62775095863e-38
-0.00297959330217 -0.0730000359032 0.805 1.97910230609e-38
-0.00148609529295 -0.0728186693543 0.803 2.12718900547e-38
0.0 -0.0725466195311 0.8 2.07198148935e-38
0.00147314053946 -0.0721838864334 0.796 1.09359574233e-38
0.00294628107892 -0.0721838864334 0.796 1.96924248984e-38
0.00439721346954 -0.0718211533358 0.792 1.44522524755e-38
0.00584074314388 -0.0715491035126 0.789 1.62004353681e-38
0.00728242213916 -0.0713677369637 0.787 8.2709595961e-39
0.00871669841815 -0.0711863704149 0.785 3.94892633479e-39
0.0101435719809 -0.0710050038661 0.783 2.17386191329e-38
0.0115926536924 -0.0710050038661 0.783 2.02595584129e-38
0.013041735404 -0.0710050038661 0.783 1.98903877337e-38
0.0144908171155 -0.0710050038661 0.783 2.19151238848e-38
0.0159398988271 -0.0710050038661 0.783 2.16402900196e-38
0.0173889805386 -0.0710050038661 0.783 2.12704523224e-38
0.0187899445944 -0.0708236373172 0.781 2.24693640521e-38
0.0202094154408 -0.0707329540428 0.78 2.19158217315e-38
0.0215974247431 -0.070551587494 0.778 2.20995053355e-38
0.0230372530593 -0.070551587494 0.778 2.2098789272e-38
0.0244770813755 -0.070551587494 0.778 2.21927799652e-38
0.0259835341382 -0.0707329540428 0.78 2.25597604148e-38
0.0274270638125 -0.0707329540428 0.78 2.28377584119e-38
0.0287965663241 -0.070551587494 0.778 2.16388677017e-38
0.0301586661194 -0.0703702209452 0.776 2.20076460172e-38
0.0315947930774 -0.0703702209452 0.776 2.20087418326e-38
0.0331160512727 -0.070551587494 0.778 2.21934637988e-38
0.0345558795889 -0.070551587494 0.778 2.20108928258e-38
0.0359957079051 -0.070551587494 0.778 2.16414012493e-38
0.0374355362213 -0.070551587494 0.778 2.25622659364e-38
0.0389753012073 -0.0707329540428 0.78 2.2651567885e-38
0.0404706498956 -0.0708236373172 0.781 1.87754109794e-38
0.041916030249 -0.0708236373172 0.781 1.67428275569e-38
0.0434724513466 -0.0710050038661 0.783 2.01518209817e-38
0.0453231304162 -0.071639786787 0.79 2.34806166941e-38
0.0469036103417 -0.0718211533358 0.792 2.3484987344e-38
0.0484914929835 -0.0720025198846 0.794 1.62875358768e-38
0.0500867783416 -0.0721838864334 0.796 2.34773334518e-38
0.0516894664159 -0.0723652529823 0.798 2.34842432545e-38
0.0531663083135 -0.0723652529823 0.798 2.34842320442e-38
0.0546431502111 -0.0723652529823 0.798 2.34882103305e-38
0.056260643718 -0.0725466195311 0.8 2.3479939867e-38
0.0581020693923 -0.0730000359032 0.805 2.16277273789e-38
0.0595918660434 -0.0730000359032 0.805 2.31002258182e-38
-0.00598879746946 -0.0718655696335 0.809 2.35047708758e-38
-0.00448049402767 -0.0716879044428 0.807 1.49896644495e-38
-0.00298699601845 -0.0716879044428 0.807 1.74792841687e-38
-0.00148609529295 -0.0713325740614 0.803 2.05275175078e-38
0.0 -0.0712437414661 0.802 2.09020607652e-38
0.0014768418976 -0.0708884110847 0.798 2.13669443334e-38
0.00294628107892 -0.070710745894 0.796 1.40774121427e-38
0.00440831754396 -0.0705330807033 0.794 1.74889349113e-38
0.00584814586016 -0.0701777503219 0.79 1.94319487372e-38
0.00730092892985 -0.0700889177266 0.789 8.54141860751e-39
0.00876111471582 -0.0700889177266 0.789 9.36722060812e-39
0.0101953909948 -0.0699112525359 0.787 2.34860397192e-38
0.0116222645575 -0.0697335873452 0.785 1.90624851867e-38
0.0130750476272 -0.0697335873452 0.785 1.74854148495e-38
0.0145278306969 -0.0697335873452 0.785 2.33840378027e-38
0.0159806137666 -0.0697335873452 0.785 2.29288778446e-38
0.0173889805386 -0.0695559221545 0.783 2.29310652715e-38
0.0187899445944 -0.0693782569638 0.781 2.20098530623e-38
0.0202094154408 -0.0692894243685 0.78 2.32044137603e-38
0.0216529451152 -0.0692894243685 0.78 2.30211281251e-38
0.0230964747895 -0.0692894243685 0.78 2.31147362638e-38
0.0245400044638 -0.0692894243685 0.78 2.12718956598e-38
0.0260168463614 -0.0693782569638 0.781 2.1733243752e-38
0.0274622267148 -0.0693782569638 0.781 2.22860517922e-38
0.0289076070683 -0.0693782569638 0.781 2.21934890222e-38
0.0303529874217 -0.0693782569638 0.781 2.30211015004e-38
0.0318797976542 -0.0695559221545 0.783 2.27463194832e-38
0.0333288793657 -0.0695559221545 0.783 2.24693668547e-38
0.0347779610773 -0.0695559221545 0.783 2.27445090056e-38
0.0362270427888 -0.0695559221545 0.783 2.3390241351e-38
0.0376761245004 -0.0695559221545 0.783 1.97957132069e-38
0.0391252062119 -0.0695559221545 0.783 1.94988999753e-38
0.0405742879235 -0.0695559221545 0.783 1.95024872993e-38
0.042023369635 -0.0695559221545 0.783 2.34817181147e-38
0.0435834920908 -0.0697335873452 0.785 2.34853362674e-38
0.0453231304162 -0.0701777503219 0.79 1.97906517168e-38
0.0469036103417 -0.0703554155126 0.792 1.74803127218e-38
0.0484914929835 -0.0705330807033 0.794 2.34787837957e-38
0.0500867783416 -0.070710745894 0.796 2.3480648924e-38
0.0516894664159 -0.0708884110847 0.798 2.34813649875e-38
0.0531663083135 -0.0708884110847 0.798 2.34845935792e-38
0.0546431502111 -0.0708884110847 0.798 2.34867557827e-38
0.056260643718 -0.0710660762754 0.8 2.18152827706e-38
0.0583907753272 -0.0718655696335 0.809 2.18026794922e-38
0.0598879746946 -0.0718655696335 0.809 2.33743898627e-38
-0.00448049402767 -0.0701944064336 0.807 1.56382554437e-38
-0.00298699601845 -0.0701944064336 0.807 1.83104195113e-38
-0.00148979665109 -0.070020442601 0.805 1.76636530077e-38
0.0 -0.0698464787685 0.803 1.96984953233e-38
0.00148054325574 -0.0695855330196 0.8 1.99833064336e-38
0.00295368379519 -0.0694115691871 0.798 1.99836973959e-38
0.00441942161837 -0.0692376053545 0.796 1.80447193095e-38
0.00587775672528 -0.069063641522 0.794 1.19529637968e-38
0.0073286891159 -0.0688896776894 0.792 1.31339108802e-38
0.00877221879024 -0.0687157138569 0.79 1.20304499967e-38
0.0102213005018 -0.0686287319406 0.789 2.34767645246e-38
0.0116518754226 -0.0684547681081 0.787 2.00762489556e-38
0.0131083598505 -0.0684547681081 0.787 2.02534151204e-38
0.0145648442783 -0.0684547681081 0.787 1.9417557402e-38
0.0160213287061 -0.0684547681081 0.787 1.71951919246e-38
0.017477813134 -0.0684547681081 0.787 1.61849902565e-38
0.018886179906 -0.0682808042755 0.785 1.43299247247e-38
0.0202871439617 -0.068106840443 0.783 2.34641556411e-38
0.0216807053012 -0.0679328766104 0.781 1.84973415161e-38
0.0231260856546 -0.0679328766104 0.781 2.20940725013e-38
0.024571466008 -0.0679328766104 0.781 2.08065384528e-38
0.0260168463614 -0.0679328766104 0.781 2.1822472833e-38
0.0274622267148 -0.0679328766104 0.781 2.06247480031e-38
0.028981634231 -0.068106840443 0.783 1.82250411985e-38
0.0304307159426 -0.068106840443 0.783 1.978626285e-38
0.0318797976542 -0.068106840443 0.783 1.83050567421e-38
0.0334991418401 -0.0684547681081 0.787 1.82085395078e-38
0.0347779610773 -0.068106840443 0.783 2.10626243459e-38
0.0362270427888 -0.068106840443 0.783 2.34712798425e-38
0.0376761245004 -0.068106840443 0.783 2.26548301078e-38
0.0391252062119 -0.068106840443 0.783 2.34835229871e-38
0.0405742879235 -0.068106840443 0.783 2.22806820165e-38
0.0421307090211 -0.0682808042755 0.785 1.98792950551e-38
0.0438610939512 -0.0687157138569 0.79 1.96012227891e-38
0.0453231304162 -0.0687157138569 0.79 2.28324040505e-38
0.0470220538022 -0.069063641522 0.794 2.34860593374e-38
0.0486136378021 -0.0692376053545 0.796 2.32994932624e-38
0.0502126245183 -0.0694115691871 0.798 2.30211337303e-38
0.0516894664159 -0.0694115691871 0.798 2.34878614072e-38
0.0532995572065 -0.0695855330196 0.8 2.34820992679e-38
0.0547801004623 -0.0695855330196 0.8 2.04331372536e-38
0.056260643718 -0.0695855330196 0.8 2.06970830298e-38
0.0577411869737 -0.0695855330196 0.8 2.34636287528e-38
-0.00299439873473 -0.0688711708987 0.809 1.79405663998e-38
-0.00148979665109 -0.0685306459499 0.805 1.72959564946e-38
0.0 -0.0685306459499 0.805 1.73881184933e-38
0.00148979665109 -0.0685306459499 0.805 1.79477985012e-38
0.00296848922775 -0.0682752522383 0.802 1.9797826365e-38
0.00444162976721 -0.0681049897639 0.8 2.09038137896e-38
0.00589256215783 -0.0677644648151 0.796 2.11818720426e-38
0.00734719590659 -0.0675942023407 0.794 1.65688297279e-38
0.00881663508791 -0.0675942023407 0.794 1.02855755697e-38
0.0102342552553 -0.0672536773918 0.79 2.17084617886e-38
0.0116962917203 -0.0672536773918 0.79 2.01698683047e-38
0.0131583281854 -0.0672536773918 0.79 2.07183533392e-38
0.0146018578597 -0.0671685461546 0.789 2.09942143562e-38
0.0160620436457 -0.0671685461546 0.789 2.18239918405e-38
0.0175222294316 -0.0671685461546 0.789 2.18225120693e-38
0.0189342975618 -0.0669982836802 0.787 2.29241919025e-38
0.0203907819896 -0.0669982836802 0.787 2.20969689853e-38
0.0217917460454 -0.0668280212058 0.785 1.84044522435e-38
0.0232445291151 -0.0668280212058 0.785 2.24607124354e-38
0.0246343890964 -0.0666577587314 0.783 2.13582478751e-38
0.0260834708079 -0.0666577587314 0.783 2.29280538811e-38
0.0276028783241 -0.0668280212058 0.785 2.34838957325e-38
0.0290556613938 -0.0668280212058 0.785 1.90566838111e-38
0.0305084444635 -0.0668280212058 0.785 2.2558986898e-38
0.0320426574123 -0.0669982836802 0.787 2.34795278852e-38
0.0335842730773 -0.0671685461546 0.789 2.21866689026e-38
0.0350444588633 -0.0671685461546 0.789 2.34730538863e-38
0.0365046446493 -0.0671685461546 0.789 2.32901802328e-38
0.0379648304352 -0.0671685461546 0.789 2.1451955506e-38
0.0394250162212 -0.0671685461546 0.789 1.70182962103e-38
0.0408852020072 -0.0671685461546 0.789 1.98745684754e-38
0.0423990574862 -0.0672536773918 0.79 2.3476296491e-38
0.0439721346954 -0.0674239398663 0.792 2.34838831208e-38
0.0454378725186 -0.0674239398663 0.792 2.32083387973e-38
0.0471404972627 -0.0677644648151 0.796 2.17328906247e-38
0.0487357826207 -0.0679347272895 0.798 2.34863984516e-38
0.0502126245183 -0.0679347272895 0.798 2.34863900438e-38
0.0518190139508 -0.0681049897639 0.8 2.24679417342e-38
0.0532995572065 -0.0681049897639 0.8 2.1167723132e-38
0.0547801004623 -0.0681049897639 0.8 2.11616597136e-38
0.056260643718 -0.0681049897639 0.8 2.2080741949e-38
-0.00450270217651 -0.0675405326476 0.811 1.63819567686e-38
-0.00300180145101 -0.0675405326476 0.811 1.84933730388e-38
-0.00149719936736 -0.0673739715314 0.809 1.74824763267e-38
0.0 -0.0672074104151 0.807 1.78505652034e-38
0.00148979665109 -0.0670408492988 0.805 1.88676094119e-38
0.00297219058589 -0.0668742881826 0.803 1.84113172046e-38
0.00445273384163 -0.0667910076244 0.802 1.93318469814e-38
0.00592217302295 -0.0666244465082 0.8 1.9612025399e-38
0.00736570269729 -0.0662913242756 0.796 2.03517190103e-38
0.00883884323675 -0.0662913242756 0.796 2.07205211479e-38
0.0102860742692 -0.0661247631593 0.794 1.81394092506e-38
0.0117259025854 -0.0659582020431 0.792 2.03538798125e-38
0.0131583281854 -0.0657916409268 0.79 2.1274046653e-38
0.0146203646504 -0.0657916409268 0.79 2.0905618662e-38
0.0160824011154 -0.0657916409268 0.79 2.02595640181e-38
0.0175444375805 -0.0657916409268 0.79 1.75719057933e-38
0.0189824152176 -0.0657083603687 0.789 2.23609063536e-38
0.0204426010036 -0.0657083603687 0.789 1.4803119394e-38
0.0219027867896 -0.0657083603687 0.789 1.92306031674e-38
0.0233629725755 -0.0657083603687 0.789 2.17195726841e-38
0.0247602352731 -0.0655417992524 0.787 1.88607892923e-38
0.026216719701 -0.0655417992524 0.787 2.23631470299e-38
0.0277435299334 -0.0657083603687 0.789 1.84069689755e-38
0.0292037157194 -0.0657083603687 0.789 2.07996917085e-38
0.0306639015054 -0.0657083603687 0.789 2.3022578469e-38
0.0321240872913 -0.0657083603687 0.789 1.87768907506e-38
0.0336268386959 -0.0657916409268 0.79 1.96934366359e-38
0.035088875161 -0.0657916409268 0.79 1.56321822162e-38
0.036550911626 -0.0657916409268 0.79 2.17140866007e-38
0.038012948091 -0.0657916409268 0.79 2.09817119713e-38
0.0394749845561 -0.0657916409268 0.79 2.34831894781e-38
0.0409370210211 -0.0657916409268 0.79 2.34831376301e-38
0.0425063968722 -0.0659582020431 0.792 2.30200168954e-38
0.0439721346954 -0.0659582020431 0.792 2.31140145951e-38
0.0455526146209 -0.0661247631593 0.794 2.20094424819e-38
0.0472589407231 -0.0664578853919 0.798 2.34860074893e-38
0.0487357826207 -0.0664578853919 0.798 2.30207483732e-38
0.0503384706951 -0.0666244465082 0.8 2.10799429936e-38
0.0518190139508 -0.0666244465082 0.8 2.04280323233e-38
0.0536326794391 -0.0670408492988 0.805 2.17170139131e-38
0.0551224760902 -0.0670408492988 0.805 2.01449966582e-38
0.0575968340063 -0.0682067771127 0.819 2.21725872543e-38
0.0591125401644 -0.0682067771127 0.819 2.16204868697e-38
0.0606282463224 -0.0682067771127 0.819 2.34647259695e-38
-0.00613685179503 -0.0675053697453 0.829 2.35098043398e-38
-0.00306102318124 -0.0673425099872 0.827 1.89482555398e-38
-0.0015009007255 -0.0660396319221 0.811 1.81264444372e-38
0.0 -0.0660396319221 0.811 1.7295240431e-38
0.00149349800922 -0.0657139124059 0.807 1.70204514074e-38
0.00297219058589 -0.0653881928896 0.803 1.85935322479e-38
0.00445273384163 -0.0653067630106 0.802 1.85891601966e-38
0.0059369784555 -0.0653067630106 0.802 1.92392351659e-38
0.00738420948799 -0.0649810434943 0.798 1.9426557942e-38
0.00886105138558 -0.0649810434943 0.798 2.00733790963e-38
0.0103119837762 -0.0648181837362 0.796 2.01680480179e-38
0.0117851243157 -0.0648181837362 0.796 2.04435643155e-38
0.0132249526319 -0.064655323978 0.794 2.07194225299e-38
0.0146573782318 -0.0644924642199 0.792 2.00751517389e-38
0.016123116055 -0.0644924642199 0.792 2.12719208832e-38
0.0175444375805 -0.0643296044618 0.79 2.0069386797e-38
0.0190064740455 -0.0643296044618 0.79 2.17270976569e-38
0.0204685105106 -0.0643296044618 0.79 1.75722182829e-38
0.0219305469756 -0.0643296044618 0.79 1.65616018304e-38
0.0233629725755 -0.0642481745827 0.789 2.13490371403e-38
0.0248231583615 -0.0642481745827 0.789 1.79373658341e-38
0.0262833441475 -0.0642481745827 0.789 1.91297643286e-38
0.0277786928358 -0.0643296044618 0.79 2.28352402786e-38
0.0292407293008 -0.0643296044618 0.79 2.21016437169e-38
0.0307027657658 -0.0643296044618 0.79 2.17328808157e-38
0.0321648022309 -0.0643296044618 0.79 1.68325232703e-38
0.0336268386959 -0.0643296044618 0.79 2.18992443706e-38
0.035088875161 -0.0643296044618 0.79 2.3488926394e-38
0.036550911626 -0.0643296044618 0.79 2.28384800806e-38
0.038012948091 -0.0643296044618 0.79 2.31157900402e-38
0.0394749845561 -0.0643296044618 0.79 2.28388724442e-38
0.041040659049 -0.0644924642199 0.792 2.25618973949e-38
0.0425063968722 -0.0644924642199 0.792 2.34835215858e-38
0.0441942161837 -0.0648181837362 0.796 2.34842040182e-38
0.0457820988255 -0.0649810434943 0.798 2.34834823495e-38
0.0472589407231 -0.0649810434943 0.798 2.22809692827e-38
0.0489800722579 -0.0653067630106 0.802 2.12624845394e-38
0.0505272399602 -0.0653881928896 0.803 2.16258692571e-38
0.0520133352531 -0.0653881928896 0.803 2.32889709122e-38
0.0540324261181 -0.0660396319221 0.811 2.15366275644e-38
0.0559441775971 -0.0665282111965 0.817 2.18034137726e-38
0.0575968340063 -0.0666910709547 0.819 2.22661869852e-38
0.0591125401644 -0.0666910709547 0.819 2.30945603685e-38
0.0606282463224 -0.0666910709547 0.819 2.34683945689e-38
-0.00767106474379 -0.0659711567966 0.829 2.35040183785e-38
-0.00613685179503 -0.0659711567966 0.829 2.35083624037e-38
-0.00459153477185 -0.0658119983966 0.827 1.7410460796e-38
-0.00306102318124 -0.0658119983966 0.827 1.81199326033e-38
-0.00152681023248 -0.0656528399966 0.825 1.93238946127e-38
0.0 -0.0656528399966 0.825 1.72066153097e-38
0.00150460208364 -0.0646978895966 0.813 1.69264298856e-38
0.00297959330217 -0.0640612559967 0.805 1.75725069504e-38
0.00445828587884 -0.0639020975967 0.803 1.67413239637e-38
0.0059369784555 -0.0638225183967 0.802 1.79387727378e-38
0.00740271627868 -0.0636633599967 0.8 1.85891545914e-38
0.00888325953442 -0.0636633599967 0.8 1.96983565948e-38
0.0103378932832 -0.0635042015967 0.798 2.05304027813e-38
0.0118147351808 -0.0635042015967 0.798 2.04410980302e-38
0.0132582648551 -0.0633450431967 0.796 2.01662907897e-38
0.0146943918132 -0.0631858847967 0.794 2.00762489556e-38
0.0161638309945 -0.0631858847967 0.794 2.07201680207e-38
0.0175888538782 -0.0630267263967 0.792 2.15491888039e-38
0.0190545917013 -0.0630267263967 0.792 2.02599087375e-38
0.0205203295245 -0.0630267263967 0.792 2.16421425362e-38
0.0219860673477 -0.0630267263967 0.792 2.15488496896e-38
0.0234518051709 -0.0630267263967 0.792 2.12733277869e-38
0.0249804660824 -0.0631858847967 0.794 2.21020066532e-38
0.0264499052637 -0.0631858847967 0.794 2.19169119417e-38
0.0279193444451 -0.0631858847967 0.794 2.23796725426e-38
0.0293147564636 -0.0630267263967 0.792 2.13637409651e-38
0.0307804942868 -0.0630267263967 0.792 2.18236443185e-38
0.0322462321099 -0.0630267263967 0.792 2.34842348468e-38
0.0337119699331 -0.0630267263967 0.792 2.14541611498e-38
0.0351777077563 -0.0630267263967 0.792 2.19154924263e-38
0.0366434455795 -0.0630267263967 0.792 2.28370703744e-38
0.0381091834027 -0.0630267263967 0.792 2.33016288413e-38
0.0395749212258 -0.0630267263967 0.792 2.29310806858e-38
0.041040659049 -0.0630267263967 0.792 2.34802719747e-38
0.0427210756443 -0.0633450431967 0.796 2.29270883864e-38
0.0444162976721 -0.0636633599967 0.8 2.20030035154e-38
0.0458968409278 -0.0636633599967 0.8 2.0800102289e-38
0.0473773841836 -0.0636633599967 0.8 2.01464119697e-38
0.0490411446672 -0.0639020975967 0.803 1.95010523697e-38
0.0506530861369 -0.0640612559967 0.805 2.34712532178e-38
0.0524019778577 -0.0643795727966 0.809 2.34788636697e-38
0.0540324261181 -0.0645387311966 0.811 1.99653600042e-38
0.0559441775971 -0.0650162063966 0.817 2.25384396586e-38
0.0575968340063 -0.0651753647966 0.819 2.18041326387e-38
0.0591125401644 -0.0651753647966 0.819 2.34622358622e-38
0.0606282463224 -0.0651753647966 0.819 2.34723742566e-38
-0.00770807832518 -0.0647478579315 0.833 2.35036330214e-38
-0.00613685179503 -0.0644369438478 0.829 2.35036946785e-38
-0.00459153477185 -0.064281486806 0.827 2.16525569864e-38
-0.00306102318124 -0.064281486806 0.827 1.63696869993e-38
-0.00152681023248 -0.0641260297641 0.825 1.93246134788e-38
0.0 -0.0638151156804 0.821 1.96995519024e-38
0.00150830344178 -0.0633487445548 0.815 1.55438751896e-38
0.00300180145101 -0.0630378304711 0.811 1.71979903176e-38
0.00450270217651 -0.0630378304711 0.811 1.88603759092e-38
0.00595918660434 -0.0625714593456 0.805 1.76622012625e-38
0.00743047646473 -0.0624160023037 0.803 1.68306497343e-38
0.00890546768326 -0.0623382737828 0.802 1.74760079329e-38
0.0103638027902 -0.0621828167409 0.8 1.91362243145e-38
0.0118147351808 -0.0620273596991 0.798 1.95119362549e-38
0.0132915770784 -0.0620273596991 0.798 2.03456051451e-38
0.0147314053946 -0.0618719026572 0.796 2.09942143562e-38
0.016204545934 -0.0618719026572 0.796 2.14562687027e-38
0.0176776864735 -0.0618719026572 0.796 2.16417487713e-38
0.0191027093571 -0.0617164456154 0.794 1.99851071021e-38
0.0205721485385 -0.0617164456154 0.794 2.08127139752e-38
0.0220971080919 -0.0618719026572 0.796 2.17335842675e-38
0.0235702486313 -0.0618719026572 0.796 2.18247008975e-38
0.0250433891708 -0.0618719026572 0.796 2.09034676689e-38
0.0265165297102 -0.0618719026572 0.796 2.28392059532e-38
0.0279896702497 -0.0618719026572 0.796 2.17328513884e-38
0.0293887836264 -0.0617164456154 0.794 2.21935184494e-38
0.0308582228077 -0.0617164456154 0.794 2.24693612496e-38
0.032327661989 -0.0617164456154 0.794 2.24690165301e-38
0.0337971011703 -0.0617164456154 0.794 2.32062102249e-38
0.0352665403517 -0.0617164456154 0.794 2.26537609171e-38
0.036735979533 -0.0617164456154 0.794 2.34820782484e-38
0.0383016540259 -0.0618719026572 0.796 2.1362271003e-38
0.0397747945654 -0.0618719026572 0.796 2.17270682296e-38
0.0413515731327 -0.0620273596991 0.798 2.05245439525e-38
0.0430430938024 -0.0623382737828 0.802 2.34766384078e-38
0.0445273384163 -0.0623382737828 0.802 1.96951910615e-38
0.0460115830302 -0.0623382737828 0.802 1.94070644791e-38
0.0475550493743 -0.0624160023037 0.803 2.24476873662e-38
0.0491632894858 -0.0625714593456 0.805 2.29176646543e-38
0.0507789323136 -0.0627269163874 0.807 2.34799188475e-38
0.0526610729275 -0.063193287513 0.813 2.04270009677e-38
0.0542989239041 -0.0633487445548 0.815 2.1803396957e-38
0.0560811278482 -0.0636596586385 0.819 2.18941772754e-38
0.0575968340063 -0.0636596586385 0.819 2.21704306559e-38
0.0591125401644 -0.0636596586385 0.819 2.34676616898e-38
0.0606282463224 -0.0636596586385 0.819 2.34726587201e-38
-0.00770807832518 -0.0632062422665 0.833 2.35036904746e-38
-0.00615165722759 -0.0630544865828 0.831 2.35076309259e-38
-0.00460263884627 -0.062902730899 0.829 2.07327712991e-38
-0.00306102318124 -0.0627509752153 0.827 1.73809438451e-38
-0.00153051159062 -0.0627509752153 0.827 1.81267793476e-38
0.0 -0.0622957081642 0.821 1.82193407163e-38
0.00150830344178 -0.0618404411131 0.815 1.73902708877e-38
0.00300920416729 -0.0616886854293 0.813 1.66498471999e-38
0.00451380625093 -0.0616886854293 0.813 1.84905045809e-38
0.00600360290201 -0.0615369297456 0.811 1.92314047101e-38
0.00746749004612 -0.0612334183782 0.807 1.75718875765e-38
0.00893877990651 -0.0610816626945 0.805 1.80248685154e-38
0.0104026670506 -0.0609299070108 0.803 1.75646148374e-38
0.0118443460459 -0.0607022734852 0.8 1.8398308951e-38
0.0132915770784 -0.0605505178015 0.798 1.95078682854e-38
0.014768418976 -0.0605505178015 0.798 1.93263496876e-38
0.0162452608736 -0.0605505178015 0.798 1.95114892407e-38
0.0177221027712 -0.0605505178015 0.798 1.99743199066e-38
0.019150827013 -0.0603987621178 0.796 2.09909969749e-38
0.0206239675524 -0.0603987621178 0.796 2.13615689525e-38
0.0220971080919 -0.0603987621178 0.796 2.17285592112e-38
0.0235702486313 -0.0603987621178 0.796 2.19133190124e-38
0.0250433891708 -0.0603987621178 0.796 2.21913324238e-38
0.0265165297102 -0.0603987621178 0.796 2.24675493706e-38
0.0279896702497 -0.0603987621178 0.796 2.10846149227e-38
0.0294628107892 -0.0603987621178 0.796 2.26523063693e-38
0.0310136798495 -0.0605505178015 0.798 2.11768133551e-38
0.0324905217471 -0.0605505178015 0.798 2.19118196231e-38
0.0339673636447 -0.0605505178015 0.798 2.14493771168e-38
0.0354442055423 -0.0605505178015 0.798 2.16305664096e-38
0.0369210474399 -0.0605505178015 0.798 2.135293275e-38
0.0384941246492 -0.0607022734852 0.8 2.02472788344e-38
0.0400746045747 -0.0608540291689 0.802 2.0522030023e-38
0.0415588491885 -0.0608540291689 0.802 2.31961110669e-38
0.0430967634954 -0.0609299070108 0.803 2.29242465531e-38
0.0446938995326 -0.0610816626945 0.805 2.01550215474e-38
0.0461836961836 -0.0610816626945 0.805 2.07954303599e-38
0.0476734928347 -0.0610816626945 0.805 1.71086939743e-38
0.049407579123 -0.0613851740619 0.809 2.21797843232e-38
0.0510306246671 -0.0615369297456 0.811 2.12588621828e-38
0.0526610729275 -0.0616886854293 0.813 2.34744832107e-38
0.0544321727972 -0.0619921967968 0.817 2.07079010539e-38
0.0560811278482 -0.0621439524805 0.819 2.25391571235e-38
0.0577374856156 -0.0622957081642 0.821 2.25416850659e-38
0.0592568931318 -0.0622957081642 0.821 2.34687126637e-38
0.060776300648 -0.0622957081642 0.821 2.05148301515e-38
-0.00616646266014 -0.0616646266014 0.833 2.35047932965e-38
-0.00460263884627 -0.0613685179503 0.829 2.18387629276e-38
-0.00306842589751 -0.0613685179503 0.829 1.73798676479e-38
-0.00153051159062 -0.0612204636247 0.827 1.87721333423e-38
0.0 -0.0610724092991 0.825 1.74792813662e-38
0.0015194075162 -0.060776300648 0.821 1.76640033323e-38
0.00301660688356 -0.0603321376713 0.815 1.72012301197e-38
0.00451380625093 -0.0601840833457 0.813 1.64615126863e-38
0.00601840833457 -0.0601840833457 0.813 1.73820200423e-38
0.00748599683682 -0.0598879746946 0.809 1.85873609294e-38
0.00898319620418 -0.0598879746946 0.809 1.77507969566e-38
0.0104544860646 -0.059739920369 0.807 1.79319568221e-38
0.0118887623436 -0.0594438117178 0.803 1.82078220429e-38
0.0133582015249 -0.059369784555 0.802 1.86705868478e-38
0.0148054325574 -0.0592217302295 0.8 1.82132072329e-38
0.0162859758131 -0.0592217302295 0.8 1.82117680994e-38
0.0177221027712 -0.0590736759039 0.798 1.89489631955e-38
0.0191989446688 -0.0590736759039 0.798 2.03372576101e-38
0.0206757865664 -0.0590736759039 0.798 2.06141990282e-38
0.022152628464 -0.0590736759039 0.798 2.0429467253e-38
0.0236294703616 -0.0590736759039 0.798 2.0243666287e-38
0.0251063122592 -0.0590736759039 0.798 1.9783426622e-38
0.0265831541568 -0.0590736759039 0.798 1.95057453183e-38
0.0280599960544 -0.0590736759039 0.798 1.95075459868e-38
0.0295368379519 -0.0590736759039 0.798 2.01514524402e-38
0.0310136798495 -0.0590736759039 0.798 1.91372977091e-38
0.0324905217471 -0.0590736759039 0.798 2.09830642243e-38
0.0340524948819 -0.0592217302295 0.8 2.14447682462e-38
0.0355330381377 -0.0592217302295 0.8 2.19961189361e-38
0.0371061153469 -0.059369784555 0.802 2.08930560213e-38
0.0386384776166 -0.0594438117178 0.803 1.71104596103e-38
0.0401245729095 -0.0594438117178 0.803 1.46194540069e-38
0.0417143062304 -0.0595918660434 0.805 1.81196439358e-38
0.0432041028815 -0.0595918660434 0.805 1.341408089e-38
0.0448049402767 -0.059739920369 0.807 1.59901383037e-38
0.046298438286 -0.059739920369 0.807 1.38750520328e-38
0.0479103797556 -0.0598879746946 0.809 1.33276263799e-38
0.0496518687602 -0.0601840833457 0.813 1.75649735698e-38
0.0511564708438 -0.0601840833457 0.813 1.91330629852e-38
0.0530497155321 -0.0606282463224 0.819 1.31400093311e-38
0.0546986705832 -0.060776300648 0.821 1.72711717286e-38
0.0562180780994 -0.060776300648 0.821 2.2172599866e-38
0.0578781372249 -0.0609243549736 0.823 2.25427682696e-38
0.0598343050015 -0.0613685179503 0.829 2.16225958239e-38
0.0613685179503 -0.0613685179503 0.829 2.1061897072e-38
-0.00615165722759 -0.059978657969 0.831 2.35040534109e-38
-0.00461374292069 -0.059978657969 0.831 2.34982856665e-38
-0.00306842589751 -0.0598343050015 0.829 1.6456849165e-38
-0.00153421294876 -0.0598343050015 0.829 1.71104596103e-38
0.0 -0.0596899520341 0.827 1.80317250688e-38
0.00152310887434 -0.0594012460992 0.823 1.83086566778e-38
0.00303141231612 -0.0591125401644 0.819 1.79366273498e-38
0.00453601439976 -0.0589681871969 0.817 1.83990278171e-38
0.00603321376713 -0.0588238342295 0.815 1.68306497343e-38
0.00750450362752 -0.0585351282946 0.811 1.85834162742e-38
0.00900540435302 -0.0585351282946 0.811 1.7383454972e-38
0.0104803955715 -0.0583907753272 0.809 1.79330330193e-38
0.0119479840738 -0.0582464223598 0.807 1.78419149879e-38
0.0134081698598 -0.0581020693923 0.805 1.83943628945e-38
0.0148609529295 -0.0579577164249 0.803 1.84865571231e-38
0.0163266907526 -0.0578855399412 0.802 1.82092569726e-38
0.0177665190688 -0.0577411869737 0.8 1.83914930353e-38
0.0192470623246 -0.0577411869737 0.8 1.9775482661e-38
0.0206757865664 -0.0575968340063 0.798 1.90379288324e-38
0.022152628464 -0.0575968340063 0.798 1.99595123857e-38
