# .PCD v0.7 - Point Cloud Data file format
VERSION 0.7
FIELDS x y z rgb
SIZE 4 4 4 4
TYPE F F F F
COUNT 1 1 1 1
WIDTH 858
HEIGHT 1
VIEWPOINT 0 0 0 1 0 0 0
POINTS 858
DATA ascii
0.00902761250186 -0.123377370859 0.813 1.70359749918e-38
0.0105322145855 -0.123377370859 0.813 1.66689763253e-38
0.0120368166691 -0.123377370859 0.813 1.66693420642e-38
0.0136080431993 -0.123984393594 0.817 1.64842263331e-38
0.015194075162 -0.124591416328 0.821 1.60232285656e-38
0.0167134826782 -0.124591416328 0.821 1.62994791436e-38
0.0182328901944 -0.124591416328 0.821 1.52856887501e-38
0.0198004153664 -0.124894927696 0.823 1.56541097345e-38
0.0214271622687 -0.125501950431 0.827 1.63009168758e-38
0.0229021534872 -0.125198439063 0.825 1.51031093693e-38
0.0244289637197 -0.125198439063 0.825 1.46428346718e-38
0.0259557739521 -0.125198439063 0.825 1.43644555215e-38
0.0274825841846 -0.125198439063 0.825 1.48247106008e-38
0.0290093944171 -0.125198439063 0.825 1.43655247122e-38
0.0305362046496 -0.125198439063 0.825 1.41818565225e-38
0.0320630148821 -0.125198439063 0.825 1.43683959728e-38
0.0335898251145 -0.125198439063 0.825 1.36286855459e-38
0.035116635347 -0.125198439063 0.825 1.40867952373e-38
0.0366434455795 -0.125198439063 0.825 1.36272590241e-38
0.0380777218585 -0.124894927696 0.823 1.40882567916e-38
0.039312124798 -0.123984393594 0.817 1.35372115847e-38
0.0407241929281 -0.123680882226 0.815 1.36272562215e-38
0.0422324963699 -0.123680882226 0.815 1.35346920501e-38
0.0436334604256 -0.123377370859 0.813 1.25241484652e-38
0.0450270217651 -0.123073859491 0.811 1.28918393731e-38
0.0465279224906 -0.123073859491 0.811 1.19677516995e-38
0.0480288232161 -0.123073859491 0.811 1.41797237462e-38
0.049407579123 -0.122770348124 0.809 1.39970995239e-38
0.0507789323136 -0.122466836756 0.807 1.43640799735e-38
0.0522724303229 -0.122466836756 0.807 1.35346780371e-38
0.0536326794391 -0.122163325389 0.805 1.04018188825e-38
0.0549170507134 -0.121708058338 0.802 1.02192801393e-38
0.0561199921087 -0.121101035603 0.798 1.1326338156e-38
0.0575968340063 -0.121101035603 0.798 1.36276289669e-38
0.0587775672528 -0.120494012868 0.794 1.31680829446e-38
0.0602470064341 -0.120494012868 0.794 8.8359743473e-39
0.0 -0.120673528738 0.805 1.72225158433e-38
0.00148979665109 -0.120673528738 0.805 1.76820114189e-38
0.00300180145101 -0.121572958766 0.811 1.70348637621e-38
0.00450270217651 -0.121572958766 0.811 1.8051182098e-38
0.00601840833457 -0.121872768775 0.813 1.68529892344e-38
0.00754151720891 -0.122172578784 0.815 1.70381063667e-38
0.00904982065069 -0.122172578784 0.815 1.57473871668e-38
0.0105840335994 -0.122472388794 0.817 1.6576421963e-38
0.0120960383994 -0.122472388794 0.817 1.63920307033e-38
0.0137079798691 -0.123371818821 0.823 1.61165003927e-38
0.0152681023248 -0.123671628831 0.825 1.61168703355e-38
0.0168356274968 -0.12397143884 0.827 1.50083900009e-38
0.0183661390874 -0.12397143884 0.827 1.56526762062e-38
0.019896650678 -0.12397143884 0.827 1.50108969238e-38
0.0214789812826 -0.124271248849 0.829 1.45513256782e-38
0.0229576738593 -0.12397143884 0.827 1.47350331043e-38
0.0244881854499 -0.12397143884 0.827 1.49201306184e-38
0.0260816201289 -0.124271248849 0.829 1.38137998756e-38
0.0276158330776 -0.124271248849 0.829 1.53775452657e-38
0.0291500460264 -0.124271248849 0.829 1.44580734693e-38
0.0306102318124 -0.12397143884 0.827 1.35361395914e-38
0.032140743403 -0.12397143884 0.827 1.399781839e-38
0.0336712549936 -0.12397143884 0.827 1.47353862315e-38
0.0352868978214 -0.124271248849 0.829 1.36272800435e-38
0.0368211107702 -0.124271248849 0.829 1.36265373554e-38
0.0383553237189 -0.124271248849 0.829 1.30733789905e-38
0.0398895366677 -0.124271248849 0.829 1.32584779059e-38
0.0413238129467 -0.12397143884 0.827 1.3903120041e-38
0.0427506865094 -0.123671628831 0.825 1.30740796397e-38
0.0437407998117 -0.122172578784 0.815 1.27085271132e-38
0.0452491032535 -0.122172578784 0.815 1.2431937421e-38
0.0466426645929 -0.121872768775 0.813 1.27971242086e-38
0.0481472666766 -0.121872768775 0.813 1.27971242086e-38
0.0495297239416 -0.121572958766 0.811 1.49165306827e-38
0.0509047784904 -0.121273148756 0.809 1.36279820941e-38
0.0522724303229 -0.120973338747 0.807 1.35357584382e-38
0.0536326794391 -0.120673528738 0.805 1.03096779033e-38
0.0549170507134 -0.120223813724 0.802 9.66825875461e-39
0.0561199921087 -0.119624193705 0.798 9.48455132853e-39
0.0575968340063 -0.119624193705 0.798 1.39056633978e-38
0.0587775672528 -0.119024573687 0.794 1.30773040275e-38
0.0602470064341 -0.119024573687 0.794 1.12323250421e-38
0.0618719026572 -0.119324383696 0.796 1.29764441692e-38
0.0633450431967 -0.119324383696 0.796 2.34953807747e-38
-0.00296848922775 -0.11873956911 0.802 1.44509002224e-38
-0.00148424461388 -0.11873956911 0.802 1.52806819107e-38
0.0 -0.119183732087 0.805 1.83288395796e-38
0.00149349800922 -0.119479840738 0.807 1.64845668487e-38
0.00300920416729 -0.120368166691 0.813 1.72192732387e-38
0.00451380625093 -0.120368166691 0.813 1.67597216112e-38
0.00603321376713 -0.120664275343 0.815 1.71303019966e-38
0.00756002399961 -0.120960383994 0.817 1.62090841823e-38
0.00909423694836 -0.121256492645 0.819 1.63931097031e-38
0.0106099431064 -0.121256492645 0.819 1.55629987097e-38
0.0121848709947 -0.121848709947 0.823 1.5747740294e-38
0.0137746043156 -0.122440927249 0.827 1.61165200109e-38
0.0153051159062 -0.122440927249 0.827 1.51013171086e-38
0.0168763424363 -0.122737035901 0.829 1.67604628981e-38
0.0184105553851 -0.122737035901 0.829 1.51967091002e-38
0.0199447683338 -0.122737035901 0.829 1.43662856173e-38
0.0214789812826 -0.122737035901 0.829 1.49204557197e-38
0.0230131942314 -0.122737035901 0.829 1.46453359896e-38
0.0245474071801 -0.122737035901 0.829 1.45506390419e-38
0.0260816201289 -0.122737035901 0.829 1.51034302666e-38
0.0276158330776 -0.122737035901 0.829 1.39956687981e-38
0.0291500460264 -0.122737035901 0.829 1.41811152356e-38
0.0306842589751 -0.122737035901 0.829 1.36290414757e-38
0.0322184719239 -0.122737035901 0.829 1.36290414757e-38
0.0337526848727 -0.122737035901 0.829 1.399781839e-38
0.0352868978214 -0.122737035901 0.829 1.30755075628e-38
0.0368211107702 -0.122737035901 0.829 1.42744052796e-38
0.0383553237189 -0.122737035901 0.829 1.35372115847e-38
0.0398895366677 -0.122737035901 0.829 1.28003710171e-38
0.0414237496164 -0.122737035901 0.829 1.27060412097e-38
0.0428543245373 -0.122440927249 0.827 1.25205611411e-38
0.0442774967419 -0.122144818598 0.825 1.30755313849e-38
0.0456932662302 -0.121848709947 0.823 1.23372600916e-38
0.0471016330022 -0.121552601296 0.821 1.23358139516e-38
0.0485025970579 -0.121256492645 0.819 1.19677152657e-38
0.0497740135788 -0.120664275343 0.815 1.45477831957e-38
0.0511564708438 -0.120368166691 0.813 1.28900232903e-38
0.0524019778577 -0.119775949389 0.809 1.3075151633e-38
0.0537659283321 -0.119479840738 0.807 1.02200032094e-38
0.0551224760902 -0.119183732087 0.805 1.04054706663e-38
0.0564012953273 -0.11873956911 0.802 1.01295830246e-38
0.0577411869737 -0.118443460459 0.8 9.75975093264e-39
0.0589256215783 -0.117851243157 0.796 1.31691339184e-38
0.0603987621178 -0.117851243157 0.796 1.31673346512e-38
0.0618719026572 -0.117851243157 0.796 8.74051509332e-39
0.0633450431967 -0.117851243157 0.796 2.12694349797e-38
0.0648181837362 -0.117851243157 0.796 2.34929088843e-38
-0.00738420948799 -0.11667050991 0.798 2.14522637917e-38
-0.00590736759039 -0.11667050991 0.798 2.23770941535e-38
-0.00444162976721 -0.116962917203 0.8 1.39934967855e-38
-0.00296848922775 -0.117255324496 0.802 1.31641116647e-38
-0.00148424461388 -0.117255324496 0.802 1.78603686874e-38
0.0 -0.117693935436 0.805 1.65756792748e-38
0.0015009007255 -0.118571157315 0.811 1.76827667188e-38
0.00302400959984 -0.119448379194 0.817 1.6668623198e-38
0.00453601439976 -0.119448379194 0.817 1.67604685033e-38
0.00604801919968 -0.119448379194 0.817 1.5655191537e-38
0.0075785307903 -0.119740786487 0.819 1.61161668837e-38
0.0091164450972 -0.12003319378 0.821 1.53789563733e-38
0.0106617621204 -0.120325601073 0.823 1.54697282839e-38
0.0122440927249 -0.120910415659 0.827 1.54697282839e-38
0.0137746043156 -0.120910415659 0.827 1.51952881836e-38
0.0153421294876 -0.121202822952 0.829 1.46406822774e-38
0.0168763424363 -0.121202822952 0.829 1.35350605916e-38
0.0184105553851 -0.121202822952 0.829 1.46421186083e-38
0.0199928859897 -0.121495230245 0.831 1.41815090005e-38
0.0215308002966 -0.121495230245 0.831 1.39981869315e-38
0.0230687146034 -0.121495230245 0.831 1.41822278666e-38
0.0246066289103 -0.121495230245 0.831 1.3812017424e-38
0.0261445432172 -0.121495230245 0.831 1.50104457057e-38
0.0276824575241 -0.121495230245 0.831 1.3536114368e-38
0.0291500460264 -0.121202822952 0.829 1.39956687981e-38
0.0306842589751 -0.121202822952 0.829 1.34435936369e-38
0.0322184719239 -0.121202822952 0.829 1.32602505485e-38
0.0338341147517 -0.121495230245 0.831 1.38127208758e-38
0.0353720290586 -0.121495230245 0.831 1.31669843266e-38
0.0369099433655 -0.121495230245 0.831 1.3168080142e-38
0.0384478576724 -0.121495230245 0.831 1.30751782577e-38
0.0399857719793 -0.121495230245 0.831 1.25223604083e-38
0.0415236862862 -0.121495230245 0.831 1.28010926859e-38
0.0430616005931 -0.121495230245 0.831 1.31695024599e-38
0.0443848361279 -0.120910415659 0.827 1.23376132188e-38
0.0459153477185 -0.120910415659 0.827 1.20617493992e-38
0.0472163751045 -0.120325601073 0.823 1.19695551706e-38
0.0486210405184 -0.12003319378 0.821 1.21528674305e-38
0.0498961583974 -0.119448379194 0.817 1.25216569565e-38
0.0512823170206 -0.119155971901 0.815 1.37190987241e-38
0.0525315253926 -0.118571157315 0.811 1.33502937839e-38
0.0538991772251 -0.118278750022 0.809 1.05873339836e-38
0.0551224760902 -0.117693935436 0.805 9.85265281693e-39
0.0564716211319 -0.117401528143 0.803 1.0219977986e-38
0.0579577164249 -0.117401528143 0.803 9.48315703656e-39
0.0594438117178 -0.117401528143 0.803 1.36290582913e-38
0.0609299070108 -0.117401528143 0.803 1.30758578874e-38
-0.00886105138558 -0.115193668013 0.798 1.58338192561e-38
-0.00738420948799 -0.115193668013 0.798 2.3484104526e-38
-0.00590736759039 -0.115193668013 0.798 1.63880299961e-38
-0.00444162976721 -0.115482373947 0.8 1.39942464802e-38
-0.00296108651147 -0.115482373947 0.8 1.27049664138e-38
-0.00148054325574 -0.115482373947 0.8 1.82341482372e-38
0.0 -0.116204138785 0.805 1.6667876306e-38
0.0015009007255 -0.117070256589 0.811 1.72221444992e-38
0.00302400959984 -0.117936374394 0.817 1.60229006618e-38
0.00454711847418 -0.118225080329 0.819 1.5470433137e-38
0.00606282463224 -0.118225080329 0.819 1.59310525539e-38
0.007597037581 -0.118513786264 0.821 1.56555418616e-38
0.00913865324604 -0.118802492198 0.823 1.58395449616e-38
0.0106876716274 -0.119091198133 0.825 1.54700940228e-38
0.0122440927249 -0.119379904068 0.827 1.48261469317e-38
0.0137746043156 -0.119379904068 0.827 1.50126933885e-38
0.0153421294876 -0.119668610003 0.829 1.51041617444e-38
0.0168763424363 -0.119668610003 0.829 1.44580762719e-38
0.0184549716828 -0.119957315938 0.831 1.45491900993e-38
0.0199928859897 -0.119957315938 0.831 1.49197746886e-38
0.0215308002966 -0.119957315938 0.831 1.41818719368e-38
0.0231242349755 -0.120246021873 0.833 1.34443125031e-38
0.0246658506406 -0.120246021873 0.833 1.39031438631e-38
0.0262074663056 -0.120246021873 0.833 1.42726102162e-38
0.0276824575241 -0.119957315938 0.831 1.39042130539e-38
0.029220371831 -0.119957315938 0.831 1.35354109162e-38
0.0307582861379 -0.119957315938 0.831 1.34453662795e-38
0.0322962004448 -0.119957315938 0.831 1.36294058133e-38
0.0339155446308 -0.120246021873 0.833 1.27985717499e-38
0.0354571602958 -0.120246021873 0.833 1.3441044675e-38
0.0369987759609 -0.120246021873 0.833 1.29818868124e-38
0.0385403916259 -0.120246021873 0.833 1.33495749178e-38
0.0400820072909 -0.120246021873 0.833 1.27063789227e-38
0.041623622956 -0.120246021873 0.833 1.29836860797e-38
0.0430616005931 -0.119957315938 0.831 1.2338313868e-38
0.044492175514 -0.119668610003 0.829 1.24290843773e-38
0.0460263884627 -0.119668610003 0.829 1.19692020434e-38
0.0473311172068 -0.119091198133 0.825 1.21543009589e-38
0.0487394839789 -0.118802492198 0.823 1.21528520163e-38
0.0501404480346 -0.118513786264 0.821 1.18780629926e-38
0.0515340093741 -0.118225080329 0.819 1.29815364878e-38
0.0527906204624 -0.117647668459 0.815 1.26134770384e-38
0.0541656750111 -0.117358962524 0.813 1.04018735331e-38
0.0551224760902 -0.116204138785 0.805 1.00363308157e-38
0.0564716211319 -0.11591543285 0.803 9.85265001434e-39
0.0579577164249 -0.11591543285 0.803 9.5739107303e-39
0.0594438117178 -0.11591543285 0.803 1.19713698521e-38
0.0605505178015 -0.115193668013 0.798 1.33535181717e-38
0.0620273596991 -0.115193668013 0.798 1.20606381695e-38
-0.00883884323675 -0.113431821538 0.796 1.44454729935e-38
-0.00736570269729 -0.113431821538 0.796 2.34882369552e-38
-0.00589256215783 -0.113431821538 0.796 1.40734338564e-38
-0.00443052569279 -0.113716826115 0.798 1.44555567372e-38
-0.00296108651147 -0.114001830692 0.8 1.52875160433e-38
-0.00148054325574 -0.114001830692 0.8 1.61172262653e-38
0.0 -0.11585436044 0.813 1.62983987425e-38
0.00150460208364 -0.11585436044 0.813 1.58374346061e-38
0.0030388150324 -0.116994378747 0.821 1.60232509864e-38
0.0045582225486 -0.116994378747 0.821 1.61168703355e-38
0.00609243549736 -0.117279383324 0.823 1.55658503521e-38
0.00763405116239 -0.117564387901 0.825 1.49183425616e-38
0.00916086139487 -0.117564387901 0.825 1.51960112536e-38
0.0107135811343 -0.117849392478 0.827 1.50108941212e-38
0.0122737035901 -0.118134397054 0.829 1.46410382072e-38
0.0138079165388 -0.118134397054 0.829 1.40893077654e-38
0.015379143069 -0.118419401631 0.831 1.41825781912e-38
0.0169170573759 -0.118419401631 0.831 1.41804300006e-38
0.0184993879804 -0.118704406208 0.833 1.37194546539e-38
0.0200891213013 -0.118989410784 0.835 1.39945940022e-38
0.0216344383245 -0.118989410784 0.835 1.40871203385e-38
0.0231797553476 -0.118989410784 0.835 1.36272590241e-38
0.0247250723708 -0.118989410784 0.835 1.38116474812e-38
0.026270389394 -0.118989410784 0.835 1.35353955019e-38
0.0278823308637 -0.119274415361 0.837 1.36276093487e-38
0.0293610234403 -0.118989410784 0.835 1.31669843266e-38
0.0309063404635 -0.118989410784 0.835 1.39960037085e-38
0.0325293860076 -0.119274415361 0.837 1.33528147198e-38
0.0340784043889 -0.119274415361 0.837 1.31687863964e-38
0.0356274227702 -0.119274415361 0.837 1.28889877307e-38
0.0370876085562 -0.118989410784 0.835 1.46410648318e-38
0.0386329255794 -0.118989410784 0.835 1.27060412097e-38
0.0401782426026 -0.118989410784 0.835 1.27056726682e-38
0.0417235596257 -0.118989410784 0.835 1.26145336174e-38
0.043165238621 -0.118704406208 0.833 1.27063607058e-38
0.044706854286 -0.118704406208 0.833 1.23375683772e-38
0.0460263884627 -0.118134397054 0.829 1.20610193227e-38
0.0474458593092 -0.117849392478 0.827 1.2152498889e-38
0.0488579274393 -0.117564387901 0.825 1.20603032592e-38
0.0502625928532 -0.117279383324 0.823 1.22464699641e-38
0.0516598555508 -0.116994378747 0.821 1.19695551706e-38
0.0530497155321 -0.116709374171 0.819 1.25245015924e-38
0.0544321727972 -0.116424369594 0.817 1.04040245263e-38
0.0551224760902 -0.114714342134 0.805 9.57570999753e-39
0.0566122727412 -0.114714342134 0.805 9.57713231547e-39
0.0578855399412 -0.114286835268 0.802 1.01274348341e-38
0.0590736759039 -0.113716826115 0.798 1.04973159715e-38
0.0605505178015 -0.113716826115 0.798 1.33535153691e-38
0.0620273596991 -0.113716826115 0.798 1.30729880282e-38
-0.00883884323675 -0.111958680999 0.796 1.6836756593e-38
-0.00736570269729 -0.111958680999 0.796 2.35097118541e-38
-0.00589256215783 -0.111958680999 0.796 1.09341637613e-38
-0.00443052569279 -0.112239984217 0.798 1.35325242414e-38
-0.00295368379519 -0.112239984217 0.798 1.50094746059e-38
-0.00148054325574 -0.112521287436 0.8 1.60268256988e-38
0.0 -0.114631061575 0.815 1.55629987097e-38
0.00150830344178 -0.114631061575 0.815 1.54708030798e-38
0.0030388150324 -0.115474971231 0.821 1.51034624965e-38
0.00456932662302 -0.11575627445 0.823 1.51949392603e-38
0.00610724092991 -0.116037577668 0.825 1.51931371904e-38
0.00765255795309 -0.116318880887 0.827 1.51030925537e-38
0.00920527769254 -0.116600184106 0.829 1.42729787577e-38
0.0107394906413 -0.116600184106 0.829 1.45484866475e-38
0.0123033144552 -0.116881487324 0.831 1.47303485635e-38
0.0138412287621 -0.116881487324 0.831 1.45491900993e-38
0.015379143069 -0.116881487324 0.831 1.48264972563e-38
0.0169577723154 -0.117162790543 0.833 1.35368430432e-38
0.0185438042781 -0.117444093761 0.835 1.36290414757e-38
0.0200891213013 -0.117444093761 0.835 1.39963932694e-38
0.0216862573384 -0.11772539698 0.837 1.33517483317e-38
0.0232352757197 -0.11772539698 0.837 1.34436090512e-38
0.024784294101 -0.11772539698 0.837 1.30751782577e-38
0.0263333124823 -0.11772539698 0.837 1.3168080142e-38
0.0279489553102 -0.118006700199 0.839 1.32584961228e-38
0.0295016750496 -0.118006700199 0.839 1.41818621277e-38
0.0310543947891 -0.118006700199 0.839 1.3535057789e-38
0.0326071145285 -0.118006700199 0.839 1.32591841603e-38
0.034159834268 -0.118006700199 0.839 1.29829826278e-38
0.0357125540074 -0.118006700199 0.839 1.41808223642e-38
0.0371764411516 -0.11772539698 0.837 1.24298088486e-38
0.0387254595329 -0.11772539698 0.837 1.27989276797e-38
0.0402744779142 -0.11772539698 0.837 1.26141636746e-38
0.0418234962955 -0.11772539698 0.837 1.26145336174e-38
0.0432688766489 -0.117444093761 0.835 1.28903918318e-38
0.044706854286 -0.117162790543 0.833 1.24294164851e-38
0.0462484699511 -0.117162790543 0.833 1.20610249279e-38
0.0475606014115 -0.116600184106 0.829 1.20603004566e-38
0.0489763708998 -0.116318880887 0.827 1.18770064136e-38
0.0503847376718 -0.116037577668 0.825 1.14174519835e-38
0.0517857017275 -0.11575627445 0.823 1.16007698486e-38
0.053179263067 -0.115474971231 0.821 1.14174379705e-38
0.0545654216902 -0.115193668013 0.819 9.66716293921e-39
0.0551224760902 -0.113224545482 0.805 9.30055103108e-39
0.0566122727412 -0.113224545482 0.805 9.66930972846e-39
0.0578855399412 -0.112802590655 0.802 9.85300033895e-39
0.0590736759039 -0.112239984217 0.798 9.76080470909e-39
0.0605505178015 -0.112239984217 0.798 1.34450131523e-38
0.0620273596991 -0.112239984217 0.798 1.30729908308e-38
0.0635042015967 -0.112239984217 0.798 7.63526054776e-39
0.0644924642199 -0.111396074562 0.792 2.24711493064e-38
-0.00736570269729 -0.110485540459 0.796 2.35097496892e-38
-0.00589256215783 -0.110485540459 0.796 7.80889263788e-39
-0.00441942161837 -0.110485540459 0.796 1.44562756033e-38
-0.00295368379519 -0.11076314232 0.798 1.48257994097e-38
-0.00148054325574 -0.11104074418 0.8 1.54729512704e-38
0.0 -0.113677961855 0.819 1.53778815774e-38
0.00151570615806 -0.113677961855 0.819 1.52856859475e-38
0.0030388150324 -0.113955563715 0.821 1.52874880173e-38
0.00458043069744 -0.114510767436 0.825 1.39045493655e-38
0.00612204636247 -0.114788369296 0.827 1.51917120699e-38
0.00767106474379 -0.115065971157 0.829 1.54700772072e-38
0.00922748584138 -0.115343573017 0.831 1.45495670486e-38
0.0107654001483 -0.115343573017 0.831 1.39946094165e-38
0.0123329253203 -0.115621174878 0.833 1.43637520696e-38
0.0138745409853 -0.115621174878 0.833 1.4271909567e-38
0.0154531702318 -0.115898776738 0.835 1.39031466657e-38
0.0169984872549 -0.115898776738 0.835 1.36286883485e-38
0.0185882205758 -0.116176378599 0.837 1.31684066445e-38
0.0201372389571 -0.116176378599 0.837 1.38119978058e-38
0.0217380763524 -0.116453980459 0.839 1.31687863964e-38
0.0232907960918 -0.116453980459 0.839 1.30758971238e-38
0.0248435158313 -0.116453980459 0.839 1.28911331187e-38
0.0263962355707 -0.116453980459 0.839 1.30751782577e-38
0.0280155797567 -0.11673158232 0.841 1.37198021759e-38
0.0295720008543 -0.11673158232 0.841 1.36269058968e-38
0.0311284219519 -0.11673158232 0.841 1.3811294354e-38
0.0326848430495 -0.11673158232 0.841 1.28914890485e-38
0.0342412641471 -0.11673158232 0.841 1.27989248771e-38
0.0357976852446 -0.11673158232 0.841 1.24294318994e-38
0.0373541063422 -0.11673158232 0.841 1.30733383528e-38
0.0389105274398 -0.11673158232 0.841 1.2061006711e-38
0.0403707132258 -0.116453980459 0.839 1.29833511693e-38
0.0418234962955 -0.116176378599 0.837 1.18784105146e-38
0.0433725146768 -0.116176378599 0.837 1.19702586225e-38
0.0448141936721 -0.115898776738 0.835 1.17844128149e-38
0.0463595106953 -0.115898776738 0.835 1.22447001241e-38
0.0477900856161 -0.115621174878 0.833 1.17847687447e-38
0.0490948143602 -0.115065971157 0.829 1.23375585681e-38
0.0505068824904 -0.114788369296 0.827 1.14160030409e-38
0.0519115479043 -0.114510767436 0.825 1.18780573874e-38
0.0533088106019 -0.114233165575 0.823 1.05894891806e-38
0.0546986705832 -0.113955563715 0.821 1.0496923608e-38
0.0560811278482 -0.113677961855 0.819 9.66825875461e-39
0.057456182397 -0.113400359994 0.817 1.00366657261e-38
0.0585351282946 -0.112567554413 0.811 1.02214325338e-38
0.0600360290201 -0.112567554413 0.811 9.94341351717e-39
0.0615369297456 -0.112567554413 0.811 1.30748251305e-38
0.0615609885735 -0.109930336738 0.792 1.35357640434e-38
-0.00734719590659 -0.108738499418 0.794 2.24959046451e-38
-0.00587775672528 -0.108738499418 0.794 1.18568683533e-38
-0.00441942161837 -0.10901239992 0.796 1.40874958865e-38
-0.00295368379519 -0.109286300422 0.798 1.59299987775e-38
-0.00151200479992 -0.111888355194 0.817 1.54725981432e-38
0.0 -0.112162255696 0.819 1.53778815774e-38
0.00151570615806 -0.112162255696 0.819 1.51924155217e-38
0.00304621774868 -0.112710056701 0.823 1.39938905504e-38
0.00459153477185 -0.113257857706 0.827 1.47318087165e-38
0.00613685179503 -0.113531758208 0.829 1.46385158699e-38
0.00768957153448 -0.11380565871 0.831 1.47300136532e-38
0.00924969399022 -0.114079559213 0.833 1.46403319527e-38
0.0108172191622 -0.114353459715 0.835 1.39957080345e-38
0.0123625361854 -0.114353459715 0.835 1.41800740708e-38
0.0139078532086 -0.114353459715 0.835 1.38123537356e-38
0.0154901838131 -0.114627360217 0.837 1.32591939694e-38
0.017079917134 -0.11490126072 0.839 1.37216042458e-38
0.0186326368734 -0.11490126072 0.839 1.36294086159e-38
0.0202334742687 -0.115175161222 0.841 1.3443603446e-38
0.0218417143803 -0.115449061724 0.843 1.33499434593e-38
0.023401836836 -0.115449061724 0.843 1.28914862459e-38
0.0249027375615 -0.115175161222 0.841 1.27070641576e-38
0.0264591586591 -0.115175161222 0.841 1.32613505678e-38
0.0280822042032 -0.115449061724 0.843 1.52878355393e-38
0.0296423266589 -0.115449061724 0.843 1.6299114806e-38
0.0312024491147 -0.115449061724 0.843 1.24269151673e-38
0.0328403000913 -0.115722962227 0.845 1.23386697978e-38
0.0344041239052 -0.115722962227 0.845 1.24308261913e-38
0.0358828164819 -0.115449061724 0.843 1.24308626251e-38
0.0374429389376 -0.115449061724 0.843 1.27056544513e-38
0.0390030613933 -0.115449061724 0.843 1.25202122178e-38
0.040563183849 -0.115449061724 0.843 1.23369125695e-38
0.042023369635 -0.115175161222 0.841 1.23386824095e-38
0.0434761527047 -0.11490126072 0.839 1.21546849146e-38
0.0449215330581 -0.114627360217 0.837 1.21546540861e-38
0.0464705514394 -0.114627360217 0.837 1.18780475783e-38
0.0479048277184 -0.114353459715 0.835 1.16025523002e-38
0.0493317012812 -0.114079559213 0.833 1.2246122442e-38
0.050629027309 -0.113531758208 0.829 1.10476212928e-38
0.0519115479043 -0.112983957203 0.825 1.13230913475e-38
0.0533088106019 -0.112710056701 0.823 1.13245332836e-38
0.0546986705832 -0.112436156199 0.821 1.08631823889e-38
0.0562180780994 -0.112436156199 0.821 1.04969264106e-38
0.0575968340063 -0.112162255696 0.819 1.11390700306e-38
0.0589681871969 -0.111888355194 0.817 1.09571955029e-38
0.0604801919968 -0.111888355194 0.817 1.04047447937e-38
0.0619921967968 -0.111888355194 0.817 1.47343478693e-38
0.0615609885735 -0.108464598915 0.792 1.24305151031e-38
0.0630267263967 -0.108464598915 0.792 7.63382561813e-39
0.0644924642199 -0.108464598915 0.792 2.12733389973e-38
-0.0103119837762 -0.10753925938 0.796 1.84210254004e-38
-0.00883884323675 -0.10753925938 0.796 2.34870808839e-38
-0.00734719590659 -0.107269060236 0.794 2.29551521908e-38
-0.00587775672528 -0.107269060236 0.794 1.27766190082e-38
-0.00440831754396 -0.107269060236 0.794 1.4271158471e-38
-0.00293887836264 -0.107269060236 0.794 1.53757459985e-38
-0.00151570615806 -0.110646549538 0.819 1.58414184977e-38
0.0 -0.110916748683 0.821 1.39978310017e-38
0.0015194075162 -0.110916748683 0.821 1.5471869468e-38
0.00306102318124 -0.111727346115 0.827 1.49176264981e-38
0.00460263884627 -0.111997545259 0.829 1.44555721515e-38
0.00616646266014 -0.112537943548 0.833 1.4822209283e-38
0.00770807832518 -0.112537943548 0.833 1.40864393074e-38
0.00927190213905 -0.112808142692 0.835 1.4180427198e-38
0.0108431286692 -0.113078341836 0.837 1.31659445631e-38
0.0124217579156 -0.11334854098 0.839 1.4364824063e-38
0.0139744776551 -0.11334854098 0.839 1.33517329174e-38
0.0155271973945 -0.11334854098 0.839 1.31673374538e-38
0.0171613470131 -0.113888939268 0.843 1.33509972357e-38
0.0187658857665 -0.114159138413 0.845 1.29840392069e-38
0.0203297095803 -0.114159138413 0.845 1.30758845121e-38
0.0218935333942 -0.114159138413 0.845 1.31669983396e-38
0.0234573572081 -0.114159138413 0.845 1.30748251305e-38
0.025021181022 -0.114159138413 0.845 1.27989276797e-38
0.0265850048358 -0.114159138413 0.845 1.25230638601e-38
0.0281488286497 -0.114159138413 0.845 1.51030925537e-38
0.0297126524636 -0.114159138413 0.845 1.63016777809e-38
0.0312764762774 -0.114159138413 0.845 1.13216396023e-38
0.0329180286122 -0.114429337557 0.847 1.2246122442e-38
0.0344041239052 -0.114159138413 0.845 1.24308654277e-38
0.0359679477191 -0.114159138413 0.845 1.31677003901e-38
0.0375317715329 -0.114159138413 0.845 1.28911233096e-38
0.0390955953468 -0.114159138413 0.845 1.22457539005e-38
0.0406594191607 -0.114159138413 0.845 1.16933158031e-38
0.0421233063048 -0.113888939268 0.843 1.22471327782e-38
0.0435797907326 -0.113618740124 0.841 1.15096476133e-38
0.0451362118302 -0.113618740124 0.841 1.20613752525e-38
0.0465815921836 -0.11334854098 0.839 1.17855086303e-38
0.0481343119231 -0.11334854098 0.839 1.12344900482e-38
0.0495685882021 -0.113078341836 0.837 1.07745866948e-38
0.0507511721276 -0.112267744403 0.831 1.0680968747e-38
0.052037394081 -0.111727346115 0.827 1.10465212735e-38
0.0534383581368 -0.111457146971 0.825 1.10468926176e-38
0.0548319194762 -0.111186947827 0.823 1.1047946394e-38
0.0562180780994 -0.110916748683 0.821 1.04965718821e-38
0.0577374856156 -0.110916748683 0.821 1.07706630591e-38
0.0591125401644 -0.110646549538 0.819 1.06809659444e-38
0.0606282463224 -0.110646549538 0.819 1.0037031465e-38
0.0599434950666 -0.106728661948 0.79 1.26167364586e-38
0.0614055315317 -0.106728661948 0.79 1.20617255771e-38
0.0628675679967 -0.106728661948 0.79 8.46357367522e-39
0.0642481745827 -0.106593562376 0.789 2.16399943457e-38
0.0657083603687 -0.106593562376 0.789 2.34960996409e-38
-0.0103119837762 -0.106066118841 0.796 2.07262846885e-38
-0.00883884323675 -0.106066118841 0.796 2.34759027261e-38
-0.0073286891159 -0.105533123269 0.792 2.35026717307e-38
-0.00586295129272 -0.105533123269 0.792 1.14912751892e-38
-0.00440831754396 -0.105799621055 0.794 1.408821195e-38
-0.00293887836264 -0.105799621055 0.794 1.47328821111e-38
-0.0015194075162 -0.109397341166 0.821 1.47360994924e-38
0.0 -0.109930336738 0.825 1.39981841289e-38
0.00153051159062 -0.110196834524 0.827 1.37212539212e-38
0.00306842589751 -0.110463332311 0.829 1.4271909567e-38
0.00461374292069 -0.110729830097 0.831 1.4180427198e-38
0.0061812680927 -0.111262825669 0.835 1.39967463966e-38
0.00772658511588 -0.111262825669 0.835 1.35364871134e-38
0.00929411028789 -0.111529323455 0.837 1.37204902135e-38
0.0108690381762 -0.111795821241 0.839 1.36286883485e-38
0.0124513687807 -0.112062319027 0.841 1.32591995746e-38
0.0140411021016 -0.112328816813 0.843 1.34443097005e-38
0.0156012245573 -0.112328816813 0.843 1.2706741859e-38
0.0172427768921 -0.112861812385 0.847 1.36290386731e-38
0.0188547183618 -0.113128310171 0.849 1.27989220745e-38
0.020425944892 -0.113128310171 0.849 1.28907701824e-38
0.0219971714221 -0.113128310171 0.849 1.27074481134e-38
0.0235683979523 -0.113128310171 0.849 1.25234267964e-38
0.0251396244824 -0.113128310171 0.849 1.2799290616e-38
0.0269310818219 -0.114061052422 0.856 1.28907855967e-38
0.0285152631055 -0.114061052422 0.856 1.27056726682e-38
0.0298533040729 -0.113128310171 0.849 1.24280291996e-38
0.031424530603 -0.113128310171 0.849 1.20621011251e-38
0.0329180286122 -0.112861812385 0.847 1.23401327534e-38
0.0344855537843 -0.112861812385 0.847 1.20617648135e-38
0.0360530789563 -0.112861812385 0.847 1.20606563864e-38
0.0376206041283 -0.112861812385 0.847 1.2429434702e-38
0.0391881293003 -0.112861812385 0.847 1.24308654277e-38
0.0406594191607 -0.112595314599 0.845 1.18788056808e-38
0.0422232429745 -0.112595314599 0.845 1.16025523002e-38
0.0436834287605 -0.112328816813 0.843 1.18783979029e-38
0.0452435512162 -0.112328816813 0.843 1.20610193227e-38
0.0466926329278 -0.112062319027 0.841 1.13242025772e-38
0.0482490540254 -0.112062319027 0.841 1.16007474278e-38
0.049805475123 -0.112062319027 0.841 1.07745866948e-38
0.0508733169462 -0.110996327883 0.833 1.0865347395e-38
0.0521632402577 -0.110463332311 0.829 1.08649970704e-38
0.0535679056716 -0.110196834524 0.827 1.05887675119e-38
0.0549651683692 -0.109930336738 0.825 1.01281382859e-38
0.0563550283506 -0.109663838952 0.823 9.94482042083e-39
0.0577374856156 -0.109397341166 0.821 1.05887731171e-38
0.0592568931318 -0.109397341166 0.821 1.00373873948e-38
0.0584814586016 -0.105266625483 0.79 9.76117325058e-39
0.0598676172248 -0.10513337659 0.789 1.25266483816e-38
0.0613278030108 -0.10513337659 0.789 1.27067264447e-38
0.0627879887967 -0.10513337659 0.789 8.74195002295e-39
0.0642481745827 -0.10513337659 0.789 2.34874858592e-38
0.0657083603687 -0.10513337659 0.789 2.34928864635e-38
0.0671685461546 -0.10513337659 0.789 2.35098309645e-38
-0.0073286891159 -0.104067385446 0.792 2.34910731833e-38
-0.00586295129272 -0.104067385446 0.792 1.19587371465e-38
-0.00440831754396 -0.104330181874 0.794 1.3352430764e-38
-0.00304621774868 -0.108140730078 0.823 1.36290386731e-38
-0.00152310887434 -0.108140730078 0.823 1.49190516186e-38
0.0 -0.108403526506 0.825 1.44577203421e-38
0.00153421294876 -0.108929119362 0.829 1.45492321383e-38
0.00307582861379 -0.10919191579 0.831 1.41800740708e-38
0.00462484699511 -0.109454712218 0.833 1.40889728551e-38
0.00619607352526 -0.109980305073 0.837 1.35368430432e-38
0.00774509190657 -0.109980305073 0.837 1.34453634769e-38
0.00931631843672 -0.110243101501 0.839 1.3723417526e-38
0.0108949476832 -0.110505897929 0.841 1.30748013084e-38
0.0124809796459 -0.110768694357 0.843 1.3258098154e-38
0.0140411021016 -0.110768694357 0.843 1.26138245604e-38
0.0156382381387 -0.111031490785 0.845 1.27985717499e-38
0.0172427768921 -0.111294287213 0.847 1.2891120507e-38
0.0188547183618 -0.111557083641 0.849 1.27985899668e-38
0.0204740625478 -0.111819880069 0.851 1.2891120507e-38
0.0220489904361 -0.111819880069 0.851 1.27992934186e-38
0.0236239183244 -0.111819880069 0.851 1.22468651302e-38
0.025287678808 -0.11221407471 0.854 1.25237827263e-38
0.0269310818219 -0.112476871138 0.856 1.27989248771e-38
0.0285152631055 -0.112476871138 0.856 1.26141804902e-38
0.0301697701938 -0.112739667566 0.858 1.22450504487e-38
0.0314985577658 -0.111819880069 0.851 1.26130790696e-38
0.0330734856541 -0.111819880069 0.851 1.18777070628e-38
0.0345669836633 -0.111557083641 0.849 1.27996703679e-38
0.0361382101935 -0.111557083641 0.849 1.21532205578e-38
0.0377094367236 -0.111557083641 0.849 1.25227443641e-38
0.0391881293003 -0.111294287213 0.847 1.17862148848e-38
0.0407556544723 -0.111294287213 0.847 1.20623982004e-38
0.0422232429745 -0.111031490785 0.845 1.1785145694e-38
0.0437870667884 -0.111031490785 0.845 1.16014508796e-38
0.0453508906023 -0.111031490785 0.845 1.16933158031e-38
0.046803673672 -0.110768694357 0.843 1.11426601572e-38
0.0483637961277 -0.110768694357 0.843 1.08660788728e-38
0.049805475123 -0.110505897929 0.841 1.04043916665e-38
0.0511176065834 -0.109980305073 0.837 1.10497442599e-38
0.0524149326112 -0.109454712218 0.833 1.06809813587e-38
0.0536974532065 -0.108929119362 0.829 1.02217828584e-38
0.0552316661553 -0.108929119362 0.829 1.0682400874e-38
0.0566289288529 -0.108666322934 0.827 1.02217786545e-38
0.0581594404435 -0.108666322934 0.827 9.7615235752e-39
0.0596899520341 -0.108666322934 0.827 9.94662108935e-39
0.0584074314388 -0.103673190804 0.789 1.06838526192e-38
0.0597158615411 -0.103410394376 0.787 1.21582372063e-38
0.0611723459689 -0.103410394376 0.787 1.11397916993e-38
0.0626288303967 -0.103410394376 0.787 1.05812005002e-38
0.0642481745827 -0.103673190804 0.789 2.34943199918e-38
0.0653752381361 -0.103147597948 0.785 2.34921858142e-38
0.0668280212058 -0.103147597948 0.785 2.35098323658e-38
-0.0073286891159 -0.102601647623 0.792 2.35076561493e-38
-0.00586295129272 -0.102601647623 0.792 1.02138290883e-38
-0.00439721346954 -0.102601647623 0.792 1.30740446072e-38
-0.00306842589751 -0.107394906413 0.829 1.45499383927e-38
-0.00153051159062 -0.107135811343 0.827 1.39960457474e-38
0.0 -0.107135811343 0.827 1.40871595749e-38
0.00153421294876 -0.107394906413 0.829 1.32584751033e-38
0.00307582861379 -0.107654001483 0.831 1.36283520369e-38
0.00462484699511 -0.107913096553 0.833 1.31684304666e-38
0.00619607352526 -0.108431286692 0.837 1.35354081136e-38
0.00778210548797 -0.108949476832 0.841 1.27081711834e-38
0.00933852658556 -0.108949476832 0.841 1.24298116512e-38
0.0109208571901 -0.109208571901 0.843 1.30730258632e-38
0.0124809796459 -0.109208571901 0.843 1.32584779059e-38
0.0140744143248 -0.109467666971 0.845 1.27996437432e-38
0.0156382381387 -0.109467666971 0.845 1.27996437432e-38
0.0172834918317 -0.109985857111 0.849 1.27992780043e-38
0.0188991346595 -0.11024495218 0.851 1.23390201224e-38
0.0204740625478 -0.11024495218 0.851 1.30761773835e-38
0.022126718957 -0.110633594785 0.854 1.19716809404e-38
0.0237071988825 -0.110633594785 0.854 1.28003710171e-38
0.025287678808 -0.110633594785 0.854 1.21542715316e-38
0.0269310818219 -0.110892689855 0.856 1.27060075786e-38
0.0285152631055 -0.110892689855 0.856 1.26145336174e-38
0.0301697701938 -0.111151784924 0.858 1.24312185549e-38
0.0317576528356 -0.111151784924 0.858 1.27070795719e-38
0.0332678069564 -0.110892689855 0.856 1.2431937421e-38
0.0346484135424 -0.11024495218 0.851 1.14156527162e-38
0.0362233414307 -0.11024495218 0.851 1.36279820941e-38
0.037798269319 -0.11024495218 0.851 1.16925941344e-38
0.0392806632538 -0.109985857111 0.849 1.2429782224e-38
0.0407556544723 -0.109726762041 0.847 1.18780475783e-38
0.0423231796443 -0.109726762041 0.847 1.16940444783e-38
0.0438907048163 -0.109726762041 0.847 1.14163954044e-38
0.0453508906023 -0.109467666971 0.845 1.08664291974e-38
0.0469147144162 -0.109467666971 0.845 1.04987228752e-38
0.04847853823 -0.109467666971 0.845 1.09575486301e-38
0.049805475123 -0.108949476832 0.841 1.04965718821e-38
0.051239751402 -0.108690381762 0.839 1.01281382859e-38
0.0526666249647 -0.108431286692 0.837 1.2430838803e-38
0.0540860958111 -0.108172191622 0.835 1.0129580222e-38
0.0553649150483 -0.107654001483 0.831 1.03139784883e-38
0.0569028293552 -0.107654001483 0.831 1.02217786545e-38
0.0585813952714 -0.107913096553 0.833 1.03143442272e-38
0.0569472456528 -0.102213005018 0.789 9.76045158188e-39
0.0582593771132 -0.101953909948 0.787 1.27092880183e-38
0.0595641058574 -0.101694814878 0.785 1.2708173986e-38
0.0610168889271 -0.101694814878 0.785 9.7561383852e-39
0.0624696719967 -0.101694814878 0.785 1.54617983359e-38
0.0640853148246 -0.101953909948 0.787 2.34939038062e-38
0.0653752381361 -0.101694814878 0.785 2.34946955398e-38
0.0668280212058 -0.101694814878 0.785 2.35098491814e-38
-0.00306842589751 -0.105860693464 0.829 1.33513349486e-38
-0.00153421294876 -0.105860693464 0.829 1.39034703657e-38
0.0 -0.105860693464 0.829 1.36272562215e-38
0.00154531702318 -0.106626874599 0.835 1.34439439616e-38
0.00309063404635 -0.106626874599 0.835 1.30751782577e-38
0.00464705514394 -0.106882268311 0.837 1.26149245797e-38
0.00622568439037 -0.107393055734 0.841 1.32606471159e-38
0.00780061227866 -0.107648449446 0.843 1.35375591068e-38
0.0093607347344 -0.107648449446 0.843 1.27063943369e-38
0.0109467666971 -0.107903843157 0.845 1.45485104696e-38
0.012510590511 -0.107903843157 0.845 1.27989402914e-38
0.0140744143248 -0.107903843157 0.845 1.27067110304e-38
0.0156382381387 -0.107903843157 0.845 1.25219792551e-38
0.0172834918317 -0.10841463058 0.849 1.24308626251e-38
0.0188991346595 -0.108670024292 0.851 1.28900387046e-38
0.0205462390315 -0.109053114859 0.854 1.26134742358e-38
0.0221785379709 -0.109308508571 0.856 1.23390579575e-38
0.0237627192546 -0.109308508571 0.856 1.2430880842e-38
0.0255245657289 -0.110074689706 0.862 1.24294290968e-38
0.027119851087 -0.110074689706 0.862 1.24301227395e-38
0.028715136445 -0.110074689706 0.862 1.18784287315e-38
0.0303104218031 -0.110074689706 0.862 1.20613724499e-38
0.0318316799983 -0.109819295994 0.86 1.2707826464e-38
0.0334232639983 -0.109819295994 0.86 1.16929500642e-38
0.03485198824 -0.109308508571 0.856 1.1785145694e-38
0.0364361695237 -0.109308508571 0.856 1.27074481134e-38
0.037931518212 -0.109053114859 0.854 1.20617129654e-38
0.0393731972073 -0.108670024292 0.851 1.16936479108e-38
0.0409481250955 -0.108670024292 0.851 1.16936689303e-38
0.0424231163141 -0.10841463058 0.849 1.16933158031e-38
0.0438907048163 -0.108159236869 0.847 1.16011201732e-38
0.0454582299883 -0.108159236869 0.847 1.06809659444e-38
0.0470257551603 -0.108159236869 0.847 1.10504477118e-38
0.04847853823 -0.107903843157 0.845 1.10504603235e-38
0.0500423620439 -0.107903843157 0.845 1.0681316269e-38
0.0513618962206 -0.107393055734 0.841 1.12319873291e-38
0.0527924711414 -0.107137662022 0.839 1.09557507642e-38
0.0540860958111 -0.106626874599 0.835 1.04043720483e-38
0.0554981639413 -0.106371480887 0.833 1.03125295457e-38
0.0570397796063 -0.106371480887 0.833 1.02228198193e-38
0.0585813952714 -0.106371480887 0.833 9.85335626876e-39
0.0569472456528 -0.100752819232 0.789 8.65374669241e-39
0.0582593771132 -0.10049742552 0.787 1.51030925537e-38
0.0595641058574 -0.100242031809 0.785 1.47361289197e-38
0.0610168889271 -0.100242031809 0.785 7.26686899058e-39
0.0624696719967 -0.100242031809 0.785 2.18193689569e-38
0.0640853148246 -0.10049742552 0.787 2.34971576212e-38
-0.00309063404635 -0.105081557576 0.835 1.33528175224e-38
-0.00153421294876 -0.104326480515 0.829 1.36294058133e-38
0.0 -0.104326480515 0.829 1.3353195873e-38
0.00153421294876 -0.104326480515 0.829 1.31687863964e-38
0.00311284219519 -0.105836634636 0.841 1.36276065461e-38
0.00466926329278 -0.105836634636 0.841 1.34446600251e-38
0.00624048982293 -0.10608832699 0.843 1.25237827263e-38
0.00780061227866 -0.10608832699 0.843 1.31680409056e-38
0.00938294288323 -0.106340019343 0.845 1.32588310331e-38
0.0109726762041 -0.106591711697 0.847 1.35343571398e-38
0.0125402013761 -0.106591711697 0.847 1.29840770419e-38
0.0141077265481 -0.106591711697 0.847 1.22457693148e-38
0.0156752517201 -0.106591711697 0.847 1.24308682303e-38
0.0173242067712 -0.107095096404 0.851 1.21539085953e-38
0.0190101754037 -0.107724327287 0.856 1.24301171343e-38
0.0206424743431 -0.107976019641 0.858 1.24297850266e-38
0.0222821759988 -0.108227711994 0.86 1.20624570549e-38
0.0238737599988 -0.108227711994 0.86 1.20624542523e-38
0.0255245657289 -0.108479404348 0.862 1.24301381538e-38
0.0271827741753 -0.108731096701 0.864 1.23397417911e-38
0.0287817608915 -0.108731096701 0.864 1.16029026248e-38
0.0304862363147 -0.109108635232 0.867 1.23390159185e-38
0.0319797343239 -0.108731096701 0.864 1.16014985238e-38
0.0335009925192 -0.108479404348 0.862 1.18769629733e-38
0.0350148479982 -0.108227711994 0.86 1.18773413239e-38
0.0366064319981 -0.108227711994 0.86 1.19684579539e-38
0.0381091834027 -0.107976019641 0.858 1.16929654784e-38
0.0395119981375 -0.107472634934 0.854 1.1601114568e-38
0.041092478063 -0.107472634934 0.854 1.141673592e-38
0.0424231163141 -0.10684340405 0.849 1.13241857616e-38
0.0439943428442 -0.10684340405 0.849 1.13245360862e-38
0.0455655693744 -0.10684340405 0.849 1.05894891806e-38
0.0471367959045 -0.10684340405 0.849 1.14160030409e-38
0.0485932803324 -0.106591711697 0.847 1.05887675119e-38
0.0501608055044 -0.106591711697 0.847 1.04980194234e-38
0.0516061858578 -0.106340019343 0.845 1.08643230458e-38
0.0529183173182 -0.105836634636 0.841 1.04040385393e-38
0.054215643346 -0.105333249929 0.837 1.08624789371e-38
0.0556314128343 -0.105081557576 0.835 1.03125295457e-38
0.0571767298575 -0.105081557576 0.835 1.04057999714e-38
0.0587220468807 -0.105081557576 0.835 1.04972739326e-38
0.0602673639038 -0.105081557576 0.835 1.01288767702e-38
0.0582593771132 -0.0990409410925 0.787 1.40914587585e-38
0.0597158615411 -0.0990409410925 0.787 1.21546484809e-38
0.0613278030108 -0.099292633446 0.789 9.56955969857e-39
-0.00464705514394 -0.103784231548 0.837 1.19526611163e-38
-0.00309063404635 -0.103536240553 0.835 1.27056544513e-38
-0.00154161566504 -0.103288249557 0.833 1.30747830915e-38
0.0 -0.103288249557 0.833 1.30762376393e-38
0.00155642109759 -0.104280213539 0.841 1.30762376393e-38
0.00311284219519 -0.104280213539 0.841 1.29847552704e-38
0.0046803673672 -0.104528204534 0.843 1.28014458131e-38
0.00624048982293 -0.104528204534 0.843 1.28014458131e-38
0.00780061227866 -0.104528204534 0.843 1.31687990081e-38
0.00940515103207 -0.105024186525 0.847 1.29822819786e-38
0.0109726762041 -0.105024186525 0.847 1.21532023409e-38
0.0125698122412 -0.10527217752 0.849 1.19681076293e-38
0.0141410387714 -0.10527217752 0.849 1.37226762391e-38
0.0157122653015 -0.10527217752 0.849 1.28007003223e-38
0.0173852791805 -0.105892155008 0.854 1.1786568012e-38
0.0190545917013 -0.106388136999 0.858 1.33545971715e-38
0.0206424743431 -0.106388136999 0.858 1.25241302483e-38
0.0222821759988 -0.106636127994 0.86 1.19706089471e-38
0.0239292803708 -0.10688411899 0.862 1.16007698486e-38
0.0255837874591 -0.107132109985 0.864 1.18780447757e-38
0.0271827741753 -0.107132109985 0.864 1.22464699641e-38
0.0287817608915 -0.107132109985 0.864 1.16025677145e-38
0.0304862363147 -0.107504096478 0.867 1.23386669952e-38
0.0320907750681 -0.107504096478 0.867 1.18773441265e-38
0.0335787210401 -0.107132109985 0.864 1.1509997938e-38
0.0350962778772 -0.10688411899 0.862 1.15082042759e-38
0.0366064319981 -0.106636127994 0.86 1.15996782371e-38
0.038198015998 -0.106636127994 0.86 1.14160058435e-38
0.0396970660444 -0.106388136999 0.858 1.20613724499e-38
0.0412849486862 -0.106388136999 0.858 1.1785145694e-38
0.0426729579885 -0.105892155008 0.854 1.18773595408e-38
0.044253437914 -0.105892155008 0.854 1.15074798046e-38
0.0456729087604 -0.105520168515 0.851 1.09557731849e-38
0.0472478366487 -0.105520168515 0.851 1.15996782371e-38
0.0487080224347 -0.10527217752 0.849 1.15074826072e-38
0.0501608055044 -0.105024186525 0.847 1.06816693962e-38
0.0517283306764 -0.105024186525 0.847 1.04043720483e-38
0.0532958558484 -0.105024186525 0.847 1.01295858272e-38
0.0544747384158 -0.104280213539 0.841 1.03121764184e-38
0.0557646617273 -0.103784231548 0.837 9.75970609109e-39
0.0573136801086 -0.103784231548 0.837 9.85190452355e-39
0.0592846533178 -0.104528204534 0.843 9.66392593976e-39
0.0608447757736 -0.104528204534 0.843 1.3074804111e-38
0.0584074314388 -0.09783244766 0.789 1.2246512003e-38
0.0598676172248 -0.09783244766 0.789 7.17467616331e-39
0.0613278030108 -0.09783244766 0.789 2.02466356384e-38
-0.00464705514394 -0.102235213167 0.837 1.42675459236e-38
-0.00309803676263 -0.102235213167 0.837 1.30683441251e-38
-0.00154901838131 -0.102235213167 0.837 1.27996703679e-38
0.0 -0.102235213167 0.837 1.2984758073e-38
0.00155642109759 -0.102723792441 0.841 1.27074733368e-38
0.00311284219519 -0.102723792441 0.841 1.22479189067e-38
0.0046803673672 -0.102968082078 0.843 1.23393886639e-38
0.00624048982293 -0.102968082078 0.843 1.31705716506e-38
0.00781911906936 -0.103212371716 0.845 1.22482720339e-38
0.00940515103207 -0.103456661353 0.847 1.24315814912e-38
0.0109985857111 -0.10370095099 0.849 1.22461168368e-38
0.0125994231063 -0.103945240627 0.851 1.18777070628e-38
0.0141743509946 -0.103945240627 0.851 1.17855086303e-38
0.015804799255 -0.104311675083 0.854 1.22457482954e-38
0.0173852791805 -0.104311675083 0.854 1.2707826464e-38
0.0190545917013 -0.104800254357 0.858 1.1879116769e-38
0.0206905919989 -0.105044543995 0.86 1.2152498889e-38
0.0223339950128 -0.105288833632 0.862 1.23372656968e-38
0.0239292803708 -0.105288833632 0.862 1.21525016916e-38
0.0256726200545 -0.105899557725 0.867 1.17847953694e-38
0.0272771588079 -0.105899557725 0.867 1.15996950527e-38
0.0288816975613 -0.105899557725 0.867 1.14171044615e-38
0.0304862363147 -0.105899557725 0.867 1.141673592e-38
0.0320907750681 -0.105899557725 0.867 1.16936661277e-38
0.0336953138215 -0.105899557725 0.867 1.16014704978e-38
0.0351777077563 -0.105533123269 0.864 1.12333942328e-38
0.0366915632353 -0.105288833632 0.862 1.14177448549e-38
0.0382868485934 -0.105288833632 0.862 1.15092580524e-38
0.0397895999979 -0.105044543995 0.86 1.16003999058e-38
0.0413811839978 -0.105044543995 0.86 1.16003999058e-38
0.0427728946582 -0.10455596472 0.856 1.18769881967e-38
0.044253437914 -0.104311675083 0.854 1.13252423406e-38
0.0458339178395 -0.104311675083 0.854 1.08660788728e-38
0.0472478366487 -0.103945240627 0.851 1.08628348669e-38
0.048822764537 -0.103945240627 0.851 1.05866053084e-38
0.0502792489648 -0.10370095099 0.849 1.03118232912e-38
0.051850475495 -0.10370095099 0.849 9.94339810289e-39
0.0534217020251 -0.10370095099 0.849 1.00359804911e-38
0.0548633810204 -0.103456661353 0.847 9.9437540327e-39
0.0562976572994 -0.103212371716 0.845 9.39235009348e-39
0.0577245308621 -0.102968082078 0.843 9.75935856907e-39
0.0592846533178 -0.102968082078 0.843 1.12301894632e-38
0.0608447757736 -0.102968082078 0.843 1.44605761883e-38
0.0582593771132 -0.0961279722369 0.787 1.25241358535e-38
0.0597158615411 -0.0961279722369 0.787 9.29403919711e-39
0.0611723459689 -0.0961279722369 0.787 2.34889516174e-38
0.0 -0.101167371344 0.841 1.3075151633e-38
0.00155642109759 -0.101167371344 0.841 1.27989276797e-38
0.00312024491147 -0.101407959623 0.843 1.14170848433e-38
0.0046803673672 -0.101407959623 0.843 1.26163258781e-38
0.00625529525549 -0.101648547902 0.845 1.11426629598e-38
0.00787463944145 -0.102370312739 0.851 1.19706243614e-38
0.00944956732974 -0.102370312739 0.851 1.16929500642e-38
0.0110633594785 -0.102731195157 0.854 1.20610193227e-38
0.012643839404 -0.102731195157 0.854 1.19692020434e-38
0.0142576315527 -0.102971783436 0.856 1.20620787043e-38
0.0159158399992 -0.103452959995 0.86 1.18780475783e-38
0.0175481389386 -0.103693548274 0.862 1.18776650238e-38
0.0191878405943 -0.103934136553 0.864 1.20624318315e-38
0.0208590037943 -0.104295018971 0.867 1.22457510979e-38
0.0224635425477 -0.104295018971 0.867 1.22446749007e-38
0.0241236016732 -0.10453560725 0.869 1.20606535838e-38
0.0257318417847 -0.10453560725 0.869 1.20606563864e-38
0.0273400818963 -0.10453560725 0.869 1.20613990746e-38
0.0289483220078 -0.10453560725 0.869 1.16922438097e-38
0.0305565621193 -0.10453560725 0.869 1.20613990746e-38
0.0321648022309 -0.10453560725 0.869 1.22468202887e-38
0.0337730423424 -0.10453560725 0.869 1.20635220418e-38
0.0352998525749 -0.104295018971 0.867 1.14178023081e-38
0.0367766944725 -0.103934136553 0.864 1.13252423406e-38
0.0382868485934 -0.103693548274 0.862 1.12330439082e-38
0.0398821339514 -0.103693548274 0.862 1.09578961521e-38
0.0413811839978 -0.103452959995 0.86 1.0681316269e-38
0.0429727679978 -0.103452959995 0.86 1.05898268936e-38
0.0443570759419 -0.102971783436 0.856 1.03143316155e-38
0.0459412572255 -0.102971783436 0.856 1.03146819401e-38
0.047414397765 -0.102731195157 0.854 1.04043720483e-38
0.048822764537 -0.102370312739 0.851 1.07713398862e-38
0.0503976924253 -0.102370312739 0.851 1.07706364344e-38
0.051850475495 -0.10212972446 0.849 1.06819930962e-38
0.0534217020251 -0.10212972446 0.849 1.03125295457e-38
0.0548633810204 -0.101889136181 0.847 1.02199807886e-38
0.0562976572994 -0.101648547902 0.845 9.66861188182e-39
0.0578614811133 -0.101648547902 0.845 9.4842164182e-39
0.0594253049271 -0.101648547902 0.845 1.27971648463e-38
0.0565141867505 -0.0941903112509 0.783 1.39045213395e-38
0.0579632684621 -0.0941903112509 0.783 7.26576616869e-39
0.0595641058574 -0.09443089953 0.785 1.97971775638e-38
