# .PCD v0.7 - Point Cloud Data file format
VERSION 0.7
FIELDS x y z rgb
SIZE 4 4 4 4
TYPE F F F F
COUNT 1 1 1 1
WIDTH 844
HEIGHT 1
VIEWPOINT 0 0 0 1 0 0 0
POINTS 844
DATA ascii
0.0500867783416 -0.0662913242756 0.796 2.34892767186e-38
0.0518190139508 -0.0666244465082 0.8 2.34838550949e-38
0.0536326794391 -0.0670408492988 0.805 2.14469724887e-38
0.0551224760902 -0.0670408492988 0.805 2.18992822057e-38
-0.00299439873473 -0.065876772164 0.809 1.90484049398e-38
-0.00148609529295 -0.0653881928896 0.803 2.01601208725e-38
0.0 -0.0651439032524 0.8 1.86911579093e-38
0.0014768418976 -0.0649810434943 0.798 1.86911410937e-38
0.00294628107892 -0.0648181837362 0.796 1.89666531874e-38
0.00439721346954 -0.0644924642199 0.792 2.15488524922e-38
0.00584814586016 -0.0643296044618 0.79 4.04076183095e-39
0.00730092892985 -0.0642481745827 0.789 7.53914688739e-39
0.00873890656699 -0.0640853148246 0.787 1.01188827096e-38
0.0101694814878 -0.0639224550664 0.785 1.81454278275e-38
0.0116222645575 -0.0639224550664 0.785 1.75877026309e-38
0.013041735404 -0.0637595953083 0.783 2.05361074674e-38
0.0144538035341 -0.0635967355502 0.781 1.9982233039e-38
0.0158991838875 -0.0635967355502 0.781 1.96134505195e-38
0.017344564241 -0.0635967355502 0.781 2.12708082522e-38
0.0187899445944 -0.0635967355502 0.781 2.07183533392e-38
0.0202353249478 -0.0635967355502 0.781 2.09974611647e-38
0.0217362256733 -0.0637595953083 0.783 2.05364760089e-38
0.0231853073848 -0.0637595953083 0.783 2.05354068182e-38
0.0246343890964 -0.0637595953083 0.783 2.11793258833e-38
0.0260834708079 -0.0637595953083 0.783 2.12708054496e-38
0.0275325525195 -0.0637595953083 0.783 2.11804231e-38
0.028981634231 -0.0637595953083 0.783 2.16424802491e-38
0.0304307159426 -0.0637595953083 0.783 2.20112431504e-38
0.0318797976542 -0.0637595953083 0.783 2.10878589286e-38
0.0333288793657 -0.0637595953083 0.783 2.18250344066e-38
0.0348667936726 -0.0639224550664 0.785 2.26537735288e-38
0.0364121106958 -0.0640853148246 0.787 2.20094424819e-38
0.0378685951236 -0.0640853148246 0.787 2.30229161819e-38
0.0394250162212 -0.0642481745827 0.789 2.18239946431e-38
0.0409370210211 -0.0643296044618 0.79 2.23771656197e-38
0.0423990574862 -0.0643296044618 0.79 2.219205129e-38
0.0438610939512 -0.0643296044618 0.79 2.21009374625e-38
0.0454378725186 -0.0644924642199 0.792 2.27445090056e-38
0.0469036103417 -0.0644924642199 0.792 2.34871005021e-38
0.0486136378021 -0.0648181837362 0.796 2.34856529608e-38
0.0503384706951 -0.0651439032524 0.8 2.34813677901e-38
0.0518190139508 -0.0651439032524 0.8 2.30177341802e-38
0.0536326794391 -0.0655510526477 0.805 2.0425218516e-38
0.0551224760902 -0.0655510526477 0.805 2.34748545548e-38
0.0585351282946 -0.0660396319221 0.811 2.34755636119e-38
-0.0075785307903 -0.0651753647966 0.819 1.73979037604e-38
-0.00604801919968 -0.0650162063966 0.817 1.89655994109e-38
-0.00453601439976 -0.0650162063966 0.817 1.63783414186e-38
-0.00299439873473 -0.0643795727966 0.809 1.74789338441e-38
-0.00149349800922 -0.0642204143967 0.807 1.87736075083e-38
0.0 -0.0640612559967 0.805 1.91495002162e-38
0.00148054325574 -0.0636633599967 0.8 2.17324982612e-38
0.00295368379519 -0.0635042015967 0.798 2.03524630997e-38
0.00441942161837 -0.0633450431967 0.796 2.08141390957e-38
0.00587775672528 -0.0631858847967 0.794 1.71292300033e-38
0.0073286891159 -0.0630267263967 0.792 1.02977724715e-38
0.00877221879024 -0.0628675679967 0.79 9.75327973634e-39
0.0102213005018 -0.0627879887967 0.789 1.20397966575e-38
0.0116814862878 -0.0627879887967 0.789 1.9060706939e-38
0.0131416720737 -0.0627879887967 0.789 2.05389969448e-38
0.0145648442783 -0.0626288303967 0.787 1.91517689184e-38
0.0160213287061 -0.0626288303967 0.787 2.00730231665e-38
0.017477813134 -0.0626288303967 0.787 2.14555652509e-38
0.0189342975618 -0.0626288303967 0.787 2.02591674506e-38
0.0203907819896 -0.0626288303967 0.787 1.93379370246e-38
0.0218472664175 -0.0626288303967 0.787 2.09044794064e-38
0.0233037508453 -0.0626288303967 0.787 2.16417361596e-38
0.0247602352731 -0.0626288303967 0.787 2.14566372442e-38
0.026216719701 -0.0626288303967 0.787 2.09956815156e-38
0.0276028783241 -0.0624696719967 0.785 2.10900267374e-38
0.0290556613938 -0.0624696719967 0.785 2.10875240183e-38
0.0305084444635 -0.0624696719967 0.785 2.13637353599e-38
0.0320426574123 -0.0626288303967 0.787 2.18261456362e-38
0.0334991418401 -0.0626288303967 0.787 2.17328808157e-38
0.0350444588633 -0.0627879887967 0.789 2.23764509575e-38
0.0365046446493 -0.0627879887967 0.789 2.24686479886e-38
0.0379648304352 -0.0627879887967 0.789 2.23771684223e-38
0.0394749845561 -0.0628675679967 0.79 2.20090893547e-38
0.0409370210211 -0.0628675679967 0.79 2.29299750613e-38
0.0423990574862 -0.0628675679967 0.79 2.27445090056e-38
0.0439721346954 -0.0630267263967 0.792 2.27438055538e-38
0.0454378725186 -0.0630267263967 0.792 2.34860411205e-38
0.0471404972627 -0.0633450431967 0.796 2.34878403877e-38
0.0488579274393 -0.0636633599967 0.8 2.32969597148e-38
0.0503384706951 -0.0636633599967 0.8 2.27411851257e-38
0.0520133352531 -0.0639020975967 0.803 2.22763407939e-38
0.0537659283321 -0.0642204143967 0.807 2.34777650517e-38
0.0552594263413 -0.0642204143967 0.807 2.1074540988e-38
0.0568935759598 -0.0643795727966 0.809 2.34610994091e-38
0.0585351282946 -0.0645387311966 0.811 2.34787795918e-38
-0.0075785307903 -0.0636596586385 0.819 2.11754190632e-38
-0.00604801919968 -0.0635042015967 0.817 1.5000483875e-38
-0.00453601439976 -0.0635042015967 0.817 1.83194424721e-38
-0.00300920416729 -0.063193287513 0.813 1.71162623873e-38
-0.0015009007255 -0.0630378304711 0.811 1.75725489893e-38
0.0 -0.0628823734293 0.809 1.65566048001e-38
0.00148609529295 -0.0624160023037 0.803 1.97841679088e-38
0.00296848922775 -0.0623382737828 0.802 2.06232009695e-38
0.00444162976721 -0.0621828167409 0.8 2.0259192674e-38
0.00592217302295 -0.0621828167409 0.8 2.12744390166e-38
0.00738420948799 -0.0620273596991 0.798 1.07609576659e-38
0.00886105138558 -0.0620273596991 0.798 2.18214008396e-38
0.0103119837762 -0.0618719026572 0.796 1.85085673181e-38
0.0117555134506 -0.0617164456154 0.794 1.98943127707e-38
0.0131916404086 -0.0615609885735 0.792 1.97085174099e-38
0.0146203646504 -0.0614055315317 0.79 2.05361256843e-38
0.0160824011154 -0.0614055315317 0.79 2.09971430699e-38
0.0175444375805 -0.0614055315317 0.79 2.05357571428e-38
0.0189824152176 -0.0613278030108 0.789 1.99815071664e-38
0.0204426010036 -0.0613278030108 0.789 2.09059689867e-38
0.0219027867896 -0.0613278030108 0.789 2.12740410478e-38
0.0233629725755 -0.0613278030108 0.789 2.12729746597e-38
0.0248231583615 -0.0613278030108 0.789 2.13648367805e-38
0.0262833441475 -0.0613278030108 0.789 2.17342975284e-38
0.0277435299334 -0.0613278030108 0.789 2.09038362104e-38
0.0292037157194 -0.0613278030108 0.789 2.2838505304e-38
0.0306639015054 -0.0613278030108 0.789 2.22849559768e-38
0.0321240872913 -0.0613278030108 0.789 2.16414012493e-38
0.0336268386959 -0.0614055315317 0.79 2.21938715767e-38
0.035088875161 -0.0614055315317 0.79 2.16371076708e-38
0.036550911626 -0.0614055315317 0.79 2.25608562302e-38
0.038012948091 -0.0614055315317 0.79 2.2193135895e-38
0.0395749212258 -0.0615609885735 0.792 2.24686059497e-38
0.041040659049 -0.0615609885735 0.792 2.28367046355e-38
0.0425063968722 -0.0615609885735 0.792 2.28367228524e-38
0.0440831754396 -0.0617164456154 0.794 2.34827915093e-38
0.0456673567232 -0.0618719026572 0.796 2.34881921136e-38
0.0472589407231 -0.0620273596991 0.798 2.33866568295e-38
0.0488579274393 -0.0621828167409 0.8 2.10756101788e-38
0.0505272399602 -0.0624160023037 0.803 2.29165926609e-38
0.052142882788 -0.0625714593456 0.805 2.2458532015e-38
0.0538991772251 -0.0628823734293 0.809 2.24534817354e-38
0.0553963765925 -0.0628823734293 0.809 2.31885160292e-38
0.0568935759598 -0.0628823734293 0.809 2.34672511094e-38
0.0585351282946 -0.0630378304711 0.811 2.34864222737e-38
-0.0106876716274 -0.0625992195316 0.825 2.35029589968e-38
-0.00916086139487 -0.0625992195316 0.825 2.3507307226e-38
-0.007597037581 -0.0622957081642 0.821 1.83173797608e-38
-0.00606282463224 -0.0621439524805 0.819 1.72131439592e-38
-0.00454711847418 -0.0621439524805 0.819 1.83169103258e-38
-0.00301660688356 -0.0618404411131 0.815 1.45394538776e-38
-0.00150460208364 -0.0616886854293 0.813 1.91434718302e-38
0.0 -0.0615369297456 0.811 1.66537932564e-38
0.00148979665109 -0.0610816626945 0.805 1.71997839797e-38
0.00297219058589 -0.0609299070108 0.803 1.90486978111e-38
0.00445273384163 -0.0608540291689 0.802 1.98827492558e-38
0.0059369784555 -0.0608540291689 0.802 2.06239899006e-38
0.00742122306938 -0.0608540291689 0.802 2.17310661341e-38
0.00888325953442 -0.0607022734852 0.8 2.14541331238e-38
0.0103638027902 -0.0607022734852 0.8 2.18236471211e-38
0.0118147351808 -0.0605505178015 0.798 2.24708087909e-38
0.0132582648551 -0.0603987621178 0.796 2.10881854312e-38
0.0146573782318 -0.0600952507504 0.792 2.1366238079e-38
0.016123116055 -0.0600952507504 0.792 2.04432083857e-38
0.0175888538782 -0.0600952507504 0.792 2.07183533392e-38
0.0190064740455 -0.0599434950666 0.79 2.11786252341e-38
0.0204685105106 -0.0599434950666 0.79 2.04446727426e-38
0.0219305469756 -0.0599434950666 0.79 2.09049124076e-38
0.0233925834406 -0.0599434950666 0.79 2.07205183453e-38
0.0248546199057 -0.0599434950666 0.79 2.13633724236e-38
0.0263166563707 -0.0599434950666 0.79 2.14541359264e-38
0.0277786928358 -0.0599434950666 0.79 2.12715425326e-38
0.0292407293008 -0.0599434950666 0.79 2.18236247003e-38
0.0307027657658 -0.0599434950666 0.79 2.15481140079e-38
0.0321648022309 -0.0599434950666 0.79 2.24697171794e-38
0.0336268386959 -0.0599434950666 0.79 2.28370577627e-38
0.035088875161 -0.0599434950666 0.79 2.20980704058e-38
0.0366434455795 -0.0600952507504 0.792 2.21927827678e-38
0.0381091834027 -0.0600952507504 0.792 2.21938561624e-38
0.0396748578956 -0.0602470064341 0.794 2.26523063693e-38
0.0411442970769 -0.0602470064341 0.794 2.27423538086e-38
0.0427210756443 -0.0603987621178 0.796 2.34863858399e-38
0.0441942161837 -0.0603987621178 0.796 2.34863746295e-38
0.0457820988255 -0.0605505178015 0.798 2.28326941193e-38
0.0472589407231 -0.0605505178015 0.798 1.95049998275e-38
0.0489800722579 -0.0608540291689 0.802 2.17094090664e-38
0.0506530861369 -0.0610816626945 0.805 2.16175735702e-38
0.0522724303229 -0.0612334183782 0.807 2.17123125568e-38
0.0540324261181 -0.0615369297456 0.811 2.24473944948e-38
0.0556702770948 -0.0616886854293 0.813 2.34629883594e-38
0.0571748791784 -0.0616886854293 0.813 2.34679853898e-38
0.0586794812621 -0.0616886854293 0.813 2.3481329955e-38
0.0601840833457 -0.0616886854293 0.813 2.32897346199e-38
-0.0107135811343 -0.0612204636247 0.827 2.35044275576e-38
-0.00916086139487 -0.0610724092991 0.825 2.35076743662e-38
-0.0076155443717 -0.0609243549736 0.823 1.57412130458e-38
-0.0060776300648 -0.060776300648 0.821 2.22806399776e-38
-0.0045582225486 -0.060776300648 0.821 2.02584317689e-38
-0.00303141231612 -0.0606282463224 0.819 1.22385147927e-38
-0.00150830344178 -0.0603321376713 0.815 1.94182160123e-38
0.0 -0.0601840833457 0.813 1.73909883525e-38
0.00149349800922 -0.059739920369 0.807 1.6645903946e-38
0.00297959330217 -0.0595918660434 0.805 1.70110935362e-38
0.00445828587884 -0.0594438117178 0.803 1.84887571617e-38
0.00594438117178 -0.0594438117178 0.803 1.73856073664e-38
0.00742122306938 -0.059369784555 0.802 1.77543842807e-38
0.00890546768326 -0.059369784555 0.802 1.99663983663e-38
0.0103638027902 -0.0592217302295 0.8 1.97873922966e-38
0.0118443460459 -0.0592217302295 0.8 2.10806142156e-38
0.0132915770784 -0.0590736759039 0.798 2.09891949051e-38
0.0147314053946 -0.0589256215783 0.796 2.08094951926e-38
0.0161638309945 -0.0587775672528 0.794 2.10850030824e-38
0.0176332701758 -0.0587775672528 0.794 2.12701174121e-38
0.0190064740455 -0.0584814586016 0.79 2.1733243752e-38
0.0204685105106 -0.0584814586016 0.79 2.09041697194e-38
0.0219305469756 -0.0584814586016 0.79 2.15488356767e-38
0.0233925834406 -0.0584814586016 0.79 2.18239750249e-38
0.0249175429941 -0.0586295129272 0.792 2.28388724442e-38
0.0263832808172 -0.0586295129272 0.792 2.19179531064e-38
0.0278490186404 -0.0586295129272 0.792 2.12725991117e-38
0.0293147564636 -0.0586295129272 0.792 2.18243449677e-38
0.0307804942868 -0.0586295129272 0.792 2.20097956091e-38
0.0322462321099 -0.0586295129272 0.792 2.20079963419e-38
0.0337119699331 -0.0586295129272 0.792 2.25608141912e-38
0.0351777077563 -0.0586295129272 0.792 2.25604638666e-38
0.036735979533 -0.0587775672528 0.794 2.21009346599e-38
0.0383016540259 -0.0589256215783 0.796 2.25619156118e-38
0.0397747945654 -0.0589256215783 0.796 2.32051298238e-38
0.0413515731327 -0.0590736759039 0.798 2.34864306815e-38
0.0428284150303 -0.0590736759039 0.798 2.34820558276e-38
0.0443052569279 -0.0590736759039 0.798 2.07982287529e-38
0.0458968409278 -0.0592217302295 0.8 1.94078267855e-38
0.047495827644 -0.059369784555 0.802 2.0603437056e-38
0.0491632894858 -0.0595918660434 0.805 2.1805190619e-38
0.0507789323136 -0.059739920369 0.807 2.06945803107e-38
0.0525315253926 -0.0600360290201 0.811 2.25402949778e-38
0.0542989239041 -0.0603321376713 0.815 2.34647441864e-38
0.0558072273459 -0.0603321376713 0.815 2.34611428494e-38
0.0571748791784 -0.0601840833457 0.813 2.33744066783e-38
0.0586794812621 -0.0601840833457 0.813 2.34899773679e-38
0.0601840833457 -0.0601840833457 0.813 2.34889516174e-38
-0.0107135811343 -0.0596899520341 0.827 2.350044787e-38
-0.00918306954371 -0.0596899520341 0.827 2.35076617545e-38
-0.00763405116239 -0.0595455990667 0.825 1.7497990102e-38
-0.00609243549736 -0.0594012460992 0.823 1.69318108717e-38
-0.0045582225486 -0.0592568931318 0.821 2.23785977467e-38
-0.00303141231612 -0.0591125401644 0.819 1.30722271231e-38
-0.00151200479992 -0.0589681871969 0.817 1.5916972307e-38
0.0 -0.0586794812621 0.813 1.80327662336e-38
0.0015009007255 -0.0585351282946 0.811 1.70143193253e-38
0.00297959330217 -0.0581020693923 0.805 1.80273796423e-38
0.00446938995326 -0.0581020693923 0.805 1.74734968061e-38
0.00595918660434 -0.0581020693923 0.805 2.09791181678e-38
0.00743047646473 -0.0579577164249 0.803 2.01586985546e-38
0.00890546768326 -0.0578855399412 0.802 1.83061511562e-38
0.0103897122971 -0.0578855399412 0.802 1.87670858653e-38
0.011873956911 -0.0578855399412 0.802 1.80263034451e-38
0.0133248893016 -0.0577411869737 0.8 1.81184976736e-38
0.014768418976 -0.0575968340063 0.798 1.87663782095e-38
0.0162452608736 -0.0575968340063 0.798 2.08919195683e-38
0.0176776864735 -0.0574524810389 0.796 2.02512164831e-38
0.0191027093571 -0.0573081280714 0.794 2.08980348348e-38
0.0205203295245 -0.057163775104 0.792 2.14530092825e-38
0.0219860673477 -0.057163775104 0.792 2.22823944032e-38
0.0234518051709 -0.057163775104 0.792 2.20991199784e-38
0.0249804660824 -0.0573081280714 0.794 2.16385145745e-38
0.0264499052637 -0.0573081280714 0.794 2.16374327721e-38
0.0279193444451 -0.0573081280714 0.794 2.22849405626e-38
0.0293887836264 -0.0573081280714 0.794 2.25611673184e-38
0.0308582228077 -0.0573081280714 0.794 2.200729289e-38
0.032327661989 -0.0573081280714 0.794 2.27441390628e-38
0.0338822324075 -0.0574524810389 0.796 2.25600953251e-38
0.035355372947 -0.0574524810389 0.796 2.27427041332e-38
0.0368285134865 -0.0574524810389 0.796 2.34827746938e-38
0.0383978893375 -0.0575968340063 0.798 2.34845865727e-38
0.0398747312351 -0.0575968340063 0.798 2.31100447165e-38
0.0414552111606 -0.0577411869737 0.8 2.01579544651e-38
0.0429357544164 -0.0577411869737 0.8 2.04237121202e-38
0.0445273384163 -0.0578855399412 0.802 2.00495542198e-38
0.0460689540813 -0.0579577164249 0.803 2.08789435445e-38
0.0475550493743 -0.0579577164249 0.803 2.23562498388e-38
0.0492854343044 -0.0582464223598 0.807 2.1252773541e-38
0.0510306246671 -0.0585351282946 0.811 2.18949255688e-38
0.0526610729275 -0.0586794812621 0.813 2.18959947595e-38
0.0542989239041 -0.0588238342295 0.815 2.30909632353e-38
0.0558072273459 -0.0588238342295 0.815 2.3468765913e-38
0.0573155307877 -0.0588238342295 0.815 2.19013925612e-38
0.0588238342295 -0.0588238342295 0.815 2.35001115584e-38
0.0603321376713 -0.0588238342295 0.815 2.34856599673e-38
-0.0107394906413 -0.0583000920528 0.829 2.35033149266e-38
-0.00918306954371 -0.0581594404435 0.827 2.35047848887e-38
-0.00763405116239 -0.0580187888342 0.825 1.85164608323e-38
-0.00610724092991 -0.0580187888342 0.825 1.8960477665e-38
-0.00458043069744 -0.0580187888342 0.825 1.56501272443e-38
-0.0030388150324 -0.0577374856156 0.821 1.52755475531e-38
-0.00151570615806 -0.0575968340063 0.819 1.67431834867e-38
0.0 -0.0573155307877 0.815 1.72912607434e-38
0.00150460208364 -0.0571748791784 0.813 1.7290902011e-38
0.00300180145101 -0.0570342275691 0.811 1.76582439956e-38
0.00448049402767 -0.0567529243505 0.807 1.77475683649e-38
0.0059739920369 -0.0567529243505 0.807 1.87645901527e-38
0.00744898325543 -0.0566122727412 0.805 1.92312884023e-38
0.00891657175768 -0.0564716211319 0.803 1.82139204939e-38
0.0104026670506 -0.0564716211319 0.803 1.84872745879e-38
0.011873956911 -0.0564012953273 0.802 1.83010924687e-38
0.0133582015249 -0.0564012953273 0.802 1.86709455802e-38
0.0148424461388 -0.0564012953273 0.802 1.83014512011e-38
0.0162859758131 -0.056260643718 0.8 1.89503981252e-38
0.0177221027712 -0.0561199921087 0.798 1.87663684004e-38
0.0191989446688 -0.0561199921087 0.798 1.83032448632e-38
0.0206757865664 -0.0561199921087 0.798 1.98676768895e-38
0.0220971080919 -0.0559793404994 0.796 1.8211409367e-38
0.0235702486313 -0.0559793404994 0.796 1.90426610174e-38
0.0250433891708 -0.0559793404994 0.796 1.9506466987e-38
0.0265165297102 -0.0559793404994 0.796 2.00581637976e-38
0.0279896702497 -0.0559793404994 0.796 1.93234896374e-38
0.0295368379519 -0.0561199921087 0.798 2.11670435023e-38
0.0310136798495 -0.0561199921087 0.798 1.93235050517e-38
0.0324905217471 -0.0561199921087 0.798 1.97830384623e-38
0.0339673636447 -0.0561199921087 0.798 2.07960917728e-38
0.0354442055423 -0.0561199921087 0.798 2.13496607181e-38
0.0369210474399 -0.0561199921087 0.798 2.08897517595e-38
0.0384941246492 -0.056260643718 0.8 2.06109816469e-38
0.0399746679049 -0.056260643718 0.8 2.08814546713e-38
0.0415588491885 -0.0564012953273 0.802 2.03290067648e-38
0.0430430938024 -0.0564012953273 0.802 2.06055894504e-38
0.0445828587884 -0.0564716211319 0.803 2.05094673823e-38
0.0460689540813 -0.0564716211319 0.803 2.30973741758e-38
0.0476734928347 -0.0566122727412 0.805 1.98662643807e-38
0.049407579123 -0.0568935759598 0.809 2.34643742436e-38
0.0511564708438 -0.0571748791784 0.813 2.17126768944e-38
0.0527906204624 -0.0573155307877 0.815 2.16186847999e-38
0.0544321727972 -0.057456182397 0.817 2.31878251891e-38
0.0559441775971 -0.057456182397 0.817 2.34666009069e-38
0.057456182397 -0.057456182397 0.817 2.3193242609e-38
0.0589681871969 -0.057456182397 0.817 2.34957114812e-38
0.0604801919968 -0.057456182397 0.817 2.34916855507e-38
-0.0107394906413 -0.056765879104 0.829 2.34975864185e-38
-0.00920527769254 -0.056765879104 0.829 2.350478629e-38
-0.00767106474379 -0.056765879104 0.829 2.16518381203e-38
-0.00612204636247 -0.0566289288529 0.827 1.7023318464e-38
-0.00459153477185 -0.0566289288529 0.827 1.52805656029e-38
-0.00305362046496 -0.0564919786017 0.825 1.89598218573e-38
-0.0015194075162 -0.0562180780994 0.821 1.81271268696e-38
0.0 -0.0559441775971 0.817 1.66476948055e-38
0.00150830344178 -0.0558072273459 0.815 1.76571677984e-38
0.00300920416729 -0.0556702770948 0.813 1.74752904681e-38
0.00448049402767 -0.0552594263413 0.807 1.81163452792e-38
0.0059739920369 -0.0552594263413 0.807 1.79319568221e-38
0.00744898325543 -0.0551224760902 0.805 1.76560916012e-38
0.00893877990651 -0.0551224760902 0.805 1.85776807596e-38
0.0104026670506 -0.054985525839 0.803 1.83018099335e-38
0.0118887623436 -0.054985525839 0.803 1.90390050297e-38
0.0133748576365 -0.054985525839 0.803 1.90382875648e-38
0.0148609529295 -0.054985525839 0.803 1.8850337007e-38
0.0163266907526 -0.0549170507134 0.802 1.78401213259e-38
0.0177665190688 -0.0547801004623 0.8 1.82085395078e-38
0.0192470623246 -0.0547801004623 0.8 1.93163051802e-38
0.0207276055803 -0.0547801004623 0.8 1.86709455802e-38
0.0222081488361 -0.0547801004623 0.8 1.90379288324e-38
0.0236886920918 -0.0547801004623 0.8 1.86702281154e-38
0.0251692353475 -0.0547801004623 0.8 1.90397224945e-38
0.0266497786033 -0.0547801004623 0.8 2.11648939104e-38
0.028130321859 -0.0547801004623 0.8 1.97808902717e-38
0.0296108651147 -0.0547801004623 0.8 1.91297643286e-38
0.0310914083705 -0.0547801004623 0.8 1.96829297e-38
0.0325719516262 -0.0547801004623 0.8 1.95932620126e-38
0.0340524948819 -0.0547801004623 0.8 2.00542303528e-38
0.0355330381377 -0.0547801004623 0.8 2.06063069153e-38
0.0370135813934 -0.0547801004623 0.8 2.00491954874e-38
0.0385903599608 -0.0549170507134 0.802 2.04168962044e-38
0.0400746045747 -0.0549170507134 0.802 1.98651657627e-38
0.0415588491885 -0.0549170507134 0.802 2.1708712621e-38
0.0430967634954 -0.054985525839 0.803 2.07892604428e-38
0.0446938995326 -0.0551224760902 0.805 1.9683319261e-38
0.0461836961836 -0.0551224760902 0.805 2.3471916032e-38
0.0476734928347 -0.0551224760902 0.805 2.34744243562e-38
0.0496518687602 -0.0556702770948 0.813 2.15334031767e-38
0.0512823170206 -0.0558072273459 0.815 2.13402846301e-38
0.0529201679972 -0.0559441775971 0.817 2.25405920531e-38
0.0545654216902 -0.0560811278482 0.819 2.26367771797e-38
0.0560811278482 -0.0560811278482 0.819 2.34708944854e-38
0.0575968340063 -0.0560811278482 0.819 1.98713258707e-38
0.0591125401644 -0.0560811278482 0.819 1.72952067999e-38
-0.00920527769254 -0.0552316661553 0.829 2.3505471525e-38
-0.00767106474379 -0.0552316661553 0.829 2.34979395457e-38
-0.00613685179503 -0.0552316661553 0.829 1.56421832833e-38
-0.00459153477185 -0.0550984172622 0.827 1.50043416496e-38
-0.00305362046496 -0.0549651683692 0.825 1.70269730504e-38
-0.00152310887434 -0.0548319194762 0.823 1.84044522435e-38
0.0 -0.0546986705832 0.821 1.72959242647e-38
0.00151200479992 -0.0544321727972 0.817 1.77497277659e-38
0.00301660688356 -0.0542989239041 0.815 1.71058255163e-38
0.00451380625093 -0.0541656750111 0.813 1.74738555385e-38
0.00598879746946 -0.0538991772251 0.809 1.83018099335e-38
0.00746749004612 -0.0537659283321 0.807 1.76571677984e-38
0.00893877990651 -0.0536326794391 0.805 1.94999775738e-38
0.0104285765576 -0.0536326794391 0.805 1.82092569726e-38
0.0119183732087 -0.0536326794391 0.805 1.81159865468e-38
0.0134081698598 -0.0536326794391 0.805 2.04197884845e-38
0.0148609529295 -0.0534994305461 0.803 2.08893860206e-38
0.0163470482224 -0.0534994305461 0.803 1.75696370911e-38
0.0178331435154 -0.0534994305461 0.803 1.95010607775e-38
0.0192951799804 -0.0534328060995 0.802 2.05148427632e-38
0.0207794245943 -0.0534328060995 0.802 2.01486386329e-38
0.0222636692081 -0.0534328060995 0.802 1.85791100841e-38
0.023747913822 -0.0534328060995 0.802 1.90390050297e-38
0.0252321584359 -0.0534328060995 0.802 2.06059846166e-38
0.0266497786033 -0.0532995572065 0.8 2.24588823396e-38
0.028130321859 -0.0532995572065 0.8 2.01507167585e-38
0.0296848922775 -0.0534328060995 0.802 1.99595123857e-38
0.0311691368914 -0.0534328060995 0.802 2.17086972068e-38
0.0325719516262 -0.0532995572065 0.8 1.9496030116e-38
0.0340524948819 -0.0532995572065 0.8 2.06945550874e-38
0.035621870733 -0.0534328060995 0.802 1.97708191397e-38
0.0371061153469 -0.0534328060995 0.802 2.05994909995e-38
0.0386384776166 -0.0534994305461 0.803 2.06916852281e-38
0.0401245729095 -0.0534994305461 0.803 2.0509090433e-38
0.0416106682025 -0.0534994305461 0.803 1.9956283794e-38
0.0432041028815 -0.0536326794391 0.805 2.152215075e-38
0.0448049402767 -0.0537659283321 0.807 2.06055894504e-38
0.0464131803883 -0.0538991772251 0.809 2.24523522888e-38
0.0480288232161 -0.0540324261181 0.811 2.27303853184e-38
0.0498961583974 -0.0544321727972 0.817 2.18948835298e-38
0.0515340093741 -0.0545654216902 0.819 2.24476985766e-38
0.053179263067 -0.0546986705832 0.821 2.23573008127e-38
0.0546986705832 -0.0546986705832 0.821 2.34654952824e-38
0.0562180780994 -0.0546986705832 0.821 2.34715881281e-38
0.0577374856156 -0.0546986705832 0.821 1.86723917202e-38
0.0592568931318 -0.0546986705832 0.821 2.34709141036e-38
-0.00924969399022 -0.0539565482763 0.833 2.35019066217e-38
-0.00770807832518 -0.0539565482763 0.833 2.35018898061e-38
-0.00613685179503 -0.0536974532065 0.829 1.46313286101e-38
-0.00460263884627 -0.0536974532065 0.829 1.68432656244e-38
-0.00306102318124 -0.0535679056716 0.827 1.92449762857e-38
-0.00152681023248 -0.0534383581368 0.825 1.65634389327e-38
0.0 -0.0533088106019 0.823 1.74806714542e-38
0.00152310887434 -0.0533088106019 0.823 1.71068722863e-38
0.0030388150324 -0.053179263067 0.821 1.73830962396e-38
0.00453601439976 -0.0529201679972 0.817 1.81174214764e-38
0.00601840833457 -0.0526610729275 0.813 1.83936454297e-38
0.00746749004612 -0.0522724303229 0.807 1.83025273984e-38
0.00896098805535 -0.0522724303229 0.807 1.83010924687e-38
0.0104544860646 -0.0522724303229 0.807 1.87613461467e-38
0.0119479840738 -0.0522724303229 0.807 1.8302168666e-38
0.013441482083 -0.0522724303229 0.807 1.89460933363e-38
0.0149349800922 -0.0522724303229 0.807 1.96875932213e-38
0.0163877631619 -0.052142882788 0.805 1.87652922032e-38
0.017877559813 -0.052142882788 0.805 1.88538991077e-38
0.0193673564641 -0.052142882788 0.805 1.82067458457e-38
0.0208571531152 -0.052142882788 0.805 1.94056295495e-38
0.0223469497663 -0.052142882788 0.805 2.08811015441e-38
0.0238367464174 -0.052142882788 0.805 1.93145115181e-38
0.0252636199801 -0.0520133352531 0.803 1.95900180066e-38
0.026749715273 -0.0520133352531 0.803 1.93105654617e-38
0.028235810566 -0.0520133352531 0.803 2.25363068824e-38
0.0297219058589 -0.0520133352531 0.803 1.98666006923e-38
0.0312080011519 -0.0520133352531 0.803 2.01406722511e-38
0.0326940964448 -0.0520133352531 0.803 2.00474018254e-38
0.0341801917378 -0.0520133352531 0.803 2.02314315501e-38
0.0356662870307 -0.0520133352531 0.803 1.97697429424e-38
0.0371523823236 -0.0520133352531 0.803 2.06927614253e-38
0.0387347129282 -0.052142882788 0.805 2.09689853786e-38
0.0402245095793 -0.052142882788 0.805 2.06037957884e-38
0.0418179442583 -0.0522724303229 0.807 2.00502716846e-38
0.0434187816536 -0.0524019778577 0.809 2.08789435445e-38
0.0449159810209 -0.0524019778577 0.809 2.05083729682e-38
0.0465279224906 -0.0525315253926 0.811 2.24437637305e-38
0.0481472666766 -0.0526610729275 0.813 2.12488106689e-38
0.0498961583974 -0.0529201679972 0.817 2.30001941273e-38
0.0516598555508 -0.053179263067 0.821 2.18048360905e-38
0.053179263067 -0.053179263067 0.821 2.21729347763e-38
0.0546986705832 -0.053179263067 0.821 2.32803795514e-38
0.0562180780994 -0.053179263067 0.821 2.34744355666e-38
0.0577374856156 -0.053179263067 0.821 2.30030513749e-38
-0.00924969399022 -0.0524149326112 0.833 2.35015310737e-38
-0.00770807832518 -0.0524149326112 0.833 2.350406322e-38
-0.00616646266014 -0.0524149326112 0.833 1.61003280071e-38
-0.00460263884627 -0.0521632402577 0.829 1.74868399701e-38
-0.00306842589751 -0.0521632402577 0.829 1.82358830447e-38
-0.00153421294876 -0.0521632402577 0.829 1.50915710777e-38
0.0 -0.052037394081 0.827 1.71108183427e-38
0.00153051159062 -0.052037394081 0.827 1.76625487845e-38
0.00306102318124 -0.052037394081 0.827 1.78419149879e-38
0.00458043069744 -0.0519115479043 0.825 1.87595524847e-38
0.0060776300648 -0.0516598555508 0.821 1.87609874143e-38
0.00752301041821 -0.0511564708438 0.813 1.88514188094e-38
0.00902761250186 -0.0511564708438 0.813 1.9404913486e-38
0.0105063050785 -0.0510306246671 0.811 1.85766241806e-38
0.012007205804 -0.0510306246671 0.811 1.85783926192e-38
0.0135081065295 -0.0510306246671 0.811 1.92251871488e-38
0.0149719936736 -0.0509047784904 0.809 1.79337504841e-38
0.016469193041 -0.0509047784904 0.809 1.96854408268e-38
0.0179663924084 -0.0509047784904 0.809 1.87613461467e-38
0.0194635917757 -0.0509047784904 0.809 1.86673582561e-38
0.0209607911431 -0.0509047784904 0.809 1.93098479968e-38
0.0224024701384 -0.0507789323136 0.807 1.99584445963e-38
0.0238959681476 -0.0507789323136 0.807 1.94996174401e-38
0.0253265430684 -0.0506530861369 0.805 2.0048836755e-38
0.0268163397195 -0.0506530861369 0.805 2.03239845111e-38
0.0283061363706 -0.0506530861369 0.805 1.98630133682e-38
0.0297959330217 -0.0506530861369 0.805 2.04168962044e-38
0.0312857296728 -0.0506530861369 0.805 1.96807773055e-38
0.0327755263239 -0.0506530861369 0.805 1.94956713836e-38
0.034265322975 -0.0506530861369 0.805 2.02325077473e-38
0.035755119626 -0.0506530861369 0.805 1.9403477155e-38
0.0372449162771 -0.0506530861369 0.805 2.09707790406e-38
0.0388309482398 -0.0507789323136 0.807 1.96775487139e-38
0.0404243829188 -0.0509047784904 0.809 2.03257781731e-38
0.0419215822862 -0.0509047784904 0.809 2.25452569757e-38
0.0435261210396 -0.0510306246671 0.811 2.05173412784e-38
0.0451380625093 -0.0511564708438 0.813 2.05090988408e-38
0.0466426645929 -0.0511564708438 0.813 2.13417083493e-38
0.0483841535975 -0.0514081631973 0.817 2.15278904685e-38
0.0501404480346 -0.0516598555508 0.821 2.16175735702e-38
0.0517857017275 -0.0517857017275 0.823 2.25373816783e-38
0.0533088106019 -0.0517857017275 0.823 2.34622176453e-38
0.0546986705832 -0.0516598555508 0.821 2.20828901396e-38
0.0562180780994 -0.0516598555508 0.821 2.34694441415e-38
-0.00772658511588 -0.0509954617648 0.835 2.35087267413e-38
-0.0061812680927 -0.0509954617648 0.835 1.86822162238e-38
-0.00463595106953 -0.0509954617648 0.835 1.63772876421e-38
-0.00309063404635 -0.0509954617648 0.835 1.62943854237e-38
-0.00154161566504 -0.0508733169462 0.833 1.72191751478e-38
0.0 -0.0508733169462 0.833 1.49135823507e-38
0.00154161566504 -0.0508733169462 0.833 1.72069586278e-38
0.00307582861379 -0.0507511721276 0.831 1.82110506346e-38
0.00460263884627 -0.050629027309 0.829 1.84847634611e-38
0.00612204636247 -0.0505068824904 0.827 1.94059882819e-38
0.00763405116239 -0.0503847376718 0.825 1.82989400743e-38
0.00913865324604 -0.0502625928532 0.823 2.07835207243e-38
0.0106358526134 -0.0501404480346 0.821 1.93094892644e-38
0.0120960383994 -0.0498961583974 0.817 1.89450171391e-38
0.013574730976 -0.0497740135788 0.815 1.94992587077e-38
0.0150830344178 -0.0497740135788 0.815 1.96850820944e-38
0.0165099079805 -0.0495297239416 0.811 1.92212509014e-38
0.018010808706 -0.0495297239416 0.811 1.94059882819e-38
0.0195117094315 -0.0495297239416 0.811 1.97733302665e-38
0.021012610157 -0.0495297239416 0.811 2.0509090433e-38
0.0224579905105 -0.049407579123 0.809 1.98687530867e-38
0.0239551898778 -0.049407579123 0.809 1.96822122352e-38
0.0254523892452 -0.049407579123 0.809 1.99588173416e-38
0.0269495886125 -0.049407579123 0.809 1.95878656122e-38
0.0284467879799 -0.049407579123 0.809 1.89403536178e-38
0.0298699601845 -0.0492854343044 0.807 2.01356499975e-38
0.0313634581937 -0.0492854343044 0.807 1.94049120847e-38
0.0328569562029 -0.0492854343044 0.807 1.94974650456e-38
0.0343504542122 -0.0492854343044 0.807 2.01399547863e-38
0.0359327848167 -0.049407579123 0.809 1.98651657627e-38
0.0374299841841 -0.049407579123 0.809 1.95886083004e-38
0.0390234188631 -0.0495297239416 0.811 2.08793022769e-38
0.0405243195886 -0.0495297239416 0.811 2.34686874403e-38
0.0420252203141 -0.0495297239416 0.811 2.19059944253e-38
0.0436334604256 -0.0496518687602 0.813 1.99652521042e-38
0.0452491032535 -0.0497740135788 0.815 2.09726357611e-38
0.0469868908999 -0.050018303216 0.819 2.17097692001e-38
0.0486210405184 -0.0501404480346 0.821 2.09715007093e-38
0.0502625928532 -0.0502625928532 0.823 2.2442658106e-38
0.0517857017275 -0.0502625928532 0.823 2.30898730251e-38
0.0534383581368 -0.0503847376718 0.825 2.23533799796e-38
0.0549651683692 -0.0503847376718 0.825 2.34687098611e-38
0.0564919786017 -0.0503847376718 0.825 2.34683511287e-38
0.0580187888342 -0.0503847376718 0.825 2.22643863167e-38
-0.00793941320889 -0.0508122445369 0.858 2.35098029385e-38
-0.00619607352526 -0.0495685882021 0.837 1.56475964993e-38
-0.00464705514394 -0.0495685882021 0.837 2.11692519486e-38
-0.00309063404635 -0.0494501447416 0.835 1.63744163816e-38
-0.00154531702318 -0.0494501447416 0.835 1.44461540245e-38
0.0 -0.0494501447416 0.835 1.07630484032e-38
0.00154161566504 -0.0493317012812 0.833 1.83983664042e-38
0.00307582861379 -0.0492132578207 0.831 1.80291733043e-38
0.00460263884627 -0.0490948143602 0.829 1.90390050297e-38
0.00612204636247 -0.0489763708998 0.827 1.89461031454e-38
0.00765255795309 -0.0489763708998 0.827 1.95900180066e-38
0.00916086139487 -0.0488579274393 0.825 1.96800598407e-38
0.0106876716274 -0.0488579274393 0.825 1.92176593735e-38
0.0121848709947 -0.0487394839789 0.823 1.93130765885e-38
0.0136413554225 -0.0485025970579 0.819 2.02339426769e-38
0.0150830344178 -0.048265710137 0.815 1.99609473153e-38
0.0165913378596 -0.048265710137 0.815 1.94074232115e-38
0.0180996413014 -0.048265710137 0.815 1.90404399593e-38
0.0196079447432 -0.048265710137 0.815 1.93130765885e-38
0.021064429171 -0.0481472666766 0.813 1.94052708171e-38
0.0225690312546 -0.0481472666766 0.813 1.94074232115e-38
0.0241328550685 -0.048265710137 0.815 1.97715366045e-38
0.0256411585103 -0.048265710137 0.815 1.94953126512e-38
0.0271494619521 -0.048265710137 0.815 1.89450171391e-38
0.0287280911985 -0.0483841535975 0.817 1.96829297e-38
0.0301660688356 -0.048265710137 0.815 1.98673181571e-38
0.0315966437565 -0.0481472666766 0.813 1.90379288324e-38
0.0331012458401 -0.0481472666766 0.813 2.00484780226e-38
0.0346058479238 -0.0481472666766 0.813 2.0048836755e-38
0.0361104500074 -0.0481472666766 0.813 1.88538991077e-38
0.0376150520911 -0.0481472666766 0.813 1.96829297e-38
0.0391196541747 -0.0481472666766 0.813 2.09732901675e-38
0.0407241929281 -0.048265710137 0.815 2.09732901675e-38
0.0422324963699 -0.048265710137 0.815 2.03261369055e-38
0.0438481391977 -0.0483841535975 0.817 2.30001366741e-38
0.0453601439976 -0.0483841535975 0.817 2.07878325196e-38
0.0469868908999 -0.0485025970579 0.819 2.26295969264e-38
0.0486210405184 -0.0486210405184 0.821 2.11573535234e-38
0.0503847376718 -0.0488579274393 0.825 2.30894806616e-38
0.052037394081 -0.0489763708998 0.827 2.17991131876e-38
0.0536974532065 -0.0490948143602 0.829 2.34629365114e-38
0.0552316661553 -0.0490948143602 0.829 2.14331851131e-38
0.056765879104 -0.0490948143602 0.829 2.34661440836e-38
-0.00957171214834 -0.0494538460997 0.862 2.34993688702e-38
-0.00793941320889 -0.0492243618951 0.858 2.3505485538e-38
-0.00635153056711 -0.0492243618951 0.858 1.86925648129e-38
-0.00476364792533 -0.0492243618951 0.858 1.83079840546e-38
-0.00309803676263 -0.0480195698208 0.837 1.96977554377e-38
-0.00154901838131 -0.0480195698208 0.837 1.52694533061e-38
0.0 -0.0479048277184 0.835 1.96076925841e-38
0.00154531702318 -0.0479048277184 0.835 1.54491698341e-38
0.00308323133007 -0.0477900856161 0.833 1.80316844312e-38
0.00461374292069 -0.0476753435138 0.831 1.83025273984e-38
0.00613685179503 -0.0475606014115 0.829 1.87617048792e-38
0.00767106474379 -0.0475606014115 0.829 1.89450171391e-38
0.00918306954371 -0.0474458593092 0.827 1.86673582561e-38
0.0106876716274 -0.0473311172068 0.825 1.8848876854e-38
0.0122144818598 -0.0473311172068 0.825 1.82035172541e-38
0.0136746676458 -0.0471016330022 0.821 1.92183712331e-38
0.0151570615806 -0.0469868908999 0.819 1.88521054457e-38
0.0166727677387 -0.0469868908999 0.819 1.86691519182e-38
0.0181884738967 -0.0469868908999 0.819 1.87613461467e-38
0.0197041800548 -0.0469868908999 0.819 1.96836471648e-38
0.0211680671989 -0.0468721487976 0.817 1.93159464478e-38
0.0226800719988 -0.0468721487976 0.817 1.87620636116e-38
0.024251298529 -0.0469868908999 0.819 2.05112428274e-38
0.025767004687 -0.0469868908999 0.819 1.92248284164e-38
0.0272827108451 -0.0469868908999 0.819 1.95907354714e-38
0.0287984170032 -0.0469868908999 0.819 1.95907354714e-38
0.0303141231612 -0.0469868908999 0.819 2.10669627659e-38
0.0317521007983 -0.0468721487976 0.817 2.0143183378e-38
0.0332641055983 -0.0468721487976 0.817 1.97722540693e-38
0.0347761103982 -0.0468721487976 0.817 2.05087317006e-38
0.0361992826028 -0.0467574066952 0.815 1.87617048792e-38
0.0377075860445 -0.0467574066952 0.815 2.04219184581e-38
0.0392158894863 -0.0467574066952 0.815 1.97733302665e-38
0.0408241295979 -0.0468721487976 0.817 1.98651657627e-38
0.0424397724257 -0.0469868908999 0.819 2.15228682148e-38
0.0440628179698 -0.0471016330022 0.821 2.05119602923e-38
0.045582225486 -0.0471016330022 0.821 2.11573198922e-38
0.0472163751045 -0.0472163751045 0.823 2.1709050334e-38
0.0489763708998 -0.0474458593092 0.827 2.14353571257e-38
0.0505068824904 -0.0474458593092 0.827 2.23554861311e-38
0.0521632402577 -0.0475606014115 0.829 2.2354419743e-38
0.0540860958111 -0.0479048277184 0.835 2.14353375075e-38
0.0560311595134 -0.0482490540254 0.841 2.34639916891e-38
0.057587580611 -0.0482490540254 0.841 2.34723616449e-38
0.0822848927957 -0.0593216668992 1.034 2.3509823958e-38
0.0841984949538 -0.0593216668992 1.034 2.35098127476e-38
-0.00957171214834 -0.0478585607417 0.862 2.35029589968e-38
-0.00797642679028 -0.0478585607417 0.862 2.35047960991e-38
-0.00635153056711 -0.0476364792533 0.858 1.89723971098e-38
-0.00476364792533 -0.0476364792533 0.858 1.9233512263e-38
-0.00317576528356 -0.0476364792533 0.858 1.9601203171e-38
-0.00155642109759 -0.0466926329278 0.841 1.84026221477e-38
0.0 -0.0465815921836 0.839 1.45257926189e-38
0.00154901838131 -0.0464705514394 0.837 1.68274281491e-38
0.00309063404635 -0.0463595106953 0.835 1.84940905036e-38
0.00462484699511 -0.0462484699511 0.833 1.80266719866e-38
0.00615165722759 -0.0461374292069 0.831 1.88553340373e-38
0.00768957153448 -0.0461374292069 0.831 1.84854977414e-38
0.00920527769254 -0.0460263884627 0.829 1.89442996742e-38
0.0107394906413 -0.0460263884627 0.829 1.89442996742e-38
0.0122737035901 -0.0460263884627 0.829 1.88517467133e-38
0.0137412920923 -0.0458043069744 0.825 1.89450171391e-38
0.0152681023248 -0.0458043069744 0.825 1.88524641781e-38
0.0167949125573 -0.0458043069744 0.825 1.84840459962e-38
0.0182773064921 -0.0456932662302 0.823 1.94041946199e-38
0.0198004153664 -0.0456932662302 0.823 1.89442996742e-38
0.0212717052268 -0.045582225486 0.821 1.91294055962e-38
0.022791112743 -0.045582225486 0.821 1.93148702505e-38
0.0243105202592 -0.045582225486 0.821 1.90375701e-38
0.0258299277754 -0.045582225486 0.821 1.94974650456e-38
0.0273493352916 -0.045582225486 0.821 1.99577187236e-38
0.0288687428078 -0.045582225486 0.821 1.9681136038e-38
0.030388150324 -0.045582225486 0.821 1.95889418094e-38
0.0318298293193 -0.0454711847418 0.819 1.96800598407e-38
0.0333455354773 -0.0454711847418 0.819 2.01406722511e-38
0.0349463728726 -0.045582225486 0.821 1.96804185731e-38
0.0364657803888 -0.045582225486 0.821 2.00502716846e-38
0.037985187905 -0.045582225486 0.821 2.06055894504e-38
0.0395045954212 -0.045582225486 0.821 2.02328664797e-38
0.0410240029374 -0.045582225486 0.821 2.02332252121e-38
0.0425434104536 -0.045582225486 0.821 2.15228682148e-38
0.0441701573558 -0.0456932662302 0.823 2.09725727027e-38
0.0456932662302 -0.0456932662302 0.823 2.09732901675e-38
0.0474458593092 -0.0459153477185 0.827 2.19849281665e-38
0.0490948143602 -0.0460263884627 0.829 2.12513540257e-38
0.050629027309 -0.0460263884627 0.829 2.33696226454e-38
0.0522890864345 -0.0461374292069 0.831 2.00477605578e-38
0.0544747384158 -0.0466926329278 0.841 2.2442658106e-38
0.0561644084064 -0.046803673672 0.843 2.34668881731e-38
0.0577245308621 -0.046803673672 0.843 2.29123172993e-38
0.0594253049271 -0.0469147144162 0.845 2.34816606615e-38
0.0744139547124 -0.0572415036249 1.031 2.24635654791e-38
0.0763220048332 -0.0572415036249 1.031 2.35098015372e-38
0.0782300549541 -0.0572415036249 1.031 2.35098435762e-38
0.0801381050749 -0.0572415036249 1.031 2.35098449775e-38
0.0822848927957 -0.0574080647412 1.034 2.35098351684e-38
0.0841984949538 -0.0574080647412 1.034 2.35098337671e-38
0.0861120971118 -0.0574080647412 1.034 2.35098407736e-38
-0.00797642679028 -0.0462632753836 0.862 2.350800227e-38
-0.00636633599967 -0.0461559359976 0.86 2.03589441051e-38
-0.00476364792533 -0.0460485966116 0.858 2.12625195718e-38
-0.00316836256728 -0.0459412572255 0.856 1.54488699563e-38
-0.00157492788829 -0.0456729087604 0.851 1.94092336891e-38
0.0 -0.0453508906023 0.845 1.79377161588e-38
0.00155271973945 -0.0450288724442 0.839 1.58186642132e-38
0.00309803676263 -0.0449215330581 0.837 1.79351854137e-38
0.00463595106953 -0.0448141936721 0.835 1.83036035956e-38
0.00616646266014 -0.044706854286 0.833 1.88553340373e-38
0.00770807832518 -0.044706854286 0.833 1.96843646296e-38
0.00922748584138 -0.0445995149 0.831 1.86695106506e-38
0.0107654001483 -0.0445995149 0.831 1.97729715341e-38
0.0123033144552 -0.0445995149 0.831 1.84818936018e-38
0.0138079165388 -0.044492175514 0.829 1.91294055962e-38
0.0153421294876 -0.044492175514 0.829 1.89450171391e-38
0.0168763424363 -0.044492175514 0.829 1.90364939028e-38
0.0183217227897 -0.0442774967419 0.825 1.93130765885e-38
0.0198485330222 -0.0442774967419 0.825 1.85765989572e-38
0.0213753432547 -0.0442774967419 0.825 2.0235736339e-38
0.0228466331151 -0.0441701573558 0.823 1.82996575391e-38
0.0243697419894 -0.0441701573558 0.823 1.94041946199e-38
0.0258928508638 -0.0441701573558 0.823 1.93130765885e-38
0.0274159597381 -0.0441701573558 0.823 1.96800598407e-38
0.0288687428078 -0.0440628179698 0.821 1.95878656122e-38
0.030388150324 -0.0440628179698 0.821 1.98662419599e-38
0.0319075578402 -0.0440628179698 0.821 1.95907354714e-38
0.0334269653564 -0.0440628179698 0.821 1.98658832275e-38
0.0350315041098 -0.0441701573558 0.823 1.97733302665e-38
0.0365546129841 -0.0441701573558 0.823 1.98666006923e-38
0.0380777218585 -0.0441701573558 0.823 2.04183311341e-38
0.0396970660444 -0.0442774967419 0.825 1.99580774561e-38
0.0412238762769 -0.0442774967419 0.825 2.07863905835e-38
0.0428543245373 -0.0443848361279 0.827 2.11540913005e-38
0.0443848361279 -0.0443848361279 0.827 2.2631379378e-38
0.0460263884627 -0.044492175514 0.829 2.08836603151e-38
0.0475606014115 -0.044492175514 0.829 2.34622260531e-38
0.0492132578207 -0.0445995149 0.831 2.11576912363e-38
0.0508733169462 -0.044706854286 0.833 1.97736889989e-38
0.0530441634949 -0.0452435512162 0.843 2.29951620645e-38
0.0546042859506 -0.0452435512162 0.843 2.34596939068e-38
0.0562976572994 -0.0453508906023 0.845 2.34679363443e-38
0.0578614811133 -0.0453508906023 0.845 1.80281363435e-38
0.0594253049271 -0.0453508906023 0.845 2.34892304758e-38
0.0763220048332 -0.0553334535041 1.031 2.3509462423e-38
0.0782300549541 -0.0553334535041 1.031 2.35098435762e-38
0.0801381050749 -0.0553334535041 1.031 2.35098281619e-38
0.0822848927957 -0.0554944625832 1.034 2.35098323658e-38
0.0841984949538 -0.0554944625832 1.034 2.35098281619e-38
-0.00795791999959 -0.0445643519977 0.86 2.35037030863e-38
-0.00635153056711 -0.0444607139698 0.858 2.10972294115e-38
-0.00475254385092 -0.0443570759419 0.856 2.05267748196e-38
-0.00316836256728 -0.0443570759419 0.856 2.16377536694e-38
-0.0015804799255 -0.044253437914 0.854 1.66530785942e-38
0.0 -0.0439943428442 0.849 1.74767253978e-38
0.00156012245573 -0.0436834287605 0.843 1.81235199273e-38
0.00311284219519 -0.0435797907326 0.841 1.87649334708e-38
0.00465815921836 -0.0434761527047 0.839 1.83046797928e-38
0.00619607352526 -0.0433725146768 0.837 1.8762422344e-38
0.00772658511588 -0.0432688766489 0.835 1.85769576896e-38
0.00927190213905 -0.0432688766489 0.835 1.86695106506e-38
0.0107913096553 -0.043165238621 0.833 1.93120003913e-38
0.0123329253203 -0.043165238621 0.833 1.91272532017e-38
0.0138745409853 -0.043165238621 0.833 1.96825709676e-38
0.0154161566504 -0.043165238621 0.833 2.08807484169e-38
0.0169577723154 -0.043165238621 0.833 1.95878656122e-38
0.0184105553851 -0.0429579625652 0.829 2.06030783236e-38
0.0199447683338 -0.0429579625652 0.829 1.9497823778e-38
0.0214271622687 -0.0428543245373 0.827 2.04212009933e-38
0.0229021534872 -0.0427506865094 0.825 1.90375701e-38
0.0244289637197 -0.0427506865094 0.825 1.99580774561e-38
0.0259557739521 -0.0427506865094 0.825 1.98658832275e-38
0.0274159597381 -0.0426470484815 0.823 2.01403135187e-38
0.0289390686124 -0.0426470484815 0.823 1.93127444808e-38
0.0304621774868 -0.0426470484815 0.823 2.04186898665e-38
0.0319852863611 -0.0426470484815 0.823 1.94992587077e-38
0.0335083952355 -0.0426470484815 0.823 1.99580774561e-38
0.035116635347 -0.0427506865094 0.825 2.00502716846e-38
0.0366434455795 -0.0427506865094 0.825 2.00484780226e-38
0.038170255812 -0.0427506865094 0.825 2.04168962044e-38
0.0397933013561 -0.0428543245373 0.827 2.02332252121e-38
0.0413238129467 -0.0428543245373 0.827 2.07863905835e-38
0.0429579625652 -0.0429579625652 0.829 2.06941963549e-38
0.0445995149 -0.0430616005931 0.831 2.16161610614e-38
0.0461374292069 -0.0430616005931 0.831 2.14331865144e-38
0.0476753435138 -0.0430616005931 0.831 2.16143449786e-38
0.0494501447416 -0.0432688766489 0.835 2.16172442651e-38
0.051239751402 -0.0434761527047 0.839 2.25427962956e-38
0.0530441634949 -0.0436834287605 0.843 2.23558448636e-38
0.0546042859506 -0.0436834287605 0.843 2.34751824587e-38
0.0562976572994 -0.0437870667884 0.845 2.34722593501e-38
0.0578614811133 -0.0437870667884 0.845 1.74789030156e-38
0.0594253049271 -0.0437870667884 0.845 2.34896242407e-38
0.0763220048332 -0.0534254033833 1.031 2.3509795932e-38
0.0782300549541 -0.0534254033833 1.031 2.35098309645e-38
0.0801381050749 -0.0534254033833 1.031 2.35098407736e-38
-0.00795791999959 -0.0429727679978 0.86 2.35047498563e-38
-0.00635153056711 -0.042872831328 0.858 2.28503939202e-38
-0.00475254385092 -0.0427728946582 0.856 1.85006191532e-38
-0.00316836256728 -0.0427728946582 0.856 2.11760468449e-38
-0.0015804799255 -0.0426729579885 0.854 2.15459630148e-38
0.0 -0.0425230529838 0.851 1.74868217532e-38
0.00156382381387 -0.0422232429745 0.845 1.7292695673e-38
0.00312024491147 -0.0421233063048 0.843 1.82135617615e-38
0.0046803673672 -0.0421233063048 0.843 1.85791100841e-38
0.00622568439037 -0.042023369635 0.841 1.86702281154e-38
0.00776359869727 -0.0419234329653 0.839 1.9130123061e-38
0.00929411028789 -0.0418234962955 0.837 1.86702281154e-38
0.0108431286692 -0.0418234962955 0.837 1.88524641781e-38
0.0123921470505 -0.0418234962955 0.837 1.88524641781e-38
0.0139078532086 -0.0417235596257 0.835 2.02350188742e-38
0.0154531702318 -0.0417235596257 0.835 1.9403477155e-38
0.0169984872549 -0.0417235596257 0.835 1.94024009578e-38
0.0185438042781 -0.0417235596257 0.835 1.97711778721e-38
0.0199928859897 -0.0415236862862 0.831 1.9403477155e-38
0.0215308002966 -0.0415236862862 0.831 2.02360950714e-38
0.0230131942314 -0.0414237496164 0.829 2.0603437056e-38
0.0245474071801 -0.0414237496164 0.829 1.92198061627e-38
0.0260816201289 -0.0414237496164 0.829 2.01406722511e-38
0.0275492086311 -0.0413238129467 0.827 2.03257781731e-38
0.0290797202217 -0.0413238129467 0.827 1.99587949209e-38
0.0306102318124 -0.0413238129467 0.827 2.0141389716e-38
0.0320630148821 -0.0412238762769 0.825 2.00502716846e-38
0.0335898251145 -0.0412238762769 0.825 1.99587949209e-38
0.0352017665842 -0.0413238129467 0.827 1.99580774561e-38
0.0367322781748 -0.0413238129467 0.827 2.00484780226e-38
0.0383553237189 -0.0414237496164 0.829 2.02307140853e-38
0.0398895366677 -0.0414237496164 0.829 2.03232670462e-38
0.0415236862862 -0.0415236862862 0.831 2.13406349547e-38
0.0430616005931 -0.0415236862862 0.831 2.23547686663e-38
0.0445995149 -0.0415236862862 0.831 2.26327960907e-38
0.0462484699511 -0.041623622956 0.833 2.09740412635e-38
0.0479048277184 -0.0417235596257 0.835 2.09722139703e-38
0.0496870316625 -0.0419234329653 0.839 2.19856750586e-38
0.0514840410392 -0.0421233063048 0.843 2.20799936557e-38
0.0530441634949 -0.0421233063048 0.843 2.29079858858e-38
0.0547338334855 -0.0422232429745 0.845 2.30930735908e-38
0.0564309061924 -0.0423231796443 0.847 2.34712321983e-38
0.0579984313644 -0.0423231796443 0.847 1.83993851482e-38
0.0595659565364 -0.0423231796443 0.847 2.34867263554e-38
-0.00795791999959 -0.0413811839978 0.86 2.35033093215e-38
-0.00636633599967 -0.0413811839978 0.86 2.34997332078e-38
-0.00477475199975 -0.0413811839978 0.86 1.86850272285e-38
-0.00317576528356 -0.0412849486862 0.858 1.84044522435e-38
-0.00158418128364 -0.0411887133746 0.856 1.90462315258e-38
0.0 -0.041092478063 0.854 2.17267221089e-38
0.00156752517201 -0.0407556544723 0.847 1.77634436752e-38
0.00312764762774 -0.0406594191607 0.845 1.70157542549e-38
0.0046803673672 -0.040563183849 0.843 1.86687931858e-38
0.00624048982293 -0.040563183849 0.843 1.83929279649e-38
