# .PCD v0.7 - Point Cloud Data file format
VERSION 0.7
FIELDS x y z rgb
SIZE 4 4 4 4
TYPE F F F F
COUNT 1 1 1 1
WIDTH 851
HEIGHT 1
VIEWPOINT 0 0 0 1 0 0 0
POINTS 851
DATA ascii
0.0377075860445 -0.114631061575 0.815 1.31698710014e-38
0.0392158894863 -0.114631061575 0.815 1.27989276797e-38
0.0406242562583 -0.114349758357 0.813 1.38137998756e-38
0.042128858342 -0.114349758357 0.813 1.25226841083e-38
0.0437407998117 -0.114631061575 0.815 1.41825627769e-38
0.0452491032535 -0.114631061575 0.815 1.39049193083e-38
0.0468721487976 -0.114912364794 0.817 1.26123756178e-38
0.0483841535975 -0.114912364794 0.817 1.24297850266e-38
0.0496518687602 -0.114349758357 0.813 1.20628045769e-38
0.0510306246671 -0.114068455138 0.811 1.31687835938e-38
0.0524019778577 -0.11378715192 0.809 1.29844273665e-38
0.0538991772251 -0.11378715192 0.809 1.18787608392e-38
0.0555333268436 -0.114068455138 0.811 1.030860591e-38
0.0570342275691 -0.114068455138 0.811 1.04965746847e-38
-0.0104026670506 -0.111457146971 0.803 8.19739703192e-39
-0.00890546768326 -0.111318346041 0.802 1.32653134398e-38
-0.00740271627868 -0.11104074418 0.8 2.15557118482e-38
-0.00592217302295 -0.11104074418 0.8 2.08119740896e-38
-0.00444162976721 -0.11104074418 0.8 1.42635830515e-38
-0.00296108651147 -0.11104074418 0.8 1.3443941159e-38
-0.00148054325574 -0.11104074418 0.8 1.57487968731e-38
0.0 -0.11104074418 0.8 1.71303019966e-38
0.00148054325574 -0.11104074418 0.8 1.72199766905e-38
0.00296848922775 -0.111318346041 0.802 1.67593740892e-38
0.00450270217651 -0.112567554413 0.811 1.68519200437e-38
0.00603321376713 -0.113122758134 0.815 1.66675287839e-38
0.00756002399961 -0.113400359994 0.817 1.57455893009e-38
0.00909423694836 -0.113677961855 0.819 1.64845640461e-38
0.0106099431064 -0.113677961855 0.819 1.59310581591e-38
0.0121552601296 -0.113955563715 0.821 1.55633462317e-38
0.0137079798691 -0.114233165575 0.823 1.53789353538e-38
0.0152681023248 -0.114510767436 0.825 1.52853328203e-38
0.0168356274968 -0.114788369296 0.827 1.50069130323e-38
0.0183661390874 -0.114788369296 0.827 1.49147580401e-38
0.0199447683338 -0.115065971157 0.829 1.45474146542e-38
0.0215826193105 -0.115621174878 0.833 1.43641023943e-38
0.0231242349755 -0.115621174878 0.833 1.41807803253e-38
0.0246066289103 -0.115343573017 0.831 1.445737282e-38
0.0261445432172 -0.115343573017 0.831 1.41822278666e-38
0.0276824575241 -0.115343573017 0.831 1.35372059796e-38
0.029220371831 -0.115343573017 0.831 1.36283380239e-38
0.0307582861379 -0.115343573017 0.831 1.36272562215e-38
0.0322184719239 -0.115065971157 0.829 1.34435908343e-38
0.0337526848727 -0.115065971157 0.829 1.34446628277e-38
0.0353720290586 -0.115343573017 0.831 1.29854839456e-38
0.0368211107702 -0.115065971157 0.829 1.30766033782e-38
0.0383553237189 -0.115065971157 0.829 1.28007213418e-38
0.0401782426026 -0.115898776738 0.835 1.39059758873e-38
0.0417235596257 -0.115898776738 0.835 1.26141776876e-38
0.0425434104536 -0.113955563715 0.821 1.27074481134e-38
0.0440628179698 -0.113955563715 0.821 1.22464671615e-38
0.0454711847418 -0.113677961855 0.819 1.34439439616e-38
0.0469868908999 -0.113677961855 0.819 1.32588282305e-38
0.0486210405184 -0.113955563715 0.821 1.18769881967e-38
0.050018303216 -0.113677961855 0.819 1.18773413239e-38
0.0514081631973 -0.113400359994 0.817 1.21528520163e-38
0.0526610729275 -0.112845156273 0.813 1.25230610575e-38
0.0541656750111 -0.112845156273 0.813 1.20631577042e-38
0.0555333268436 -0.112567554413 0.811 1.07699329826e-38
0.0570342275691 -0.112567554413 0.811 1.03121764184e-38
-0.0104026670506 -0.109971051678 0.803 2.350944841e-38
-0.00890546768326 -0.109834101427 0.802 1.84249854699e-38
-0.00738420948799 -0.109286300422 0.798 2.34824313756e-38
-0.00589256215783 -0.10901239992 0.796 1.80461276144e-38
-0.00441942161837 -0.10901239992 0.796 1.48193001874e-38
-0.00296848922775 -0.109834101427 0.802 1.42704578218e-38
-0.00148424461388 -0.109834101427 0.802 1.74962356763e-38
0.0 -0.11024495218 0.805 1.61165003927e-38
0.00148979665109 -0.11024495218 0.805 1.69444688008e-38
0.00300920416729 -0.11134055419 0.813 1.65746100841e-38
0.00453601439976 -0.111888355194 0.817 1.6483507467e-38
0.00604801919968 -0.111888355194 0.817 1.58388569241e-38
0.007597037581 -0.112436156199 0.821 1.6023253789e-38
0.0091164450972 -0.112436156199 0.821 1.53782515202e-38
0.0106617621204 -0.112710056701 0.823 1.6023267802e-38
0.0122144818598 -0.112983957203 0.825 1.52860390747e-38
0.0137746043156 -0.113257857706 0.827 1.51952881836e-38
0.0153051159062 -0.113257857706 0.827 1.49187209122e-38
0.0168763424363 -0.113531758208 0.829 1.4733233837e-38
0.0184105553851 -0.113531758208 0.829 1.43651743876e-38
0.0199928859897 -0.11380565871 0.831 1.44580902849e-38
0.0215826193105 -0.114079559213 0.833 1.36269058968e-38
0.0231797553476 -0.114353459715 0.835 1.40867896321e-38
0.0246658506406 -0.114079559213 0.833 1.41779118673e-38
0.0262074663056 -0.114079559213 0.833 1.28882688646e-38
0.0277490819706 -0.114079559213 0.833 1.48264874472e-38
0.0292906976357 -0.114079559213 0.833 1.33524910199e-38
0.0308323133007 -0.114079559213 0.833 1.35354109162e-38
0.0323739289658 -0.114079559213 0.833 1.32595330837e-38
0.0339155446308 -0.114079559213 0.833 1.32598974213e-38
0.0354571602958 -0.114079559213 0.833 1.24312339692e-38
0.0369987759609 -0.114079559213 0.833 1.27985871642e-38
0.0385403916259 -0.114079559213 0.833 1.26141804902e-38
0.0401782426026 -0.114353459715 0.835 1.36283520369e-38
0.0417235596257 -0.114353459715 0.835 1.19706243614e-38
0.0428543245373 -0.113257857706 0.827 1.24304856758e-38
0.0442774967419 -0.112983957203 0.825 1.29851112002e-38
0.0458043069744 -0.112983957203 0.825 1.19709592717e-38
0.0473311172068 -0.112983957203 0.825 1.20624570549e-38
0.0487394839789 -0.112710056701 0.823 1.24301381538e-38
0.0501404480346 -0.112436156199 0.821 1.20613598382e-38
0.0515340093741 -0.112162255696 0.819 1.1415637302e-38
0.0529201679972 -0.111888355194 0.817 1.17858645601e-38
0.0544321727972 -0.111888355194 0.817 1.23411711156e-38
0.0558072273459 -0.111614454692 0.815 1.04040245263e-38
0.0573155307877 -0.111614454692 0.815 9.57389531602e-39
-0.0104026670506 -0.108484956385 0.803 2.35097875243e-38
-0.00890546768326 -0.108349856813 0.802 1.80471785883e-38
-0.00736570269729 -0.10753925938 0.796 2.34853236557e-38
-0.00589256215783 -0.10753925938 0.796 1.46348472706e-38
-0.00441942161837 -0.10753925938 0.796 1.54664800741e-38
-0.00295368379519 -0.107809458525 0.798 1.35325634777e-38
-0.0014768418976 -0.107809458525 0.798 1.62087338576e-38
0.0 -0.110376350394 0.817 1.63005637486e-38
0.00151570615806 -0.110646549538 0.819 1.6022169184e-38
0.00303141231612 -0.110646549538 0.819 1.62069163735e-38
0.0045582225486 -0.110916748683 0.821 1.60218188594e-38
0.00609243549736 -0.111186947827 0.823 1.56541097345e-38
0.00763405116239 -0.111457146971 0.825 1.59307022293e-38
0.00916086139487 -0.111457146971 0.825 1.5196008451e-38
0.0107135811343 -0.111727346115 0.827 1.52856859475e-38
0.0122440927249 -0.111727346115 0.827 1.60228600241e-38
0.0138079165388 -0.111997545259 0.829 1.54704079137e-38
0.015379143069 -0.112267744403 0.831 1.47314331685e-38
0.0169170573759 -0.112267744403 0.831 1.4363026197e-38
0.0184993879804 -0.112537943548 0.833 1.42726228279e-38
0.0200891213013 -0.112808142692 0.835 1.39971149381e-38
0.0216344383245 -0.112808142692 0.835 1.3812003411e-38
0.0232352757197 -0.113078341836 0.837 1.36269030943e-38
0.024784294101 -0.113078341836 0.837 1.36261842281e-38
0.0263333124823 -0.113078341836 0.837 1.3350341428e-38
0.0278823308637 -0.113078341836 0.837 1.3351026663e-38
0.0293610234403 -0.112808142692 0.835 1.38116502838e-38
0.0309063404635 -0.112808142692 0.835 1.32588282305e-38
0.0324516574867 -0.112808142692 0.835 1.36297575392e-38
0.0339969745099 -0.112808142692 0.835 1.30747858941e-38
0.0356274227702 -0.113078341836 0.837 1.2799332655e-38
0.0371764411516 -0.113078341836 0.837 1.35372115847e-38
0.0387254595329 -0.113078341836 0.837 1.25234267964e-38
0.0401782426026 -0.112808142692 0.835 1.24305277148e-38
0.0417235596257 -0.112808142692 0.835 1.25227415615e-38
0.0432688766489 -0.112808142692 0.835 1.28907673798e-38
0.044492175514 -0.111997545259 0.829 1.25220044785e-38
0.0459153477185 -0.111727346115 0.827 1.20628017743e-38
0.0474458593092 -0.111727346115 0.827 1.16943920003e-38
0.0489763708998 -0.111727346115 0.827 1.27060257954e-38
0.0503847376718 -0.111457146971 0.825 1.16918962877e-38
0.0516598555508 -0.110916748683 0.821 1.15993054917e-38
0.0530497155321 -0.110646549538 0.819 1.18773413239e-38
0.0545654216902 -0.110646549538 0.819 1.20642310988e-38
0.0559441775971 -0.110376350394 0.817 1.04962215574e-38
0.057456182397 -0.110376350394 0.817 1.03118232912e-38
0.0591125401644 -0.110646549538 0.819 9.76080751169e-39
-0.0104026670506 -0.106998861092 0.803 2.35098169515e-38
-0.00890546768326 -0.106865612199 0.802 2.03485366615e-38
-0.00736570269729 -0.106066118841 0.796 2.30196483539e-38
-0.00589256215783 -0.106066118841 0.796 1.49110712238e-38
-0.00441942161837 -0.106066118841 0.796 1.55626637994e-38
-0.00295368379519 -0.106332616627 0.798 1.30726755386e-38
-0.0014768418976 -0.106332616627 0.798 1.59335734899e-38
0.0 -0.10913084338 0.819 1.63923810279e-38
0.0015194075162 -0.109397341166 0.821 1.57455921035e-38
0.0030388150324 -0.109397341166 0.821 1.58388569241e-38
0.00458043069744 -0.109930336738 0.825 1.56533894671e-38
0.00612204636247 -0.110196834524 0.827 1.56541097345e-38
0.00765255795309 -0.110196834524 0.827 1.54700772072e-38
0.00918306954371 -0.110196834524 0.827 1.52882012782e-38
0.0107394906413 -0.110463332311 0.829 1.48265028615e-38
0.0123033144552 -0.110729830097 0.831 1.44552190243e-38
0.0138745409853 -0.110996327883 0.833 1.48247077982e-38
0.0154531702318 -0.111262825669 0.835 1.43637296489e-38
0.0169984872549 -0.111262825669 0.835 1.49176293007e-38
0.0185438042781 -0.111262825669 0.835 1.35354081136e-38
0.0201372389571 -0.111529323455 0.837 1.37201553032e-38
0.0216862573384 -0.111529323455 0.837 1.33502993891e-38
0.0232907960918 -0.111795821241 0.839 1.33495903321e-38
0.0248435158313 -0.111795821241 0.839 1.37183574372e-38
0.0263962355707 -0.111795821241 0.839 1.35347074644e-38
0.0279489553102 -0.111795821241 0.839 1.3535057789e-38
0.0295016750496 -0.111795821241 0.839 1.32588310331e-38
0.0310543947891 -0.111795821241 0.839 1.33510238604e-38
0.0326071145285 -0.111795821241 0.839 1.36287023615e-38
0.034159834268 -0.111795821241 0.839 1.3167742429e-38
0.0357125540074 -0.111795821241 0.839 1.24294557214e-38
0.0371764411516 -0.111529323455 0.837 1.24308682303e-38
0.0387254595329 -0.111529323455 0.837 1.29851364236e-38
0.0402744779142 -0.111529323455 0.837 1.20631577042e-38
0.0418234962955 -0.111529323455 0.837 1.21532177552e-38
0.0432688766489 -0.111262825669 0.835 1.24294164851e-38
0.044706854286 -0.110996327883 0.833 1.23368523137e-38
0.0460263884627 -0.110463332311 0.829 1.2245413385e-38
0.0475606014115 -0.110463332311 0.829 1.20613990746e-38
0.0490948143602 -0.110463332311 0.829 1.14178051107e-38
0.0505068824904 -0.110196834524 0.827 1.20624682653e-38
0.0519115479043 -0.109930336738 0.825 1.16021963704e-38
0.0533088106019 -0.109663838952 0.823 1.20610221253e-38
0.0546986705832 -0.109397341166 0.821 1.11404797368e-38
0.0560811278482 -0.10913084338 0.819 1.07702805046e-38
0.0575968340063 -0.10913084338 0.819 1.06773505944e-38
0.0591125401644 -0.10913084338 0.819 1.11415881639e-38
-0.0104026670506 -0.105512765799 0.803 2.35073184364e-38
-0.00888325953442 -0.105118571157 0.8 1.85002828415e-38
-0.00736570269729 -0.104592978302 0.796 2.34863788334e-38
-0.00589256215783 -0.104592978302 0.796 1.26037534283e-38
-0.00441942161837 -0.104592978302 0.796 1.55644434484e-38
-0.00294628107892 -0.104592978302 0.796 1.39939101686e-38
-0.00147314053946 -0.104592978302 0.796 1.5655191537e-38
0.0 -0.10787793365 0.821 1.64842263331e-38
0.0015194075162 -0.10787793365 0.821 1.56544656644e-38
0.00304621774868 -0.108140730078 0.823 1.52860362721e-38
0.00459153477185 -0.108666322934 0.827 1.51927686489e-38
0.00613685179503 -0.108929119362 0.829 1.49154741036e-38
0.00767106474379 -0.108929119362 0.829 1.50076739374e-38
0.00922748584138 -0.10919191579 0.831 1.46403291501e-38
0.0107654001483 -0.10919191579 0.831 1.52874880173e-38
0.0123033144552 -0.10919191579 0.831 1.45495670486e-38
0.0138745409853 -0.109454712218 0.833 1.36276065461e-38
0.0154531702318 -0.109717508645 0.835 1.36272562215e-38
0.0169984872549 -0.109717508645 0.835 1.38116474812e-38
0.0185882205758 -0.109980305073 0.837 1.39045689837e-38
0.0201853566129 -0.110243101501 0.839 1.36269325215e-38
0.0217380763524 -0.110243101501 0.839 1.37187483995e-38
0.0233463164639 -0.110505897929 0.841 1.34439439616e-38
0.0249027375615 -0.110505897929 0.841 1.29818868124e-38
0.0264591586591 -0.110505897929 0.841 1.28907701824e-38
0.0280822042032 -0.110768694357 0.843 1.36272562215e-38
0.0295720008543 -0.110505897929 0.841 1.52863865967e-38
0.0311284219519 -0.110505897929 0.841 1.34428327319e-38
0.0326848430495 -0.110505897929 0.841 1.27985745525e-38
0.0342412641471 -0.110505897929 0.841 1.25220072811e-38
0.0357976852446 -0.110505897929 0.841 1.23401145365e-38
0.0372652737469 -0.110243101501 0.839 1.28914708316e-38
0.0388179934863 -0.110243101501 0.839 1.29844301691e-38
0.0402744779142 -0.109980305073 0.837 1.27989248771e-38
0.0418234962955 -0.109980305073 0.837 1.24298088486e-38
0.0433725146768 -0.109980305073 0.837 1.34446600251e-38
0.0448141936721 -0.109717508645 0.835 1.16940598925e-38
0.0462484699511 -0.109454712218 0.833 1.20628241951e-38
0.0476753435138 -0.10919191579 0.831 1.16018432432e-38
0.0492132578207 -0.10919191579 0.831 1.13252591562e-38
0.050629027309 -0.108929119362 0.829 1.22479217093e-38
0.052037394081 -0.108666322934 0.827 1.12334096471e-38
0.0534383581368 -0.108403526506 0.825 1.12326879784e-38
0.0546986705832 -0.10787793365 0.821 1.12333760159e-38
0.0562180780994 -0.10787793365 0.821 1.15074826072e-38
0.0577374856156 -0.10787793365 0.821 1.09579017573e-38
0.0592568931318 -0.10787793365 0.821 1.04973187741e-38
0.0609243549736 -0.108140730078 0.823 1.1139776285e-38
-0.00886105138558 -0.103378932832 0.798 1.73035249076e-38
-0.00734719590659 -0.102860742692 0.794 2.3022874143e-38
-0.00586295129272 -0.102601647623 0.792 1.38948005321e-38
-0.00439721346954 -0.102601647623 0.792 1.52878565588e-38
-0.00294628107892 -0.103119837762 0.796 1.49162195944e-38
-0.00147314053946 -0.103119837762 0.796 1.48268910212e-38
0.0 -0.106358526134 0.821 1.46417682837e-38
0.00152310887434 -0.106617621204 0.823 1.49183481668e-38
0.00305362046496 -0.106876716274 0.825 1.5104164547e-38
0.00459153477185 -0.107135811343 0.827 1.49186802745e-38
0.00615165722759 -0.107654001483 0.831 1.45495670486e-38
0.00768957153448 -0.107654001483 0.831 1.46417682837e-38
0.00922748584138 -0.107654001483 0.831 1.44566833812e-38
0.0107913096553 -0.107913096553 0.833 1.46428374744e-38
0.0123329253203 -0.107913096553 0.833 1.39045633785e-38
0.0139078532086 -0.108172191622 0.835 1.3536489916e-38
0.0154901838131 -0.108431286692 0.837 1.41818621277e-38
0.0170392021945 -0.108431286692 0.837 1.30766033782e-38
0.0186326368734 -0.108690381762 0.839 1.33521140706e-38
0.0201853566129 -0.108690381762 0.839 1.33521140706e-38
0.0217380763524 -0.108690381762 0.839 1.30755285823e-38
0.0233463164639 -0.108949476832 0.841 1.31687835938e-38
0.0249027375615 -0.108949476832 0.841 1.27989248771e-38
0.0264591586591 -0.108949476832 0.841 1.32577450268e-38
0.0280822042032 -0.109208571901 0.843 1.39963988746e-38
0.0296423266589 -0.109208571901 0.843 1.51945889356e-38
0.0312024491147 -0.109208571901 0.843 1.36297421249e-38
0.0327625715704 -0.109208571901 0.843 1.17844450448e-38
0.0343226940261 -0.109208571901 0.843 1.27985899668e-38
0.0358828164819 -0.109208571901 0.843 1.29840364043e-38
0.0373541063422 -0.108949476832 0.841 1.24305123005e-38
0.0389105274398 -0.108949476832 0.841 1.1877003611e-38
0.0404669485374 -0.108949476832 0.841 1.25223183694e-38
0.042023369635 -0.108949476832 0.841 1.25205583385e-38
0.0434761527047 -0.108690381762 0.839 1.19702586225e-38
0.0449215330581 -0.108431286692 0.837 1.18784287315e-38
0.0464705514394 -0.108431286692 0.837 1.20631745197e-38
0.0479048277184 -0.108172191622 0.835 1.15100007406e-38
0.0493317012812 -0.107913096553 0.833 1.16018180198e-38
0.0507511721276 -0.107654001483 0.831 1.15085391863e-38
0.0521632402577 -0.107394906413 0.829 1.12323404563e-38
0.0535679056716 -0.107135811343 0.827 1.15093000913e-38
0.0548319194762 -0.106617621204 0.823 1.1047946394e-38
0.0563550283506 -0.106617621204 0.823 1.11394231578e-38
0.0578781372249 -0.106617621204 0.823 1.05887675119e-38
0.0594012460992 -0.106617621204 0.823 1.03136253611e-38
0.060776300648 -0.106358526134 0.821 1.1139776285e-38
0.0622957081642 -0.106358526134 0.821 1.15996810397e-38
-0.00886105138558 -0.101902090934 0.798 1.66610421734e-38
-0.0073286891159 -0.101135909799 0.792 2.34906738132e-38
-0.00586295129272 -0.101135909799 0.792 1.31586872384e-38
-0.00439721346954 -0.101135909799 0.792 1.35354137188e-38
-0.00292407293008 -0.100880516088 0.79 1.42729731525e-38
-0.00146203646504 -0.100880516088 0.79 1.49194271666e-38
0.0 -0.105094512329 0.823 1.44584420108e-38
0.00152310887434 -0.105094512329 0.823 1.49183481668e-38
0.00306102318124 -0.105605299753 0.827 1.48268784095e-38
0.00460263884627 -0.105860693464 0.829 1.45506418445e-38
0.00615165722759 -0.106116087176 0.831 1.44580902849e-38
0.00770807832518 -0.106371480887 0.833 1.44591692847e-38
0.00924969399022 -0.106371480887 0.833 1.29836888822e-38
0.0108172191622 -0.106626874599 0.835 1.39964086837e-38
0.0123625361854 -0.106626874599 0.835 1.36272534189e-38
0.0139411654318 -0.106882268311 0.837 1.4367674304e-38
0.0155271973945 -0.107137662022 0.839 1.34450131523e-38
0.017079917134 -0.107137662022 0.839 1.27996703679e-38
0.0186770531711 -0.107393055734 0.841 1.2706741859e-38
0.0202334742687 -0.107393055734 0.841 1.32613071275e-38
0.0217898953663 -0.107393055734 0.841 1.27095935013e-38
0.0233463164639 -0.107393055734 0.841 1.2340820791e-38
0.0249027375615 -0.107393055734 0.841 1.2799628329e-38
0.0265220817475 -0.107648449446 0.843 1.3073719506e-38
0.0280822042032 -0.107648449446 0.843 1.36297603418e-38
0.0297126524636 -0.107903843157 0.845 1.30758845121e-38
0.0312764762774 -0.107903843157 0.845 1.28010730677e-38
0.0328403000913 -0.107903843157 0.845 1.2152498889e-38
0.0344041239052 -0.107903843157 0.845 1.22454203915e-38
0.0359679477191 -0.107903843157 0.845 1.24301619759e-38
0.0374429389376 -0.107648449446 0.843 1.25209254787e-38
0.0390030613933 -0.107648449446 0.843 1.2337966346e-38
0.040563183849 -0.107648449446 0.843 1.24301381538e-38
0.042023369635 -0.107393055734 0.841 1.22464727667e-38
0.0435797907326 -0.107393055734 0.841 1.22461042252e-38
0.0450288724442 -0.107137662022 0.839 1.19698508446e-38
0.0464705514394 -0.106882268311 0.837 1.19709592717e-38
0.0480195698208 -0.106882268311 0.837 1.28925456275e-38
0.0494501447416 -0.106626874599 0.835 1.17858463433e-38
0.0508733169462 -0.106371480887 0.833 1.20610221253e-38
0.0521632402577 -0.105860693464 0.829 1.05894891806e-38
0.0535679056716 -0.105605299753 0.827 1.08660816754e-38
0.0549651683692 -0.105349906041 0.825 1.12323404563e-38
0.0564919786017 -0.105349906041 0.825 1.1230892915e-38
0.0580187888342 -0.105349906041 0.825 1.08635383187e-38
0.0594012460992 -0.105094512329 0.823 1.04047251755e-38
0.060776300648 -0.104839118618 0.821 1.0955731146e-38
0.0622957081642 -0.104839118618 0.821 1.20603004566e-38
-0.00879442693908 -0.0996701719762 0.792 1.32512163773e-38
-0.0073286891159 -0.0996701719762 0.792 2.34913968832e-38
-0.00584814586016 -0.0994184796227 0.79 1.24189670024e-38
-0.00438610939512 -0.0994184796227 0.79 1.55651469002e-38
-0.00292407293008 -0.0994184796227 0.79 1.41839696806e-38
-0.00146203646504 -0.0994184796227 0.79 1.50097969045e-38
0.0 -0.0994184796227 0.79 1.47357365561e-38
0.00152681023248 -0.103823095809 0.825 1.38127068628e-38
0.00306102318124 -0.104074788162 0.827 1.50094718033e-38
0.00461374292069 -0.104578172869 0.831 1.39048996901e-38
0.00616646266014 -0.104829865222 0.833 1.39042130539e-38
0.00772658511588 -0.105081557576 0.835 1.35368584575e-38
0.00927190213905 -0.105081557576 0.835 1.36283099979e-38
0.0108431286692 -0.105333249929 0.837 1.35354109162e-38
0.0123921470505 -0.105333249929 0.837 1.39052556199e-38
0.0139744776551 -0.105584942283 0.839 1.35361115655e-38
0.0155642109759 -0.105836634636 0.841 1.39031144359e-38
0.0171206320735 -0.105836634636 0.841 1.27063943369e-38
0.0187214694688 -0.10608832699 0.843 1.26159755535e-38
0.0202815919245 -0.10608832699 0.843 1.20628017743e-38
0.0218417143803 -0.10608832699 0.843 1.26159783561e-38
0.023401836836 -0.10608832699 0.843 1.30747985058e-38
0.0249619592917 -0.10608832699 0.843 1.28904366733e-38
0.0265220817475 -0.10608832699 0.843 1.2981180558e-38
0.0281488286497 -0.106340019343 0.845 1.2890063928e-38
0.0297126524636 -0.106340019343 0.845 1.20606689981e-38
0.0312764762774 -0.106340019343 0.845 1.19694977174e-38
0.0328403000913 -0.106340019343 0.845 1.25219820577e-38
0.0344041239052 -0.106340019343 0.845 1.24308682303e-38
0.0359679477191 -0.106340019343 0.845 1.27960676296e-38
0.0375317715329 -0.106340019343 0.845 1.27045740502e-38
0.0390955953468 -0.106340019343 0.845 1.26127707839e-38
0.040563183849 -0.10608832699 0.843 1.1784732311e-38
0.0421233063048 -0.10608832699 0.843 1.18773441265e-38
0.0435797907326 -0.105836634636 0.841 1.18773413239e-38
0.0451362118302 -0.105836634636 0.841 1.17847953694e-38
0.0465815921836 -0.105584942283 0.839 1.25234113822e-38
0.0481343119231 -0.105584942283 0.839 1.15081986707e-38
0.0494501447416 -0.105081557576 0.835 1.17858491459e-38
0.0509954617648 -0.105081557576 0.835 1.14160058435e-38
0.0524149326112 -0.104829865222 0.833 1.07713637083e-38
0.0536974532065 -0.104326480515 0.829 1.12319719148e-38
0.0550984172622 -0.104074788162 0.827 1.17837093631e-38
0.0566289288529 -0.104074788162 0.827 1.13230885449e-38
0.0580187888342 -0.103823095809 0.825 1.11387379228e-38
0.0595455990667 -0.103823095809 0.825 1.0864999873e-38
0.0610724092991 -0.103823095809 0.825 1.02200088145e-38
-0.00879442693908 -0.098204434153 0.792 1.44497735785e-38
-0.0073286891159 -0.098204434153 0.792 2.34910381508e-38
-0.00584814586016 -0.0979564431577 0.79 1.26080287899e-38
-0.00438610939512 -0.0979564431577 0.79 1.53800465835e-38
-0.00292407293008 -0.0979564431577 0.79 1.50141016934e-38
-0.00146203646504 -0.0979564431577 0.79 1.36275490928e-38
0.0 -0.0979564431577 0.79 1.40871427593e-38
0.00154531702318 -0.103536240553 0.835 1.47328793085e-38
0.00308323133007 -0.103288249557 0.833 1.39942436776e-38
0.00462484699511 -0.103288249557 0.833 1.38123705512e-38
0.0061812680927 -0.103536240553 0.835 1.36297771574e-38
0.00772658511588 -0.103536240553 0.835 1.36297743548e-38
0.00929411028789 -0.103784231548 0.837 1.25227107329e-38
0.0108431286692 -0.103784231548 0.837 1.36294212276e-38
0.0123921470505 -0.103784231548 0.837 1.39038234929e-38
0.0139744776551 -0.104032222543 0.839 1.35350451773e-38
0.0156012245573 -0.104528204534 0.843 1.33496197593e-38
0.0171613470131 -0.104528204534 0.843 1.33506735358e-38
0.0187214694688 -0.104528204534 0.843 1.25227079303e-38
0.0203297095803 -0.104776195529 0.845 1.36290554887e-38
0.0218935333942 -0.104776195529 0.845 1.25237827263e-38
0.0234573572081 -0.104776195529 0.845 1.27985745525e-38
0.025021181022 -0.104776195529 0.845 1.28907855967e-38
0.0265850048358 -0.104776195529 0.845 1.31673486642e-38
0.0281488286497 -0.104776195529 0.845 1.27063733175e-38
0.0297829782682 -0.105024186525 0.847 1.36290554887e-38
0.0313505034402 -0.105024186525 0.847 1.27996703679e-38
0.0329180286122 -0.105024186525 0.847 1.27999968705e-38
0.0345669836633 -0.10527217752 0.849 1.26145336174e-38
0.0360530789563 -0.105024186525 0.847 1.27045768528e-38
0.0376206041283 -0.105024186525 0.847 1.25190687582e-38
0.0391881293003 -0.105024186525 0.847 1.25205555359e-38
0.0406594191607 -0.104776195529 0.845 1.27085243106e-38
0.0422232429745 -0.104776195529 0.845 1.2155019825e-38
0.0436834287605 -0.104528204534 0.843 1.24290843773e-38
0.0452435512162 -0.104528204534 0.843 1.15096686328e-38
0.0466926329278 -0.104280213539 0.841 1.14171044615e-38
0.0482490540254 -0.104280213539 0.841 1.15074826072e-38
0.0495685882021 -0.103784231548 0.837 1.14160030409e-38
0.0511176065834 -0.103784231548 0.837 1.14145653086e-38
0.052540778788 -0.103536240553 0.835 1.10475750499e-38
0.0539565482763 -0.103288249557 0.833 1.05873087602e-38
0.0554981639413 -0.103288249557 0.833 1.14163561681e-38
0.056765879104 -0.102792267567 0.829 1.09550276941e-38
0.0581594404435 -0.102544276571 0.827 1.09550473123e-38
0.0596899520341 -0.102544276571 0.827 1.07702861098e-38
-0.0073286891159 -0.0967386963298 0.792 2.34777454336e-38
-0.00584814586016 -0.0964944066926 0.79 1.41778488089e-38
-0.00438610939512 -0.0964944066926 0.79 1.3532189331e-38
-0.00292407293008 -0.0964944066926 0.79 1.25234324016e-38
-0.00146018578597 -0.096372261874 0.789 1.36294086159e-38
0.0 -0.096372261874 0.789 1.38130726017e-38
0.00154901838131 -0.102235213167 0.837 1.39960429448e-38
0.00309063404635 -0.10199092353 0.835 1.39041976396e-38
0.00463595106953 -0.10199092353 0.835 1.31687962055e-38
0.00619607352526 -0.102235213167 0.837 1.27085411262e-38
0.00774509190657 -0.102235213167 0.837 1.28000178899e-38
0.00931631843672 -0.102479502804 0.839 1.28911177044e-38
0.0108690381762 -0.102479502804 0.839 1.24311919302e-38
0.0124217579156 -0.102479502804 0.839 1.31673514668e-38
0.0140077898783 -0.102723792441 0.841 1.30740852449e-38
0.0156012245573 -0.102968082078 0.843 1.31659305501e-38
0.0171613470131 -0.102968082078 0.843 1.27063789227e-38
0.0187658857665 -0.103212371716 0.845 1.26134742358e-38
0.0203297095803 -0.103212371716 0.845 1.28889695139e-38
0.0218935333942 -0.103212371716 0.845 1.34428481462e-38
0.0234573572081 -0.103212371716 0.845 1.22439714489e-38
0.025021181022 -0.103212371716 0.845 1.24301619759e-38
0.0266479279242 -0.103456661353 0.847 1.30747985058e-38
0.0282154530962 -0.103456661353 0.847 1.24298116512e-38
0.0298533040729 -0.10370095099 0.849 1.25230638601e-38
0.031424530603 -0.10370095099 0.849 1.24301381538e-38
0.0329957571332 -0.10370095099 0.849 1.20628017743e-38
0.0345669836633 -0.10370095099 0.849 1.25227135355e-38
0.0361382101935 -0.10370095099 0.849 1.2153597507e-38
0.0377094367236 -0.10370095099 0.849 1.26145308148e-38
0.0391881293003 -0.103456661353 0.847 1.21535554681e-38
0.0407556544723 -0.103456661353 0.847 1.18773441265e-38
0.0423231796443 -0.103456661353 0.847 1.18769909993e-38
0.0437870667884 -0.103212371716 0.845 1.19684425397e-38
0.0452435512162 -0.102968082078 0.843 1.1600753033e-38
0.046803673672 -0.102968082078 0.843 1.14160058435e-38
0.0483637961277 -0.102968082078 0.843 1.12301922658e-38
0.049805475123 -0.102723792441 0.841 1.104797442e-38
0.051239751402 -0.102479502804 0.839 1.14149310475e-38
0.0527924711414 -0.102479502804 0.839 1.10475806551e-38
0.0543451908809 -0.102479502804 0.839 1.15082042759e-38
0.0558979106203 -0.102479502804 0.839 1.11401294122e-38
0.0574506303598 -0.102479502804 0.839 1.11394231578e-38
-0.00877221879024 -0.0950323702276 0.79 1.90696121907e-38
-0.0073101823252 -0.0950323702276 0.79 2.06193025572e-38
-0.00584074314388 -0.0949120760881 0.789 1.91578603628e-38
-0.00438055735791 -0.0949120760881 0.789 1.30690447743e-38
-0.00292037157194 -0.0949120760881 0.789 1.34443097005e-38
-0.00145648442783 -0.094671487809 0.787 1.32599002238e-38
0.0 -0.094671487809 0.787 1.32598834083e-38
0.00154901838131 -0.100686194785 0.837 1.48283007274e-38
0.00309803676263 -0.100686194785 0.837 1.29840364043e-38
0.00465815921836 -0.100926783065 0.839 1.30769509002e-38
0.00621087895782 -0.100926783065 0.839 1.2985105595e-38
0.00778210548797 -0.101167371344 0.841 1.27085243106e-38
0.0093607347344 -0.101407959623 0.843 1.29843881302e-38
0.0109467666971 -0.101648547902 0.845 1.33520958537e-38
0.0125402013761 -0.101889136181 0.847 1.28914862459e-38
0.0141077265481 -0.101889136181 0.847 1.33524643952e-38
0.0156752517201 -0.101889136181 0.847 1.31673514668e-38
0.0172834918317 -0.10212972446 0.849 1.28914736342e-38
0.0188547183618 -0.10212972446 0.849 1.32599030264e-38
0.0204740625478 -0.102370312739 0.851 1.27974801384e-38
0.0220489904361 -0.102370312739 0.851 1.28896729657e-38
0.0236239183244 -0.102370312739 0.851 1.24298088486e-38
0.025287678808 -0.102731195157 0.854 1.2153921207e-38
0.0269940049102 -0.103212371716 0.858 1.25223323823e-38
0.0285152631055 -0.102971783436 0.856 1.23386697978e-38
0.0300994443891 -0.102971783436 0.856 1.21546218562e-38
0.0316836256728 -0.102971783436 0.856 1.17847925668e-38
0.0330734856541 -0.102370312739 0.851 1.16943920003e-38
0.0346484135424 -0.102370312739 0.851 1.17862120822e-38
0.0362233414307 -0.102370312739 0.851 1.22446945189e-38
0.037798269319 -0.102370312739 0.851 1.22457482954e-38
0.0393731972073 -0.102370312739 0.851 1.21542743342e-38
0.0409481250955 -0.102370312739 0.851 1.15081986707e-38
0.0424231163141 -0.10212972446 0.849 1.17847925668e-38
0.0438907048163 -0.101889136181 0.847 1.17851162668e-38
0.0453508906023 -0.101648547902 0.845 1.14177854925e-38
0.046803673672 -0.101407959623 0.843 1.12323404563e-38
0.0483637961277 -0.101407959623 0.843 1.1047946394e-38
0.049805475123 -0.101167371344 0.841 1.09571927003e-38
0.0513618962206 -0.101167371344 0.841 1.14160030409e-38
0.0527924711414 -0.100926783065 0.839 1.12323222395e-38
0.0543451908809 -0.100926783065 0.839 1.07710133837e-38
0.0558979106203 -0.100926783065 0.839 1.1138344158e-38
0.0574506303598 -0.100926783065 0.839 1.21528492137e-38
-0.00877221879024 -0.0935703337626 0.79 2.13737938803e-38
-0.00730092892985 -0.0934518903021 0.789 1.75772349314e-38
-0.00584074314388 -0.0934518903021 0.789 2.34881626864e-38
-0.00438055735791 -0.0934518903021 0.789 1.07613051879e-38
-0.00291296885566 -0.0932150033812 0.787 1.33517329174e-38
-0.00145648442783 -0.0932150033812 0.787 1.23376160214e-38
0.0 -0.0932150033812 0.787 1.31673766901e-38
0.00155271973945 -0.0993740633251 0.839 1.27989669161e-38
0.00310543947891 -0.0993740633251 0.839 1.30754921485e-38
0.00466926329278 -0.099610950246 0.841 1.30769537028e-38
0.00622568439037 -0.099610950246 0.841 1.25248813443e-38
0.00780061227866 -0.0998478371669 0.843 1.27992934186e-38
0.00938294288323 -0.100084724088 0.845 1.27978682981e-38
0.0109726762041 -0.100321611009 0.847 1.33510294656e-38
0.0125698122412 -0.10055849793 0.849 1.35347046618e-38
0.0141410387714 -0.10055849793 0.849 1.23376286331e-38
0.0157492788829 -0.100795384851 0.851 1.27049509995e-38
0.0173242067712 -0.100795384851 0.851 1.25212786059e-38
0.0188991346595 -0.100795384851 0.851 1.23372600916e-38
0.0205462390315 -0.101150715232 0.854 1.31680983589e-38
0.022126718957 -0.101150715232 0.854 1.20610193227e-38
0.0237627192546 -0.101387602153 0.856 1.18773595408e-38
0.0254653439987 -0.101861375995 0.86 1.24301591733e-38
0.0270569279986 -0.101861375995 0.86 1.19709564691e-38
0.0286485119985 -0.101861375995 0.86 1.12362654933e-38
0.0302400959984 -0.101861375995 0.86 1.11440656596e-38
0.0317576528356 -0.101624489074 0.858 1.24298116512e-38
0.0333455354773 -0.101624489074 0.858 1.14167485316e-38
0.0349334181191 -0.101624489074 0.858 1.11433888324e-38
0.0364361695237 -0.101387602153 0.856 1.20613724499e-38
0.037931518212 -0.101150715232 0.854 1.1785145694e-38
0.0395119981375 -0.101150715232 0.854 1.16003999058e-38
0.041092478063 -0.101150715232 0.854 1.14156527162e-38
0.0426729579885 -0.101150715232 0.854 1.16018460458e-38
0.0440979808721 -0.100795384851 0.851 1.18766532863e-38
0.0455655693744 -0.10055849793 0.849 1.16929500642e-38
0.0470257551603 -0.100321611009 0.847 1.12351640727e-38
0.0485932803324 -0.100321611009 0.847 1.04065300479e-38
0.0500423620439 -0.100084724088 0.845 1.12326935836e-38
0.0514840410392 -0.0998478371669 0.843 1.15081986707e-38
0.0530441634949 -0.0998478371669 0.843 1.07720685615e-38
0.0546042859506 -0.0998478371669 0.843 1.25227261472e-38
0.0560311595134 -0.099610950246 0.841 1.04018735331e-38
0.057587580611 -0.099610950246 0.841 1.07702833072e-38
-0.00876111471582 -0.0919917045161 0.789 2.35007715699e-38
-0.00730092892985 -0.0919917045161 0.789 1.80364936875e-38
-0.00584074314388 -0.0919917045161 0.789 2.34838621014e-38
-0.00438055735791 -0.0919917045161 0.789 1.39009494297e-38
-0.00291296885566 -0.0917585189534 0.787 1.26120308983e-38
-0.00145648442783 -0.0917585189534 0.787 1.26149217771e-38
0.0 -0.0917585189534 0.787 1.28003738197e-38
0.00155642109759 -0.0980545291484 0.841 1.31684332692e-38
0.00311284219519 -0.0980545291484 0.841 1.3167704594e-38
0.0046803673672 -0.0982877147112 0.843 1.25234169874e-38
0.00624048982293 -0.0982877147112 0.843 1.23393858613e-38
0.00781911906936 -0.0985209002739 0.845 1.23397417911e-38
0.00940515103207 -0.0987540858367 0.847 1.27063761201e-38
0.0109985857111 -0.0989872713995 0.849 1.24290815747e-38
0.0125994231063 -0.0992204569623 0.851 1.39971121355e-38
0.0141743509946 -0.0992204569623 0.851 1.2523767312e-38
0.015804799255 -0.0995702353064 0.854 1.21546246588e-38
0.0173852791805 -0.0995702353064 0.854 1.22457693148e-38
0.018965759106 -0.0995702353064 0.854 1.19699082978e-38
0.0205943566873 -0.0998034208692 0.856 1.22450224227e-38
0.0222303569849 -0.100036606432 0.858 1.20613752525e-38
0.0238737599988 -0.100269791995 0.86 1.18787818587e-38
0.0255245657289 -0.100502977558 0.862 1.23386669952e-38
0.027119851087 -0.100502977558 0.862 1.25237827263e-38
0.028715136445 -0.100502977558 0.862 1.10515169025e-38
0.0303104218031 -0.100502977558 0.862 1.16968708973e-38
0.0319057071611 -0.100502977558 0.862 1.16003999058e-38
0.0335009925192 -0.100502977558 0.862 1.24308836446e-38
0.0350962778772 -0.100502977558 0.862 1.15107041924e-38
0.0366064319981 -0.100269791995 0.86 1.1693653516e-38
0.0380203508073 -0.0998034208692 0.856 1.16014704978e-38
0.039604532091 -0.0998034208692 0.856 1.1416398207e-38
0.0411887133746 -0.0998034208692 0.856 1.12326935836e-38
0.0427728946582 -0.0998034208692 0.856 1.11401448265e-38
0.0443570759419 -0.0998034208692 0.856 1.1415299589e-38
0.0458339178395 -0.0995702353064 0.854 1.11379910307e-38
0.0471367959045 -0.0989872713995 0.849 1.06816721988e-38
0.0487080224347 -0.0989872713995 0.849 1.12352117169e-38
0.0500423620439 -0.0985209002739 0.845 1.11411958003e-38
0.0516061858578 -0.0985209002739 0.845 1.06791232369e-38
0.0531700096716 -0.0985209002739 0.845 1.09550276941e-38
0.0547338334855 -0.0985209002739 0.845 1.1046889815e-38
0.0562976572994 -0.0985209002739 0.845 1.03118232912e-38
0.0578614811133 -0.0985209002739 0.845 1.03121764184e-38
0.0594253049271 -0.0985209002739 0.845 1.01277851587e-38
-0.0102213005018 -0.0905315187302 0.789 2.35043953278e-38
-0.00876111471582 -0.0905315187302 0.789 2.35076393337e-38
-0.00730092892985 -0.0905315187302 0.789 1.84091662115e-38
-0.00584074314388 -0.0905315187302 0.789 2.09949206106e-38
-0.00438055735791 -0.0905315187302 0.789 2.11836446852e-38
-0.00291296885566 -0.0903020345255 0.787 1.28810970191e-38
-0.00145648442783 -0.0903020345255 0.787 1.25223576057e-38
0.0 -0.0903020345255 0.787 1.23390355367e-38
0.00145648442783 -0.0903020345255 0.787 1.26134588215e-38
0.00312764762774 -0.0969570764601 0.845 1.35361367888e-38
0.00469147144162 -0.0969570764601 0.845 1.27070823745e-38
0.00625529525549 -0.0969570764601 0.845 1.2523767312e-38
0.00785613265075 -0.0974160448693 0.849 1.24322905482e-38
0.00944956732974 -0.097645529074 0.851 1.22472182574e-38
0.011024495218 -0.097645529074 0.851 1.27996437432e-38
0.0125994231063 -0.097645529074 0.851 1.29829377863e-38
0.0142243193295 -0.0979897553809 0.854 1.17847687447e-38
0.015804799255 -0.0979897553809 0.854 1.28911177044e-38
0.01742599412 -0.0982192395856 0.856 1.2246807677e-38
0.0190545917013 -0.0984487237902 0.858 1.17855086303e-38
0.0206424743431 -0.0984487237902 0.858 1.21542743342e-38
0.0223339950128 -0.0989076921995 0.862 1.24297850266e-38
0.0239292803708 -0.0989076921995 0.862 1.14178023081e-38
0.0255245657289 -0.0989076921995 0.862 1.16936661277e-38
0.0271827741753 -0.0991371764041 0.864 1.16011201732e-38
0.0287817608915 -0.0991371764041 0.864 1.11426601572e-38
0.0304862363147 -0.0994814027111 0.867 1.14170848433e-38
0.0320907750681 -0.0994814027111 0.867 1.09578961521e-38
0.0336953138215 -0.0994814027111 0.867 1.16021739496e-38
0.0352998525749 -0.0994814027111 0.867 1.15085546005e-38
0.0369043913283 -0.0994814027111 0.867 1.12326879784e-38
0.0382868485934 -0.0989076921995 0.862 1.12333788185e-38
0.0397895999979 -0.0986782079949 0.86 1.0681316269e-38
0.0413811839978 -0.0986782079949 0.86 1.15132083127e-38
0.0429727679978 -0.0986782079949 0.86 1.114230703e-38
0.0444607139698 -0.0984487237902 0.858 1.08660788728e-38
0.0459412572255 -0.0982192395856 0.856 1.04962187549e-38
0.047414397765 -0.0979897553809 0.854 1.04043720483e-38
0.048822764537 -0.097645529074 0.851 1.03125323483e-38
0.0503976924253 -0.097645529074 0.851 1.04043720483e-38
0.0517283306764 -0.0971865606647 0.847 9.7611606389e-39
0.0531700096716 -0.0969570764601 0.845 1.03121764184e-38
0.0547338334855 -0.0969570764601 0.845 1.11397734824e-38
0.0562976572994 -0.0969570764601 0.845 1.04944068759e-38
0.0578614811133 -0.0969570764601 0.845 9.11435630023e-39
0.0594253049271 -0.0969570764601 0.845 1.05898268936e-38
-0.0102213005018 -0.0890713329442 0.789 2.35087057218e-38
-0.00873890656699 -0.0888455500977 0.787 2.35083764167e-38
-0.00728242213916 -0.0888455500977 0.787 1.98025501421e-38
-0.00582593771132 -0.0888455500977 0.787 1.77670366045e-38
-0.00436945328349 -0.0888455500977 0.787 2.34860186997e-38
-0.00291296885566 -0.0888455500977 0.787 1.29786245896e-38
-0.00145648442783 -0.0888455500977 0.787 1.33480909427e-38
0.0 -0.0888455500977 0.787 1.22461196394e-38
0.00145648442783 -0.0888455500977 0.787 1.2798529711e-38
0.00314985577658 -0.0960706011857 0.851 1.26138119487e-38
0.00472478366487 -0.0960706011857 0.851 1.26145336174e-38
0.00629971155316 -0.0960706011857 0.851 1.24301325486e-38
0.0079023996275 -0.0964092754554 0.854 1.23400724976e-38
0.00948287955299 -0.0964092754554 0.854 1.23397417911e-38
0.0110633594785 -0.0964092754554 0.854 1.14156527162e-38
0.012643839404 -0.0964092754554 0.854 1.16003999058e-38
0.0142243193295 -0.0964092754554 0.854 1.2246807677e-38
0.0158788264178 -0.0968608411484 0.858 1.18777224771e-38
0.0175074239991 -0.0970866239949 0.86 1.20613752525e-38
0.019099007999 -0.0970866239949 0.86 1.20613598382e-38
0.0206905919989 -0.0970866239949 0.86 1.21528127799e-38
0.0223339950128 -0.0973124068414 0.862 1.20609940993e-38
0.0239292803708 -0.0973124068414 0.862 1.26145336174e-38
0.0255837874591 -0.0975381896879 0.864 1.19691586032e-38
0.0271827741753 -0.0975381896879 0.864 1.16940416757e-38
0.0287817608915 -0.0975381896879 0.864 1.18787790561e-38
0.0304862363147 -0.0978768639577 0.867 1.15089441615e-38
0.0320907750681 -0.0978768639577 0.867 1.14174379705e-38
0.0337730423424 -0.0981026468042 0.869 1.13245360862e-38
0.035381282454 -0.0981026468042 0.869 1.12319873291e-38
0.0369895225655 -0.0981026468042 0.869 1.07738804404e-38
0.0385977626771 -0.0981026468042 0.869 1.14160030409e-38
0.0399746679049 -0.0975381896879 0.864 1.08657257456e-38
0.0415736546211 -0.0975381896879 0.864 1.04043776535e-38
0.0430727046675 -0.0973124068414 0.862 1.04955307173e-38
0.0445643519977 -0.0970866239949 0.86 1.10493939353e-38
0.0460485966116 -0.0968608411484 0.858 1.0496923608e-38
0.0475254385092 -0.0966350583019 0.856 1.04047251755e-38
0.0489948776905 -0.0964092754554 0.854 1.02224821063e-38
0.0503976924253 -0.0960706011857 0.851 1.04969208054e-38
0.0517283306764 -0.0956190354927 0.847 9.85265001434e-39
0.0532958558484 -0.0956190354927 0.847 9.85335626876e-39
0.0548633810204 -0.0956190354927 0.847 9.76007743519e-39
0.0564309061924 -0.0956190354927 0.847 9.9437512301e-39
0.0579984313644 -0.0956190354927 0.847 1.0312179221e-38
0.0595659565364 -0.0956190354927 0.847 1.23397417911e-38
-0.00873890656699 -0.0873890656699 0.787 2.35058568821e-38
-0.00728242213916 -0.0873890656699 0.787 2.34039012084e-38
-0.00582593771132 -0.0873890656699 0.787 1.9237169652e-38
-0.00436945328349 -0.0873890656699 0.787 1.81368911173e-38
-0.00290556613938 -0.0871669841815 0.785 2.33945475411e-38
-0.00145278306969 -0.0871669841815 0.785 9.29152807027e-39
0.0 -0.0871669841815 0.785 1.23365174034e-38
0.00158788264178 -0.0952729585067 0.858 1.26127553697e-38
0.00317576528356 -0.0952729585067 0.858 1.2337966346e-38
0.00476364792533 -0.0952729585067 0.858 1.20610221253e-38
0.00633672513455 -0.0950508770183 0.856 1.10501114001e-38
0.00792090641819 -0.0950508770183 0.856 1.14196057792e-38
0.00950508770183 -0.0950508770183 0.856 1.13256052769e-38
0.0110892689855 -0.0950508770183 0.856 1.16000481799e-38
0.0126734502691 -0.0950508770183 0.856 1.16925941344e-38
0.0142576315527 -0.0950508770183 0.856 1.17851428914e-38
0.0159158399992 -0.095495039995 0.86 1.14174519835e-38
0.0175074239991 -0.095495039995 0.86 1.16933158031e-38
0.0191434242967 -0.0957171214834 0.862 1.21528520163e-38
0.0207387096547 -0.0957171214834 0.862 1.22439686463e-38
0.0223858140267 -0.0959392029717 0.864 1.25212589877e-38
0.0239848007429 -0.0959392029717 0.864 1.18766406747e-38
0.0255837874591 -0.0959392029717 0.864 1.18765986357e-38
0.0271827741753 -0.0959392029717 0.864 1.16014508796e-38
0.0287817608915 -0.0959392029717 0.864 1.15085391863e-38
0.0304862363147 -0.0962723252043 0.867 1.14167064927e-38
0.0320907750681 -0.0962723252043 0.867 1.19683976981e-38
0.0337730423424 -0.0964944066926 0.869 1.17840652929e-38
0.035381282454 -0.0964944066926 0.869 1.14145681112e-38
0.0370746538027 -0.096716488181 0.871 1.06791666772e-38
0.0386865952724 -0.096716488181 0.871 1.08645766809e-38
0.0402060027886 -0.0964944066926 0.869 1.05866025058e-38
0.0418142429001 -0.0964944066926 0.869 1.09564163809e-38
0.0431726413373 -0.0959392029717 0.864 1.08628348669e-38
0.0446679900256 -0.0957171214834 0.862 9.66861188182e-39
0.0461559359976 -0.095495039995 0.86 1.01292144832e-38
0.0476364792533 -0.0952729585067 0.858 1.04022056409e-38
0.0491096197928 -0.0950508770183 0.856 1.03125113288e-38
0.050575357616 -0.0948287955299 0.854 1.01277851587e-38
0.0519726203136 -0.0944956732974 0.851 1.04043776535e-38
0.0534217020251 -0.094273591809 0.849 1.01299361519e-38
0.0549929285553 -0.094273591809 0.849 9.57746862711e-39
0.0565641550854 -0.094273591809 0.849 1.00370188533e-38
0.0581353816156 -0.094273591809 0.849 1.18783979029e-38
0.0597066081457 -0.094273591809 0.849 1.17869211392e-38
-0.00582593771132 -0.085932581242 0.787 1.89633769515e-38
-0.00436945328349 -0.085932581242 0.787 1.97981794922e-38
-0.00290556613938 -0.0857142011118 0.785 2.13623158446e-38
-0.00145278306969 -0.0857142011118 0.785 2.1366984971e-38
0.0 -0.0857142011118 0.785 1.15945901224e-38
0.00158788264178 -0.0936850758649 0.858 1.30773460664e-38
0.00317576528356 -0.0936850758649 0.858 1.18777070628e-38
0.00476364792533 -0.0936850758649 0.858 1.17847953694e-38
0.00635153056711 -0.0936850758649 0.858 1.13263689846e-38
0.00793941320889 -0.0936850758649 0.858 1.19706243614e-38
0.00952729585067 -0.0936850758649 0.858 1.1786568012e-38
0.0111151784924 -0.0936850758649 0.858 1.18780629926e-38
0.0127030611342 -0.0936850758649 0.858 1.16918962877e-38
0.014290943776 -0.0936850758649 0.858 1.17861756484e-38
0.0159528535806 -0.0941218361253 0.862 1.08667851273e-38
0.0175481389386 -0.0941218361253 0.862 1.14199561038e-38
0.0191434242967 -0.0941218361253 0.862 1.21546246588e-38
0.0207387096547 -0.0941218361253 0.862 1.16014508796e-38
0.0223858140267 -0.0943402162556 0.864 1.15074826072e-38
0.0240680813011 -0.0946677864509 0.867 1.13241857616e-38
0.0256726200545 -0.0946677864509 0.867 1.08649970704e-38
0.0273400818963 -0.0948861665811 0.869 1.0775287344e-38
0.0289483220078 -0.0948861665811 0.869 1.14170596199e-38
0.0305565621193 -0.0948861665811 0.869 1.13252423406e-38
0.0321648022309 -0.0948861665811 0.869 1.18787636418e-38
0.0338507708634 -0.0951045467113 0.871 1.27081936042e-38
0.035462712333 -0.0951045467113 0.871 1.34457166041e-38
0.0370746538027 -0.0951045467113 0.871 1.19717075651e-38
0.0386865952724 -0.0951045467113 0.871 1.04047251755e-38
0.0402985367421 -0.0951045467113 0.871 1.05891206391e-38
0.0418142429001 -0.0948861665811 0.869 1.02203311132e-38
0.0434224830117 -0.0948861665811 0.869 1.02196276614e-38
0.0447716280535 -0.0943402162556 0.864 9.66861188182e-39
0.0462632753836 -0.0941218361253 0.862 1.00373845922e-38
0.0476364792533 -0.0936850758649 0.858 1.04969208054e-38
0.0491096197928 -0.0934666957347 0.856 1.07742517845e-38
0.050575357616 -0.0932483156044 0.854 1.00370370702e-38
0.0521558375415 -0.0932483156044 0.854 9.76045438447e-39
0.053736317467 -0.0932483156044 0.854 9.57641344936e-39
0.0553167973925 -0.0932483156044 0.854 1.04043748509e-38
0.0566974039784 -0.0929207454091 0.851 1.15078511487e-38
0.0582723318667 -0.0929207454091 0.851 1.24312157523e-38
0.060058237169 -0.0932483156044 0.854 1.06802232562e-38
-0.00581113227877 -0.0842614180421 0.785 1.9149264798e-38
-0.00435834920908 -0.0842614180421 0.785 1.95191066991e-38
-0.0028981634231 -0.08404673927 0.783 1.84135004276e-38
-0.00144908171155 -0.08404673927 0.783 2.292925059e-38
0.00636633599967 -0.0923118719952 0.86 1.2156423926e-38
0.00795791999959 -0.0923118719952 0.86 1.11401420239e-38
0.0095495039995 -0.0923118719952 0.86 1.12326515446e-38
0.0111410879994 -0.0923118719952 0.86 1.18773385213e-38
0.0127326719993 -0.0923118719952 0.86 1.1600753033e-38
0.0143242559993 -0.0923118719952 0.86 1.1786568012e-38
0.015989867162 -0.0927412295394 0.864 1.0683109931e-38
0.0175888538782 -0.0927412295394 0.864 1.06820379377e-38
0.0191878405943 -0.0927412295394 0.864 1.12319719148e-38
0.0207868273105 -0.0927412295394 0.864 1.1139776285e-38
0.0224635425477 -0.0930632476975 0.867 1.06806128172e-38
0.0241236016732 -0.0932779264696 0.869 1.0864999873e-38
0.0257910635149 -0.0934926052416 0.871 9.85336888045e-39
0.0274030049846 -0.0934926052416 0.871 1.07763565348e-38
0.0290815709008 -0.0937072840137 0.873 1.04061741181e-38
0.030626887924 -0.0934926052416 0.871 1.10490576237e-38
0.0322388293937 -0.0934926052416 0.871 1.11394231578e-38
0.0339284993843 -0.0937072840137 0.873 1.10472275279e-38
0.035462712333 -0.0934926052416 0.871 1.08635383187e-38
0.0370746538027 -0.0934926052416 0.871 1.0313197965e-38
0.0386865952724 -0.0934926052416 0.871 1.11422958196e-38
0.0402985367421 -0.0934926052416 0.871 1.11416035782e-38
0.0419104782118 -0.0934926052416 0.871 1.09579017573e-38
0.0435224196815 -0.0934926052416 0.871 1.01295830246e-38
0.0449270850953 -0.0930632476975 0.867 1.00370370702e-38
0.0463706147697 -0.0927412295394 0.864 1.0219977986e-38
0.0477475199975 -0.0923118719952 0.86 1.05866053084e-38
0.0492243618951 -0.0920971932231 0.858 1.01274320315e-38
0.0506938010764 -0.091882514451 0.856 9.85335626876e-39
0.0522779823601 -0.091882514451 0.856 1.04050755001e-38
0.053736317467 -0.0916678356789 0.854 1.1142293017e-38
0.0553167973925 -0.0916678356789 0.854 1.14170624225e-38
0.0566974039784 -0.0913458175208 0.851 1.28003471951e-38
0.0582723318667 -0.0913458175208 0.851 1.05866151175e-38
0.060058237169 -0.0916678356789 0.854 6.99241207465e-39
-0.00581113227877 -0.0828086349724 0.785 2.02570248652e-38
-0.00434724513466 -0.0825976575585 0.783 1.88730366408e-38
-0.0028981634231 -0.0825976575585 0.783 1.91528254974e-38
-0.00144908171155 -0.0825976575585 0.783 1.85974811069e-38
0.00636633599967 -0.0907202879953 0.86 1.28936414429e-38
0.00795791999959 -0.0907202879953 0.86 1.21528702331e-38
0.0095495039995 -0.0907202879953 0.86 1.11401812602e-38
0.0111410879994 -0.0907202879953 0.86 1.13245360862e-38
0.0127326719993 -0.0907202879953 0.86 1.15085517979e-38
0.0143575682225 -0.0909312654092 0.862 1.06820379377e-38
0.016045387534 -0.0914587089441 0.867 1.08653726184e-38
0.0176499262875 -0.0914587089441 0.867 1.09579017573e-38
0.0192544650409 -0.0914587089441 0.867 1.0681316269e-38
0.0208590037943 -0.0914587089441 0.867 1.06820225234e-38
0.0225671805756 -0.091880663772 0.871 1.03139784883e-38
0.0242346424173 -0.0920916411859 0.873 1.04058209909e-38
0.0259095069754 -0.0923026185998 0.875 1.09589975727e-38
0.0275288511614 -0.0923026185998 0.875 1.04065272453e-38
0.0291481953473 -0.0923026185998 0.875 1.02221345843e-38
