# .PCD v0.7 - Point Cloud Data file format
VERSION 0.7
FIELDS x y z rgb
SIZE 4 4 4 4
TYPE F F F F
COUNT 1 1 1 1
WIDTH 856
HEIGHT 1
VIEWPOINT 0 0 0 1 0 0 0
POINTS 856
DATA ascii
0.0311894943612 -0.223251117533 0.887 9.57534005474e-39
0.032831046696 -0.223251117533 0.887 9.11615416616e-39
0.0344725990308 -0.223251117533 0.887 8.7466485767e-39
0.0360327214865 -0.222747732826 0.885 8.83774979246e-39
0.0376705724632 -0.222747732826 0.885 8.931056652e-39
0.0393084234398 -0.222747732826 0.885 8.83814075473e-39
0.0408074734862 -0.221992655765 0.882 9.48351016377e-39
0.0424397724257 -0.221992655765 0.882 8.38074292299e-39
0.0440720713651 -0.221992655765 0.882 6.07298091585e-39
-0.028581887552 -0.21436415664 0.858 1.4181877542e-38
-0.0269940049102 -0.21436415664 0.858 1.15071322826e-38
-0.0257318417847 -0.217112415058 0.869 1.1875205745e-38
-0.0241236016732 -0.217112415058 0.869 1.43641051969e-38
-0.0225671805756 -0.217612098407 0.871 1.69480589274e-38
-0.0211236509012 -0.219360990128 0.878 1.51971056677e-38
-0.0195431709757 -0.219860673477 0.88 1.13251820848e-38
-0.0179145733944 -0.219860673477 0.88 1.10457757827e-38
-0.0163229893945 -0.220360356826 0.882 1.02214297312e-38
-0.0147739710132 -0.221609565198 0.887 1.02192801393e-38
-0.0131324186784 -0.221609565198 0.887 9.02288934557e-39
-0.0115167758506 -0.222109248547 0.889 9.66825595201e-39
-0.00989373030646 -0.222608931895 0.891 9.75972570927e-39
-0.00827253544143 -0.223358456919 0.894 1.01295858272e-38
-0.0066328337857 -0.223858140267 0.896 9.11545071433e-39
-0.00497462533928 -0.223858140267 0.896 9.57713231547e-39
-0.00331641689285 -0.223858140267 0.896 9.76117325058e-39
-0.00165820844643 -0.223858140267 0.896 9.85300314155e-39
0.0 -0.223858140267 0.896 9.85300314155e-39
0.00165450708829 -0.223358456919 0.894 9.85372200766e-39
0.00330901417657 -0.223358456919 0.894 9.66825875461e-39
0.00496352126486 -0.223358456919 0.894 9.66897481812e-39
0.00661802835314 -0.223358456919 0.894 9.29949164944e-39
0.00827253544143 -0.223358456919 0.894 9.39239773762e-39
0.00992704252972 -0.223358456919 0.894 8.46793031214e-39
0.011607459125 -0.223858140267 0.896 8.837071564e-39
0.0132656675714 -0.223858140267 0.896 9.57390792771e-39
0.0149238760178 -0.223858140267 0.896 9.1132829056e-39
0.0165820844643 -0.223858140267 0.896 9.29803429904e-39
0.0182402929107 -0.223858140267 0.896 9.57713231547e-39
0.0198540850594 -0.223358456919 0.894 9.57642886364e-39
0.0215085921477 -0.223358456919 0.894 9.30054542588e-39
0.023163099236 -0.223358456919 0.894 9.21014906325e-39
0.0248176063243 -0.223358456919 0.894 9.11650449077e-39
0.0263832808172 -0.222608931895 0.891 9.85371920506e-39
0.0279693127799 -0.222109248547 0.889 8.47293995415e-39
0.0296145664729 -0.222109248547 0.889 8.84029034658e-39
0.0311894943612 -0.221609565198 0.887 8.56299860386e-39
0.032831046696 -0.221609565198 0.887 8.56335173107e-39
0.0344725990308 -0.221609565198 0.887 8.28603756758e-39
0.0360327214865 -0.221109881849 0.885 8.931056652e-39
0.0374577443701 -0.219860673477 0.88 8.4704372351e-39
0.0390863419515 -0.219860673477 0.88 8.56299860386e-39
0.0406224055793 -0.219360990128 0.878 8.10239039734e-39
0.0422473018025 -0.219360990128 0.878 6.89916266835e-39
0.0440720713651 -0.220360356826 0.882 1.28853527625e-38
-0.0301697701938 -0.212776273998 0.858 1.16065179749e-38
-0.0285152631055 -0.212280292008 0.856 1.11459069658e-38
-0.0268681587335 -0.211784310017 0.854 1.33542636624e-38
-0.025287678808 -0.211784310017 0.854 1.1691498319e-38
-0.0236239183244 -0.211040337031 0.851 1.01256411721e-38
-0.0220489904361 -0.211040337031 0.851 1.39978155874e-38
-0.0204740625478 -0.211040337031 0.851 1.50130493183e-38
-0.0188991346595 -0.211040337031 0.851 1.69466099848e-38
-0.0173242067712 -0.211040337031 0.851 1.46428500861e-38
-0.016415523348 -0.219968012863 0.887 1.25226813057e-38
-0.0147739710132 -0.219968012863 0.887 1.23365146008e-38
-0.0131620295435 -0.220463994854 0.889 1.09557185343e-38
-0.0115167758506 -0.220463994854 0.889 9.7561383852e-39
-0.00992704252972 -0.22170394983 0.894 9.84687246077e-39
-0.00829104223213 -0.222199931821 0.896 9.75826135238e-39
-0.0066328337857 -0.222199931821 0.896 9.66825595201e-39
-0.00497462533928 -0.222199931821 0.896 8.9310594546e-39
-0.00331641689285 -0.222199931821 0.896 9.48314442487e-39
-0.00165820844643 -0.222199931821 0.896 9.75972570927e-39
0.0 -0.222199931821 0.896 8.84101201528e-39
0.00165820844643 -0.222199931821 0.896 9.48673455154e-39
0.00331641689285 -0.222199931821 0.896 9.66862729611e-39
0.00497462533928 -0.222199931821 0.896 1.01295676104e-38
0.0066328337857 -0.222199931821 0.896 9.30131193614e-39
0.00829104223213 -0.222199931821 0.896 9.30055103108e-39
0.00994925067855 -0.222199931821 0.896 9.39094879501e-39
0.011607459125 -0.222199931821 0.896 9.11580103894e-39
0.0132952784365 -0.222695913812 0.898 8.83777501583e-39
0.0149238760178 -0.222199931821 0.896 9.20473444598e-39
0.0165820844643 -0.222199931821 0.896 8.74629825208e-39
0.0182402929107 -0.222199931821 0.896 8.56335173107e-39
0.0198985013571 -0.222199931821 0.896 9.11508777803e-39
0.0215567098035 -0.222199931821 0.896 9.39166766112e-39
0.023163099236 -0.22170394983 0.894 8.84066169067e-39
0.0248176063243 -0.22170394983 0.894 8.7466485767e-39
0.0264721134126 -0.22170394983 0.894 8.84064347379e-39
0.0280322358683 -0.220959976844 0.891 8.5640551829e-39
0.0296811909194 -0.220959976844 0.891 8.74557658337e-39
0.0312598201658 -0.220463994854 0.889 8.37932060505e-39
0.0329050738588 -0.220463994854 0.889 8.28533411575e-39
0.0344725990308 -0.219968012863 0.887 8.37787026114e-39
0.0359105766679 -0.218728057886 0.882 8.56083499903e-39
0.0374577443701 -0.218232075896 0.88 9.29622942661e-39
0.0390863419515 -0.218232075896 0.88 7.08209517637e-39
0.0406224055793 -0.217736093905 0.878 1.14952730937e-38
0.0422473018025 -0.217736093905 0.878 1.51013297202e-38
-0.0300291185845 -0.210203830091 0.854 1.83670992316e-40
-0.028448638659 -0.210203830091 0.854 0.0
-0.0267737741009 -0.209465409143 0.851 1.04969684495e-38
-0.0251988462126 -0.209465409143 0.851 1.24326955235e-38
-0.0235683979523 -0.20897312851 0.849 1.18762623241e-38
-0.0219971714221 -0.20897312851 0.849 1.06773716138e-38
-0.0203778272361 -0.208480847878 0.847 1.15060757036e-38
-0.0187658857665 -0.207988567245 0.845 1.41797083319e-38
-0.0171613470131 -0.207496286612 0.843 1.49176391097e-38
-0.0156012245573 -0.207496286612 0.843 1.52874852147e-38
-0.0148405954597 -0.219311021793 0.891 1.53807710548e-38
-0.0131916404086 -0.219311021793 0.891 1.42737074329e-38
-0.0115426853575 -0.219311021793 0.891 1.34421236749e-38
-0.00992704252972 -0.220049442742 0.894 1.24269375881e-38
-0.00829104223213 -0.220541723375 0.896 1.08592195168e-38
-0.0066328337857 -0.220541723375 0.896 9.38412447149e-39
-0.00497462533928 -0.220541723375 0.896 9.38912850831e-39
-0.00332381960913 -0.221034004007 0.898 9.48095139278e-39
-0.00166190980456 -0.221034004007 0.898 9.75937258206e-39
0.0 -0.221034004007 0.898 8.93320764515e-39
0.00166190980456 -0.221034004007 0.898 9.21015466844e-39
0.00332381960913 -0.221034004007 0.898 9.30055103108e-39
0.00498572941369 -0.221034004007 0.898 9.57569318195e-39
0.00664763921826 -0.221034004007 0.898 9.2962448409e-39
0.00830954902282 -0.221034004007 0.898 9.29730141994e-39
0.00997145882739 -0.221034004007 0.898 9.76082012337e-39
0.011633368632 -0.221034004007 0.898 9.11508777803e-39
0.0132952784365 -0.221034004007 0.898 9.29804410813e-39
0.0149571882411 -0.221034004007 0.898 9.11508777803e-39
0.0166190980456 -0.221034004007 0.898 8.74594512487e-39
0.0182810078502 -0.221034004007 0.898 8.37823880263e-39
0.0198985013571 -0.220541723375 0.896 7.91870959593e-39
0.0215567098035 -0.220541723375 0.896 8.37823880263e-39
0.02321491825 -0.220541723375 0.896 8.10274072195e-39
0.0248731266964 -0.220541723375 0.896 8.10274072195e-39
0.0264721134126 -0.220049442742 0.894 8.0998694614e-39
0.0280322358683 -0.219311021793 0.891 7.73215052748e-39
0.0296811909194 -0.219311021793 0.891 8.28241380975e-39
0.0312598201658 -0.218818741161 0.889 8.46825401209e-39
0.0329050738588 -0.218818741161 0.889 7.17500827105e-39
0.0344725990308 -0.218326460528 0.887 1.01195076887e-38
0.0359105766679 -0.217095758947 0.882 1.29732337944e-38
0.0374577443701 -0.216603478314 0.88 1.26091610391e-38
0.0390863419515 -0.216603478314 0.88 1.63919704474e-38
-0.0300291185845 -0.208623350166 0.854 9.1835496158e-40
-0.0283487019892 -0.207890481254 0.851 3.67341984632e-40
-0.0267737741009 -0.207890481254 0.851 0.0
-0.0251988462126 -0.207890481254 0.851 1.12388214617e-38
-0.0235128775802 -0.206913322706 0.847 1.21549749834e-38
-0.0219453524082 -0.206913322706 0.847 1.26145336174e-38
-0.0203297095803 -0.206424743431 0.845 1.12334124497e-38
-0.0187658857665 -0.206424743431 0.845 1.04022238578e-38
-0.0171613470131 -0.205936164157 0.843 1.17836421008e-38
-0.0156012245573 -0.205936164157 0.843 1.31666480149e-38
-0.0148072832364 -0.217173487468 0.889 1.41829285158e-38
-0.0131620295435 -0.217173487468 0.889 1.51055952728e-38
-0.0115426853575 -0.217662066742 0.891 1.53785598058e-38
-0.00994925067855 -0.218883514928 0.896 1.63927173395e-38
-0.00829104223213 -0.218883514928 0.896 1.61186892209e-38
-0.0066328337857 -0.218883514928 0.896 1.47354016458e-38
-0.00497462533928 -0.218883514928 0.896 1.27063733175e-38
-0.00332381960913 -0.219372094203 0.898 1.251875767e-38
-0.00166190980456 -0.219372094203 0.898 1.10439611012e-38
0.0 -0.219372094203 0.898 1.0767399435e-38
0.00166190980456 -0.219372094203 0.898 9.19829547954e-39
0.00332381960913 -0.219372094203 0.898 9.47379075763e-39
0.00498572941369 -0.219372094203 0.898 9.19935205858e-39
0.00664763921826 -0.219372094203 0.898 9.84544033374e-39
0.00833730920887 -0.220104963114 0.901 9.93833661283e-39
0.00997145882739 -0.219372094203 0.898 8.46575269433e-39
0.011633368632 -0.219372094203 0.898 9.2947818853e-39
0.0133396947342 -0.220104963114 0.901 8.3746234526e-39
0.0149571882411 -0.219372094203 0.898 9.29657975123e-39
0.0166190980456 -0.219372094203 0.898 9.02177251069e-39
0.0182810078502 -0.219372094203 0.898 7.26792837222e-39
0.0199429176548 -0.219372094203 0.898 6.99061841262e-39
0.0216048274593 -0.219372094203 0.898 7.54163138957e-39
0.02321491825 -0.218883514928 0.896 7.17357194012e-39
0.0248731266964 -0.218883514928 0.896 9.56310531785e-39
0.0264721134126 -0.218394935654 0.894 8.73549283962e-39
0.0281266205009 -0.218394935654 0.894 1.21449206669e-38
0.0297811275891 -0.218394935654 0.894 1.25180121792e-38
0.0312598201658 -0.217173487468 0.889 1.28861010559e-38
0.0329050738588 -0.217173487468 0.889 1.47321646463e-38
0.0327625715704 -0.205936164157 0.843 1.70370497877e-38
0.0343226940261 -0.205936164157 0.843 1.7308973156e-38
0.0358828164819 -0.205936164157 0.843 1.9242850516e-38
0.0374429389376 -0.205936164157 0.843 2.10939503731e-38
-0.0299236298775 -0.206315553366 0.851 1.46972667093e-39
-0.0283487019892 -0.206315553366 0.851 1.74666808904e-39
-0.0267737741009 -0.206315553366 0.851 0.0
-0.0251396244824 -0.20583067545 0.849 1.01288795728e-38
-0.0235128775802 -0.205345797533 0.847 1.1972420826e-38
-0.0219453524082 -0.205345797533 0.847 1.21546274614e-38
-0.0203297095803 -0.204860919617 0.845 1.20624542523e-38
-0.0187658857665 -0.204860919617 0.845 1.22461168368e-38
-0.0171206320735 -0.203891163785 0.841 1.22461042252e-38
-0.0155271973945 -0.203406285868 0.839 1.12305397878e-38
-0.0139744776551 -0.203406285868 0.839 1.16914857073e-38
-0.0124217579156 -0.203406285868 0.839 1.17826401724e-38
-0.0108690381762 -0.203406285868 0.839 1.36265527696e-38
-0.00994925067855 -0.217225306482 0.896 1.50122982223e-38
-0.00829104223213 -0.217225306482 0.896 1.46439066651e-38
-0.0066328337857 -0.217225306482 0.896 1.52885950431e-38
-0.00497462533928 -0.217225306482 0.896 1.66700301017e-38
-0.00332381960913 -0.217710184398 0.898 1.56515916012e-38
-0.00166746184177 -0.218437501272 0.901 1.71277964749e-38
0.0 -0.218437501272 0.901 1.7129242615e-38
0.00166190980456 -0.217710184398 0.898 1.6945930355e-38
0.00332381960913 -0.217710184398 0.898 1.67619020316e-38
0.00500238552532 -0.218437501272 0.901 1.54718568563e-38
0.00666984736709 -0.218437501272 0.901 1.44580734693e-38
0.00833730920887 -0.218437501272 0.901 1.45488243604e-38
0.0100047710506 -0.218437501272 0.901 1.39030836073e-38
0.0116722328924 -0.218437501272 0.901 1.38094600543e-38
0.0133396947342 -0.218437501272 0.901 1.27042055087e-38
0.015007156576 -0.218437501272 0.901 1.27049271774e-38
0.0166746184177 -0.218437501272 0.901 1.34424964202e-38
0.0182810078502 -0.217710184398 0.898 1.32580827397e-38
0.0199429176548 -0.217710184398 0.898 1.41789894658e-38
0.0216048274593 -0.217710184398 0.898 1.52845915334e-38
0.02321491825 -0.217225306482 0.896 1.63905537347e-38
0.0248731266964 -0.217225306482 0.896 1.73125282502e-38
0.0264721134126 -0.216740428565 0.894 1.78653489022e-38
0.0281266205009 -0.216740428565 0.894 1.83227369248e-38
0.0296811909194 -0.216013111691 0.891 1.89634470165e-38
0.0312598201658 -0.215528233775 0.889 1.99786751422e-38
0.0311284219519 -0.203891163785 0.841 2.08155712227e-38
0.0326848430495 -0.203891163785 0.841 1.90667605483e-38
0.0343226940261 -0.204376041701 0.843 1.71281888385e-38
0.0358828164819 -0.204376041701 0.843 1.8230888817e-38
0.0374429389376 -0.204376041701 0.843 1.7495135657e-38
0.0390955953468 -0.204860919617 0.845 1.63905537347e-38
0.0407556544723 -0.205345797533 0.847 1.80501101047e-38
-0.0299236298775 -0.204740625478 0.851 0.0
-0.0283487019892 -0.204740625478 0.851 0.0
-0.0267737741009 -0.204740625478 0.851 0.0
-0.0251396244824 -0.20425944892 0.849 1.1600753033e-38
-0.0235683979523 -0.20425944892 0.849 1.06823910649e-38
-0.0219971714221 -0.20425944892 0.849 1.15088867083e-38
-0.0203778272361 -0.203778272361 0.847 1.2429434702e-38
-0.0187658857665 -0.203297095803 0.845 1.2799290616e-38
-0.0171206320735 -0.202334742687 0.841 1.27985717499e-38
-0.0155271973945 -0.201853566129 0.839 1.27049538021e-38
-0.0139744776551 -0.201853566129 0.839 1.31659417605e-38
-0.0124217579156 -0.201853566129 0.839 1.27989248771e-38
-0.0108690381762 -0.201853566129 0.839 1.22450224227e-38
-0.00931631843672 -0.201853566129 0.839 1.22450098111e-38
-0.00776359869727 -0.201853566129 0.839 1.28882688646e-38
-0.0066328337857 -0.215567098035 0.896 1.32577870658e-38
-0.00497462533928 -0.215567098035 0.896 1.48254434799e-38
-0.00332381960913 -0.216048274593 0.898 1.61143676165e-38
-0.00166746184177 -0.216770039431 0.901 1.57477585109e-38
0.0 -0.216770039431 0.901 1.66686203955e-38
0.00166746184177 -0.216770039431 0.901 1.58385037969e-38
0.00333492368355 -0.216770039431 0.901 1.72217969772e-38
0.00500238552532 -0.216770039431 0.901 1.81448266705e-38
0.00666984736709 -0.216770039431 0.901 1.8144486155e-38
0.00833730920887 -0.216770039431 0.901 1.87901960795e-38
0.00997145882739 -0.216048274593 0.898 1.860472582e-38
0.011633368632 -0.216048274593 0.898 1.88780729075e-38
0.0133396947342 -0.216770039431 0.901 1.9432694228e-38
0.0139744776551 -0.201853566129 0.839 1.93426467887e-38
0.0155271973945 -0.201853566129 0.839 1.95252429851e-38
0.0170392021945 -0.201372389571 0.837 2.05404430848e-38
0.0185438042781 -0.200891213013 0.835 1.98947233512e-38
0.0200891213013 -0.200891213013 0.835 2.17393351964e-38
0.0216344383245 -0.200891213013 0.835 2.14638273066e-38
0.0248176063243 -0.215085921477 0.894 2.23854500962e-38
0.0264721134126 -0.215085921477 0.894 2.20177241558e-38
0.0279693127799 -0.213882980082 0.889 2.24769002353e-38
0.0296145664729 -0.213882980082 0.889 2.04468265383e-38
0.0312598201658 -0.213882980082 0.889 1.9154987701e-38
0.0311284219519 -0.202334742687 0.841 1.73089521365e-38
0.0326848430495 -0.202334742687 0.841 1.42687019948e-38
0.0343226940261 -0.202815919245 0.843 1.58363359881e-38
0.0358828164819 -0.202815919245 0.843 1.67579671855e-38
0.0374429389376 -0.202815919245 0.843 1.82348699059e-38
0.0390955953468 -0.203297095803 0.845 1.85110854514e-38
0.0407556544723 -0.203778272361 0.847 1.95237954438e-38
-0.0299236298775 -0.203165697589 0.851 6.52283135407e-39
-0.0283487019892 -0.203165697589 0.851 4.22443282327e-39
-0.0267737741009 -0.203165697589 0.851 2.75506488474e-40
-0.0251988462126 -0.203165697589 0.851 1.150712948e-38
-0.0235683979523 -0.202688222389 0.849 1.04054440416e-38
-0.0219971714221 -0.202688222389 0.849 1.08631823889e-38
-0.0203778272361 -0.202210747189 0.847 1.19684607565e-38
-0.0187658857665 -0.201733271989 0.845 1.24297850266e-38
-0.0171613470131 -0.20125579679 0.843 1.30740978566e-38
-0.0155642109759 -0.20077832159 0.841 1.30748013084e-38
-0.0139744776551 -0.20030084639 0.839 1.32584779059e-38
-0.0124217579156 -0.20030084639 0.839 1.33510238604e-38
-0.0108690381762 -0.20030084639 0.839 1.30744355695e-38
-0.00931631843672 -0.20030084639 0.839 1.49187209122e-38
-0.00776359869727 -0.20030084639 0.839 1.41825753886e-38
-0.00621087895782 -0.20030084639 0.839 1.31673738875e-38
-0.00465815921836 -0.20030084639 0.839 1.31680829446e-38
-0.00310543947891 -0.20030084639 0.839 1.46406668631e-38
-0.00166746184177 -0.215102577589 0.901 1.3259196772e-38
0.0 -0.215102577589 0.901 1.42715690515e-38
0.00166746184177 -0.215102577589 0.901 1.51917302868e-38
0.00333492368355 -0.215102577589 0.901 1.60261376612e-38
0.00500238552532 -0.215102577589 0.901 1.59335861016e-38
0.00666984736709 -0.215102577589 0.901 1.68544535913e-38
0.00833730920887 -0.215102577589 0.901 1.80529645497e-38
0.00997145882739 -0.214386364789 0.898 1.8050125519e-38
0.0108431286692 -0.19982337119 0.837 1.86029279541e-38
0.0123921470505 -0.19982337119 0.837 1.79576019853e-38
0.0139411654318 -0.19982337119 0.837 1.89738586641e-38
0.0154901838131 -0.19982337119 0.837 1.86036720435e-38
0.0170392021945 -0.19982337119 0.837 1.83267138099e-38
0.0185438042781 -0.19934589599 0.835 1.81423239514e-38
0.0200891213013 -0.19934589599 0.835 1.75895145098e-38
0.0216344383245 -0.19934589599 0.835 1.56541377605e-38
0.0231797553476 -0.19934589599 0.835 1.48243588749e-38
0.024784294101 -0.19982337119 0.837 1.44519820249e-38
0.0279693127799 -0.212237726389 0.889 1.54661283482e-38
0.0296145664729 -0.212237726389 0.889 1.46359851249e-38
0.0295016750496 -0.20030084639 0.839 1.66661008608e-38
0.0310543947891 -0.20030084639 0.839 1.70370469851e-38
0.0326848430495 -0.20077832159 0.841 1.76820478526e-38
0.0343226940261 -0.20125579679 0.843 1.81430217981e-38
0.0358828164819 -0.20125579679 0.843 1.88798707735e-38
0.0374429389376 -0.20125579679 0.843 1.84174478854e-38
0.0390955953468 -0.201733271989 0.845 1.92443316884e-38
0.0407556544723 -0.202210747189 0.847 2.0627306774e-38
0.0423231796443 -0.202210747189 0.847 1.8968839213e-38
-0.028448638659 -0.202301430464 0.854 1.33215727706e-38
-0.0267737741009 -0.201590769701 0.851 1.17549435082e-38
-0.0251988462126 -0.201590769701 0.851 1.35167820544e-38
-0.0235683979523 -0.201116995859 0.849 1.05901772182e-38
-0.0219971714221 -0.201116995859 0.849 1.0955031898e-38
-0.0203778272361 -0.200643222017 0.847 1.18755616748e-38
-0.0187658857665 -0.200169448176 0.845 1.23376104162e-38
-0.0172020619526 -0.200169448176 0.845 1.23386697978e-38
-0.0156012245573 -0.199695674334 0.843 1.31666508175e-38
-0.0140077898783 -0.199221900492 0.841 1.27985745525e-38
-0.0124513687807 -0.199221900492 0.841 1.31662780721e-38
-0.0108690381762 -0.19874812665 0.839 1.38123537356e-38
-0.00931631843672 -0.19874812665 0.839 1.37190833098e-38
-0.00776359869727 -0.19874812665 0.839 1.39045493655e-38
-0.00621087895782 -0.19874812665 0.839 1.39964086837e-38
-0.00465815921836 -0.19874812665 0.839 1.41800740708e-38
-0.00310543947891 -0.19874812665 0.839 1.43648212604e-38
-0.00155271973945 -0.19874812665 0.839 1.45499355901e-38
0.0 -0.19874812665 0.839 1.51041911717e-38
0.00155271973945 -0.19874812665 0.839 1.52871376927e-38
0.00333492368355 -0.213435115747 0.901 1.50119899366e-38
0.00464705514394 -0.198274352808 0.837 1.49197915042e-38
0.00619607352526 -0.198274352808 0.837 1.50101878668e-38
0.00774509190657 -0.198274352808 0.837 1.54711688187e-38
0.00927190213905 -0.197800578966 0.835 1.53771781255e-38
0.0108172191622 -0.197800578966 0.835 1.59282037142e-38
0.0123625361854 -0.197800578966 0.835 1.51917148725e-38
0.0139078532086 -0.197800578966 0.835 1.55626455825e-38
0.0154901838131 -0.198274352808 0.837 1.48254140526e-38
0.0170392021945 -0.198274352808 0.837 1.51945314824e-38
0.0185438042781 -0.197800578966 0.835 1.61143550048e-38
0.0200891213013 -0.197800578966 0.835 1.56541097345e-38
0.0216344383245 -0.197800578966 0.835 1.53796962589e-38
0.0231797553476 -0.197800578966 0.835 1.57484787783e-38
0.024784294101 -0.198274352808 0.837 1.66682700708e-38
0.0263333124823 -0.198274352808 0.837 1.67604685033e-38
0.0278823308637 -0.198274352808 0.837 1.73125422632e-38
0.0295016750496 -0.19874812665 0.839 1.8233419562e-38
0.0310543947891 -0.19874812665 0.839 1.76809940762e-38
0.0326848430495 -0.199221900492 0.841 1.74047406956e-38
0.0343226940261 -0.199695674334 0.843 1.78653489022e-38
0.0358828164819 -0.199695674334 0.843 1.88805896396e-38
0.0375317715329 -0.200169448176 0.845 1.78646426477e-38
0.0390955953468 -0.200169448176 0.845 1.77702988273e-38
0.0407556544723 -0.200643222017 0.847 1.85071478027e-38
0.0423231796443 -0.200643222017 0.847 1.94305460375e-38
-0.028448638659 -0.200720950538 0.854 1.01019045774e-38
-0.0268681587335 -0.200720950538 0.854 1.16631080121e-38
-0.0251988462126 -0.200015841813 0.851 1.14912948074e-38
-0.0236239183244 -0.200015841813 0.851 1.1599987924e-38
-0.0220489904361 -0.200015841813 0.851 1.08631851915e-38
-0.020425944892 -0.199545769329 0.849 1.16000481799e-38
-0.0188103020641 -0.199075696845 0.847 1.22472154548e-38
-0.0172020619526 -0.198605624362 0.845 1.20617227745e-38
-0.0156012245573 -0.198135551878 0.843 1.30733789905e-38
-0.0140077898783 -0.197665479394 0.841 1.36279596733e-38
-0.0124513687807 -0.197665479394 0.841 1.32577478294e-38
-0.0108690381762 -0.197195406911 0.839 1.39031144359e-38
-0.00931631843672 -0.197195406911 0.839 1.39031144359e-38
-0.00776359869727 -0.197195406911 0.839 1.41807803253e-38
-0.00621087895782 -0.197195406911 0.839 1.42726228279e-38
-0.00465815921836 -0.197195406911 0.839 1.40893133706e-38
-0.00310543947891 -0.197195406911 0.839 1.39971121355e-38
-0.00155271973945 -0.197195406911 0.839 1.40889728551e-38
0.0 -0.197195406911 0.839 1.43641206111e-38
0.00155271973945 -0.197195406911 0.839 1.4734332455e-38
0.00310543947891 -0.197195406911 0.839 1.49186830771e-38
0.00464705514394 -0.196725334427 0.837 1.51045569106e-38
0.00619607352526 -0.196725334427 0.837 1.5471869468e-38
0.00774509190657 -0.196725334427 0.837 1.54726009458e-38
0.00927190213905 -0.196255261943 0.835 1.57463109696e-38
0.0108172191622 -0.196255261943 0.835 1.62054968582e-38
0.0123625361854 -0.196255261943 0.835 1.62987616788e-38
0.0139078532086 -0.196255261943 0.835 1.51927686489e-38
0.0154531702318 -0.196255261943 0.835 1.63002106214e-38
0.0170392021945 -0.196725334427 0.837 1.56555474668e-38
0.0185882205758 -0.196725334427 0.837 1.63009140732e-38
0.0200891213013 -0.196255261943 0.835 1.60232509864e-38
0.0216344383245 -0.196255261943 0.835 1.6022169184e-38
0.0232352757197 -0.196725334427 0.837 1.62065688515e-38
0.024784294101 -0.196725334427 0.837 1.64831571424e-38
0.0263333124823 -0.196725334427 0.837 1.62984085516e-38
0.0278823308637 -0.196725334427 0.837 1.62984085516e-38
0.0295016750496 -0.197195406911 0.839 1.77742490877e-38
0.0310543947891 -0.197195406911 0.839 1.74051092371e-38
0.0326848430495 -0.197665479394 0.841 1.7405812689e-38
0.0343226940261 -0.198135551878 0.843 1.63909587099e-38
0.0358828164819 -0.198135551878 0.843 1.63906111879e-38
0.0375317715329 -0.198605624362 0.845 1.72189369271e-38
0.0390955953468 -0.198605624362 0.845 1.75876844141e-38
0.0408518897839 -0.199545769329 0.849 1.86947606476e-38
0.0424231163141 -0.199545769329 0.849 1.98914989634e-38
0.0439943428442 -0.199545769329 0.849 1.47314359711e-38
-0.0268681587335 -0.199140470613 0.854 0.0
-0.0251988462126 -0.198440913925 0.851 9.7565041241e-39
-0.0236239183244 -0.198440913925 0.851 7.99076436297e-39
-0.0220489904361 -0.198440913925 0.851 1.29761639095e-38
-0.020425944892 -0.197974542799 0.849 1.13252423406e-38
-0.0188547183618 -0.197974542799 0.849 1.19699026927e-38
-0.0172020619526 -0.197041800548 0.845 1.24297850266e-38
-0.0156382381387 -0.197041800548 0.845 1.25205583385e-38
-0.0140077898783 -0.196109058297 0.841 1.29804616919e-38
-0.0124513687807 -0.196109058297 0.841 1.34421460956e-38
-0.0108690381762 -0.195642687171 0.839 1.32573947022e-38
-0.00931631843672 -0.195642687171 0.839 1.39031410605e-38
-0.00776359869727 -0.195642687171 0.839 1.37209007939e-38
-0.00621087895782 -0.195642687171 0.839 1.3996396072e-38
-0.00465815921836 -0.195642687171 0.839 1.464068508e-38
-0.00310543947891 -0.195642687171 0.839 1.44573700174e-38
-0.00155271973945 -0.195642687171 0.839 1.44577371576e-38
0.0 -0.195642687171 0.839 1.45492195266e-38
0.00155271973945 -0.195642687171 0.839 1.60257873366e-38
0.00310543947891 -0.195642687171 0.839 1.44595406288e-38
0.00464705514394 -0.195176316046 0.837 1.50119899366e-38
0.00619607352526 -0.195176316046 0.837 1.51041855665e-38
0.00774509190657 -0.195176316046 0.837 1.510345549e-38
0.00927190213905 -0.19470994492 0.835 1.60229006618e-38
0.0108172191622 -0.19470994492 0.835 1.52853328203e-38
0.0123625361854 -0.19470994492 0.835 1.63902580607e-38
0.0139078532086 -0.19470994492 0.835 1.63920335059e-38
0.0154531702318 -0.19470994492 0.835 1.66689861344e-38
0.0170392021945 -0.195176316046 0.837 1.575026123e-38
0.0185882205758 -0.195176316046 0.837 1.59335889042e-38
0.0201372389571 -0.195176316046 0.837 1.54726107549e-38
0.0216862573384 -0.195176316046 0.837 1.70381315901e-38
0.0232352757197 -0.195176316046 0.837 1.64838788111e-38
0.024784294101 -0.195176316046 0.837 1.59292981283e-38
0.0263962355707 -0.195642687171 0.839 1.66675694216e-38
0.0279489553102 -0.195642687171 0.839 1.63913244488e-38
0.0295016750496 -0.195642687171 0.839 1.61140200944e-38
0.0311284219519 -0.196109058297 0.841 1.64802858818e-38
0.0327625715704 -0.196575429422 0.843 1.60214657322e-38
0.0343226940261 -0.196575429422 0.843 1.657713102e-38
0.0359679477191 -0.197041800548 0.845 1.69441338904e-38
0.0375317715329 -0.197041800548 0.845 1.80486905893e-38
0.0391881293003 -0.197508171673 0.847 1.91550311412e-38
0.0408518897839 -0.197974542799 0.849 1.87876877553e-38
0.0424231163141 -0.197974542799 0.849 1.97074832517e-38
0.0439943428442 -0.197974542799 0.849 1.40846386389e-38
-0.0268681587335 -0.197559990687 0.854 0.0
-0.0251988462126 -0.196865986036 0.851 1.19738879855e-38
-0.0236239183244 -0.196865986036 0.851 7.26325504184e-39
-0.0220489904361 -0.196865986036 0.851 1.15849281694e-38
-0.020425944892 -0.196403316269 0.849 1.1785469394e-38
-0.0188547183618 -0.196403316269 0.849 1.14170568173e-38
-0.0172427768921 -0.195940646501 0.847 1.2339022925e-38
-0.0156382381387 -0.195477976734 0.845 1.27067264447e-38
-0.0140411021016 -0.195015306967 0.843 1.32584751033e-38
-0.0124809796459 -0.195015306967 0.843 1.31659417605e-38
-0.0108949476832 -0.194552637199 0.841 1.33495903321e-38
-0.00933852658556 -0.194552637199 0.841 1.35346948527e-38
-0.00778210548797 -0.194552637199 0.841 1.34432405097e-38
-0.00622568439037 -0.194552637199 0.841 1.39963932694e-38
-0.00465815921836 -0.194089967432 0.839 1.4271909567e-38
-0.00310543947891 -0.194089967432 0.839 1.43641023943e-38
-0.00155271973945 -0.194089967432 0.839 1.43655275148e-38
0.0 -0.194089967432 0.839 1.46417682837e-38
0.00155271973945 -0.194089967432 0.839 1.4824740028e-38
0.00309803676263 -0.193627297664 0.837 1.48261945759e-38
0.00464705514394 -0.193627297664 0.837 1.51038352419e-38
0.00619607352526 -0.193627297664 0.837 1.52875188459e-38
0.00774509190657 -0.193627297664 0.837 1.52867845655e-38
0.00929411028789 -0.193627297664 0.837 1.63924062513e-38
0.0108431286692 -0.193627297664 0.837 1.61154662345e-38
0.0123921470505 -0.193627297664 0.837 1.52853482346e-38
0.0139411654318 -0.193627297664 0.837 1.62055094699e-38
0.0154901838131 -0.193627297664 0.837 1.59303645164e-38
0.0170392021945 -0.193627297664 0.837 1.5287500629e-38
0.0185882205758 -0.193627297664 0.837 1.53800493861e-38
0.0201372389571 -0.193627297664 0.837 1.54718918887e-38
0.0216862573384 -0.193627297664 0.837 1.57488305042e-38
0.0232352757197 -0.193627297664 0.837 1.5655191537e-38
0.024784294101 -0.193627297664 0.837 1.61158137565e-38
0.0263962355707 -0.194089967432 0.839 1.60236167253e-38
0.0279489553102 -0.194089967432 0.839 1.61158165591e-38
0.0295016750496 -0.194089967432 0.839 1.62062129217e-38
0.0311284219519 -0.194552637199 0.841 1.73132863527e-38
0.0327625715704 -0.195015306967 0.843 1.67600873501e-38
0.0343226940261 -0.195015306967 0.843 1.74973020644e-38
0.0359679477191 -0.195477976734 0.845 1.73118233971e-38
0.0375317715329 -0.195477976734 0.845 1.87844507558e-38
0.0391881293003 -0.195940646501 0.847 1.91535835999e-38
0.0408518897839 -0.196403316269 0.849 1.98918675049e-38
0.0424231163141 -0.196403316269 0.849 1.45419874252e-38
0.0440979808721 -0.196865986036 0.851 1.46255482539e-38
-0.025287678808 -0.195979510762 0.854 1.13277548688e-38
-0.0236239183244 -0.195291058148 0.851 1.13241451239e-38
-0.0220489904361 -0.195291058148 0.851 9.38623342568e-39
-0.0204740625478 -0.195291058148 0.851 9.5706330932e-39
-0.0188547183618 -0.194832089739 0.849 1.18715735794e-38
-0.0172834918317 -0.194832089739 0.849 1.32598806057e-38
-0.0156752517201 -0.194373121329 0.847 1.27045768528e-38
-0.0140744143248 -0.19391415292 0.845 1.34428901851e-38
-0.0124809796459 -0.193455184511 0.843 1.28911331187e-38
-0.0109208571901 -0.193455184511 0.843 1.3168080142e-38
-0.00933852658556 -0.192996216102 0.841 1.3352111268e-38
-0.00778210548797 -0.192996216102 0.841 1.39957080345e-38
-0.00622568439037 -0.192996216102 0.841 1.41800740708e-38
-0.00465815921836 -0.192537247692 0.839 1.4917278976e-38
-0.00310543947891 -0.192537247692 0.839 1.3903509602e-38
-0.00155271973945 -0.192537247692 0.839 1.46403319527e-38
0.0 -0.192537247692 0.839 1.49179950396e-38
0.00155271973945 -0.192537247692 0.839 1.49179950396e-38
0.00309803676263 -0.192078279283 0.837 1.48254280656e-38
0.00464705514394 -0.192078279283 0.837 1.49197943068e-38
0.00619607352526 -0.192078279283 0.837 1.50116368094e-38
0.00774509190657 -0.192078279283 0.837 1.55626581942e-38
0.00929411028789 -0.192078279283 0.837 1.54718918887e-38
0.0108431286692 -0.192078279283 0.837 1.58399681538e-38
0.0123921470505 -0.192078279283 0.837 1.5564446251e-38
0.0139411654318 -0.192078279283 0.837 1.51956581264e-38
0.0154901838131 -0.192078279283 0.837 1.51953078017e-38
0.0170392021945 -0.192078279283 0.837 1.56537650151e-38
0.0185882205758 -0.192078279283 0.837 1.51953078017e-38
0.0201372389571 -0.192078279283 0.837 1.62098156601e-38
0.0216862573384 -0.192078279283 0.837 1.57470396448e-38
0.0232352757197 -0.192078279283 0.837 1.57470368422e-38
0.024784294101 -0.192078279283 0.837 1.60236195279e-38
0.0263962355707 -0.192537247692 0.839 1.64838732059e-38
0.0279489553102 -0.192537247692 0.839 1.62998602968e-38
0.0295016750496 -0.192537247692 0.839 1.65760716384e-38
0.0311284219519 -0.192996216102 0.841 1.72214564617e-38
0.0327625715704 -0.193455184511 0.843 1.69441282852e-38
0.0344041239052 -0.19391415292 0.845 1.80494038503e-38
0.0359679477191 -0.19391415292 0.845 1.9246132357e-38
0.0376206041283 -0.194373121329 0.847 1.98911360271e-38
0.0392806632538 -0.194832089739 0.849 1.97060413156e-38
0.0408518897839 -0.194832089739 0.849 1.92454134909e-38
0.0425230529838 -0.195291058148 0.851 1.73979219773e-38
0.0440979808721 -0.195291058148 0.851 1.43521913573e-38
0.0458339178395 -0.195979510762 0.854 1.426975437e-38
0.047414397765 -0.195979510762 0.854 1.39034941877e-38
-0.025287678808 -0.194399030836 0.854 8.92962032108e-39
-0.0236239183244 -0.19371613026 0.851 1.12287251063e-38
-0.0220489904361 -0.19371613026 0.851 1.17851162668e-38
-0.0204740625478 -0.19371613026 0.851 5.88357020503e-39
-0.0188991346595 -0.19371613026 0.851 5.32645877716e-39
-0.0172834918317 -0.193260863209 0.849 1.25058320929e-38
-0.0157122653015 -0.193260863209 0.849 1.30744537864e-38
-0.0140744143248 -0.192350329106 0.845 1.27056754708e-38
-0.012510590511 -0.192350329106 0.845 1.31673514668e-38
-0.0109208571901 -0.191895062055 0.843 1.37201581058e-38
-0.0093607347344 -0.191895062055 0.843 1.34442970888e-38
-0.00780061227866 -0.191895062055 0.843 1.36272534189e-38
-0.00622568439037 -0.191439795004 0.841 1.34432405097e-38
-0.00465815921836 -0.190984527953 0.839 1.39960611617e-38
-0.00310543947891 -0.190984527953 0.839 1.39031438631e-38
-0.00155271973945 -0.190984527953 0.839 1.49176447149e-38
0.0 -0.190984527953 0.839 1.45474174568e-38
0.00155271973945 -0.190984527953 0.839 1.4640708902e-38
0.00309803676263 -0.190529260902 0.837 1.51016674332e-38
0.00464705514394 -0.190529260902 0.837 1.47328849137e-38
0.00619607352526 -0.190529260902 0.837 1.54700828124e-38
0.00774509190657 -0.190529260902 0.837 1.53807710548e-38
0.00929411028789 -0.190529260902 0.837 1.56570090211e-38
0.0108431286692 -0.190529260902 0.837 1.51949546745e-38
0.0123921470505 -0.190529260902 0.837 1.57456047152e-38
0.0139411654318 -0.190529260902 0.837 1.56548412123e-38
0.0154901838131 -0.190529260902 0.837 1.57470368422e-38
0.0170392021945 -0.190529260902 0.837 1.60214685348e-38
0.0185882205758 -0.190529260902 0.837 1.57463333904e-38
0.0201372389571 -0.190529260902 0.837 1.58410247328e-38
0.0216862573384 -0.190529260902 0.837 1.61179829665e-38
0.0232352757197 -0.190529260902 0.837 1.63023784301e-38
0.024784294101 -0.190529260902 0.837 1.6855564821e-38
0.0263962355707 -0.190984527953 0.839 1.73172534286e-38
0.0279489553102 -0.190984527953 0.839 1.63967418687e-38
0.0295720008543 -0.191439795004 0.841 1.4831214027e-38
0.0312024491147 -0.191895062055 0.843 1.54776358111e-38
0.0327625715704 -0.191895062055 0.843 1.86076181e-38
0.0344041239052 -0.192350329106 0.845 1.84181695541e-38
0.0360530789563 -0.192805596157 0.847 1.93401608852e-38
0.0377094367236 -0.193260863209 0.849 1.86022146931e-38
0.0392806632538 -0.193260863209 0.849 1.76654228477e-38
0.0409481250955 -0.19371613026 0.851 1.59123438182e-38
0.0425230529838 -0.19371613026 0.851 1.97020686344e-38
0.044253437914 -0.194399030836 0.854 1.40828449769e-38
0.0458339178395 -0.194399030836 0.854 1.58370450452e-38
0.047414397765 -0.194399030836 0.854 1.4180764911e-38
-0.0269940049102 -0.193721682297 0.858 0.0
-0.025287678808 -0.192818550911 0.854 9.85265281693e-39
-0.0236239183244 -0.192141202371 0.851 1.18730379363e-38
-0.0220489904361 -0.192141202371 0.851 1.12338048132e-38
-0.0205462390315 -0.192818550911 0.854 7.63526335036e-39
-0.0188991346595 -0.192141202371 0.851 1.02027364097e-38
-0.0173242067712 -0.192141202371 0.851 4.31626831943e-39
-0.0157122653015 -0.191689636678 0.849 1.38130964238e-38
-0.0141077265481 -0.191238070985 0.847 1.25226813057e-38
-0.012510590511 -0.190786505292 0.845 1.27045768528e-38
-0.0109467666971 -0.190786505292 0.845 1.39946122191e-38
-0.0093607347344 -0.190334939599 0.843 1.28900387046e-38
-0.00780061227866 -0.190334939599 0.843 1.30751782577e-38
-0.00624048982293 -0.190334939599 0.843 1.38120006084e-38
-0.00466926329278 -0.189883373906 0.841 1.42726284331e-38
-0.00310543947891 -0.189431808213 0.839 1.43648184578e-38
-0.00155271973945 -0.189431808213 0.839 1.41811530707e-38
0.0 -0.189431808213 0.839 1.4549216724e-38
0.00155271973945 -0.189431808213 0.839 1.46417682837e-38
0.00310543947891 -0.189431808213 0.839 1.49169230462e-38
0.00464705514394 -0.18898024252 0.837 1.56523258816e-38
0.00619607352526 -0.18898024252 0.837 1.5745960645e-38
0.00774509190657 -0.18898024252 0.837 1.55651637158e-38
0.00929411028789 -0.18898024252 0.837 1.54722632328e-38
0.0108431286692 -0.18898024252 0.837 1.52860811137e-38
0.0123921470505 -0.18898024252 0.837 1.51942358084e-38
0.0139411654318 -0.18898024252 0.837 1.52849852983e-38
0.0154901838131 -0.18898024252 0.837 1.58370870841e-38
0.0170392021945 -0.18898024252 0.837 1.57452361737e-38
0.0185882205758 -0.18898024252 0.837 1.59310679682e-38
0.0201372389571 -0.18898024252 0.837 1.37216196601e-38
0.0216862573384 -0.18898024252 0.837 1.3080203314e-38
0.0232907960918 -0.189431808213 0.839 9.39202078834e-39
0.0248435158313 -0.189431808213 0.839 6.71374005295e-39
0.0264591586591 -0.189883373906 0.841 4.5917748079e-39
0.0280155797567 -0.189883373906 0.841 5.14278778485e-39
0.0296423266589 -0.190334939599 0.843 9.1835496158e-40
0.0312764762774 -0.190786505292 0.845 3.22469184818e-39
0.0328403000913 -0.190786505292 0.845 1.95320953346e-38
0.0344855537843 -0.191238070985 0.847 1.32515989317e-38
0.0361382101935 -0.191689636678 0.849 1.67446982904e-38
0.0377094367236 -0.191689636678 0.849 1.4255378449e-38
0.0392806632538 -0.191689636678 0.849 1.71004193068e-38
0.0409481250955 -0.192141202371 0.851 1.91352854445e-38
0.0425230529838 -0.192141202371 0.851 2.00733762937e-38
0.044253437914 -0.192818550911 0.854 1.38069629404e-38
0.0458339178395 -0.192818550911 0.854 1.50076739374e-38
0.047414397765 -0.192818550911 0.854 1.49147552375e-38
-0.0269940049102 -0.192133799655 0.858 0.0
-0.0253469005382 -0.19168593532 0.856 1.1513613288e-38
-0.0237071988825 -0.191238070985 0.854 1.05873059576e-38
-0.022126718957 -0.191238070985 0.854 1.15082042759e-38
-0.0205462390315 -0.191238070985 0.854 9.38662999314e-39
-0.0188991346595 -0.190566274483 0.851 7.16316870032e-39
-0.0173242067712 -0.190566274483 0.851 6.98022358061e-39
-0.0157492788829 -0.190566274483 0.851 1.30780509195e-38
-0.0141410387714 -0.190118410148 0.849 1.24301227395e-38
-0.0125402013761 -0.189670545813 0.847 1.27985717499e-38
-0.0109467666971 -0.189222681479 0.845 1.27063761201e-38
-0.00938294288323 -0.189222681479 0.845 1.31684304666e-38
-0.00780061227866 -0.188774817144 0.843 1.35368556549e-38
-0.00624048982293 -0.188774817144 0.843 1.38120006084e-38
-0.0046803673672 -0.188774817144 0.843 1.3996396072e-38
-0.00311284219519 -0.188326952809 0.841 1.3996396072e-38
-0.00155642109759 -0.188326952809 0.841 1.43648184578e-38
0.0 -0.188326952809 0.841 1.40889574408e-38
0.00155642109759 -0.188326952809 0.841 1.464213122e-38
0.00310543947891 -0.187879088474 0.839 1.5563361646e-38
0.00464705514394 -0.187431224139 0.837 1.57459550398e-38
0.00619607352526 -0.187431224139 0.837 1.5194586133e-38
0.00774509190657 -0.187431224139 0.837 1.53814983287e-38
0.00929411028789 -0.187431224139 0.837 1.51953021966e-38
0.0108431286692 -0.187431224139 0.837 1.64838788111e-38
0.0123921470505 -0.187431224139 0.837 1.55622896527e-38
0.0139411654318 -0.187431224139 0.837 1.57466865176e-38
0.0154901838131 -0.187431224139 0.837 1.57459830658e-38
0.0170392021945 -0.187431224139 0.837 1.67611831655e-38
0.0186326368734 -0.187879088474 0.839 1.23390383393e-38
0.0201853566129 -0.187879088474 0.839 1.92854541932e-39
0.0217380763524 -0.187879088474 0.839 3.58158435016e-39
0.0232907960918 -0.187879088474 0.839 1.07685288815e-38
0.0248435158313 -0.187879088474 0.839 1.32602505485e-38
0.0265220817475 -0.188774817144 0.843 1.53811213794e-38
0.0280822042032 -0.188774817144 0.843 1.89749376639e-38
0.0297126524636 -0.189222681479 0.845 2.02038091548e-39
0.0313505034402 -0.189670545813 0.847 7.92378650027e-39
0.0329180286122 -0.189670545813 0.847 2.08199474778e-38
0.0345669836633 -0.190118410148 0.849 1.09395587604e-38
0.0361382101935 -0.190118410148 0.849 1.77468607092e-38
0.037798269319 -0.190566274483 0.851 1.50840334933e-38
0.0393731972073 -0.190566274483 0.851 2.16360510918e-38
0.0409481250955 -0.190566274483 0.851 1.79514306668e-38
0.0425230529838 -0.190566274483 0.851 1.81365379901e-38
0.044253437914 -0.191238070985 0.854 1.5736584557e-38
0.0458339178395 -0.191238070985 0.854 1.49183425616e-38
-0.0286485119985 -0.19099007999 0.86 2.57139389242e-39
-0.0269940049102 -0.190545917013 0.858 3.76525534248e-39
-0.0253469005382 -0.190101754037 0.856 1.12327033926e-38
-0.0237627192546 -0.190101754037 0.856 1.03106994499e-38
-0.0221785379709 -0.190101754037 0.856 1.30755019576e-38
-0.0205462390315 -0.18965759106 0.854 4.13367352433e-39
-0.018965759106 -0.18965759106 0.854 4.77544580022e-39
-0.0173242067712 -0.188991346595 0.851 1.03028633888e-38
-0.0157492788829 -0.188991346595 0.851 1.32602939887e-38
-0.0141410387714 -0.188547183618 0.849 1.21542743342e-38
-0.0125402013761 -0.188103020641 0.847 1.27989220745e-38
-0.0109467666971 -0.187658857665 0.845 1.33520986563e-38
-0.00938294288323 -0.187658857665 0.845 1.3167704594e-38
-0.00781911906936 -0.187658857665 0.845 1.3351763746e-38
-0.00624048982293 -0.187214694688 0.843 1.41811558733e-38
-0.0046803673672 -0.187214694688 0.843 1.38116502838e-38
-0.00311284219519 -0.186770531711 0.841 1.4179023097e-38
-0.00155642109759 -0.186770531711 0.841 1.43644709358e-38
0.0 -0.186770531711 0.841 1.47346771744e-38
0.00155642109759 -0.186770531711 0.841 1.53807710548e-38
0.00310543947891 -0.186326368734 0.839 1.50123402613e-38
0.00465815921836 -0.186326368734 0.839 1.5194586133e-38
0.00621087895782 -0.186326368734 0.839 1.5194586133e-38
0.00776359869727 -0.186326368734 0.839 1.52882068834e-38
0.00931631843672 -0.186326368734 0.839 1.59328700381e-38
0.0108690381762 -0.186326368734 0.839 1.56548440149e-38
0.0124217579156 -0.186326368734 0.839 1.61154634319e-38
0.0139744776551 -0.186326368734 0.839 1.56548412123e-38
0.0155271973945 -0.186326368734 0.839 1.6391330054e-38
0.017079917134 -0.186326368734 0.839 1.64838732059e-38
0.0186326368734 -0.186326368734 0.839 1.23390355367e-38
0.0201853566129 -0.186326368734 0.839 1.46936793853e-39
0.0217380763524 -0.186326368734 0.839 1.50070083206e-38
0.0233463164639 -0.186770531711 0.841 1.69495583168e-38
0.0249619592917 -0.187214694688 0.843 1.51974559923e-38
0.0265850048358 -0.187658857665 0.845 1.21500003739e-38
0.0281488286497 -0.187658857665 0.845 1.8051557646e-38
0.0298533040729 -0.188547183618 0.849 2.8469003809e-39
0.031424530603 -0.188547183618 0.849 1.23488264091e-38
0.0329957571332 -0.188547183618 0.849 1.72257598493e-38
0.0346484135424 -0.188991346595 0.851 1.76704422988e-38
0.0362233414307 -0.188991346595 0.851 2.03521267881e-38
0.037798269319 -0.188991346595 0.851 1.97989502063e-38
0.0393731972073 -0.188991346595 0.851 1.50930354346e-38
0.0409481250955 -0.188991346595 0.851 1.72963348451e-38
0.0425230529838 -0.188991346595 0.851 1.87819130043e-38
0.044253437914 -0.18965759106 0.854 1.55547548708e-38
0.0458339178395 -0.18965759106 0.854 1.42729787577e-38
-0.0286485119985 -0.18939849599 0.86 6.81094812742e-39
-0.0270569279986 -0.18939849599 0.86 1.39124554914e-38
-0.0254061222684 -0.188958034372 0.858 7.26540743628e-39
-0.0237627192546 -0.188517572753 0.856 1.15964342311e-38
-0.0221785379709 -0.188517572753 0.856 1.34436090512e-38
-0.0205943566873 -0.188517572753 0.856 1.19386145005e-39
-0.018965759106 -0.188077111134 0.854 0.0
-0.0173852791805 -0.188077111134 0.854 1.02178578214e-38
-0.0157492788829 -0.187416418707 0.851 1.2151108801e-38
-0.0141410387714 -0.186975957088 0.849 1.23375739824e-38
-0.0125698122412 -0.186975957088 0.849 1.34432405097e-38
-0.0109726762041 -0.186535495469 0.847 1.28886219918e-38
-0.00940515103207 -0.186535495469 0.847 1.35354137188e-38
-0.00781911906936 -0.186095033851 0.845 1.36269030943e-38
-0.00624048982293 -0.185654572232 0.843 1.39964086837e-38
-0.0046803673672 -0.185654572232 0.843 1.3813449551e-38
-0.00312024491147 -0.185654572232 0.843 1.4271909567e-38
-0.00156012245573 -0.185654572232 0.843 1.55615469645e-38
0.0 -0.185654572232 0.843 1.45509921691e-38
0.00155642109759 -0.185214110614 0.841 1.48257966071e-38
0.00311284219519 -0.185214110614 0.841 1.48254462825e-38
0.00465815921836 -0.184773648995 0.839 1.54708156915e-38
0.00621087895782 -0.184773648995 0.839 1.54693751567e-38
0.00776359869727 -0.184773648995 0.839 1.52875034316e-38
0.00931631843672 -0.184773648995 0.839 1.5564446251e-38
0.0108690381762 -0.184773648995 0.839 1.53797144758e-38
0.0124217579156 -0.184773648995 0.839 1.53796962589e-38
0.0139744776551 -0.184773648995 0.839 1.5472245016e-38
0.0155271973945 -0.184773648995 0.839 1.56526930218e-38
0.017079917134 -0.184773648995 0.839 1.68505103374e-38
0.0186770531711 -0.185214110614 0.841 1.16007474278e-38
0.0202334742687 -0.185214110614 0.841 9.1835496158e-40
0.0217898953663 -0.185214110614 0.841 1.51949925096e-38
0.023401836836 -0.185654572232 0.843 1.69524295773e-38
0.0249619592917 -0.185654572232 0.843 1.53861856721e-38
0.0265850048358 -0.186095033851 0.845 1.6307044754e-38
0.0282154530962 -0.186535495469 0.847 1.70414078259e-38
0.0298533040729 -0.186975957088 0.849 5.23462328101e-39
0.031424530603 -0.186975957088 0.849 1.70273808283e-38
0.0329957571332 -0.186975957088 0.849 1.93448174e-38
0.0346484135424 -0.187416418707 0.851 1.93401454709e-38
0.0362233414307 -0.187416418707 0.851 1.657713102e-38
0.037931518212 -0.188077111134 0.854 1.33326486336e-38
0.0395119981375 -0.188077111134 0.854 1.74688501004e-38
0.041092478063 -0.188077111134 0.854 1.83022429348e-38
0.0426729579885 -0.188077111134 0.854 1.85989678846e-38
0.044253437914 -0.188077111134 0.854 1.54661311508e-38
0.0459412572255 -0.188517572753 0.856 1.33492400074e-38
-0.0286485119985 -0.18780691199 0.86 1.14123778817e-38
-0.0270569279986 -0.18780691199 0.86 1.31713003258e-38
-0.0254061222684 -0.18737015173 0.858 1.05848074425e-38
-0.0238182396267 -0.18737015173 0.858 7.35437307318e-39
-0.0222303569849 -0.18737015173 0.858 1.33413352828e-38
-0.0206424743431 -0.18737015173 0.858 1.37753244237e-39
-0.018965759106 -0.186496631209 0.854 7.00649232162e-45
-0.0173852791805 -0.186496631209 0.854 6.99031993605e-39
-0.0157492788829 -0.185841490818 0.851 1.2799290616e-38
-0.0141743509946 -0.185841490818 0.851 1.38112537163e-38
-0.0125698122412 -0.185404730558 0.849 1.30729880282e-38
-0.0109985857111 -0.185404730558 0.849 1.32570317659e-38
-0.00940515103207 -0.184967970297 0.847 1.38116502838e-38
-0.00783762586006 -0.184967970297 0.847 1.31662808747e-38
-0.00625529525549 -0.184531210037 0.845 1.39031410605e-38
-0.00469147144162 -0.184531210037 0.845 1.39967618109e-38
-0.00312024491147 -0.184094449776 0.843 1.47325289839e-38
-0.00156012245573 -0.184094449776 0.843 1.42722753059e-38
0.0 -0.184094449776 0.843 1.47343268498e-38
0.00156012245573 -0.184094449776 0.843 1.46424815446e-38
0.00311284219519 -0.183657689516 0.841 1.46417682837e-38
0.00466926329278 -0.183657689516 0.841 1.57474053837e-38
0.00622568439037 -0.183657689516 0.841 1.51956581264e-38
0.00778210548797 -0.183657689516 0.841 1.5194586133e-38
0.00933852658556 -0.183657689516 0.841 1.52874880173e-38
0.0108949476832 -0.183657689516 0.841 1.67615362927e-38
0.0124513687807 -0.183657689516 0.841 1.51031093693e-38
0.0140077898783 -0.183657689516 0.841 1.58381534723e-38
0.0155642109759 -0.183657689516 0.841 1.58381562749e-38
0.0171206320735 -0.183657689516 0.841 1.73143555434e-38
0.0186770531711 -0.183657689516 0.841 1.03078604192e-38
0.0202334742687 -0.183657689516 0.841 5.6938007618e-39
0.0217898953663 -0.183657689516 0.841 1.48085774516e-38
0.023401836836 -0.184094449776 0.843 1.07656408054e-38
0.025021181022 -0.184531210037 0.845 6.97949770801e-39
0.0265850048358 -0.184531210037 0.845 6.97949770801e-39
0.0282154530962 -0.184967970297 0.847 6.61215572338e-39
0.0298533040729 -0.185404730558 0.849 7.4386751888e-39
0.031424530603 -0.185404730558 0.849 2.21773684846e-38
0.0330734856541 -0.185841490818 0.851 1.86065278898e-38
0.0346484135424 -0.185841490818 0.851 1.82337754918e-38
0.0362233414307 -0.185841490818 0.851 1.83277858032e-38
0.037931518212 -0.186496631209 0.854 1.22281115529e-38
0.0395119981375 -0.186496631209 0.854 1.95010761918e-38
0.041092478063 -0.186496631209 0.854 2.00712267019e-38
0.0426729579885 -0.186496631209 0.854 1.80486583595e-38
0.0443570759419 -0.186933391469 0.856 1.53739187053e-38
0.0459412572255 -0.186933391469 0.856 1.55622896527e-38
-0.0286485119985 -0.18621532799 0.86 1.63023756275e-38
-0.0270569279986 -0.18621532799 0.86 1.22457286772e-38
-0.0254653439987 -0.18621532799 0.86 1.04940565513e-38
-0.0238182396267 -0.185782269088 0.858 1.13237779837e-38
-0.0222303569849 -0.185782269088 0.858 1.15996375994e-38
-0.0206424743431 -0.185782269088 0.858 3.67628970557e-39
-0.0190101754037 -0.185349210186 0.856 8.83206472459e-39
-0.0173852791805 -0.184916151283 0.854 3.58158435016e-39
-0.015804799255 -0.184916151283 0.854 1.43626548529e-38
-0.0141743509946 -0.18426656293 0.851 1.27063789227e-38
