# .PCD v0.7 - Point Cloud Data file format
VERSION 0.7
FIELDS x y z rgb
SIZE 4 4 4 4
TYPE F F F F
COUNT 1 1 1 1
WIDTH 840
HEIGHT 1
VIEWPOINT 0 0 0 1 0 0 0
POINTS 840
DATA ascii
-0.0243031175429 -0.0624937308247 0.938 1.2139145916e-38
-0.0224950040919 -0.0622938574851 0.935 1.20491040819e-38
-0.0207646191617 -0.0622938574851 0.935 1.1491992654e-38
-0.018993519292 -0.0621606085921 0.933 1.23256867675e-38
-0.01726683572 -0.0621606085921 0.933 1.25097164923e-38
-0.0154901838131 -0.0619607352526 0.93 1.22266766233e-38
-0.0137690522784 -0.0619607352526 0.93 1.15866980094e-38
-0.0120220112366 -0.0618274863596 0.928 1.15884916714e-38
-0.0103045810599 -0.0618274863596 0.928 1.34313000455e-38
-0.00858715088327 -0.0618274863596 0.928 1.29692527055e-38
-0.00684751255778 -0.06162761302 0.925 1.10346088352e-38
-0.00513563441834 -0.06162761302 0.925 1.7298122902e-38
-0.00342375627889 -0.06162761302 0.925 1.49960936069e-38
-0.00171187813945 -0.06162761302 0.925 1.74749317357e-38
0.0 -0.06162761302 0.925 1.72008601769e-38
0.00171187813945 -0.06162761302 0.925 1.72008601769e-38
0.00342375627889 -0.06162761302 0.925 1.71097421455e-38
0.00513563441834 -0.06162761302 0.925 1.75685608939e-38
0.00683270712523 -0.061494364127 0.923 1.69253536884e-38
0.00854088390653 -0.061494364127 0.923 1.73874010284e-38
0.0102712688367 -0.06162761302 0.925 1.83089845817e-38
0.0119831469761 -0.06162761302 0.925 1.72008601769e-38
0.0136950251156 -0.06162761302 0.925 1.75689196263e-38
0.015406903255 -0.06162761302 0.925 1.77533080834e-38
0.0171187813945 -0.06162761302 0.925 1.78465785092e-38
0.0188306595339 -0.06162761302 0.925 1.75717894856e-38
0.0205425376733 -0.06162761302 0.925 1.81242373921e-38
0.0223265922965 -0.0618274863596 0.928 1.81245961246e-38
0.0240440224732 -0.0618274863596 0.928 1.87670858653e-38
0.0258169730219 -0.0619607352526 0.93 1.89500393928e-38
0.027626937152 -0.0621606085921 0.933 1.93177401098e-38
0.0293536207241 -0.0621606085921 0.933 1.92259046136e-38
0.0311469287426 -0.0622938574851 0.935 2.04240708526e-38
0.0328773136727 -0.0622938574851 0.935 1.822219376e-38
0.034718739347 -0.0624937308247 0.938 1.32243114468e-38
0.0364546763144 -0.0624937308247 0.938 2.11656576181e-38
0.0382720431608 -0.0626269797177 0.94 2.01626600254e-38
0.0400116814863 -0.0626269797177 0.94 2.34878221708e-38
-0.0316799243146 -0.061599852834 0.951 2.34903893496e-38
-0.0296682361659 -0.0610816626945 0.943 8.4574752243e-39
-0.0279230458032 -0.0610816626945 0.943 1.32426067995e-38
-0.0260945748824 -0.0608873413922 0.94 1.28756235473e-38
-0.0243549365569 -0.0608873413922 0.94 1.24168047989e-38
-0.0225671805756 -0.0607577938573 0.938 1.12211496868e-38
-0.0207646191617 -0.060563472555 0.935 1.19547574588e-38
-0.0190342342316 -0.060563472555 0.935 1.21423745076e-38
-0.0173038493014 -0.060563472555 0.935 1.26029869181e-38
-0.015540152148 -0.0604339250201 0.933 1.33391058169e-38
-0.0137690522784 -0.0602396037178 0.93 1.23260455e-38
-0.0120479207436 -0.0602396037178 0.93 1.2599399594e-38
-0.0103267892088 -0.0602396037178 0.93 1.27859404456e-38
-0.00858715088327 -0.0601100561829 0.928 1.28784934065e-38
-0.00686972070662 -0.0601100561829 0.928 1.18665092868e-38
-0.00513563441834 -0.0599157348806 0.925 1.64705118251e-38
-0.00342375627889 -0.0599157348806 0.925 1.6102421547e-38
-0.00171187813945 -0.0599157348806 0.925 1.73856073664e-38
0.0 -0.0599157348806 0.925 1.69253536884e-38
0.00171187813945 -0.0599157348806 0.925 1.68349531219e-38
0.00342375627889 -0.0599157348806 0.925 1.66494884675e-38
0.00513563441834 -0.0599157348806 0.925 1.72952067999e-38
0.00684751255778 -0.0599157348806 0.925 1.71097421455e-38
0.00855939069723 -0.0599157348806 0.925 1.73874010284e-38
0.0102712688367 -0.0599157348806 0.925 1.72952067999e-38
0.0119831469761 -0.0599157348806 0.925 1.76639837141e-38
0.0136950251156 -0.0599157348806 0.925 1.74785190598e-38
0.015406903255 -0.0599157348806 0.925 1.7845502312e-38
0.0171187813945 -0.0599157348806 0.925 1.78458610444e-38
0.0188917319432 -0.0601100561829 0.928 1.77543842807e-38
0.0206091621199 -0.0601100561829 0.928 1.82142792263e-38
0.0223265922965 -0.0601100561829 0.928 1.77547430131e-38
0.0240958414871 -0.0602396037178 0.93 1.85837736053e-38
0.0258169730219 -0.0602396037178 0.93 1.84922968416e-38
0.0276861588823 -0.060563472555 0.935 1.93198925042e-38
0.0294165438124 -0.060563472555 0.935 1.94102930708e-38
0.0312468654123 -0.0607577938573 0.938 2.26371148926e-38
0.0329828023797 -0.0607577938573 0.938 8.4524529706e-39
0.034718739347 -0.0607577938573 0.938 2.09665779478e-38
0.0365324048353 -0.0608873413922 0.94 1.9332211319e-38
0.0383941879794 -0.0610816626945 0.943 2.0159752331e-38
0.0401393783421 -0.0610816626945 0.943 2.34871075086e-38
-0.0334399201099 -0.0598398570387 0.951 2.28392381831e-38
-0.0315799876449 -0.0596510877736 0.948 2.34928906674e-38
-0.0297626207984 -0.0595252415969 0.946 1.03921275023e-38
-0.0280118783985 -0.0595252415969 0.946 1.26930287522e-38
-0.0261778554405 -0.0593364723318 0.943 1.27827118539e-38
-0.0244326650778 -0.0593364723318 0.943 1.27834293187e-38
-0.0226152982314 -0.0591477030667 0.94 1.14984498373e-38
-0.0208312436082 -0.0590218568899 0.938 1.25097164923e-38
-0.0190953066409 -0.0590218568899 0.938 1.19576273181e-38
-0.0173038493014 -0.0588330876248 0.935 1.19561923885e-38
-0.0155734643713 -0.0588330876248 0.935 1.34280714539e-38
-0.0138430794411 -0.0588330876248 0.935 1.43510899367e-38
-0.012086785004 -0.0587072414481 0.933 1.26004757912e-38
-0.010360101432 -0.0587072414481 0.933 1.34295063835e-38
-0.00860565767397 -0.058518472183 0.93 1.28784934065e-38
-0.00686972070662 -0.0583926260063 0.928 1.2054485068e-38
-0.00515229052996 -0.0583926260063 0.928 1.62872023677e-38
-0.00343486035331 -0.0583926260063 0.928 1.56425266014e-38
-0.00171743017665 -0.0583926260063 0.928 1.71090246807e-38
0.0 -0.0582038567412 0.925 1.7017547917e-38
0.00171187813945 -0.0582038567412 0.925 1.71111770752e-38
0.00342375627889 -0.0582038567412 0.925 1.69278648152e-38
0.00513563441834 -0.0582038567412 0.925 1.72026538389e-38
0.00684751255778 -0.0582038567412 0.925 1.73863248312e-38
0.00855939069723 -0.0582038567412 0.925 1.75707132884e-38
0.0102712688367 -0.0582038567412 0.925 1.73877597609e-38
0.0119831469761 -0.0582038567412 0.925 1.72937718703e-38
0.0136950251156 -0.0582038567412 0.925 1.7477801595e-38
0.015406903255 -0.0582038567412 0.925 1.82142792263e-38
0.0171187813945 -0.0582038567412 0.925 1.78458610444e-38
0.0188917319432 -0.0583926260063 0.928 1.7938055273e-38
0.0206091621199 -0.0583926260063 0.928 1.7938055273e-38
0.0223265922965 -0.0583926260063 0.928 1.85844910702e-38
0.0240958414871 -0.058518472183 0.93 1.89518330548e-38
0.0259557739521 -0.0588330876248 0.935 1.90451034806e-38
0.0276861588823 -0.0588330876248 0.935 1.91369389767e-38
0.0294165438124 -0.0588330876248 0.935 1.95035634966e-38
0.0312468654123 -0.0590218568899 0.938 2.15318435315e-38
0.0329828023797 -0.0590218568899 0.938 9.73456259275e-39
0.034718739347 -0.0590218568899 0.938 2.24671962434e-38
0.0364546763144 -0.0590218568899 0.938 1.81328679894e-38
0.0383941879794 -0.0593364723318 0.943 2.08936992173e-38
0.0401393783421 -0.0593364723318 0.943 2.34885340304e-38
-0.0334399201099 -0.0580798612435 0.951 2.25637274907e-38
-0.0315799876449 -0.0578966440156 0.948 2.3489635451e-38
-0.0297626207984 -0.057774499197 0.946 1.02992074012e-38
-0.0280118783985 -0.057774499197 0.946 1.26944636818e-38
-0.0261778554405 -0.0575912819691 0.943 1.33344422957e-38
-0.0244326650778 -0.0575912819691 0.943 1.27798419946e-38
-0.0226874747151 -0.0575912819691 0.943 1.12197147572e-38
-0.0208756599059 -0.0574080647412 0.94 1.26022694532e-38
-0.0190953066409 -0.0572859199226 0.938 1.30635993285e-38
-0.0173593696735 -0.0572859199226 0.938 1.23220994435e-38
-0.0155734643713 -0.0571027026947 0.935 1.34266365242e-38
-0.0138430794411 -0.0571027026947 0.935 1.24121412776e-38
-0.012086785004 -0.0569805578761 0.933 1.32458353912e-38
-0.010360101432 -0.0569805578761 0.933 1.47173557241e-38
-0.00863341786002 -0.0569805578761 0.933 1.33394645494e-38
-0.00688452613918 -0.0567973406482 0.93 1.06715716395e-38
-0.00516339460438 -0.0567973406482 0.93 1.67496098415e-38
-0.00343486035331 -0.0566751958296 0.928 1.60102273185e-38
-0.00171743017665 -0.0566751958296 0.928 1.70171891846e-38
0.0 -0.0566751958296 0.928 1.66494884675e-38
0.00171743017665 -0.0566751958296 0.928 1.69257124208e-38
0.00343486035331 -0.0566751958296 0.928 1.72952067999e-38
0.00515229052996 -0.0566751958296 0.928 1.72952067999e-38
0.00684751255778 -0.0564919786017 0.925 1.75707132884e-38
0.00855939069723 -0.0564919786017 0.925 1.7477801595e-38
0.0102712688367 -0.0564919786017 0.925 1.72941306027e-38
0.0119831469761 -0.0564919786017 0.925 1.74785190598e-38
0.0137394414132 -0.0566751958296 0.928 1.78465785092e-38
0.0154568715899 -0.0566751958296 0.928 1.82139204939e-38
0.0171743017665 -0.0566751958296 0.928 1.84894269823e-38
0.0188917319432 -0.0566751958296 0.928 1.7938055273e-38
0.0206535784175 -0.0567973406482 0.93 1.96918980102e-38
0.0223747099523 -0.0567973406482 0.93 1.84958841657e-38
0.024173570008 -0.0569805578761 0.933 1.85826974081e-38
0.0259557739521 -0.0571027026947 0.935 1.88596388262e-38
0.0276861588823 -0.0571027026947 0.935 1.90429510861e-38
0.029510928445 -0.0572859199226 0.938 2.0886476925e-38
0.0312468654123 -0.0572859199226 0.938 2.02432697195e-38
0.0329828023797 -0.0572859199226 0.938 1.52558130668e-38
0.034718739347 -0.0572859199226 0.938 2.23764481549e-38
0.0364546763144 -0.0572859199226 0.938 1.98802465367e-38
0.0381906132817 -0.0572859199226 0.938 2.13532130097e-38
0.0399265502491 -0.0572859199226 0.938 2.34899983873e-38
-0.0315799876449 -0.0561422002575 0.948 2.34892977381e-38
-0.0297626207984 -0.0560237567971 0.946 1.07591023468e-38
-0.0280118783985 -0.0560237567971 0.946 1.29699701703e-38
-0.0261778554405 -0.0558460916064 0.943 1.27827118539e-38
-0.0244326650778 -0.0558460916064 0.943 1.40705625958e-38
-0.0226874747151 -0.0558460916064 0.943 1.11289554582e-38
-0.0208756599059 -0.0556684264157 0.94 1.31525649654e-38
-0.0190953066409 -0.0555499829552 0.938 1.18618457655e-38
-0.0173593696735 -0.0555499829552 0.938 1.22291877501e-38
-0.0156234327062 -0.0555499829552 0.938 1.44422079681e-38
-0.0138430794411 -0.0553723177646 0.935 1.1033532638e-38
-0.012112694511 -0.0553723177646 0.935 1.23249693027e-38
-0.010360101432 -0.0552538743041 0.933 1.28738298852e-38
-0.00863341786002 -0.0552538743041 0.933 1.39830304873e-38
-0.00690673428801 -0.0552538743041 0.933 1.0488618112e-38
-0.00516339460438 -0.0550762091134 0.93 1.66581330777e-38
-0.00344226306959 -0.0550762091134 0.93 1.5181205134e-38
-0.00171743017665 -0.054957765653 0.928 1.6832441995e-38
0.0 -0.054957765653 0.928 1.67402477665e-38
0.00171743017665 -0.054957765653 0.928 1.69257124208e-38
0.00343486035331 -0.054957765653 0.928 1.74781603274e-38
0.00515229052996 -0.054957765653 0.928 1.72941306027e-38
0.00686972070662 -0.054957765653 0.928 1.74785190598e-38
0.00858715088327 -0.054957765653 0.928 1.7385248634e-38
0.0103045810599 -0.054957765653 0.928 1.74785190598e-38
0.0120220112366 -0.054957765653 0.928 1.77543842807e-38
0.0137394414132 -0.054957765653 0.928 1.75703545559e-38
0.0154568715899 -0.054957765653 0.928 1.83061147224e-38
0.0171743017665 -0.054957765653 0.928 1.80284558395e-38
0.0189324468827 -0.0550762091134 0.93 1.830575599e-38
0.0206535784175 -0.0550762091134 0.93 1.78469372416e-38
0.022446886436 -0.0552538743041 0.933 1.87649334708e-38
0.024225389022 -0.0553723177646 0.935 1.89507568576e-38
0.0259557739521 -0.0553723177646 0.935 1.91347865823e-38
0.0277749914776 -0.0555499829552 0.938 1.92259046136e-38
0.029510928445 -0.0555499829552 0.938 1.96850820944e-38
0.0312468654123 -0.0555499829552 0.938 2.02411173251e-38
0.0329828023797 -0.0555499829552 0.938 1.71979903176e-38
0.0347927665098 -0.0556684264157 0.94 2.05216460672e-38
0.0365324048353 -0.0556684264157 0.94 2.00570876003e-38
0.0382720431608 -0.0556684264157 0.94 2.20875158258e-38
-0.0315799876449 -0.0543877564995 0.948 2.34867613879e-38
-0.0297626207984 -0.0542730143972 0.946 1.13122733233e-38
-0.0280118783985 -0.0542730143972 0.946 1.17714451989e-38
-0.0262611359986 -0.0542730143972 0.946 1.27848642483e-38
-0.0245103935987 -0.0542730143972 0.946 1.29642304518e-38
-0.0227596511988 -0.0542730143972 0.946 1.14966561753e-38
-0.0209422843524 -0.0541009012437 0.943 1.30603707368e-38
-0.0191360215804 -0.0539287880902 0.94 1.15849043474e-38
-0.0173593696735 -0.0538140459879 0.938 1.24139349396e-38
-0.0156234327062 -0.0538140459879 0.938 1.46248027632e-38
-0.0138430794411 -0.0536419328344 0.935 1.30625231313e-38
-0.012112694511 -0.0536419328344 0.935 1.21402221132e-38
-0.010360101432 -0.0535271907321 0.933 1.37060890692e-38
-0.00863341786002 -0.0535271907321 0.933 1.35224180769e-38
-0.00690673428801 -0.0535271907321 0.933 1.06697779774e-38
-0.00518005071601 -0.0535271907321 0.933 1.6564139582e-38
-0.00344226306959 -0.0533550775786 0.93 1.63775693031e-38
-0.00172113153479 -0.0533550775786 0.93 1.70171891846e-38
0.0 -0.0533550775786 0.93 1.71104596103e-38
0.00171743017665 -0.0532403354763 0.928 1.70182653818e-38
0.00343486035331 -0.0532403354763 0.928 1.72026538389e-38
0.00515229052996 -0.0532403354763 0.928 1.70182653818e-38
0.00686972070662 -0.0532403354763 0.928 1.72941306027e-38
0.00858715088327 -0.0532403354763 0.928 1.75699958235e-38
0.0103045810599 -0.0532403354763 0.928 1.73863248312e-38
0.0120220112366 -0.0532403354763 0.928 1.77533080834e-38
0.0137394414132 -0.0532403354763 0.928 1.7938055273e-38
0.0154568715899 -0.0532403354763 0.928 1.80291733043e-38
0.0172113153479 -0.0533550775786 0.93 1.83972327538e-38
0.0189324468827 -0.0533550775786 0.93 1.79384140054e-38
0.020720202864 -0.0535271907321 0.933 1.85819799433e-38
0.0224950040919 -0.0536419328344 0.935 1.88574864318e-38
0.024225389022 -0.0536419328344 0.935 1.88574864318e-38
0.0260390545103 -0.0538140459879 0.938 1.86741741719e-38
0.0277749914776 -0.0538140459879 0.938 1.97787112526e-38
0.0295738515333 -0.0539287880902 0.94 1.95957577251e-38
0.0313134898588 -0.0539287880902 0.94 1.98726991432e-38
0.0330531281843 -0.0539287880902 0.94 1.91337103851e-38
0.034903807254 -0.0541009012437 0.943 2.18084192107e-38
0.0366489976167 -0.0541009012437 0.943 2.11623421459e-38
0.0383941879794 -0.0541009012437 0.943 2.21775604625e-38
-0.0315799876449 -0.0526333127414 0.948 2.34882075279e-38
-0.0297626207984 -0.0525222719973 0.946 1.11296743244e-38
-0.0280118783985 -0.0525222719973 0.946 1.2139145916e-38
-0.0262611359986 -0.0525222719973 0.946 1.23253280351e-38
-0.0245103935987 -0.0525222719973 0.946 1.26894414281e-38
-0.0227596511988 -0.0525222719973 0.946 1.20480278846e-38
-0.0210089087989 -0.0525222719973 0.946 1.25972471995e-38
-0.0191970939897 -0.052355710881 0.943 1.49010309203e-38
-0.0173963832549 -0.0521891497647 0.94 1.26912350901e-38
-0.0156234327062 -0.0520781090205 0.938 1.35191894852e-38
-0.0138874957388 -0.0520781090205 0.938 1.12139750387e-38
-0.012112694511 -0.0519115479043 0.935 1.25972471995e-38
-0.0103823095809 -0.0519115479043 0.935 1.31536411626e-38
-0.00865192465071 -0.0519115479043 0.935 1.41659840148e-38
-0.00692153972057 -0.0519115479043 0.935 1.14962974429e-38
-0.00518005071601 -0.0518005071601 0.933 1.70236687887e-38
-0.00345336714401 -0.0518005071601 0.933 1.64672524048e-38
-0.001726683572 -0.0518005071601 0.933 1.6924994956e-38
0.0 -0.0516339460438 0.93 1.72026538389e-38
0.00172113153479 -0.0516339460438 0.93 1.70182653818e-38
0.00344226306959 -0.0516339460438 0.93 1.70182653818e-38
0.00516339460438 -0.0516339460438 0.93 1.69260711532e-38
0.00688452613918 -0.0516339460438 0.93 1.77540255483e-38
0.00860565767397 -0.0516339460438 0.93 1.73856073664e-38
0.0103267892088 -0.0516339460438 0.93 1.74767253978e-38
0.0120479207436 -0.0516339460438 0.93 1.7845502312e-38
0.0137690522784 -0.0516339460438 0.93 1.7938055273e-38
0.0154901838131 -0.0516339460438 0.93 1.82139204939e-38
0.0172113153479 -0.0516339460438 0.93 1.83961565566e-38
0.018993519292 -0.0518005071601 0.933 1.80284558395e-38
0.020720202864 -0.0518005071601 0.933 1.83972327538e-38
0.0224950040919 -0.0519115479043 0.935 1.88574864318e-38
0.024225389022 -0.0519115479043 0.935 1.90429510861e-38
0.0260390545103 -0.0520781090205 0.938 1.87674445977e-38
0.0277749914776 -0.0520781090205 0.938 1.97805049147e-38
0.0295738515333 -0.0521891497647 0.94 1.94124454652e-38
0.0314134265286 -0.052355710881 0.943 1.99630997098e-38
0.0331586168913 -0.052355710881 0.943 2.03297242296e-38
0.0350148479982 -0.0525222719973 0.946 2.17158662497e-38
0.0367655903981 -0.0525222719973 0.946 2.09754425619e-38
0.038516332798 -0.0525222719973 0.946 2.28229298716e-38
-0.0297626207984 -0.0507715295974 0.946 1.30657853541e-38
-0.0280118783985 -0.0507715295974 0.946 1.11271617962e-38
-0.0262611359986 -0.0507715295974 0.946 1.26941049494e-38
-0.0245103935987 -0.0507715295974 0.946 1.29674590434e-38
-0.0227596511988 -0.0507715295974 0.946 1.18647156247e-38
-0.0210089087989 -0.0507715295974 0.946 1.2599399594e-38
-0.0191970939897 -0.0506105205183 0.943 1.23220994435e-38
-0.0173963832549 -0.0504495114392 0.94 1.26876477661e-38
-0.0156234327062 -0.0503421720532 0.938 1.41645490851e-38
-0.0138874957388 -0.0503421720532 0.938 1.24200333906e-38
-0.012112694511 -0.0501811629741 0.935 1.28777759417e-38
-0.0103823095809 -0.0501811629741 0.935 1.41609617611e-38
-0.00865192465071 -0.0501811629741 0.935 1.25958122699e-38
-0.00692153972057 -0.0501811629741 0.935 1.14033857495e-38
-0.00518005071601 -0.0500738235881 0.933 1.76686878731e-38
-0.00345336714401 -0.0500738235881 0.933 1.63750581763e-38
-0.001726683572 -0.0500738235881 0.933 1.67402477665e-38
0.0 -0.0500738235881 0.933 1.67416826961e-38
0.001726683572 -0.0500738235881 0.933 1.72937718703e-38
0.00344226306959 -0.049912814509 0.93 1.72026538389e-38
0.00516339460438 -0.049912814509 0.93 1.71115358076e-38
0.00688452613918 -0.049912814509 0.93 1.75699958235e-38
0.00860565767397 -0.049912814509 0.93 1.78444261148e-38
0.0103267892088 -0.049912814509 0.93 1.79369790758e-38
0.0120479207436 -0.049912814509 0.93 1.94128041976e-38
0.0137690522784 -0.049912814509 0.93 1.77536668159e-38
0.015540152148 -0.0500738235881 0.933 1.83997438806e-38
0.01726683572 -0.0500738235881 0.933 1.84915793768e-38
0.018993519292 -0.0500738235881 0.933 1.81235199273e-38
0.0207646191617 -0.0501811629741 0.935 1.83993851482e-38
0.0224950040919 -0.0501811629741 0.935 1.83986676834e-38
0.024225389022 -0.0501811629741 0.935 1.97797874498e-38
0.0260390545103 -0.0503421720532 0.938 1.87667271328e-38
0.0278342132079 -0.0504495114392 0.94 1.95964751899e-38
0.0295738515333 -0.0504495114392 0.94 1.96883106861e-38
0.0314134265286 -0.0506105205183 0.943 2.05141126867e-38
0.0331586168913 -0.0506105205183 0.943 2.09754425619e-38
0.0350148479982 -0.0507715295974 0.946 2.10697891849e-38
0.0367655903981 -0.0507715295974 0.946 2.15321952574e-38
0.038516332798 -0.0507715295974 0.946 2.20875186284e-38
-0.0316799243146 -0.0492798822672 0.951 2.34874914644e-38
-0.0298255438868 -0.0491244252253 0.948 1.05747138896e-38
-0.0280118783985 -0.0490207871974 0.946 1.57386710904e-38
-0.0262611359986 -0.0490207871974 0.946 1.15910027983e-38
-0.0245103935987 -0.0490207871974 0.946 1.3333007366e-38
-0.0227596511988 -0.0490207871974 0.946 1.16814033648e-38
-0.0210089087989 -0.0490207871974 0.946 1.18647156247e-38
-0.0191970939897 -0.0488653301556 0.943 1.37982832977e-38
-0.017451903627 -0.0488653301556 0.943 1.28759822797e-38
-0.0156567449294 -0.0487098731137 0.94 1.32436829967e-38
-0.0138874957388 -0.0486062350858 0.938 1.20498215467e-38
-0.0121515587715 -0.0486062350858 0.938 1.30607294692e-38
-0.0103823095809 -0.048450778044 0.935 1.52687274335e-38
-0.00865192465071 -0.048450778044 0.935 1.40759421807e-38
-0.00692153972057 -0.048450778044 0.935 1.05783012137e-38
-0.00519115479043 -0.048450778044 0.935 1.76708374649e-38
-0.00345336714401 -0.0483471400161 0.933 1.62825052153e-38
-0.001726683572 -0.0483471400161 0.933 1.68328007274e-38
0.0 -0.0483471400161 0.933 1.69257124208e-38
0.001726683572 -0.0483471400161 0.933 1.67427588933e-38
0.00345336714401 -0.0483471400161 0.933 1.76625487845e-38
0.00518005071601 -0.0483471400161 0.933 1.71097421455e-38
0.00690673428801 -0.0483471400161 0.933 1.7845502312e-38
0.00863341786002 -0.0483471400161 0.933 1.7938055273e-38
0.010360101432 -0.0483471400161 0.933 1.81220849977e-38
0.012086785004 -0.0483471400161 0.933 1.79369790758e-38
0.013813468576 -0.0483471400161 0.933 1.77536668159e-38
0.0155734643713 -0.048450778044 0.935 1.82146379587e-38
0.0173038493014 -0.048450778044 0.935 1.83068321872e-38
0.0190342342316 -0.048450778044 0.935 1.84894269823e-38
0.0207646191617 -0.048450778044 0.935 1.86741741719e-38
0.0224950040919 -0.048450778044 0.935 1.87667271328e-38
0.024225389022 -0.048450778044 0.935 1.89503981252e-38
0.0260390545103 -0.0486062350858 0.938 1.91344278499e-38
0.0278342132079 -0.0487098731137 0.94 1.95032047641e-38
0.0295738515333 -0.0487098731137 0.94 2.02414760575e-38
0.0314134265286 -0.0488653301556 0.943 2.08843245306e-38
0.0332641055983 -0.0490207871974 0.946 2.0884683263e-38
0.0350148479982 -0.0490207871974 0.946 2.11619834135e-38
0.0367655903981 -0.0490207871974 0.946 2.005852253e-38
0.038516332798 -0.0490207871974 0.946 2.34704530764e-38
-0.0316799243146 -0.0475198864719 0.951 2.27502753488e-38
-0.0298255438868 -0.0473699814673 0.948 1.25104409636e-38
-0.0280118783985 -0.0472700447975 0.946 1.27834293187e-38
-0.0262611359986 -0.0472700447975 0.946 1.5276274827e-38
-0.0245103935987 -0.0472700447975 0.946 1.21377109864e-38
-0.0227596511988 -0.0472700447975 0.946 1.15856218122e-38
-0.0210089087989 -0.0472700447975 0.946 1.29699701703e-38
-0.0191970939897 -0.0471201397929 0.943 1.28713187584e-38
-0.017451903627 -0.0471201397929 0.943 1.29663828462e-38
-0.0156567449294 -0.0469702347883 0.94 1.35209831472e-38
-0.0138874957388 -0.0468702981185 0.938 1.32433242643e-38
-0.0121515587715 -0.0468702981185 0.938 1.3061446934e-38
-0.0103823095809 -0.0467203931138 0.935 1.37990007626e-38
-0.00865192465071 -0.0467203931138 0.935 1.17685753397e-38
-0.00694374786941 -0.0468702981185 0.938 9.65277160398e-39
-0.00519115479043 -0.0467203931138 0.935 1.82232685559e-38
-0.00346076986028 -0.0467203931138 0.935 1.69271473504e-38
-0.00173038493014 -0.0467203931138 0.935 1.7017547917e-38
0.0 -0.0467203931138 0.935 1.70182653818e-38
0.001726683572 -0.0466204564441 0.933 1.71115358076e-38
0.00345336714401 -0.0466204564441 0.933 1.77558192103e-38
0.00518005071601 -0.0466204564441 0.933 1.72030125713e-38
0.00690673428801 -0.0466204564441 0.933 1.78465785092e-38
0.00865192465071 -0.0467203931138 0.935 1.81220849977e-38
0.0103823095809 -0.0467203931138 0.935 1.78465785092e-38
0.012112694511 -0.0467203931138 0.935 1.7938055273e-38
0.0138430794411 -0.0467203931138 0.935 1.80291733043e-38
0.0155734643713 -0.0467203931138 0.935 1.83068321872e-38
0.0173038493014 -0.0467203931138 0.935 1.84894269823e-38
0.0190342342316 -0.0467203931138 0.935 1.86741741719e-38
0.0207646191617 -0.0467203931138 0.935 1.87667271328e-38
0.0224950040919 -0.0467203931138 0.935 1.87652922032e-38
0.0243031175429 -0.0468702981185 0.938 1.87667271328e-38
0.0260390545103 -0.0468702981185 0.938 1.93177401098e-38
0.0278342132079 -0.0469702347883 0.94 1.95014111021e-38
0.0296682361659 -0.0471201397929 0.943 2.08861181926e-38
0.0315133631984 -0.0472700447975 0.946 2.07932064992e-38
0.0333344314029 -0.0473699814673 0.948 2.0424429585e-38
0.035088875161 -0.0473699814673 0.948 2.0333670286e-38
0.036843318919 -0.0473699814673 0.948 2.08875531222e-38
0.0385977626771 -0.0473699814673 0.948 2.34712083762e-38
-0.0299199285194 -0.0457598906767 0.951 1.20538040369e-38
-0.0280711001288 -0.0456155377093 0.948 1.47223779778e-38
-0.0262611359986 -0.0455193023976 0.946 1.41699300713e-38
-0.0245103935987 -0.0455193023976 0.946 1.69343276038e-38
-0.0227596511988 -0.0455193023976 0.946 1.20487453494e-38
-0.0210089087989 -0.0455193023976 0.946 1.30600120044e-38
-0.019258166399 -0.0455193023976 0.946 1.23195883166e-38
-0.017451903627 -0.0453749494302 0.943 1.16774573083e-38
-0.0156567449294 -0.0452305964628 0.94 1.24153698693e-38
-0.0138874957388 -0.0451343611511 0.938 1.40709269334e-38
-0.0121515587715 -0.0451343611511 0.938 1.41641903527e-38
-0.0104156218041 -0.0451343611511 0.938 1.2235286201e-38
-0.00867968483676 -0.0451343611511 0.938 1.28827981954e-38
-0.00694374786941 -0.0451343611511 0.938 1.22331338066e-38
-0.00520781090205 -0.0451343611511 0.938 1.92366974144e-38
-0.00346076986028 -0.0449900081837 0.935 1.62799940884e-38
-0.00173038493014 -0.0449900081837 0.935 1.70153955225e-38
0.0 -0.0449900081837 0.935 1.7292695673e-38
0.00173038493014 -0.0449900081837 0.935 1.68328007274e-38
0.00346076986028 -0.0449900081837 0.935 1.75717894856e-38
0.00519115479043 -0.0449900081837 0.935 1.75710720208e-38
0.00692153972057 -0.0449900081837 0.935 1.75689196263e-38
0.00865192465071 -0.0449900081837 0.935 1.77533080834e-38
0.0103823095809 -0.0449900081837 0.935 1.7477801595e-38
0.012112694511 -0.0449900081837 0.935 1.75699958235e-38
0.0138430794411 -0.0449900081837 0.935 1.82135617615e-38
0.0156234327062 -0.0451343611511 0.938 1.86766852987e-38
0.0173593696735 -0.0451343611511 0.938 1.81224437301e-38
0.0190953066409 -0.0451343611511 0.938 1.83975914862e-38
0.0208312436082 -0.0451343611511 0.938 1.97805049147e-38
0.0225671805756 -0.0451343611511 0.938 1.87652922032e-38
0.0243031175429 -0.0451343611511 0.938 1.95032047641e-38
0.0260390545103 -0.0451343611511 0.938 1.92248284164e-38
0.0278342132079 -0.0452305964628 0.94 2.02382474658e-38
0.0296682361659 -0.0453749494302 0.943 2.04258645146e-38
0.0315133631984 -0.0455193023976 0.946 2.06077418449e-38
0.0333344314029 -0.0456155377093 0.948 2.02411173251e-38
0.035088875161 -0.0456155377093 0.948 2.02407585927e-38
0.036843318919 -0.0456155377093 0.948 2.08843245306e-38
-0.0356810924633 -0.0446013655791 0.964 2.19186915907e-38
-0.0338267120354 -0.0445088316256 0.962 2.27502725462e-38
-0.0319464221007 -0.0443700306954 0.959 2.26595538849e-38
-0.0300143131519 -0.0441386958117 0.954 1.27920907445e-38
-0.0282487653195 -0.0441386958117 0.954 1.23242518379e-38
-0.0263999369289 -0.0439998948814 0.951 1.43525248663e-38
-0.0245622126127 -0.0438610939512 0.948 1.6013460114e-38
-0.0228077688546 -0.0438610939512 0.948 1.39876940086e-38
-0.0210533250966 -0.0438610939512 0.948 1.76722471712e-38
-0.019258166399 -0.0437685599977 0.946 1.40795295047e-38
-0.0175074239991 -0.0437685599977 0.946 1.08498616457e-38
-0.0157067132643 -0.0436297590675 0.943 1.28752648149e-38
-0.0139171066039 -0.0434909581373 0.94 1.35209831472e-38
-0.0121515587715 -0.0433984241838 0.938 1.45326085346e-38
-0.0104156218041 -0.0433984241838 0.938 1.29706876351e-38
-0.00867968483676 -0.0433984241838 0.938 1.14991673021e-38
-0.00694374786941 -0.0433984241838 0.938 1.17721626638e-38
-0.00520781090205 -0.0433984241838 0.938 1.88672002327e-38
-0.0034718739347 -0.0433984241838 0.938 1.62799940884e-38
-0.00173593696735 -0.0433984241838 0.938 1.81213675329e-38
0.0 -0.0433984241838 0.938 1.72952067999e-38
0.00173593696735 -0.0433984241838 0.938 1.77561779427e-38
0.00346076986028 -0.0432596232536 0.935 1.75717894856e-38
0.00519115479043 -0.0432596232536 0.935 1.75699958235e-38
0.00692153972057 -0.0432596232536 0.935 1.78458610444e-38
0.00865192465071 -0.0432596232536 0.935 1.78458610444e-38
0.0104156218041 -0.0433984241838 0.938 1.85844910702e-38
0.0121515587715 -0.0433984241838 0.938 1.74781603274e-38
0.0138874957388 -0.0433984241838 0.938 1.90443860158e-38
0.0156234327062 -0.0433984241838 0.938 1.78458610444e-38
0.0173593696735 -0.0433984241838 0.938 1.91340691175e-38
0.0190953066409 -0.0433984241838 0.938 1.83986676834e-38
0.0208312436082 -0.0433984241838 0.938 1.87663684004e-38
0.0225671805756 -0.0433984241838 0.938 1.94106518032e-38
0.0243031175429 -0.0433984241838 0.938 1.9318816307e-38
0.0260945748824 -0.0434909581373 0.94 1.91326341879e-38
0.0278342132079 -0.0434909581373 0.94 2.07906953724e-38
0.0297626207984 -0.0437685599977 0.946 2.03340290185e-38
0.0315799876449 -0.0438610939512 0.948 1.98709054812e-38
0.0333344314029 -0.0438610939512 0.948 2.03340290185e-38
0.0351999159051 -0.0439998948814 0.951 2.1346730603e-38
0.0369599117004 -0.0439998948814 0.951 2.03311591592e-38
-0.0374651470864 -0.0428173109559 0.964 2.13662815192e-38
-0.0356810924633 -0.0428173109559 0.964 2.16410509247e-38
-0.0338267120354 -0.0427284783606 0.962 2.154958397e-38
-0.0319464221007 -0.0425952294675 0.959 2.26569979165e-38
-0.0300772362403 -0.0424619805745 0.956 1.3530020121e-38
-0.0282487653195 -0.0423731479792 0.954 1.2884233125e-38
-0.026483217487 -0.0423731479792 0.954 1.38033111566e-38
-0.0246399411336 -0.0422398990862 0.951 1.58276465364e-38
-0.0228077688546 -0.0421066501932 0.948 1.43565620072e-38
-0.0210533250966 -0.0421066501932 0.948 1.3614253573e-38
-0.019258166399 -0.0420178175978 0.946 1.38922711883e-38
-0.0175074239991 -0.0420178175978 0.946 1.62907560607e-38
-0.0157566815992 -0.0420178175978 0.946 1.54595730739e-38
-0.0139615229016 -0.0418845687048 0.943 1.22309814121e-38
-0.0121774682784 -0.0417513198118 0.94 1.29610018601e-38
-0.0104378299529 -0.0417513198118 0.94 1.64647566923e-38
-0.00869819162745 -0.0417513198118 0.94 1.40759421807e-38
-0.00694374786941 -0.0416624872164 0.938 1.35166783583e-38
-0.00520781090205 -0.0416624872164 0.938 1.91401927918e-38
-0.0034718739347 -0.0416624872164 0.938 1.65587291686e-38
-0.00173593696735 -0.0416624872164 0.938 1.7752949351e-38
0.0 -0.0416624872164 0.938 1.72941306027e-38
0.00173593696735 -0.0416624872164 0.938 1.71097421455e-38
0.0034718739347 -0.0416624872164 0.938 1.73856073664e-38
0.00520781090205 -0.0416624872164 0.938 1.77533080834e-38
0.00694374786941 -0.0416624872164 0.938 1.76611138549e-38
0.00867968483676 -0.0416624872164 0.938 1.7938055273e-38
0.0104156218041 -0.0416624872164 0.938 1.7938055273e-38
0.0121515587715 -0.0416624872164 0.938 1.79391314702e-38
0.0138874957388 -0.0416624872164 0.938 1.7938055273e-38
0.0156234327062 -0.0416624872164 0.938 1.83068321872e-38
0.0173593696735 -0.0416624872164 0.938 1.87652922032e-38
0.0190953066409 -0.0416624872164 0.938 1.87652922032e-38
0.0208312436082 -0.0416624872164 0.938 1.86741741719e-38
0.0225671805756 -0.0416624872164 0.938 1.92255458812e-38
0.0243549365569 -0.0417513198118 0.94 1.9131916723e-38
0.0260945748824 -0.0417513198118 0.94 2.03290067648e-38
0.0279230458032 -0.0418845687048 0.943 2.08825308686e-38
0.0297626207984 -0.0420178175978 0.946 2.06059481829e-38
0.0315799876449 -0.0421066501932 0.948 2.04219184581e-38
0.0333344314029 -0.0421066501932 0.948 2.07013710031e-38
0.0351999159051 -0.0422398990862 0.951 2.052056987e-38
-0.0374651470864 -0.0410332563327 0.964 2.17325431027e-38
-0.0356810924633 -0.0410332563327 0.964 2.1548499365e-38
-0.0338267120354 -0.0409481250955 0.962 2.16410733455e-38
-0.0319464221007 -0.0408204282397 0.959 2.22878622699e-38
-0.0300772362403 -0.0406927313839 0.956 1.21467157303e-38
-0.0283079870497 -0.0406927313839 0.956 1.33466686248e-38
-0.0265387378591 -0.0406927313839 0.956 1.37132637173e-38
-0.0247176696545 -0.0406076001467 0.954 1.39851828817e-38
-0.0229521218221 -0.0406076001467 0.954 1.73967897282e-38
-0.0211199495431 -0.0404799032909 0.951 1.42621551284e-38
-0.0192988813385 -0.0403522064351 0.948 1.11285967258e-38
-0.0175444375805 -0.0403522064351 0.948 1.16760223787e-38
-0.0157566815992 -0.0402670751979 0.946 1.3885814005e-38
-0.0140059391993 -0.0402670751979 0.946 1.72127067541e-38
-0.0122163325389 -0.0401393783421 0.943 1.58276325234e-38
-0.0104378299529 -0.0400116814863 0.94 1.66545107212e-38
-0.00869819162745 -0.0400116814863 0.94 1.60091511213e-38
-0.00694374786941 -0.0399265502491 0.938 1.73888359581e-38
-0.00520781090205 -0.0399265502491 0.938 1.78519594953e-38
-0.0034718739347 -0.0399265502491 0.938 1.64658174752e-38
-0.00173593696735 -0.0399265502491 0.938 1.7292695673e-38
0.0 -0.0399265502491 0.938 1.72937718703e-38
0.00173593696735 -0.0399265502491 0.938 1.75707132884e-38
0.0034718739347 -0.0399265502491 0.938 1.73874010284e-38
0.00520781090205 -0.0399265502491 0.938 1.75707132884e-38
0.00694374786941 -0.0399265502491 0.938 1.75699958235e-38
0.00867968483676 -0.0399265502491 0.938 1.7477801595e-38
0.0104156218041 -0.0399265502491 0.938 1.78462197768e-38
0.0121515587715 -0.0399265502491 0.938 1.82146379587e-38
0.0138874957388 -0.0399265502491 0.938 1.83990264158e-38
0.0156234327062 -0.0399265502491 0.938 1.80313256988e-38
0.0173593696735 -0.0399265502491 0.938 1.86741741719e-38
0.0190953066409 -0.0399265502491 0.938 1.88574864318e-38
0.0208312436082 -0.0399265502491 0.938 1.87652922032e-38
0.0225671805756 -0.0399265502491 0.938 1.95010523697e-38
0.0243549365569 -0.0400116814863 0.94 1.99638171746e-38
0.0261778554405 -0.0401393783421 0.943 2.05144714191e-38
0.0279230458032 -0.0401393783421 0.943 2.08825308686e-38
0.0297626207984 -0.0402670751979 0.946 2.05144714191e-38
0.0315799876449 -0.0403522064351 0.948 2.04247883174e-38
0.0333344314029 -0.0403522064351 0.948 2.11644945403e-38
0.0353109566493 -0.0406076001467 0.954 2.052056987e-38
-0.0374651470864 -0.0392492017096 0.964 2.2378613161e-38
-0.0356810924633 -0.0392492017096 0.964 2.18265141777e-38
-0.0338267120354 -0.0391677718305 0.962 2.16407006001e-38
-0.0320463587704 -0.0391677718305 0.962 2.24722577335e-38
-0.0301716208728 -0.0390456270119 0.959 1.40831924989e-38
-0.0283079870497 -0.0389234821933 0.956 1.25169275742e-38
-0.0265387378591 -0.0389234821933 0.956 1.32508982825e-38
-0.0247694886685 -0.0389234821933 0.956 1.43521661339e-38
-0.0229521218221 -0.0388420523143 0.954 1.42553083841e-38
-0.0211865739896 -0.0388420523143 0.954 1.58229690021e-38
-0.0193599537478 -0.0387199074957 0.951 1.11282379934e-38
-0.0175444375805 -0.0385977626771 0.948 1.13093978589e-38
-0.0157899938224 -0.0385977626771 0.948 1.2046592955e-38
-0.0140059391993 -0.038516332798 0.946 1.59198575805e-38
-0.0122163325389 -0.0383941879794 0.943 1.60091511213e-38
-0.0104711421762 -0.0383941879794 0.943 1.60091511213e-38
-0.0087259518135 -0.0383941879794 0.943 1.63750581763e-38
-0.00695855330196 -0.0382720431608 0.94 1.64654587428e-38
-0.00521891497647 -0.0382720431608 0.94 1.66494884675e-38
-0.00347927665098 -0.0382720431608 0.94 1.70179066494e-38
-0.00173963832549 -0.0382720431608 0.94 1.73863248312e-38
0.0 -0.0381906132817 0.938 1.7017547917e-38
0.00173593696735 -0.0381906132817 0.938 1.7385248634e-38
0.0034718739347 -0.0381906132817 0.938 1.75699958235e-38
0.00520781090205 -0.0381906132817 0.938 1.75707132884e-38
0.00694374786941 -0.0381906132817 0.938 1.76629075169e-38
0.00867968483676 -0.0381906132817 0.938 1.77554604779e-38
0.0104156218041 -0.0381906132817 0.938 1.81220849977e-38
0.0121515587715 -0.0381906132817 0.938 1.81224437301e-38
0.0138874957388 -0.0381906132817 0.938 1.83972327538e-38
0.0156234327062 -0.0381906132817 0.938 1.83064734548e-38
0.0173593696735 -0.0381906132817 0.938 1.91351453147e-38
0.0190953066409 -0.0381906132817 0.938 1.86730979747e-38
0.0208756599059 -0.0382720431608 0.94 1.91333516527e-38
0.0226152982314 -0.0382720431608 0.94 1.9684723362e-38
0.0243549365569 -0.0382720431608 0.94 2.00560114031e-38
0.0261778554405 -0.0383941879794 0.943 1.99630997098e-38
0.0280118783985 -0.038516332798 0.946 2.03297242296e-38
0.0298255438868 -0.0385977626771 0.948 2.07910541048e-38
0.0315799876449 -0.0385977626771 0.948 2.08843245306e-38
0.0333344314029 -0.0385977626771 0.948 2.02396823954e-38
0.0353109566493 -0.0388420523143 0.954 2.09765187591e-38
0.0370765044818 -0.0388420523143 0.954 2.04272994442e-38
-0.0375817398678 -0.0375817398678 0.967 2.15488552948e-38
-0.0356810924633 -0.0374651470864 0.964 2.11811685908e-38
-0.0338267120354 -0.0373874185655 0.962 2.21942443221e-38
-0.0320463587704 -0.0373874185655 0.962 2.14599162826e-38
-0.0301716208728 -0.0372708257841 0.959 1.38051650745e-38
-0.0283079870497 -0.0371542330027 0.956 1.31640850401e-38
-0.0265387378591 -0.0371542330027 0.956 1.21449178644e-38
-0.0247694886685 -0.0371542330027 0.956 1.66588323257e-38
-0.0230002394779 -0.0371542330027 0.956 1.38926299207e-38
-0.0211865739896 -0.0370765044818 0.954 1.52687274335e-38
-0.0193599537478 -0.0369599117004 0.951 1.43475026127e-38
-0.0175444375805 -0.036843318919 0.948 1.17685753397e-38
-0.0157899938224 -0.036843318919 0.948 1.25029005765e-38
-0.0140059391993 -0.0367655903981 0.946 1.54574374951e-38
-0.0122551967994 -0.0367655903981 0.946 1.6102421547e-38
-0.0104711421762 -0.0366489976167 0.943 1.60077217968e-38
-0.0087259518135 -0.0366489976167 0.943 1.6098834223e-38
-0.0069807614508 -0.0366489976167 0.943 1.66491297351e-38
-0.0052355710881 -0.0366489976167 0.943 1.66480535379e-38
-0.00347927665098 -0.0365324048353 0.94 1.6924994956e-38
-0.00173963832549 -0.0365324048353 0.94 1.69260711532e-38
0.0 -0.0365324048353 0.94 1.72937718703e-38
0.00173963832549 -0.0365324048353 0.94 1.74785190598e-38
0.0034718739347 -0.0364546763144 0.938 1.77554604779e-38
0.00520781090205 -0.0364546763144 0.938 1.74788777922e-38
0.00694374786941 -0.0364546763144 0.938 1.78465785092e-38
0.00867968483676 -0.0364546763144 0.938 1.81220849977e-38
0.0104156218041 -0.0364546763144 0.938 1.79391314702e-38
0.0121515587715 -0.0364546763144 0.938 1.80313256988e-38
0.0139171066039 -0.0365324048353 0.94 1.86741741719e-38
0.0156567449294 -0.0365324048353 0.94 1.83050385252e-38
0.0173963832549 -0.0365324048353 0.94 1.86730979747e-38
0.0191360215804 -0.0365324048353 0.94 1.89478869983e-38
0.0208756599059 -0.0365324048353 0.94 1.97787112526e-38
0.0226152982314 -0.0365324048353 0.94 2.01489230965e-38
0.0244326650778 -0.0366489976167 0.943 2.01485643641e-38
0.0262611359986 -0.0367655903981 0.946 1.96836471648e-38
0.0280118783985 -0.0367655903981 0.946 1.99605885829e-38
0.0298255438868 -0.036843318919 0.948 2.01456945048e-38
0.0315799876449 -0.036843318919 0.948 2.11594722867e-38
0.0334399201099 -0.0369599117004 0.951 2.03322353564e-38
0.0353109566493 -0.0370765044818 0.954 2.06066656477e-38
0.0370765044818 -0.0370765044818 0.954 2.06066656477e-38
-0.0375817398678 -0.0357921332074 0.967 2.10896736101e-38
-0.0356810924633 -0.0356810924633 0.964 2.14598868553e-38
-0.0338970378401 -0.0356810924633 0.964 2.21963700918e-38
-0.0320463587704 -0.0356070653005 0.962 2.10918456228e-38
-0.0301716208728 -0.0354960245563 0.959 1.26055414852e-38
-0.028396819645 -0.0354960245563 0.959 1.37161896285e-38
-0.0265387378591 -0.0353849838121 0.956 1.33441603005e-38
-0.0247694886685 -0.0353849838121 0.956 1.6290072227e-38
-0.0230002394779 -0.0353849838121 0.956 1.50955339498e-38
-0.0212309902873 -0.0353849838121 0.956 1.49053315053e-38
-0.0194210261571 -0.0353109566493 0.954 1.31496951061e-38
-0.0175999579526 -0.0351999159051 0.951 1.4167060212e-38
-0.0157899938224 -0.035088875161 0.948 1.43543185284e-38
-0.0140059391993 -0.0350148479982 0.946 1.42549496517e-38
-0.0122551967994 -0.0350148479982 0.946 1.63761343735e-38
-0.0105044543995 -0.0350148479982 0.946 1.62832226801e-38
-0.00875371199954 -0.0350148479982 0.946 1.6098834223e-38
-0.0069807614508 -0.034903807254 0.943 1.67424001609e-38
-0.0052355710881 -0.034903807254 0.943 1.70171891846e-38
-0.0034903807254 -0.034903807254 0.943 1.70171891846e-38
-0.0017451903627 -0.034903807254 0.943 1.66484122703e-38
0.0 -0.0347927665098 0.94 1.77543842807e-38
0.00173963832549 -0.0347927665098 0.94 1.73863248312e-38
0.00347927665098 -0.0347927665098 0.94 1.80309669664e-38
0.00521891497647 -0.0347927665098 0.94 1.73863248312e-38
0.00694374786941 -0.034718739347 0.938 1.75699958235e-38
0.00867968483676 -0.034718739347 0.938 1.80291733043e-38
0.0104156218041 -0.034718739347 0.938 1.78458610444e-38
0.0121515587715 -0.034718739347 0.938 1.7938055273e-38
0.0139171066039 -0.0347927665098 0.94 1.88592800938e-38
0.0156567449294 -0.0347927665098 0.94 1.89496806604e-38
0.0173963832549 -0.0347927665098 0.94 1.87645747384e-38
0.0191360215804 -0.0347927665098 0.94 2.00552939383e-38
0.0209422843524 -0.034903807254 0.943 1.96883106861e-38
0.0226874747151 -0.034903807254 0.943 1.98705467488e-38
0.0245103935987 -0.0350148479982 0.946 1.96861582916e-38
0.0262611359986 -0.0350148479982 0.946 2.03286480323e-38
0.0280118783985 -0.0350148479982 0.946 2.0239323663e-38
0.0298255438868 -0.035088875161 0.948 1.99630997098e-38
0.0316799243146 -0.0351999159051 0.951 2.01456945048e-38
0.0335454088169 -0.0353109566493 0.954 2.04212009933e-38
0.0353109566493 -0.0353109566493 0.954 2.09765187591e-38
0.0370765044818 -0.0353109566493 0.954 2.07917715696e-38
-0.0375817398678 -0.0340025265471 0.967 2.2010536896e-38
-0.0356810924633 -0.0338970378401 0.964 2.07201708233e-38
-0.0338970378401 -0.0338970378401 0.964 2.09978297062e-38
-0.0320463587704 -0.0338267120354 0.962 2.14602722124e-38
-0.0301716208728 -0.0337212233285 0.959 1.29750344629e-38
-0.028396819645 -0.0337212233285 0.959 1.47306988881e-38
-0.0266220184172 -0.0337212233285 0.959 1.11346951767e-38
-0.0247694886685 -0.0336157346215 0.956 1.41684951416e-38
-0.0230002394779 -0.0336157346215 0.956 1.76747611006e-38
-0.0212309902873 -0.0336157346215 0.956 1.5276260814e-38
-0.0194210261571 -0.0335454088169 0.954 1.12175623627e-38
-0.0176554783247 -0.0335454088169 0.954 1.12164861655e-38
-0.0158399621573 -0.0334399201099 0.951 1.46298250169e-38
-0.0140355500644 -0.0333344314029 0.948 1.56364281505e-38
-0.0122811063063 -0.0333344314029 0.948 1.70200590438e-38
-0.0105044543995 -0.0332641055983 0.946 1.59169568927e-38
-0.00875371199954 -0.0332641055983 0.946 1.58208166077e-38
-0.00700296959964 -0.0332641055983 0.946 1.66491297351e-38
-0.00525222719973 -0.0332641055983 0.946 1.72934131378e-38
-0.0034903807254 -0.0331586168913 0.943 1.67416826961e-38
-0.0017451903627 -0.0331586168913 0.943 1.71104596103e-38
0.0 -0.0330531281843 0.94 1.72923369406e-38
0.00173963832549 -0.0330531281843 0.94 1.76611138549e-38
0.00347927665098 -0.0330531281843 0.94 1.76611138549e-38
0.00521891497647 -0.0330531281843 0.94 1.77543842807e-38
0.00695855330196 -0.0330531281843 0.94 1.77543842807e-38
0.00869819162745 -0.0330531281843 0.94 1.7938055273e-38
0.0104378299529 -0.0330531281843 0.94 1.82135617615e-38
0.0121774682784 -0.0330531281843 0.94 1.83972327538e-38
0.0139171066039 -0.0330531281843 0.94 1.8396515289e-38
0.0157067132643 -0.0331586168913 0.943 1.8856768967e-38
0.017451903627 -0.0331586168913 0.943 2.08861364095e-38
0.0191970939897 -0.0331586168913 0.943 1.97812223795e-38
0.0209422843524 -0.0331586168913 0.943 1.9965969569e-38
0.0227596511988 -0.0332641055983 0.946 1.93184575746e-38
0.0245103935987 -0.0332641055983 0.946 1.93180988422e-38
0.0262611359986 -0.0332641055983 0.946 1.99627409773e-38
0.0280711001288 -0.0333344314029 0.948 1.95939640631e-38
0.0298255438868 -0.0333344314029 0.948 1.98683943543e-38
0.0317798609844 -0.0335454088169 0.954 2.05133952219e-38
0.0335454088169 -0.0335454088169 0.954 2.07899779076e-38
0.0353849838121 -0.0336157346215 0.956 2.07910541048e-38
0.0371542330027 -0.0336157346215 0.956 2.11598310191e-38
-0.0375817398678 -0.0322129198867 0.967 2.04439538765e-38
-0.0357921332074 -0.0322129198867 0.967 2.08130825167e-38
-0.0338970378401 -0.0321129832169 0.964 2.05372060854e-38
-0.0320463587704 -0.0320463587704 0.962 2.08159818032e-38
-0.0302660055054 -0.0320463587704 0.962 1.31601670095e-38
-0.028396819645 -0.0319464221007 0.959 1.46359823223e-38
-0.0266220184172 -0.0319464221007 0.959 1.06715716395e-38
-0.0248472171894 -0.0319464221007 0.959 1.31536411626e-38
-0.0230724159616 -0.0319464221007 0.959 1.58233277345e-38
-0.0212309902873 -0.0318464854309 0.956 1.51808379938e-38
-0.0194617410967 -0.0318464854309 0.956 1.14952212457e-38
-0.0176554783247 -0.0317798609844 0.954 1.06626033293e-38
-0.0158399621573 -0.0316799243146 0.951 1.31457490496e-38
-0.0140355500644 -0.0315799876449 0.948 1.6279635356e-38
-0.0122811063063 -0.0315799876449 0.948 1.74803127218e-38
-0.0105266625483 -0.0315799876449 0.948 1.58244249512e-38
-0.00875371199954 -0.0315133631984 0.946 1.62825052153e-38
-0.00700296959964 -0.0315133631984 0.946 1.66502059323e-38
-0.00525222719973 -0.0315133631984 0.946 1.70171891846e-38
-0.0034903807254 -0.0314134265286 0.943 1.72937718703e-38
-0.0017451903627 -0.0314134265286 0.943 1.75714307532e-38
0.0 -0.0314134265286 0.943 1.75710720208e-38
0.0017451903627 -0.0314134265286 0.943 1.79366203434e-38
0.0034903807254 -0.0314134265286 0.943 1.78458610444e-38
0.00521891497647 -0.0313134898588 0.94 1.77543842807e-38
0.00695855330196 -0.0313134898588 0.94 1.81220849977e-38
0.00869819162745 -0.0313134898588 0.94 1.7938055273e-38
0.0104378299529 -0.0313134898588 0.94 1.83961565566e-38
0.0121774682784 -0.0313134898588 0.94 1.86720217774e-38
0.0139615229016 -0.0314134265286 0.943 1.90400812269e-38
0.0157067132643 -0.0314134265286 0.943 2.01467707021e-38
0.017451903627 -0.0314134265286 0.943 1.99638171746e-38
0.0191970939897 -0.0314134265286 0.943 2.02389649306e-38
0.0210089087989 -0.0315133631984 0.946 1.85834148729e-38
0.0227596511988 -0.0315133631984 0.946 1.91333516527e-38
0.0245622126127 -0.0315799876449 0.948 1.92259046136e-38
0.0263166563707 -0.0315799876449 0.948 1.95006936373e-38
0.0280711001288 -0.0315799876449 0.948 1.9777276323e-38
0.0299199285194 -0.0316799243146 0.951 1.98705467488e-38
0.0317798609844 -0.0317798609844 0.954 2.01456945048e-38
0.0336157346215 -0.0318464854309 0.956 2.06070243801e-38
0.0353849838121 -0.0318464854309 0.956 2.10683542553e-38
0.0374651470864 -0.0321129832169 0.964 2.07910541048e-38
0.0392492017096 -0.0321129832169 0.964 2.34867445723e-38
-0.0357921332074 -0.0304233132263 0.967 2.00769496048e-38
-0.0338970378401 -0.0303289285938 0.964 2.06297674542e-38
-0.0320463587704 -0.0302660055054 0.962 2.04461230865e-38
-0.0302660055054 -0.0302660055054 0.962 1.30675986343e-38
-0.0284856522404 -0.0302660055054 0.962 1.49136468104e-38
-0.0266220184172 -0.0301716208728 0.959 1.03031562602e-38
-0.0248472171894 -0.0301716208728 0.959 1.20473104198e-38
-0.0230724159616 -0.0301716208728 0.959 1.38894013291e-38
-0.0212976147338 -0.0301716208728 0.959 1.37990007626e-38
-0.0194617410967 -0.0300772362403 0.956 1.59231240072e-38
-0.0176554783247 -0.0300143131519 0.954 1.23281978944e-38
-0.0158899304922 -0.0300143131519 0.954 1.5732927168e-38
-0.0140799663621 -0.0299199285194 0.951 1.59140870334e-38
-0.0122811063063 -0.0298255438868 0.948 1.72040887685e-38
-0.0105266625483 -0.0298255438868 0.948 1.59155219631e-38
-0.00877221879024 -0.0298255438868 0.948 1.67427588933e-38
-0.00701777503219 -0.0298255438868 0.948 1.67424001609e-38
-0.00526333127414 -0.0298255438868 0.948 1.71097421455e-38
-0.00350148479982 -0.0297626207984 0.946 1.71097421455e-38
-0.00175074239991 -0.0297626207984 0.946 1.73856073664e-38
0.0 -0.0297626207984 0.946 1.7477801595e-38
0.00175074239991 -0.0297626207984 0.946 1.7938055273e-38
0.00350148479982 -0.0297626207984 0.946 1.7661832721e-38
0.00525222719973 -0.0297626207984 0.946 1.82146379587e-38
0.0069807614508 -0.0296682361659 0.943 1.80313256988e-38
0.0087259518135 -0.0296682361659 0.943 1.86748916367e-38
0.0104711421762 -0.0296682361659 0.943 1.88574864318e-38
0.0122551967994 -0.0297626207984 0.946 1.90400812269e-38
0.0140059391993 -0.0297626207984 0.946 2.01467707021e-38
0.0157566815992 -0.0297626207984 0.946 1.9779069985e-38
0.0175074239991 -0.0297626207984 0.946 1.99616647801e-38
0.019258166399 -0.0297626207984 0.946 1.8577316422e-38
0.0210089087989 -0.0297626207984 0.946 1.92251871488e-38
0.0228077688546 -0.0298255438868 0.948 1.89489631955e-38
0.0245622126127 -0.0298255438868 0.948 1.9317022645e-38
0.0263166563707 -0.0298255438868 0.948 1.95014111021e-38
0.0281599327241 -0.0299199285194 0.951 1.96850820944e-38
0.0300143131519 -0.0300143131519 0.954 1.99602298505e-38
0.0318464854309 -0.0300772362403 0.956 2.06041545208e-38
0.0336157346215 -0.0300772362403 0.956 2.07914128372e-38
0.0353849838121 -0.0300772362403 0.956 2.07917715696e-38
0.0374651470864 -0.0303289285938 0.964 2.12548951069e-38
0.0392492017096 -0.0303289285938 0.964 2.34903459094e-38
-0.0357921332074 -0.028633706566 0.967 1.91535709882e-38
-0.0338970378401 -0.0285448739706 0.964 1.93358084522e-38
-0.0320463587704 -0.0284856522404 0.962 2.0168808923e-38
-0.0302660055054 -0.0284856522404 0.962 1.37151330495e-38
-0.0284856522404 -0.0284856522404 0.962 1.42704396049e-38
