# .PCD v0.7 - Point Cloud Data file format
VERSION 0.7
FIELDS x y z rgb
SIZE 4 4 4 4
TYPE F F F F
COUNT 1 1 1 1
WIDTH 853
HEIGHT 1
VIEWPOINT 0 0 0 1 0 0 0
POINTS 853
DATA ascii
0.00146943918132 -0.208660363747 0.794 9.21017008273e-39
0.00293887836264 -0.208660363747 0.794 9.02686763191e-39
0.00440831754396 -0.208660363747 0.794 9.3038118526e-39
0.00586295129272 -0.208134770891 0.792 9.48712411251e-39
0.0073286891159 -0.208134770891 0.792 9.39492708135e-39
0.00877221879024 -0.207609178036 0.79 9.57932534757e-39
0.0102342552553 -0.207609178036 0.79 9.2109253826e-39
0.0116962917203 -0.207609178036 0.79 8.84247637218e-39
0.0131583281854 -0.207609178036 0.79 9.39456134245e-39
0.0146018578597 -0.207346381608 0.789 8.56624961629e-39
0.0160620436457 -0.207346381608 0.789 8.84247637218e-39
0.0175222294316 -0.207346381608 0.789 8.84247637218e-39
0.0189342975618 -0.206820788752 0.787 8.93395593853e-39
0.0203907819896 -0.206820788752 0.787 9.02542009059e-39
0.0217917460454 -0.206295195896 0.785 8.28965852281e-39
0.0232445291151 -0.206295195896 0.785 8.19640070871e-39
0.0246973121848 -0.206295195896 0.785 8.28895507098e-39
0.0261500952545 -0.206295195896 0.785 8.84353014862e-39
0.0303141231612 -0.204981213757 0.78 9.02610952944e-39
-0.0274622267148 -0.203798629831 0.781 2.06330520978e-38
-0.0260168463614 -0.203798629831 0.781 1.16926670019e-38
-0.024571466008 -0.203798629831 0.781 1.00370188533e-38
-0.0231853073848 -0.204320521329 0.783 1.08697082358e-38
-0.0217917460454 -0.204842412827 0.785 9.85553668917e-39
-0.0203907819896 -0.205364304324 0.787 9.85483603994e-39
-0.0189342975618 -0.205364304324 0.787 9.94738479702e-39
-0.0175222294316 -0.205886195822 0.789 9.85483043475e-39
-0.0160620436457 -0.205886195822 0.789 9.2090980894e-39
-0.0146203646504 -0.206147141571 0.79 9.39350756601e-39
-0.0131583281854 -0.206147141571 0.79 9.57752327775e-39
-0.0117259025854 -0.206669033068 0.792 9.66973572319e-39
-0.0102601647623 -0.206669033068 0.792 9.48570459717e-39
-0.00879442693908 -0.206669033068 0.792 9.76371940989e-39
-0.0073286891159 -0.206669033068 0.792 9.76262499579e-39
-0.00586295129272 -0.206669033068 0.792 9.76299073469e-39
-0.00439721346954 -0.206669033068 0.792 1.00384986245e-38
-0.00293147564636 -0.206669033068 0.792 9.39420821524e-39
-0.00146943918132 -0.207190924566 0.794 9.30237832428e-39
0.0 -0.207190924566 0.794 9.30273425409e-39
0.00146943918132 -0.207190924566 0.794 9.02616698267e-39
0.00293887836264 -0.207190924566 0.794 9.0268704345e-39
0.00440831754396 -0.207190924566 0.794 9.39528301116e-39
0.00587775672528 -0.207190924566 0.794 9.30272864889e-39
0.00734719590659 -0.207190924566 0.794 9.30237832428e-39
0.00879442693908 -0.206669033068 0.792 9.02614876579e-39
0.0102601647623 -0.206669033068 0.792 9.30203080226e-39
0.0116962917203 -0.206147141571 0.79 8.93430346055e-39
0.0131583281854 -0.206147141571 0.79 9.21161762404e-39
0.0146203646504 -0.206147141571 0.79 8.75137795901e-39
0.0160824011154 -0.206147141571 0.79 8.84247637218e-39
0.0175222294316 -0.205886195822 0.789 8.93467200204e-39
0.0189824152176 -0.205886195822 0.789 8.19713218651e-39
0.0203907819896 -0.205364304324 0.787 8.56446296075e-39
0.0217917460454 -0.204842412827 0.785 8.47225191661e-39
0.0232445291151 -0.204842412827 0.785 8.84177011775e-39
0.0246973121848 -0.204842412827 0.785 8.10243243629e-39
0.0261500952545 -0.204842412827 0.785 6.90566749582e-39
0.0275325525195 -0.204320521329 0.783 9.67114542945e-39
0.0289076070683 -0.203798629831 0.781 1.16990415086e-38
0.0303141231612 -0.203537684082 0.78 1.03146791375e-38
0.0332011825099 -0.203537684082 0.78 1.00388769751e-38
-0.0274622267148 -0.202353249478 0.781 9.02179353017e-39
-0.0260168463614 -0.202353249478 0.781 1.06823756506e-38
-0.0246343890964 -0.202871439617 0.783 1.05005557736e-38
-0.0233037508453 -0.203907819896 0.787 9.94738199442e-39
-0.0218472664175 -0.203907819896 0.787 9.94810086053e-39
-0.0203907819896 -0.203907819896 0.787 9.57932254497e-39
-0.0189824152176 -0.204426010036 0.789 9.3030817761e-39
-0.0175222294316 -0.204426010036 0.789 9.11799967623e-39
-0.0160620436457 -0.204426010036 0.789 1.03168903865e-38
-0.0146203646504 -0.204685105106 0.79 9.30167487245e-39
-0.0131583281854 -0.204685105106 0.79 8.74920594639e-39
-0.0117259025854 -0.205203295245 0.792 9.30416497982e-39
-0.0102601647623 -0.205203295245 0.792 8.84247917478e-39
-0.00879442693908 -0.205203295245 0.792 9.11908007735e-39
-0.0073286891159 -0.205203295245 0.792 9.67044197762e-39
-0.00586295129272 -0.205203295245 0.792 9.4864108516e-39
-0.00440831754396 -0.205721485385 0.794 9.48712971771e-39
-0.00293887836264 -0.205721485385 0.794 9.39387190361e-39
-0.00146943918132 -0.205721485385 0.794 9.11834719825e-39
0.0 -0.205721485385 0.794 8.93572577849e-39
0.00147314053946 -0.206239675524 0.796 8.93465658776e-39
0.00294628107892 -0.206239675524 0.796 8.93430346055e-39
0.00440831754396 -0.205721485385 0.794 9.11832477748e-39
0.00587775672528 -0.205721485385 0.794 8.84247917478e-39
0.00734719590659 -0.205721485385 0.794 8.84247637218e-39
0.00879442693908 -0.205203295245 0.792 9.21087353455e-39
0.0102601647623 -0.205203295245 0.792 9.11797445286e-39
0.0117259025854 -0.205203295245 0.792 8.93395593853e-39
0.0131916404086 -0.205203295245 0.792 8.56624961629e-39
0.0146203646504 -0.204685105106 0.79 8.84177011775e-39
0.0160824011154 -0.204685105106 0.79 8.65879557077e-39
0.0175222294316 -0.204426010036 0.789 8.5662454124e-39
0.0189824152176 -0.204426010036 0.789 8.19783844093e-39
0.0204426010036 -0.204426010036 0.789 8.47404978254e-39
0.0218472664175 -0.203907819896 0.787 8.3825548019e-39
0.0232445291151 -0.203389629757 0.785 7.3687728162e-39
0.0246973121848 -0.203389629757 0.785 7.92014452556e-39
0.0261500952545 -0.203389629757 0.785 8.1956818426e-39
0.0275325525195 -0.202871439617 0.783 8.01021718825e-39
0.0289076070683 -0.202353249478 0.781 6.90566749582e-39
0.0303141231612 -0.202094154408 0.78 9.76553128881e-39
0.0317576528356 -0.202094154408 0.78 1.21586323724e-38
0.0332011825099 -0.202094154408 0.78 8.74667520137e-39
0.0344670469936 -0.201057774129 0.776 9.85372481026e-39
0.0359031739516 -0.201057774129 0.776 1.69477058002e-38
-0.0275325525195 -0.201422357906 0.783 9.66970629592e-39
-0.0260834708079 -0.201422357906 0.783 1.07753475999e-38
-0.0246973121848 -0.201936846687 0.785 1.00395804269e-38
-0.0233037508453 -0.202451335469 0.787 1.04083573411e-38
-0.0218472664175 -0.202451335469 0.787 1.03172407111e-38
-0.0203907819896 -0.202451335469 0.787 9.48642346328e-39
-0.0189824152176 -0.20296582425 0.789 9.76367456834e-39
-0.0175222294316 -0.20296582425 0.789 9.39492708135e-39
-0.0160620436457 -0.20296582425 0.789 9.48532764788e-39
-0.0146203646504 -0.203223068641 0.79 9.39385508803e-39
-0.0131583281854 -0.203223068641 0.79 8.84285192017e-39
-0.0117555134506 -0.204252046203 0.794 8.84285192017e-39
-0.0102860742692 -0.204252046203 0.794 8.84247917478e-39
-0.00881663508791 -0.204252046203 0.794 8.93467200204e-39
-0.00736570269729 -0.204766534985 0.796 9.30237832428e-39
-0.00589256215783 -0.204766534985 0.796 9.30272864889e-39
-0.00441942161837 -0.204766534985 0.796 9.39528301116e-39
-0.00294628107892 -0.204766534985 0.796 9.21161482144e-39
-0.00147314053946 -0.204766534985 0.796 9.48784858382e-39
0.0 -0.204766534985 0.796 9.11980875255e-39
0.00147314053946 -0.204766534985 0.796 9.11941638898e-39
0.00294628107892 -0.204766534985 0.796 8.93467480464e-39
0.00441942161837 -0.204766534985 0.796 8.84285192017e-39
0.00587775672528 -0.204252046203 0.794 9.0268704345e-39
0.00734719590659 -0.204252046203 0.794 9.02722075912e-39
0.00881663508791 -0.204252046203 0.794 9.48748004232e-39
0.0102601647623 -0.203737557422 0.792 8.93395593853e-39
0.0117259025854 -0.203737557422 0.792 8.56554336187e-39
0.0131916404086 -0.203737557422 0.792 8.56624961629e-39
0.0146573782318 -0.203737557422 0.792 8.38185415267e-39
0.0160824011154 -0.203223068641 0.79 8.47475323437e-39
0.0175444375805 -0.203223068641 0.79 8.19710416054e-39
0.0189824152176 -0.20296582425 0.789 8.38185415267e-39
0.0204426010036 -0.20296582425 0.789 8.47404978254e-39
0.0218472664175 -0.202451335469 0.787 8.01379190063e-39
0.0232445291151 -0.201936846687 0.785 8.10669658752e-39
0.0246973121848 -0.201936846687 0.785 7.82974956422e-39
0.0261500952545 -0.201936846687 0.785 7.55246622929e-39
0.0275325525195 -0.201422357906 0.783 8.1953189063e-39
0.0289076070683 -0.200907869124 0.781 8.19638529443e-39
0.0302363946403 -0.200136135952 0.778 6.44470335949e-39
0.0316762229565 -0.200136135952 0.778 1.09633107694e-38
0.0330309200355 -0.199621647171 0.776 1.06849498359e-38
0.0344670469936 -0.199621647171 0.776 7.91837748819e-39
0.0359031739516 -0.199621647171 0.776 1.16015111355e-38
-0.0274622267148 -0.199462488771 0.781 1.05909563401e-38
-0.0260168463614 -0.199462488771 0.781 9.11760591137e-39
-0.0246973121848 -0.200484063617 0.785 9.57861909314e-39
-0.0233629725755 -0.201505638464 0.789 9.11799967623e-39
-0.0219027867896 -0.201505638464 0.789 9.39457535544e-39
-0.0204426010036 -0.201505638464 0.789 9.39312641283e-39
-0.0189824152176 -0.201505638464 0.789 9.5800287994e-39
-0.0175222294316 -0.201505638464 0.789 9.11835000085e-39
-0.0160824011154 -0.201761032176 0.79 9.39492988395e-39
-0.0146203646504 -0.201761032176 0.79 9.48570459717e-39
-0.0131916404086 -0.202271819599 0.792 9.30272864889e-39
-0.0117851243157 -0.203293394445 0.796 8.84318262661e-39
-0.0102860742692 -0.202782607022 0.794 8.93537545387e-39
-0.00881663508791 -0.202782607022 0.794 8.93430626314e-39
-0.00736570269729 -0.203293394445 0.796 9.02757108374e-39
-0.00589256215783 -0.203293394445 0.796 8.47439730456e-39
-0.00441942161837 -0.203293394445 0.796 9.12010722913e-39
-0.00294628107892 -0.203293394445 0.796 8.19888941478e-39
-0.00147314053946 -0.203293394445 0.796 8.29110186023e-39
0.0 -0.203293394445 0.796 8.65879276818e-39
0.00147314053946 -0.203293394445 0.796 8.75243173546e-39
0.00294628107892 -0.203293394445 0.796 8.65917952655e-39
0.00441942161837 -0.203293394445 0.796 8.75030596569e-39
0.00587775672528 -0.202782607022 0.794 8.28895507098e-39
0.00734719590659 -0.202782607022 0.794 8.65771236706e-39
0.00881663508791 -0.202782607022 0.794 8.65879557077e-39
0.0102860742692 -0.202782607022 0.794 8.47440290975e-39
0.0117259025854 -0.202271819599 0.792 8.2889396567e-39
0.0131916404086 -0.202271819599 0.792 8.38185415267e-39
0.0146573782318 -0.202271819599 0.792 8.19638529443e-39
0.016123116055 -0.202271819599 0.792 8.29108784724e-39
0.0175444375805 -0.201761032176 0.79 8.10598753049e-39
0.0190064740455 -0.201761032176 0.79 8.2903984084e-39
0.0204426010036 -0.201505638464 0.789 8.28965852281e-39
0.0218472664175 -0.200994851041 0.787 8.65771236706e-39
0.0233037508453 -0.200994851041 0.787 8.19709435145e-39
0.0247602352731 -0.200994851041 0.787 8.10348621273e-39
0.0261500952545 -0.200484063617 0.785 8.01021718825e-39
0.0275325525195 -0.199973276194 0.783 8.28823620487e-39
0.0289076070683 -0.199462488771 0.781 8.10381972177e-39
0.0302363946403 -0.198696307636 0.778 8.10348621273e-39
0.0316762229565 -0.198696307636 0.778 8.56657051364e-39
0.0330309200355 -0.198185520213 0.776 9.94953719146e-39
0.0344670469936 -0.198185520213 0.776 1.13306695696e-38
0.0359031739516 -0.198185520213 0.776 6.81162355328e-39
0.0373393009097 -0.198185520213 0.776 1.49190362043e-38
-0.0289076070683 -0.198017108418 0.781 1.15132629634e-38
-0.0274622267148 -0.198017108418 0.781 1.21568373091e-38
-0.0260168463614 -0.198017108418 0.781 1.1696212287e-38
-0.0246973121848 -0.199031280548 0.785 9.7586971562e-39
-0.0233037508453 -0.199538366613 0.787 1.00349239121e-38
-0.0219027867896 -0.200045452678 0.789 9.48210746401e-39
-0.0204426010036 -0.200045452678 0.789 9.02255163264e-39
-0.0189824152176 -0.200045452678 0.789 9.48244097305e-39
-0.0175444375805 -0.20029899571 0.79 8.74559480025e-39
-0.0160824011154 -0.20029899571 0.79 9.57533725214e-39
-0.0146573782318 -0.200806081776 0.792 8.83995823884e-39
-0.0132249526319 -0.201313167841 0.794 8.7495618762e-39
-0.0117851243157 -0.201820253906 0.796 8.38005068155e-39
-0.0103119837762 -0.201820253906 0.796 9.20907146473e-39
-0.00883884323675 -0.201820253906 0.796 8.10202465844e-39
-0.00736570269729 -0.201820253906 0.796 9.02540607761e-39
-0.00590736759039 -0.202327339971 0.798 8.56481048277e-39
-0.00443052569279 -0.202327339971 0.798 9.21091277091e-39
-0.00295368379519 -0.202327339971 0.798 8.84282949939e-39
-0.00147314053946 -0.201820253906 0.796 9.11941638898e-39
0.0 -0.201820253906 0.796 9.30272864889e-39
0.0014768418976 -0.202327339971 0.798 9.30272864889e-39
0.00295368379519 -0.202327339971 0.798 9.39528301116e-39
0.00441942161837 -0.201820253906 0.796 1.02235961386e-38
0.00589256215783 -0.201820253906 0.796 8.10348901533e-39
0.00736570269729 -0.201820253906 0.796 9.94810366313e-39
0.00883884323675 -0.201820253906 0.796 8.47223650232e-39
0.0102860742692 -0.201313167841 0.794 8.65844244356e-39
0.0117555134506 -0.201313167841 0.794 8.74989258264e-39
0.0132249526319 -0.201313167841 0.794 8.65914869799e-39
0.0146943918132 -0.201313167841 0.794 8.65879557077e-39
0.0161638309945 -0.201313167841 0.794 8.84318262661e-39
0.0175444375805 -0.20029899571 0.79 8.19853628757e-39
0.0190064740455 -0.20029899571 0.79 8.29073191743e-39
0.0204426010036 -0.200045452678 0.789 8.38148561118e-39
0.0219027867896 -0.200045452678 0.789 8.65699630355e-39
0.0233037508453 -0.199538366613 0.787 8.74989258264e-39
0.0247602352731 -0.199538366613 0.787 9.02469001409e-39
0.0261500952545 -0.199031280548 0.785 8.65736204245e-39
0.0276028783241 -0.199031280548 0.785 8.47440010715e-39
0.028981634231 -0.198524194483 0.783 8.47440010715e-39
0.0303141231612 -0.197763565385 0.78 8.47440010715e-39
0.0316762229565 -0.19725647932 0.778 8.38220447729e-39
0.0330309200355 -0.196749393255 0.776 9.30416497982e-39
0.0344670469936 -0.196749393255 0.776 9.48712411251e-39
0.0359031739516 -0.196749393255 0.776 8.10311626994e-39
-0.0317576528356 -0.196320035711 0.78 9.1129171667e-39
-0.0303141231612 -0.196320035711 0.78 1.08675180063e-38
-0.0289076070683 -0.196571728064 0.781 1.13270696338e-38
-0.0274622267148 -0.196571728064 0.781 1.3723070004e-38
-0.0260168463614 -0.196571728064 0.781 1.31695206768e-38
-0.0247602352731 -0.198081882185 0.787 1.3353209886e-38
-0.0233037508453 -0.198081882185 0.787 1.23408334026e-38
-0.0219027867896 -0.198585266892 0.789 1.25241722872e-38
-0.0204426010036 -0.198585266892 0.789 1.26177958402e-38
-0.0190064740455 -0.198836959245 0.79 1.15118154221e-38
-0.0175444375805 -0.198836959245 0.79 1.14196155883e-38
-0.016123116055 -0.199340343952 0.792 1.1143739157e-38
-0.0147314053946 -0.200347113366 0.796 1.11430357052e-38
-0.0132582648551 -0.200347113366 0.796 1.02228744699e-38
-0.0118147351808 -0.200850498073 0.798 1.01314005088e-38
-0.0103378932832 -0.200850498073 0.798 1.10508400753e-38
-0.00886105138558 -0.200850498073 0.798 1.02228772725e-38
-0.00738420948799 -0.200850498073 0.798 1.03165148385e-38
-0.0059369784555 -0.201857267487 0.802 1.0132129184e-38
-0.00445273384163 -0.201857267487 0.802 1.01324823112e-38
-0.00296108651147 -0.20135388278 0.8 9.85446749844e-39
-0.0014768418976 -0.200850498073 0.798 9.76299073469e-39
0.0 -0.200850498073 0.798 9.85483043475e-39
0.0014768418976 -0.200850498073 0.798 9.67007483742e-39
0.00295368379519 -0.200850498073 0.798 1.11455594437e-38
0.00441942161837 -0.200347113366 0.796 1.02221710181e-38
0.00589256215783 -0.200347113366 0.796 1.01321263814e-38
0.00736570269729 -0.200347113366 0.796 1.03154554568e-38
0.00883884323675 -0.200347113366 0.796 1.04083419269e-38
0.0103119837762 -0.200347113366 0.796 1.00392048789e-38
0.0117851243157 -0.200347113366 0.796 9.67042235944e-39
0.0132582648551 -0.200347113366 0.796 9.30272864889e-39
0.0147314053946 -0.200347113366 0.796 9.30272864889e-39
0.016204545934 -0.200347113366 0.796 9.11869752287e-39
0.0175888538782 -0.199340343952 0.792 9.11869752287e-39
0.0190545917013 -0.199340343952 0.792 9.02650189301e-39
0.0204426010036 -0.198585266892 0.789 8.93395313593e-39
0.0219027867896 -0.198585266892 0.789 9.02542009059e-39
0.0233037508453 -0.198081882185 0.787 9.02542009059e-39
0.0247602352731 -0.198081882185 0.787 9.20945121661e-39
0.026216719701 -0.198081882185 0.787 9.11654652973e-39
0.0276028783241 -0.197578497478 0.785 8.6559397245e-39
0.028981634231 -0.197075112771 0.783 8.28965852281e-39
0.0303529874217 -0.196571728064 0.781 8.56586706181e-39
0.0316762229565 -0.195816651004 0.778 8.38148561118e-39
0.0331160512727 -0.195816651004 0.778 8.47440010715e-39
0.0344670469936 -0.195313266297 0.776 9.48784578122e-39
0.0359031739516 -0.195313266297 0.776 9.11725278415e-39
-0.0343782143982 -0.19337745599 0.774 1.99852037917e-38
-0.0329457887983 -0.19337745599 0.774 1.69484695079e-38
-0.0315133631984 -0.19337745599 0.774 1.10475806551e-38
-0.0303141231612 -0.194876506036 0.78 1.10508554896e-38
-0.0289076070683 -0.195126347711 0.781 1.34468670702e-38
-0.0274622267148 -0.195126347711 0.781 1.3079494257e-38
-0.0261500952545 -0.196125714408 0.785 1.26178056493e-38
-0.0247602352731 -0.196625397757 0.787 1.25241750898e-38
-0.0233037508453 -0.196625397757 0.787 1.32610142561e-38
-0.0219305469756 -0.19737492278 0.79 1.28007577755e-38
-0.0204685105106 -0.19737492278 0.79 1.20649906025e-38
-0.0190545917013 -0.197874606129 0.792 1.1696559809e-38
-0.0176776864735 -0.198873972827 0.796 1.14196183909e-38
-0.0162452608736 -0.199373656176 0.798 1.10508400753e-38
-0.014768418976 -0.199373656176 0.798 1.15136160906e-38
-0.0133248893016 -0.199873339524 0.8 1.03161589087e-38
-0.0118443460459 -0.199873339524 0.8 1.03161476983e-38
-0.0103897122971 -0.200373022873 0.802 1.01314005088e-38
-0.00890546768326 -0.200373022873 0.802 1.01306816426e-38
-0.00743047646473 -0.200622864548 0.803 1.04991040284e-38
-0.00594438117178 -0.200622864548 0.803 1.03154554568e-38
-0.00445828587884 -0.200622864548 0.803 1.01310445789e-38
-0.00297219058589 -0.200622864548 0.803 1.01306970569e-38
-0.00148424461388 -0.200373022873 0.802 9.85483603994e-39
0.0 -0.199873339524 0.8 9.94633102057e-39
0.00148054325574 -0.199873339524 0.8 1.00384986245e-38
0.00296108651147 -0.199873339524 0.8 9.85518636456e-39
0.00443052569279 -0.199373656176 0.798 1.00385210452e-38
0.00590736759039 -0.199373656176 0.798 9.85446749844e-39
0.00738420948799 -0.199373656176 0.798 9.94738479702e-39
0.00886105138558 -0.199373656176 0.798 9.85553949177e-39
0.0103378932832 -0.199373656176 0.798 1.00381328856e-38
0.0118147351808 -0.199373656176 0.798 9.67079510483e-39
0.0132915770784 -0.199373656176 0.798 9.76227186858e-39
0.014768418976 -0.199373656176 0.798 9.67007483742e-39
0.0162452608736 -0.199373656176 0.798 9.5800287994e-39
0.0177221027712 -0.199373656176 0.798 9.39457815803e-39
0.019150827013 -0.198873972827 0.796 9.11834719825e-39
0.0204685105106 -0.19737492278 0.79 9.02650189301e-39
0.0219305469756 -0.19737492278 0.79 9.02542009059e-39
0.0233629725755 -0.197125081106 0.789 8.65736204245e-39
0.0248231583615 -0.197125081106 0.789 8.65664317633e-39
0.0262833441475 -0.197125081106 0.789 8.74811013099e-39
0.0277435299334 -0.197125081106 0.789 8.7488388062e-39
0.0290556613938 -0.196125714408 0.785 8.74919193341e-39
0.0303529874217 -0.195126347711 0.781 8.74918913081e-39
0.0317576528356 -0.194876506036 0.78 8.28965852281e-39
0.0332011825099 -0.194876506036 0.78 8.29073752263e-39
0.0345558795889 -0.194376822688 0.778 9.11941638898e-39
0.0359031739516 -0.193877139339 0.776 9.4856751699e-39
0.0372430655981 -0.19337745599 0.774 8.83958689475e-39
0.038675491198 -0.19337745599 0.774 1.52925677243e-38
-0.0357643730214 -0.191697039395 0.773 1.66642595546e-38
-0.0343337981005 -0.191697039395 0.773 2.03565002406e-38
-0.0329457887983 -0.19194503039 0.774 1.45546047166e-38
-0.0315133631984 -0.19194503039 0.774 1.08657285482e-38
-0.0302363946403 -0.192936994371 0.778 1.1143739157e-38
-0.0288705934869 -0.193432976362 0.78 1.36319701895e-38
-0.0276028783241 -0.194672931339 0.785 1.31698976261e-38
-0.026216719701 -0.195168913329 0.787 1.27092880183e-38
-0.0248231583615 -0.19566489532 0.789 1.34468530572e-38
-0.0233925834406 -0.195912886315 0.79 1.26170867832e-38
-0.0219860673477 -0.196408868306 0.792 1.24319766574e-38
-0.0205721485385 -0.196904850297 0.794 1.21553883665e-38
-0.019150827013 -0.197400832287 0.796 1.1696212287e-38
-0.0177221027712 -0.197896814278 0.798 1.16040110519e-38
-0.0162452608736 -0.197896814278 0.798 1.14189149391e-38
-0.014768418976 -0.197896814278 0.798 1.09586570572e-38
-0.0133248893016 -0.198392796269 0.8 1.07753447973e-38
-0.011873956911 -0.198888778259 0.802 1.04984005766e-38
-0.0104026670506 -0.199136769255 0.803 1.0499106831e-38
-0.00891657175768 -0.199136769255 0.803 1.01299781908e-38
-0.00743047646473 -0.199136769255 0.803 1.08678963569e-38
-0.00594438117178 -0.199136769255 0.803 9.85303817401e-39
-0.00445828587884 -0.199136769255 0.803 1.05916401738e-38
-0.00297219058589 -0.199136769255 0.803 1.02221738207e-38
-0.00148609529295 -0.199136769255 0.803 1.01310473815e-38
0.0 -0.199136769255 0.803 9.85483043475e-39
0.00148609529295 -0.199136769255 0.803 1.01306942543e-38
0.00297219058589 -0.199136769255 0.803 9.94738479702e-39
0.00445273384163 -0.198888778259 0.802 1.01310473815e-38
0.0059369784555 -0.198888778259 0.802 1.02221738207e-38
0.00742122306938 -0.198888778259 0.802 9.85374022454e-39
0.00890546768326 -0.198888778259 0.802 9.85446749844e-39
0.0103897122971 -0.198888778259 0.802 1.06838554218e-38
0.011873956911 -0.198888778259 0.802 1.00377825609e-38
0.0133582015249 -0.198888778259 0.802 9.67007203482e-39
0.0148424461388 -0.198888778259 0.802 9.4856751699e-39
0.0162859758131 -0.198392796269 0.8 9.11905065008e-39
0.0177665190688 -0.198392796269 0.8 9.21050219046e-39
0.019150827013 -0.197400832287 0.796 9.4856807751e-39
0.0206239675524 -0.197400832287 0.796 9.11724998156e-39
0.0219860673477 -0.196408868306 0.792 9.20942459194e-39
0.0233925834406 -0.195912886315 0.79 9.02542009059e-39
0.0248546199057 -0.195912886315 0.79 8.65844524616e-39
0.0263166563707 -0.195912886315 0.79 8.56624961629e-39
0.0277786928358 -0.195912886315 0.79 8.74955767231e-39
0.0291296885566 -0.195168913329 0.787 8.74919193341e-39
0.0305861729845 -0.195168913329 0.787 8.47440290975e-39
0.0320426574123 -0.195168913329 0.787 8.56659573702e-39
0.0331160512727 -0.192936994371 0.778 8.84177011775e-39
0.0345558795889 -0.192936994371 0.778 9.48714513199e-39
0.0358106399981 -0.19194503039 0.774 1.00388517517e-38
0.0372430655981 -0.19194503039 0.774 7.45593358068e-39
0.038675491198 -0.19194503039 0.774 1.58428674403e-38
-0.0356718390679 -0.189774183841 0.771 1.59274400065e-38
-0.0342449655052 -0.189774183841 0.771 1.75009370326e-38
-0.0328180919425 -0.189774183841 0.771 1.44602805144e-38
-0.0313912183798 -0.189774183841 0.771 1.14163799902e-38
-0.0301586661194 -0.191004885423 0.776 1.12359530038e-38
-0.0288705934869 -0.191989446688 0.78 1.40003925752e-38
-0.0276028783241 -0.193220148269 0.785 1.34482627634e-38
-0.026216719701 -0.193712428902 0.787 1.28018339727e-38
-0.0248546199057 -0.19445084985 0.79 1.28014836481e-38
-0.0234518051709 -0.194943130483 0.792 1.26170923884e-38
-0.0220415877198 -0.195435411115 0.794 1.23404998936e-38
-0.0206239675524 -0.195927691748 0.796 1.22472336717e-38
-0.0191989446688 -0.19641997238 0.798 1.17884079168e-38
-0.0177221027712 -0.19641997238 0.798 1.14214176581e-38
-0.0162859758131 -0.196912253013 0.8 1.10501366235e-38
-0.0148424461388 -0.197404533646 0.802 1.13274465831e-38
-0.0133582015249 -0.197404533646 0.802 1.06831491674e-38
-0.0118887623436 -0.197650673962 0.803 1.03147225778e-38
-0.0104026670506 -0.197650673962 0.803 1.03150729024e-38
-0.00891657175768 -0.197650673962 0.803 1.07739014598e-38
-0.00743047646473 -0.197650673962 0.803 1.02217954701e-38
-0.00594438117178 -0.197650673962 0.803 1.02203731521e-38
-0.00445828587884 -0.197650673962 0.803 1.03129219092e-38
-0.00297219058589 -0.197650673962 0.803 9.85338709733e-39
-0.00148609529295 -0.197650673962 0.803 1.00381328856e-38
0.0 -0.197650673962 0.803 1.05913066647e-38
0.00148609529295 -0.197650673962 0.803 9.39239773762e-39
0.00297219058589 -0.197650673962 0.803 9.66864691428e-39
0.00445828587884 -0.197650673962 0.803 9.48636881264e-39
0.00594438117178 -0.197650673962 0.803 1.01313977062e-38
0.00743047646473 -0.197650673962 0.803 9.57857705419e-39
0.00891657175768 -0.197650673962 0.803 1.05001900347e-38
0.0104026670506 -0.197650673962 0.803 1.01306816426e-38
0.0118887623436 -0.197650673962 0.803 9.9459372557e-39
0.0133748576365 -0.197650673962 0.803 9.76227186858e-39
0.0148609529295 -0.197650673962 0.803 9.30272864889e-39
0.0163266907526 -0.197404533646 0.802 9.11870032547e-39
0.0177665190688 -0.196912253013 0.8 9.57967847478e-39
0.0191989446688 -0.19641997238 0.798 9.209100892e-39
0.0206239675524 -0.195927691748 0.796 9.209100892e-39
0.0220971080919 -0.195927691748 0.796 9.39348234264e-39
0.0234518051709 -0.194943130483 0.792 8.84138756327e-39
0.0249175429941 -0.194943130483 0.792 8.93395313593e-39
0.0263166563707 -0.19445084985 0.79 9.02542569579e-39
0.0277786928358 -0.19445084985 0.79 8.38077935675e-39
0.0291296885566 -0.193712428902 0.787 8.56442932959e-39
0.0305861729845 -0.193712428902 0.787 8.19709435145e-39
0.0320426574123 -0.193712428902 0.787 8.65736204245e-39
0.0331160512727 -0.191497166055 0.778 9.3027188398e-39
0.0345558795889 -0.191497166055 0.778 9.30237832428e-39
0.0358106399981 -0.19051260479 0.774 8.93430906574e-39
0.0372430655981 -0.19051260479 0.774 8.84031136605e-39
-0.0356718390679 -0.188347310279 0.771 1.57448283958e-38
-0.0342449655052 -0.188347310279 0.771 1.77789756674e-38
-0.0327329607053 -0.187858731004 0.769 1.45535481375e-38
-0.0313097885007 -0.187858731004 0.769 1.09546787708e-38
-0.029964344817 -0.188347310279 0.771 1.11434070493e-38
-0.0291296885566 -0.192255944474 0.787 1.33561035673e-38
-0.0276732041288 -0.192255944474 0.787 1.30780677351e-38
-0.0262833441475 -0.192744523748 0.789 1.3998579295e-38
-0.0249175429941 -0.19347739266 0.792 1.28929534054e-38
-0.0234518051709 -0.19347739266 0.792 1.26152945225e-38
-0.0220971080919 -0.194454551208 0.796 1.28000389094e-38
-0.0206239675524 -0.194454551208 0.796 1.22472280665e-38
-0.0191989446688 -0.194943130483 0.798 1.21550324367e-38
-0.0177665190688 -0.195431709757 0.8 1.16040110519e-38
-0.0162859758131 -0.195431709757 0.8 1.13281528375e-38
-0.0148424461388 -0.195920289032 0.802 1.09590101844e-38
-0.0133748576365 -0.196164578669 0.803 1.10504925533e-38
-0.0118887623436 -0.196164578669 0.803 1.08678935543e-38
-0.0104026670506 -0.196164578669 0.803 1.05909563401e-38
-0.00891657175768 -0.196164578669 0.803 1.04987537038e-38
-0.00743047646473 -0.196164578669 0.803 1.02228772725e-38
-0.00595918660434 -0.196653157943 0.805 1.00377797584e-38
-0.00446938995326 -0.196653157943 0.805 1.0312568782e-38
-0.00297219058589 -0.196164578669 0.803 1.01299753882e-38
-0.00148609529295 -0.196164578669 0.803 1.00377825609e-38
0.0 -0.196164578669 0.803 1.05906032129e-38
0.00148609529295 -0.196164578669 0.803 1.28962030165e-38
0.00297219058589 -0.196164578669 0.803 1.16065502047e-38
0.00445828587884 -0.196164578669 0.803 9.48675697232e-39
0.00594438117178 -0.196164578669 0.803 9.85517095027e-39
0.00743047646473 -0.196164578669 0.803 1.01310445789e-38
0.00893877990651 -0.196653157943 0.805 9.67043917502e-39
0.0104285765576 -0.196653157943 0.805 1.03147197752e-38
0.0119183732087 -0.196653157943 0.805 1.01299753882e-38
0.0133748576365 -0.196164578669 0.803 1.03136688013e-38
0.0148609529295 -0.196164578669 0.803 9.76299073469e-39
0.0163470482224 -0.196164578669 0.803 9.48712411251e-39
0.0178109353665 -0.195920289032 0.802 9.57861909314e-39
0.0192470623246 -0.195431709757 0.8 9.48532764788e-39
0.0206757865664 -0.194943130483 0.798 9.02614876579e-39
0.022152628464 -0.194943130483 0.798 9.30275527356e-39
0.0235702486313 -0.194454551208 0.796 8.84211063328e-39
0.0250433891708 -0.194454551208 0.796 9.67042235944e-39
0.0264499052637 -0.193965971934 0.794 9.02469001409e-39
0.0278490186404 -0.19347739266 0.792 8.84070372962e-39
0.0293147564636 -0.19347739266 0.792 8.56479787109e-39
0.0307804942868 -0.19347739266 0.792 8.65699350095e-39
0.0322462321099 -0.19347739266 0.792 9.02469001409e-39
0.0324350013751 -0.186148703544 0.762 9.57822672957e-39
0.0338452188261 -0.186148703544 0.762 9.4867737879e-39
0.0352554362772 -0.186148703544 0.762 8.01092064008e-39
-0.0357643730214 -0.187405314632 0.773 1.59274217896e-38
-0.0342449655052 -0.186920436716 0.771 1.5936503605e-38
-0.0327329607053 -0.1864355588 0.769 1.59382818527e-38
-0.0313097885007 -0.1864355588 0.769 1.04933502969e-38
-0.0298866162961 -0.1864355588 0.769 1.08667963376e-38
-0.0293147564636 -0.192011654837 0.792 1.26188916556e-38
-0.0278490186404 -0.192011654837 0.792 1.34461089677e-38
-0.0263832808172 -0.192011654837 0.792 1.2800389234e-38
-0.0249175429941 -0.192011654837 0.792 1.29844273665e-38
-0.0235110269011 -0.192496532753 0.794 1.25256002104e-38
-0.0220971080919 -0.192981410669 0.796 1.21543135706e-38
-0.0206757865664 -0.193466288585 0.798 1.22465092004e-38
-0.0192470623246 -0.193951166502 0.8 1.20617648135e-38
-0.0177665190688 -0.193951166502 0.8 1.14192680663e-38
-0.0163266907526 -0.194436044418 0.802 1.14185492002e-38
-0.0148424461388 -0.194436044418 0.802 1.13270724364e-38
-0.0133748576365 -0.194678483376 0.803 1.10504869481e-38
-0.0118887623436 -0.194678483376 0.803 1.0866446013e-38
-0.0104285765576 -0.195163361292 0.805 1.02225269479e-38
-0.00893877990651 -0.195163361292 0.805 1.04991040284e-38
-0.00744898325543 -0.195163361292 0.805 1.00392048789e-38
-0.00595918660434 -0.195163361292 0.805 1.01303285154e-38
-0.00446938995326 -0.195163361292 0.805 9.94523380387e-39
-0.00297959330217 -0.195163361292 0.805 9.4856807751e-39
-0.00148979665109 -0.195163361292 0.805 9.76227186858e-39
0.0 -0.195163361292 0.805 1.0038463592e-38
0.00148979665109 -0.195163361292 0.805 1.00392048789e-38
0.00297959330217 -0.195163361292 0.805 9.76227186858e-39
0.00446938995326 -0.195163361292 0.805 9.85517095027e-39
0.00595918660434 -0.195163361292 0.805 9.85553949177e-39
0.00744898325543 -0.195163361292 0.805 9.85481782306e-39
0.00893877990651 -0.195163361292 0.805 9.94558412849e-39
0.0104285765576 -0.195163361292 0.805 9.94486105848e-39
0.0119183732087 -0.195163361292 0.805 9.67008604781e-39
0.0133748576365 -0.194678483376 0.803 9.85483323734e-39
0.0148609529295 -0.194678483376 0.803 9.48712411251e-39
0.0163470482224 -0.194678483376 0.803 8.93502793185e-39
0.0178109353665 -0.194436044418 0.802 9.02614876579e-39
0.0192470623246 -0.193951166502 0.8 9.57787640496e-39
0.0206757865664 -0.193466288585 0.798 8.93465658776e-39
0.022152628464 -0.193466288585 0.798 9.30272864889e-39
0.0236294703616 -0.193466288585 0.798 9.21016447753e-39
0.0250433891708 -0.192981410669 0.796 8.84210783068e-39
0.0265165297102 -0.192981410669 0.796 8.56444754647e-39
0.0279193444451 -0.192496532753 0.794 8.7488388062e-39
0.0293887836264 -0.192496532753 0.794 8.84174349308e-39
0.0308582228077 -0.192496532753 0.794 9.21017008273e-39
0.0324905217471 -0.193466288585 0.798 9.02544811656e-39
0.0339673636447 -0.193466288585 0.798 9.30273425409e-39
0.0338452188261 -0.184738486093 0.762 9.67187410465e-39
0.0352554362772 -0.184738486093 0.762 6.90528073744e-39
0.0366175360725 -0.184496047135 0.761 1.54741199533e-38
0.0380259028445 -0.184496047135 0.761 1.80555429388e-38
-0.0356718390679 -0.185493563153 0.771 1.53735627755e-38
-0.0341561329098 -0.185012386595 0.769 1.32639079375e-38
-0.0326478294681 -0.184531210037 0.767 1.77800476607e-38
-0.0312283586216 -0.184531210037 0.767 1.10472975928e-38
-0.0298088877752 -0.184531210037 0.767 1.11441076985e-38
-0.0293147564636 -0.190545917013 0.792 1.13281528375e-38
-0.0278490186404 -0.190545917013 0.792 1.27118061516e-38
-0.0264499052637 -0.191027093571 0.794 1.27096383429e-38
-0.0249804660824 -0.191027093571 0.794 1.23401327534e-38
-0.0235702486313 -0.19150827013 0.796 1.18788056808e-38
-0.022152628464 -0.191989446688 0.798 1.21550380419e-38
-0.0206757865664 -0.191989446688 0.798 1.22468651302e-38
-0.0192470623246 -0.192470623246 0.8 1.23379845629e-38
-0.0178109353665 -0.192951799804 0.802 1.14192652637e-38
-0.0163266907526 -0.192951799804 0.802 1.16047173064e-38
-0.0148609529295 -0.193192388083 0.803 1.08660956884e-38
-0.0133748576365 -0.193192388083 0.803 1.11426881832e-38
-0.0119183732087 -0.193673564641 0.805 1.10512058142e-38
-0.0104285765576 -0.193673564641 0.805 1.07756979245e-38
-0.00893877990651 -0.193673564641 0.805 1.05913038621e-38
-0.00744898325543 -0.193673564641 0.805 1.05909535375e-38
-0.00595918660434 -0.193673564641 0.805 1.02225269479e-38
-0.00446938995326 -0.193673564641 0.805 1.04987537038e-38
-0.00297959330217 -0.193673564641 0.805 1.01314005088e-38
-0.00148979665109 -0.193673564641 0.805 9.85518356196e-39
0.0 -0.193673564641 0.805 1.0407638475e-38
0.00148979665109 -0.193673564641 0.805 9.67007483742e-39
0.00297959330217 -0.193673564641 0.805 9.11869752287e-39
0.00448049402767 -0.194154741199 0.807 9.67077548665e-39
0.0059739920369 -0.194154741199 0.807 9.57822953217e-39
0.00746749004612 -0.194154741199 0.807 1.02228898842e-38
0.00896098805535 -0.194154741199 0.807 1.03157917685e-38
0.0104285765576 -0.193673564641 0.805 1.00381174713e-38
0.0119183732087 -0.193673564641 0.805 9.57715473625e-39
0.0134081698598 -0.193673564641 0.805 9.76297251781e-39
0.0148609529295 -0.193192388083 0.803 9.30273145149e-39
0.0163470482224 -0.193192388083 0.803 9.3038118526e-39
0.0178331435154 -0.193192388083 0.803 9.30272864889e-39
0.0192951799804 -0.192951799804 0.802 9.85301855583e-39
0.0207276055803 -0.192470623246 0.8 9.20944561142e-39
0.0222081488361 -0.192470623246 0.8 9.30203080226e-39
0.0236294703616 -0.191989446688 0.798 9.48603109971e-39
0.0251063122592 -0.191989446688 0.798 9.11724998156e-39
0.0265165297102 -0.19150827013 0.796 9.39526479428e-39
0.0279896702497 -0.19150827013 0.796 8.65771516966e-39
0.0294628107892 -0.19150827013 0.796 9.11797445286e-39
0.0310136798495 -0.191989446688 0.798 8.65879557077e-39
0.0324905217471 -0.191989446688 0.798 9.11941638898e-39
0.0339673636447 -0.191989446688 0.798 9.48748004232e-39
0.0338008025285 -0.183087680363 0.761 8.56589368648e-39
0.0352091693005 -0.183087680363 0.761 9.20696251054e-39
0.0365213007609 -0.182606503804 0.759 1.76881827373e-38
0.0379259661748 -0.182606503804 0.759 2.01742445598e-38
-0.0355793051144 -0.18358921439 0.769 1.48232658621e-38
-0.0340673003145 -0.18311173919 0.767 1.32642582621e-38
-0.0326052638495 -0.18287300159 0.766 1.77793442089e-38
-0.0311876436821 -0.18287300159 0.766 1.31716702686e-38
-0.0297700235147 -0.18287300159 0.766 1.08660928858e-38
-0.0283524033474 -0.18287300159 0.766 1.01303285154e-38
-0.0279896702497 -0.19003512959 0.796 1.23419446323e-38
-0.0265165297102 -0.19003512959 0.796 1.19742242971e-38
-0.0250433891708 -0.19003512959 0.796 1.26170475468e-38
-0.0236294703616 -0.19051260479 0.798 1.17869603755e-38
-0.0222081488361 -0.19099007999 0.8 1.20621179407e-38
-0.0207276055803 -0.19099007999 0.8 1.16014929186e-38
-0.0192951799804 -0.19146755519 0.802 1.18777070628e-38
-0.0178331435154 -0.19170629279 0.803 1.18773721525e-38
-0.0163470482224 -0.19170629279 0.803 1.12352523545e-38
-0.0148609529295 -0.19170629279 0.803 1.10512058142e-38
-0.0133748576365 -0.19170629279 0.803 1.11437447622e-38
-0.0119183732087 -0.19218376799 0.805 1.09590101844e-38
-0.0104285765576 -0.19218376799 0.805 1.09582913183e-38
-0.00896098805535 -0.19266124319 0.807 1.06831463648e-38
-0.00746749004612 -0.19266124319 0.807 1.07753475999e-38
-0.0059739920369 -0.19266124319 0.807 1.02225269479e-38
-0.00448049402767 -0.19266124319 0.807 1.04991040284e-38
-0.00298699601845 -0.19266124319 0.807 1.01303285154e-38
-0.00149349800922 -0.19266124319 0.807 9.85448571532e-39
0.0 -0.19266124319 0.807 9.76227186858e-39
0.00149349800922 -0.19266124319 0.807 9.57857985679e-39
0.00298699601845 -0.19266124319 0.807 9.57822953217e-39
0.00449159810209 -0.19313871839 0.809 9.7626221932e-39
0.0059739920369 -0.19266124319 0.807 9.94593445311e-39
0.00746749004612 -0.19266124319 0.807 9.57752047515e-39
0.00896098805535 -0.19266124319 0.807 9.67008604781e-39
0.0104544860646 -0.19266124319 0.807 9.94486105848e-39
0.0119183732087 -0.19218376799 0.805 9.57787640496e-39
0.0134081698598 -0.19218376799 0.805 9.67007203482e-39
0.0148979665109 -0.19218376799 0.805 9.39457535544e-39
0.0163877631619 -0.19218376799 0.805 9.57932534757e-39
0.0178331435154 -0.19170629279 0.803 9.48712411251e-39
0.0192951799804 -0.19146755519 0.802 1.00384986245e-38
0.0207276055803 -0.19099007999 0.8 9.1194037773e-39
0.0222081488361 -0.19099007999 0.8 9.12011984081e-39
0.0236886920918 -0.19099007999 0.8 9.67149575406e-39
0.0251692353475 -0.19099007999 0.8 9.39347954004e-39
0.0265831541568 -0.19051260479 0.798 9.11797445286e-39
0.0280599960544 -0.19051260479 0.798 8.74885842437e-39
0.0295368379519 -0.19051260479 0.798 9.0257760204e-39
0.0310136798495 -0.19051260479 0.798 8.56624961629e-39
0.0324905217471 -0.19051260479 0.798 9.11906326177e-39
0.0339673636447 -0.19051260479 0.798 9.67042516203e-39
0.0337119699331 -0.181201838391 0.759 6.07516554016e-39
0.035116635347 -0.181201838391 0.759 1.52918376478e-38
0.0365213007609 -0.181201838391 0.759 2.10029094131e-38
0.0379259661748 -0.181201838391 0.759 1.88813505446e-38
-0.0355793051144 -0.182166042186 0.769 1.55593833597e-38
-0.0340673003145 -0.181692268344 0.767 1.29851630482e-38
-0.0326052638495 -0.181455381423 0.766 1.4462814062e-38
-0.0311876436821 -0.181455381423 0.766 1.7505234815e-38
-0.0296922949938 -0.180981607581 0.764 1.15103510652e-38
-0.0282783761846 -0.180981607581 0.764 1.07731966067e-38
-0.0279896702497 -0.188561989051 0.796 1.09572375418e-38
-0.0265165297102 -0.188561989051 0.796 1.25227443641e-38
-0.0250433891708 -0.188561989051 0.796 1.16011453966e-38
-0.0236294703616 -0.189035762892 0.798 1.15114650974e-38
-0.0222081488361 -0.189509536734 0.8 1.1696212287e-38
-0.0207276055803 -0.189509536734 0.8 1.1143391635e-38
-0.0192951799804 -0.189983310576 0.802 1.1693691351e-38
-0.0178331435154 -0.190220197497 0.803 1.15089497667e-38
-0.0163470482224 -0.190220197497 0.803 1.12359558064e-38
-0.0148979665109 -0.190693971339 0.805 1.06827834285e-38
-0.0134081698598 -0.190693971339 0.805 1.09579409937e-38
-0.0119479840738 -0.191167745181 0.807 1.08653922366e-38
-0.0104544860646 -0.191167745181 0.807 1.13267165066e-38
-0.00896098805535 -0.191167745181 0.807 1.01306816426e-38
-0.00746749004612 -0.191167745181 0.807 1.05909507349e-38
-0.0059739920369 -0.191167745181 0.807 1.02225269479e-38
-0.00448049402767 -0.191167745181 0.807 1.02228772725e-38
-0.00299439873473 -0.191641519023 0.809 1.00377769558e-38
-0.00149719936736 -0.191641519023 0.809 9.67043917502e-39
0.0 -0.191641519023 0.809 9.94558412849e-39
0.00149719936736 -0.191641519023 0.809 9.94593445311e-39
0.00299439873473 -0.191641519023 0.809 9.85482062566e-39
0.00450270217651 -0.192115292864 0.811 1.00381328856e-38
0.00598879746946 -0.191641519023 0.809 9.66970629592e-39
0.00748599683682 -0.191641519023 0.809 9.57752047515e-39
0.00896098805535 -0.191167745181 0.807 9.57787640496e-39
0.0104544860646 -0.191167745181 0.807 9.7626221932e-39
0.0119183732087 -0.190693971339 0.805 9.57822953217e-39
0.0134081698598 -0.190693971339 0.805 9.5800287994e-39
0.0148979665109 -0.190693971339 0.805 9.02650189301e-39
0.0163877631619 -0.190693971339 0.805 9.30272864889e-39
0.0178331435154 -0.190220197497 0.803 9.30416217722e-39
0.0193192388083 -0.190220197497 0.803 9.30311120337e-39
0.0207794245943 -0.189983310576 0.802 9.76478860062e-39
0.0222636692081 -0.189983310576 0.802 8.84318262661e-39
0.0236886920918 -0.189509536734 0.8 8.65879557077e-39
0.0251692353475 -0.189509536734 0.8 9.02757108374e-39
0.0265831541568 -0.189035762892 0.798 8.47404697994e-39
0.0280599960544 -0.189035762892 0.798 8.56659573702e-39
0.0295368379519 -0.189035762892 0.798 8.84175750607e-39
0.0310136798495 -0.189035762892 0.798 9.39313201802e-39
0.0325719516262 -0.189509536734 0.8 9.94486105848e-39
0.032222173282 -0.179323399135 0.757 8.10133942349e-39
0.0336231373378 -0.179323399135 0.757 1.34485822595e-38
0.035116635347 -0.179797172977 0.759 1.86065587184e-38
0.0365213007609 -0.179797172977 0.759 2.09092634394e-38
-0.0370987126306 -0.181212942465 0.771 1.76722850062e-38
-0.0355793051144 -0.180742869981 0.769 1.70319672782e-38
-0.0340673003145 -0.180272797498 0.767 1.31659473657e-38
-0.0326052638495 -0.180037761256 0.766 1.25291973435e-38
-0.0311876436821 -0.180037761256 0.766 1.41851411661e-38
-0.0296922949938 -0.179567688772 0.764 1.67655173817e-38
-0.0282783761846 -0.179567688772 0.764 1.10479309797e-38
-0.0266886428637 -0.178392507563 0.759 1.15103917028e-38
-0.0252839774498 -0.178392507563 0.759 1.1234136921e-38
-0.0251063122592 -0.187558920995 0.798 1.12341579404e-38
-0.0236886920918 -0.188028993479 0.8 1.05905863973e-38
-0.0222636692081 -0.188499065962 0.802 1.0866098491e-38
-0.0208053341012 -0.188734102204 0.803 1.04973159715e-38
-0.0193192388083 -0.188734102204 0.803 1.13270696338e-38
-0.0178331435154 -0.188734102204 0.803 1.0498022226e-38
-0.0163877631619 -0.189204174688 0.805 1.07739014598e-38
-0.0148979665109 -0.189204174688 0.805 1.04987537038e-38
-0.0134081698598 -0.189204174688 0.805 1.01317760567e-38
-0.0119479840738 -0.189674247172 0.807 1.05909563401e-38
-0.0104544860646 -0.189674247172 0.807 1.01299753882e-38
-0.00898319620418 -0.190144319655 0.809 1.02225241453e-38
-0.00748599683682 -0.190144319655 0.809 1.04987537038e-38
-0.00598879746946 -0.190144319655 0.809 1.01314243308e-38
-0.00449159810209 -0.190144319655 0.809 1.00395804269e-38
-0.00300180145101 -0.190614392139 0.811 9.85483043475e-39
-0.0015009007255 -0.190614392139 0.811 9.57932254497e-39
0.0 -0.190614392139 0.811 9.4856807751e-39
0.0015009007255 -0.190614392139 0.811 9.9452141857e-39
0.00300180145101 -0.190614392139 0.811 9.57822953217e-39
0.00450270217651 -0.190614392139 0.811 1.04984005766e-38
0.00600360290201 -0.190614392139 0.811 9.76082292597e-39
0.00748599683682 -0.190144319655 0.809 9.39385508803e-39
0.00898319620418 -0.190144319655 0.809 9.67007203482e-39
0.0104544860646 -0.189674247172 0.807 9.76297532041e-39
0.0119479840738 -0.189674247172 0.807 9.11905065008e-39
0.0134081698598 -0.189204174688 0.805 9.11797445286e-39
0.0148979665109 -0.189204174688 0.805 8.93430346055e-39
0.0163877631619 -0.189204174688 0.805 9.11977231879e-39
0.017877559813 -0.189204174688 0.805 8.65699630355e-39
0.0193192388083 -0.188734102204 0.803 9.39491166707e-39
0.0207794245943 -0.188499065962 0.802 9.11869752287e-39
0.0222636692081 -0.188499065962 0.802 9.11941638898e-39
0.023747913822 -0.188499065962 0.802 8.84318262661e-39
0.0252321584359 -0.188499065962 0.802 8.74954225803e-39
0.0266497786033 -0.188028993479 0.8 8.47369385273e-39
0.028130321859 -0.188028993479 0.8 8.74989258264e-39
0.0280933082776 -0.178392507563 0.759 9.48532764788e-39
0.0294979736915 -0.178392507563 0.759 9.85266542862e-39
0.0308212092263 -0.177922435079 0.757 6.62513454975e-39
0.032222173282 -0.177922435079 0.757 1.28028653284e-38
0.0336231373378 -0.177922435079 0.757 1.8700208896e-38
0.035116635347 -0.178392507563 0.759 2.0635921957e-38
0.0365213007609 -0.178392507563 0.759 1.79604886601e-38
-0.0370987126306 -0.179786068902 0.771 1.67492328922e-38
-0.0355793051144 -0.179319697777 0.769 1.78552091065e-38
-0.0340673003145 -0.178853326651 0.767 1.43623045283e-38
-0.0326052638495 -0.178620141088 0.766 1.16980297711e-38
-0.031106213803 -0.178153769963 0.764 1.23437593138e-38
-0.0296922949938 -0.178153769963 0.764 1.39996737091e-38
-0.0281673354404 -0.177454213274 0.761 1.74087035677e-38
-0.0266886428637 -0.176987842149 0.759 1.14181582379e-38
-0.0252839774498 -0.176987842149 0.759 1.00352798419e-38
-0.0252321584359 -0.187014821348 0.802 1.05909563401e-38
-0.023747913822 -0.187014821348 0.802 1.14207142063e-38
-0.0222914293942 -0.187248006911 0.803 1.00399335541e-38
-0.0208053341012 -0.187248006911 0.803 1.03147225778e-38
-0.0193673564641 -0.187714378037 0.805 9.20801768828e-39
-0.017877559813 -0.187714378037 0.805 1.0129622261e-38
-0.0163877631619 -0.187714378037 0.805 9.66935597131e-39
-0.0149349800922 -0.188180749162 0.807 1.00377615415e-38
-0.013441482083 -0.188180749162 0.807 9.39457535544e-39
-0.0119775949389 -0.188647120288 0.809 9.57896941776e-39
-0.0104803955715 -0.188647120288 0.809 9.4864108516e-39
-0.00898319620418 -0.188647120288 0.809 9.57787640496e-39
-0.00750450362752 -0.189113491413 0.811 1.03154414439e-38
-0.00600360290201 -0.189113491413 0.811 9.11905345268e-39
-0.00450270217651 -0.189113491413 0.811 9.85481782306e-39
-0.00300180145101 -0.189113491413 0.811 9.4856751699e-39
-0.00150460208364 -0.189579862539 0.813 8.84282949939e-39
0.0 -0.189579862539 0.813 9.30306916442e-39
0.00150460208364 -0.189579862539 0.813 9.85481782306e-39
0.00300920416729 -0.189579862539 0.813 9.39347954004e-39
0.00451380625093 -0.189579862539 0.813 9.11869752287e-39
0.00601840833457 -0.189579862539 0.813 9.30237832428e-39
0.00750450362752 -0.189113491413 0.811 9.11726819844e-39
0.00900540435302 -0.189113491413 0.811 9.30273425409e-39
0.0104803955715 -0.188647120288 0.809 9.02542009059e-39
0.0119775949389 -0.188647120288 0.809 9.11905345268e-39
0.013441482083 -0.188180749162 0.807 9.02721795652e-39
0.0149349800922 -0.188180749162 0.807 8.84285192017e-39
0.0163877631619 -0.187714378037 0.805 9.02649909041e-39
0.017877559813 -0.187714378037 0.805 9.02650189301e-39
0.0193673564641 -0.187714378037 0.805 9.30236571259e-39
0.0208053341012 -0.187248006911 0.803 9.30237832428e-39
0.0222914293942 -0.187248006911 0.803 9.57861909314e-39
0.023747913822 -0.187014821348 0.802 9.48642626588e-39
0.0252321584359 -0.187014821348 0.802 9.30272864889e-39
0.0267164030498 -0.187014821348 0.802 9.3030817761e-39
0.028130321859 -0.186548450223 0.8 9.85517095027e-39
0.0280933082776 -0.176987842149 0.759 8.84030576086e-39
0.0294202451706 -0.176521471023 0.757 8.00694235374e-39
0.0307397793472 -0.176055099898 0.755 1.51051818897e-38
0.0321370420448 -0.176055099898 0.755 1.81466539637e-38
0.0335343047424 -0.176055099898 0.755 2.07284651089e-38
0.0350241013935 -0.176521471023 0.757 1.70424770166e-38
0.0365213007609 -0.176987842149 0.759 1.81456029898e-38
-0.0368581243516 -0.177202520921 0.766 1.748860981e-38
-0.0352554362772 -0.176277181386 0.762 1.74875434219e-38
-0.0338452188261 -0.176277181386 0.762 1.61121843934e-38
-0.0324350013751 -0.176277181386 0.762 1.31691913717e-38
-0.031024783924 -0.176277181386 0.762 1.1145574858e-38
-0.0295757022124 -0.176045846502 0.761 1.44631699918e-38
-0.0280933082776 -0.175583176735 0.759 1.34460935534e-38
-0.0266183170591 -0.175120506968 0.757 1.75931172482e-38
-0.0252173530033 -0.175120506968 0.757 1.21560862131e-38
-0.0252321584359 -0.185530576735 0.802 1.00319839879e-38
-0.023747913822 -0.185530576735 0.802 9.94738199442e-39
-0.0222914293942 -0.185761911618 0.803 1.0407638475e-38
-0.0208571531152 -0.186224581386 0.805 1.0130331318e-38
-0.0193673564641 -0.186224581386 0.805 1.00388489491e-38
-0.017877559813 -0.186224581386 0.805 1.03143694505e-38
-0.0164284781015 -0.186687251153 0.807 9.76263480488e-39
-0.0149719936736 -0.18714992092 0.809 9.39492708135e-39
-0.0134747943063 -0.18714992092 0.809 8.93467480464e-39
-0.0119775949389 -0.18714992092 0.809 9.30203080226e-39
-0.0105063050785 -0.187612590688 0.811 9.57787640496e-39
-0.00900540435302 -0.187612590688 0.811 9.57822953217e-39
-0.00750450362752 -0.187612590688 0.811 9.21051760475e-39
-0.00601840833457 -0.188075260455 0.813 9.30272864889e-39
-0.00451380625093 -0.188075260455 0.813 9.02612914762e-39
-0.00300920416729 -0.188075260455 0.813 9.11834439566e-39
-0.00150460208364 -0.188075260455 0.813 8.93467480464e-39
0.0 -0.188075260455 0.813 8.93502232666e-39
0.00150830344178 -0.188537930223 0.815 9.11869752287e-39
0.00300920416729 -0.188075260455 0.813 9.30236571259e-39
0.00451380625093 -0.188075260455 0.813 9.02614876579e-39
0.00601840833457 -0.188075260455 0.813 9.30167487245e-39
0.00752301041821 -0.188075260455 0.813 9.57752608034e-39
0.00900540435302 -0.187612590688 0.811 9.57787640496e-39
0.0105063050785 -0.187612590688 0.811 9.30273145149e-39
0.012007205804 -0.187612590688 0.811 9.3030817761e-39
0.0134747943063 -0.18714992092 0.809 9.11832197488e-39
0.0149349800922 -0.186687251153 0.807 9.21016447753e-39
