# .PCD v0.7 - Point Cloud Data file format
VERSION 0.7
FIELDS x y z rgb
SIZE 4 4 4 4
TYPE F F F F
COUNT 1 1 1 1
WIDTH 856
HEIGHT 1
VIEWPOINT 0 0 0 1 0 0 0
POINTS 856
DATA ascii
0.0207794245943 -0.221152447468 0.802 9.21127850981e-39
0.0222081488361 -0.220600945105 0.8 8.84285192017e-39
0.0236886920918 -0.220600945105 0.8 9.02615156839e-39
0.0250433891708 -0.219497940379 0.796 9.11831917228e-39
0.0265165297102 -0.219497940379 0.796 8.56659853961e-39
0.0278490186404 -0.218394935654 0.792 8.65773899173e-39
0.0293147564636 -0.218394935654 0.792 9.02580124377e-39
0.0307804942868 -0.218394935654 0.792 9.02615156839e-39
0.0321648022309 -0.217843433291 0.79 8.93395313593e-39
0.0336268386959 -0.217843433291 0.79 9.02544531396e-39
0.0351777077563 -0.218394935654 0.792 8.84247637218e-39
0.0366434455795 -0.218394935654 0.792 9.67259297076e-39
0.0381091834027 -0.218394935654 0.792 9.39492708135e-39
0.0396748578956 -0.218946438017 0.794 8.74920594639e-39
0.0411442970769 -0.218946438017 0.794 1.34486256997e-38
0.0426137362582 -0.218946438017 0.794 1.60290495595e-38
-0.0132582648551 -0.21802479984 0.796 1.09543256436e-38
-0.0117851243157 -0.21802479984 0.796 1.08657453638e-38
-0.0103119837762 -0.21802479984 0.796 1.09611779931e-38
-0.00888325953442 -0.219120401849 0.8 1.05909535375e-38
-0.00740271627868 -0.219120401849 0.8 9.6708175256e-39
-0.00592217302295 -0.219120401849 0.8 1.01310740062e-38
-0.00444162976721 -0.219120401849 0.8 9.85483603994e-39
-0.00296108651147 -0.219120401849 0.8 9.67081472301e-39
-0.00148424461388 -0.219668202854 0.802 9.67081472301e-39
0.0 -0.219668202854 0.802 9.57896941776e-39
0.00148609529295 -0.219942103356 0.803 9.48712971771e-39
0.00297219058589 -0.219942103356 0.803 9.39457535544e-39
0.00445828587884 -0.219942103356 0.803 9.57861909314e-39
0.00594438117178 -0.219942103356 0.803 9.57932534757e-39
0.00743047646473 -0.219942103356 0.803 9.39422783342e-39
0.00891657175768 -0.219942103356 0.803 9.30237832428e-39
0.0104026670506 -0.219942103356 0.803 9.39422783342e-39
0.011873956911 -0.219668202854 0.802 8.9332496841e-39
0.0133582015249 -0.219668202854 0.802 8.93504755003e-39
0.0148424461388 -0.219668202854 0.802 8.7506562903e-39
0.0163266907526 -0.219668202854 0.802 9.30416778241e-39
0.0178109353665 -0.219668202854 0.802 8.7506562903e-39
0.0192951799804 -0.219668202854 0.802 8.38259403826e-39
0.0207794245943 -0.219668202854 0.802 8.6598647615e-39
0.0222636692081 -0.219668202854 0.802 9.0268704345e-39
0.0236886920918 -0.219120401849 0.8 9.02722075912e-39
0.0251063122592 -0.218572600844 0.798 8.84247637218e-39
0.0265831541568 -0.218572600844 0.798 8.65844524616e-39
0.0279896702497 -0.21802479984 0.796 8.38149822286e-39
0.0293887836264 -0.217476998835 0.794 8.56694886423e-39
0.0308582228077 -0.217476998835 0.794 8.7506562903e-39
0.032327661989 -0.217476998835 0.794 9.02544531396e-39
0.0337119699331 -0.216929197831 0.792 8.65811033583e-39
0.0351777077563 -0.216929197831 0.792 8.47404978254e-39
0.0366434455795 -0.216929197831 0.792 8.38185415267e-39
0.0381091834027 -0.216929197831 0.792 9.3030845787e-39
0.0396748578956 -0.217476998835 0.794 1.03157917685e-38
0.0411442970769 -0.217476998835 0.794 8.1953161037e-39
-0.0132582648551 -0.2165516593 0.796 1.09590354078e-38
-0.0117851243157 -0.2165516593 0.796 1.11423322534e-38
-0.0103119837762 -0.2165516593 0.796 1.04984005766e-38
-0.00888325953442 -0.217639858593 0.8 1.01310740062e-38
-0.00740271627868 -0.217639858593 0.8 9.94668134519e-39
-0.0059369784555 -0.21818395824 0.802 1.01314243308e-38
-0.00445273384163 -0.21818395824 0.802 9.85483043475e-39
-0.00296848922775 -0.21818395824 0.802 9.4867737879e-39
-0.00148424461388 -0.21818395824 0.802 9.48642346328e-39
0.0 -0.218456008063 0.803 9.21126309553e-39
0.00148609529295 -0.218456008063 0.803 9.30345872539e-39
0.00297959330217 -0.21900010771 0.805 9.11834719825e-39
0.00446938995326 -0.21900010771 0.805 9.48675697232e-39
0.00595918660434 -0.21900010771 0.805 9.2094638283e-39
0.00744898325543 -0.21900010771 0.805 8.7506590929e-39
0.00891657175768 -0.218456008063 0.803 8.65738586452e-39
0.0104026670506 -0.218456008063 0.803 8.75065348771e-39
0.0118887623436 -0.218456008063 0.803 9.48784858382e-39
0.0133748576365 -0.218456008063 0.803 9.21126309553e-39
0.0148609529295 -0.218456008063 0.803 9.11799967623e-39
0.0163470482224 -0.218456008063 0.803 9.21016447753e-39
0.0178331435154 -0.218456008063 0.803 9.02544531396e-39
0.0192951799804 -0.21818395824 0.802 8.56554336187e-39
0.0207794245943 -0.21818395824 0.802 9.12051780958e-39
0.0222636692081 -0.21818395824 0.802 8.47443934351e-39
0.023747913822 -0.21818395824 0.802 9.02757388633e-39
0.0251692353475 -0.217639858593 0.8 8.7506562903e-39
0.0265831541568 -0.217095758947 0.798 8.84247637218e-39
0.0279896702497 -0.2165516593 0.796 8.93502232666e-39
0.0294628107892 -0.2165516593 0.796 9.02686763191e-39
0.0309359513286 -0.2165516593 0.796 8.84250159555e-39
0.0324090918681 -0.2165516593 0.796 8.65773899173e-39
0.0337971011703 -0.216007559654 0.794 8.56554336187e-39
0.0352665403517 -0.216007559654 0.794 8.47404978254e-39
0.0366434455795 -0.215463460007 0.792 8.38005628674e-39
0.0381091834027 -0.215463460007 0.792 8.83884700916e-39
0.0396748578956 -0.216007559654 0.794 9.11762132565e-39
0.0411442970769 -0.216007559654 0.794 1.00392020763e-38
0.0426137362582 -0.216007559654 0.794 9.57752047515e-39
-0.0132915770784 -0.215618917049 0.798 1.1513265766e-38
-0.0118147351808 -0.215618917049 0.798 1.07753475999e-38
-0.0103378932832 -0.215618917049 0.798 1.04080098191e-38
-0.00890546768326 -0.216699713626 0.802 1.03154554568e-38
-0.00742122306938 -0.216699713626 0.802 1.01317760567e-38
-0.0059369784555 -0.216699713626 0.802 9.9470316698e-39
-0.00445828587884 -0.21696991277 0.803 9.67043917502e-39
-0.00297219058589 -0.21696991277 0.803 9.85483603994e-39
-0.00148609529295 -0.21696991277 0.803 9.39457535544e-39
0.0 -0.21696991277 0.803 9.11906606437e-39
0.00148979665109 -0.217510311058 0.805 9.5803973409e-39
0.00297959330217 -0.217510311058 0.805 9.21127850981e-39
0.00446938995326 -0.217510311058 0.805 9.67152097743e-39
0.00595918660434 -0.217510311058 0.805 9.39457815803e-39
0.00744898325543 -0.217510311058 0.805 9.11906606437e-39
0.00893877990651 -0.217510311058 0.805 9.02796344731e-39
0.0104026670506 -0.21696991277 0.803 9.02686763191e-39
0.0118887623436 -0.21696991277 0.803 8.84282949939e-39
0.0133748576365 -0.21696991277 0.803 8.93396855021e-39
0.0148609529295 -0.21696991277 0.803 9.11799967623e-39
0.0163470482224 -0.21696991277 0.803 9.21017008273e-39
0.0178331435154 -0.21696991277 0.803 9.30237832428e-39
0.0193192388083 -0.21696991277 0.803 8.65846066044e-39
0.0208053341012 -0.21696991277 0.803 8.65846066044e-39
0.0222914293942 -0.21696991277 0.803 8.84285192017e-39
0.0237775246871 -0.21696991277 0.803 8.84247637218e-39
0.0252321584359 -0.216699713626 0.802 9.0268704345e-39
0.0266497786033 -0.216159315338 0.8 8.84247637218e-39
0.0280599960544 -0.215618917049 0.798 8.84247637218e-39
0.0295368379519 -0.215618917049 0.798 8.84175750607e-39
0.0309359513286 -0.215078518761 0.796 8.93360561391e-39
0.0324090918681 -0.215078518761 0.796 8.93467200204e-39
0.0337971011703 -0.214538120473 0.794 8.65917952655e-39
0.0352665403517 -0.214538120473 0.794 8.65810473063e-39
0.0366434455795 -0.213997722184 0.792 8.65664317633e-39
0.0381091834027 -0.213997722184 0.792 8.83958969734e-39
0.0395749212258 -0.213997722184 0.792 8.38005628674e-39
0.0409370210211 -0.213457323896 0.79 8.56519023466e-39
0.0423990574862 -0.213457323896 0.79 9.94774773332e-39
0.0438610939512 -0.213457323896 0.79 9.76263480488e-39
0.0453231304162 -0.213457323896 0.79 7.73611339954e-39
-0.0133582015249 -0.215215469012 0.802 1.08671901025e-38
-0.0118443460459 -0.214678772082 0.8 1.10512058142e-38
-0.0103638027902 -0.214678772082 0.8 1.05909563401e-38
-0.00890546768326 -0.215215469012 0.802 9.94737919182e-39
-0.00743047646473 -0.215483817477 0.803 1.00395804269e-38
-0.00594438117178 -0.215483817477 0.803 9.85482062566e-39
-0.00445828587884 -0.215483817477 0.803 9.76264041008e-39
-0.00297219058589 -0.215483817477 0.803 9.94668134519e-39
-0.00148979665109 -0.216020514407 0.805 9.76263480488e-39
0.0 -0.216020514407 0.805 9.30346152799e-39
0.00148979665109 -0.216020514407 0.805 9.3038118526e-39
0.00297959330217 -0.216020514407 0.805 9.39492708135e-39
0.00448049402767 -0.216557211338 0.807 9.39526479428e-39
0.0059739920369 -0.216557211338 0.807 9.21091557351e-39
0.00746749004612 -0.216557211338 0.807 8.47585185236e-39
0.00893877990651 -0.216020514407 0.805 8.290401211e-39
0.0104285765576 -0.216020514407 0.805 8.47334633071e-39
0.0119183732087 -0.216020514407 0.805 7.92194659538e-39
0.0133748576365 -0.215483817477 0.803 8.84321765907e-39
0.0148609529295 -0.215483817477 0.803 8.93467480464e-39
0.0163877631619 -0.216020514407 0.805 9.11797445286e-39
0.017877559813 -0.216020514407 0.805 8.7506562903e-39
0.0193673564641 -0.216020514407 0.805 8.65774179433e-39
0.0208053341012 -0.215483817477 0.803 8.84247637218e-39
0.0222914293942 -0.215483817477 0.803 8.47369385273e-39
0.0237775246871 -0.215483817477 0.803 8.56586706181e-39
0.0252636199801 -0.215483817477 0.803 8.84247637218e-39
0.0267164030498 -0.215215469012 0.802 8.01307583711e-39
0.028130321859 -0.214678772082 0.8 8.37968634395e-39
0.0295368379519 -0.214142075152 0.798 8.19496297649e-39
0.0310136798495 -0.214142075152 0.798 8.84029595177e-39
0.0324090918681 -0.213605378221 0.796 8.19710416054e-39
0.0338822324075 -0.213605378221 0.796 8.5662454124e-39
0.0352665403517 -0.213068681291 0.794 8.38329749009e-39
0.0366434455795 -0.212531984361 0.792 8.47404978254e-39
0.0381091834027 -0.212531984361 0.792 9.02542569579e-39
0.0395749212258 -0.212531984361 0.792 8.65844524616e-39
0.0409370210211 -0.211995287431 0.79 8.56624961629e-39
0.0423990574862 -0.211995287431 0.79 8.56407900497e-39
0.0438055735791 -0.211726938966 0.789 1.00402964904e-38
0.0452657593651 -0.211726938966 0.789 9.39276347652e-39
-0.0189342975618 -0.209733757608 0.787 1.16022117847e-38
-0.017477813134 -0.209733757608 0.787 1.17884261337e-38
-0.0160213287061 -0.209733757608 0.787 1.24312760081e-38
-0.0133582015249 -0.213731224398 0.802 1.08653922366e-38
-0.011873956911 -0.213731224398 0.802 1.04033350874e-38
-0.0103897122971 -0.213731224398 0.802 1.01278271977e-38
-0.00891657175768 -0.213997722184 0.803 9.39383546985e-39
-0.00743047646473 -0.213997722184 0.803 9.30165945816e-39
-0.00594438117178 -0.213997722184 0.803 1.00391992737e-38
-0.00445828587884 -0.213997722184 0.803 9.39528020856e-39
-0.00297219058589 -0.213997722184 0.803 9.39313201802e-39
-0.00148979665109 -0.214530717756 0.805 9.30131193614e-39
0.0 -0.214530717756 0.805 9.2094638283e-39
0.00149349800922 -0.215063713328 0.807 9.11760591137e-39
0.00298699601845 -0.215063713328 0.807 9.30165945816e-39
0.00448049402767 -0.215063713328 0.807 9.76046979876e-39
0.00598879746946 -0.2155967089 0.809 9.57752047515e-39
0.00748599683682 -0.2155967089 0.809 8.74954225803e-39
0.00896098805535 -0.215063713328 0.807 9.11941638898e-39
0.0104544860646 -0.215063713328 0.807 9.30272864889e-39
0.0119183732087 -0.214530717756 0.805 8.84282949939e-39
0.0134081698598 -0.214530717756 0.805 9.21161201885e-39
0.0148979665109 -0.214530717756 0.805 9.48712411251e-39
0.0163877631619 -0.214530717756 0.805 9.67152378003e-39
0.017877559813 -0.214530717756 0.805 1.00392413127e-38
0.0193673564641 -0.214530717756 0.805 9.39528020856e-39
0.0208571531152 -0.214530717756 0.805 1.02232430114e-38
0.0223469497663 -0.214530717756 0.805 9.85517095027e-39
0.0238367464174 -0.214530717756 0.805 9.3038118526e-39
0.0252636199801 -0.213997722184 0.803 9.21161482144e-39
0.026749715273 -0.213997722184 0.803 1.02253954058e-38
0.0282006476636 -0.213731224398 0.802 9.76477318634e-39
0.0296108651147 -0.213198228826 0.8 8.56446576335e-39
0.0310914083705 -0.213198228826 0.8 9.76333825671e-39
0.0324905217471 -0.212665233254 0.798 9.11905065008e-39
0.0338822324075 -0.212132237682 0.796 9.11941638898e-39
0.035355372947 -0.212132237682 0.796 9.02722075912e-39
0.036735979533 -0.21159924211 0.794 9.02722075912e-39
0.0382054187143 -0.21159924211 0.794 9.11834719825e-39
0.0396748578956 -0.21159924211 0.794 9.21017008273e-39
0.0409370210211 -0.210533250966 0.79 9.02614876579e-39
0.0423453877931 -0.21026675318 0.789 8.65595934268e-39
0.0438055735791 -0.21026675318 0.789 9.48535427255e-39
0.0452657593651 -0.21026675318 0.789 1.00388769751e-38
-0.0189342975618 -0.20827727318 0.787 1.13252787744e-38
-0.017477813134 -0.20827727318 0.787 1.15110951547e-38
-0.0160213287061 -0.20827727318 0.787 1.40007302882e-38
-0.0133582015249 -0.212246979784 0.802 1.31705982753e-38
-0.011873956911 -0.212246979784 0.802 1.29851462327e-38
-0.0104026670506 -0.212511626891 0.803 1.32617135041e-38
-0.00893877990651 -0.213040921105 0.805 1.25252288663e-38
-0.00743047646473 -0.212511626891 0.803 1.18816727374e-38
-0.00594438117178 -0.212511626891 0.803 1.15132405426e-38
-0.00446938995326 -0.213040921105 0.805 1.12363033284e-38
-0.00297959330217 -0.213040921105 0.805 1.16050858479e-38
-0.00148979665109 -0.213040921105 0.805 1.13285031622e-38
0.0 -0.213570215319 0.807 1.06838554218e-38
0.00149349800922 -0.213570215319 0.807 1.09607982412e-38
0.00299439873473 -0.214099509533 0.809 1.08667991402e-38
0.00449159810209 -0.214099509533 0.809 1.08660928858e-38
0.00600360290201 -0.214628803747 0.811 1.0868243879e-38
0.00750450362752 -0.214628803747 0.811 1.03147225778e-38
0.00898319620418 -0.214099509533 0.809 1.02225269479e-38
0.0104803955715 -0.214099509533 0.809 1.04984005766e-38
0.0119775949389 -0.214099509533 0.809 9.94632541538e-39
0.013441482083 -0.213570215319 0.807 9.76227186858e-39
0.0149349800922 -0.213570215319 0.807 1.03147253803e-38
0.0164284781015 -0.213570215319 0.807 1.00381328856e-38
0.0179219761107 -0.213570215319 0.807 9.76264041008e-39
0.0194154741199 -0.213570215319 0.807 9.67007483742e-39
0.0209089721291 -0.213570215319 0.807 9.85446749844e-39
0.0223469497663 -0.213040921105 0.805 9.57787640496e-39
0.0238367464174 -0.213040921105 0.805 9.48712411251e-39
0.0253265430684 -0.213040921105 0.805 9.76227186858e-39
0.0268163397195 -0.213040921105 0.805 9.30272864889e-39
0.028235810566 -0.212511626891 0.803 9.48712411251e-39
0.0296848922775 -0.212246979784 0.802 9.48532764788e-39
0.0310914083705 -0.21171768557 0.8 9.21051760475e-39
0.0325719516262 -0.21171768557 0.8 9.11904784749e-39
0.0339673636447 -0.211188391356 0.798 9.4867737879e-39
0.035355372947 -0.210659097143 0.796 9.11869752287e-39
0.0368285134865 -0.210659097143 0.796 8.84175750607e-39
0.0382054187143 -0.210129802929 0.794 9.209100892e-39
0.0396748578956 -0.210129802929 0.794 8.84175750607e-39
0.0409370210211 -0.209071214501 0.79 8.9332496841e-39
0.0423453877931 -0.208806567394 0.789 8.6559397245e-39
0.0436945328349 -0.20827727318 0.787 8.47334633071e-39
0.0450362751604 -0.207747978966 0.785 9.48783316954e-39
0.0464890582301 -0.207747978966 0.785 9.39492988395e-39
0.0479418412998 -0.207747978966 0.785 7.64069338191e-39
-0.0189342975618 -0.206820788752 0.787 1.09583067326e-38
-0.017477813134 -0.206820788752 0.787 1.3354322517e-38
-0.0160620436457 -0.207346381608 0.789 1.4000377161e-38
-0.0146018578597 -0.207346381608 0.789 1.41833390963e-38
-0.0133748576365 -0.211025531598 0.803 1.39067353911e-38
-0.0118887623436 -0.211025531598 0.803 1.33553734908e-38
-0.0104026670506 -0.211025531598 0.803 1.27096383429e-38
-0.00893877990651 -0.211551124454 0.805 1.28922345393e-38
-0.00744898325543 -0.211551124454 0.805 1.23404998936e-38
-0.00595918660434 -0.211551124454 0.805 1.22479371236e-38
-0.00446938995326 -0.211551124454 0.805 1.26149413953e-38
-0.00297959330217 -0.211551124454 0.805 1.16033132053e-38
-0.00149349800922 -0.21207671731 0.807 1.12366760738e-38
0.0 -0.21207671731 0.807 1.11444734374e-38
0.00149719936736 -0.212602310166 0.809 1.07753447973e-38
0.00300180145101 -0.213127903021 0.811 1.07756979245e-38
0.00450270217651 -0.213127903021 0.811 1.06831491674e-38
0.00600360290201 -0.213127903021 0.811 1.01324823112e-38
0.00750450362752 -0.213127903021 0.811 1.01317760567e-38
0.00900540435302 -0.213127903021 0.811 1.02225269479e-38
0.0105063050785 -0.213127903021 0.811 1.08675180063e-38
0.012007205804 -0.213127903021 0.811 9.94558132589e-39
0.0135081065295 -0.213127903021 0.811 1.02225241453e-38
0.0149719936736 -0.212602310166 0.809 1.04969628443e-38
0.016469193041 -0.212602310166 0.809 1.04969628443e-38
0.0179663924084 -0.212602310166 0.809 9.94632541538e-39
0.0194635917757 -0.212602310166 0.809 9.85447030104e-39
0.0209607911431 -0.212602310166 0.809 9.57967286959e-39
0.0224024701384 -0.21207671731 0.807 9.39526759688e-39
0.0238959681476 -0.21207671731 0.807 9.57967286959e-39
0.0253894661568 -0.21207671731 0.807 9.76263480488e-39
0.0268163397195 -0.211551124454 0.805 9.76227186858e-39
0.0283061363706 -0.211551124454 0.805 9.85483603994e-39
0.0297219058589 -0.211025531598 0.803 9.85482062566e-39
0.0311691368914 -0.21076273517 0.802 9.02720534484e-39
0.0325719516262 -0.210237142315 0.8 8.93395313593e-39
0.0339673636447 -0.209711549459 0.798 9.48532764788e-39
0.035355372947 -0.209185956603 0.796 9.20874496219e-39
0.0368285134865 -0.209185956603 0.796 9.02614876579e-39
0.0382054187143 -0.208660363747 0.794 9.02544811656e-39
0.0396748578956 -0.208660363747 0.794 9.02614876579e-39
0.0409370210211 -0.207609178036 0.79 8.65738586452e-39
0.0422380484071 -0.206820788752 0.787 8.38115070084e-39
0.0435834920908 -0.206295195896 0.785 8.5662454124e-39
0.0449215330581 -0.20576960304 0.783 9.67152097743e-39
0.0463706147697 -0.20576960304 0.783 9.85481502046e-39
0.0478196964812 -0.20576960304 0.783 8.74846325821e-39
-0.0231853073848 -0.204320521329 0.783 1.74987916447e-38
-0.0217362256733 -0.204320521329 0.783 1.5654815989e-38
-0.0203389629757 -0.204842412827 0.785 1.1231268463e-38
-0.018886179906 -0.204842412827 0.785 1.08664614273e-38
-0.017477813134 -0.205364304324 0.787 1.24323676196e-38
-0.0160213287061 -0.205364304324 0.787 1.31698976261e-38
-0.0145648442783 -0.205364304324 0.787 1.4274440312e-38
-0.0133748576365 -0.209539436305 0.803 1.36301499028e-38
-0.0118887623436 -0.209539436305 0.803 1.29854993599e-38
-0.0104026670506 -0.209539436305 0.803 1.29851490352e-38
-0.00893877990651 -0.210061327803 0.805 1.29847804938e-38
-0.00744898325543 -0.210061327803 0.805 1.26145686499e-38
-0.00595918660434 -0.210061327803 0.805 1.28007521703e-38
-0.00446938995326 -0.210061327803 0.805 1.17862569237e-38
-0.00297959330217 -0.210061327803 0.805 1.16036607273e-38
-0.00149349800922 -0.210583219301 0.807 1.10512114194e-38
0.0 -0.211105110798 0.809 1.0960792636e-38
0.00149719936736 -0.211105110798 0.809 1.11437727882e-38
0.00300180145101 -0.211627002296 0.811 1.07756979245e-38
0.00450270217651 -0.211627002296 0.811 1.0868243879e-38
0.00601840833457 -0.212148893794 0.813 1.0499106831e-38
0.00752301041821 -0.212148893794 0.813 1.05909507349e-38
0.00902761250186 -0.212148893794 0.813 1.05909507349e-38
0.0105322145855 -0.212148893794 0.813 1.01317760567e-38
0.0120368166691 -0.212148893794 0.813 1.03143694505e-38
0.0135081065295 -0.211627002296 0.811 1.01299781908e-38
0.015009007255 -0.211627002296 0.811 1.01303285154e-38
0.0165099079805 -0.211627002296 0.811 9.85483603994e-39
0.018010808706 -0.211627002296 0.811 9.67008604781e-39
0.0195117094315 -0.211627002296 0.811 9.67187410465e-39
0.021012610157 -0.211627002296 0.811 9.57967286959e-39
0.0225135108825 -0.211627002296 0.811 9.67152378003e-39
0.0240144116081 -0.211627002296 0.811 9.85518636456e-39
0.0254523892452 -0.211105110798 0.809 1.05001998438e-38
0.0269495886125 -0.211105110798 0.809 9.48602829711e-39
0.0283764621753 -0.210583219301 0.807 9.57857985679e-39
0.0297959330217 -0.210061327803 0.805 9.4856751699e-39
0.0312857296728 -0.210061327803 0.805 9.48673455154e-39
0.0326940964448 -0.209539436305 0.803 9.11799967623e-39
0.0340524948819 -0.208756599059 0.8 9.11834439566e-39
0.035355372947 -0.207712816064 0.796 9.39350756601e-39
0.0368285134865 -0.207712816064 0.796 8.9321538687e-39
0.0382054187143 -0.207190924566 0.794 9.57606032215e-39
0.0394749845561 -0.206147141571 0.79 9.02435089986e-39
0.0408852020072 -0.205886195822 0.789 8.56554336187e-39
0.0422380484071 -0.205364304324 0.787 8.28965852281e-39
0.0434724513466 -0.204320521329 0.783 8.93321044774e-39
0.0449215330581 -0.204320521329 0.783 9.30272864889e-39
0.0463706147697 -0.204320521329 0.783 1.04079944048e-38
0.0478196964812 -0.204320521329 0.783 7.55029701927e-39
-0.0231260856546 -0.202353249478 0.781 1.83281795681e-38
-0.0216807053012 -0.202353249478 0.781 1.52896544248e-38
-0.0202871439617 -0.202871439617 0.783 1.04018609215e-38
-0.0188380622502 -0.202871439617 0.783 1.04987537038e-38
-0.0174333968363 -0.203389629757 0.785 1.38163796661e-38
-0.0160213287061 -0.203907819896 0.787 1.35393990116e-38
-0.0145648442783 -0.203907819896 0.787 1.36297967756e-38
-0.0133748576365 -0.208053341012 0.803 1.34454083185e-38
-0.0118887623436 -0.208053341012 0.803 1.3446124382e-38
-0.0104285765576 -0.208571531152 0.805 1.24316235302e-38
-0.00893877990651 -0.208571531152 0.805 1.29844301691e-38
-0.00744898325543 -0.208571531152 0.805 1.25227233446e-38
-0.00595918660434 -0.208571531152 0.805 1.28000333042e-38
-0.00448049402767 -0.209089721291 0.807 1.17866072483e-38
-0.00298699601845 -0.209089721291 0.807 1.12359558064e-38
-0.00149349800922 -0.209089721291 0.807 1.11434070493e-38
0.0 -0.209607911431 0.809 1.08675404271e-38
0.0015009007255 -0.21012610157 0.811 1.05909535375e-38
0.00300920416729 -0.21064429171 0.813 1.08668019428e-38
0.00451380625093 -0.21064429171 0.813 1.04969628443e-38
0.00601840833457 -0.21064429171 0.813 1.03143694505e-38
0.00752301041821 -0.21064429171 0.813 1.05909535375e-38
0.00902761250186 -0.21064429171 0.813 1.0315075705e-38
0.0105322145855 -0.21064429171 0.813 1.05912898492e-38
0.0120368166691 -0.21064429171 0.813 1.07739014598e-38
0.0135414187528 -0.21064429171 0.813 1.02218206935e-38
0.0150460208364 -0.21064429171 0.813 9.94523380387e-39
0.0165506229201 -0.21064429171 0.813 9.76264041008e-39
0.018010808706 -0.21012610157 0.811 9.57787640496e-39
0.0195117094315 -0.21012610157 0.811 9.39492708135e-39
0.021012610157 -0.21012610157 0.811 9.7626221932e-39
0.0225135108825 -0.21012610157 0.811 9.48712411251e-39
0.0240144116081 -0.21012610157 0.811 9.4864038451e-39
0.0255153123336 -0.21012610157 0.811 9.85446749844e-39
0.0270162130591 -0.21012610157 0.811 9.85446749844e-39
0.0284467879799 -0.209607911431 0.809 9.66973572319e-39
0.0299439873473 -0.209607911431 0.809 9.39312641283e-39
0.0313634581937 -0.209089721291 0.807 9.4856779725e-39
0.0327755263239 -0.208571531152 0.805 9.30272864889e-39
0.0341801917378 -0.208053341012 0.803 8.65735923985e-39
0.035621870733 -0.207794245943 0.802 9.11832477748e-39
0.0369210474399 -0.206757865664 0.798 9.48603109971e-39
0.0383016540259 -0.206239675524 0.796 9.20945121661e-39
0.0394749845561 -0.204685105106 0.79 9.02469982318e-39
0.0408852020072 -0.204426010036 0.789 9.02542009059e-39
0.0421307090211 -0.203389629757 0.785 8.56659853961e-39
0.0434724513466 -0.202871439617 0.783 8.65844244356e-39
0.0448067909558 -0.202353249478 0.781 9.30273425409e-39
0.0462521713092 -0.202353249478 0.781 9.85481502046e-39
0.0476975516626 -0.202353249478 0.781 8.37968354135e-39
-0.0245400044638 -0.200650624734 0.78 1.60199915662e-38
-0.0230964747895 -0.200650624734 0.78 1.70402937936e-38
-0.0216807053012 -0.200907869124 0.781 1.42747906366e-38
-0.0202353249478 -0.200907869124 0.781 1.12319845265e-38
-0.0188380622502 -0.201422357906 0.783 1.06831491674e-38
-0.0173889805386 -0.201422357906 0.783 1.41855097076e-38
-0.0159398988271 -0.201422357906 0.783 1.33564328725e-38
-0.0148979665109 -0.207081734501 0.805 1.28926002782e-38
-0.0134081698598 -0.207081734501 0.805 1.29847987106e-38
-0.0119183732087 -0.207081734501 0.805 1.33553762934e-38
-0.0104285765576 -0.207081734501 0.805 1.28929534054e-38
-0.00893877990651 -0.207081734501 0.805 1.25245408287e-38
-0.00744898325543 -0.207081734501 0.805 1.21550380419e-38
-0.00595918660434 -0.207081734501 0.805 1.23390607601e-38
-0.00448049402767 -0.207596223282 0.807 1.19713572405e-38
-0.00298699601845 -0.207596223282 0.807 1.14185618119e-38
-0.00149719936736 -0.208110712064 0.809 1.13270570221e-38
0.0 -0.208625200845 0.811 1.09586570572e-38
0.00150460208364 -0.209139689626 0.813 1.068315197e-38
0.00300920416729 -0.209139689626 0.813 1.10508428779e-38
0.00451380625093 -0.209139689626 0.813 1.09579381911e-38
0.00601840833457 -0.209139689626 0.813 1.0499106831e-38
0.00752301041821 -0.209139689626 0.813 1.04083573411e-38
0.00904982065069 -0.209654178408 0.815 1.0499106831e-38
0.0105581240925 -0.209654178408 0.815 1.06838526192e-38
0.0120664275343 -0.209654178408 0.815 1.16050858479e-38
0.013574730976 -0.209654178408 0.815 1.24337773259e-38
0.0150830344178 -0.209654178408 0.815 1.07764041789e-38
0.0165506229201 -0.209139689626 0.813 9.39456414505e-39
0.0180552250037 -0.209139689626 0.813 9.57932534757e-39
0.0195598270874 -0.209139689626 0.813 9.4867737879e-39
0.021064429171 -0.209139689626 0.813 9.76297251781e-39
0.0225690312546 -0.209139689626 0.813 9.57787360236e-39
0.0240736333383 -0.209139689626 0.813 1.01306942543e-38
0.0255782354219 -0.209139689626 0.813 9.67078949964e-39
0.0270162130591 -0.208625200845 0.811 9.2090952868e-39
0.0285171137846 -0.208625200845 0.811 9.21015466844e-39
0.0300180145101 -0.208625200845 0.811 9.4856807751e-39
0.0314411867146 -0.208110712064 0.809 9.11834719825e-39
0.032938386082 -0.208110712064 0.809 9.3030817761e-39
0.034265322975 -0.207081734501 0.805 9.02757108374e-39
0.0356662870307 -0.206567245719 0.803 8.93430626314e-39
0.0371523823236 -0.206567245719 0.803 9.11797445286e-39
0.0386384776166 -0.206567245719 0.803 8.93395313593e-39
0.0401245729095 -0.206567245719 0.803 8.74885842437e-39
0.0408852020072 -0.20296582425 0.789 8.93502232666e-39
0.0421307090211 -0.201936846687 0.785 8.84175750607e-39
0.0433614106024 -0.200907869124 0.781 9.11799967623e-39
0.0447494199046 -0.200650624734 0.78 9.57932534757e-39
0.046192949579 -0.200650624734 0.78 9.66935036611e-39
0.0476364792533 -0.200650624734 0.78 8.65484250781e-39
-0.0244770813755 -0.198696307636 0.778 1.54685932322e-38
-0.0230372530593 -0.198696307636 0.778 1.60268649351e-38
-0.0215974247431 -0.198696307636 0.778 1.4183323682e-38
-0.0201575964269 -0.198696307636 0.778 1.09543284462e-38
-0.0187899445944 -0.199462488771 0.781 1.11437699856e-38
-0.017344564241 -0.199462488771 0.781 1.28947652843e-38
-0.0158991838875 -0.199462488771 0.781 1.28018339727e-38
-0.0148979665109 -0.20559193785 0.805 1.29840770419e-38
-0.0134081698598 -0.20559193785 0.805 1.29840798445e-38
-0.0119183732087 -0.20559193785 0.805 1.27096383429e-38
-0.0104544860646 -0.206102725273 0.807 1.25245015924e-38
-0.00896098805535 -0.206102725273 0.807 1.23401467664e-38
-0.00746749004612 -0.206102725273 0.807 1.19720859157e-38
-0.0059739920369 -0.206102725273 0.807 1.15114650974e-38
-0.00448049402767 -0.206102725273 0.807 1.1696212287e-38
-0.00299439873473 -0.206613512696 0.809 1.16040166571e-38
-0.0015009007255 -0.207124300119 0.811 1.14192652637e-38
0.0 -0.207124300119 0.811 1.15118308363e-38
0.00150460208364 -0.207635087543 0.813 1.15114805117e-38
0.00300920416729 -0.207635087543 0.813 1.10504925533e-38
0.00452491032535 -0.208145874966 0.815 1.09582913183e-38
0.00603321376713 -0.208145874966 0.815 1.02225241453e-38
0.00754151720891 -0.208145874966 0.815 1.0500205449e-38
0.00904982065069 -0.208145874966 0.815 1.05909339194e-38
0.0105581240925 -0.208145874966 0.815 1.04987537038e-38
0.0120664275343 -0.208145874966 0.815 1.05909535375e-38
0.013574730976 -0.208145874966 0.815 1.23422977595e-38
0.0150830344178 -0.208145874966 0.815 1.11441259154e-38
0.0165913378596 -0.208145874966 0.815 9.7629879321e-39
0.0180552250037 -0.207635087543 0.813 9.85518636456e-39
0.0195598270874 -0.207635087543 0.813 9.85483043475e-39
0.0211162481849 -0.208145874966 0.815 1.00377825609e-38
0.0226245516267 -0.208145874966 0.815 9.66935597131e-39
0.0240736333383 -0.207635087543 0.813 9.7626221932e-39
0.0255782354219 -0.207635087543 0.813 1.03139911e-38
0.0270828375056 -0.207635087543 0.813 9.76191593877e-39
0.0285874395892 -0.207635087543 0.813 9.67007483742e-39
0.0300920416729 -0.207635087543 0.813 9.30272864889e-39
0.0315189152356 -0.207124300119 0.811 8.65844524616e-39
0.032938386082 -0.206613512696 0.809 8.84210783068e-39
0.0343504542122 -0.206102725273 0.807 9.39383266725e-39
0.035755119626 -0.20559193785 0.805 9.11905065008e-39
0.0371523823236 -0.205081150427 0.803 9.2090952868e-39
0.0386384776166 -0.205081150427 0.803 9.11905345268e-39
0.0401245729095 -0.205081150427 0.803 8.84105405424e-39
0.0408852020072 -0.201505638464 0.789 9.02612914762e-39
0.0422380484071 -0.200994851041 0.787 9.39348234264e-39
0.0431948494861 -0.198696307636 0.778 9.48532764788e-39
0.0446346778023 -0.198696307636 0.778 9.67007203482e-39
0.0460745061185 -0.198696307636 0.778 9.76227186858e-39
0.0475143344347 -0.198696307636 0.778 1.10544330046e-38
-0.0258502852452 -0.196749393255 0.776 1.83198404409e-38
-0.0244141582871 -0.196749393255 0.776 1.62058191568e-38
-0.0230372530593 -0.19725647932 0.778 1.4458499464e-38
-0.0215974247431 -0.19725647932 0.778 1.73161730275e-38
-0.0201057774129 -0.196749393255 0.776 1.07699329826e-38
-0.0186696504548 -0.196749393255 0.776 1.10505023624e-38
-0.0172779397944 -0.19725647932 0.778 1.11423098326e-38
-0.0158381114782 -0.19725647932 0.778 1.37237874688e-38
-0.0148979665109 -0.204102141199 0.805 1.32610142561e-38
-0.0134081698598 -0.204102141199 0.805 1.25248911533e-38
-0.0119183732087 -0.204102141199 0.805 1.24326955235e-38
-0.0104544860646 -0.204609227264 0.807 1.19738753738e-38
-0.00896098805535 -0.204609227264 0.807 1.1789126783e-38
-0.00746749004612 -0.204609227264 0.807 1.16958619624e-38
-0.00598879746946 -0.205116313329 0.809 1.17884107194e-38
-0.00449159810209 -0.205116313329 0.809 1.14196183909e-38
-0.00300180145101 -0.205623399394 0.811 1.16043669817e-38
-0.00150460208364 -0.206130485459 0.813 1.12363033284e-38
0.0 -0.206130485459 0.813 1.09593633116e-38
0.00150830344178 -0.206637571524 0.815 1.10512058142e-38
0.00301660688356 -0.206637571524 0.815 1.10504869481e-38
0.00452491032535 -0.206637571524 0.815 1.10512058142e-38
0.00603321376713 -0.206637571524 0.815 1.04991040284e-38
0.00754151720891 -0.206637571524 0.815 1.05909563401e-38
0.00907202879953 -0.207144657589 0.817 1.05909535375e-38
0.0105840335994 -0.207144657589 0.817 1.01317760567e-38
0.0120960383994 -0.207144657589 0.817 1.00377825609e-38
0.0136080431993 -0.207144657589 0.817 9.66970629592e-39
0.0151200479992 -0.207144657589 0.817 9.94661828676e-39
0.0166320527991 -0.207144657589 0.817 9.94773512163e-39
0.0180996413014 -0.206637571524 0.815 1.00388517517e-38
0.0196079447432 -0.206637571524 0.815 9.7637138047e-39
0.0211680671989 -0.207144657589 0.817 1.01310473815e-38
0.0226245516267 -0.206637571524 0.815 9.67006923222e-39
0.0241328550685 -0.206637571524 0.815 9.67112861386e-39
0.0256411585103 -0.206637571524 0.815 9.76297251781e-39
0.0270828375056 -0.206130485459 0.813 9.4856751699e-39
0.0285874395892 -0.206130485459 0.813 9.57787640496e-39
0.0300920416729 -0.206130485459 0.813 9.57752608034e-39
0.0315189152356 -0.205623399394 0.811 8.84285192017e-39
0.0330198159611 -0.205623399394 0.811 9.11869752287e-39
0.0344355854494 -0.205116313329 0.809 9.209100892e-39
0.0358439522214 -0.204609227264 0.807 9.20945121661e-39
0.0372449162771 -0.204102141199 0.805 9.20945121661e-39
0.0387347129282 -0.204102141199 0.805 9.21015466844e-39
0.0402245095793 -0.204102141199 0.805 9.39348234264e-39
0.0402115548258 -0.196749393255 0.776 9.57857985679e-39
0.0416476817839 -0.196749393255 0.776 9.39382986465e-39
0.0430838087419 -0.196749393255 0.776 1.00384958219e-38
0.0445199357 -0.196749393255 0.776 1.00392048789e-38
0.0459560626581 -0.196749393255 0.776 8.19316651185e-39
0.0473921896161 -0.196749393255 0.776 1.28000361068e-38
-0.0257836607987 -0.19480988159 0.774 1.78574021386e-38
-0.0243512351987 -0.19480988159 0.774 1.5467113461e-38
-0.022978031329 -0.195313266297 0.776 1.3814186634e-38
-0.021541904371 -0.195313266297 0.776 1.66722497585e-38
-0.020028048892 -0.194558189236 0.773 1.28929379911e-38
-0.0185974739711 -0.194558189236 0.773 1.13256655328e-38
-0.0172335234968 -0.195313266297 0.776 1.08664614273e-38
-0.0157973965387 -0.195313266297 0.776 1.18813252154e-38
-0.0148979665109 -0.202612344548 0.805 1.26167266495e-38
-0.0134081698598 -0.202612344548 0.805 1.23397824288e-38
-0.0119479840738 -0.203115729255 0.807 1.1973519444e-38
-0.0104803955715 -0.203619113961 0.809 1.21575407609e-38
-0.00898319620418 -0.203619113961 0.809 1.17887610441e-38
-0.00748599683682 -0.203619113961 0.809 1.14200135571e-38
-0.00598879746946 -0.203619113961 0.809 1.16958563572e-38
-0.00450270217651 -0.204122498668 0.811 1.15129098362e-38
-0.00300920416729 -0.204625883375 0.813 1.09593633116e-38
-0.00150830344178 -0.205129268082 0.815 1.09586416429e-38
0.0 -0.205129268082 0.815 1.0683499492e-38
0.00151200479992 -0.205632652789 0.817 1.07756979245e-38
0.00302400959984 -0.205632652789 0.817 1.1143391635e-38
0.00453601439976 -0.205632652789 0.817 1.08668145545e-38
0.00604801919968 -0.205632652789 0.817 1.09593857324e-38
0.0075785307903 -0.206136037496 0.819 1.01314243308e-38
0.00909423694836 -0.206136037496 0.819 9.94738479702e-39
0.0106099431064 -0.206136037496 0.819 9.94737919182e-39
0.0121256492645 -0.206136037496 0.819 9.4864038451e-39
0.0136413554225 -0.206136037496 0.819 1.04991096336e-38
0.0151570615806 -0.206136037496 0.819 1.00384860128e-38
0.0166727677387 -0.206136037496 0.819 9.76263480488e-39
0.0180996413014 -0.205129268082 0.815 9.39492708135e-39
0.0196079447432 -0.205129268082 0.815 9.57787640496e-39
0.0211680671989 -0.205632652789 0.817 1.02221513999e-38
0.0226800719988 -0.205632652789 0.817 9.66971890761e-39
0.0241328550685 -0.205129268082 0.815 9.48783316954e-39
0.0256411585103 -0.205129268082 0.815 9.48783316954e-39
0.0271494619521 -0.205129268082 0.815 9.48747723973e-39
0.0285874395892 -0.204625883375 0.813 9.85517095027e-39
0.0300920416729 -0.204625883375 0.813 9.67007483742e-39
0.0315189152356 -0.204122498668 0.811 9.11941638898e-39
0.0330198159611 -0.204122498668 0.811 9.11869752287e-39
0.0345207166866 -0.204122498668 0.811 9.11799967623e-39
0.0359327848167 -0.203619113961 0.809 9.48603109971e-39
0.0373374502306 -0.203115729255 0.807 9.57787640496e-39
0.0388309482398 -0.203115729255 0.807 9.11799967623e-39
0.0403244462491 -0.203115729255 0.807 8.93395313593e-39
0.0402115548258 -0.195313266297 0.776 9.57787640496e-39
0.0416476817839 -0.195313266297 0.776 9.57787640496e-39
0.0429172476257 -0.194558189236 0.773 1.01317788593e-38
0.0443478225465 -0.194558189236 0.773 9.2090952868e-39
0.0458376191976 -0.19480988159 0.774 8.74342559023e-39
0.0472700447975 -0.19480988159 0.774 1.8698053699e-38
-0.0272160863986 -0.19337745599 0.774 1.887293855e-38
-0.0257836607987 -0.19337745599 0.774 1.81336260919e-38
-0.0243512351987 -0.19337745599 0.774 1.65735128674e-38
-0.022978031329 -0.193877139339 0.776 1.3813153877e-38
-0.0214863839989 -0.19337745599 0.774 1.44613553103e-38
-0.019976229878 -0.192627930967 0.771 1.66729560129e-38
-0.0185493563153 -0.192627930967 0.771 1.08646467458e-38
-0.0171224827526 -0.192627930967 0.771 1.0500205449e-38
-0.0156956091899 -0.192627930967 0.771 1.151323774e-38
-0.0148424461388 -0.200373022873 0.802 1.1513613288e-38
-0.0133582015249 -0.200373022873 0.802 1.23397824288e-38
-0.0119775949389 -0.202121914594 0.809 1.1327422761e-38
-0.0104803955715 -0.202121914594 0.809 1.11441076985e-38
-0.00900540435302 -0.202621597943 0.811 1.13277702831e-38
-0.00752301041821 -0.203121281292 0.813 1.188167554e-38
-0.00601840833457 -0.203121281292 0.813 1.0960069566e-38
-0.00452491032535 -0.203620964641 0.815 1.09600891842e-38
-0.00302400959984 -0.204120647989 0.817 1.08678935543e-38
-0.00151200479992 -0.204120647989 0.817 1.07756979245e-38
0.0 -0.204120647989 0.817 1.04083601437e-38
0.00151570615806 -0.204620331338 0.819 1.05913066647e-38
0.00303141231612 -0.204620331338 0.819 1.09586472481e-38
0.00454711847418 -0.204620331338 0.819 1.08660928858e-38
0.00606282463224 -0.204620331338 0.819 9.94738479702e-39
0.0075785307903 -0.204620331338 0.819 1.04991040284e-38
0.0091164450972 -0.205120014687 0.821 1.01299781908e-38
0.0106358526134 -0.205120014687 0.821 9.67078949964e-39
0.0121552601296 -0.205120014687 0.821 9.85446749844e-39
0.0136746676458 -0.205120014687 0.821 9.85266823122e-39
0.015194075162 -0.205120014687 0.821 9.76227186858e-39
0.0167134826782 -0.205120014687 0.821 9.39457535544e-39
0.0181884738967 -0.204620331338 0.819 9.48748004232e-39
0.0197041800548 -0.204620331338 0.819 9.67007483742e-39
0.0212198862128 -0.204620331338 0.819 9.85446749844e-39
0.0226800719988 -0.204120647989 0.817 9.67006923222e-39
0.0241920767987 -0.204120647989 0.817 9.39528301116e-39
0.0257040815987 -0.204120647989 0.817 9.7626221932e-39
0.0271494619521 -0.203620964641 0.815 9.39527740597e-39
0.0286577653939 -0.203620964641 0.815 9.48748004232e-39
0.0301660688356 -0.203620964641 0.815 9.39457815803e-39
0.0315966437565 -0.203121281292 0.813 9.30306916442e-39
0.0331012458401 -0.203121281292 0.813 9.3030817761e-39
0.0345207166866 -0.202621597943 0.811 8.93430626314e-39
0.0360216174121 -0.202621597943 0.811 9.4856779725e-39
0.0374299841841 -0.202121914594 0.809 9.02615156839e-39
0.0389271835515 -0.202121914594 0.809 9.0268704345e-39
0.0404243829188 -0.202121914594 0.809 8.8428266968e-39
0.0419215822862 -0.202121914594 0.809 9.30237832428e-39
0.0412719939327 -0.192128247618 0.769 9.85446469585e-39
0.0426951661373 -0.192128247618 0.769 9.4864066477e-39
0.0441183383419 -0.192128247618 0.769 8.38003386597e-39
0.0458376191976 -0.19337745599 0.774 1.63027693924e-38
0.0472700447975 -0.19337745599 0.774 2.00784714149e-38
-0.0271809234963 -0.191697039395 0.773 1.81350610215e-38
-0.0257503485754 -0.191697039395 0.773 1.73060556526e-38
-0.0243512351987 -0.19194503039 0.774 1.78627999403e-38
-0.0229188095988 -0.19194503039 0.774 1.27975151709e-38
-0.0214586238128 -0.191697039395 0.773 1.30802313399e-38
-0.019976229878 -0.191201057404 0.771 1.50138060195e-38
-0.0185012386595 -0.190705075413 0.769 1.501306193e-38
-0.0170780664549 -0.190705075413 0.769 1.10490408081e-38
-0.0156548942503 -0.190705075413 0.769 1.08671901025e-38
-0.0142317220458 -0.190705075413 0.769 1.11444790426e-38
-0.0133582015249 -0.198888778259 0.802 1.29891287229e-38
-0.0119775949389 -0.200624715227 0.809 1.17898428465e-38
-0.0105063050785 -0.201120697217 0.811 1.01306816426e-38
-0.00902761250186 -0.201616679208 0.813 1.02214297312e-38
-0.00752301041821 -0.201616679208 0.813 1.0866098491e-38
-0.00601840833457 -0.201616679208 0.813 1.01299781908e-38
-0.00453601439976 -0.202608643189 0.817 1.00385014271e-38
-0.00302400959984 -0.202608643189 0.817 1.03158085841e-38
-0.00151570615806 -0.20310462518 0.819 1.05909563401e-38
0.0 -0.20310462518 0.819 1.03151051322e-38
0.00151570615806 -0.20310462518 0.819 1.01317760567e-38
0.00303141231612 -0.20310462518 0.819 1.0132129184e-38
0.00454711847418 -0.20310462518 0.819 1.05909507349e-38
0.0060776300648 -0.203600607171 0.821 9.94668134519e-39
0.007597037581 -0.203600607171 0.821 1.02225241453e-38
0.0091164450972 -0.203600607171 0.821 1.01303285154e-38
0.0106358526134 -0.203600607171 0.821 1.03161589087e-38
0.0121848709947 -0.204096589161 0.823 9.7629879321e-39
0.0137412920923 -0.204592571152 0.825 9.85518636456e-39
0.0152310887434 -0.204096589161 0.823 9.85517095027e-39
0.0167541976177 -0.204096589161 0.823 9.4867737879e-39
0.0182328901944 -0.203600607171 0.821 9.57857985679e-39
0.0197522977106 -0.203600607171 0.821 9.3030817761e-39
0.0212198862128 -0.20310462518 0.819 9.85481782306e-39
0.0227355923709 -0.20310462518 0.819 9.67042516203e-39
0.0241920767987 -0.202608643189 0.817 9.4867737879e-39
0.0257040815987 -0.202608643189 0.817 9.30272864889e-39
0.0272160863986 -0.202608643189 0.817 9.02650189301e-39
0.0286577653939 -0.202112661199 0.815 9.48748004232e-39
0.0301660688356 -0.202112661199 0.815 9.02577321781e-39
0.0315966437565 -0.201616679208 0.813 8.93430626314e-39
0.0331012458401 -0.201616679208 0.813 8.93430626314e-39
0.0345207166866 -0.201120697217 0.811 8.65879557077e-39
0.0360216174121 -0.201120697217 0.811 8.84316160713e-39
0.0375225181376 -0.201120697217 0.811 8.56624961629e-39
0.0389271835515 -0.200624715227 0.809 8.93576781744e-39
0.0404243829188 -0.200624715227 0.809 9.02722075912e-39
0.0419215822862 -0.200624715227 0.809 9.57932534757e-39
0.0412719939327 -0.190705075413 0.769 1.05906032129e-38
0.0426951661373 -0.190705075413 0.769 7.82506222086e-39
0.0441183383419 -0.190705075413 0.769 1.67643627117e-38
0.0455415105465 -0.190705075413 0.769 1.9805047256e-38
0.0470868275696 -0.191201057404 0.771 1.99909294973e-38
-0.0313097885007 -0.189281903209 0.769 1.57336908756e-38
-0.0298866162961 -0.189281903209 0.769 1.65634515444e-38
-0.0285374712543 -0.189774183841 0.771 1.56436308246e-38
-0.0271809234963 -0.190266464474 0.773 1.70265652726e-38
-0.0257503485754 -0.190266464474 0.773 1.57358404675e-38
-0.0243512351987 -0.19051260479 0.774 1.7305705328e-38
-0.0229188095988 -0.19051260479 0.774 1.41786125165e-38
-0.0214586238128 -0.190266464474 0.773 1.16937263835e-38
-0.019976229878 -0.189774183841 0.771 1.34461524079e-38
-0.0185012386595 -0.189281903209 0.769 1.63967600856e-38
-0.0170780664549 -0.189281903209 0.769 1.46450459208e-38
-0.0156548942503 -0.189281903209 0.769 1.03100506487e-38
-0.0142317220458 -0.189281903209 0.769 1.04080098191e-38
-0.0135414187528 -0.200112077124 0.813 1.05913010596e-38
-0.0120368166691 -0.200112077124 0.813 1.08675404271e-38
-0.0105581240925 -0.200604357757 0.815 1.04080042139e-38
-0.00904982065069 -0.200604357757 0.815 1.07756979245e-38
-0.00756002399961 -0.20109663839 0.817 1.07753475999e-38
-0.00604801919968 -0.20109663839 0.817 1.05909535375e-38
-0.00454711847418 -0.201588919022 0.819 1.01303285154e-38
-0.00303141231612 -0.201588919022 0.819 1.02225241453e-38
-0.00151570615806 -0.201588919022 0.819 9.85374022454e-39
0.0 -0.201588919022 0.819 9.85446469585e-39
0.00151570615806 -0.201588919022 0.819 9.85483603994e-39
0.0030388150324 -0.202081199655 0.821 9.76336908528e-39
0.0045582225486 -0.202081199655 0.821 9.39492988395e-39
0.00609243549736 -0.202573480287 0.823 9.30272864889e-39
0.0076155443717 -0.202573480287 0.823 9.3030817761e-39
0.00916086139487 -0.20306576092 0.825 8.93430626314e-39
0.0106876716274 -0.20306576092 0.825 9.11834439566e-39
0.0122144818598 -0.20306576092 0.825 8.93395593853e-39
0.0137746043156 -0.203558041552 0.827 1.01310501841e-38
0.0152681023248 -0.20306576092 0.825 9.2090980894e-39
0.0167949125573 -0.20306576092 0.825 9.4864108516e-39
0.0182773064921 -0.202573480287 0.823 9.4856807751e-39
0.0197522977106 -0.202081199655 0.821 8.93430626314e-39
0.0212717052268 -0.202081199655 0.821 9.57752608034e-39
0.0227355923709 -0.201588919022 0.819 9.11869752287e-39
0.024251298529 -0.201588919022 0.819 9.3027188398e-39
0.025767004687 -0.201588919022 0.819 9.11941638898e-39
0.0272160863986 -0.20109663839 0.817 9.11941638898e-39
0.0287280911985 -0.20109663839 0.817 8.7506590929e-39
0.0301660688356 -0.200604357757 0.815 9.02721795652e-39
0.0315966437565 -0.200112077124 0.813 9.30272864889e-39
0.0331012458401 -0.200112077124 0.813 9.21126309553e-39
0.0346058479238 -0.200112077124 0.813 9.5803945383e-39
0.0360216174121 -0.199619796492 0.811 9.3038118526e-39
0.0375225181376 -0.199619796492 0.811 9.30383006948e-39
0.0389271835515 -0.199127515859 0.809 9.94774773332e-39
0.0404243829188 -0.199127515859 0.809 1.0132129184e-38
0.0419215822862 -0.199127515859 0.809 9.85303116752e-39
0.0412719939327 -0.189281903209 0.769 7.54564610967e-39
0.0425841253931 -0.188789622576 0.767 1.59328700381e-38
0.0440035962396 -0.188789622576 0.767 2.026251235e-38
0.0455415105465 -0.189281903209 0.769 2.0819258039e-38
0.046964682751 -0.189281903209 0.769 1.6859865406e-38
-0.0328180919425 -0.188347310279 0.771 1.67532350006e-38
-0.0313097885007 -0.187858731004 0.769 1.66613798863e-38
-0.0298866162961 -0.187858731004 0.769 1.67517734463e-38
-0.0285374712543 -0.188347310279 0.771 1.60131672427e-38
-0.0271105976916 -0.188347310279 0.771 1.61971521258e-38
-0.0257503485754 -0.188835889553 0.773 1.64711984613e-38
-0.0243197736545 -0.188835889553 0.773 1.80400081441e-38
-0.0229188095988 -0.18908017919 0.774 1.46356319977e-38
-0.0214586238128 -0.188835889553 0.773 1.33506917527e-38
-0.019976229878 -0.188347310279 0.771 1.20621179407e-38
-0.0185012386595 -0.187858731004 0.769 1.3634132393e-38
-0.0170780664549 -0.187858731004 0.769 1.53836619335e-38
-0.0156548942503 -0.187858731004 0.769 1.51971028651e-38
-0.015009007255 -0.198118895766 0.811 1.13256052769e-38
-0.0135081065295 -0.198118895766 0.811 1.06809841613e-38
-0.0120368166691 -0.198607475041 0.813 1.10501366235e-38
-0.0105581240925 -0.199096054315 0.815 1.0866098491e-38
-0.00907202879953 -0.19958463359 0.817 9.67007203482e-39
-0.00756002399961 -0.19958463359 0.817 1.0406539857e-38
-0.00604801919968 -0.19958463359 0.817 1.04980194234e-38
-0.00454711847418 -0.200073212864 0.819 1.06820505494e-38
-0.00303141231612 -0.200073212864 0.819 1.02214325338e-38
-0.00151570615806 -0.200073212864 0.819 1.02210920183e-38
0.0 -0.200073212864 0.819 9.76193135305e-39
0.00151570615806 -0.200073212864 0.819 9.39457535544e-39
0.0030388150324 -0.200561792138 0.821 8.93504755003e-39
0.0045582225486 -0.200561792138 0.821 8.93395313593e-39
0.00609243549736 -0.201050371413 0.823 8.84247637218e-39
0.00763405116239 -0.201538950687 0.825 9.02650189301e-39
0.00916086139487 -0.201538950687 0.825 8.84173788789e-39
0.0107135811343 -0.202027529962 0.827 9.11906326177e-39
0.0122440927249 -0.202027529962 0.827 8.65808931635e-39
0.0137746043156 -0.202027529962 0.827 9.11832477748e-39
0.0153051159062 -0.202027529962 0.827 9.30131193614e-39
0.0167949125573 -0.201538950687 0.825 9.57787640496e-39
0.0183217227897 -0.201538950687 0.825 9.11869752287e-39
0.0198485330222 -0.201538950687 0.825 9.11869752287e-39
0.0213235242407 -0.201050371413 0.823 9.11834439566e-39
0.022791112743 -0.200561792138 0.821 9.39387190361e-39
0.0243105202592 -0.200561792138 0.821 9.02650189301e-39
0.0258299277754 -0.200561792138 0.821 8.93430626314e-39
0.0273493352916 -0.200561792138 0.821 9.48603109971e-39
0.0287984170032 -0.200073212864 0.819 8.84246376049e-39
0.0302400959984 -0.19958463359 0.817 9.02827453556e-39
0.0316743722774 -0.199096054315 0.815 9.3027188398e-39
0.0331826757192 -0.199096054315 0.815 9.0268704345e-39
0.0346058479238 -0.198607475041 0.813 9.30487123424e-39
0.0361104500074 -0.198607475041 0.813 9.21161482144e-39
0.0375225181376 -0.198118895766 0.811 9.67152097743e-39
0.0389271835515 -0.197630316492 0.809 9.76227186858e-39
0.0404243829188 -0.197630316492 0.809 8.56372868036e-39
0.0419215822862 -0.197630316492 0.809 1.1326661856e-38
0.0411646545467 -0.18737015173 0.767 1.6856968922e-38
0.0425841253931 -0.18737015173 0.767 2.02656946988e-38
0.0440035962396 -0.18737015173 0.767 2.1095119056e-38
0.045423067086 -0.18737015173 0.767 1.62095171835e-38
0.0468425379324 -0.18737015173 0.767 1.89767705623e-38
0.0482620087789 -0.18737015173 0.767 1.85175916802e-38
-0.0328180919425 -0.186920436716 0.771 1.68421740129e-38
-0.0313912183798 -0.186920436716 0.771 1.64744620854e-38
-0.029964344817 -0.186920436716 0.771 1.70275924244e-38
-0.0285374712543 -0.186920436716 0.771 1.63826209841e-38
-0.0271105976916 -0.186920436716 0.771 1.67510321594e-38
-0.0257503485754 -0.187405314632 0.773 1.70258239857e-38
-0.0243197736545 -0.187405314632 0.773 1.66577771479e-38
-0.0229188095988 -0.18764775359 0.774 1.70283799541e-38
-0.0214586238128 -0.187405314632 0.773 1.36236688974e-38
-0.0199244108641 -0.1864355588 0.769 1.22490455506e-38
-0.0185012386595 -0.1864355588 0.769 1.10519569102e-38
-0.0170780664549 -0.1864355588 0.769 1.21601121436e-38
-0.0156548942503 -0.1864355588 0.769 1.39081941428e-38
-0.0142317220458 -0.1864355588 0.769 1.61208360102e-38
-0.0135081065295 -0.196617995041 0.811 1.28893632787e-38
-0.0120368166691 -0.197102872957 0.813 1.1877003611e-38
-0.0105840335994 -0.19807262879 0.817 1.07728462821e-38
-0.00907202879953 -0.19807262879 0.817 1.02221738207e-38
