# .PCD v0.7 - Point Cloud Data file format
VERSION 0.7
FIELDS x y z rgb
SIZE 4 4 4 4
TYPE F F F F
COUNT 1 1 1 1
WIDTH 841
HEIGHT 1
VIEWPOINT 0 0 0 1 0 0 0
POINTS 841
DATA ascii
-0.0289446206497 -0.0936443609254 0.92 1.98011208177e-38
-0.0271827741753 -0.0934407862277 0.918 7.53051068496e-39
-0.0254005702312 -0.0931354241812 0.915 1.14919982592e-38
-0.0237071988825 -0.0931354241812 0.915 1.20469516874e-38
-0.0220138275337 -0.0931354241812 0.915 1.2505052971e-38
-0.020320456185 -0.0931354241812 0.915 1.27823531215e-38
-0.0185863698967 -0.0929318494835 0.913 1.33340835633e-38
-0.016841179534 -0.092626487437 0.91 1.40687675325e-38
-0.0151237493574 -0.0924229127394 0.908 1.45279450133e-38
-0.013413721897 -0.0922193380417 0.906 1.43428390914e-38
-0.0116981423994 -0.0919139759952 0.903 1.58179467484e-38
-0.0100269791995 -0.0919139759952 0.903 1.45326085346e-38
-0.00835581599956 -0.0919139759952 0.903 1.60055637972e-38
-0.00666984736709 -0.0917104012975 0.901 1.51808379938e-38
-0.00500238552532 -0.0917104012975 0.901 1.56432440663e-38
-0.00333492368355 -0.0917104012975 0.901 1.61063676035e-38
-0.00166746184177 -0.0917104012975 0.901 1.73052583138e-38
0.0 -0.0917104012975 0.901 1.8414478534e-38
0.00166746184177 -0.0917104012975 0.901 1.9153217861e-38
0.00333492368355 -0.0917104012975 0.901 1.26944636818e-38
0.00500238552532 -0.0917104012975 0.901 1.96808165419e-38
0.00664763921826 -0.0914050392511 0.898 1.71120010387e-38
0.00830954902282 -0.0914050392511 0.898 1.16631080121e-38
0.00997145882739 -0.0914050392511 0.898 1.15712725159e-38
0.011633368632 -0.0914050392511 0.898 1.43310009219e-38
0.0132952784365 -0.0914050392511 0.898 1.07447530505e-38
0.0149571882411 -0.0914050392511 0.898 1.38955642397e-38
0.0166190980456 -0.0914050392511 0.898 2.94232320112e-39
0.0182810078502 -0.0914050392511 0.898 4.50424690322e-39
0.0199429176548 -0.0914050392511 0.898 1.06629942916e-38
0.0216048274593 -0.0914050392511 0.898 1.39005220337e-38
0.0232667372639 -0.0914050392511 0.898 1.71051094528e-38
0.0251507285568 -0.0922193380417 0.906 1.75754356642e-38
0.026827443794 -0.0922193380417 0.906 1.96972874041e-38
0.0285670821194 -0.0924229127394 0.908 1.80399352765e-38
0.0303141231612 -0.092626487437 0.91 1.83071909197e-38
0.0321037298216 -0.0929318494835 0.913 1.76603963901e-38
0.0337933998122 -0.0929318494835 0.913 1.82135617615e-38
0.0355607983237 -0.0931354241812 0.915 1.84915793768e-38
0.0372541696725 -0.0931354241812 0.915 1.7939848935e-38
0.0389475410212 -0.0931354241812 0.915 1.67449112877e-38
0.040774161263 -0.0934407862277 0.918 2.06142228503e-38
-0.0325256846495 -0.0924414195301 0.925 2.31168872569e-38
-0.03081380651 -0.0924414195301 0.925 2.34867543814e-38
-0.0290390052822 -0.0922415461905 0.923 2.0262822037e-38
-0.0272419959056 -0.0919417361813 0.92 7.80601717343e-39
-0.0254838507894 -0.0917418628417 0.918 9.92612569801e-39
-0.0237849274034 -0.0917418628417 0.918 1.24171635313e-38
-0.0220860040175 -0.0917418628417 0.918 1.24128587424e-38
-0.020320456185 -0.0914420528324 0.915 1.28723949556e-38
-0.0185863698967 -0.0912421794929 0.913 1.33315724364e-38
-0.016841179534 -0.0909423694836 0.91 1.40687675325e-38
-0.0151570615806 -0.0909423694836 0.91 1.40687675325e-38
-0.013413721897 -0.0905426228046 0.906 1.48066800934e-38
-0.0117370066599 -0.0905426228046 0.906 1.49925034802e-38
-0.0100269791995 -0.0902428127953 0.903 1.4991427283e-38
-0.00835581599956 -0.0902428127953 0.903 1.59115759066e-38
-0.00666984736709 -0.0900429394558 0.901 1.54563444823e-38
-0.00500238552532 -0.0900429394558 0.901 1.65659038167e-38
-0.00333492368355 -0.0900429394558 0.901 1.62947021171e-38
-0.00166746184177 -0.0900429394558 0.901 1.70329734105e-38
0.0 -0.0900429394558 0.901 1.11235744721e-38
0.00166746184177 -0.0900429394558 0.901 1.2214120989e-38
0.00333492368355 -0.0900429394558 0.901 1.2214120989e-38
0.00500238552532 -0.0900429394558 0.901 1.37753244237e-38
0.00666984736709 -0.0900429394558 0.901 1.73806201452e-38
0.00833730920887 -0.0900429394558 0.901 1.59130108362e-38
0.00997145882739 -0.0897431294465 0.898 1.74806882698e-38
0.011633368632 -0.0897431294465 0.898 1.54681826517e-38
0.0132952784365 -0.0897431294465 0.898 9.30193131007e-39
0.0149571882411 -0.0897431294465 0.898 1.19493764727e-39
0.0166746184177 -0.0900429394558 0.901 7.17464813734e-43
0.0183420802595 -0.0900429394558 0.901 1.29821768812e-38
0.0200095421013 -0.0900429394558 0.901 1.68281666334e-38
0.0216770039431 -0.0900429394558 0.901 1.08387409411e-38
0.0233962847988 -0.0902428127953 0.903 1.37753244237e-38
0.0251507285568 -0.0905426228046 0.906 1.29488049583e-38
0.026827443794 -0.0905426228046 0.906 2.18824035657e-38
0.0285670821194 -0.0907424961441 0.908 1.93302971453e-38
0.0303141231612 -0.0909423694836 0.91 1.75703545559e-38
0.0321037298216 -0.0912421794929 0.913 1.76603963901e-38
0.0337933998122 -0.0912421794929 0.913 1.83990264158e-38
0.0355607983237 -0.0914420528324 0.915 1.75692783587e-38
0.0372541696725 -0.0914420528324 0.915 1.96000695205e-38
0.039075237877 -0.0917418628417 0.918 1.66584567777e-38
0.040774161263 -0.0917418628417 0.918 2.0710361734e-38
-0.0326311733564 -0.0910237993627 0.928 2.33009450076e-38
-0.0309137431798 -0.0910237993627 0.928 2.34856809868e-38
-0.0291019283706 -0.0907295413906 0.925 2.06319534798e-38
-0.0273308285009 -0.0905333694092 0.923 7.80601717343e-39
-0.0255393711615 -0.0902391114372 0.92 9.64990174473e-39
-0.0238367464174 -0.0902391114372 0.92 1.36146207132e-38
-0.0220860040175 -0.0900429394558 0.918 1.24128587424e-38
-0.020320456185 -0.0897486814837 0.915 1.33340835633e-38
-0.0185863698967 -0.0895525095023 0.913 1.40698437297e-38
-0.0168966999061 -0.0895525095023 0.913 1.48995917868e-38
-0.0151570615806 -0.0892582515302 0.91 1.44396968412e-38
-0.0134433327621 -0.0890620795488 0.908 1.48077562907e-38
-0.0117370066599 -0.0888659075675 0.906 1.48077562907e-38
-0.0100602914227 -0.0888659075675 0.906 1.50825453143e-38
-0.00835581599956 -0.0885716495954 0.903 1.54523984258e-38
-0.00668465279965 -0.0885716495954 0.903 1.50882850328e-38
-0.00501348959974 -0.0885716495954 0.903 1.59201854844e-38
-0.00333492368355 -0.088375477614 0.901 1.62943433847e-38
-0.00166746184177 -0.088375477614 0.901 1.71255277727e-38
0.0 -0.0885716495954 0.903 1.39809271383e-38
0.00167116319991 -0.0885716495954 0.903 1.32243114468e-38
0.00333492368355 -0.088375477614 0.901 1.18467790044e-38
0.00500238552532 -0.088375477614 0.901 1.28569694621e-38
0.00666984736709 -0.088375477614 0.901 2.0611061521e-38
0.00833730920887 -0.088375477614 0.901 1.24929065159e-38
0.0100047710506 -0.088375477614 0.901 1.97752094078e-38
0.0116722328924 -0.088375477614 0.901 1.24153740732e-38
0.0132952784365 -0.0880812196419 0.898 5.87747175411e-39
0.0149571882411 -0.0880812196419 0.898 6.52211388925e-39
0.0166746184177 -0.088375477614 0.901 1.27895866242e-38
0.0183420802595 -0.088375477614 0.901 7.89964633162e-39
0.020053958399 -0.0885716495954 0.903 2.21722887777e-38
0.0217972980826 -0.0888659075675 0.906 1.84076752299e-38
0.0234740133197 -0.0888659075675 0.906 1.83097076517e-38
0.0251507285568 -0.0888659075675 0.906 1.32243114468e-38
0.026827443794 -0.0888659075675 0.906 2.04065546218e-38
0.0285670821194 -0.0890620795488 0.908 1.84065597964e-38
0.0303141231612 -0.0892582515302 0.91 1.72941306027e-38
0.0321037298216 -0.0895525095023 0.913 1.81202913357e-38
0.033867426975 -0.0897486814837 0.915 1.83068321872e-38
0.0355607983237 -0.0897486814837 0.915 1.93231210959e-38
0.0373763144911 -0.0900429394558 0.918 2.05285264427e-38
0.039075237877 -0.0900429394558 0.918 1.61049326739e-38
0.040774161263 -0.0900429394558 0.918 1.93252776942e-38
-0.0327014991611 -0.0894988398093 0.93 2.25633575479e-38
-0.0309803676263 -0.0894988398093 0.93 2.34867599866e-38
-0.0291019283706 -0.0890176632512 0.925 2.03542777813e-38
-0.0273308285009 -0.0888251926279 0.923 7.16316870032e-39
-0.0255393711615 -0.0885364866931 0.92 9.6534890688e-39
-0.0238367464174 -0.0885364866931 0.92 1.39823270354e-38
-0.0220860040175 -0.0883440160698 0.918 1.29685352407e-38
-0.020320456185 -0.0880553101349 0.915 1.37035779423e-38
-0.0186270848362 -0.0880553101349 0.915 1.49921447478e-38
-0.0168966999061 -0.0878628395117 0.913 1.41631141555e-38
-0.0151570615806 -0.0875741335768 0.91 1.44396968412e-38
-0.0134433327621 -0.0873816629536 0.908 1.46233678335e-38
-0.0117629161668 -0.0873816629536 0.908 1.47152033297e-38
-0.0100602914227 -0.0871891923303 0.906 1.49925034802e-38
-0.00838357618561 -0.0871891923303 0.906 1.54556270175e-38
-0.00668465279965 -0.0869004863955 0.903 1.56410916718e-38
-0.00501348959974 -0.0869004863955 0.903 1.64733536583e-38
-0.00334232639983 -0.0869004863955 0.903 1.77701811183e-38
-0.00167116319991 -0.0869004863955 0.903 1.93374872078e-38
0.0 -0.0869004863955 0.903 9.82819595483e-39
0.00167116319991 -0.0869004863955 0.903 1.32243114468e-38
0.00334232639983 -0.0869004863955 0.903 1.33161469429e-38
0.00501348959974 -0.0869004863955 0.903 1.71894157723e-38
0.00668465279965 -0.0869004863955 0.903 1.20304499967e-38
0.00835581599956 -0.0869004863955 0.903 1.29488049583e-38
0.0100047710506 -0.0867080157722 0.901 1.32243114468e-38
0.0116722328924 -0.0867080157722 0.901 2.11660107453e-38
0.0133396947342 -0.0867080157722 0.901 1.34242332974e-38
0.015007156576 -0.0867080157722 0.901 1.18532361877e-38
0.0166746184177 -0.0867080157722 0.901 1.12039305313e-38
0.0183420802595 -0.0867080157722 0.901 1.13876015236e-38
0.020053958399 -0.0869004863955 0.903 1.25814629736e-38
0.0217251215989 -0.0869004863955 0.903 1.29488049583e-38
0.0235258323337 -0.0873816629536 0.908 1.44181728968e-38
0.0252062489289 -0.0873816629536 0.908 1.46936793853e-38
0.0268866655242 -0.0873816629536 0.908 2.12363321061e-38
0.0285670821194 -0.0873816629536 0.908 1.77615589288e-38
0.030414059831 -0.0878628395117 0.913 1.7477801595e-38
0.0321740556262 -0.0880553101349 0.915 1.82135617615e-38
0.033867426975 -0.0880553101349 0.915 1.90468971426e-38
0.0356773911051 -0.0883440160698 0.918 1.95093032151e-38
0.0373763144911 -0.0883440160698 0.918 2.08046859363e-38
0.039075237877 -0.0883440160698 0.918 1.58251213965e-38
0.0408629938583 -0.0885364866931 0.92 2.09822879049e-38
-0.0345336714401 -0.0880608621722 0.933 2.28406675075e-38
-0.0328069878681 -0.0880608621722 0.933 2.31168998686e-38
-0.0309803676263 -0.0877777082745 0.93 2.3489273916e-38
-0.0291019283706 -0.0873057851117 0.925 2.00787670889e-38
-0.0273900502311 -0.0873057851117 0.925 8.44994184376e-39
-0.0256226517196 -0.0871170158466 0.923 7.71992139578e-39
-0.0238367464174 -0.086833861949 0.92 1.31586998501e-38
-0.0220860040175 -0.0866450926839 0.918 1.28774172093e-38
-0.0203870806315 -0.0866450926839 0.918 1.40694849973e-38
-0.0186270848362 -0.0863619387862 0.915 1.44389793764e-38
-0.0169337134875 -0.0863619387862 0.915 1.40719961242e-38
-0.0151570615806 -0.0858900156234 0.91 1.43467851478e-38
-0.0134729436272 -0.0858900156234 0.91 1.46230091011e-38
-0.0117629161668 -0.0857012463583 0.908 1.47144858649e-38
-0.0100824995716 -0.0857012463583 0.908 1.49003092516e-38
-0.00838357618561 -0.0855124770932 0.906 1.57311335059e-38
-0.00670686094849 -0.0855124770932 0.906 1.54563444823e-38
-0.00503014571137 -0.0855124770932 0.906 1.71190761946e-38
-0.00335343047424 -0.0855124770932 0.906 1.61092374628e-38
-0.00167671523712 -0.0855124770932 0.906 1.75833712174e-38
0.0 -0.0855124770932 0.906 1.22141237916e-38
0.00167671523712 -0.0855124770932 0.906 1.31324759506e-38
0.00335343047424 -0.0855124770932 0.906 1.95997191959e-38
0.00503014571137 -0.0855124770932 0.906 1.11192696833e-38
0.00670686094849 -0.0855124770932 0.906 1.2765133966e-38
0.00838357618561 -0.0855124770932 0.906 1.17549435082e-38
0.0100269791995 -0.0852293231956 0.903 1.1020259539e-38
0.0116981423994 -0.0852293231956 0.903 1.12957660274e-38
0.0133693055993 -0.0852293231956 0.903 1.18467790044e-38
0.0150404687992 -0.0852293231956 0.903 1.17549435082e-38
0.0167116319991 -0.0852293231956 0.903 1.09284240428e-38
0.018382795199 -0.0852293231956 0.903 1.08365885466e-38
0.020053958399 -0.0852293231956 0.903 1.07447530505e-38
0.0217251215989 -0.0852293231956 0.903 1.14794370197e-38
0.0235258323337 -0.0857012463583 0.908 1.42345019045e-38
0.0252062489289 -0.0857012463583 0.908 1.37753244237e-38
0.0268866655242 -0.0857012463583 0.908 2.20769290159e-38
0.0285670821194 -0.0857012463583 0.908 1.68421319739e-38
0.030414059831 -0.0861731695211 0.913 1.75678434291e-38
0.0321740556262 -0.0863619387862 0.915 1.7564256105e-38
0.0339784677192 -0.0866450926839 0.918 1.76560916012e-38
0.0356773911051 -0.0866450926839 0.918 2.09837046177e-38
0.0374577443701 -0.086833861949 0.92 1.87724808643e-38
0.0391603691142 -0.086833861949 0.92 1.46187043122e-38
0.0409962427514 -0.0871170158466 0.923 2.34827410626e-38
-0.0345336714401 -0.0863341786002 0.933 2.29314366156e-38
-0.0328069878681 -0.0863341786002 0.933 2.27492159672e-38
-0.0309803676263 -0.0860565767397 0.93 2.34892599031e-38
-0.0291963130031 -0.0858715088327 0.928 1.86036314059e-38
-0.0274788828265 -0.0858715088327 0.928 1.2505052971e-38
-0.0256226517196 -0.0854088390653 0.923 1.09452844659e-38
-0.0239144749383 -0.0854088390653 0.923 1.278809284e-38
-0.0221341216733 -0.0851312372049 0.92 1.29674590434e-38
-0.0203870806315 -0.0849461692979 0.918 1.34259190594e-38
-0.0186270848362 -0.0846685674374 0.915 1.43453502182e-38
-0.0169337134875 -0.0846685674374 0.915 1.44375444468e-38
-0.0152070299155 -0.0844834995305 0.913 1.43475026127e-38
-0.0135173599249 -0.0844834995305 0.913 1.46230091011e-38
-0.0117888256738 -0.08420589767 0.91 1.46226503687e-38
-0.0100824995716 -0.0840208297631 0.908 1.57286223791e-38
-0.00840208297631 -0.0840208297631 0.908 1.51786855994e-38
-0.00672166638105 -0.0840208297631 0.908 1.61946157756e-38
-0.00504124978578 -0.0840208297631 0.908 1.68424865024e-38
-0.00335343047424 -0.0838357618561 0.906 1.68457150941e-38
-0.00167671523712 -0.0838357618561 0.906 1.69390681965e-38
0.0 -0.0838357618561 0.906 1.18467790044e-38
0.00167671523712 -0.0838357618561 0.906 1.24896274775e-38
0.00335343047424 -0.0838357618561 0.906 2.25608141912e-38
0.00503014571137 -0.0838357618561 0.906 1.10295865815e-38
0.00670686094849 -0.0838357618561 0.906 1.34079824391e-38
0.00838357618561 -0.0838357618561 0.906 1.37778355505e-38
0.0100602914227 -0.0838357618561 0.906 1.1020259539e-38
0.0117370066599 -0.0838357618561 0.906 1.11120950351e-38
0.0133693055993 -0.0835581599956 0.903 1.11120950351e-38
0.0150404687992 -0.0835581599956 0.903 1.11120950351e-38
0.0167671523712 -0.0838357618561 0.906 1.08365885466e-38
0.0184438676083 -0.0838357618561 0.906 1.01937400735e-38
0.0201205828455 -0.0838357618561 0.906 1.07447530505e-38
0.0217972980826 -0.0838357618561 0.906 1.05610820582e-38
0.0235258323337 -0.0840208297631 0.908 1.46032844239e-38
0.025261769301 -0.08420589767 0.91 1.37753244237e-38
0.0269458872544 -0.08420589767 0.91 2.02483326109e-38
0.0287243898404 -0.0844834995305 0.913 1.74831825811e-38
0.030414059831 -0.0844834995305 0.913 1.86777614959e-38
0.0321740556262 -0.0846685674374 0.915 1.77518731538e-38
0.0339784677192 -0.0849461692979 0.918 1.96890309535e-38
0.0356773911051 -0.0849461692979 0.918 1.87678033301e-38
0.0373763144911 -0.0849461692979 0.918 1.87674445977e-38
0.0391603691142 -0.0851312372049 0.92 1.53501596898e-38
0.0409962427514 -0.0854088390653 0.923 2.34831082028e-38
-0.0327014991611 -0.0843354452049 0.93 2.293286594e-38
-0.0309803676263 -0.0843354452049 0.93 2.34892613043e-38
-0.0291963130031 -0.0841540786561 0.928 1.86954767111e-38
-0.0274788828265 -0.0841540786561 0.928 1.05689741711e-38
-0.0256226517196 -0.083700662284 0.923 1.30607294692e-38
-0.0239144749383 -0.083700662284 0.923 1.28781346741e-38
-0.0221341216733 -0.0834286124608 0.92 1.3061446934e-38
-0.0204314969292 -0.0834286124608 0.92 1.36131773758e-38
-0.0186881572455 -0.0832472459119 0.918 1.40716373918e-38
-0.0169337134875 -0.0829751960887 0.915 1.43467851478e-38
-0.0152403421387 -0.0829751960887 0.915 1.43467851478e-38
-0.0135173599249 -0.0827938295399 0.913 1.45300974077e-38
-0.0118276899343 -0.0827938295399 0.913 1.56357106857e-38
-0.0101047077204 -0.0825217797166 0.91 1.56389392774e-38
-0.00840208297631 -0.0823404131678 0.908 1.5178326867e-38
-0.00672166638105 -0.0823404131678 0.908 1.62868100042e-38
-0.00504124978578 -0.0823404131678 0.908 1.67510097387e-38
-0.00336083319052 -0.0823404131678 0.908 1.7123373977e-38
-0.00168041659526 -0.0823404131678 0.908 1.62936987874e-38
0.0 -0.082159046619 0.906 1.15712725159e-38
0.00167671523712 -0.082159046619 0.906 1.86620459337e-38
0.00335343047424 -0.082159046619 0.906 1.90610152246e-38
0.00504124978578 -0.0823404131678 0.908 9.18606774914e-39
0.00672166638105 -0.0823404131678 0.908 1.25814629736e-38
0.00840208297631 -0.0823404131678 0.908 1.23977919813e-38
0.0100824995716 -0.0823404131678 0.908 1.11120950351e-38
0.0117629161668 -0.0823404131678 0.908 1.1020259539e-38
0.013413721897 -0.082159046619 0.906 1.13876015236e-38
0.0150904371341 -0.082159046619 0.906 1.1020259539e-38
0.0167671523712 -0.082159046619 0.906 1.06529175543e-38
0.0184438676083 -0.082159046619 0.906 1.00100690812e-38
0.0201649991431 -0.0823404131678 0.908 1.02855755697e-38
0.0218454157384 -0.0823404131678 0.908 1.01937400735e-38
0.0235258323337 -0.0823404131678 0.908 1.80145353406e-38
0.0253450498591 -0.0827938295399 0.913 1.77418440607e-38
0.0270347198498 -0.0827938295399 0.913 1.93295782792e-38
0.0287873129287 -0.0829751960887 0.915 1.78494483685e-38
0.0304806842775 -0.0829751960887 0.915 1.80320431636e-38
0.0322795443332 -0.0832472459119 0.918 1.80313256988e-38
0.0339784677192 -0.0832472459119 0.918 1.87663684004e-38
0.0356773911051 -0.0832472459119 0.918 2.02418347899e-38
0.0373763144911 -0.0832472459119 0.918 1.96890281509e-38
0.0391603691142 -0.0834286124608 0.92 1.47995054453e-38
0.0409962427514 -0.083700662284 0.923 2.34896284445e-38
-0.0326311733564 -0.0824366484794 0.928 2.26559259232e-38
-0.0309137431798 -0.0824366484794 0.928 2.34885592538e-38
-0.0291963130031 -0.0824366484794 0.928 1.92486504903e-38
-0.0273900502311 -0.0821701506934 0.925 7.99004689815e-39
-0.0256781720917 -0.0821701506934 0.925 1.25093577599e-38
-0.0239662939522 -0.0821701506934 0.925 1.2601193256e-38
-0.022206298157 -0.0819924855027 0.923 1.28774172093e-38
-0.0204981213757 -0.0819924855027 0.923 1.39790844308e-38
-0.0187288721851 -0.0817259877167 0.92 1.44389793764e-38
-0.0169892338596 -0.081548322526 0.918 1.50850564412e-38
-0.0152403421387 -0.08128182474 0.915 1.416526655e-38
-0.0135173599249 -0.0811041595493 0.913 1.48077562907e-38
-0.0118276899343 -0.0811041595493 0.913 1.48070388258e-38
-0.0101047077204 -0.0808376617632 0.91 1.51750982753e-38
-0.008420589767 -0.0808376617632 0.91 1.52672925039e-38
-0.00672166638105 -0.0806599965725 0.908 1.65598053658e-38
-0.00504124978578 -0.0806599965725 0.908 1.60120209805e-38
-0.00336083319052 -0.0806599965725 0.908 1.78598558122e-38
-0.00168041659526 -0.0806599965725 0.908 1.54635976031e-38
0.0 -0.0806599965725 0.908 1.07447530505e-38
0.00168041659526 -0.0806599965725 0.908 2.26293446926e-38
0.00336083319052 -0.0806599965725 0.908 1.48197079653e-38
0.00504124978578 -0.0806599965725 0.908 1.40658976733e-38
0.00672166638105 -0.0806599965725 0.908 1.2214120989e-38
0.00840208297631 -0.0806599965725 0.908 1.21222854929e-38
0.0100824995716 -0.0806599965725 0.908 1.12039305313e-38
0.0117629161668 -0.0806599965725 0.908 1.07447530505e-38
0.013413721897 -0.0804823313819 0.906 1.12039305313e-38
0.0150904371341 -0.0804823313819 0.906 1.11120950351e-38
0.0167671523712 -0.0804823313819 0.906 1.09284240428e-38
0.0184438676083 -0.0804823313819 0.906 1.01019045774e-38
0.0201649991431 -0.0806599965725 0.908 1.08365885466e-38
0.0218454157384 -0.0806599965725 0.908 1.00100690812e-38
0.0235258323337 -0.0806599965725 0.908 1.52529726349e-38
0.0253450498591 -0.0811041595493 0.913 2.10767087968e-38
0.0270347198498 -0.0811041595493 0.913 1.83140068354e-38
0.0287873129287 -0.08128182474 0.915 1.78487309037e-38
0.0304806842775 -0.08128182474 0.915 1.78465785092e-38
0.0322795443332 -0.081548322526 0.918 1.84919381092e-38
0.0340524948819 -0.0817259877167 0.92 1.86748916367e-38
0.035755119626 -0.0817259877167 0.92 1.94106518032e-38
0.0375798891887 -0.0819924855027 0.923 1.9873416608e-38
0.0393731972073 -0.0821701506934 0.925 1.52615527853e-38
0.0412183242397 -0.0824366484794 0.928 2.34917682273e-38
0.0430282883699 -0.0826143136701 0.93 2.34874900631e-38
0.0467203931138 -0.0830584766468 0.935 2.34878333812e-38
0.048450778044 -0.0830584766468 0.935 2.34846033883e-38
-0.0326311733564 -0.0807192183028 0.928 2.33016428543e-38
-0.0309137431798 -0.0807192183028 0.928 2.34871145151e-38
-0.0291963130031 -0.0807192183028 0.928 2.00784167643e-38
-0.0273900502311 -0.0804582725539 0.925 9.83716006111e-39
-0.0256781720917 -0.0804582725539 0.925 1.20487453494e-38
-0.0239662939522 -0.0804582725539 0.925 1.28756235473e-38
-0.0222544158128 -0.0804582725539 0.925 1.34280714539e-38
-0.0204981213757 -0.0802843087214 0.923 1.41616792259e-38
-0.0187288721851 -0.0800233629726 0.92 1.43475026127e-38
-0.0169892338596 -0.07984939914 0.918 1.42581782433e-38
-0.0152403421387 -0.0795884533912 0.915 1.4532967267e-38
-0.01354697079 -0.0795884533912 0.915 1.48084737555e-38
-0.0118276899343 -0.0794144895587 0.913 1.48077562907e-38
-0.0101380199437 -0.0794144895587 0.913 1.53602041972e-38
-0.008420589767 -0.0791535438098 0.91 1.53616391269e-38
-0.0067364718136 -0.0791535438098 0.91 1.62821464829e-38
-0.0050523538602 -0.0791535438098 0.91 1.61042152091e-38
-0.0033682359068 -0.0791535438098 0.91 1.78605690731e-38
-0.00168041659526 -0.0789795799773 0.908 1.28784934065e-38
0.0 -0.0789795799773 0.908 1.00100690812e-38
0.00168041659526 -0.0789795799773 0.908 2.17088303301e-38
0.00336083319052 -0.0789795799773 0.908 1.13115502533e-38
0.00504124978578 -0.0789795799773 0.908 1.25814629736e-38
0.00672166638105 -0.0789795799773 0.908 1.37796292126e-38
0.008420589767 -0.0791535438098 0.91 1.31331934154e-38
0.0100824995716 -0.0789795799773 0.908 1.12957660274e-38
0.0117629161668 -0.0789795799773 0.908 1.09284240428e-38
0.0134433327621 -0.0789795799773 0.908 1.1020259539e-38
0.0151237493574 -0.0789795799773 0.908 1.11120950351e-38
0.0168041659526 -0.0789795799773 0.908 1.1020259539e-38
0.0184845825479 -0.0789795799773 0.908 1.08365885466e-38
0.0201649991431 -0.0789795799773 0.908 1.05610820582e-38
0.0218935333942 -0.0791535438098 0.91 1.10202609403e-38
0.0236553798685 -0.0794144895587 0.913 1.77404567752e-38
0.0254005702312 -0.0795884533912 0.915 1.93324481385e-38
0.02709394158 -0.0795884533912 0.915 1.84973190953e-38
0.0287873129287 -0.0795884533912 0.915 1.77536668159e-38
0.0305806209472 -0.07984939914 0.918 1.81213675329e-38
0.0322795443332 -0.07984939914 0.918 1.85837736053e-38
0.0340524948819 -0.0800233629726 0.92 1.94128041976e-38
0.035755119626 -0.0800233629726 0.92 1.94124454652e-38
0.0375798891887 -0.0802843087214 0.923 2.00595987272e-38
0.0393731972073 -0.0804582725539 0.925 1.60923770397e-38
0.0412183242397 -0.0807192183028 0.928 2.34925123168e-38
0.0430282883699 -0.0808931821353 0.93 2.34878572033e-38
0.0448937728721 -0.0811541278841 0.933 2.34881991201e-38
0.0467203931138 -0.0813280917167 0.935 2.34846145986e-38
0.048450778044 -0.0813280917167 0.935 2.34853334648e-38
-0.0327014991611 -0.0791720506005 0.93 2.31154621364e-38
-0.0309803676263 -0.0791720506005 0.93 2.34867908152e-38
-0.0291963130031 -0.0790017881261 0.928 2.03524771127e-38
-0.0273900502311 -0.0787463944145 0.925 1.057327896e-38
-0.0256781720917 -0.0787463944145 0.925 1.25979646644e-38
-0.0239662939522 -0.0787463944145 0.925 1.27837880511e-38
-0.0222544158128 -0.0787463944145 0.925 1.43496550071e-38
-0.0204981213757 -0.0785761319401 0.923 1.37046541395e-38
-0.0187899445944 -0.0785761319401 0.923 1.43475026127e-38
-0.017026247441 -0.0783207382285 0.92 1.40712786594e-38
-0.0152403421387 -0.0778950820425 0.915 1.47144858649e-38
-0.01354697079 -0.0778950820425 0.915 1.47144858649e-38
-0.0118276899343 -0.077724819568 0.913 1.49003092516e-38
-0.0101380199437 -0.077724819568 0.913 1.55427989923e-38
-0.00844834995305 -0.077724819568 0.913 1.54531158906e-38
-0.0067364718136 -0.0774694258564 0.91 1.56360694181e-38
-0.0050523538602 -0.0774694258564 0.91 1.70222114383e-38
-0.0033682359068 -0.0774694258564 0.91 1.85027084892e-38
-0.0016841179534 -0.0774694258564 0.91 1.37071652664e-38
0.0 -0.0774694258564 0.91 8.44886564654e-39
0.0016841179534 -0.0774694258564 0.91 1.94042969146e-38
0.0033682359068 -0.0774694258564 0.91 1.11210633453e-38
0.0050523538602 -0.0774694258564 0.91 1.34079824391e-38
0.0067364718136 -0.0774694258564 0.91 1.23977919813e-38
0.008420589767 -0.0774694258564 0.91 1.30420753841e-38
0.0101047077204 -0.0774694258564 0.91 1.3973033624e-38
0.0117888256738 -0.0774694258564 0.91 1.07497753042e-38
0.0134433327621 -0.077299163382 0.908 1.12039305313e-38
0.0151237493574 -0.077299163382 0.908 1.07447530505e-38
0.0168041659526 -0.077299163382 0.908 1.12957660274e-38
0.0185252974874 -0.0774694258564 0.91 1.11120950351e-38
0.0202094154408 -0.0774694258564 0.91 1.63658236194e-38
0.0218935333942 -0.0774694258564 0.91 1.02012734541e-38
0.0236553798685 -0.077724819568 0.913 2.11706798718e-38
0.0254005702312 -0.0778950820425 0.915 1.69350394634e-38
0.02709394158 -0.0778950820425 0.915 1.79409251322e-38
0.0288816975613 -0.0781504757541 0.918 1.87670858653e-38
0.0305806209472 -0.0781504757541 0.918 1.84887095175e-38
0.0323498701378 -0.0783207382285 0.92 1.93202512366e-38
0.0341635356261 -0.0785761319401 0.923 1.90443860158e-38
0.0359494409284 -0.0787463944145 0.925 1.98759277349e-38
0.0376613190678 -0.0787463944145 0.925 1.50667610884e-38
0.0395008940631 -0.0790017881261 0.928 1.49691858738e-38
0.0412183242397 -0.0790017881261 0.928 2.34914585403e-38
0.0430282883699 -0.0791720506005 0.93 2.34860523309e-38
0.0448937728721 -0.0794274443121 0.933 2.34853180505e-38
0.0467203931138 -0.0795977067866 0.935 2.34878375851e-38
0.048450778044 -0.0795977067866 0.935 2.34863942477e-38
-0.0327014991611 -0.0774509190657 0.93 2.29307149469e-38
-0.0309803676263 -0.0774509190657 0.93 2.34871397385e-38
-0.0291963130031 -0.0772843579495 0.928 1.87851345895e-38
-0.0273900502311 -0.0770345162751 0.925 1.27866579104e-38
-0.0256781720917 -0.0770345162751 0.925 1.26933874846e-38
-0.0239662939522 -0.0770345162751 0.925 1.34262777918e-38
-0.0222544158128 -0.0770345162751 0.925 1.37042954071e-38
-0.0205425376733 -0.0770345162751 0.925 1.37968483681e-38
-0.0187899445944 -0.0768679551588 0.923 1.41638316203e-38
-0.017026247441 -0.0766181134844 0.92 1.44379031792e-38
-0.0152903104736 -0.0764515523681 0.918 1.51736633457e-38
-0.01354697079 -0.0762017106937 0.915 1.49003092516e-38
-0.0118535994412 -0.0762017106937 0.915 1.5453474623e-38
-0.0101602280925 -0.0762017106937 0.915 1.53605629296e-38
-0.00844834995305 -0.0760351495774 0.913 1.58208166077e-38
-0.00675867996244 -0.0760351495774 0.913 1.59140870334e-38
-0.00506900997183 -0.0760351495774 0.913 1.59158806955e-38
-0.00337933998122 -0.0760351495774 0.913 1.86856704245e-38
-0.0016841179534 -0.075785307903 0.91 1.61999967617e-38
0.0 -0.075785307903 0.91 8.6350477657e-39
0.0016841179534 -0.075785307903 0.91 1.89415391163e-38
0.0033682359068 -0.075785307903 0.91 1.02895216262e-38
0.0050523538602 -0.075785307903 0.91 1.30406404544e-38
0.0067364718136 -0.075785307903 0.91 1.16631080121e-38
0.008420589767 -0.075785307903 0.91 1.17549435082e-38
0.0101047077204 -0.075785307903 0.91 1.11120950351e-38
0.0117888256738 -0.075785307903 0.91 1.20308087291e-38
0.0134729436272 -0.075785307903 0.91 1.34226904677e-38
0.0151570615806 -0.075785307903 0.91 1.34262777918e-38
0.016841179534 -0.075785307903 0.91 1.33355184929e-38
0.0185252974874 -0.075785307903 0.91 1.16631080121e-38
0.0202760398873 -0.0760351495774 0.913 1.21222854929e-38
0.0219657098779 -0.0760351495774 0.913 1.74774792963e-38
0.0236553798685 -0.0760351495774 0.913 1.88750643197e-38
0.0254005702312 -0.0762017106937 0.915 1.69314521393e-38
0.02709394158 -0.0762017106937 0.915 1.85844910702e-38
0.0288816975613 -0.0764515523681 0.918 1.85855672674e-38
0.0305806209472 -0.0764515523681 0.918 1.86738154395e-38
0.0323498701378 -0.0766181134844 0.92 1.91344278499e-38
0.0341635356261 -0.0768679551588 0.923 2.00578050652e-38
0.0359494409284 -0.0770345162751 0.925 1.39633002049e-38
0.0376613190678 -0.0770345162751 0.925 2.34636946139e-38
0.0395008940631 -0.0772843579495 0.928 1.36034916008e-38
0.0412183242397 -0.0772843579495 0.928 2.34946689151e-38
0.0431670893001 -0.0777007607401 0.933 2.33012925296e-38
0.0448937728721 -0.0777007607401 0.933 2.34846089934e-38
0.0467203931138 -0.0778673218564 0.935 2.34874956683e-38
0.048450778044 -0.0778673218564 0.935 2.34867515788e-38
-0.0328069878681 -0.0759740771681 0.933 2.27463222858e-38
-0.0310803042961 -0.0759740771681 0.933 2.34871229229e-38
-0.0291963130031 -0.0755669277728 0.928 1.943159561e-38
-0.0273900502311 -0.0753226381356 0.925 1.31565194296e-38
-0.0256781720917 -0.0753226381356 0.925 1.30632405961e-38
-0.0239662939522 -0.0753226381356 0.925 1.39787256984e-38
-0.0222544158128 -0.0753226381356 0.925 1.37964896357e-38
-0.0205425376733 -0.0753226381356 0.925 1.39823130225e-38
-0.0188306595339 -0.0753226381356 0.925 1.42567433137e-38
-0.0170817678131 -0.0751597783775 0.923 1.46244440308e-38
-0.0152903104736 -0.0747526289822 0.918 1.48084737555e-38
-0.01354697079 -0.074508339345 0.915 1.46233678335e-38
-0.0118535994412 -0.074508339345 0.915 1.49910685506e-38
-0.0101602280925 -0.074508339345 0.915 1.53605629296e-38
-0.00846685674374 -0.074508339345 0.915 1.61913871839e-38
-0.00675867996244 -0.0743454795868 0.913 1.61924633812e-38
-0.00506900997183 -0.0743454795868 0.913 1.55481799784e-38
-0.00337933998122 -0.0743454795868 0.913 1.7393140747e-38
-0.00168966999061 -0.0743454795868 0.913 1.79509696396e-38
0.0 -0.0743454795868 0.913 1.1124291937e-38
0.00168966999061 -0.0743454795868 0.913 1.25814629736e-38
0.00337933998122 -0.0743454795868 0.913 1.35087862454e-38
0.00506900997183 -0.0743454795868 0.913 1.24896274775e-38
0.00675867996244 -0.0743454795868 0.913 1.20304499967e-38
0.00844834995305 -0.0743454795868 0.913 1.14794370197e-38
0.0101047077204 -0.0741011899496 0.91 1.12957660274e-38
0.0117888256738 -0.0741011899496 0.91 1.15712725159e-38
0.0134729436272 -0.0741011899496 0.91 1.14794370197e-38
0.0151570615806 -0.0741011899496 0.91 1.11120950351e-38
0.0168966999061 -0.0743454795868 0.913 1.07447530505e-38
0.0185863698967 -0.0743454795868 0.913 1.11120950351e-38
0.0202760398873 -0.0743454795868 0.913 1.73716714532e-38
0.0219657098779 -0.0743454795868 0.913 1.96083385827e-38
0.0237071988825 -0.074508339345 0.915 1.67492160766e-38
0.0254005702312 -0.074508339345 0.915 1.76661361086e-38
0.0271827741753 -0.0747526289822 0.918 1.84922968416e-38
0.0288816975613 -0.0747526289822 0.918 1.81238786597e-38
0.0305806209472 -0.0747526289822 0.918 1.90422336213e-38
0.0323498701378 -0.0749154887403 0.92 2.07017297355e-38
0.0341635356261 -0.0751597783775 0.923 1.40537007714e-38
0.0359494409284 -0.0753226381356 0.925 1.98404272396e-38
0.0376613190678 -0.0753226381356 0.925 2.07972324297e-38
0.0395008940631 -0.0755669277728 0.928 1.70146780577e-38
0.0412183242397 -0.0755669277728 0.928 2.34964765901e-38
0.0431670893001 -0.0759740771681 0.933 2.31172501932e-38
0.0448937728721 -0.0759740771681 0.933 2.3486034114e-38
0.0466204564441 -0.0759740771681 0.933 2.34856837894e-38
-0.0328069878681 -0.0742473935961 0.933 2.28385347313e-38
-0.0310803042961 -0.0742473935961 0.933 2.34889179862e-38
-0.0291963130031 -0.0738494975962 0.928 1.97085580476e-38
-0.0273900502311 -0.0736107599962 0.925 9.92827809246e-39
-0.0256781720917 -0.0736107599962 0.925 1.41663427472e-38
-0.0239662939522 -0.0736107599962 0.925 1.39815955576e-38
-0.0223265922965 -0.0738494975962 0.928 1.37060890692e-38
-0.0205425376733 -0.0736107599962 0.925 1.39823130225e-38
-0.0188306595339 -0.0736107599962 0.925 1.45322498022e-38
-0.0170817678131 -0.0734516015962 0.923 1.46233678335e-38
-0.0152903104736 -0.0730537055962 0.918 1.50832627791e-38
-0.0135913870877 -0.0730537055962 0.918 1.4991427283e-38
-0.0118535994412 -0.0728149679962 0.915 1.52680099687e-38
-0.0101602280925 -0.0728149679962 0.915 1.56371456153e-38
-0.00846685674374 -0.0728149679962 0.915 1.5546027584e-38
-0.00675867996244 -0.0726558095962 0.913 1.56364281505e-38
-0.00506900997183 -0.0726558095962 0.913 1.60984754906e-38
-0.00337933998122 -0.0726558095962 0.913 1.68388991783e-38
-0.00168966999061 -0.0726558095962 0.913 1.76733107567e-38
0.0 -0.0726558095962 0.913 1.52769782788e-38
0.00169337134875 -0.0728149679962 0.915 1.18467790044e-38
0.0033867426975 -0.0728149679962 0.915 1.29495238244e-38
0.00508011404625 -0.0728149679962 0.915 1.24896274775e-38
0.006773485395 -0.0728149679962 0.915 1.18467790044e-38
0.00844834995305 -0.0726558095962 0.913 1.16631080121e-38
0.0101380199437 -0.0726558095962 0.913 1.17549435082e-38
0.0118276899343 -0.0726558095962 0.913 1.15712725159e-38
0.0135173599249 -0.0726558095962 0.913 1.15712725159e-38
0.0152070299155 -0.0726558095962 0.913 1.21222854929e-38
0.0168966999061 -0.0726558095962 0.913 1.02855755697e-38
0.0185863698967 -0.0726558095962 0.913 1.29488049583e-38
0.020320456185 -0.0728149679962 0.915 2.08941728562e-38
0.0220138275337 -0.0728149679962 0.915 1.65680562112e-38
0.0237071988825 -0.0728149679962 0.915 1.74828238487e-38
0.0254838507894 -0.0730537055962 0.918 1.80331193608e-38
0.0271827741753 -0.0730537055962 0.918 1.8400102613e-38
0.0289446206497 -0.0732128639962 0.92 1.82164316207e-38
0.0306472453938 -0.0732128639962 0.92 1.91351453147e-38
0.0324553588448 -0.0734516015962 0.923 1.72873146869e-38
0.0342375627889 -0.0736107599962 0.925 1.70814022854e-38
0.0359494409284 -0.0736107599962 0.925 2.12219183501e-38
0.0377834638864 -0.0738494975962 0.928 2.26443596057e-38
0.0395008940631 -0.0738494975962 0.928 1.74774428626e-38
0.0412183242397 -0.0738494975962 0.928 2.34906836223e-38
0.0431670893001 -0.0742473935961 0.933 2.34856837894e-38
0.0448937728721 -0.0742473935961 0.933 2.34871159164e-38
0.0466204564441 -0.0742473935961 0.933 2.34846272103e-38
-0.0328069878681 -0.0725207100241 0.933 2.2838519317e-38
-0.0310803042961 -0.0725207100241 0.933 2.34889179862e-38
-0.0292592360915 -0.0722875244614 0.93 1.8511088254e-38
-0.0274788828265 -0.0721320674195 0.928 1.03892492353e-38
-0.0256781720917 -0.0718988818567 0.925 1.4074507251e-38
-0.0239662939522 -0.0718988818567 0.925 1.39812368252e-38
-0.0223265922965 -0.0721320674195 0.928 1.39823130225e-38
-0.0205425376733 -0.0718988818567 0.925 1.41641903527e-38
-0.0188306595339 -0.0718988818567 0.925 1.47152033297e-38
-0.0170817678131 -0.0717434248149 0.923 1.48077562907e-38
-0.0153735910318 -0.0717434248149 0.923 1.51750982753e-38
-0.0135913870877 -0.0713547822102 0.918 1.52662163066e-38
-0.0118924637017 -0.0713547822102 0.918 1.50829040467e-38
-0.0101935403157 -0.0713547822102 0.918 1.55435164571e-38
-0.00846685674374 -0.0711215966475 0.915 1.56371456153e-38
-0.006773485395 -0.0711215966475 0.915 1.55438751896e-38
-0.00508011404625 -0.0711215966475 0.915 1.5913728301e-38
-0.0033867426975 -0.0711215966475 0.915 1.58215340725e-38
-0.00169337134875 -0.0711215966475 0.915 1.69300172097e-38
0.0 -0.0711215966475 0.915 1.89637020528e-38
0.00169337134875 -0.0711215966475 0.915 1.10299453139e-38
0.0033867426975 -0.0711215966475 0.915 1.24896274775e-38
0.00508011404625 -0.0711215966475 0.915 1.24896274775e-38
0.006773485395 -0.0711215966475 0.915 1.15712725159e-38
0.00846685674374 -0.0711215966475 0.915 1.18467790044e-38
0.0101380199437 -0.0709661396056 0.913 1.19386145005e-38
0.0118276899343 -0.0709661396056 0.913 1.20304499967e-38
0.0135173599249 -0.0709661396056 0.913 1.14794370197e-38
0.0152070299155 -0.0709661396056 0.913 1.14794370197e-38
0.0168966999061 -0.0709661396056 0.913 1.16631080121e-38
0.0186270848362 -0.0711215966475 0.915 2.09016655991e-38
0.020320456185 -0.0711215966475 0.915 1.77676573797e-38
0.0220138275337 -0.0711215966475 0.915 1.71158405964e-38
0.0237071988825 -0.0711215966475 0.915 1.77561779427e-38
0.0254838507894 -0.0713547822102 0.918 1.81235199273e-38
0.0271827741753 -0.0713547822102 0.918 1.95067920882e-38
0.0289446206497 -0.0715102392521 0.92 1.83071909197e-38
0.0307471820635 -0.0717434248149 0.923 1.99663283014e-38
0.0325256846495 -0.0718988818567 0.925 1.42362955665e-38
0.0342375627889 -0.0718988818567 0.925 1.93798078227e-38
0.0360660337097 -0.0721320674195 0.928 2.04911664243e-38
0.0377834638864 -0.0721320674195 0.928 1.54341030731e-38
0.0395860253003 -0.0722875244614 0.93 2.02268268833e-38
0.0413071568351 -0.0722875244614 0.93 2.34907172535e-38
0.0431670893001 -0.0725207100241 0.933 2.34853320635e-38
0.0449900081837 -0.072676167066 0.935 2.34849579168e-38
0.0467203931138 -0.072676167066 0.935 2.34899703614e-38
-0.0310803042961 -0.0707940264521 0.933 2.34896340497e-38
-0.0293536207241 -0.0707940264521 0.933 1.8418535293e-38
-0.0275381045567 -0.0705663929266 0.93 1.10342501028e-38
-0.0257614526498 -0.0704146372428 0.928 1.42628445672e-38
-0.0240440224732 -0.0704146372428 0.928 1.38908362587e-38
-0.0223265922965 -0.0704146372428 0.928 1.40716373918e-38
-0.0206091621199 -0.0704146372428 0.928 1.45322498022e-38
-0.0188306595339 -0.0701870037173 0.925 1.4440414306e-38
-0.0171187813945 -0.0701870037173 0.925 1.46233678335e-38
-0.0153735910318 -0.0700352480336 0.923 1.50825453143e-38
-0.0136209979528 -0.069807614508 0.92 1.52690861659e-38
-0.0118924637017 -0.0696558588243 0.918 1.55438751896e-38
-0.0101935403157 -0.0696558588243 0.918 1.5451680961e-38
-0.00846685674374 -0.0694282252987 0.915 1.56382218126e-38
-0.006773485395 -0.0694282252987 0.915 1.56382218126e-38
-0.00508011404625 -0.0694282252987 0.915 1.57304160411e-38
-0.0033867426975 -0.0694282252987 0.915 1.61895935219e-38
-0.00169337134875 -0.0694282252987 0.915 1.66519995944e-38
0.0 -0.0694282252987 0.915 1.72076760926e-38
0.00169337134875 -0.0694282252987 0.915 1.84090709232e-38
0.0033867426975 -0.0694282252987 0.915 1.27823531215e-38
0.00508011404625 -0.0694282252987 0.915 1.28569932842e-38
0.006773485395 -0.0694282252987 0.915 1.18467790044e-38
0.00846685674374 -0.0694282252987 0.915 1.19386145005e-38
0.0101380199437 -0.069276469615 0.913 1.24896274775e-38
0.0118276899343 -0.069276469615 0.913 1.18467790044e-38
0.01354697079 -0.0694282252987 0.915 1.12039305313e-38
0.0152403421387 -0.0694282252987 0.915 1.01019045774e-38
0.0169337134875 -0.0694282252987 0.915 2.08865722133e-38
0.0186270848362 -0.0694282252987 0.915 1.67546447069e-38
0.020320456185 -0.0694282252987 0.915 1.70232876355e-38
0.0220860040175 -0.0696558588243 0.918 1.72959242647e-38
0.0237849274034 -0.0696558588243 0.918 1.75699958235e-38
0.0254838507894 -0.0696558588243 0.918 1.80313256988e-38
0.0272419959056 -0.069807614508 0.92 1.83071909197e-38
0.0290390052822 -0.0700352480336 0.923 1.90440272834e-38
0.03081380651 -0.0701870037173 0.925 1.32304098977e-38
0.0325256846495 -0.0701870037173 0.925 1.77242507585e-38
0.0343486035331 -0.0704146372428 0.928 1.99372709765e-38
0.0360660337097 -0.0704146372428 0.928 1.74609411719e-38
0.0378648937655 -0.0705663929266 0.93 1.24957259284e-38
0.0395860253003 -0.0705663929266 0.93 2.21744565864e-38
0.0413071568351 -0.0705663929266 0.93 2.34921437753e-38
0.0432596232536 -0.0709457821358 0.935 2.34864110633e-38
0.0449900081837 -0.0709457821358 0.935 2.3484587974e-38
-0.0310803042961 -0.0690673428801 0.933 2.34889151836e-38
-0.0293536207241 -0.0690673428801 0.933 1.84181821658e-38
-0.0275381045567 -0.0688452613918 0.93 1.15870567418e-38
-0.0258169730219 -0.0688452613918 0.93 1.43547094907e-38
-0.0240958414871 -0.0688452613918 0.93 1.37057303368e-38
-0.0223265922965 -0.0686972070662 0.928 1.39823130225e-38
-0.0206091621199 -0.0686972070662 0.928 1.44418492357e-38
-0.0188917319432 -0.0686972070662 0.928 1.4532967267e-38
-0.0171187813945 -0.0684751255778 0.925 1.48077562907e-38
-0.0153735910318 -0.0683270712523 0.923 1.49925034802e-38
-0.0136654142505 -0.0683270712523 0.923 1.52690861659e-38
-0.0119183732087 -0.0681049897639 0.92 1.57289811115e-38
-0.0101935403157 -0.0679569354383 0.918 1.54531158906e-38
-0.00849461692979 -0.0679569354383 0.918 1.56371456153e-38
-0.00679569354383 -0.0679569354383 0.918 1.53627153241e-38
-0.00509677015787 -0.0679569354383 0.918 1.58236864669e-38
-0.00339784677192 -0.0679569354383 0.918 1.60973992933e-38
-0.00169337134875 -0.06773485395 0.915 1.64654587428e-38
0.0 -0.06773485395 0.915 1.65587291686e-38
0.00169337134875 -0.06773485395 0.915 1.60073574592e-38
0.0033867426975 -0.06773485395 0.915 1.82232475364e-38
0.00508011404625 -0.06773485395 0.915 1.70265162271e-38
0.006773485395 -0.06773485395 0.915 1.09309351696e-38
0.00846685674374 -0.06773485395 0.915 1.17549435082e-38
0.0101380199437 -0.0675867996244 0.913 1.15712725159e-38
0.0118276899343 -0.0675867996244 0.913 1.11120950351e-38
0.01354697079 -0.06773485395 0.915 1.09284240428e-38
0.0152403421387 -0.06773485395 0.915 1.76575769776e-38
0.0169337134875 -0.06773485395 0.915 1.94258194578e-38
0.0186270848362 -0.06773485395 0.915 1.65655450843e-38
0.0203870806315 -0.0679569354383 0.918 1.67427588933e-38
0.0220860040175 -0.0679569354383 0.918 1.78462197768e-38
0.0237849274034 -0.0679569354383 0.918 1.84008200778e-38
0.0255393711615 -0.0681049897639 0.92 1.83097020465e-38
0.0273308285009 -0.0683270712523 0.923 1.85844910702e-38
0.0290390052822 -0.0683270712523 0.923 1.94167516554e-38
0.03081380651 -0.0684751255778 0.925 1.52446923622e-38
0.0326311733564 -0.0686972070662 0.928 1.87344412162e-38
0.0343486035331 -0.0686972070662 0.928 1.84682617703e-38
0.0361437622307 -0.0688452613918 0.93 1.19404109652e-38
0.0378648937655 -0.0688452613918 0.93 1.49067818492e-38
0.0397137221561 -0.0690673428801 0.933 2.3469568857e-38
0.0414404057281 -0.0690673428801 0.933 2.3486034114e-38
0.0432596232536 -0.0692153972057 0.935 2.34838957325e-38
0.0449900081837 -0.0692153972057 0.935 2.34849691272e-38
-0.0310803042961 -0.0673406593081 0.933 2.34903711327e-38
-0.0293536207241 -0.0673406593081 0.933 1.88787945762e-38
-0.027626937152 -0.0673406593081 0.933 1.17735975934e-38
-0.0258169730219 -0.067124129857 0.93 1.38004356922e-38
-0.0240958414871 -0.067124129857 0.93 1.39819542901e-38
-0.0223747099523 -0.067124129857 0.93 1.44418492357e-38
-0.0206091621199 -0.0669797768895 0.928 1.45318910698e-38
-0.0188917319432 -0.0669797768895 0.928 1.47155620621e-38
-0.0171187813945 -0.0667632474384 0.925 1.46251614956e-38
-0.0153735910318 -0.0666188944709 0.923 1.48099086851e-38
-0.0136654142505 -0.0666188944709 0.923 1.51779681345e-38
-0.0119572374691 -0.0666188944709 0.923 1.52680099687e-38
-0.0102490606878 -0.0666188944709 0.923 1.57286223791e-38
-0.00849461692979 -0.0662580120524 0.918 1.56382218126e-38
-0.00679569354383 -0.0662580120524 0.918 1.56382218126e-38
-0.00509677015787 -0.0662580120524 0.918 1.57311335059e-38
-0.00339784677192 -0.0662580120524 0.918 1.63743407115e-38
-0.00169892338596 -0.0662580120524 0.918 1.62825052153e-38
0.0 -0.0662580120524 0.918 1.646653494e-38
0.00169337134875 -0.0660414826012 0.915 1.67424001609e-38
0.0033867426975 -0.0660414826012 0.915 1.71108183427e-38
0.00508011404625 -0.0660414826012 0.915 1.75775292041e-38
0.006773485395 -0.0660414826012 0.915 1.88704007984e-38
0.00846685674374 -0.0660414826012 0.915 1.49042553081e-38
0.0101602280925 -0.0660414826012 0.915 1.45318910698e-38
0.0118535994412 -0.0660414826012 0.915 1.61928221136e-38
0.01354697079 -0.0660414826012 0.915 1.88739895238e-38
0.0152403421387 -0.0660414826012 0.915 1.8504524572e-38
0.0169337134875 -0.0660414826012 0.915 1.73016639832e-38
0.0186881572455 -0.0662580120524 0.918 1.65605228306e-38
0.0203870806315 -0.0662580120524 0.918 1.7387042296e-38
0.0220860040175 -0.0662580120524 0.918 1.78465785092e-38
0.0238367464174 -0.0664023650198 0.92 1.78465785092e-38
0.0256226517196 -0.0666188944709 0.923 1.86770440311e-38
0.0273308285009 -0.0666188944709 0.923 1.91372977091e-38
0.0291019283706 -0.0667632474384 0.925 1.3323321591e-38
0.03081380651 -0.0667632474384 0.925 1.68977312931e-38
0.0326311733564 -0.0669797768895 0.928 1.85572442228e-38
0.0343486035331 -0.0669797768895 0.928 1.49806653108e-38
0.0361437622307 -0.067124129857 0.93 1.58269458871e-38
0.0379870385841 -0.0673406593081 0.933 1.37093400816e-38
0.0397988533933 -0.0674850122756 0.935 2.31979299523e-38
0.0415292383234 -0.0674850122756 0.935 2.34896508653e-38
0.0433984241838 -0.0677015417267 0.938 2.3486757184e-38
0.0451343611511 -0.0677015417267 0.938 2.3486409662e-38
-0.0311469287426 -0.0657546273454 0.935 2.34860495283e-38
-0.0294165438124 -0.0657546273454 0.935 1.80490142893e-38
-0.027626937152 -0.0656139757361 0.933 1.121863856e-38
-0.0258169730219 -0.0654029983222 0.93 1.39862590789e-38
-0.0240958414871 -0.0654029983222 0.93 1.39833892197e-38
-0.0223747099523 -0.0654029983222 0.93 1.38915537235e-38
-0.0206091621199 -0.0652623467129 0.928 1.4900667984e-38
-0.0188917319432 -0.0652623467129 0.928 1.44400555736e-38
-0.0171187813945 -0.0650513692989 0.925 1.49010267164e-38
-0.015406903255 -0.0650513692989 0.925 1.52687274335e-38
-0.0136950251156 -0.0650513692989 0.925 1.49925034802e-38
-0.0119572374691 -0.0649107176896 0.923 1.60059225296e-38
-0.0102490606878 -0.0649107176896 0.923 1.58208166077e-38
-0.00854088390653 -0.0649107176896 0.923 1.6006281262e-38
-0.00681049897639 -0.0646997402757 0.92 1.5546027584e-38
-0.00510787423229 -0.0646997402757 0.92 1.58215340725e-38
-0.00339784677192 -0.0645590886664 0.918 1.59130108362e-38
-0.00169892338596 -0.0645590886664 0.918 1.61895935219e-38
0.0 -0.0645590886664 0.918 1.67416826961e-38
0.00169892338596 -0.0645590886664 0.918 1.70179066494e-38
0.00339784677192 -0.0645590886664 0.918 1.71104596103e-38
0.00509677015787 -0.0645590886664 0.918 1.6559087901e-38
0.00679569354383 -0.0645590886664 0.918 1.74860524403e-38
0.00846685674374 -0.0643481112525 0.915 1.83201052863e-38
0.0101602280925 -0.0643481112525 0.915 1.89658236187e-38
0.0118535994412 -0.0643481112525 0.915 1.78595223031e-38
0.01354697079 -0.0643481112525 0.915 1.73034576452e-38
0.0152903104736 -0.0645590886664 0.918 1.78537531574e-38
0.0169892338596 -0.0645590886664 0.918 1.70204177762e-38
0.0187288721851 -0.0646997402757 0.92 1.73884772257e-38
0.0204314969292 -0.0646997402757 0.92 1.75710720208e-38
0.022206298157 -0.0649107176896 0.923 1.78465785092e-38
0.0239144749383 -0.0649107176896 0.923 1.81213675329e-38
0.0256226517196 -0.0649107176896 0.923 1.9965969569e-38
0.0273900502311 -0.0650513692989 0.925 1.38707472439e-38
0.0291019283706 -0.0650513692989 0.925 1.66222248046e-38
0.0309137431798 -0.0652623467129 0.928 1.38671599199e-38
0.0326311733564 -0.0652623467129 0.928 2.10755499229e-38
0.0343486035331 -0.0652623467129 0.928 1.56415372847e-38
0.0362603550121 -0.0656139757361 0.933 1.96063403311e-38
0.0379870385841 -0.0656139757361 0.933 1.81375945691e-38
0.0397988533933 -0.0657546273454 0.935 2.24639200076e-38
0.0415292383234 -0.0657546273454 0.935 2.34863942477e-38
0.0432596232536 -0.0657546273454 0.935 2.34853124453e-38
-0.0294165438124 -0.0640242424153 0.935 1.78628419792e-38
-0.0276861588823 -0.0640242424153 0.935 1.14008746226e-38
-0.02590025358 -0.0638872921641 0.933 1.39855416141e-38
-0.024173570008 -0.0638872921641 0.933 1.39837479521e-38
-0.0223747099523 -0.0636818667874 0.93 1.42599719054e-38
-0.0206091621199 -0.0635449165362 0.928 1.4532967267e-38
-0.0188917319432 -0.0635449165362 0.928 1.47155620621e-38
-0.0171743017665 -0.0635449165362 0.928 1.49925034802e-38
-0.015406903255 -0.0633394911595 0.925 1.52690861659e-38
-0.0136950251156 -0.0633394911595 0.925 1.49013854489e-38
-0.0119831469761 -0.0633394911595 0.925 1.57286223791e-38
-0.0102712688367 -0.0633394911595 0.925 1.56360694181e-38
-0.00854088390653 -0.0632025409083 0.923 1.5546027584e-38
-0.00683270712523 -0.0632025409083 0.923 1.56382218126e-38
-0.00510787423229 -0.0629971155316 0.92 1.60984754906e-38
-0.00340524948819 -0.0629971155316 0.92 1.63750581763e-38
-0.00169892338596 -0.0628601652804 0.918 1.68345943895e-38
0.0 -0.0628601652804 0.918 1.67416826961e-38
0.00169892338596 -0.0628601652804 0.918 1.77565366751e-38
0.00339784677192 -0.0628601652804 0.918 1.71115358076e-38
0.00509677015787 -0.0628601652804 0.918 1.72955655323e-38
0.00679569354383 -0.0628601652804 0.918 1.73881184933e-38
