# .PCD v0.7 - Point Cloud Data file format
VERSION 0.7
FIELDS x y z rgb
SIZE 4 4 4 4
TYPE F F F F
COUNT 1 1 1 1
WIDTH 855
HEIGHT 1
VIEWPOINT 0 0 0 1 0 0 0
POINTS 855
DATA ascii
0.0314985577658 -0.203165697589 0.851 1.84192415475e-38
0.0331900784355 -0.203881910389 0.854 1.69430366737e-38
0.034770558361 -0.203881910389 0.854 1.85986147574e-38
0.0363510382865 -0.203881910389 0.854 1.72221627161e-38
-0.0329957571332 -0.201116995859 0.849 1.131774119e-38
-0.0313505034402 -0.200643222017 0.847 1.03136253611e-38
-0.0297829782682 -0.200643222017 0.847 1.03128826729e-38
-0.0281488286497 -0.200169448176 0.845 1.20610193227e-38
-0.0265220817475 -0.199695674334 0.843 1.17847925668e-38
-0.0249619592917 -0.199695674334 0.843 1.27985899668e-38
-0.023401836836 -0.199695674334 0.843 1.27978682981e-38
-0.0217898953663 -0.199221900492 0.841 1.30740824423e-38
-0.0202334742687 -0.199221900492 0.841 1.36272562215e-38
-0.0186770531711 -0.199221900492 0.841 1.34446628277e-38
-0.0171206320735 -0.199221900492 0.841 1.36283352213e-38
-0.0155642109759 -0.199221900492 0.841 1.38112971566e-38
-0.0140077898783 -0.199221900492 0.841 1.43637520696e-38
-0.0124513687807 -0.199221900492 0.841 1.43623073309e-38
-0.0108949476832 -0.199221900492 0.841 1.45481363229e-38
-0.00933852658556 -0.199221900492 0.841 1.50091186761e-38
-0.00778210548797 -0.199221900492 0.841 1.50109333576e-38
-0.00622568439037 -0.199221900492 0.841 1.52856985592e-38
-0.00466926329278 -0.199221900492 0.841 1.61172612978e-38
-0.00311284219519 -0.199221900492 0.841 1.55647965756e-38
-0.00167671523712 -0.214619550352 0.906 1.47361317223e-38
0.0 -0.214619550352 0.906 1.63023812327e-38
0.00167671523712 -0.214619550352 0.906 1.60257873366e-38
0.00335343047424 -0.214619550352 0.906 1.56570090211e-38
0.00465815921836 -0.19874812665 0.839 1.61197822337e-38
0.00621087895782 -0.19874812665 0.839 1.59357398973e-38
0.00776359869727 -0.19874812665 0.839 1.63949271872e-38
0.00929411028789 -0.198274352808 0.837 1.68544507887e-38
0.0108431286692 -0.198274352808 0.837 1.65764373773e-38
0.0123921470505 -0.198274352808 0.837 1.68541032667e-38
0.0139744776551 -0.19874812665 0.839 1.59321511719e-38
0.0155271973945 -0.19874812665 0.839 1.64860298043e-38
0.0171206320735 -0.199221900492 0.841 1.65782268354e-38
0.0186770531711 -0.199221900492 0.841 1.65767905045e-38
0.0202334742687 -0.199221900492 0.841 1.73136366773e-38
0.0217898953663 -0.199221900492 0.841 1.72203466333e-38
0.0233463164639 -0.199221900492 0.841 1.70366966605e-38
0.0249619592917 -0.199695674334 0.843 1.76820688721e-38
0.0265850048358 -0.200169448176 0.845 1.81430246007e-38
0.0282154530962 -0.200643222017 0.847 1.66664694023e-38
0.0298533040729 -0.201116995859 0.849 1.63888119207e-38
0.0314985577658 -0.201590769701 0.851 1.77724498205e-38
0.0330734856541 -0.201590769701 0.851 1.84185324904e-38
0.034770558361 -0.202301430464 0.854 1.86933243167e-38
0.0363510382865 -0.202301430464 0.854 1.6576074441e-38
-0.0330734856541 -0.200015841813 0.851 1.01231538673e-38
-0.0313505034402 -0.199075696845 0.847 4.77544580022e-39
-0.0297829782682 -0.199075696845 0.847 1.13252563536e-38
-0.0281488286497 -0.198605624362 0.845 1.16011173706e-38
-0.0265220817475 -0.198135551878 0.843 1.23394138873e-38
-0.0249619592917 -0.198135551878 0.843 1.22457693148e-38
-0.023401836836 -0.198135551878 0.843 1.27971648463e-38
-0.0218417143803 -0.198135551878 0.843 1.2705319541e-38
-0.0202334742687 -0.197665479394 0.841 1.37212539212e-38
-0.0186770531711 -0.197665479394 0.841 1.31662808747e-38
-0.0171206320735 -0.197665479394 0.841 1.39020606594e-38
-0.0155642109759 -0.197665479394 0.841 1.41800740708e-38
-0.0140077898783 -0.197665479394 0.841 1.528644405e-38
-0.0124513687807 -0.197665479394 0.841 1.49186984914e-38
-0.0108949476832 -0.197665479394 0.841 1.4917992237e-38
-0.00933852658556 -0.197665479394 0.841 1.51945833304e-38
-0.00778210548797 -0.197665479394 0.841 1.42737046303e-38
-0.00621087895782 -0.197195406911 0.839 1.52878383419e-38
-0.00465815921836 -0.197195406911 0.839 1.51960112536e-38
-0.00310543947891 -0.197195406911 0.839 1.51031065667e-38
-0.00155271973945 -0.197195406911 0.839 1.51045414963e-38
0.0 -0.197195406911 0.839 1.57459550398e-38
0.00155271973945 -0.197195406911 0.839 1.55622952579e-38
0.00310543947891 -0.197195406911 0.839 1.60221944074e-38
0.00465815921836 -0.197195406911 0.839 1.54733170093e-38
0.00621087895782 -0.197195406911 0.839 1.55651440976e-38
0.00776359869727 -0.197195406911 0.839 1.5564793773e-38
0.00929411028789 -0.196725334427 0.837 1.60243229797e-38
0.0108431286692 -0.196725334427 0.837 1.62994819462e-38
0.0123921470505 -0.196725334427 0.837 1.61165200109e-38
0.0139744776551 -0.197195406911 0.839 1.54700772072e-38
0.0155271973945 -0.197195406911 0.839 1.62991120034e-38
0.0171206320735 -0.197665479394 0.841 1.60261250496e-38
0.0186770531711 -0.197665479394 0.841 1.66689861344e-38
0.0202334742687 -0.197665479394 0.841 1.75894976943e-38
0.0217898953663 -0.197665479394 0.841 1.62065632463e-38
0.023401836836 -0.198135551878 0.843 1.71281762268e-38
0.025021181022 -0.198605624362 0.845 1.60218188594e-38
0.0265850048358 -0.198605624362 0.845 1.66653609752e-38
0.0282154530962 -0.199075696845 0.847 1.63906111879e-38
0.0298533040729 -0.199545769329 0.849 1.75877026309e-38
0.0314985577658 -0.200015841813 0.851 1.79554089532e-38
0.0330734856541 -0.200015841813 0.851 1.74040344412e-38
0.034770558361 -0.200720950538 0.854 1.94297977441e-38
0.0363510382865 -0.200720950538 0.854 1.52842215906e-38
0.037931518212 -0.200720950538 0.854 1.38091069271e-38
-0.0365213007609 -0.200073212864 0.858 0.0
-0.0349334181191 -0.200073212864 0.858 0.0
-0.0330734856541 -0.198440913925 0.851 1.03075549361e-38
-0.031424530603 -0.197974542799 0.849 4.68540396609e-39
-0.0298533040729 -0.197974542799 0.849 1.20563403871e-38
-0.0282154530962 -0.197508171673 0.847 1.12312656604e-38
-0.0265220817475 -0.196575429422 0.843 1.24305151031e-38
-0.0249619592917 -0.196575429422 0.843 1.29836832771e-38
-0.023401836836 -0.196575429422 0.843 1.25209282813e-38
-0.0218417143803 -0.196575429422 0.843 1.30748013084e-38
-0.0202334742687 -0.196109058297 0.841 1.32595470966e-38
-0.0186770531711 -0.196109058297 0.841 1.34436090512e-38
-0.0171206320735 -0.196109058297 0.841 1.36276317695e-38
-0.0155642109759 -0.196109058297 0.841 1.3995339493e-38
-0.0140077898783 -0.196109058297 0.841 1.40896819121e-38
-0.0124513687807 -0.196109058297 0.841 1.41818719368e-38
-0.0108949476832 -0.196109058297 0.841 1.42737046303e-38
-0.00933852658556 -0.196109058297 0.841 1.49176447149e-38
-0.00778210548797 -0.196109058297 0.841 1.51020331721e-38
-0.00621087895782 -0.195642687171 0.839 1.51020387773e-38
-0.00465815921836 -0.195642687171 0.839 1.5840307268e-38
-0.00309803676263 -0.195176316046 0.837 1.5287500629e-38
-0.00154901838131 -0.195176316046 0.837 1.54729638821e-38
0.0 -0.195642687171 0.839 1.59328700381e-38
0.00155271973945 -0.195642687171 0.839 1.59311001981e-38
0.00310543947891 -0.195642687171 0.839 1.5564446251e-38
0.00465815921836 -0.195642687171 0.839 1.55647965756e-38
0.00621087895782 -0.195642687171 0.839 1.60239726551e-38
0.00776359869727 -0.195642687171 0.839 1.60229034644e-38
0.00931631843672 -0.195642687171 0.839 1.6115469037e-38
0.0108431286692 -0.195176316046 0.837 1.60229034644e-38
0.0123921470505 -0.195176316046 0.837 1.74058323071e-38
0.0139744776551 -0.195642687171 0.839 1.64831697541e-38
0.0155271973945 -0.195642687171 0.839 1.62987616788e-38
0.0171206320735 -0.196109058297 0.841 1.51953021966e-38
0.0186770531711 -0.196109058297 0.841 1.54700828124e-38
0.0202334742687 -0.196109058297 0.841 1.56523258816e-38
0.0218417143803 -0.196575429422 0.843 1.64803012961e-38
0.023401836836 -0.196575429422 0.843 1.71281734242e-38
0.025021181022 -0.197041800548 0.845 1.62994847488e-38
0.0266479279242 -0.197508171673 0.847 1.70359749918e-38
0.0282154530962 -0.197508171673 0.847 1.7127820297e-38
0.0298533040729 -0.197974542799 0.849 1.74040344412e-38
0.0314985577658 -0.198440913925 0.851 1.80479450986e-38
0.0331900784355 -0.199140470613 0.854 1.89698915881e-38
0.034770558361 -0.199140470613 0.854 1.62929799213e-38
0.0363510382865 -0.199140470613 0.854 1.37969212356e-38
0.037931518212 -0.199140470613 0.854 1.50987709492e-38
-0.0365213007609 -0.198485330222 0.858 0.0
-0.0349334181191 -0.198485330222 0.858 0.0
-0.0331900784355 -0.197559990687 0.854 1.16908397087e-38
-0.0314985577658 -0.196865986036 0.851 4.87015115563e-39
-0.0298533040729 -0.196403316269 0.849 1.20595970048e-38
-0.0282154530962 -0.195940646501 0.847 1.16000285617e-38
-0.0265850048358 -0.195477976734 0.845 1.21546274614e-38
-0.025021181022 -0.195477976734 0.845 1.25230610575e-38
-0.0234573572081 -0.195477976734 0.845 1.26134770384e-38
-0.0218417143803 -0.195015306967 0.843 1.31673514668e-38
-0.0202815919245 -0.195015306967 0.843 1.32599002238e-38
-0.0187214694688 -0.195015306967 0.843 1.33506735358e-38
-0.0171613470131 -0.195015306967 0.843 1.37187483995e-38
-0.0156012245573 -0.195015306967 0.843 1.41811586758e-38
-0.0140077898783 -0.194552637199 0.841 1.3997480677e-38
-0.0124513687807 -0.194552637199 0.841 1.44577371576e-38
-0.0108949476832 -0.194552637199 0.841 1.46403291501e-38
-0.00931631843672 -0.194089967432 0.839 1.49172761734e-38
-0.00776359869727 -0.194089967432 0.839 1.49169230462e-38
-0.00621087895782 -0.194089967432 0.839 1.48268784095e-38
-0.00465815921836 -0.194089967432 0.839 1.54708156915e-38
-0.00309803676263 -0.193627297664 0.837 1.5010583033e-38
-0.00154901838131 -0.193627297664 0.837 1.5380415125e-38
0.0 -0.193627297664 0.837 1.54718918887e-38
0.00154901838131 -0.193627297664 0.837 1.55640931238e-38
0.00309803676263 -0.193627297664 0.837 1.54718974939e-38
0.00464705514394 -0.193627297664 0.837 1.5287500629e-38
0.00621087895782 -0.194089967432 0.839 1.56548384097e-38
0.00776359869727 -0.194089967432 0.839 1.67611887707e-38
0.00931631843672 -0.194089967432 0.839 1.54726009458e-38
0.0108690381762 -0.194089967432 0.839 1.63924062513e-38
0.0124217579156 -0.194089967432 0.839 1.55629987097e-38
0.0139744776551 -0.194089967432 0.839 1.59307022293e-38
0.0155642109759 -0.194552637199 0.841 1.58392100513e-38
0.0171206320735 -0.194552637199 0.841 1.55644434484e-38
0.0187214694688 -0.195015306967 0.843 1.56570090211e-38
0.0202815919245 -0.195015306967 0.843 1.64831543398e-38
0.0218417143803 -0.195015306967 0.843 1.67604628981e-38
0.023401836836 -0.195015306967 0.843 1.71274433477e-38
0.025021181022 -0.195477976734 0.845 1.74965860009e-38
0.0266479279242 -0.195940646501 0.847 1.75894878852e-38
0.0282154530962 -0.195940646501 0.847 1.78661098072e-38
0.0299236298775 -0.196865986036 0.851 1.78653489022e-38
0.0314985577658 -0.196865986036 0.851 1.9429078878e-38
0.0331900784355 -0.197559990687 0.854 1.92446806118e-38
0.034770558361 -0.197559990687 0.854 1.51848387009e-38
0.0363510382865 -0.197559990687 0.854 1.69318108717e-38
0.037931518212 -0.197559990687 0.854 1.56522796388e-38
-0.0349334181191 -0.19689744758 0.858 0.0
-0.0331900784355 -0.195979510762 0.854 1.16908397087e-38
-0.0314985577658 -0.195291058148 0.851 3.489748854e-39
-0.0299236298775 -0.195291058148 0.851 1.13252591562e-38
-0.0282820775427 -0.194832089739 0.849 1.11390307942e-38
-0.0266479279242 -0.194373121329 0.847 1.22461196394e-38
-0.0250804027522 -0.194373121329 0.847 1.23386697978e-38
-0.0234573572081 -0.19391415292 0.845 1.24290815747e-38
-0.0218935333942 -0.19391415292 0.845 1.27957173049e-38
-0.0203297095803 -0.19391415292 0.845 1.39953422956e-38
-0.0187214694688 -0.193455184511 0.843 1.3442143293e-38
-0.0171613470131 -0.193455184511 0.843 1.40868120528e-38
-0.0156012245573 -0.193455184511 0.843 1.38123705512e-38
-0.0140077898783 -0.192996216102 0.841 1.42726228279e-38
-0.0124513687807 -0.192996216102 0.841 1.39967618109e-38
-0.0108949476832 -0.192996216102 0.841 1.45491929019e-38
-0.00931631843672 -0.192537247692 0.839 1.46403291501e-38
-0.00776359869727 -0.192537247692 0.839 1.57474053837e-38
-0.00621087895782 -0.192537247692 0.839 1.46424871498e-38
-0.00465815921836 -0.192537247692 0.839 1.52857041644e-38
-0.00309803676263 -0.192078279283 0.837 1.49172887851e-38
-0.00154901838131 -0.192078279283 0.837 1.54718946913e-38
0.0 -0.192078279283 0.837 1.5564446251e-38
0.00154901838131 -0.192078279283 0.837 1.54718974939e-38
0.00309803676263 -0.192078279283 0.837 1.4919076842e-38
0.00464705514394 -0.192078279283 0.837 1.52871348901e-38
0.00621087895782 -0.192537247692 0.839 1.53807682522e-38
0.00776359869727 -0.192537247692 0.839 1.5380415125e-38
0.00931631843672 -0.192537247692 0.839 1.55644406458e-38
0.0108690381762 -0.192537247692 0.839 1.54722632328e-38
0.0124217579156 -0.192537247692 0.839 1.61176172276e-38
0.0140077898783 -0.192996216102 0.841 1.60261348586e-38
0.0155642109759 -0.192996216102 0.841 1.54726009458e-38
0.0171206320735 -0.192996216102 0.841 1.55626455825e-38
0.0187214694688 -0.193455184511 0.843 1.63927621811e-38
0.0202815919245 -0.193455184511 0.843 1.62994847488e-38
0.0218417143803 -0.193455184511 0.843 1.64838760085e-38
0.0234573572081 -0.19391415292 0.845 1.73111227478e-38
0.025021181022 -0.19391415292 0.845 1.74958545231e-38
0.0266479279242 -0.194373121329 0.847 1.7403291753e-38
0.0282820775427 -0.194832089739 0.849 1.88791294866e-38
0.0299236298775 -0.195291058148 0.851 8.08833957763e-39
0.0314985577658 -0.195291058148 0.851 1.60002444682e-38
0.0331900784355 -0.195979510762 0.854 1.79345141918e-38
0.034770558361 -0.195979510762 0.854 2.05307503034e-38
0.0363510382865 -0.195979510762 0.854 1.65717402248e-38
0.0380203508073 -0.196438479171 0.856 1.50062249948e-38
-0.0349334181191 -0.195309564939 0.858 0.0
-0.0331900784355 -0.194399030836 0.854 1.10458332359e-38
-0.03160959851 -0.194399030836 0.854 3.03057137321e-39
-0.0299236298775 -0.19371613026 0.851 1.08660788728e-38
-0.0282820775427 -0.193260863209 0.849 1.16018068094e-38
-0.0266479279242 -0.192805596157 0.847 1.18773385213e-38
-0.0250804027522 -0.192805596157 0.847 1.22439658437e-38
-0.0235128775802 -0.192805596157 0.847 1.24283655112e-38
-0.0218935333942 -0.192350329106 0.845 1.34414398412e-38
-0.0203297095803 -0.192350329106 0.845 1.30730258632e-38
-0.0187658857665 -0.192350329106 0.845 1.35332851464e-38
-0.0172020619526 -0.192350329106 0.845 1.37187357878e-38
-0.0156012245573 -0.191895062055 0.843 1.4088963046e-38
-0.0140411021016 -0.191895062055 0.843 1.37205084304e-38
-0.0124809796459 -0.191895062055 0.843 1.40896819121e-38
-0.0108949476832 -0.191439795004 0.841 1.46417626785e-38
-0.00933852658556 -0.191439795004 0.841 1.46403347553e-38
-0.00778210548797 -0.191439795004 0.841 1.56544908877e-38
-0.00621087895782 -0.190984527953 0.839 1.51027422291e-38
-0.00465815921836 -0.190984527953 0.839 1.54708128889e-38
-0.00309803676263 -0.190529260902 0.837 1.47346827796e-38
-0.00154901838131 -0.190529260902 0.837 1.60250810822e-38
0.0 -0.190984527953 0.839 1.59335861016e-38
0.00155271973945 -0.190984527953 0.839 1.58414325107e-38
0.00310543947891 -0.190984527953 0.839 1.68559179482e-38
0.00465815921836 -0.190984527953 0.839 1.63030790793e-38
0.00621087895782 -0.190984527953 0.839 1.63959935753e-38
0.00776359869727 -0.190984527953 0.839 1.61197822337e-38
0.00931631843672 -0.190984527953 0.839 1.64878444858e-38
0.0108690381762 -0.190984527953 0.839 1.64878542949e-38
0.0124217579156 -0.190984527953 0.839 1.57520885232e-38
0.0140077898783 -0.191439795004 0.841 1.54751316908e-38
0.0155642109759 -0.191439795004 0.841 1.67611859681e-38
0.0171613470131 -0.191895062055 0.843 1.62991120034e-38
0.0187214694688 -0.191895062055 0.843 1.6300560946e-38
0.0202815919245 -0.191895062055 0.843 1.70384791121e-38
0.0218417143803 -0.191895062055 0.843 1.70366994631e-38
0.0234573572081 -0.192350329106 0.845 1.88754370651e-38
0.025021181022 -0.192350329106 0.845 1.87830214314e-38
0.0266479279242 -0.192805596157 0.847 1.63859000225e-38
0.0282820775427 -0.193260863209 0.849 1.97027875005e-38
0.0299236298775 -0.19371613026 0.851 1.32519969005e-38
0.03160959851 -0.194399030836 0.854 1.59937256278e-38
0.0331900784355 -0.194399030836 0.854 1.80205959564e-38
0.034770558361 -0.194399030836 0.854 2.13630192964e-38
0.0364361695237 -0.194854297888 0.856 1.20548550108e-38
0.0381091834027 -0.195309564939 0.858 1.52849796931e-38
-0.0350148479982 -0.19417324799 0.86 0.0
-0.0332678069564 -0.193270116604 0.856 1.13227802592e-38
-0.0316836256728 -0.193270116604 0.856 1.28569694621e-39
-0.0300291185845 -0.192818550911 0.854 1.07735273132e-38
-0.0283487019892 -0.192141202371 0.851 1.14167092953e-38
-0.0267108510126 -0.191689636678 0.849 1.27070977888e-38
-0.0250804027522 -0.191238070985 0.847 1.32595330837e-38
-0.0235128775802 -0.191238070985 0.847 1.30755047602e-38
-0.0219453524082 -0.191238070985 0.847 1.27985745525e-38
-0.0203297095803 -0.190786505292 0.845 1.26134770384e-38
-0.0187658857665 -0.190786505292 0.845 1.3351763746e-38
-0.0172020619526 -0.190786505292 0.845 1.36279568707e-38
-0.0156382381387 -0.190786505292 0.845 1.41815061979e-38
-0.0140411021016 -0.190334939599 0.843 1.42737018277e-38
-0.0124809796459 -0.190334939599 0.843 1.39034941877e-38
-0.0108949476832 -0.189883373906 0.841 1.49172761734e-38
-0.00933852658556 -0.189883373906 0.841 1.48254462825e-38
-0.00778210548797 -0.189883373906 0.841 1.54701122397e-38
-0.00622568439037 -0.189883373906 0.841 1.52871376927e-38
-0.00466926329278 -0.189883373906 0.841 1.53789956096e-38
-0.00310543947891 -0.189431808213 0.839 1.51027534395e-38
-0.00155271973945 -0.189431808213 0.839 1.63023784301e-38
0.0 -0.189883373906 0.841 7.54455029427e-39
0.00155271973945 -0.189431808213 0.839 8.74232977483e-39
0.00310543947891 -0.189431808213 0.839 8.92492597122e-39
0.00465815921836 -0.189431808213 0.839 7.72712547119e-39
0.00621087895782 -0.189431808213 0.839 8.1877392829e-39
0.00776359869727 -0.189431808213 0.839 5.88143602747e-39
0.00931631843672 -0.189431808213 0.839 5.78781667836e-39
0.0108690381762 -0.189431808213 0.839 4.68361030406e-39
0.0124217579156 -0.189431808213 0.839 1.01019045774e-39
0.0140077898783 -0.189883373906 0.841 1.73162178691e-38
0.0155642109759 -0.189883373906 0.841 1.73136534929e-38
0.0171613470131 -0.190334939599 0.843 7.25643912611e-39
0.0187214694688 -0.190334939599 0.843 1.74008156586e-38
0.0202815919245 -0.190334939599 0.843 1.81383428625e-38
0.0218417143803 -0.190334939599 0.843 1.09399034798e-38
0.0234573572081 -0.190786505292 0.845 1.80184463646e-38
0.025021181022 -0.190786505292 0.845 1.25850502977e-38
0.0266479279242 -0.191238070985 0.847 1.48934933359e-38
0.0282820775427 -0.191689636678 0.849 2.1442245909e-38
0.0299236298775 -0.192141202371 0.851 1.60185846625e-38
0.03160959851 -0.192818550911 0.854 1.99804533899e-38
0.0331900784355 -0.192818550911 0.854 2.09956787131e-38
0.03485198824 -0.193270116604 0.856 1.82301979768e-38
0.0364361695237 -0.193270116604 0.856 1.37997182274e-38
0.0381091834027 -0.193721682297 0.858 1.58385065995e-38
-0.0350148479982 -0.19258166399 0.86 0.0
-0.0333455354773 -0.192133799655 0.858 1.08628895175e-38
-0.0317576528356 -0.192133799655 0.858 3.30607786169e-39
-0.0300994443891 -0.19168593532 0.856 1.23368705306e-38
-0.0283487019892 -0.190566274483 0.851 1.13260004431e-38
-0.0267108510126 -0.190118410148 0.849 1.17855114329e-38
-0.0251396244824 -0.190118410148 0.849 1.2890772985e-38
-0.0235128775802 -0.189670545813 0.847 1.26145336174e-38
-0.0219453524082 -0.189670545813 0.847 1.28886318009e-38
-0.0203778272361 -0.189670545813 0.847 1.31659445631e-38
-0.0188103020641 -0.189670545813 0.847 1.37201945395e-38
-0.0172020619526 -0.189222681479 0.845 1.36283380239e-38
-0.0156382381387 -0.189222681479 0.845 1.42730011785e-38
-0.0140411021016 -0.188774817144 0.843 1.42722753059e-38
-0.0124809796459 -0.188774817144 0.843 1.43637674839e-38
-0.0109208571901 -0.188774817144 0.843 1.45477677814e-38
-0.0093607347344 -0.188774817144 0.843 1.51041911717e-38
-0.00780061227866 -0.188774817144 0.843 1.49197915042e-38
-0.00622568439037 -0.188326952809 0.841 1.51027366239e-38
-0.00466926329278 -0.188326952809 0.841 1.56555628811e-38
-0.00310543947891 -0.187879088474 0.839 1.51034624965e-38
-0.00155271973945 -0.187879088474 0.839 1.73165261547e-38
0.0 -0.188326952809 0.841 9.1835496158e-40
0.00155642109759 -0.188326952809 0.841 2.75506488474e-40
0.00311284219519 -0.188326952809 0.841 1.34486285023e-38
0.00466926329278 -0.188326952809 0.841 1.15106621534e-38
0.00622568439037 -0.188326952809 0.841 1.20642142832e-38
0.00778210548797 -0.188326952809 0.841 1.17897853932e-38
0.00933852658556 -0.188326952809 0.841 1.38170396777e-38
0.0108949476832 -0.188326952809 0.841 1.46936793853e-39
0.0124513687807 -0.188326952809 0.841 0.0
0.0140411021016 -0.188774817144 0.843 1.81481043076e-38
0.0156012245573 -0.188774817144 0.843 1.55623078696e-38
0.0171613470131 -0.188774817144 0.843 9.64524663123e-39
0.0187214694688 -0.188774817144 0.843 1.01937484813e-38
0.0202815919245 -0.188774817144 0.843 1.58951022418e-38
0.0218935333942 -0.189222681479 0.845 1.57225239282e-38
0.0234573572081 -0.189222681479 0.845 1.64658174752e-38
0.025021181022 -0.189222681479 0.845 1.75753768096e-38
0.0266479279242 -0.189670545813 0.847 1.95184200629e-38
0.0282820775427 -0.190118410148 0.849 1.93361797963e-38
0.0300291185845 -0.191238070985 0.854 1.97060567298e-38
0.0316836256728 -0.19168593532 0.856 1.94319935788e-38
0.0332678069564 -0.19168593532 0.856 1.61968746687e-38
0.0349334181191 -0.192133799655 0.858 1.76564629453e-38
0.0365213007609 -0.192133799655 0.858 1.70248052417e-38
0.038198015998 -0.19258166399 0.86 1.48229281491e-38
0.0397895999979 -0.19258166399 0.86 1.6023253789e-38
-0.0350148479982 -0.19099007999 0.86 1.83670992316e-40
-0.0333455354773 -0.190545917013 0.858 1.04040791769e-38
-0.0317576528356 -0.190545917013 0.858 4.13403225674e-39
-0.0300994443891 -0.190101754037 0.856 1.18709121665e-38
-0.028448638659 -0.18965759106 0.854 1.12334488834e-38
-0.0267737741009 -0.188991346595 0.851 1.1970974686e-38
-0.0251396244824 -0.188547183618 0.849 1.24301591733e-38
-0.0235683979523 -0.188547183618 0.849 1.25219848603e-38
-0.0219453524082 -0.188103020641 0.847 1.35336354711e-38
-0.0203778272361 -0.188103020641 0.847 1.31662808747e-38
-0.0188103020641 -0.188103020641 0.847 1.32577716515e-38
-0.0172427768921 -0.188103020641 0.847 1.39956659955e-38
-0.0156382381387 -0.187658857665 0.845 1.41800740708e-38
-0.0140744143248 -0.187658857665 0.845 1.39971275498e-38
-0.0124809796459 -0.187214694688 0.843 1.4088963046e-38
-0.0109208571901 -0.187214694688 0.843 1.52871475018e-38
-0.0093607347344 -0.187214694688 0.843 1.43669736548e-38
-0.00780061227866 -0.187214694688 0.843 1.48257994097e-38
-0.00622568439037 -0.186770531711 0.841 1.56562453134e-38
-0.00466926329278 -0.186770531711 0.841 1.49194271666e-38
-0.00311284219519 -0.186770531711 0.841 1.54711688187e-38
-0.00155642109759 -0.186770531711 0.841 1.71321390989e-38
0.0 -0.186770531711 0.841 2.20405190779e-39
0.00155642109759 -0.186770531711 0.841 3.67341984632e-40
0.00311284219519 -0.186770531711 0.841 1.75023635545e-38
0.00466926329278 -0.186770531711 0.841 1.5564460264e-38
0.00622568439037 -0.186770531711 0.841 1.39070857157e-38
0.00780061227866 -0.187214694688 0.843 1.26145742551e-38
0.0093607347344 -0.187214694688 0.843 1.74090594975e-38
0.0109208571901 -0.187214694688 0.843 2.38772290011e-39
0.0124809796459 -0.187214694688 0.843 3.67341984632e-40
0.0140411021016 -0.187214694688 0.843 1.75967325982e-38
0.0156012245573 -0.187214694688 0.843 9.4762822663e-39
0.0172020619526 -0.187658857665 0.845 1.72970537113e-38
0.0187658857665 -0.187658857665 0.845 1.62011934706e-38
0.0203297095803 -0.187658857665 0.845 1.83202356071e-38
0.0218935333942 -0.187658857665 0.845 2.00737602495e-38
0.0234573572081 -0.187658857665 0.845 1.93386937257e-38
0.0250804027522 -0.188103020641 0.847 1.93390762802e-38
0.0267108510126 -0.188547183618 0.849 1.50937514981e-38
0.0283487019892 -0.188991346595 0.851 1.4902545724e-38
0.0300994443891 -0.190101754037 0.856 1.84072940767e-38
0.0317576528356 -0.190545917013 0.858 1.14962974429e-38
0.0334232639983 -0.19099007999 0.86 1.67302130682e-38
0.0350148479982 -0.19099007999 0.86 2.20941033299e-38
0.0366064319981 -0.19099007999 0.86 1.47314051425e-38
0.038198015998 -0.19099007999 0.86 1.57456075178e-38
0.0397895999979 -0.19099007999 0.86 1.57463109696e-38
-0.0349334181191 -0.188958034372 0.858 2.38772290011e-39
-0.0333455354773 -0.188958034372 0.858 1.06734886158e-38
-0.0317576528356 -0.188958034372 0.858 8.83773157558e-39
-0.0300994443891 -0.188517572753 0.856 1.08671508661e-38
-0.028448638659 -0.188077111134 0.854 1.12323376537e-38
-0.0267737741009 -0.187416418707 0.851 1.2153573685e-38
-0.0251396244824 -0.186975957088 0.849 1.23376132188e-38
-0.0235683979523 -0.186975957088 0.849 1.3073719506e-38
-0.0219971714221 -0.186975957088 0.849 1.32584540838e-38
-0.020425944892 -0.186975957088 0.849 1.29829826278e-38
-0.0188103020641 -0.186535495469 0.847 1.34435908343e-38
-0.0172427768921 -0.186535495469 0.847 1.35357864642e-38
-0.0156382381387 -0.186095033851 0.845 1.41807831279e-38
-0.0140744143248 -0.186095033851 0.845 1.3903847315e-38
-0.012510590511 -0.186095033851 0.845 1.4180079676e-38
-0.0109208571901 -0.185654572232 0.843 1.4271909567e-38
-0.0093607347344 -0.185654572232 0.843 1.528499791e-38
-0.00780061227866 -0.185654572232 0.843 1.51031065667e-38
-0.00624048982293 -0.185654572232 0.843 1.52878537562e-38
-0.00466926329278 -0.185214110614 0.841 1.53797144758e-38
-0.00311284219519 -0.185214110614 0.841 1.55647965756e-38
-0.00155642109759 -0.185214110614 0.841 1.76853100755e-38
0.0 -0.185214110614 0.841 1.83670992316e-39
0.00155642109759 -0.185214110614 0.841 0.0
0.00311284219519 -0.185214110614 0.841 1.80566345503e-38
0.00466926329278 -0.185214110614 0.841 1.6581112109e-38
0.00624048982293 -0.185654572232 0.843 1.46464654361e-38
0.00780061227866 -0.185654572232 0.843 1.46478961619e-38
0.0093607347344 -0.185654572232 0.843 1.71346600348e-38
0.0109208571901 -0.185654572232 0.843 2.8469003809e-39
0.0124809796459 -0.185654572232 0.843 8.26519465422e-40
0.0140411021016 -0.185654572232 0.843 1.79662143656e-38
0.0156382381387 -0.186095033851 0.845 1.68537319226e-38
0.0172020619526 -0.186095033851 0.845 1.63002078188e-38
0.0187658857665 -0.186095033851 0.845 1.72224976265e-38
0.0203297095803 -0.186095033851 0.845 1.22368080112e-38
0.0218935333942 -0.186095033851 0.845 1.73945994987e-38
0.0235128775802 -0.186535495469 0.847 1.47191493862e-38
0.0251396244824 -0.186975957088 0.849 1.57304160411e-38
0.0267737741009 -0.187416418707 0.851 1.30413579192e-38
0.028448638659 -0.188077111134 0.854 2.13548202991e-38
0.0300994443891 -0.188517572753 0.856 1.92475812996e-38
0.0318316799983 -0.18939849599 0.86 1.20487845858e-38
0.0335009925192 -0.189838957609 0.862 2.15391863354e-38
0.0350962778772 -0.189838957609 0.862 2.00754824453e-38
0.0366915632353 -0.189838957609 0.862 1.30697510287e-38
0.0382868485934 -0.189838957609 0.862 1.58363233765e-38
0.0398821339514 -0.189838957609 0.862 1.62987616788e-38
-0.0349334181191 -0.18737015173 0.858 6.90740930981e-39
-0.0333455354773 -0.18737015173 0.858 9.85159904049e-39
-0.0317576528356 -0.18737015173 0.858 9.48419539872e-39
-0.0300994443891 -0.186933391469 0.856 1.07749524337e-38
-0.028448638659 -0.186496631209 0.854 1.1139776285e-38
-0.0267737741009 -0.185841490818 0.851 1.2798943094e-38
-0.0251988462126 -0.185841490818 0.851 1.23386697978e-38
-0.0236239183244 -0.185841490818 0.851 1.33499462619e-38
-0.0220489904361 -0.185841490818 0.851 1.28896911826e-38
-0.020425944892 -0.185404730558 0.849 1.32591939694e-38
-0.0188547183618 -0.185404730558 0.849 1.36272590241e-38
-0.0172834918317 -0.185404730558 0.849 1.39960611617e-38
-0.0156752517201 -0.184967970297 0.847 1.39960429448e-38
-0.0140744143248 -0.184531210037 0.845 1.53782543228e-38
-0.012510590511 -0.184531210037 0.845 1.43630458152e-38
-0.0109467666971 -0.184531210037 0.845 1.4364824063e-38
-0.00938294288323 -0.184531210037 0.845 1.55640931238e-38
-0.00780061227866 -0.184094449776 0.843 1.49194411796e-38
-0.00624048982293 -0.184094449776 0.843 1.51034624965e-38
-0.0046803673672 -0.184094449776 0.843 1.49197943068e-38
-0.00312024491147 -0.184094449776 0.843 1.53796962589e-38
-0.00156012245573 -0.184094449776 0.843 1.71321390989e-38
0.0 -0.184094449776 0.843 4.49993931174e-39
0.00156012245573 -0.184094449776 0.843 6.3366492349e-39
0.00312024491147 -0.184094449776 0.843 9.19646398245e-39
0.0046803673672 -0.184094449776 0.843 7.89892886681e-39
0.00624048982293 -0.184094449776 0.843 7.4386751888e-39
0.00780061227866 -0.184094449776 0.843 7.71420269675e-39
0.0093607347344 -0.184094449776 0.843 8.45137677338e-39
0.0109208571901 -0.184094449776 0.843 5.78563625795e-39
0.0124809796459 -0.184094449776 0.843 5.51228776911e-39
0.0140411021016 -0.184094449776 0.843 1.75949151141e-38
0.0156382381387 -0.184531210037 0.845 1.59324804771e-38
0.0172020619526 -0.184531210037 0.845 1.62083625135e-38
0.0187658857665 -0.184531210037 0.845 1.61168731381e-38
0.0203778272361 -0.184967970297 0.847 1.27939026234e-38
0.0219453524082 -0.184967970297 0.847 1.9223826488e-38
0.0235683979523 -0.185404730558 0.849 1.80342277879e-38
0.0251988462126 -0.185841490818 0.851 1.6279635356e-38
0.0268681587335 -0.186496631209 0.854 1.37853689311e-38
0.0285152631055 -0.186933391469 0.856 2.08005521058e-38
0.0301697701938 -0.18737015173 0.858 1.76820660695e-38
0.0318316799983 -0.18780691199 0.86 1.80486583595e-38
0.0335009925192 -0.188243672251 0.862 1.90596279392e-38
0.0350962778772 -0.188243672251 0.862 1.66549633406e-38
0.0366915632353 -0.188243672251 0.862 1.68433258802e-38
0.0383756811887 -0.188680432511 0.864 1.52856859475e-38
0.0399746679049 -0.188680432511 0.864 1.64821005634e-38
-0.0350148479982 -0.18621532799 0.86 0.0
-0.0334232639983 -0.18621532799 0.86 8.75282129643e-39
-0.0317576528356 -0.185782269088 0.858 1.04065426596e-38
-0.0301697701938 -0.185782269088 0.858 1.04969264106e-38
-0.0285152631055 -0.185349210186 0.856 1.17851611083e-38
-0.0268681587335 -0.184916151283 0.854 1.1785145694e-38
-0.0251988462126 -0.18426656293 0.851 1.25220044785e-38
-0.0236239183244 -0.18426656293 0.851 1.3073719506e-38
-0.0220489904361 -0.18426656293 0.851 1.2981180558e-38
-0.0204740625478 -0.18426656293 0.851 1.3351026663e-38
-0.0188547183618 -0.183833504028 0.849 1.37190833098e-38
-0.0172834918317 -0.183833504028 0.849 1.3718379858e-38
-0.0156752517201 -0.183400445125 0.847 1.4179370619e-38
-0.0140744143248 -0.182967386223 0.845 1.43641023943e-38
-0.012510590511 -0.182967386223 0.845 1.47321758567e-38
-0.0109467666971 -0.182967386223 0.845 1.44577371576e-38
-0.00938294288323 -0.182967386223 0.845 1.46417780928e-38
-0.00781911906936 -0.182967386223 0.845 1.49190740394e-38
-0.00624048982293 -0.182534327321 0.843 1.47350485185e-38
-0.0046803673672 -0.182534327321 0.843 1.53818514559e-38
-0.00312024491147 -0.182534327321 0.843 1.55651637158e-38
-0.00156012245573 -0.182534327321 0.843 1.72232557289e-38
0.0 -0.182534327321 0.843 8.72437213501e-39
0.00156012245573 -0.182534327321 0.843 8.44886564654e-39
0.00312024491147 -0.182534327321 0.843 1.28703336456e-38
0.0046803673672 -0.182534327321 0.843 1.205627873e-38
0.00624048982293 -0.182534327321 0.843 1.14123750791e-38
0.00780061227866 -0.182534327321 0.843 1.31651864606e-38
0.0093607347344 -0.182534327321 0.843 6.89591305721e-39
0.0109467666971 -0.182967386223 0.845 7.71418167727e-39
0.012510590511 -0.182967386223 0.845 7.71418167727e-39
0.0140744143248 -0.182967386223 0.845 1.86047412343e-38
0.0156382381387 -0.182967386223 0.845 1.59307176436e-38
0.0172427768921 -0.183400445125 0.847 1.69448513552e-38
0.0188103020641 -0.183400445125 0.847 1.62090841823e-38
0.0203778272361 -0.183400445125 0.847 1.09467193956e-38
0.0219971714221 -0.183833504028 0.849 1.72037440491e-38
0.0236239183244 -0.18426656293 0.851 1.51811967262e-38
0.0251988462126 -0.18426656293 0.851 1.88752198639e-38
0.0268681587335 -0.184916151283 0.854 1.96141918064e-38
0.028581887552 -0.185782269088 0.858 1.86007629479e-38
0.0302400959984 -0.18621532799 0.86 1.8416366083e-38
0.0319057071611 -0.186648386893 0.862 1.4354748727e-38
0.0335009925192 -0.186648386893 0.862 1.66567233715e-38
0.0350962778772 -0.186648386893 0.862 2.13582352634e-38
0.0367766944725 -0.187081445795 0.864 1.50965877262e-38
0.0383756811887 -0.187081445795 0.864 1.60225223112e-38
0.0399746679049 -0.187081445795 0.864 1.62994819462e-38
-0.0350962778772 -0.185053101535 0.862 0.0
-0.0334232639983 -0.18462374399 0.86 1.04119754938e-38
-0.0318316799983 -0.18462374399 0.86 1.01303285154e-38
-0.0301697701938 -0.184194386446 0.858 1.04043720483e-38
-0.028581887552 -0.184194386446 0.858 1.14156499137e-38
-0.0269310818219 -0.183765028902 0.856 1.27982396422e-38
-0.025287678808 -0.183335671358 0.854 1.22457693148e-38
-0.0237071988825 -0.183335671358 0.854 1.26116777711e-38
-0.022126718957 -0.183335671358 0.854 1.30729880282e-38
-0.0204740625478 -0.182691635042 0.851 1.32577478294e-38
-0.0188991346595 -0.182691635042 0.851 1.41797083319e-38
-0.0172834918317 -0.182262277497 0.849 1.34446628277e-38
-0.0157122653015 -0.182262277497 0.849 1.38127489018e-38
-0.0141077265481 -0.181832919953 0.847 1.42722753059e-38
-0.0125402013761 -0.181832919953 0.847 1.39967618109e-38
-0.0109467666971 -0.181403562409 0.845 1.42737074329e-38
-0.00938294288323 -0.181403562409 0.845 1.50091214787e-38
-0.00781911906936 -0.181403562409 0.845 1.51953078017e-38
-0.00625529525549 -0.181403562409 0.845 1.46442850157e-38
-0.00469147144162 -0.181403562409 0.845 1.56573593457e-38
-0.00312024491147 -0.180974204865 0.843 1.547261636e-38
-0.00156012245573 -0.180974204865 0.843 1.41786419438e-38
0.0 -0.180974204865 0.843 1.21222854929e-38
0.00156012245573 -0.180974204865 0.843 8.99987862348e-39
0.00312024491147 -0.180974204865 0.843 1.83105274113e-38
0.0046803673672 -0.180974204865 0.843 1.53796962589e-38
0.00625529525549 -0.181403562409 0.845 1.47368449832e-38
0.00781911906936 -0.181403562409 0.845 1.45516732002e-38
0.00938294288323 -0.181403562409 0.845 9.66213788292e-39
0.0109467666971 -0.181403562409 0.845 9.45905610427e-39
0.012510590511 -0.181403562409 0.845 8.35703015038e-39
0.0140744143248 -0.181403562409 0.845 1.84188884202e-38
0.0156752517201 -0.181832919953 0.847 1.64831697541e-38
0.0172427768921 -0.181832919953 0.847 1.62065660489e-38
0.0188547183618 -0.182262277497 0.849 1.6299128819e-38
0.020425944892 -0.182262277497 0.849 1.78657440683e-38
0.0219971714221 -0.182262277497 0.849 1.7957211023e-38
0.0236239183244 -0.182691635042 0.851 1.8973511142e-38
0.025287678808 -0.183335671358 0.854 1.8051905168e-38
0.0268681587335 -0.183335671358 0.854 1.85125357953e-38
0.028581887552 -0.184194386446 0.858 1.79546774754e-38
0.0302400959984 -0.18462374399 0.86 1.3618957732e-38
0.0319057071611 -0.185053101535 0.862 1.81249744751e-38
0.0335009925192 -0.185053101535 0.862 2.0994274612e-38
0.0350962778772 -0.185053101535 0.862 2.04439272518e-38
0.0367766944725 -0.185482459079 0.864 1.43608401714e-38
0.0383756811887 -0.185482459079 0.864 1.61147445657e-38
0.0399746679049 -0.185482459079 0.864 1.65742737724e-38
-0.0335009925192 -0.183457816176 0.862 1.04029721511e-38
-0.0318316799983 -0.18303215999 0.86 1.06820379377e-38
-0.0302400959984 -0.18303215999 0.86 1.14152715631e-38
-0.028581887552 -0.182606503804 0.858 1.13227354177e-38
-0.0269310818219 -0.182180847618 0.856 1.24305151031e-38
-0.025287678808 -0.181755191432 0.854 1.21546540861e-38
-0.0237071988825 -0.181755191432 0.854 1.27056754708e-38
-0.022126718957 -0.181755191432 0.854 1.35340040126e-38
-0.0205462390315 -0.181755191432 0.854 1.3535057789e-38
-0.0188991346595 -0.181116707153 0.851 1.34421460956e-38
-0.0173242067712 -0.181116707153 0.851 1.34446628277e-38
-0.0157122653015 -0.180691050967 0.849 1.39964086837e-38
-0.0141410387714 -0.180691050967 0.849 1.41811530707e-38
-0.0125402013761 -0.180265394781 0.847 1.42737074329e-38
-0.0109726762041 -0.180265394781 0.847 1.44577399602e-38
-0.00940515103207 -0.180265394781 0.847 1.51952909862e-38
-0.00783762586006 -0.180265394781 0.847 1.51031065667e-38
-0.00625529525549 -0.179839738595 0.845 1.49197915042e-38
-0.00469147144162 -0.179839738595 0.845 1.52867845655e-38
-0.00312764762774 -0.179839738595 0.845 1.6668637211e-38
-0.00156382381387 -0.179839738595 0.845 1.0673052812e-38
0.0 -0.179839738595 0.845 1.16631080121e-38
0.00156382381387 -0.179839738595 0.845 1.2214120989e-38
0.00312764762774 -0.179839738595 0.845 1.48982143104e-38
0.00469147144162 -0.179839738595 0.845 1.22371134942e-38
0.00625529525549 -0.179839738595 0.845 1.28810241516e-38
0.00781911906936 -0.179839738595 0.845 1.24207844865e-38
0.00938294288323 -0.179839738595 0.845 1.04829134259e-38
0.0109467666971 -0.179839738595 0.845 1.07447530505e-38
0.012510590511 -0.179839738595 0.845 8.63253663885e-39
0.0141077265481 -0.180265394781 0.847 1.96120436159e-38
0.0156752517201 -0.180265394781 0.847 1.65757339254e-38
0.0172834918317 -0.180691050967 0.849 1.69441451008e-38
0.0188547183618 -0.180691050967 0.849 1.67611887707e-38
0.0204740625478 -0.181116707153 0.851 1.57459452307e-38
0.0220489904361 -0.181116707153 0.851 1.58313193396e-38
0.0237071988825 -0.181755191432 0.854 1.65678123852e-38
0.025287678808 -0.181755191432 0.854 1.23228855719e-38
0.0269310818219 -0.182180847618 0.856 1.3976235591e-38
0.028581887552 -0.182606503804 0.858 1.80306951145e-38
0.0302400959984 -0.18303215999 0.86 1.99833442687e-38
0.0319057071611 -0.183457816176 0.862 1.9153217861e-38
0.0335787210401 -0.183883472363 0.864 1.8507510739e-38
0.0351777077563 -0.183883472363 0.864 1.92461351596e-38
0.0367766944725 -0.183883472363 0.864 1.44519820249e-38
0.0383756811887 -0.183883472363 0.864 1.63009140732e-38
-0.0335009925192 -0.181862530818 0.862 9.29558903322e-39
-0.0318316799983 -0.181440575991 0.86 9.66319446196e-39
-0.0302400959984 -0.181440575991 0.86 1.05783334436e-38
-0.028581887552 -0.181018621163 0.858 1.22436001048e-38
-0.0269310818219 -0.180596666335 0.856 1.20620632901e-38
-0.0253469005382 -0.180596666335 0.856 1.25212758033e-38
-0.0237627192546 -0.180596666335 0.856 1.33510392747e-38
-0.022126718957 -0.180174711507 0.854 1.27985899668e-38
-0.0205462390315 -0.180174711507 0.854 1.32584751033e-38
-0.0188991346595 -0.179541779265 0.851 1.32588282305e-38
-0.0173242067712 -0.179541779265 0.851 1.38119978058e-38
-0.0157122653015 -0.179119824437 0.849 1.39049165057e-38
-0.0141410387714 -0.179119824437 0.849 1.4364824063e-38
-0.0125698122412 -0.179119824437 0.849 1.47339919395e-38
-0.0109726762041 -0.178697869609 0.847 1.44577399602e-38
-0.00940515103207 -0.178697869609 0.847 1.51949392603e-38
-0.00783762586006 -0.178697869609 0.847 1.50101906694e-38
-0.00625529525549 -0.178275914781 0.845 1.56552069512e-38
-0.00469147144162 -0.178275914781 0.845 1.60229006618e-38
-0.00312764762774 -0.178275914781 0.845 1.64842683721e-38
-0.00156382381387 -0.178275914781 0.845 9.29119175863e-39
0.0 -0.178275914781 0.845 1.05610820582e-38
0.00156382381387 -0.178275914781 0.845 1.08365885466e-38
0.00312764762774 -0.178275914781 0.845 1.01937400735e-38
0.00469147144162 -0.178275914781 0.845 9.91823358506e-39
0.00625529525549 -0.178275914781 0.845 9.73456259275e-39
0.00781911906936 -0.178275914781 0.845 1.0469246562e-38
0.00938294288323 -0.178275914781 0.845 1.08365885466e-38
0.0109726762041 -0.178697869609 0.847 1.25864852273e-38
0.0125402013761 -0.178697869609 0.847 1.29610270835e-38
0.0141077265481 -0.178697869609 0.847 1.86919622546e-38
0.0157122653015 -0.179119824437 0.849 1.03996875075e-38
0.0172834918317 -0.179119824437 0.849 1.50876180148e-38
0.0188991346595 -0.179541779265 0.851 1.18647156247e-38
0.0204740625478 -0.179541779265 0.851 1.50948361032e-38
0.0220489904361 -0.179541779265 0.851 1.45358371263e-38
0.0237071988825 -0.180174711507 0.854 1.72106804765e-38
0.025287678808 -0.180174711507 0.854 1.80461276144e-38
0.0269310818219 -0.180596666335 0.856 1.89695384609e-38
0.028581887552 -0.181018621163 0.858 1.84196184967e-38
0.0302400959984 -0.181440575991 0.86 1.86040251708e-38
0.0319057071611 -0.181862530818 0.862 1.89709719892e-38
0.0335787210401 -0.182284485646 0.864 1.94301480687e-38
0.0351777077563 -0.182284485646 0.864 1.78610455146e-38
0.0369043913283 -0.182917417888 0.867 1.43521885547e-38
0.0385089300817 -0.182917417888 0.867 1.56544628618e-38
-0.0335787210401 -0.18068549893 0.864 8.09838408503e-39
-0.0319057071611 -0.18026724546 0.862 9.56740590283e-39
-0.0302400959984 -0.179848991991 0.86 1.10389388475e-38
-0.028581887552 -0.179430738521 0.858 1.10411066562e-38
-0.0269940049102 -0.179430738521 0.858 1.21520939138e-38
-0.0253469005382 -0.179012485051 0.856 1.224537555e-38
-0.0237627192546 -0.179012485051 0.856 1.39956631929e-38
-0.0221785379709 -0.179012485051 0.856 1.31666283968e-38
-0.0205462390315 -0.178594231581 0.854 1.29843923341e-38
-0.018965759106 -0.178594231581 0.854 1.3535057789e-38
-0.0173242067712 -0.177966851377 0.851 1.38134523536e-38
-0.0157492788829 -0.177966851377 0.851 1.39971149381e-38
-0.0141410387714 -0.177548597907 0.849 1.43644709358e-38
-0.0125698122412 -0.177548597907 0.849 1.41808083512e-38
-0.0109726762041 -0.177130344437 0.847 1.48240211619e-38
-0.00940515103207 -0.177130344437 0.847 1.58374374087e-38
-0.00785613265075 -0.177548597907 0.849 1.48257994097e-38
-0.00627010068805 -0.177130344437 0.847 1.51020331721e-38
-0.00470257551603 -0.177130344437 0.847 1.59317770253e-38
-0.00312764762774 -0.176712090968 0.845 1.54726009458e-38
-0.00156382381387 -0.176712090968 0.845 1.65764373773e-38
0.0 -0.176712090968 0.845 1.73136534929e-38
0.00156382381387 -0.176712090968 0.845 1.73136562955e-38
0.00312764762774 -0.176712090968 0.845 1.70359932086e-38
0.00469147144162 -0.176712090968 0.845 1.79586725773e-38
0.00625529525549 -0.176712090968 0.845 1.74991195485e-38
0.00783762586006 -0.177130344437 0.847 1.73140094227e-38
0.00940515103207 -0.177130344437 0.847 1.75909522421e-38
0.0109726762041 -0.177130344437 0.847 1.74072770459e-38
0.0125402013761 -0.177130344437 0.847 1.69463016991e-38
0.0141410387714 -0.177548597907 0.849 1.58403044654e-38
0.0157122653015 -0.177548597907 0.849 1.57462927527e-38
0.0172834918317 -0.177548597907 0.849 1.77720560556e-38
0.0188991346595 -0.177966851377 0.851 1.68512137892e-38
0.0204740625478 -0.177966851377 0.851 1.76820534578e-38
0.0220489904361 -0.177966851377 0.851 1.75902207643e-38
0.0237071988825 -0.178594231581 0.854 1.75909648538e-38
0.025287678808 -0.178594231581 0.854 1.75902011461e-38
0.0269310818219 -0.179012485051 0.856 1.84188856176e-38
0.0286485119985 -0.179848991991 0.86 1.78657132398e-38
0.0302400959984 -0.179848991991 0.86 1.76798828465e-38
0.0319057071611 -0.18026724546 0.862 1.82298350405e-38
0.0335787210401 -0.18068549893 0.864 1.75837369563e-38
0.0351777077563 -0.18068549893 0.864 1.64697635317e-38
0.0369043913283 -0.181312879135 0.867 1.57325684356e-38
-0.0339284993843 -0.180951996716 0.873 6.62004783633e-39
-0.0319057071611 -0.178671960102 0.862 9.93404303434e-39
-0.0303104218031 -0.178671960102 0.862 8.54751705842e-39
-0.028581887552 -0.177842855879 0.858 1.31626276896e-38
-0.0269940049102 -0.177842855879 0.858 1.07648420653e-38
-0.0254061222684 -0.177842855879 0.858 1.17793597327e-38
-0.0238182396267 -0.177842855879 0.858 1.25173087274e-38
-0.0221785379709 -0.177428303768 0.856 1.24269431933e-38
-0.0205943566873 -0.177428303768 0.856 1.33495777204e-38
-0.018965759106 -0.177013751656 0.854 1.36272562215e-38
-0.0173852791805 -0.177013751656 0.854 1.42737046303e-38
-0.0157492788829 -0.176391923488 0.851 1.40900322367e-38
-0.0141743509946 -0.176391923488 0.851 1.41811586758e-38
-0.0125994231063 -0.176391923488 0.851 1.46410592266e-38
-0.0109985857111 -0.175977371377 0.849 1.51945889356e-38
-0.0094273591809 -0.175977371377 0.849 1.52871348901e-38
-0.00785613265075 -0.175977371377 0.849 1.51027534395e-38
-0.0062849061206 -0.175977371377 0.849 1.60254187951e-38
-0.00471367959045 -0.175977371377 0.849 1.51027562421e-38
-0.00313505034402 -0.175562819265 0.847 1.61154634319e-38
-0.00156752517201 -0.175562819265 0.847 1.54718918887e-38
0.0 -0.175562819265 0.847 1.55640931238e-38
0.00156752517201 -0.175562819265 0.847 1.6023267802e-38
0.00313505034402 -0.175562819265 0.847 1.55622896527e-38
0.00470257551603 -0.175562819265 0.847 1.57481284537e-38
0.0062849061206 -0.175977371377 0.849 1.52878663679e-38
0.00785613265075 -0.175977371377 0.849 1.57499109054e-38
0.0094273591809 -0.175977371377 0.849 1.54726009458e-38
0.0109985857111 -0.175977371377 0.849 1.65771436317e-38
0.0125698122412 -0.175977371377 0.849 1.6208383533e-38
0.0141743509946 -0.176391923488 0.851 1.60236237318e-38
0.0157122653015 -0.175977371377 0.849 1.64831543398e-38
0.0172834918317 -0.175977371377 0.849 1.62065660489e-38
0.0188991346595 -0.176391923488 0.851 1.63906055827e-38
0.0204740625478 -0.176391923488 0.851 1.75887984463e-38
0.0220489904361 -0.176391923488 0.851 1.68515641139e-38
0.0237071988825 -0.177013751656 0.854 1.76824009799e-38
0.025287678808 -0.177013751656 0.854 1.76827527058e-38
0.0269940049102 -0.177842855879 0.858 1.75880403439e-38
0.0286485119985 -0.178257407991 0.86 1.79535788574e-38
0.0303104218031 -0.178671960102 0.862 1.65702786705e-38
0.0319797343239 -0.179086512214 0.864 1.62882519403e-38
0.0335787210401 -0.179086512214 0.864 1.75760942745e-38
0.0351777077563 -0.179086512214 0.864 1.55456688516e-38
0.0369043913283 -0.179708340381 0.867 1.79434642851e-38
-0.0339284993843 -0.179336353888 0.873 6.62722248446e-39
-0.0319797343239 -0.177487525498 0.864 9.65673727864e-39
-0.0303104218031 -0.177076674744 0.862 9.65133667435e-39
-0.0286485119985 -0.176665823991 0.86 1.2150277831e-38
-0.0269940049102 -0.176254973237 0.858 1.01169713385e-38
-0.0254061222684 -0.176254973237 0.858 1.03896079677e-38
-0.0238182396267 -0.176254973237 0.858 1.21398984133e-38
-0.0222303569849 -0.176254973237 0.858 1.23321439509e-38
-0.0206424743431 -0.176254973237 0.858 1.32544729949e-38
-0.0190101754037 -0.175844122484 0.856 1.42697109297e-38
-0.0173852791805 -0.17543327173 0.854 1.47321366203e-38
-0.015804799255 -0.17543327173 0.854 1.45492139214e-38
-0.0141743509946 -0.1748169956 0.851 1.45499355901e-38
-0.0125994231063 -0.1748169956 0.851 1.48250805436e-38
-0.011024495218 -0.1748169956 0.851 1.50087459307e-38
-0.00944956732974 -0.1748169956 0.851 1.49179950396e-38
-0.00787463944145 -0.1748169956 0.851 1.51949518719e-38
-0.00629971155316 -0.1748169956 0.851 1.52882040808e-38
-0.00472478366487 -0.1748169956 0.851 1.59307050319e-38
-0.0031424530603 -0.174406144847 0.849 1.57470396448e-38
-0.00157122653015 -0.174406144847 0.849 1.6115469037e-38
0.0 -0.174406144847 0.849 1.61154662345e-38
0.00157122653015 -0.174406144847 0.849 1.56566558939e-38
0.0031424530603 -0.174406144847 0.849 1.59310679682e-38
0.00471367959045 -0.174406144847 0.849 1.65767933071e-38
0.0062849061206 -0.174406144847 0.849 1.52882166925e-38
0.00785613265075 -0.174406144847 0.849 1.59342951586e-38
0.0094273591809 -0.174406144847 0.849 1.59317770253e-38
0.011024495218 -0.1748169956 0.851 1.6023253789e-38
0.0125994231063 -0.1748169956 0.851 1.63916775761e-38
0.0141743509946 -0.1748169956 0.851 1.62994847488e-38
0.0157492788829 -0.1748169956 0.851 1.68537375278e-38
0.0173242067712 -0.1748169956 0.851 1.62991344242e-38
0.0188991346595 -0.1748169956 0.851 1.65760716384e-38
0.0205462390315 -0.17543327173 0.854 1.63880930546e-38
0.022126718957 -0.17543327173 0.854 1.68465446628e-38
0.0237071988825 -0.17543327173 0.854 1.71234650614e-38
0.0254653439987 -0.176665823991 0.86 1.64755621047e-38
0.0270569279986 -0.176665823991 0.86 1.59191387144e-38
0.0286485119985 -0.176665823991 0.86 1.77619218651e-38
0.0303104218031 -0.177076674744 0.862 1.54574206795e-38
0.0319797343239 -0.177487525498 0.864 1.63761483865e-38
0.0336953138215 -0.178103801628 0.867 1.72001427121e-38
0.035381282454 -0.178514652381 0.869 1.43457089506e-38
0.0370746538027 -0.178925503135 0.871 1.80392654559e-38
-0.0339284993843 -0.177720711061 0.873 8.00188506758e-39
-0.0321648022309 -0.17690641227 0.869 8.54895198805e-39
-0.0304862363147 -0.176499262875 0.867 1.00158087997e-38
-0.028715136445 -0.175481389386 0.862 1.10429241403e-38
-0.0270569279986 -0.175074239991 0.86 9.65241287157e-39
-0.0254061222684 -0.174667090596 0.858 1.15805995585e-38
-0.0238182396267 -0.174667090596 0.858 1.25061291682e-38
-0.0222303569849 -0.174667090596 0.858 1.09427733391e-38
