# .PCD v0.7 - Point Cloud Data file format
VERSION 0.7
FIELDS x y z rgb
SIZE 4 4 4 4
TYPE F F F F
COUNT 1 1 1 1
WIDTH 851
HEIGHT 1
VIEWPOINT 0 0 0 1 0 0 0
POINTS 851
DATA ascii
0.0385089300817 -0.0240680813011 0.867 2.29100864322e-38
0.0402060027886 -0.0241236016732 0.869 2.24483978245e-38
0.0418142429001 -0.0241236016732 0.869 2.18012445625e-38
0.0436223563512 -0.0242346424173 0.873 2.34877535072e-38
0.0453416372069 -0.0242901627894 0.875 2.31114516202e-38
0.047121990472 -0.0243734433476 0.878 2.19917314706e-38
0.0488579274393 -0.0244289637197 0.88 2.34643420138e-38
0.0504865250206 -0.0244289637197 0.88 2.3465404198e-38
0.0522335660624 -0.0244844840917 0.882 2.34650454656e-38
0.0540490822297 -0.0245677646499 0.885 2.34646867332e-38
0.0558127793831 -0.024623285022 0.887 2.34693586623e-38
0.0575838792528 -0.0246788053941 0.889 2.34686327897e-38
0.0592291329458 -0.0246788053941 0.889 2.3481343968e-38
0.0608743866387 -0.0246788053941 0.889 2.34794550177e-38
0.0630119209642 -0.0248731266964 0.896 2.34780060751e-38
0.0646701294106 -0.0248731266964 0.896 2.34874270047e-38
0.0 -0.02321491825 0.896 2.14451339851e-38
0.00165820844643 -0.02321491825 0.896 1.96976405313e-38
0.00330901417657 -0.023163099236 0.894 1.95129157625e-38
0.00493576107881 -0.0230335517011 0.889 1.87688837312e-38
0.00656620933919 -0.0229817326872 0.887 1.90440272834e-38
0.00818925488329 -0.0229299136732 0.885 1.94120867328e-38
0.0097937936367 -0.0228521851523 0.882 1.96890281509e-38
0.0114001830692 -0.0228003661383 0.88 1.9779069985e-38
0.0130287806505 -0.0228003661383 0.88 1.9777276323e-38
0.0145740976737 -0.0226708186035 0.875 2.00538590087e-38
0.0161934418596 -0.0226708186035 0.875 2.09747250971e-38
0.0177720711061 -0.0226189995895 0.873 2.17133551229e-38
0.0193432976362 -0.0225671805756 0.871 2.02411173251e-38
0.0209552391059 -0.0225671805756 0.871 2.10669193257e-38
0.0225671805756 -0.0225671805756 0.871 2.14360549723e-38
0.0241791220453 -0.0225671805756 0.871 2.13427845466e-38
0.0257910635149 -0.0225671805756 0.871 2.24512676838e-38
0.0274030049846 -0.0225671805756 0.871 1.0469246562e-38
0.0290149464543 -0.0225671805756 0.871 1.93038420316e-38
0.030626887924 -0.0225671805756 0.871 1.42423940174e-38
0.0322388293937 -0.0225671805756 0.871 1.59944430926e-38
0.0337730423424 -0.0225153615616 0.869 2.11627485225e-38
0.035381282454 -0.0225153615616 0.869 2.24494838308e-38
0.0369895225655 -0.0225153615616 0.869 2.18988197772e-38
0.0385977626771 -0.0225153615616 0.869 2.3465404198e-38
0.0402985367421 -0.0225671805756 0.871 2.16190084998e-38
0.0419104782118 -0.0225671805756 0.871 2.34643280008e-38
0.0438721980256 -0.0227485471244 0.878 2.14378486344e-38
0.0454970942488 -0.0227485471244 0.878 2.21682278148e-38
0.047229329858 -0.0228003661383 0.88 2.31848754558e-38
0.0488579274393 -0.0228003661383 0.88 2.34646867332e-38
0.0504865250206 -0.0228003661383 0.88 2.34661216628e-38
0.0522335660624 -0.0228521851523 0.882 2.34650454656e-38
0.0540490822297 -0.0229299136732 0.885 2.34675565924e-38
0.0558127793831 -0.0229817326872 0.887 2.34704320569e-38
0.0575838792528 -0.0230335517011 0.889 2.34769438908e-38
0.0593623818388 -0.0230853707151 0.891 2.3483409482e-38
0.0612167622666 -0.023163099236 0.894 2.34772745973e-38
0.0630119209642 -0.02321491825 0.896 2.34761661702e-38
0.0646701294106 -0.02321491825 0.896 2.34899703614e-38
0.0 -0.0216770039431 0.901 2.00636428746e-38
0.00166746184177 -0.0216770039431 0.901 1.98805912562e-38
0.00331641689285 -0.0215567098035 0.896 1.86795789801e-38
0.00494686515323 -0.021436415664 0.891 2.07053394803e-38
0.00658101477175 -0.0213882980082 0.889 1.97833747739e-38
0.00820776167399 -0.0213401803524 0.887 1.9045462213e-38
0.00982710585995 -0.0212920626966 0.885 2.01489230965e-38
0.0114260925761 -0.0212198862128 0.882 1.9871622946e-38
0.0130287806505 -0.021171768557 0.88 2.06088180421e-38
0.0146240660085 -0.0211236509012 0.878 2.005852253e-38
0.0162489622317 -0.0211236509012 0.878 2.10679955229e-38
0.0178127860456 -0.0210514744175 0.875 2.10679955229e-38
0.0194321302315 -0.0210514744175 0.875 2.19935251326e-38
0.0210514744175 -0.0210514744175 0.875 2.19942425974e-38
0.0226708186035 -0.0210514744175 0.875 2.13488829975e-38
0.0242901627894 -0.0210514744175 0.875 2.19928076678e-38
0.0259095069754 -0.0210514744175 0.875 2.10719415794e-38
0.027465928073 -0.0210033567617 0.873 2.16222370915e-38
0.0290815709008 -0.0210033567617 0.873 1.87652922032e-38
0.0306972137286 -0.0210033567617 0.873 2.00535002763e-38
0.0323128565565 -0.0210033567617 0.873 2.23608783276e-38
0.0338507708634 -0.0209552391059 0.871 2.3467934943e-38
0.035462712333 -0.0209552391059 0.871 2.21786310546e-38
0.0370746538027 -0.0209552391059 0.871 2.2178989787e-38
0.0386865952724 -0.0209552391059 0.871 2.28243493869e-38
0.0403910706956 -0.0210033567617 0.873 2.29176198127e-38
0.0420067135234 -0.0210033567617 0.873 2.34740137758e-38
0.0438721980256 -0.0211236509012 0.878 2.34772563804e-38
0.0454970942488 -0.0211236509012 0.878 2.34740137758e-38
0.047229329858 -0.021171768557 0.88 2.34736550434e-38
0.0488579274393 -0.021171768557 0.88 2.34715026489e-38
0.0504865250206 -0.021171768557 0.88 2.34693502545e-38
0.0524112312531 -0.0212920626966 0.885 2.34646867332e-38
0.0541712270483 -0.0213401803524 0.887 2.346719786e-38
0.0559386255599 -0.0213882980082 0.889 2.34697300064e-38
0.0577134267877 -0.021436415664 0.891 2.34744173497e-38
0.0595622551783 -0.0215085921477 0.894 2.34801122267e-38
0.0612167622666 -0.0215085921477 0.894 2.34787137308e-38
0.0628712693549 -0.0215085921477 0.894 2.08872350275e-38
0.0645257764432 -0.0215085921477 0.894 2.34899185133e-38
0.0 -0.0200095421013 0.901 2.11714197574e-38
0.00166746184177 -0.0200095421013 0.901 1.9605499552e-38
0.00331641689285 -0.0198985013571 0.896 1.92331044851e-38
0.00496352126486 -0.0198540850594 0.894 1.93227861856e-38
0.00659582020431 -0.0197874606129 0.891 1.94142531402e-38
0.00822626846469 -0.0197430443153 0.889 1.88603787118e-38
0.00984931400879 -0.0196986280176 0.887 1.98723404108e-38
0.0114649568366 -0.0196542117199 0.885 1.99638171746e-38
0.0130583915156 -0.0195875872734 0.882 2.07946414289e-38
0.0146573782318 -0.0195431709757 0.88 2.12577649661e-38
0.0162859758131 -0.0195431709757 0.88 2.14407184936e-38
0.0178738584549 -0.0194987546781 0.878 2.09801060832e-38
0.0194987546781 -0.0194987546781 0.878 2.11670056672e-38
0.0211236509012 -0.0194987546781 0.878 2.26453419159e-38
0.0227485471244 -0.0194987546781 0.878 2.26449831835e-38
0.0243734433476 -0.0194987546781 0.878 2.20010585132e-38
0.0259095069754 -0.0194321302315 0.875 2.33846964129e-38
0.0275288511614 -0.0194321302315 0.875 2.34754851391e-38
0.0290815709008 -0.0193877139339 0.873 2.31056166134e-38
0.0306972137286 -0.0193877139339 0.873 2.34750997821e-38
0.0323868837192 -0.0194321302315 0.875 2.3478343788e-38
0.0339284993843 -0.0193877139339 0.873 2.34804709591e-38
0.0355441422121 -0.0193877139339 0.873 2.34729571967e-38
0.0371597850399 -0.0193877139339 0.873 2.34841339533e-38
0.0387754278677 -0.0193877139339 0.873 2.34877703228e-38
0.0406224055793 -0.0194987546781 0.878 1.75901030552e-38
0.0422473018025 -0.0194987546781 0.878 1.43568716942e-38
0.0439721346954 -0.0195431709757 0.88 2.19972329684e-38
0.0456007322767 -0.0195431709757 0.88 2.34776053037e-38
0.047229329858 -0.0195431709757 0.88 2.33724925046e-38
0.0489689681835 -0.0195875872734 0.882 2.34787894009e-38
0.0506012671229 -0.0195875872734 0.882 2.28247081193e-38
0.0525296747135 -0.0196986280176 0.887 2.34643280008e-38
0.0542933718669 -0.0197430443153 0.889 2.34672132743e-38
0.0560644717366 -0.0197874606129 0.891 2.34711901594e-38
0.0580372956249 -0.0198985013571 0.896 2.34715054515e-38
0.0596955040713 -0.0198985013571 0.896 2.34715026489e-38
0.0614906627689 -0.0199429176548 0.898 2.34748111146e-38
0.0631525725735 -0.0199429176548 0.898 2.01482462693e-38
0.0655362472152 -0.0201649991431 0.908 2.34906780171e-38
0.00332381960913 -0.0182810078502 0.898 1.89576092071e-38
0.00497462533928 -0.0182402929107 0.896 1.93242085035e-38
0.00659582020431 -0.0181385055618 0.891 1.88625086855e-38
0.00822626846469 -0.0180977906223 0.889 2.02425704716e-38
0.00984931400879 -0.0180570756828 0.887 1.95053571586e-38
0.0114908663436 -0.0180570756828 0.887 2.00581637976e-38
0.0131028078133 -0.0180163607432 0.885 1.96883106861e-38
0.014690690455 -0.0179552883339 0.882 2.11644945403e-38
0.0163229893945 -0.0179552883339 0.882 2.15386524407e-38
0.0179145733944 -0.0179145733944 0.88 2.19067118902e-38
0.0195431709757 -0.0179145733944 0.88 2.20943555636e-38
0.021171768557 -0.0179145733944 0.88 2.34780453114e-38
0.0227485471244 -0.0178738584549 0.878 2.34820628341e-38
0.0243734433476 -0.0178738584549 0.878 2.08922348604e-38
0.0259983395707 -0.0178738584549 0.878 1.80238357585e-38
0.0276232357939 -0.0178738584549 0.878 1.65443952866e-38
0.0292481320171 -0.0178738584549 0.878 2.3470549766e-38
0.0308730282403 -0.0178738584549 0.878 2.34838621014e-38
0.0324979244634 -0.0178738584549 0.878 2.11659897258e-38
0.0341228206866 -0.0178738584549 0.878 1.52537335399e-38
0.0357477169098 -0.0178738584549 0.878 2.0246520732e-38
0.0374577443701 -0.0179145733944 0.88 1.59219791464e-38
0.0390863419515 -0.0179145733944 0.88 1.45405006475e-38
0.0408074734862 -0.0179552883339 0.882 1.48120610795e-38
0.0424397724257 -0.0179552883339 0.882 1.8315521639e-38
0.0440720713651 -0.0179552883339 0.882 1.81167194259e-38
0.0457043703046 -0.0179552883339 0.882 2.04036231054e-38
0.047336669244 -0.0179552883339 0.882 2.19605343629e-38
0.0491355292998 -0.0180163607432 0.885 2.34787375529e-38
0.0507733802764 -0.0180163607432 0.885 2.30080203792e-38
0.0527665616345 -0.0181385055618 0.891 2.34704264517e-38
0.0544155166855 -0.0181385055618 0.891 2.34704264517e-38
0.0565049333552 -0.0182810078502 0.898 2.34682992806e-38
0.0581668431598 -0.0182810078502 0.898 2.34765529286e-38
0.0600286263038 -0.0183420802595 0.901 2.34582295499e-38
0.0621754140247 -0.0184845825479 0.908 2.34834837508e-38
0.0638558306199 -0.0184845825479 0.908 2.03297858867e-38
0.0655362472152 -0.0184845825479 0.908 2.34881977188e-38
0.00332381960913 -0.0166190980456 0.898 1.93274258848e-38
0.00497462533928 -0.0165820844643 0.896 1.90465384102e-38
0.00661802835314 -0.0165450708829 0.894 1.87692382597e-38
0.00824477525538 -0.0164895505108 0.891 1.92284157405e-38
0.00987152215763 -0.0164525369294 0.889 1.95964751899e-38
0.0115167758506 -0.0164525369294 0.889 2.02411173251e-38
0.0131324186784 -0.016415523348 0.887 1.97812223795e-38
0.0147406587899 -0.0163785097666 0.885 2.10744527062e-38
0.0163785097666 -0.0163785097666 0.885 2.12631459522e-38
0.0179552883339 -0.0163229893945 0.882 2.34794073735e-38
0.0195875872734 -0.0163229893945 0.882 1.97913397544e-38
0.021171768557 -0.0162859758131 0.88 1.54416364536e-38
0.0228003661383 -0.0162859758131 0.88 1.70814022854e-38
0.0244289637197 -0.0162859758131 0.88 1.68058957969e-38
0.026057561301 -0.0162859758131 0.88 2.34559244139e-38
0.0276861588823 -0.0162859758131 0.88 2.17170713664e-38
0.0293147564636 -0.0162859758131 0.88 1.68102005858e-38
0.0309433540449 -0.0162859758131 0.88 2.01403135187e-38
0.032645978789 -0.0163229893945 0.882 1.96918994115e-38
0.0342782777284 -0.0163229893945 0.882 1.43547249049e-38
0.0359105766679 -0.0163229893945 0.882 9.11000947239e-39
0.0375428756073 -0.0163229893945 0.882 1.25190505413e-38
0.0391751745468 -0.0163229893945 0.882 1.92338625876e-38
0.0409462744165 -0.0163785097666 0.885 2.34680610599e-38
0.0424397724257 -0.0163229893945 0.882 2.24513013149e-38
0.0440720713651 -0.0163229893945 0.882 1.95832020909e-38
0.0458598273464 -0.0163785097666 0.885 1.87423389344e-38
0.0476050177091 -0.016415523348 0.887 2.32580975045e-38
0.0493576107881 -0.0164525369294 0.889 2.34812318641e-38
0.0511176065834 -0.0164895505108 0.891 2.34683469248e-38
0.0529442268251 -0.0165450708829 0.894 2.3468634191e-38
0.054720878732 -0.0165820844643 0.896 2.34715026489e-38
0.0565049333552 -0.0166190980456 0.898 2.34729852227e-38
0.058490711997 -0.0167116319991 0.903 2.29965409422e-38
0.0601618751969 -0.0167116319991 0.903 2.34633022503e-38
0.0620384637735 -0.0167671523712 0.906 2.22601866252e-38
0.0638558306199 -0.0168041659526 0.908 2.34767126766e-38
0.0655362472152 -0.0168041659526 0.908 2.34877773293e-38
0.00498572941369 -0.0149571882411 0.898 1.86788517062e-38
0.0066328337857 -0.0149238760178 0.896 1.95979101196e-38
0.00827253544143 -0.0148905637946 0.894 1.98741340728e-38
0.00989373030646 -0.0148405954597 0.891 1.98730578756e-38
0.0115167758506 -0.0148072832364 0.889 2.0239323663e-38
0.0131620295435 -0.0148072832364 0.889 2.10712241146e-38
0.0147739710132 -0.0147739710132 0.887 2.12599173606e-38
0.016415523348 -0.0147739710132 0.887 2.19085503937e-38
0.0180163607432 -0.0147406587899 0.885 2.07135679049e-38
0.0196542117199 -0.0147406587899 0.885 2.23703146715e-38
0.0212198862128 -0.014690690455 0.882 1.42373717637e-38
0.0228521851523 -0.014690690455 0.882 1.77249682233e-38
0.0244844840917 -0.014690690455 0.882 1.80130555694e-38
0.0261167830312 -0.014690690455 0.882 2.11480993483e-38
0.0277490819706 -0.014690690455 0.882 1.71875870778e-38
0.0294813175799 -0.0147406587899 0.885 1.9398105978e-38
0.0311191685565 -0.0147406587899 0.885 2.29183484879e-38
0.0327570195332 -0.0147406587899 0.885 1.94226076817e-38
0.0343948705098 -0.0147406587899 0.885 1.54556774642e-38
0.0361141513656 -0.0147739710132 0.887 1.40752485379e-38
0.0377557037004 -0.0147739710132 0.887 1.48077759088e-38
0.0393972560352 -0.0147739710132 0.887 1.67345080479e-38
0.0409462744165 -0.0147406587899 0.885 1.71789775001e-38
0.0425841253931 -0.0147406587899 0.885 1.65311137797e-38
0.0443219130396 -0.0147739710132 0.887 1.98458572711e-38
0.0459634653743 -0.0147739710132 0.887 1.88456482624e-38
0.0477123570952 -0.0148072832364 0.889 2.34731169447e-38
0.0494686515323 -0.0148405954597 0.891 2.34711635347e-38
0.0512897197369 -0.0148905637946 0.894 2.3469732809e-38
0.0529442268251 -0.0148905637946 0.894 2.34686327897e-38
0.054720878732 -0.0149238760178 0.896 2.34711439165e-38
0.056819548797 -0.0150404687992 0.903 2.34711439165e-38
0.0586850332993 -0.0150904371341 0.906 2.22500188035e-38
0.0603617485364 -0.0150904371341 0.906 2.34496648136e-38
0.0620384637735 -0.0150904371341 0.906 2.34676967223e-38
0.0638558306199 -0.0151237493574 0.908 2.34802957968e-38
0.0655362472152 -0.0151237493574 0.908 2.34824453886e-38
0.00498572941369 -0.0132952784365 0.898 1.98777213969e-38
0.00664763921826 -0.0132952784365 0.898 1.93227623635e-38
0.00829104223213 -0.0132656675714 0.896 1.95053571586e-38
0.00992704252972 -0.0132360567063 0.894 1.97805049147e-38
0.0115426853575 -0.0131916404086 0.891 2.00538590087e-38
0.0131916404086 -0.0131916404086 0.891 2.02400663512e-38
0.0148072832364 -0.0131620295435 0.889 2.05184174756e-38
0.0164525369294 -0.0131620295435 0.889 2.24574502126e-38
0.0180570756828 -0.0131324186784 0.887 2.22798188167e-38
0.0196542117199 -0.0131028078133 0.885 2.1172826661e-38
0.0212920626966 -0.0131028078133 0.885 1.51568029225e-38
0.0229299136732 -0.0131028078133 0.885 2.30830543068e-38
0.0245677646499 -0.0131028078133 0.885 2.34832062937e-38
0.0262056156265 -0.0131028078133 0.885 1.65479671964e-38
0.0278434666032 -0.0131028078133 0.885 1.73662358164e-38
0.0295479420264 -0.0131324186784 0.887 1.755457033e-38
0.0311894943612 -0.0131324186784 0.887 1.50624562995e-38
0.0329050738588 -0.0131620295435 0.889 1.90178496267e-38
0.0345503275517 -0.0131620295435 0.889 1.78315117481e-38
0.0361955812446 -0.0131620295435 0.889 1.68227772395e-38
0.0380536630306 -0.0132360567063 0.894 1.59044124688e-38
0.0395749212258 -0.0131916404086 0.891 1.59951605574e-38
0.04103880837 -0.0131324186784 0.887 1.71015347404e-38
0.0426803607048 -0.0131324186784 0.887 1.43360287808e-38
0.0444218497093 -0.0131620295435 0.889 2.00348756184e-38
0.0460671034023 -0.0131620295435 0.889 2.31005761428e-38
0.0478196964812 -0.0131916404086 0.891 2.34798277631e-38
0.0494686515323 -0.0131916404086 0.891 2.29129815148e-38
0.0514044618392 -0.0132656675714 0.896 2.34675565924e-38
0.0530626702856 -0.0132656675714 0.896 2.34700677193e-38
0.0548430235506 -0.0132952784365 0.898 2.34762054066e-38
0.0570083180621 -0.013413721897 0.906 2.05011983201e-38
0.0588145808341 -0.0134433327621 0.908 2.34525879222e-38
0.0604949974294 -0.0134433327621 0.908 2.18859180222e-38
0.0621754140247 -0.0134433327621 0.908 2.34852844193e-38
0.0638558306199 -0.0134433327621 0.908 2.16295126331e-38
0.00332381960913 -0.011633368632 0.898 1.97837769466e-38
0.00498572941369 -0.011633368632 0.898 1.95100206799e-38
0.00664763921826 -0.011633368632 0.898 1.86802726228e-38
0.00830954902282 -0.011633368632 0.898 1.941316293e-38
0.00994925067855 -0.011607459125 0.896 1.96890281509e-38
0.011607459125 -0.011607459125 0.896 2.04258645146e-38
0.0132360567063 -0.011581549618 0.894 2.02411173251e-38
0.0148905637946 -0.011581549618 0.894 2.04237121202e-38
0.0164895505108 -0.0115426853575 0.891 2.1624389486e-38
0.0181385055618 -0.0115426853575 0.891 2.32921364455e-38
0.0197430443153 -0.0115167758506 0.889 1.87735654694e-38
0.0213401803524 -0.0114908663436 0.887 1.36834889275e-38
0.0229817326872 -0.0114908663436 0.887 2.34720057151e-38
0.024623285022 -0.0114908663436 0.887 2.11693122045e-38
0.0262648373568 -0.0114908663436 0.887 1.79294456952e-38
0.0279063896916 -0.0114908663436 0.887 1.81066595042e-38
0.0295479420264 -0.0114908663436 0.887 1.70046335503e-38
0.0312598201658 -0.0115167758506 0.889 1.65425946181e-38
0.0329050738588 -0.0115167758506 0.889 1.59000964696e-38
0.0346280560726 -0.0115426853575 0.891 1.62685146514e-38
0.0363991559423 -0.011581549618 0.894 1.60874192457e-38
0.0381387942678 -0.011607459125 0.896 1.6362169033e-38
0.0397970027142 -0.011607459125 0.896 1.55334845614e-38
0.0413626772071 -0.011581549618 0.894 1.53465723658e-38
0.0430171842954 -0.011581549618 0.894 1.92212410923e-38
0.0446716913837 -0.011581549618 0.894 1.97686933699e-38
0.046326198472 -0.011581549618 0.894 2.34824089549e-38
0.0480880449463 -0.011607459125 0.896 2.31927675688e-38
0.0497462533928 -0.011607459125 0.896 2.346719786e-38
0.0514044618392 -0.011607459125 0.896 2.34700677193e-38
0.0533587789368 -0.0116722328924 0.901 2.3475089973e-38
0.0551483855971 -0.0116981423994 0.903 2.09686266462e-38
0.0571341642389 -0.0117629161668 0.908 2.34474773867e-38
0.0588145808341 -0.0117629161668 0.908 2.10554398887e-38
0.0606282463224 -0.0117888256738 0.91 2.34850167713e-38
0.0628601652804 -0.0118924637017 0.918 2.34827270496e-38
0.0645590886664 -0.0118924637017 0.918 1.9327177855e-38
0.00332381960913 -0.00997145882739 0.898 1.92320507087e-38
0.00498572941369 -0.00997145882739 0.898 1.95085857502e-38
0.00666984736709 -0.0100047710506 0.901 2.00606749244e-38
0.00833730920887 -0.0100047710506 0.901 1.93198925042e-38
0.00997145882739 -0.00997145882739 0.898 1.9411369268e-38
0.011633368632 -0.00997145882739 0.898 2.01471462501e-38
0.0132952784365 -0.00997145882739 0.898 2.00538590087e-38
0.0149571882411 -0.00997145882739 0.898 2.09775949564e-38
0.0165820844643 -0.00994925067855 0.896 2.07946414289e-38
0.0181995779711 -0.00992704252972 0.894 2.31041690721e-38
0.0198540850594 -0.00992704252972 0.894 2.08940103056e-38
0.0213882980082 -0.00987152215763 0.889 1.2953827212e-38
0.0230335517011 -0.00987152215763 0.889 2.34515201328e-38
0.0246788053941 -0.00987152215763 0.889 1.61860061978e-38
0.026324059087 -0.00987152215763 0.889 1.80934004181e-38
0.0280322358683 -0.00989373030646 0.891 1.7832229213e-38
0.0296811909194 -0.00989373030646 0.891 1.7560668781e-38
0.0314356346774 -0.00992704252972 0.894 1.66380146357e-38
0.0330901417657 -0.00992704252972 0.894 1.61756071619e-38
0.0348223773749 -0.00994925067855 0.896 1.66398153042e-38
0.0365620157004 -0.00997145882739 0.898 1.6825277156e-38
0.038223925505 -0.00997145882739 0.898 1.54409189888e-38
0.0398858353096 -0.00997145882739 0.898 1.746634598e-38
0.0414552111606 -0.00994925067855 0.896 1.79265884477e-38
0.0431134196071 -0.00994925067855 0.896 2.17169424469e-38
0.0447716280535 -0.00994925067855 0.896 2.34813411654e-38
0.0464298364999 -0.00994925067855 0.896 2.2639633026e-38
0.0481953843324 -0.00997145882739 0.898 2.34643280008e-38
0.0498572941369 -0.00997145882739 0.898 2.34711453178e-38
0.051691317095 -0.0100047710506 0.901 2.34682740572e-38
0.0536548875879 -0.0100602914227 0.906 2.34639692684e-38
0.0554537476436 -0.0100824995716 0.908 2.17840366174e-38
0.0572600104156 -0.0101047077204 0.91 2.34633709139e-38
0.058944128369 -0.0101047077204 0.91 2.07968947168e-38
0.060961368555 -0.0101602280925 0.915 2.34878053552e-38
0.0628601652804 -0.0101935403157 0.918 2.00682727647e-38
0.0645590886664 -0.0101935403157 0.918 1.73968317671e-38
0.00503014571137 -0.00838357618561 0.906 1.9139461314e-38
0.00670686094849 -0.00838357618561 0.906 1.93198925042e-38
0.00835581599956 -0.00835581599956 0.903 2.05181021834e-38
0.0100269791995 -0.00835581599956 0.903 1.90436685509e-38
0.0117370066599 -0.00838357618561 0.906 1.98705467488e-38
0.0133396947342 -0.00833730920887 0.901 2.04240708526e-38
0.015007156576 -0.00833730920887 0.901 1.9779069985e-38
0.0166190980456 -0.00830954902282 0.898 2.06095355069e-38
0.0182810078502 -0.00830954902282 0.898 2.02414760575e-38
0.0198985013571 -0.00829104223213 0.896 2.31938591803e-38
0.0215085921477 -0.00827253544143 0.894 1.96011625333e-38
0.0230853707151 -0.00824477525538 0.891 1.63513818374e-38
0.0247343257662 -0.00824477525538 0.891 1.8020598759e-38
0.0263832808172 -0.00824477525538 0.891 1.80101885127e-38
0.0281266205009 -0.00827253544143 0.894 1.63578390207e-38
0.0297811275891 -0.00827253544143 0.894 1.69110043921e-38
0.0315059604821 -0.00829104223213 0.896 1.70961187219e-38
0.0332381960913 -0.00830954902282 0.898 1.64525527839e-38
0.0349001058959 -0.00830954902282 0.898 1.70053734359e-38
0.0365620157004 -0.00830954902282 0.898 1.69156763212e-38
0.038223925505 -0.00830954902282 0.898 1.70996976381e-38
0.0398858353096 -0.00830954902282 0.898 1.63614263448e-38
0.0415477451141 -0.00830954902282 0.898 2.03189860794e-38
0.0432096549187 -0.00830954902282 0.898 2.34795054644e-38
0.0448715647232 -0.00830954902282 0.898 2.34722201137e-38
0.0465334745278 -0.00830954902282 0.898 2.34646867332e-38
0.0481953843324 -0.00830954902282 0.898 2.34700677193e-38
0.0500238552532 -0.00833730920887 0.901 2.34693502545e-38
0.0519781723508 -0.00838357618561 0.906 2.34690251532e-38
0.0537733310484 -0.00840208297631 0.908 1.76421010373e-38
0.0554537476436 -0.00840208297631 0.908 2.34601325132e-38
0.0572600104156 -0.008420589767 0.91 2.34781363958e-38
0.0591384496713 -0.00844834995305 0.913 1.56383156996e-38
0.060961368555 -0.00846685674374 0.915 1.60170432342e-38
0.0628601652804 -0.00849461692979 0.918 1.95172962215e-38
0.0645590886664 -0.00849461692979 0.918 1.79522167953e-38
-0.0034903807254 -0.0069807614508 0.943 2.3481329955e-38
-0.0017451903627 -0.0069807614508 0.943 2.31139697535e-38
0.0 -0.00694374786941 0.938 1.94287131391e-38
0.00173038493014 -0.00692153972057 0.935 1.96973042196e-38
0.00345336714401 -0.00690673428801 0.933 1.95118605848e-38
0.00516339460438 -0.00688452613918 0.93 1.82182252827e-38
0.00688452613918 -0.00688452613918 0.93 1.92284157405e-38
0.00840208297631 -0.00672166638105 0.908 1.96883106861e-38
0.0100824995716 -0.00672166638105 0.908 1.86752503691e-38
0.0117629161668 -0.00672166638105 0.908 2.05162650811e-38
0.0134433327621 -0.00672166638105 0.908 2.04222771905e-38
0.0150904371341 -0.00670686094849 0.906 2.0886476925e-38
0.0167671523712 -0.00670686094849 0.906 2.07020884679e-38
0.018382795199 -0.00668465279965 0.903 2.06088180421e-38
0.0199429176548 -0.00664763921826 0.898 2.26356561409e-38
0.0216048274593 -0.00664763921826 0.898 2.34732963109e-38
0.0232667372639 -0.00664763921826 0.898 1.83090013973e-38
0.0249286470685 -0.00664763921826 0.898 1.54430713832e-38
0.026590556873 -0.00664763921826 0.898 1.72726220725e-38
0.0282524666776 -0.00664763921826 0.898 1.76421024386e-38
0.0299143764822 -0.00664763921826 0.898 1.58983028075e-38
0.0315762862867 -0.00664763921826 0.898 1.71872283454e-38
0.0333492368355 -0.00666984736709 0.901 1.70050048944e-38
0.0350166986772 -0.00666984736709 0.901 1.71908380903e-38
0.036684160519 -0.00666984736709 0.901 1.51611217244e-38
0.0383516223608 -0.00666984736709 0.901 1.44185316292e-38
0.0400190842026 -0.00666984736709 0.901 2.30048282213e-38
0.0417790799978 -0.00668465279965 0.903 2.34852563933e-38
0.0433540078861 -0.00666984736709 0.901 2.34754487054e-38
0.0450214697279 -0.00666984736709 0.901 2.25405920531e-38
0.0466889315697 -0.00666984736709 0.901 2.34672020639e-38
0.0486247418765 -0.00670686094849 0.906 2.34661216628e-38
0.0504124978578 -0.00672166638105 0.908 2.34643280008e-38
0.0522076565554 -0.0067364718136 0.91 1.9854059071e-38
0.0540694396995 -0.00675867996244 0.913 1.89252868567e-38
0.0557591096901 -0.00675867996244 0.913 2.34726741344e-38
0.0574487796807 -0.00675867996244 0.913 2.12664628257e-38
0.0592679972062 -0.006773485395 0.915 1.82139975653e-38
0.0611612418945 -0.00679569354383 0.918 2.07125883973e-38
0.0632025409083 -0.00683270712523 0.923 1.77692422483e-38
0.0649107176896 -0.00683270712523 0.923 1.96109842342e-38
-0.0034903807254 -0.0052355710881 0.943 2.22824378435e-38
-0.0017451903627 -0.0052355710881 0.943 2.21924072198e-38
0.0 -0.00520781090205 0.938 1.93358140574e-38
0.001726683572 -0.00518005071601 0.933 1.84973359109e-38
0.00344226306959 -0.00516339460438 0.93 2.05231370488e-38
0.00516339460438 -0.00516339460438 0.93 1.91419654343e-38
0.00688452613918 -0.00516339460438 0.93 1.90447447482e-38
0.00854088390653 -0.00512453034392 0.923 1.95964751899e-38
0.0101602280925 -0.00508011404625 0.915 1.87685207949e-38
0.0117888256738 -0.0050523538602 0.91 1.96879519537e-38
0.0134729436272 -0.0050523538602 0.91 2.00542177411e-38
0.0151237493574 -0.00504124978578 0.908 2.05137539543e-38
0.0168041659526 -0.00504124978578 0.908 2.11598310191e-38
0.0184845825479 -0.00504124978578 0.908 2.07924890344e-38
0.020053958399 -0.00501348959974 0.903 2.11601897515e-38
0.0217251215989 -0.00501348959974 0.903 2.10679955229e-38
0.0233962847988 -0.00501348959974 0.903 2.1992090203e-38
0.0250119276266 -0.00500238552532 0.901 2.19928076678e-38
0.0266793894684 -0.00500238552532 0.901 1.84851221935e-38
0.0283468513102 -0.00500238552532 0.901 1.52486762538e-38
0.0300143131519 -0.00500238552532 0.901 1.68116355154e-38
0.0316817749937 -0.00500238552532 0.901 1.552306871e-38
0.0334232639983 -0.00501348959974 0.903 1.60758753489e-38
0.0350944271982 -0.00501348959974 0.903 1.7365877084e-38
0.0367655903981 -0.00501348959974 0.903 1.6727339005e-38
0.038436753598 -0.00501348959974 0.903 2.34690405675e-38
0.0401079167979 -0.00501348959974 0.903 2.34787879996e-38
0.0417790799978 -0.00501348959974 0.903 2.1533630187e-38
0.0435945961652 -0.00503014571137 0.906 2.33714163074e-38
0.0452713114023 -0.00503014571137 0.906 2.3463610536e-38
0.0469480266394 -0.00503014571137 0.906 2.34639692684e-38
0.0488394206486 -0.0050523538602 0.91 2.34686327897e-38
0.0506900997183 -0.00506900997183 0.913 1.77439810409e-38
0.0524945118112 -0.00508011404625 0.915 2.34543451505e-38
0.05418788316 -0.00508011404625 0.915 1.67219524137e-38
0.0558812545087 -0.00508011404625 0.915 2.34864937399e-38
0.0577633951226 -0.00509677015787 0.918 2.27459159093e-38
0.0595918660434 -0.00510787423229 0.92 2.16356054789e-38
0.0612944907875 -0.00510787423229 0.92 2.15423686842e-38
0.0632025409083 -0.00512453034392 0.923 1.73050018761e-38
0.0649107176896 -0.00512453034392 0.923 2.27416559619e-38
0.0 -0.0034718739347 0.938 1.97027917044e-38
0.001726683572 -0.00345336714401 0.933 1.86824516419e-38
0.00344226306959 -0.00344226306959 0.93 1.92291962637e-38
0.00516339460438 -0.00344226306959 0.93 1.95982912727e-38
0.00690673428801 -0.00345336714401 0.933 1.96890281509e-38
0.00858715088327 -0.00343486035331 0.928 1.941316293e-38
0.0101935403157 -0.00339784677192 0.918 1.9411369268e-38
0.0118535994412 -0.0033867426975 0.915 1.98723404108e-38
0.0135173599249 -0.00337933998122 0.913 1.9871622946e-38
0.0151570615806 -0.0033682359068 0.91 2.1437489902e-38
0.016841179534 -0.0033682359068 0.91 2.10672780581e-38
0.0185252974874 -0.0033682359068 0.91 2.10672780581e-38
0.0201649991431 -0.00336083319052 0.908 2.14360549723e-38
0.0217972980826 -0.00335343047424 0.906 2.1712637658e-38
0.0234740133197 -0.00335343047424 0.906 2.17137138553e-38
0.0251507285568 -0.00335343047424 0.906 2.21761199277e-38
0.026827443794 -0.00335343047424 0.906 2.31924088364e-38
0.0284097743985 -0.00334232639983 0.903 2.3379015549e-38
0.0300809375984 -0.00334232639983 0.903 2.08904229815e-38
0.0317521007983 -0.00334232639983 0.903 2.06106131054e-38
0.0335343047424 -0.00335343047424 0.906 2.00585533585e-38
0.0350944271982 -0.00334232639983 0.903 2.26449929926e-38
0.0367655903981 -0.00334232639983 0.903 2.34779598322e-38
0.0385644504538 -0.00335343047424 0.906 2.34761661702e-38
0.0402411656909 -0.00335343047424 0.906 2.346719786e-38
0.041917880928 -0.00335343047424 0.906 2.34643280008e-38
0.0435945961652 -0.00335343047424 0.906 2.34628930711e-38
0.0452713114023 -0.00335343047424 0.906 2.3465404198e-38
0.0471553026952 -0.0033682359068 0.91 2.34711439165e-38
0.0490004297277 -0.00337933998122 0.913 2.34682740572e-38
0.0506900997183 -0.00337933998122 0.913 2.34762166169e-38
0.0524945118112 -0.0033867426975 0.915 2.3480231337e-38
0.0543655483507 -0.00339784677192 0.918 2.34780705348e-38
0.0560644717366 -0.00339784677192 0.918 2.2098747233e-38
0.0577633951226 -0.00339784677192 0.918 1.70251583689e-38
0.0595918660434 -0.00340524948819 0.92 1.99782855812e-38
0.061494364127 -0.00341635356261 0.923 1.98004005503e-38
0.0640242424153 -0.00346076986028 0.935 1.67557993768e-38
0.00345336714401 -0.001726683572 0.933 1.98809499886e-38
0.00518005071601 -0.001726683572 0.933 1.88614324883e-38
0.00692153972057 -0.00173038493014 0.935 1.96883106861e-38
0.00860565767397 -0.00172113153479 0.93 1.9504283764e-38
0.0103045810599 -0.00171743017665 0.928 1.96883106861e-38
0.0119831469761 -0.00171187813945 0.925 2.00567288679e-38
0.0135913870877 -0.00169892338596 0.918 2.0516982546e-38
0.0152403421387 -0.00169337134875 0.915 2.02418347899e-38
0.016841179534 -0.0016841179534 0.91 2.06095355069e-38
0.0185252974874 -0.0016841179534 0.91 2.10690717201e-38
0.0202094154408 -0.0016841179534 0.91 2.14360549723e-38
0.0218454157384 -0.00168041659526 0.908 2.17133551229e-38
0.0235258323337 -0.00168041659526 0.908 2.20814145723e-38
0.0251507285568 -0.00167671523712 0.906 2.19928076678e-38
0.026827443794 -0.00167671523712 0.906 2.19928076678e-38
0.0285041590311 -0.00167671523712 0.906 2.23605083848e-38
0.0301808742682 -0.00167671523712 0.906 2.3097703481e-38
0.0318575895053 -0.00167671523712 0.906 2.27300027639e-38
0.0335343047424 -0.00167671523712 0.906 2.34722201137e-38
0.0352110199796 -0.00167671523712 0.906 2.22693903535e-38
0.0368877352167 -0.00167671523712 0.906 2.26342212113e-38
0.0385644504538 -0.00167671523712 0.906 2.34614581415e-38
0.0402411656909 -0.00167671523712 0.906 2.33707170595e-38
0.0420104148815 -0.00168041659526 0.908 2.3463610536e-38
0.0436908314768 -0.00168041659526 0.908 2.34657629304e-38
0.0453712480721 -0.00168041659526 0.908 2.3463610536e-38
0.0473107597371 -0.00168966999061 0.913 2.3465404198e-38
0.0490004297277 -0.00168966999061 0.913 2.34707851841e-38
0.0508011404625 -0.00169337134875 0.915 2.34827634834e-38
0.0526666249647 -0.00169892338596 0.918 2.03351178274e-38
0.0544839918111 -0.0017026247441 0.92 2.0967550449e-38
0.0561866165552 -0.0017026247441 0.92 2.1065540448e-38
0.0580780105644 -0.00170817678131 0.923 2.00568689978e-38
0.0601100561829 -0.00171743017665 0.928 1.78585568085e-38
0.0621606085921 -0.001726683572 0.933 1.76824570318e-38
0.0640242424153 -0.00173038493014 0.935 1.43612311337e-38
0.00346076986028 0.0 0.935 1.87742997497e-38
0.00519115479043 0.0 0.935 1.88625240998e-38
0.00692153972057 0.0 0.935 1.95053571586e-38
0.00863341786002 0.0 0.933 1.95046396938e-38
0.010360101432 0.0 0.933 1.941316293e-38
0.0120220112366 0.0 0.928 1.97801461822e-38
0.0136950251156 0.0 0.925 2.0426223247e-38
0.0153236226969 0.0 0.92 2.0426223247e-38
0.017026247441 0.0 0.92 2.06124053662e-38
0.0186881572455 0.0 0.918 2.21775548573e-38
0.0203870806315 0.0 0.918 2.16229545563e-38
0.0220138275337 0.0 0.915 2.16208021619e-38
0.0236553798685 0.0 0.913 2.18973848476e-38
0.025261769301 0.0 0.91 2.23558448636e-38
0.0268866655242 0.0 0.908 2.15314777926e-38
0.0285670821194 0.0 0.908 2.24516264162e-38
0.0302474987147 0.0 0.908 2.25413095179e-38
0.03192791531 0.0 0.908 2.33724925046e-38
0.033682359068 0.0 0.91 2.34664803952e-38
0.0353664770214 0.0 0.91 2.33717750398e-38
0.0371727397934 0.0 0.913 2.34657629304e-38
0.038862409784 0.0 0.913 2.34661216628e-38
0.04064091237 0.0 0.915 2.32831681353e-38
0.0423342837187 0.0 0.915 2.33735687018e-38
0.0440276550675 0.0 0.915 2.3465404198e-38
0.0457210264162 0.0 0.915 2.34686327897e-38
0.0475698548068 0.0 0.918 2.34682740572e-38
0.0492687781928 0.0 0.918 2.34661216628e-38
0.0509677015787 0.0 0.918 2.34711439165e-38
0.052781367067 0.0 0.92 2.34751446236e-38
0.0546616570018 0.0 0.923 2.32003724155e-38
0.0564919786017 0.0 0.925 1.82142792263e-38
0.0583926260063 0.0 0.928 2.06045973311e-38
0.0604339250201 0.0 0.933 1.78531562042e-38
0.0621606085921 0.0 0.933 1.58367942127e-38
0.0640242424153 0.0 0.935 1.68476460834e-38
0.0034718739347 0.00173593696735 0.938 1.91430738614e-38
0.00520781090205 0.00173593696735 0.938 1.86781202284e-38
0.00694374786941 0.00173593696735 0.938 1.96904630805e-38
0.00865192465071 0.00173038493014 0.935 1.91372977091e-38
0.0103823095809 0.00173038493014 0.935 1.94124454652e-38
0.0120479207436 0.00172113153479 0.93 1.9779069985e-38
0.0137394414132 0.00171743017665 0.928 2.06084593097e-38
0.015406903255 0.00171187813945 0.925 2.02389649306e-38
0.0171187813945 0.00171187813945 0.925 2.08861181926e-38
0.0187899445944 0.00170817678131 0.923 2.12527427124e-38
0.0204981213757 0.00170817678131 0.923 2.12520252476e-38
0.0220860040175 0.00169892338596 0.918 2.24512676838e-38
0.0237849274034 0.00169892338596 0.918 2.20803383751e-38
0.0254005702312 0.00169337134875 0.915 2.32749172899e-38
0.0270347198498 0.00168966999061 0.913 2.19931664002e-38
0.0286300052078 0.0016841179534 0.91 2.19009721716e-38
0.0303141231612 0.0016841179534 0.91 2.2914391221e-38
0.0321037298216 0.00168966999061 0.913 2.3099201469e-38
0.0337933998122 0.00168966999061 0.913 1.85751640276e-38
0.0355607983237 0.00169337134875 0.915 1.82971464123e-38
0.0372541696725 0.00169337134875 0.915 2.1065568474e-38
0.0389475410212 0.00169337134875 0.915 1.6545115554e-38
0.040774161263 0.00169892338596 0.918 2.28218648847e-38
0.0425656186024 0.0017026247441 0.92 2.34795152735e-38
0.0442682433465 0.0017026247441 0.92 2.34610994091e-38
0.0459708680906 0.0017026247441 0.92 2.34682740572e-38
0.0479325879045 0.00171187813945 0.925 2.34805031889e-38
0.049805475123 0.00171743017665 0.928 2.34842334455e-38
0.0515229052996 0.00171743017665 0.928 2.3477766453e-38
0.0532403354763 0.00171743017665 0.928 2.34795629177e-38
0.0550762091134 0.00172113153479 0.93 2.34835201845e-38
0.0567973406482 0.00172113153479 0.93 1.71159695159e-38
0.058518472183 0.00172113153479 0.93 1.59166948499e-38
0.0607577938573 0.00173593696735 0.938 1.64792517236e-38
0.0626269797177 0.00173963832549 0.94 1.48218561558e-38
0.0645720434199 0.0017451903627 0.943 1.95169767255e-38
0.00527998738577 0.00351999159051 0.951 1.86788376932e-38
0.00695855330196 0.00347927665098 0.94 1.92294919377e-38
0.00867968483676 0.0034718739347 0.938 1.88635848827e-38
0.0104156218041 0.0034718739347 0.938 1.98741340728e-38
0.012112694511 0.00346076986028 0.935 1.9503922229e-38
0.0137690522784 0.00344226306959 0.93 2.02382474658e-38
0.0154568715899 0.00343486035331 0.928 2.04233533878e-38
0.0171743017665 0.00343486035331 0.928 2.08843245306e-38
0.0188306595339 0.00342375627889 0.925 2.125238398e-38
0.0205425376733 0.00342375627889 0.925 2.13456544058e-38
0.022206298157 0.00341635356261 0.923 2.12534601773e-38
0.0238367464174 0.00340524948819 0.92 2.25420269827e-38
0.0254838507894 0.00339784677192 0.918 2.27260567074e-38
0.0271827741753 0.00339784677192 0.918 2.31902564419e-38
0.0287873129287 0.0033867426975 0.915 2.34806040824e-38
0.0304806842775 0.0033867426975 0.915 1.48920808271e-38
0.0321740556262 0.0033867426975 0.915 1.56134692765e-38
0.0339784677192 0.00339784677192 0.918 1.76331327271e-38
0.0356773911051 0.00339784677192 0.918 1.43317183867e-38
0.0373763144911 0.00339784677192 0.918 1.97694388607e-38
0.039075237877 0.00339784677192 0.918 2.34795292865e-38
0.0408629938583 0.00340524948819 0.92 2.34831334262e-38
0.0425656186024 0.00340524948819 0.92 2.31085004856e-38
0.044412596314 0.00341635356261 0.923 2.34689915221e-38
0.046220709765 0.00342375627889 0.925 2.34686327897e-38
0.0481916829742 0.00344226306959 0.93 2.34682740572e-38
0.049912814509 0.00344226306959 0.93 2.3483141834e-38
0.0518005071601 0.00345336714401 0.933 2.34835257897e-38
0.0535271907321 0.00345336714401 0.933 2.29285681576e-38
0.0553723177646 0.00346076986028 0.935 2.06207823284e-38
0.0571027026947 0.00346076986028 0.935 1.5361648936e-38
0.0588330876248 0.00346076986028 0.935 1.47260886162e-38
0.0608873413922 0.00347927665098 0.94 1.51006332749e-38
0.0628268530572 0.0034903807254 0.943 1.59274820455e-38
0.0649144190478 0.0035088875161 0.948 1.97013876034e-38
0.00526333127414 0.00526333127414 0.948 1.91376564415e-38
0.00700296959964 0.00525222719973 0.946 1.95060746234e-38
0.00869819162745 0.00521891497647 0.94 1.90451034806e-38
0.0104378299529 0.00521891497647 0.94 1.95053571586e-38
0.0121515587715 0.00520781090205 0.938 2.0239323663e-38
0.013813468576 0.00518005071601 0.933 2.05144714191e-38
0.015540152148 0.00518005071601 0.933 2.07932064992e-38
0.0172113153479 0.00516339460438 0.93 2.09775949564e-38
0.0189324468827 0.00516339460438 0.93 2.10679955229e-38
0.0206535784175 0.00516339460438 0.93 2.13427845466e-38
0.0223265922965 0.00515229052996 0.928 2.19906552734e-38
0.0239662939522 0.00513563441834 0.925 2.22661617618e-38
0.0256781720917 0.00513563441834 0.925 2.17140725877e-38
0.0273308285009 0.00512453034392 0.923 2.2450550219e-38
0.0289446206497 0.00510787423229 0.92 1.76603963901e-38
0.0306472453938 0.00510787423229 0.92 1.66222248046e-38
0.0323498701378 0.00510787423229 0.92 2.34787011191e-38
0.0340524948819 0.00510787423229 0.92 2.29195073617e-38
0.035755119626 0.00510787423229 0.92 2.2279510531e-38
0.0374577443701 0.00510787423229 0.92 2.15444734345e-38
0.0391603691142 0.00510787423229 0.92 2.34772998207e-38
0.0409962427514 0.00512453034392 0.923 2.34765585338e-38
0.0427044195327 0.00512453034392 0.923 2.34704264517e-38
0.0445088316256 0.00513563441834 0.925 2.34639692684e-38
0.0464705514394 0.00516339460438 0.93 2.34661216628e-38
0.0483471400161 0.00518005071601 0.933 2.34722229163e-38
0.0500738235881 0.00518005071601 0.933 2.34763077013e-38
0.0519115479043 0.00519115479043 0.935 2.09002012422e-38
0.0536419328344 0.00519115479043 0.935 1.72058992462e-38
0.0553723177646 0.00519115479043 0.935 2.34798221579e-38
0.0572859199226 0.00520781090205 0.938 1.25965381425e-38
0.0590218568899 0.00520781090205 0.938 1.4453461796e-38
0.0608873413922 0.00521891497647 0.94 1.54715639849e-38
0.0631599752897 0.00526333127414 0.948 1.62976952906e-38
0.0649144190478 0.00526333127414 0.948 2.23764929964e-38
0.00526333127414 0.00701777503219 0.948 1.96004212464e-38
0.00701777503219 0.00701777503219 0.948 1.94138803948e-38
0.00875371199954 0.00700296959964 0.946 1.95053571586e-38
0.0104711421762 0.0069807614508 0.943 1.96875932213e-38
0.0121515587715 0.00694374786941 0.938 2.01464119697e-38
0.0138874957388 0.00694374786941 0.938 2.0239323663e-38
0.0156234327062 0.00694374786941 0.938 2.01474881669e-38
0.0173038493014 0.00692153972057 0.935 2.07910541048e-38
0.018993519292 0.00690673428801 0.933 2.10679955229e-38
0.020720202864 0.00690673428801 0.933 2.11594722867e-38
0.0223747099523 0.00688452613918 0.93 2.18973848476e-38
0.0240440224732 0.00686972070662 0.928 2.1805190619e-38
0.0257614526498 0.00686972070662 0.928 2.24498327542e-38
0.0274788828265 0.00686972070662 0.928 2.27264154398e-38
0.0291019283706 0.00684751255778 0.925 2.16222370915e-38
0.03081380651 0.00684751255778 0.925 2.13427845466e-38
0.0324553588448 0.00683270712523 0.923 2.34765249026e-38
0.0341635356261 0.00683270712523 0.923 2.34744369679e-38
0.0358717124074 0.00683270712523 0.923 2.31960536137e-38
0.0375798891887 0.00683270712523 0.923 2.34722201137e-38
0.03928806597 0.00683270712523 0.923 2.34700677193e-38
0.0410850753467 0.00684751255778 0.925 2.34679153248e-38
0.0427969534861 0.00684751255778 0.925 2.34639692684e-38
0.044653184593 0.00686972070662 0.928 2.3465404198e-38
0.0466204564441 0.00690673428801 0.933 2.34679727781e-38
0.048450778044 0.00692153972057 0.935 2.34675565924e-38
0.0501811629741 0.00692153972057 0.935 1.8576273856e-38
0.0519115479043 0.00692153972057 0.935 1.75660497671e-38
0.0536419328344 0.00692153972057 0.935 2.34709070971e-38
0.0555499829552 0.00694374786941 0.938 2.34754837378e-38
0.0574080647412 0.00695855330196 0.94 1.4437977448e-38
0.0591477030667 0.00695855330196 0.94 1.54737247871e-38
0.0614055315317 0.00701777503219 0.948 1.30748307357e-38
0.0633598486293 0.00703998318103 0.951 1.97982369454e-38
0.0651198444245 0.00703998318103 0.951 2.29238780116e-38
0.00530774757182 0.00884624595303 0.956 1.87717802151e-38
0.00701777503219 0.00877221879024 0.948 1.9598268852e-38
0.00875371199954 0.00875371199954 0.946 1.96883106861e-38
0.0104711421762 0.0087259518135 0.943 2.00567288679e-38
0.0121774682784 0.00869819162745 0.94 1.97776350554e-38
0.0138874957388 0.00867968483676 0.938 1.97776350554e-38
0.0156234327062 0.00867968483676 0.938 2.06066656477e-38
0.0173038493014 0.00865192465071 0.935 2.09754425619e-38
0.0190342342316 0.00865192465071 0.935 2.14360549723e-38
0.0207646191617 0.00865192465071 0.935 2.10654843961e-38
0.022446886436 0.00863341786002 0.933 2.22632919026e-38
0.024173570008 0.00863341786002 0.933 2.25387983911e-38
0.02590025358 0.00863341786002 0.933 2.21707389416e-38
0.027626937152 0.00863341786002 0.933 2.2816457274e-38
0.0293536207241 0.00863341786002 0.933 2.33717750398e-38
0.0309803676263 0.00860565767397 0.93 2.34625343387e-38
0.0326311733564 0.00858715088327 0.928 2.34646867332e-38
0.0342375627889 0.00855939069723 0.925 2.34643280008e-38
0.0359494409284 0.00855939069723 0.925 2.3463610536e-38
0.0376613190678 0.00855939069723 0.925 2.3463610536e-38
0.0395008940631 0.00858715088327 0.928 2.34650454656e-38
0.0412183242397 0.00858715088327 0.928 2.34704264517e-38
0.0429357544164 0.00858715088327 0.928 2.34704264517e-38
0.044653184593 0.00858715088327 0.928 2.3465404198e-38
0.0467203931138 0.00865192465071 0.935 2.34682740572e-38
0.048450778044 0.00865192465071 0.935 2.34661216628e-38
0.0501811629741 0.00865192465071 0.935 2.26349386761e-38
0.0520781090205 0.00867968483676 0.938 2.34729403811e-38
0.0538140459879 0.00867968483676 0.938 2.34804765643e-38
0.0556684264157 0.00869819162745 0.94 1.99685395504e-38
0.0575912819691 0.0087259518135 0.943 1.69416591973e-38
0.0596510877736 0.00877221879024 0.948 1.41833362937e-38
0.0614055315317 0.00877221879024 0.948 1.36261842281e-38
0.0633598486293 0.00879997897629 0.951 1.96970491833e-38
0.0651198444245 0.00879997897629 0.951 2.34835005664e-38
0.00536881998112 0.0107376399622 0.967 1.84940919049e-38
0.00715842664149 0.0107376399622 0.967 1.96886694185e-38
0.00877221879024 0.0105266625483 0.948 1.95950402603e-38
0.0104711421762 0.0104711421762 0.943 1.95950402603e-38
0.0122163325389 0.0104711421762 0.943 2.18970289178e-38
0.0139171066039 0.0104378299529 0.94 2.0884683263e-38
0.0156234327062 0.0104156218041 0.938 2.18048318866e-38
0.0173593696735 0.0104156218041 0.938 2.11583960894e-38
0.0190953066409 0.0104156218041 0.938 2.1343143279e-38
0.0208312436082 0.0104156218041 0.938 2.25387983911e-38
0.0224950040919 0.0103823095809 0.935 2.21703802092e-38
0.024225389022 0.0103823095809 0.935 2.23544099339e-38
0.0259557739521 0.0103823095809 0.935 2.32770696844e-38
0.0276861588823 0.0103823095809 0.935 2.34625343387e-38
0.0294165438124 0.0103823095809 0.935 2.34625343387e-38
0.0310803042961 0.010360101432 0.933 2.33696226454e-38
0.0327014991611 0.0103267892088 0.93 2.33706988426e-38
0.0343486035331 0.0103045810599 0.928 2.34607406767e-38
0.0360660337097 0.0103045810599 0.928 2.34628930711e-38
0.0377834638864 0.0103045810599 0.928 2.3463610536e-38
0.0395860253003 0.0103267892088 0.93 2.34610994091e-38
0.0413071568351 0.0103267892088 0.93 2.33696226454e-38
0.0430282883699 0.0103267892088 0.93 2.34661216628e-38
0.0447494199046 0.0103267892088 0.93 2.34657629304e-38
0.0467203931138 0.0103823095809 0.935 2.34646867332e-38
0.0486062350858 0.0104156218041 0.938 2.34682768598e-38
0.0503421720532 0.0104156218041 0.938 2.34675565924e-38
0.0520781090205 0.0104156218041 0.938 2.34693502545e-38
0.0538140459879 0.0104156218041 0.938 2.34801318449e-38
0.0564975306389 0.0105932869948 0.954 1.50865460214e-38
0.05838522329 0.0106154951436 0.956 1.41840691728e-38
0.0601544724806 0.0106154951436 0.956 1.39949891684e-38
0.0619237216712 0.0106154951436 0.956 1.66589318179e-38
0.0636929708618 0.0106154951436 0.956 2.34755566054e-38
0.00706219132986 0.0123588348273 0.954 1.94167516554e-38
0.00882773916233 0.0123588348273 0.954 1.91333516527e-38
0.0105266625483 0.0122811063063 0.948 2.01467707021e-38
0.0122551967994 0.0122551967994 0.946 1.98680356219e-38
0.0139615229016 0.0122163325389 0.943 2.16175735702e-38
0.0157067132643 0.0122163325389 0.943 2.17104852636e-38
0.017451903627 0.0122163325389 0.943 2.16200846971e-38
0.0191360215804 0.0121774682784 0.94 2.15282492009e-38
0.0208756599059 0.0121774682784 0.94 2.20806971075e-38
0.0225671805756 0.0121515587715 0.938 2.30019219283e-38
0.0243031175429 0.0121515587715 0.938 2.33717750398e-38
0.0260390545103 0.0121515587715 0.938 2.34628930711e-38
0.0277749914776 0.0121515587715 0.938 2.32752760224e-38
0.029510928445 0.0121515587715 0.938 2.32756347548e-38
0.0312468654123 0.0121515587715 0.938 2.34625343387e-38
0.0328773136727 0.012112694511 0.935 2.25416682503e-38
0.0346076986028 0.012112694511 0.935 2.34618168739e-38
0.036338083533 0.012112694511 0.935 2.31845167234e-38
0.0380684684631 0.012112694511 0.935 2.34639692684e-38
0.0397988533933 0.012112694511 0.935 2.34661216628e-38
0.0415292383234 0.012112694511 0.935 2.34632518036e-38
0.0432596232536 0.012112694511 0.935 2.34686327897e-38
0.0451343611511 0.0121515587715 0.938 2.27246217778e-38
0.0468702981185 0.0121515587715 0.938 2.34628930711e-38
0.0487098731137 0.0121774682784 0.94 2.34700691206e-38
0.0504495114392 0.0121774682784 0.94 2.34668391276e-38
0.0521891497647 0.0121774682784 0.94 2.34737223057e-38
0.0543877564995 0.0122811063063 0.948 2.03347675027e-38
0.0564975306389 0.0123588348273 0.954 1.53711077006e-38
0.05838522329 0.0123847443342 0.956 1.19720761066e-38
0.0601544724806 0.0123847443342 0.956 1.38026623554e-38
0.0621180429735 0.0124236085947 0.959 2.20889661697e-38
0.0638928442013 0.0124236085947 0.959 2.3480620898e-38
0.00718063479032 0.0143612695806 0.97 1.8126748519e-38
0.00877221879024 0.0140355500644 0.948 1.91355040471e-38
0.0105266625483 0.0140355500644 0.948 1.93155877154e-38
0.0122811063063 0.0140355500644 0.948 2.01453357724e-38
0.0140059391993 0.0140059391993 0.946 1.99587949209e-38
0.0157566815992 0.0140059391993 0.946 2.04183311341e-38
0.017451903627 0.0139615229016 0.943 2.08821721361e-38
0.0191970939897 0.0139615229016 0.943 2.11601897515e-38
0.0209422843524 0.0139615229016 0.943 2.1895949918e-38
0.0226152982314 0.0139171066039 0.94 2.18026794922e-38
0.0243549365569 0.0139171066039 0.94 2.2263650635e-38
0.0260945748824 0.0139171066039 0.94 2.30894526356e-38
0.0279230458032 0.0139615229016 0.943 2.29064991081e-38
0.0296682361659 0.0139615229016 0.943 2.28143048795e-38
0.0313134898588 0.0139171066039 0.94 2.34650454656e-38
0.0329828023797 0.0138874957388 0.938 2.23569210608e-38
0.034718739347 0.0138874957388 0.938 2.32795808112e-38
0.0364546763144 0.0138874957388 0.938 2.33696226454e-38
0.0382720431608 0.0139171066039 0.94 2.34618168739e-38
0.0399265502491 0.0138874957388 0.938 2.34607406767e-38
0.0416624872164 0.0138874957388 0.938 2.34668391276e-38
