# .PCD v0.7 - Point Cloud Data file format
VERSION 0.7
FIELDS x y z rgb
SIZE 4 4 4 4
TYPE F F F F
COUNT 1 1 1 1
WIDTH 837
HEIGHT 1
VIEWPOINT 0 0 0 1 0 0 0
POINTS 837
DATA ascii
-0.0387199074957 -0.0527998738577 0.951 2.34881963175e-38
-0.036843318919 -0.0526333127414 0.948 1.28842583484e-38
-0.0350148479982 -0.0525222719973 0.946 1.67557138976e-38
-0.0332641055983 -0.0525222719973 0.946 1.27902704578e-38
-0.0315133631984 -0.0525222719973 0.946 1.53677978336e-38
-0.0296682361659 -0.052355710881 0.943 1.39895353147e-38
-0.0278342132079 -0.0521891497647 0.94 1.1320178048e-38
-0.0260945748824 -0.0521891497647 0.94 1.24287298488e-38
-0.0243031175429 -0.0520781090205 0.938 1.39963666448e-38
-0.0225671805756 -0.0520781090205 0.938 1.40849763519e-38
-0.0207646191617 -0.0519115479043 0.935 1.49082139763e-38
-0.0190342342316 -0.0519115479043 0.935 1.51811967262e-38
-0.0173038493014 -0.0519115479043 0.935 1.3602774136e-38
-0.0155734643713 -0.0519115479043 0.935 1.48077562907e-38
-0.0138430794411 -0.0519115479043 0.935 1.37017842803e-38
-0.012112694511 -0.0519115479043 0.935 1.28759822797e-38
-0.0103823095809 -0.0519115479043 0.935 1.30668279201e-38
-0.00863341786002 -0.0518005071601 0.933 1.26072917069e-38
-0.00690673428801 -0.0518005071601 0.933 1.42599719054e-38
-0.00516339460438 -0.0516339460438 0.93 1.42520797924e-38
-0.00344226306959 -0.0516339460438 0.93 1.40669738705e-38
-0.00172113153479 -0.0516339460438 0.93 1.55402878655e-38
0.0 -0.0516339460438 0.93 1.48056038962e-38
0.00172113153479 -0.0516339460438 0.93 1.5817588016e-38
0.00344226306959 -0.0516339460438 0.93 1.56360694181e-38
0.00516339460438 -0.0516339460438 0.93 1.64622301511e-38
0.00690673428801 -0.0518005071601 0.933 1.57261112522e-38
0.00863341786002 -0.0518005071601 0.933 1.48956457303e-38
0.010360101432 -0.0518005071601 0.933 1.63743407115e-38
0.012086785004 -0.0518005071601 0.933 1.50882850328e-38
0.013813468576 -0.0518005071601 0.933 1.40798882371e-38
0.0155734643713 -0.0519115479043 0.935 1.51804792614e-38
0.0173038493014 -0.0519115479043 0.935 1.76629075169e-38
0.0190953066409 -0.0520781090205 0.938 1.60963230961e-38
0.0208312436082 -0.0520781090205 0.938 1.68310154732e-38
0.0225671805756 -0.0520781090205 0.938 1.69271473504e-38
0.0243549365569 -0.0521891497647 0.94 1.71108183427e-38
0.0262611359986 -0.0525222719973 0.946 1.6747781147e-38
0.0280711001288 -0.0526333127414 0.948 1.70232876355e-38
0.0298255438868 -0.0526333127414 0.948 1.71165678703e-38
0.0315799876449 -0.0526333127414 0.948 1.98798962121e-38
0.0333344314029 -0.0526333127414 0.948 2.34903332977e-38
0.0353109566493 -0.052966434974 0.954 2.31158152636e-38
-0.0387199074957 -0.0510398780625 0.951 2.33942070256e-38
-0.036843318919 -0.0508788689834 0.948 1.32519646706e-38
-0.035088875161 -0.0508788689834 0.948 1.37140092081e-38
-0.0333344314029 -0.0508788689834 0.948 1.57480653953e-38
-0.0315133631984 -0.0507715295974 0.946 1.38069209015e-38
-0.0296682361659 -0.0506105205183 0.943 1.54643164692e-38
-0.0279230458032 -0.0506105205183 0.943 1.0675517696e-38
-0.0260945748824 -0.0504495114392 0.94 9.57029818286e-39
-0.0243031175429 -0.0503421720532 0.938 1.41796915164e-38
-0.0225671805756 -0.0503421720532 0.938 1.63955703832e-38
-0.0208312436082 -0.0503421720532 0.938 1.41793383891e-38
-0.0190953066409 -0.0503421720532 0.938 1.49960908043e-38
-0.0173038493014 -0.0501811629741 0.935 1.42542321869e-38
-0.0155734643713 -0.0501811629741 0.935 1.32422480671e-38
-0.0138430794411 -0.0501811629741 0.935 1.43500137395e-38
-0.012112694511 -0.0501811629741 0.935 1.33434106058e-38
-0.0103823095809 -0.0501811629741 0.935 1.15963837844e-38
-0.00865192465071 -0.0501811629741 0.935 1.30675453849e-38
-0.00690673428801 -0.0500738235881 0.933 1.38868902022e-38
-0.00518005071601 -0.0500738235881 0.933 1.55463863164e-38
-0.00345336714401 -0.0500738235881 0.933 1.48056038962e-38
-0.00172113153479 -0.049912814509 0.93 1.54434301156e-38
0.0 -0.049912814509 0.93 1.5085773906e-38
0.00172113153479 -0.049912814509 0.93 1.5085773906e-38
0.00344226306959 -0.049912814509 0.93 1.48974393924e-38
0.00518005071601 -0.0500738235881 0.933 1.55395704007e-38
0.00690673428801 -0.0500738235881 0.933 1.57264699846e-38
0.00863341786002 -0.0500738235881 0.933 1.65598053658e-38
0.010360101432 -0.0500738235881 0.933 1.64676111372e-38
0.012086785004 -0.0500738235881 0.933 1.50886437652e-38
0.0138430794411 -0.0501811629741 0.935 1.44465127569e-38
0.0155734643713 -0.0501811629741 0.935 1.49986019311e-38
0.0173038493014 -0.0501811629741 0.935 1.60981167582e-38
0.0190953066409 -0.0503421720532 0.938 1.55471037812e-38
0.0208312436082 -0.0503421720532 0.938 1.61017040822e-38
0.0225671805756 -0.0503421720532 0.938 1.71115358076e-38
0.0245103935987 -0.0507715295974 0.946 1.68345943895e-38
0.0263166563707 -0.0508788689834 0.948 1.61020628146e-38
0.0280711001288 -0.0508788689834 0.948 1.81307001807e-38
0.0298255438868 -0.0508788689834 0.948 1.59201854844e-38
0.0315799876449 -0.0508788689834 0.948 2.30156406403e-38
0.0333344314029 -0.0508788689834 0.948 2.3487104706e-38
0.0353109566493 -0.0512008871415 0.954 2.34867529801e-38
-0.0388420523143 -0.0494353393091 0.954 2.31183361995e-38
-0.0369599117004 -0.0492798822672 0.951 1.44501813563e-38
-0.035088875161 -0.0491244252253 0.948 1.06733653015e-38
-0.0333344314029 -0.0491244252253 0.948 1.29829826278e-38
-0.0315133631984 -0.0490207871974 0.946 1.62083653161e-38
-0.0297626207984 -0.0490207871974 0.946 1.51002409113e-38
-0.0279230458032 -0.0488653301556 0.943 1.42707927321e-38
-0.0261778554405 -0.0488653301556 0.943 1.36254387374e-38
-0.0243031175429 -0.0486062350858 0.938 1.233183006e-38
-0.0225671805756 -0.0486062350858 0.938 1.85113811254e-38
-0.0208312436082 -0.0486062350858 0.938 1.36218233873e-38
-0.0190953066409 -0.0486062350858 0.938 1.55496149081e-38
-0.0173593696735 -0.0486062350858 0.938 1.2963512987e-38
-0.0155734643713 -0.048450778044 0.935 1.38868902022e-38
-0.0138430794411 -0.048450778044 0.935 1.32433242643e-38
-0.012112694511 -0.048450778044 0.935 1.2233492539e-38
-0.0103823095809 -0.048450778044 0.935 1.35242117389e-38
-0.00865192465071 -0.048450778044 0.935 1.33394645494e-38
-0.00690673428801 -0.0483471400161 0.933 1.48084737555e-38
-0.00518005071601 -0.0483471400161 0.933 1.41623966907e-38
-0.00345336714401 -0.0483471400161 0.933 1.52611940529e-38
-0.001726683572 -0.0483471400161 0.933 1.56314058968e-38
0.0 -0.0483471400161 0.933 1.4993220945e-38
0.001726683572 -0.0483471400161 0.933 1.47177144565e-38
0.00345336714401 -0.0483471400161 0.933 1.55463863164e-38
0.00518005071601 -0.0483471400161 0.933 1.49910685506e-38
0.00692153972057 -0.048450778044 0.935 1.54491698341e-38
0.00865192465071 -0.048450778044 0.935 1.60005415435e-38
0.0103823095809 -0.048450778044 0.935 1.45272275485e-38
0.012112694511 -0.048450778044 0.935 1.58236864669e-38
0.0138430794411 -0.048450778044 0.935 1.40759421807e-38
0.0156234327062 -0.0486062350858 0.938 1.41677776768e-38
0.0173593696735 -0.0486062350858 0.938 1.76636249817e-38
0.0190953066409 -0.0486062350858 0.938 1.61903109867e-38
0.0208756599059 -0.0487098731137 0.94 1.62825052153e-38
0.0227596511988 -0.0490207871974 0.946 1.65601640982e-38
0.0245103935987 -0.0490207871974 0.946 1.88618010298e-38
0.0263166563707 -0.0491244252253 0.948 1.63790042327e-38
0.0280711001288 -0.0491244252253 0.948 1.73938652183e-38
0.0298255438868 -0.0491244252253 0.948 1.99727966951e-38
0.0315799876449 -0.0491244252253 0.948 2.21855128313e-38
0.0333344314029 -0.0491244252253 0.948 2.34878431903e-38
0.0353109566493 -0.0494353393091 0.954 2.34849649233e-38
-0.0388420523143 -0.0476697914766 0.954 2.31179830723e-38
-0.0369599117004 -0.0475198864719 0.951 1.42657704784e-38
-0.0351999159051 -0.0475198864719 0.951 1.32552142818e-38
-0.0334399201099 -0.0475198864719 0.951 8.83917911689e-39
-0.0315133631984 -0.0472700447975 0.946 1.14153023916e-38
-0.0297626207984 -0.0472700447975 0.946 1.55633644486e-38
-0.0279230458032 -0.0471201397929 0.943 1.55633462317e-38
-0.0261778554405 -0.0471201397929 0.943 1.61132437751e-38
-0.0243031175429 -0.0468702981185 0.938 1.37168804686e-38
-0.0225671805756 -0.0468702981185 0.938 1.69390934198e-38
-0.0208312436082 -0.0468702981185 0.938 1.46334796033e-38
-0.0190953066409 -0.0468702981185 0.938 1.44450778273e-38
-0.0173593696735 -0.0468702981185 0.938 1.42470575387e-38
-0.0156234327062 -0.0468702981185 0.938 1.43439152886e-38
-0.0138430794411 -0.0467203931138 0.935 1.25986821292e-38
-0.012112694511 -0.0467203931138 0.935 1.4539075527e-38
-0.0103823095809 -0.0467203931138 0.935 1.47220192454e-38
-0.00865192465071 -0.0467203931138 0.935 1.37921848468e-38
-0.00692153972057 -0.0467203931138 0.935 1.4711974738e-38
-0.00518005071601 -0.0466204564441 0.933 1.38850965402e-38
-0.00345336714401 -0.0466204564441 0.933 1.63678835281e-38
-0.00173038493014 -0.0467203931138 0.935 1.49907098182e-38
0.0 -0.0467203931138 0.935 1.58251213965e-38
0.00173038493014 -0.0467203931138 0.935 1.42585369757e-38
0.00346076986028 -0.0467203931138 0.935 1.52712385603e-38
0.00519115479043 -0.0467203931138 0.935 1.47098223436e-38
0.00692153972057 -0.0467203931138 0.935 1.58190229456e-38
0.00865192465071 -0.0467203931138 0.935 1.58218928049e-38
0.0103823095809 -0.0467203931138 0.935 1.48066800934e-38
0.012112694511 -0.0467203931138 0.935 1.72987983278e-38
0.0138430794411 -0.0467203931138 0.935 1.55496149081e-38
0.0156234327062 -0.0468702981185 0.938 1.5453474623e-38
0.0173593696735 -0.0468702981185 0.938 1.60941707017e-38
0.0191360215804 -0.0469702347883 0.94 1.7021135241e-38
0.0208756599059 -0.0469702347883 0.94 1.60981167582e-38
0.0227596511988 -0.0472700447975 0.946 1.54567032147e-38
0.0245103935987 -0.0472700447975 0.946 1.7477801595e-38
0.0263166563707 -0.0473699814673 0.948 1.56392980098e-38
0.0280711001288 -0.0473699814673 0.948 1.95136220169e-38
0.0298255438868 -0.0473699814673 0.948 1.93271147965e-38
0.0316799243146 -0.0475198864719 0.951 2.34751460249e-38
0.0334399201099 -0.0475198864719 0.951 2.34878445916e-38
0.0353849838121 -0.0477697281463 0.956 2.34842222351e-38
-0.0388420523143 -0.0459042436441 0.954 2.3393856701e-38
-0.0370765044818 -0.0459042436441 0.954 1.29764539783e-38
-0.0351999159051 -0.0457598906767 0.951 1.20527222345e-38
-0.0334399201099 -0.0457598906767 0.951 1.19749025256e-38
-0.0315799876449 -0.0456155377093 0.948 8.56079015748e-39
-0.0297626207984 -0.0455193023976 0.946 1.23322588573e-38
-0.0279230458032 -0.0453749494302 0.943 1.40913760819e-38
-0.0261778554405 -0.0453749494302 0.943 1.5934292356e-38
-0.0243549365569 -0.0452305964628 0.94 1.71302865823e-38
-0.0226152982314 -0.0452305964628 0.94 1.60229006618e-38
-0.0208312436082 -0.0451343611511 0.938 1.2976438564e-38
-0.0190953066409 -0.0451343611511 0.938 1.46287488196e-38
-0.0173593696735 -0.0451343611511 0.938 1.36960445618e-38
-0.0156234327062 -0.0451343611511 0.938 1.46219329039e-38
-0.0138874957388 -0.0451343611511 0.938 1.37093176608e-38
-0.0121515587715 -0.0451343611511 0.938 1.32519338421e-38
-0.0104156218041 -0.0451343611511 0.938 1.36135361082e-38
-0.00865192465071 -0.0449900081837 0.935 1.49960908043e-38
-0.00692153972057 -0.0449900081837 0.935 1.56367868829e-38
-0.00519115479043 -0.0449900081837 0.935 1.45304561402e-38
-0.00346076986028 -0.0449900081837 0.935 1.55402878655e-38
-0.00173038493014 -0.0449900081837 0.935 1.75721552245e-38
0.0 -0.0449900081837 0.935 1.46237265659e-38
0.00173038493014 -0.0449900081837 0.935 1.52687274335e-38
0.00346076986028 -0.0449900081837 0.935 1.58244039317e-38
0.00519115479043 -0.0449900081837 0.935 1.56360694181e-38
0.00692153972057 -0.0449900081837 0.935 1.54484523693e-38
0.00865192465071 -0.0449900081837 0.935 1.72948480675e-38
0.0103823095809 -0.0449900081837 0.935 1.51768919373e-38
0.012112694511 -0.0449900081837 0.935 1.44411317708e-38
0.0138874957388 -0.0451343611511 0.938 1.73891988944e-38
0.0156234327062 -0.0451343611511 0.938 1.57246763226e-38
0.0173593696735 -0.0451343611511 0.938 1.65551418445e-38
0.0191360215804 -0.0452305964628 0.94 1.60105860509e-38
0.0208756599059 -0.0452305964628 0.94 1.527267349e-38
0.0227596511988 -0.0455193023976 0.946 1.60091511213e-38
0.0245622126127 -0.0456155377093 0.948 1.73866835636e-38
0.0263166563707 -0.0456155377093 0.948 2.00656985794e-38
0.0281599327241 -0.0457598906767 0.951 2.07111632768e-38
0.0299199285194 -0.0457598906767 0.951 1.6373981979e-38
0.0316799243146 -0.0457598906767 0.951 2.34755538028e-38
0.0335454088169 -0.0459042436441 0.954 2.34896410562e-38
0.0353849838121 -0.0460004789557 0.956 2.34827999171e-38
-0.0389234821933 -0.0442312297651 0.956 2.33020141984e-38
-0.0370765044818 -0.0441386958117 0.954 1.35296305601e-38
-0.0353109566493 -0.0441386958117 0.954 8.73405790999e-39
-0.0334399201099 -0.0439998948814 0.951 1.09608080503e-38
-0.0316799243146 -0.0439998948814 0.951 1.3538673139e-38
-0.0298255438868 -0.0438610939512 0.948 7.53414285057e-39
-0.0279230458032 -0.0436297590675 0.943 1.12308354618e-38
-0.0261778554405 -0.0436297590675 0.943 1.1230479532e-38
-0.0243549365569 -0.0434909581373 0.94 1.32591813577e-38
-0.0226152982314 -0.0434909581373 0.94 1.54700940228e-38
-0.0208756599059 -0.0434909581373 0.94 1.39948896762e-38
-0.0190953066409 -0.0433984241838 0.938 1.38000769598e-38
-0.0173593696735 -0.0433984241838 0.938 1.47126922028e-38
-0.0156234327062 -0.0433984241838 0.938 1.45318910698e-38
-0.0138874957388 -0.0433984241838 0.938 1.4168853874e-38
-0.0121515587715 -0.0433984241838 0.938 1.25140212812e-38
-0.0104156218041 -0.0433984241838 0.938 1.34348873696e-38
-0.00867968483676 -0.0433984241838 0.938 1.39826717549e-38
-0.00694374786941 -0.0433984241838 0.938 1.44379031792e-38
-0.00520781090205 -0.0433984241838 0.938 1.48924171387e-38
-0.00346076986028 -0.0432596232536 0.935 1.56342757561e-38
-0.00173038493014 -0.0432596232536 0.935 1.56353519533e-38
0.0 -0.0433984241838 0.938 1.50836215115e-38
0.00173593696735 -0.0433984241838 0.938 1.53630740565e-38
0.0034718739347 -0.0433984241838 0.938 1.56382218126e-38
0.00520781090205 -0.0433984241838 0.938 1.51733046133e-38
0.00694374786941 -0.0433984241838 0.938 1.53566168732e-38
0.00867968483676 -0.0433984241838 0.938 1.75703545559e-38
0.0103823095809 -0.0432596232536 0.935 1.53594867324e-38
0.012112694511 -0.0432596232536 0.935 1.43478613451e-38
0.0138874957388 -0.0433984241838 0.938 1.68385418472e-38
0.0156234327062 -0.0433984241838 0.938 1.56346344885e-38
0.0173963832549 -0.0434909581373 0.94 1.80327606284e-38
0.0191360215804 -0.0434909581373 0.94 1.36149710378e-38
0.0209422843524 -0.0436297590675 0.943 1.4991427283e-38
0.0227596511988 -0.0437685599977 0.946 1.7481388919e-38
0.0245622126127 -0.0438610939512 0.948 2.13514978204e-38
0.0263999369289 -0.0439998948814 0.951 1.87746192458e-38
0.0281599327241 -0.0439998948814 0.951 1.941316293e-38
0.0299199285194 -0.0439998948814 0.951 1.68328007274e-38
0.0316799243146 -0.0439998948814 0.951 2.34766678351e-38
0.0336157346215 -0.0442312297651 0.956 2.34882187383e-38
0.0354960245563 -0.0443700306954 0.959 2.34856921972e-38
-0.0371542330027 -0.0424619805745 0.956 1.35282082421e-38
-0.0353109566493 -0.0423731479792 0.954 1.3532485005e-38
-0.0335454088169 -0.0423731479792 0.954 6.53361995094e-39
-0.0316799243146 -0.0422398990862 0.951 9.57500374311e-39
-0.0299199285194 -0.0422398990862 0.951 1.43651561707e-38
-0.0280118783985 -0.0420178175978 0.946 1.37212090796e-38
-0.0262611359986 -0.0420178175978 0.946 7.25968733595e-39
-0.0244326650778 -0.0418845687048 0.943 1.17822071711e-38
-0.0226874747151 -0.0418845687048 0.943 1.26170713689e-38
-0.0209422843524 -0.0418845687048 0.943 1.38087832271e-38
-0.0191360215804 -0.0417513198118 0.94 1.43496550071e-38
-0.0173963832549 -0.0417513198118 0.94 1.37882387903e-38
-0.0156234327062 -0.0416624872164 0.938 1.30524786239e-38
-0.0138874957388 -0.0416624872164 0.938 1.45336847318e-38
-0.0121515587715 -0.0416624872164 0.938 1.22316988769e-38
-0.0104156218041 -0.0416624872164 0.938 1.26980510059e-38
-0.00867968483676 -0.0416624872164 0.938 1.44389793764e-38
-0.00694374786941 -0.0416624872164 0.938 1.48960044628e-38
-0.00520781090205 -0.0416624872164 0.938 1.55388529359e-38
-0.0034718739347 -0.0416624872164 0.938 1.47112572732e-38
-0.00173593696735 -0.0416624872164 0.938 1.60981167582e-38
0.0 -0.0416624872164 0.938 1.42560258489e-38
0.00173593696735 -0.0416624872164 0.938 1.62839401449e-38
0.0034718739347 -0.0416624872164 0.938 1.47162795269e-38
0.00520781090205 -0.0416624872164 0.938 1.55431577247e-38
0.00694374786941 -0.0416624872164 0.938 1.49910685506e-38
0.00867968483676 -0.0416624872164 0.938 1.53587692676e-38
0.0104156218041 -0.0416624872164 0.938 1.52680099687e-38
0.0121515587715 -0.0416624872164 0.938 1.59140870334e-38
0.0138874957388 -0.0416624872164 0.938 1.55488974432e-38
0.0156234327062 -0.0416624872164 0.938 1.4991427283e-38
0.0173963832549 -0.0417513198118 0.94 1.68295721358e-38
0.0191970939897 -0.0418845687048 0.943 1.821930148e-38
0.0209422843524 -0.0418845687048 0.943 2.04391404163e-38
0.0227596511988 -0.0420178175978 0.946 1.89593664353e-38
0.0245622126127 -0.0421066501932 0.948 2.19924643497e-38
0.0263999369289 -0.0422398990862 0.951 2.24671836317e-38
0.0282487653195 -0.0423731479792 0.954 1.97009742203e-38
0.0300143131519 -0.0423731479792 0.954 1.84026137399e-38
0.0317798609844 -0.0423731479792 0.954 2.34827466678e-38
0.0337212233285 -0.0425952294675 0.959 2.34885606551e-38
0.0356070653005 -0.0427284783606 0.962 2.34835061716e-38
-0.0371542330027 -0.0406927313839 0.956 1.34359929941e-38
-0.0353849838121 -0.0406927313839 0.956 1.27913270369e-38
-0.0336157346215 -0.0406927313839 0.956 1.13223850931e-38
-0.0317798609844 -0.0406076001467 0.954 6.61933597671e-39
-0.0299199285194 -0.0404799032909 0.951 8.08690464801e-39
-0.0280118783985 -0.0402670751979 0.946 1.19713572405e-38
-0.0262611359986 -0.0402670751979 0.946 1.45524397105e-38
-0.0244326650778 -0.0401393783421 0.943 1.39978590276e-38
-0.0226874747151 -0.0401393783421 0.943 1.2897604315e-38
-0.0209422843524 -0.0401393783421 0.943 1.4176797835e-38
-0.0191970939897 -0.0401393783421 0.943 1.67492749312e-38
-0.0173963832549 -0.0400116814863 0.94 1.83212319303e-38
-0.0156567449294 -0.0400116814863 0.94 1.73071122316e-38
-0.0139171066039 -0.0400116814863 0.94 1.66613266369e-38
-0.0121774682784 -0.0400116814863 0.94 1.44475889542e-38
-0.0104156218041 -0.0399265502491 0.938 1.4259613173e-38
-0.00867968483676 -0.0399265502491 0.938 1.47126922028e-38
-0.00694374786941 -0.0399265502491 0.938 1.56339170237e-38
-0.00520781090205 -0.0399265502491 0.938 1.40641040112e-38
-0.0034718739347 -0.0399265502491 0.938 1.58161530864e-38
-0.00173593696735 -0.0399265502491 0.938 1.21308950706e-38
0.0 -0.0399265502491 0.938 1.48066800934e-38
0.00173593696735 -0.0399265502491 0.938 1.5357334338e-38
0.0034718739347 -0.0399265502491 0.938 1.48030927694e-38
0.00520781090205 -0.0399265502491 0.938 1.48056038962e-38
0.00694374786941 -0.0399265502491 0.938 1.48960044628e-38
0.00867968483676 -0.0399265502491 0.938 1.49849700997e-38
0.0104156218041 -0.0399265502491 0.938 1.53584105352e-38
0.0121515587715 -0.0399265502491 0.938 1.72034077375e-38
0.0139171066039 -0.0400116814863 0.94 1.841158205e-38
0.0156567449294 -0.0400116814863 0.94 2.01614843359e-38
0.0173963832549 -0.0400116814863 0.94 1.96065785519e-38
0.0191970939897 -0.0401393783421 0.943 1.92309268673e-38
0.0210089087989 -0.0402670751979 0.946 1.74756492005e-38
0.0227596511988 -0.0402670751979 0.946 1.97840922387e-38
0.0245622126127 -0.0403522064351 0.948 1.95964751899e-38
0.0263999369289 -0.0404799032909 0.951 2.18152477381e-38
0.0282487653195 -0.0406076001467 0.954 1.98798737914e-38
0.0300143131519 -0.0406076001467 0.954 1.77543842807e-38
0.0318464854309 -0.0406927313839 0.956 2.34806012798e-38
0.0337212233285 -0.0408204282397 0.959 2.34856809868e-38
-0.0392492017096 -0.0392492017096 0.964 2.25658938982e-38
-0.0373874185655 -0.0391677718305 0.962 1.37133001511e-38
-0.0354960245563 -0.0390456270119 0.959 1.27909767122e-38
-0.0336157346215 -0.0389234821933 0.956 1.20545621394e-38
-0.0318464854309 -0.0389234821933 0.956 1.26106029752e-38
-0.0300143131519 -0.0388420523143 0.954 9.4831192015e-39
-0.0281599327241 -0.0387199074957 0.951 5.61416777266e-39
-0.0263166563707 -0.0385977626771 0.948 7.63669547739e-39
-0.0245103935987 -0.038516332798 0.946 1.39067872391e-38
-0.0227596511988 -0.038516332798 0.946 1.00373719805e-38
-0.0210089087989 -0.038516332798 0.946 1.55572155509e-38
-0.019258166399 -0.038516332798 0.946 9.19036553153e-39
-0.017451903627 -0.0383941879794 0.943 1.36999906183e-38
-0.0157067132643 -0.0383941879794 0.943 1.53558994084e-38
-0.0139171066039 -0.0382720431608 0.94 1.53634327889e-38
-0.0121774682784 -0.0382720431608 0.94 1.63797216976e-38
-0.0104378299529 -0.0382720431608 0.94 1.78594928759e-38
-0.00867968483676 -0.0381906132817 0.938 1.81339792191e-38
-0.00694374786941 -0.0381906132817 0.938 1.86860838075e-38
-0.00520781090205 -0.0381906132817 0.938 1.8963745493e-38
-0.00347927665098 -0.0382720431608 0.94 1.92421218408e-38
-0.00173963832549 -0.0382720431608 0.94 1.76740758657e-38
0.0 -0.0381906132817 0.938 1.82279951356e-38
0.00173593696735 -0.0381906132817 0.938 1.88707861555e-38
0.00347927665098 -0.0382720431608 0.94 1.85013169998e-38
0.00521891497647 -0.0382720431608 0.94 1.91488177838e-38
0.00695855330196 -0.0382720431608 0.94 1.97931306138e-38
0.00869819162745 -0.0382720431608 0.94 1.98853262437e-38
0.0104378299529 -0.0382720431608 0.94 1.95147360492e-38
0.0121774682784 -0.0382720431608 0.94 1.8317235427e-38
0.0139171066039 -0.0382720431608 0.94 1.68374642487e-38
0.0157067132643 -0.0383941879794 0.943 1.41588093666e-38
0.017451903627 -0.0383941879794 0.943 1.57182191393e-38
0.019258166399 -0.038516332798 0.946 1.88449321988e-38
0.0210089087989 -0.038516332798 0.946 2.24513195318e-38
0.0228077688546 -0.0385977626771 0.948 1.87721305397e-38
0.0246399411336 -0.0387199074957 0.951 1.9873416608e-38
0.026483217487 -0.0388420523143 0.954 1.99630997098e-38
0.0282487653195 -0.0388420523143 0.954 2.02411173251e-38
0.0300143131519 -0.0388420523143 0.954 1.95950402603e-38
0.0318464854309 -0.0389234821933 0.956 2.348563054e-38
0.0337212233285 -0.0390456270119 0.959 2.34882005214e-38
-0.0392492017096 -0.0374651470864 0.964 2.21049227553e-38
-0.0373874185655 -0.0373874185655 0.962 1.28846395016e-38
-0.0354960245563 -0.0372708257841 0.959 1.18715609677e-38
-0.0336157346215 -0.0371542330027 0.956 1.27935649105e-38
-0.0318464854309 -0.0371542330027 0.956 1.25180962571e-38
-0.0300143131519 -0.0370765044818 0.954 1.05923436256e-38
-0.0281599327241 -0.0369599117004 0.951 1.13306121163e-38
-0.0263166563707 -0.036843318919 0.948 6.07194535629e-39
-0.0245103935987 -0.0367655903981 0.946 1.21525717566e-38
-0.0227596511988 -0.0367655903981 0.946 1.2711751501e-38
-0.0210089087989 -0.0367655903981 0.946 1.51008420684e-38
-0.019258166399 -0.0367655903981 0.946 1.30571421452e-38
-0.0175074239991 -0.0367655903981 0.946 1.44343158551e-38
-0.0157067132643 -0.0366489976167 0.943 1.43414041617e-38
-0.0139615229016 -0.0366489976167 0.943 1.48099086851e-38
-0.0122163325389 -0.0366489976167 0.943 1.35242117389e-38
-0.0104711421762 -0.0366489976167 0.943 1.29678177758e-38
-0.0087259518135 -0.0366489976167 0.943 1.33283438447e-38
-0.0069807614508 -0.0366489976167 0.943 1.5723241393e-38
-0.0052355710881 -0.0366489976167 0.943 1.34144396224e-38
-0.0034903807254 -0.0366489976167 0.943 1.5262987715e-38
-0.0017451903627 -0.0366489976167 0.943 1.41606030287e-38
0.0 -0.0365324048353 0.94 1.69214160397e-38
0.00173963832549 -0.0365324048353 0.94 1.78480134389e-38
0.00347927665098 -0.0365324048353 0.94 1.81242373921e-38
0.00521891497647 -0.0365324048353 0.94 1.79412838646e-38
0.00695855330196 -0.0365324048353 0.94 1.80349130228e-38
0.00869819162745 -0.0365324048353 0.94 1.35127323019e-38
0.0104378299529 -0.0365324048353 0.94 1.65497608584e-38
0.0121774682784 -0.0365324048353 0.94 1.57218064634e-38
0.0139615229016 -0.0366489976167 0.943 1.88607262338e-38
0.0157067132643 -0.0366489976167 0.943 1.96965657353e-38
0.0175074239991 -0.0367655903981 0.946 2.07136421737e-38
0.019258166399 -0.0367655903981 0.946 1.71111770752e-38
0.0210533250966 -0.036843318919 0.948 1.76600376577e-38
0.0228077688546 -0.036843318919 0.948 1.95078682854e-38
0.0246399411336 -0.0369599117004 0.951 1.99656108366e-38
0.026483217487 -0.0370765044818 0.954 1.98741340728e-38
0.0282487653195 -0.0370765044818 0.954 1.87710347243e-38
0.0300772362403 -0.0371542330027 0.956 2.08868398613e-38
0.0318464854309 -0.0371542330027 0.956 2.3480996446e-38
0.0337212233285 -0.0372708257841 0.959 2.34881991201e-38
-0.0414163469002 -0.0360142146958 0.973 2.17335940766e-38
-0.0393713465282 -0.0357921332074 0.967 2.27499222216e-38
-0.0374651470864 -0.0356810924633 0.964 1.09488815991e-38
-0.0356070653005 -0.0356070653005 0.962 1.30715054544e-38
-0.0337212233285 -0.0354960245563 0.959 1.14159722123e-38
-0.0318464854309 -0.0353849838121 0.956 1.12266119482e-38
-0.0300143131519 -0.0353109566493 0.954 1.40010385738e-38
-0.0281599327241 -0.0351999159051 0.951 8.10022258861e-39
-0.0263999369289 -0.0351999159051 0.951 1.13295303139e-38
-0.0245622126127 -0.035088875161 0.948 1.24358876814e-38
-0.0228077688546 -0.035088875161 0.948 1.3263497357e-38
-0.0210533250966 -0.035088875161 0.948 1.49153788153e-38
-0.0192988813385 -0.035088875161 0.948 1.51779863514e-38
-0.0175074239991 -0.0350148479982 0.946 1.60984754906e-38
-0.0157566815992 -0.0350148479982 0.946 1.69292997449e-38
-0.0139615229016 -0.034903807254 0.943 1.60098685861e-38
-0.0122163325389 -0.034903807254 0.943 1.5181914191e-38
-0.0104711421762 -0.034903807254 0.943 1.45326085346e-38
-0.0087259518135 -0.034903807254 0.943 1.44328809255e-38
-0.00700296959964 -0.0350148479982 0.946 1.78458610444e-38
-0.00525222719973 -0.0350148479982 0.946 1.79394902026e-38
-0.0034903807254 -0.034903807254 0.943 1.73884772257e-38
-0.0017451903627 -0.034903807254 0.943 1.68371055163e-38
0.0 -0.0350148479982 0.946 1.74803127218e-38
0.00175074239991 -0.0350148479982 0.946 1.83093433141e-38
0.0034903807254 -0.034903807254 0.943 1.73877597609e-38
0.00521891497647 -0.0347927665098 0.94 1.81220849977e-38
0.00695855330196 -0.0347927665098 0.94 2.06159982954e-38
0.00869819162745 -0.0347927665098 0.94 1.85905895211e-38
0.0104378299529 -0.0347927665098 0.94 1.76690059678e-38
0.0122163325389 -0.034903807254 0.943 1.93245560255e-38
0.0139615229016 -0.034903807254 0.943 1.60030526703e-38
0.0157566815992 -0.0350148479982 0.946 1.31414442608e-38
0.0175074239991 -0.0350148479982 0.946 2.15379770149e-38
0.0192988813385 -0.035088875161 0.948 1.61906697191e-38
0.0210533250966 -0.035088875161 0.948 2.01590082416e-38
0.0228799453383 -0.0351999159051 0.951 1.82236062689e-38
0.0247176696545 -0.0353109566493 0.954 2.31009600986e-38
0.026483217487 -0.0353109566493 0.954 2.20962837503e-38
0.0283079870497 -0.0353849838121 0.956 2.01572061717e-38
0.0300772362403 -0.0353849838121 0.956 1.86770440311e-38
0.0319464221007 -0.0354960245563 0.959 2.34838592988e-38
0.0337212233285 -0.0354960245563 0.959 2.34864194711e-38
-0.0414163469002 -0.034213503961 0.973 2.09981968464e-38
-0.0394934913468 -0.034108015254 0.97 2.25669771019e-38
-0.0375817398678 -0.0340025265471 0.967 1.30675958317e-38
-0.0356810924633 -0.0338970378401 0.964 7.90717971217e-39
-0.0338267120354 -0.0338267120354 0.962 1.10486876809e-38
-0.0319464221007 -0.0337212233285 0.959 1.27049117632e-38
-0.0300772362403 -0.0336157346215 0.956 1.0491538418e-38
-0.0282487653195 -0.0335454088169 0.954 1.14167092953e-38
-0.026483217487 -0.0335454088169 0.954 1.243736465e-38
-0.0245622126127 -0.0333344314029 0.948 1.23436864463e-38
-0.0228077688546 -0.0333344314029 0.948 1.30766033782e-38
-0.0210533250966 -0.0333344314029 0.948 1.62050582518e-38
-0.0192988813385 -0.0333344314029 0.948 1.5466442239e-38
-0.0175444375805 -0.0333344314029 0.948 1.55586799078e-38
-0.0157566815992 -0.0332641055983 0.946 1.61063676035e-38
-0.0140059391993 -0.0332641055983 0.946 1.59194680195e-38
-0.0122551967994 -0.0332641055983 0.946 1.60995516878e-38
-0.0105044543995 -0.0332641055983 0.946 1.65580117038e-38
-0.00875371199954 -0.0332641055983 0.946 1.68328007274e-38
-0.00700296959964 -0.0332641055983 0.946 1.71083072159e-38
-0.00525222719973 -0.0332641055983 0.946 1.79376965406e-38
-0.00350148479982 -0.0332641055983 0.946 1.72941306027e-38
-0.00175074239991 -0.0332641055983 0.946 1.76629075169e-38
0.0 -0.0332641055983 0.946 1.80316844312e-38
0.00175074239991 -0.0332641055983 0.946 1.77554604779e-38
0.00350148479982 -0.0332641055983 0.946 1.77543842807e-38
0.0052355710881 -0.0331586168913 0.943 1.84912206444e-38
0.0069807614508 -0.0331586168913 0.943 1.76636249817e-38
0.00875371199954 -0.0332641055983 0.946 1.25918662134e-38
0.0104711421762 -0.0331586168913 0.943 1.48902647442e-38
0.0122163325389 -0.0331586168913 0.943 1.978481671e-38
0.0140059391993 -0.0332641055983 0.946 1.50854151736e-38
0.0157566815992 -0.0332641055983 0.946 1.70322629521e-38
0.0175074239991 -0.0332641055983 0.946 2.13630347107e-38
0.0192988813385 -0.0333344314029 0.948 1.51812653898e-38
0.0211199495431 -0.0334399201099 0.951 1.90627948737e-38
0.0228799453383 -0.0334399201099 0.951 1.80403164297e-38
0.0247176696545 -0.0335454088169 0.954 2.00574463328e-38
0.0265387378591 -0.0336157346215 0.956 2.0888274791e-38
0.0283079870497 -0.0336157346215 0.956 1.95071508206e-38
0.0300772362403 -0.0336157346215 0.956 1.82160728883e-38
0.0320463587704 -0.0338267120354 0.962 2.34863704256e-38
0.0338970378401 -0.0338970378401 0.964 2.34838901273e-38
-0.0375817398678 -0.0322129198867 0.967 1.2237469424e-38
-0.0356810924633 -0.0321129832169 0.964 1.24297275733e-38
-0.0338267120354 -0.0320463587704 0.962 6.25953437911e-39
-0.0319464221007 -0.0319464221007 0.959 1.05851984047e-38
-0.0300772362403 -0.0318464854309 0.956 1.37184401138e-38
-0.0282487653195 -0.0317798609844 0.954 1.160178579e-38
-0.026483217487 -0.0317798609844 0.954 1.03085890944e-38
-0.0246399411336 -0.0316799243146 0.951 1.40907623132e-38
-0.0228799453383 -0.0316799243146 0.951 1.22478740651e-38
-0.0211199495431 -0.0316799243146 0.951 1.62951309145e-38
-0.0193599537478 -0.0316799243146 0.951 1.3444997738e-38
-0.0175444375805 -0.0315799876449 0.948 1.21568345065e-38
-0.0157899938224 -0.0315799876449 0.948 1.2513330441e-38
-0.0140355500644 -0.0315799876449 0.948 1.72166962508e-38
-0.0122811063063 -0.0315799876449 0.948 1.58367115361e-38
-0.0105266625483 -0.0315799876449 0.948 1.71271168452e-38
-0.00875371199954 -0.0315133631984 0.946 1.74961936373e-38
-0.00700296959964 -0.0315133631984 0.946 1.68453913941e-38
-0.00525222719973 -0.0315133631984 0.946 1.68450396682e-38
-0.00350148479982 -0.0315133631984 0.946 1.73009465184e-38
-0.00175074239991 -0.0315133631984 0.946 1.74839000459e-38
0.0 -0.0315133631984 0.946 1.72087522898e-38
0.00175074239991 -0.0315133631984 0.946 1.77612001964e-38
0.00350148479982 -0.0315133631984 0.946 1.81299771107e-38
0.00525222719973 -0.0315133631984 0.946 1.82236062689e-38
0.00700296959964 -0.0315133631984 0.946 1.78566720621e-38
0.00875371199954 -0.0315133631984 0.946 1.61993199346e-38
0.0105044543995 -0.0315133631984 0.946 1.84170975608e-38
0.0122551967994 -0.0315133631984 0.946 2.08148873891e-38
0.0140355500644 -0.0315799876449 0.948 1.59231212046e-38
0.0157899938224 -0.0315799876449 0.948 1.68497872674e-38
0.0175444375805 -0.0315799876449 0.948 1.98896870845e-38
0.0192988813385 -0.0315799876449 0.948 1.51837863258e-38
0.0211199495431 -0.0316799243146 0.951 1.86918095131e-38
0.0229521218221 -0.0317798609844 0.954 1.84015809829e-38
0.0247176696545 -0.0317798609844 0.954 2.1624389486e-38
0.0265387378591 -0.0318464854309 0.956 2.06106663548e-38
0.0283079870497 -0.0318464854309 0.956 1.72948480675e-38
0.0301716208728 -0.0319464221007 0.959 1.78508832981e-38
0.0321129832169 -0.0321129832169 0.964 2.34874760501e-38
0.0338970378401 -0.0321129832169 0.964 2.34860355153e-38
-0.0376983326492 -0.0305176978589 0.97 1.14995358436e-38
-0.0357921332074 -0.0304233132263 0.967 1.1044331044e-38
-0.0338970378401 -0.0303289285938 0.964 1.14242496823e-38
-0.0320463587704 -0.0302660055054 0.962 8.19775296173e-39
-0.0301716208728 -0.0301716208728 0.959 7.27078842238e-39
-0.0282487653195 -0.0300143131519 0.954 1.30772914158e-38
-0.026483217487 -0.0300143131519 0.954 1.33532070834e-38
-0.0246399411336 -0.0299199285194 0.951 1.38151675429e-38
-0.0228799453383 -0.0299199285194 0.951 1.50130647326e-38
-0.0211865739896 -0.0300143131519 0.954 1.66664147517e-38
-0.0193599537478 -0.0299199285194 0.951 1.45499355901e-38
-0.0175999579526 -0.0299199285194 0.951 1.3168080142e-38
-0.0157899938224 -0.0298255438868 0.948 1.40835274092e-38
-0.0140355500644 -0.0298255438868 0.948 1.76813051645e-38
-0.0122811063063 -0.0298255438868 0.948 1.74090749118e-38
-0.0105266625483 -0.0298255438868 0.948 1.59364251323e-38
-0.00877221879024 -0.0298255438868 0.948 1.61179395262e-38
-0.00701777503219 -0.0298255438868 0.948 1.55611994425e-38
-0.00526333127414 -0.0298255438868 0.948 1.37158238896e-38
-0.00350148479982 -0.0297626207984 0.946 1.42629216386e-38
-0.00175074239991 -0.0297626207984 0.946 1.84173511958e-38
0.0 -0.0297626207984 0.946 1.50984080129e-38
0.00175074239991 -0.0297626207984 0.946 1.43554703957e-38
0.0035088875161 -0.0298255438868 0.948 2.00761886997e-38
0.00526333127414 -0.0298255438868 0.948 2.04482908952e-38
0.00701777503219 -0.0298255438868 0.948 1.73150463835e-38
0.00877221879024 -0.0298255438868 0.948 1.63952929261e-38
0.0105266625483 -0.0298255438868 0.948 1.62155707928e-38
0.0122811063063 -0.0298255438868 0.948 1.76856211637e-38
0.0140355500644 -0.0298255438868 0.948 1.77688316678e-38
0.0157899938224 -0.0298255438868 0.948 1.54657233729e-38
0.0175999579526 -0.0299199285194 0.951 2.10871582794e-38
0.0193599537478 -0.0299199285194 0.951 1.39920534481e-38
0.0211865739896 -0.0300143131519 0.954 2.247287991e-38
0.0229521218221 -0.0300143131519 0.954 1.70222114383e-38
0.0247694886685 -0.0300772362403 0.956 1.93177401098e-38
0.0266220184172 -0.0301716208728 0.959 1.93198925042e-38
0.028396819645 -0.0301716208728 0.959 1.77558192103e-38
0.0301716208728 -0.0301716208728 0.959 2.01532278854e-38
0.0321129832169 -0.0303289285938 0.964 2.34899801705e-38
-0.0396970660444 -0.0288705934869 0.975 1.99854994657e-38
-0.0376983326492 -0.0287225391613 0.97 1.35292424004e-38
-0.0357921332074 -0.028633706566 0.967 9.65891629775e-39
-0.0338970378401 -0.0285448739706 0.964 1.08671326493e-38
-0.0320463587704 -0.0284856522404 0.962 1.0499750027e-38
-0.0301716208728 -0.028396819645 0.959 1.14156765383e-38
-0.0283079870497 -0.0283079870497 0.956 6.53181087462e-39
-0.0265387378591 -0.0283079870497 0.956 6.89878291646e-39
-0.0247176696545 -0.0282487653195 0.954 1.41815216121e-38
-0.0229521218221 -0.0282487653195 0.954 1.1966993597e-38
-0.0211865739896 -0.0282487653195 0.954 1.71223061876e-38
-0.0194210261571 -0.0282487653195 0.954 1.33456092431e-38
-0.0175999579526 -0.0281599327241 0.951 1.2058072392e-38
-0.0158399621573 -0.0281599327241 0.951 1.69426134816e-38
-0.0140799663621 -0.0281599327241 0.951 1.54707554357e-38
-0.0122811063063 -0.0280711001288 0.948 1.62126420791e-38
-0.0105266625483 -0.0280711001288 0.948 1.72250017468e-38
-0.00877221879024 -0.0280711001288 0.948 1.70399014301e-38
-0.00701777503219 -0.0280711001288 0.948 1.88812930914e-38
-0.00526333127414 -0.0280711001288 0.948 1.87898401497e-38
-0.0035088875161 -0.0280711001288 0.948 1.88824071237e-38
-0.00175074239991 -0.0280118783985 0.946 1.81448392822e-38
0.0 -0.0280118783985 0.946 1.95270184302e-38
0.00175444375805 -0.0280711001288 0.948 1.84206876875e-38
0.0035088875161 -0.0280711001288 0.948 1.86951081696e-38
0.00526333127414 -0.0280711001288 0.948 1.91564408475e-38
0.00701777503219 -0.0280711001288 0.948 1.62058219594e-38
0.00877221879024 -0.0280711001288 0.948 1.71273872958e-38
0.0105266625483 -0.0280711001288 0.948 1.57477178733e-38
0.0122811063063 -0.0280711001288 0.948 1.99872749109e-38
0.0140799663621 -0.0281599327241 0.951 1.61096830757e-38
0.0158399621573 -0.0281599327241 0.951 1.83237907013e-38
0.0175999579526 -0.0281599327241 0.951 2.13644290026e-38
0.0194210261571 -0.0282487653195 0.954 1.67622425472e-38
0.0211865739896 -0.0282487653195 0.954 2.08174041211e-38
0.0230002394779 -0.0283079870497 0.956 1.50911548921e-38
0.0248472171894 -0.028396819645 0.959 1.76564503336e-38
0.0266220184172 -0.028396819645 0.959 1.84951667008e-38
0.0284856522404 -0.0284856522404 0.962 1.72030125713e-38
0.0304233132263 -0.028633706566 0.967 2.03372688205e-38
0.0323128565565 -0.0287225391613 0.97 2.34910787885e-38
-0.0396970660444 -0.0270661813939 0.975 1.82366691731e-38
-0.0378149254306 -0.0270106610218 0.973 1.46366591495e-38
-0.0359031739516 -0.0269273804637 0.97 1.17844128149e-38
-0.0340025265471 -0.0268440999056 0.967 8.7462772326e-39
-0.0321129832169 -0.0267608193474 0.964 9.94230509008e-39
-0.0302660055054 -0.0267052989754 0.962 9.93406405381e-39
-0.0283079870497 -0.0265387378591 0.956 1.30776417404e-38
-0.0265387378591 -0.0265387378591 0.956 9.02501231274e-39
-0.0247176696545 -0.026483217487 0.954 1.23387398627e-38
-0.0229521218221 -0.026483217487 0.954 1.39974652628e-38
-0.0211865739896 -0.026483217487 0.954 1.67549978341e-38
-0.0194210261571 -0.026483217487 0.954 1.32515961291e-38
-0.0176554783247 -0.026483217487 0.954 1.40878462111e-38
-0.0158399621573 -0.0263999369289 0.951 1.62122861492e-38
-0.0140799663621 -0.0263999369289 0.951 1.44659669835e-38
-0.0122811063063 -0.0263166563707 0.948 1.45538984622e-38
-0.0105266625483 -0.0263166563707 0.948 1.38112971566e-38
-0.00877221879024 -0.0263166563707 0.948 1.62065632463e-38
-0.00701777503219 -0.0263166563707 0.948 1.29750344629e-38
-0.00526333127414 -0.0263166563707 0.948 1.40788456711e-38
-0.0035088875161 -0.0263166563707 0.948 1.77712923479e-38
-0.00175444375805 -0.0263166563707 0.948 1.83270094838e-38
0.0 -0.0263166563707 0.948 1.88809049317e-38
0.00175444375805 -0.0263166563707 0.948 1.86950871502e-38
0.0035088875161 -0.0263166563707 0.948 1.82341230138e-38
0.00526333127414 -0.0263166563707 0.948 1.83248725037e-38
0.00701777503219 -0.0263166563707 0.948 1.97981893013e-38
0.00877221879024 -0.0263166563707 0.948 1.36229079923e-38
0.0105266625483 -0.0263166563707 0.948 1.97985998817e-38
0.0123199705668 -0.0263999369289 0.951 2.12725991117e-38
0.0140799663621 -0.0263999369289 0.951 1.60229146748e-38
0.0158399621573 -0.0263999369289 0.951 1.94352123614e-38
0.0175999579526 -0.0263999369289 0.951 2.1367628167e-38
0.0194210261571 -0.026483217487 0.954 1.58388415098e-38
0.0212309902873 -0.0265387378591 0.956 2.13669975827e-38
0.0230724159616 -0.0266220184172 0.959 1.4534760929e-38
0.0249249457103 -0.0267052989754 0.962 1.65562180417e-38
0.0267052989754 -0.0267052989754 0.962 1.8494449236e-38
0.0285448739706 -0.0267608193474 0.964 1.96965615314e-38
0.0305176978589 -0.0269273804637 0.97 1.74756492005e-38
0.0323128565565 -0.0269273804637 0.97 2.34931905452e-38
-0.0396156361654 -0.0252099502871 0.973 1.75905542733e-38
-0.0376983326492 -0.0251322217661 0.97 1.38976717926e-38
-0.0359031739516 -0.0251322217661 0.97 1.36261421892e-38
-0.0340025265471 -0.0250544932452 0.967 1.16933130005e-38
-0.0321129832169 -0.0249767647243 0.964 8.1920300588e-39
-0.0303289285938 -0.0249767647243 0.964 1.1688296352e-38
-0.028396819645 -0.0248472171894 0.959 1.02238862074e-38
-0.0266220184172 -0.0248472171894 0.959 9.66390071639e-39
-0.0247176696545 -0.0247176696545 0.954 1.36240346363e-38
-0.0229521218221 -0.0247176696545 0.954 1.3168080142e-38
-0.0212309902873 -0.0247694886685 0.956 1.82311971026e-38
-0.0194617410967 -0.0247694886685 0.956 1.5656248116e-38
-0.0176554783247 -0.0247176696545 0.954 1.43716708073e-38
-0.0158899304922 -0.0247176696545 0.954 1.40036141604e-38
-0.0140799663621 -0.0246399411336 0.951 1.31666311994e-38
-0.0122811063063 -0.0245622126127 0.948 1.31597984681e-38
-0.0105266625483 -0.0245622126127 0.948 1.74961375854e-38
-0.00877221879024 -0.0245622126127 0.948 1.59274372039e-38
-0.00701777503219 -0.0245622126127 0.948 1.53728621263e-38
-0.00526333127414 -0.0245622126127 0.948 1.84199660188e-38
-0.0035088875161 -0.0245622126127 0.948 1.5564418225e-38
-0.00175444375805 -0.0245622126127 0.948 1.63923810279e-38
0.0 -0.0245622126127 0.948 1.63945474353e-38
0.00175444375805 -0.0245622126127 0.948 1.51996055841e-38
0.0035088875161 -0.0245622126127 0.948 1.92522686429e-38
0.00526333127414 -0.0245622126127 0.948 1.93408335085e-38
0.00703998318103 -0.0246399411336 0.951 2.02598709024e-38
0.00879997897629 -0.0246399411336 0.951 1.50990792349e-38
0.0105599747715 -0.0246399411336 0.951 2.02574074197e-38
0.0123588348273 -0.0247176696545 0.954 2.07197756571e-38
0.0141243826597 -0.0247176696545 0.954 1.5838138058e-38
0.0158899304922 -0.0247176696545 0.954 1.89738993017e-38
0.0176554783247 -0.0247176696545 0.954 2.14565938039e-38
0.0194617410967 -0.0247694886685 0.956 1.47267290096e-38
0.0212309902873 -0.0247694886685 0.956 2.17346926946e-38
0.0230724159616 -0.0248472171894 0.959 1.49971670015e-38
0.0249249457103 -0.0249249457103 0.962 1.75703545559e-38
0.0267608193474 -0.0249767647243 0.964 2.17173067845e-38
0.028633706566 -0.0250544932452 0.967 1.67424001609e-38
0.0305176978589 -0.0251322217661 0.97 1.94121007458e-38
0.0323128565565 -0.0251322217661 0.97 2.34917640234e-38
-0.0396156361654 -0.0234092395523 0.973 1.68511941711e-38
-0.0376983326492 -0.0233370630686 0.97 1.25140212812e-38
-0.0359031739516 -0.0233370630686 0.97 1.54664618572e-38
-0.0340025265471 -0.0232648865848 0.967 1.33502783696e-38
-0.0322129198867 -0.0232648865848 0.967 1.0956801738e-38
-0.0303289285938 -0.0231927101011 0.964 1.04883336484e-38
-0.0284856522404 -0.0231445924453 0.962 9.20618619119e-39
-0.0266220184172 -0.0230724159616 0.959 8.7416291256e-39
-0.0247694886685 -0.0230002394779 0.956 1.4547432871e-38
-0.0230002394779 -0.0230002394779 0.956 1.20606689981e-38
-0.0212309902873 -0.0230002394779 0.956 1.85074532858e-38
-0.0194617410967 -0.0230002394779 0.956 1.29843853276e-38
-0.0176924919061 -0.0230002394779 0.956 1.34464452793e-38
-0.0158899304922 -0.0229521218221 0.954 1.51916756361e-38
-0.0141243826597 -0.0229521218221 0.954 1.38947823152e-38
-0.0123199705668 -0.0228799453383 0.951 1.46334768007e-38
-0.0105599747715 -0.0228799453383 0.951 1.73146484148e-38
-0.00879997897629 -0.0228799453383 0.951 1.49230144907e-38
-0.00701777503219 -0.0228077688546 0.948 1.64910604657e-38
-0.00526333127414 -0.0228077688546 0.948 1.62130526595e-38
-0.0035088875161 -0.0228077688546 0.948 1.6489601714e-38
-0.00175444375805 -0.0228077688546 0.948 1.639457406e-38
0.0 -0.0228077688546 0.948 1.61215422646e-38
0.00175444375805 -0.0228077688546 0.948 1.53850716398e-38
0.0035088875161 -0.0228077688546 0.948 1.78714977998e-38
0.00526333127414 -0.0228077688546 0.948 1.82355579435e-38
0.00703998318103 -0.0228799453383 0.951 1.90631451983e-38
0.00879997897629 -0.0228799453383 0.951 1.69426681322e-38
0.0105599747715 -0.0228799453383 0.951 1.97978964299e-38
0.0123588348273 -0.0229521218221 0.954 2.04445550335e-38
0.0141243826597 -0.0229521218221 0.954 1.41739251732e-38
0.0158899304922 -0.0229521218221 0.954 1.99808485561e-38
0.0176924919061 -0.0230002394779 0.956 2.1086409986e-38
0.0194617410967 -0.0230002394779 0.956 1.72170830092e-38
0.0212976147338 -0.0230724159616 0.959 2.09052683374e-38
0.0231445924453 -0.0231445924453 0.962 1.71140469344e-38
0.0249767647243 -0.0231927101011 0.964 1.95060746234e-38
0.0268440999056 -0.0232648865848 0.967 1.90422336213e-38
0.028633706566 -0.0232648865848 0.967 1.47144858649e-38
0.0305176978589 -0.0233370630686 0.97 2.17198851737e-38
0.0323128565565 -0.0233370630686 0.97 2.34906612015e-38
-0.0396156361654 -0.0216085288175 0.973 1.6942315005e-38
-0.0376983326492 -0.021541904371 0.97 1.26065826499e-38
-0.0359031739516 -0.021541904371 0.97 1.30715208687e-38
-0.0340025265471 -0.0214752799245 0.967 1.54689855957e-38
-0.0322129198867 -0.0214752799245 0.967 1.46427898302e-38
-0.0304233132263 -0.0214752799245 0.967 1.21517407866e-38
-0.0285448739706 -0.021408655478 0.964 1.30755341875e-38
-0.0266220184172 -0.0212976147338 0.959 8.55546242072e-39
-0.0247694886685 -0.0212309902873 0.956 1.52824419416e-38
-0.0230002394779 -0.0212309902873 0.956 1.31630032376e-38
-0.0212976147338 -0.0212976147338 0.959 1.92417406876e-38
-0.0194617410967 -0.0212309902873 0.956 1.37194518513e-38
-0.0176924919061 -0.0212309902873 0.956 1.68548039159e-38
-0.0159232427154 -0.0212309902873 0.956 1.39927765181e-38
-0.0141539935248 -0.0212309902873 0.956 1.59288875478e-38
-0.0123199705668 -0.0211199495431 0.951 1.63938313718e-38
-0.0105599747715 -0.0211199495431 0.951 1.63055803971e-38
-0.00879997897629 -0.0211199495431 0.951 1.40979481717e-38
-0.00701777503219 -0.0210533250966 0.948 1.51081120048e-38
-0.00526333127414 -0.0210533250966 0.948 1.5102370885e-38
-0.0035088875161 -0.0210533250966 0.948 1.73128813774e-38
-0.00175444375805 -0.0210533250966 0.948 1.62036513481e-38
0.0 -0.0210533250966 0.948 1.67586075789e-38
0.00175999579526 -0.0211199495431 0.951 1.52813251067e-38
0.00351999159051 -0.0211199495431 0.951 1.54654080807e-38
0.00527998738577 -0.0211199495431 0.951 1.7309320678e-38
0.00703998318103 -0.0211199495431 0.951 1.86050397108e-38
0.00882773916233 -0.0211865739896 0.954 1.65782240328e-38
0.0105932869948 -0.0211865739896 0.954 1.93394448217e-38
0.0123588348273 -0.0211865739896 0.954 2.07215749243e-38
0.0141243826597 -0.0211865739896 0.954 1.50958464393e-38
0.0159232427154 -0.0212309902873 0.956 2.12704579276e-38
0.0176924919061 -0.0212309902873 0.956 2.1917542526e-38
0.019522813506 -0.0212976147338 0.959 1.93386264634e-38
0.0212976147338 -0.0212976147338 0.959 1.95201786924e-38
0.0231445924453 -0.0213642391803 0.962 2.00581637976e-38
0.0250544932452 -0.0214752799245 0.967 1.59094235122e-38
0.0269273804637 -0.021541904371 0.97 1.6651640862e-38
0.0287225391613 -0.021541904371 0.97 1.48088324879e-38
0.0305176978589 -0.021541904371 0.97 2.34701251725e-38
0.0323128565565 -0.021541904371 0.97 2.34910521638e-38
-0.0396156361654 -0.0198078180827 0.973 1.47321366203e-38
-0.0376983326492 -0.0197467456734 0.97 1.26108986492e-38
-0.0359031739516 -0.0197467456734 0.97 8.55361550934e-39
-0.034108015254 -0.0197467456734 0.97 1.65634417353e-38
-0.0322129198867 -0.0196856732641 0.967 1.54704303344e-38
-0.0304233132263 -0.0196856732641 0.967 1.59328125848e-38
-0.0285448739706 -0.0196246008548 0.964 1.27074172848e-38
-0.0266220184172 -0.019522813506 0.959 1.08595726441e-38
-0.0247694886685 -0.0194617410967 0.956 1.48214455754e-38
-0.0230002394779 -0.0194617410967 0.956 1.31612151808e-38
-0.0212976147338 -0.019522813506 0.959 1.80432549526e-38
-0.0194617410967 -0.0194617410967 0.956 1.27967024178e-38
-0.0176924919061 -0.0194617410967 0.956 1.21456030993e-38
-0.0159232427154 -0.0194617410967 0.956 1.64834528164e-38
-0.0141243826597 -0.0194210261571 0.954 1.39099261477e-38
-0.0123588348273 -0.0194210261571 0.954 1.49255200123e-38
-0.0105599747715 -0.0193599537478 0.951 1.43687841324e-38
-0.00879997897629 -0.0193599537478 0.951 1.27128473164e-38
-0.00703998318103 -0.0193599537478 0.951 1.95309841049e-38
-0.00527998738577 -0.0193599537478 0.951 1.92518580625e-38
-0.00351999159051 -0.0193599537478 0.951 1.93433698587e-38
-0.00175999579526 -0.0193599537478 0.951 1.98933164475e-38
0.0 -0.0193599537478 0.951 1.90653536447e-38
0.00175999579526 -0.0193599537478 0.951 1.98025529447e-38
0.00351999159051 -0.0193599537478 0.951 1.98021605811e-38
0.00527998738577 -0.0193599537478 0.951 2.00769622165e-38
0.00706219132986 -0.0194210261571 0.954 1.83259557074e-38
0.00882773916233 -0.0194210261571 0.954 1.69440876476e-38
0.0105932869948 -0.0194210261571 0.954 2.04446601309e-38
0.0123847443342 -0.0194617410967 0.956 2.03531609464e-38
0.0141539935248 -0.0194617410967 0.956 1.81394120532e-38
0.0159232427154 -0.0194617410967 0.956 2.0813069905e-38
0.0176924919061 -0.0194617410967 0.956 2.12707059575e-38
0.019522813506 -0.019522813506 0.959 1.95201632782e-38
0.0213642391803 -0.0195838859153 0.962 2.02570276678e-38
0.0231445924453 -0.0195838859153 0.962 1.46226503687e-38
0.0250544932452 -0.0196856732641 0.967 1.80187812749e-38
0.0269273804637 -0.0197467456734 0.97 1.80270279164e-38
0.0287225391613 -0.0197467456734 0.97 2.0060316192e-38
0.0305176978589 -0.0197467456734 0.97 2.34723097968e-38
