# .PCD v0.7 - Point Cloud Data file format
VERSION 0.7
FIELDS x y z rgb
SIZE 4 4 4 4
TYPE F F F F
COUNT 1 1 1 1
WIDTH 840
HEIGHT 1
VIEWPOINT 0 0 0 1 0 0 0
POINTS 840
DATA ascii
-0.0230335517011 -0.052648118174 0.889 2.19237881132e-38
-0.0212920626966 -0.0524112312531 0.885 2.33074470325e-38
-0.0195875872734 -0.0522335660624 0.882 1.21528071747e-38
-0.0179552883339 -0.0522335660624 0.882 1.35303129924e-38
-0.0162859758131 -0.0521151226019 0.88 1.25172933131e-38
-0.0146240660085 -0.0519966791415 0.878 1.15049084219e-38
-0.0129547534877 -0.0518190139508 0.875 1.28871029843e-38
-0.0112835902878 -0.0515821270299 0.871 1.37132637173e-38
-0.00964944066926 -0.0514636835694 0.869 1.26951811466e-38
-0.00802269376702 -0.051345240109 0.867 1.18726077377e-38
-0.00639594686478 -0.0511675749183 0.864 1.21473967613e-38
-0.00479696014859 -0.0511675749183 0.864 1.43579240693e-38
-0.00319057071611 -0.0510491314578 0.862 1.27019970624e-38
-0.00159528535806 -0.0510491314578 0.862 1.11350539092e-38
0.0 -0.0509306879973 0.86 1.65741995036e-38
0.00159158399992 -0.0509306879973 0.86 1.47278024042e-38
0.00317576528356 -0.0508122445369 0.858 1.61049326739e-38
0.00476364792533 -0.0508122445369 0.858 1.61967681701e-38
0.00635153056711 -0.0508122445369 0.858 1.65655450843e-38
0.00792090641819 -0.0506938010764 0.856 1.66577393129e-38
0.00950508770183 -0.0506938010764 0.856 1.67499335414e-38
0.0110633594785 -0.050575357616 0.854 1.6934680731e-38
0.012643839404 -0.050575357616 0.854 1.684212777e-38
0.0142243193295 -0.050575357616 0.854 1.69350394634e-38
0.015804799255 -0.050575357616 0.854 1.6934680731e-38
0.01742599412 -0.0506938010764 0.856 1.67510097387e-38
0.0190101754037 -0.0506938010764 0.856 1.74882048348e-38
0.0205943566873 -0.0506938010764 0.856 1.75786054013e-38
0.0221785379709 -0.0506938010764 0.856 1.77640700557e-38
0.0238182396267 -0.0508122445369 0.858 1.75793228661e-38
0.0254061222684 -0.0508122445369 0.858 1.84994714897e-38
0.0270569279986 -0.0509306879973 0.86 1.78544706222e-38
0.0286485119985 -0.0509306879973 0.86 1.90555067204e-38
0.0302400959984 -0.0509306879973 0.86 1.80399352765e-38
0.0318316799983 -0.0509306879973 0.86 1.96987139259e-38
0.0335009925192 -0.0510491314578 0.862 1.83175941595e-38
0.0350962778772 -0.0510491314578 0.862 1.88675309392e-38
0.0366915632353 -0.0510491314578 0.862 1.90526368611e-38
0.0385089300817 -0.051345240109 0.867 2.09883891584e-38
0.0401134688351 -0.051345240109 0.867 1.64762921812e-38
0.0418142429001 -0.0514636835694 0.869 1.21222854929e-38
0.0434224830117 -0.0514636835694 0.869 2.05289370232e-38
0.0451343611511 -0.0515821270299 0.871 1.98014543267e-38
0.0467463026208 -0.0515821270299 0.871 2.06246933524e-38
0.0483582440905 -0.0515821270299 0.871 2.11745993036e-38
-0.0230335517011 -0.0510028644811 0.889 2.13709702639e-38
-0.0212920626966 -0.0507733802764 0.885 2.29379610612e-38
-0.0196542117199 -0.0507733802764 0.885 1.27060075786e-38
-0.0180163607432 -0.0507733802764 0.885 1.32508576449e-38
-0.0163229893945 -0.0506012671229 0.882 1.2147437399e-38
-0.0146573782318 -0.0504865250206 0.88 1.25169051534e-38
-0.0129991697854 -0.0503717829183 0.878 1.22363623982e-38
-0.0112835902878 -0.0499701855602 0.871 1.26948224142e-38
-0.0096716488181 -0.0499701855602 0.871 1.26101615662e-38
-0.00804120055772 -0.0498554434579 0.869 1.16907304074e-38
-0.00641815501362 -0.0497407013555 0.867 1.17786198471e-38
-0.00481361626021 -0.0497407013555 0.867 1.344028377e-38
-0.00319797343239 -0.0495685882021 0.864 1.2058072392e-38
-0.00159528535806 -0.0494538460997 0.862 1.25176086052e-38
0.0 -0.0494538460997 0.862 1.67571460246e-38
0.00159158399992 -0.0493391039974 0.86 1.50976218845e-38
0.00318316799983 -0.0493391039974 0.86 1.64729921233e-38
0.00477475199975 -0.0493391039974 0.86 1.65655450843e-38
0.00635153056711 -0.0492243618951 0.858 1.65655450843e-38
0.00793941320889 -0.0492243618951 0.858 1.65655450843e-38
0.00952729585067 -0.0492243618951 0.858 1.6474427053e-38
0.0110892689855 -0.0491096197928 0.856 1.67481398794e-38
0.0126734502691 -0.0491096197928 0.856 1.67492160766e-38
0.0142576315527 -0.0491096197928 0.856 1.73034576452e-38
0.0158418128364 -0.0491096197928 0.856 1.70279511568e-38
0.01742599412 -0.0491096197928 0.856 1.70279511568e-38
0.0190101754037 -0.0491096197928 0.856 1.73960106062e-38
0.0206424743431 -0.0492243618951 0.858 1.73030989128e-38
0.0222303569849 -0.0492243618951 0.858 1.73030989128e-38
0.0238182396267 -0.0492243618951 0.858 1.75786054013e-38
0.0254653439987 -0.0493391039974 0.86 1.90547892556e-38
0.0270569279986 -0.0493391039974 0.86 1.78573404814e-38
0.028715136445 -0.0494538460997 0.862 1.81349993644e-38
0.0303104218031 -0.0494538460997 0.862 1.82246824661e-38
0.0319057071611 -0.0494538460997 0.862 1.87771303726e-38
0.0335009925192 -0.0494538460997 0.862 1.87771303726e-38
0.0350962778772 -0.0494538460997 0.862 1.90508431991e-38
0.0367766944725 -0.0495685882021 0.864 1.92363078534e-38
0.0385089300817 -0.0497407013555 0.867 2.26532928834e-38
0.0401134688351 -0.0497407013555 0.867 6.52032022722e-39
0.0418142429001 -0.0498554434579 0.869 2.27247885323e-38
0.0435224196815 -0.0499701855602 0.871 1.86944075204e-38
0.0451343611511 -0.0499701855602 0.871 2.08116209624e-38
0.0467463026208 -0.0499701855602 0.871 2.09920059098e-38
0.0485803255789 -0.0501996697648 0.875 1.9514354896e-38
-0.0248731266964 -0.0497462533928 0.896 2.05422885949e-38
-0.0230335517011 -0.0493576107881 0.889 2.12784018886e-38
-0.0213401803524 -0.0492465700439 0.887 2.26613559547e-38
-0.0196986280176 -0.0492465700439 0.887 1.40900294341e-38
-0.0180163607432 -0.0491355292998 0.885 1.19637748145e-38
-0.0163785097666 -0.0491355292998 0.885 1.21481226339e-38
-0.014690690455 -0.0489689681835 0.882 1.30668419331e-38
-0.0130287806505 -0.0488579274393 0.88 1.28817276034e-38
-0.0113094997948 -0.0484692848347 0.873 1.31615711106e-38
-0.0096716488181 -0.0483582440905 0.871 1.21527777474e-38
-0.00804120055772 -0.0482472033463 0.869 1.25201253373e-38
-0.00643296044618 -0.0482472033463 0.869 1.26072917069e-38
-0.00481361626021 -0.0481361626021 0.867 1.31644031348e-38
-0.00320907750681 -0.0481361626021 0.867 1.26984097383e-38
-0.0015989867162 -0.0479696014859 0.864 1.19604971774e-38
0.0 -0.0478585607417 0.862 1.78556028713e-38
0.00159528535806 -0.0478585607417 0.862 1.46374018377e-38
0.00318316799983 -0.0477475199975 0.86 1.6289321131e-38
0.00477475199975 -0.0477475199975 0.86 1.6014173375e-38
0.00636633599967 -0.0477475199975 0.86 1.63822328244e-38
0.00793941320889 -0.0476364792533 0.858 1.65655450843e-38
0.00952729585067 -0.0476364792533 0.858 1.65666212815e-38
0.0111151784924 -0.0476364792533 0.858 1.67481398794e-38
0.0127030611342 -0.0476364792533 0.858 1.6749574809e-38
0.014290943776 -0.0476364792533 0.858 1.70257987623e-38
0.0158788264178 -0.0476364792533 0.858 1.73027401804e-38
0.0174667090596 -0.0476364792533 0.858 1.69350394634e-38
0.0190545917013 -0.0476364792533 0.858 1.73960106062e-38
0.0206424743431 -0.0476364792533 0.858 1.73038163776e-38
0.0222303569849 -0.0476364792533 0.858 1.73038163776e-38
0.0238737599988 -0.0477475199975 0.86 1.77640700557e-38
0.0254653439987 -0.0477475199975 0.86 1.73952931414e-38
0.027119851087 -0.0478585607417 0.862 1.78566230166e-38
0.028715136445 -0.0478585607417 0.862 1.81314120403e-38
0.0303104218031 -0.0478585607417 0.862 1.97927046191e-38
0.0319057071611 -0.0478585607417 0.862 1.81314120403e-38
0.0335787210401 -0.0479696014859 0.864 1.90515606639e-38
0.0351777077563 -0.0479696014859 0.864 1.88675309392e-38
0.0369043913283 -0.0481361626021 0.867 1.93274258848e-38
0.0385089300817 -0.0481361626021 0.867 2.14580413453e-38
0.0402060027886 -0.0482472033463 0.869 1.16699351382e-38
0.0419104782118 -0.0483582440905 0.871 2.28460723157e-38
0.0435224196815 -0.0483582440905 0.871 1.85095636413e-38
0.045237999179 -0.0484692848347 0.873 2.03462833735e-38
0.0468536420069 -0.0484692848347 0.873 2.08033014534e-38
0.0485803255789 -0.0485803255789 0.875 2.08047461921e-38
0.0501996697648 -0.0485803255789 0.875 2.34921984259e-38
-0.0248731266964 -0.0480880449463 0.896 2.12769697616e-38
-0.0230335517011 -0.0477123570952 0.889 2.11858559341e-38
-0.0213882980082 -0.0477123570952 0.889 2.26609874133e-38
-0.0196986280176 -0.0476050177091 0.887 1.58421219495e-38
-0.0180570756828 -0.0476050177091 0.887 1.27006111782e-38
-0.0163785097666 -0.0474976783231 0.885 1.17804191143e-38
-0.014690690455 -0.047336669244 0.882 1.21495715766e-38
-0.0130287806505 -0.047229329858 0.88 1.17811309739e-38
-0.0113354093017 -0.0469609813929 0.875 1.18747601321e-38
-0.00969385696694 -0.0468536420069 0.873 1.17825659036e-38
-0.00805970734842 -0.0467463026208 0.871 1.25179673376e-38
-0.00643296044618 -0.0466389632348 0.869 1.30679041174e-38
-0.00482472033463 -0.0466389632348 0.869 1.30686215822e-38
-0.00320907750681 -0.0465316238487 0.867 1.36196345591e-38
-0.0015989867162 -0.0463706147697 0.864 1.27909626993e-38
0.0 -0.0463706147697 0.864 1.72123830541e-38
0.00159528535806 -0.0462632753836 0.862 1.47299688116e-38
0.00319057071611 -0.0462632753836 0.862 1.6289321131e-38
0.00477475199975 -0.0461559359976 0.86 1.61074438007e-38
0.00636633599967 -0.0461559359976 0.86 1.61074438007e-38
0.00795791999959 -0.0461559359976 0.86 1.66577393129e-38
0.00952729585067 -0.0460485966116 0.858 1.81335644347e-38
0.0111151784924 -0.0460485966116 0.858 1.68428452348e-38
0.0127030611342 -0.0460485966116 0.858 1.65666212815e-38
0.014290943776 -0.0460485966116 0.858 1.69357569282e-38
0.0158788264178 -0.0460485966116 0.858 1.83165179622e-38
0.0174667090596 -0.0460485966116 0.858 1.72109046843e-38
0.0190545917013 -0.0460485966116 0.858 1.73034576452e-38
0.0206905919989 -0.0461559359976 0.86 1.71183517233e-38
0.0222821759988 -0.0461559359976 0.86 1.73960106062e-38
0.0239292803708 -0.0462632753836 0.862 1.76707996299e-38
0.0255245657289 -0.0462632753836 0.862 1.73952931414e-38
0.027119851087 -0.0462632753836 0.862 1.78555468194e-38
0.0287817608915 -0.0463706147697 0.864 1.8222888804e-38
0.0303807476077 -0.0463706147697 0.864 1.99770986814e-38
0.0319797343239 -0.0463706147697 0.864 1.88693246012e-38
0.0335787210401 -0.0463706147697 0.864 1.88679022833e-38
0.0351777077563 -0.0463706147697 0.864 1.94206963106e-38
0.0369043913283 -0.0465316238487 0.867 2.0435909022e-38
0.0385977626771 -0.0466389632348 0.869 1.50893612301e-38
0.0402985367421 -0.0467463026208 0.871 2.22630971221e-38
0.0419104782118 -0.0467463026208 0.871 2.10000423565e-38
0.0436223563512 -0.0468536420069 0.873 2.04398550785e-38
0.0454970942488 -0.047121990472 0.878 2.14476212899e-38
0.047121990472 -0.047121990472 0.878 2.13568437741e-38
0.0487468866951 -0.047121990472 0.878 2.14508442763e-38
0.0504865250206 -0.047229329858 0.88 2.34907298651e-38
-0.0230853707151 -0.0461707414302 0.891 2.18301687641e-38
-0.0213882980082 -0.0460671034023 0.889 2.28453744691e-38
-0.0196986280176 -0.0459634653743 0.887 1.60254187951e-38
-0.0180570756828 -0.0459634653743 0.887 1.3252712964e-38
-0.016415523348 -0.0459634653743 0.887 1.16896654206e-38
-0.0147406587899 -0.0458598273464 0.885 1.25197988347e-38
-0.0130583915156 -0.0457043703046 0.882 1.16903842867e-38
-0.0113742735622 -0.0454970942488 0.878 1.18744013997e-38
-0.00969385696694 -0.045237999179 0.873 1.22417433843e-38
-0.00805970734842 -0.0451343611511 0.871 1.2974992424e-38
-0.00644776587873 -0.0451343611511 0.871 1.23303502888e-38
-0.00482472033463 -0.0450307231232 0.869 1.31644031348e-38
-0.00321648022309 -0.0450307231232 0.869 1.2703431992e-38
-0.0016045387534 -0.0449270850953 0.867 1.21477554937e-38
0.0 -0.0449270850953 0.867 1.72123830541e-38
0.0015989867162 -0.0447716280535 0.864 1.44540951829e-38
0.00319057071611 -0.0446679900256 0.862 1.63815153596e-38
0.00478585607417 -0.0446679900256 0.862 1.57386668865e-38
0.00638114143223 -0.0446679900256 0.862 1.62907560607e-38
0.00797642679028 -0.0446679900256 0.862 1.67502922738e-38
0.0095495039995 -0.0445643519977 0.86 1.69336045338e-38
0.0111410879994 -0.0445643519977 0.86 1.71183517233e-38
0.0127326719993 -0.0445643519977 0.86 1.65655450843e-38
0.0143242559993 -0.0445643519977 0.86 1.71201453853e-38
0.0159158399992 -0.0445643519977 0.86 1.76715170947e-38
0.0174667090596 -0.0444607139698 0.858 1.71194279205e-38
0.0190545917013 -0.0444607139698 0.858 1.72112634167e-38
0.0206905919989 -0.0445643519977 0.86 1.76718758271e-38
0.0223339950128 -0.0446679900256 0.862 1.77640700557e-38
0.0239292803708 -0.0446679900256 0.862 1.77637113232e-38
0.0255245657289 -0.0446679900256 0.862 1.85016238842e-38
0.0271827741753 -0.0447716280535 0.864 1.91488388033e-38
0.0287817608915 -0.0447716280535 0.864 1.80395765441e-38
0.0304862363147 -0.0449270850953 0.867 1.83147243002e-38
0.0320907750681 -0.0449270850953 0.867 1.9235949121e-38
0.0336953138215 -0.0449270850953 0.867 1.92352316562e-38
0.0352998525749 -0.0449270850953 0.867 1.90537130583e-38
0.0369895225655 -0.0450307231232 0.869 1.9422139648e-38
0.0386865952724 -0.0451343611511 0.871 1.70243638327e-38
0.0403910706956 -0.045237999179 0.873 1.89557987294e-38
0.042102948835 -0.0453416372069 0.875 1.97912668869e-38
0.043722293021 -0.0453416372069 0.875 2.06163514227e-38
0.0454970942488 -0.0454970942488 0.878 2.12617586668e-38
0.047121990472 -0.0454970942488 0.878 2.06207094609e-38
0.0488579274393 -0.0456007322767 0.88 2.22798762699e-38
0.0504865250206 -0.0456007322767 0.88 2.34910984066e-38
-0.0248731266964 -0.0447716280535 0.896 2.10014646744e-38
-0.0230853707151 -0.0445217863791 0.891 2.09081970512e-38
-0.0213882980082 -0.0444218497093 0.889 2.1923420973e-38
-0.0197430443153 -0.0444218497093 0.889 1.74083560457e-38
-0.0180977906223 -0.0444218497093 0.889 1.37144141833e-38
-0.016415523348 -0.0443219130396 0.887 1.28867596662e-38
-0.0147406587899 -0.0442219763698 0.885 1.16900339621e-38
-0.0130583915156 -0.0440720713651 0.882 1.20595073217e-38
-0.0113742735622 -0.0438721980256 0.878 1.20591485892e-38
-0.00971606511577 -0.043722293021 0.875 1.2514738746e-38
-0.00807821413911 -0.0436223563512 0.873 1.34338111724e-38
-0.00644776587873 -0.0435224196815 0.871 1.16867843509e-38
-0.00483582440905 -0.0435224196815 0.871 1.28853093223e-38
-0.00321648022309 -0.0434224830117 0.869 1.38054579459e-38
-0.00160824011154 -0.0434224830117 0.869 1.06737240339e-38
0.0 -0.0433225463419 0.867 1.64769662058e-38
0.0016045387534 -0.0433225463419 0.867 1.50051137651e-38
0.00319797343239 -0.0431726413373 0.864 1.61971269025e-38
0.00479696014859 -0.0431726413373 0.864 1.57383081541e-38
0.00638114143223 -0.0430727046675 0.862 1.60145461203e-38
0.00797642679028 -0.0430727046675 0.862 1.66577393129e-38
0.00957171214834 -0.0430727046675 0.862 1.71187104557e-38
0.0111669975064 -0.0430727046675 0.862 1.73016639832e-38
0.0127326719993 -0.0429727679978 0.86 1.7302381448e-38
0.0143242559993 -0.0429727679978 0.86 1.68428452348e-38
0.0159528535806 -0.0430727046675 0.862 1.72105459519e-38
0.0175481389386 -0.0430727046675 0.862 1.72112634167e-38
0.0191434242967 -0.0430727046675 0.862 1.73960106062e-38
0.0207387096547 -0.0430727046675 0.862 1.76718758271e-38
0.0223339950128 -0.0430727046675 0.862 1.77633525908e-38
0.0239848007429 -0.0431726413373 0.864 1.73952931414e-38
0.0255837874591 -0.0431726413373 0.864 1.7853394425e-38
0.0272771588079 -0.0433225463419 0.867 1.81321295051e-38
0.0288816975613 -0.0433225463419 0.867 1.82221713392e-38
0.0304862363147 -0.0433225463419 0.867 1.83147243002e-38
0.0321648022309 -0.0434224830117 0.869 1.90515606639e-38
0.0337730423424 -0.0434224830117 0.869 1.87753367106e-38
0.035381282454 -0.0434224830117 0.869 1.95132492715e-38
0.0370746538027 -0.0435224196815 0.871 1.9328502082e-38
0.0386865952724 -0.0435224196815 0.871 1.89593664353e-38
0.0406224055793 -0.0438721980256 0.878 2.04305336411e-38
0.0422473018025 -0.0438721980256 0.878 2.16301292045e-38
0.0439721346954 -0.0439721346954 0.88 2.04319629655e-38
0.0456007322767 -0.0439721346954 0.88 2.08929733447e-38
0.047229329858 -0.0439721346954 0.88 2.08965704779e-38
0.0488579274393 -0.0439721346954 0.88 2.19107182025e-38
0.0506012671229 -0.0440720713651 0.882 2.34896410562e-38
-0.0248731266964 -0.0431134196071 0.896 2.1001814999e-38
-0.02321491825 -0.0431134196071 0.896 2.10014590692e-38
-0.0213882980082 -0.0427765960164 0.889 2.17393800379e-38
-0.0197430443153 -0.0427765960164 0.889 1.77782147624e-38
-0.0180977906223 -0.0427765960164 0.889 1.41757426573e-38
-0.016415523348 -0.0426803607048 0.887 1.26980888409e-38
-0.0147406587899 -0.0425841253931 0.885 1.2606244937e-38
-0.0130583915156 -0.0424397724257 0.882 1.25176086052e-38
-0.0113742735622 -0.0422473018025 0.878 1.15953075872e-38
-0.00974937733903 -0.0422473018025 0.878 1.33423344086e-38
-0.00807821413911 -0.0420067135234 0.873 1.27913270369e-38
-0.00646257131129 -0.0420067135234 0.873 1.20573549272e-38
-0.00483582440905 -0.0419104782118 0.871 1.23299915564e-38
-0.00322388293937 -0.0419104782118 0.871 1.30671866525e-38
-0.00160824011154 -0.0418142429001 0.869 1.37129077875e-38
0.0 -0.0418142429001 0.869 1.45412181124e-38
0.00160824011154 -0.0418142429001 0.869 1.57408809381e-38
0.00320907750681 -0.0417180075885 0.867 1.62900385958e-38
0.00481361626021 -0.0417180075885 0.867 1.62907560607e-38
0.00639594686478 -0.0415736546211 0.864 1.61074438007e-38
0.00797642679028 -0.0414774193095 0.862 1.64751445178e-38
0.00957171214834 -0.0414774193095 0.862 1.63822328244e-38
0.0111669975064 -0.0414774193095 0.862 1.67502922738e-38
0.0127622828645 -0.0414774193095 0.862 1.6749574809e-38
0.0143575682225 -0.0414774193095 0.862 1.77647875205e-38
0.0159528535806 -0.0414774193095 0.862 1.71201453853e-38
0.0175888538782 -0.0415736546211 0.864 1.73038163776e-38
0.0191878405943 -0.0415736546211 0.864 1.73960106062e-38
0.0207868273105 -0.0415736546211 0.864 1.73952931414e-38
0.0223858140267 -0.0415736546211 0.864 1.8502341349e-38
0.0239848007429 -0.0415736546211 0.864 1.73963693386e-38
0.0256726200545 -0.0417180075885 0.867 1.79466648507e-38
0.0272771588079 -0.0417180075885 0.867 1.86824250172e-38
0.0289483220078 -0.0418142429001 0.869 1.82225300716e-38
0.0305565621193 -0.0418142429001 0.869 1.8407994726e-38
0.0321648022309 -0.0418142429001 0.869 1.91419612304e-38
0.0337730423424 -0.0418142429001 0.869 1.92363078534e-38
0.035381282454 -0.0418142429001 0.869 1.9328502082e-38
0.0370746538027 -0.0419104782118 0.871 1.90504844667e-38
0.0386865952724 -0.0419104782118 0.871 1.96043673029e-38
0.0407149395328 -0.0423435371141 0.88 2.15390139757e-38
0.0423435371141 -0.0423435371141 0.88 2.06156339578e-38
0.0439721346954 -0.0423435371141 0.88 2.06163514227e-38
0.0457043703046 -0.0424397724257 0.882 2.1263168373e-38
0.047336669244 -0.0424397724257 0.882 2.08958123754e-38
0.0489689681835 -0.0424397724257 0.882 2.18185674142e-38
-0.0198540850594 -0.0413626772071 0.894 1.88835029391e-38
-0.0181385055618 -0.0412238762769 0.891 1.26084379691e-38
-0.0164525369294 -0.0411313423234 0.889 1.65713604729e-38
-0.0147739710132 -0.04103880837 0.887 1.19615817824e-38
-0.0131028078133 -0.0409462744165 0.885 1.29728666542e-38
-0.0114260925761 -0.0408074734862 0.882 1.26047805801e-38
-0.00974937733903 -0.0406224055793 0.878 1.3435246102e-38
-0.00809672092981 -0.0404836046491 0.875 1.2514738746e-38
-0.00647737674385 -0.0404836046491 0.875 1.21491904234e-38
-0.00484692848347 -0.0403910706956 0.873 1.31604570783e-38
-0.00323128565565 -0.0403910706956 0.873 1.24229032498e-38
-0.00161194146968 -0.0402985367421 0.871 1.18718902729e-38
0.0 -0.0402985367421 0.871 1.53713375135e-38
0.00160824011154 -0.0402060027886 0.869 1.57426984222e-38
0.00321648022309 -0.0402060027886 0.869 1.6014173375e-38
0.00482472033463 -0.0402060027886 0.869 1.61974856349e-38
0.00641815501362 -0.0401134688351 0.867 1.65655450843e-38
0.00802269376702 -0.0401134688351 0.867 1.65655450843e-38
0.00959392029717 -0.0399746679049 0.864 1.63829502892e-38
0.0111929070134 -0.0399746679049 0.864 1.6474427053e-38
0.0127918937296 -0.0399746679049 0.864 1.71172755261e-38
0.0143908804458 -0.0399746679049 0.864 1.6749574809e-38
0.015989867162 -0.0399746679049 0.864 1.74860524403e-38
0.0175888538782 -0.0399746679049 0.864 1.71190691881e-38
0.0191878405943 -0.0399746679049 0.864 1.7394934409e-38
0.0207868273105 -0.0399746679049 0.864 1.83165179622e-38
0.0224635425477 -0.0401134688351 0.867 1.73030989128e-38
0.0240680813011 -0.0401134688351 0.867 2.01618598839e-38
0.0256726200545 -0.0401134688351 0.867 1.77633525908e-38
0.0273400818963 -0.0402060027886 0.869 1.85916657183e-38
0.0289483220078 -0.0402060027886 0.869 1.8407994726e-38
0.0305565621193 -0.0402060027886 0.869 1.85001889545e-38
0.0321648022309 -0.0402060027886 0.869 1.94206963106e-38
0.0338507708634 -0.0402985367421 0.871 1.87760541754e-38
0.035462712333 -0.0402985367421 0.871 2.00667733753e-38
0.0371597850399 -0.0403910706956 0.873 1.9883102383e-38
0.0389975093561 -0.0406224055793 0.878 1.97909081545e-38
0.0407149395328 -0.0407149395328 0.88 2.12624284874e-38
0.0423435371141 -0.0407149395328 0.88 1.99720680199e-38
0.0440720713651 -0.0408074734862 0.882 2.06167101551e-38
0.0457043703046 -0.0408074734862 0.882 2.08940271212e-38
0.047336669244 -0.0408074734862 0.882 2.0618146486e-38
0.0489689681835 -0.0408074734862 0.882 2.20958605582e-38
-0.0180977906223 -0.0394860886305 0.889 1.28868437441e-38
-0.0164525369294 -0.0394860886305 0.889 1.43625973997e-38
-0.0147739710132 -0.0393972560352 0.887 1.47317834931e-38
-0.0131324186784 -0.0393972560352 0.887 1.32515961291e-38
-0.0114649568366 -0.0393084234398 0.885 1.23282133087e-38
-0.00977158548786 -0.0390863419515 0.88 1.29753511564e-38
-0.00812448111586 -0.0389975093561 0.878 1.15063419503e-38
-0.00649958489268 -0.0389975093561 0.878 1.24246969118e-38
-0.00485803255789 -0.0388642604631 0.875 1.49096503072e-38
-0.00323868837192 -0.0388642604631 0.875 1.22395909899e-38
-0.00161564282782 -0.0387754278677 0.873 1.20562801313e-38
0.0 -0.0386865952724 0.871 1.50043500574e-38
0.00161194146968 -0.0386865952724 0.871 1.5095859051e-38
0.00322388293937 -0.0386865952724 0.871 1.64737095882e-38
0.00483582440905 -0.0386865952724 0.871 1.59209029492e-38
0.00643296044618 -0.0385977626771 0.869 1.66570218481e-38
0.00804120055772 -0.0385977626771 0.869 1.66570218481e-38
0.00964944066926 -0.0385977626771 0.869 1.69336045338e-38
0.0112576807808 -0.0385977626771 0.869 1.68435626996e-38
0.0128363100272 -0.0385089300817 0.867 1.71183517233e-38
0.0144408487806 -0.0385089300817 0.867 1.73938582118e-38
0.016045387534 -0.0385089300817 0.867 1.75796815985e-38
0.0176499262875 -0.0385089300817 0.867 1.73970868034e-38
0.0192544650409 -0.0385089300817 0.867 1.76707996299e-38
0.0209071214501 -0.0385977626771 0.869 1.81299771107e-38
0.0225153615616 -0.0385977626771 0.869 1.75793228661e-38
0.0241236016732 -0.0385977626771 0.869 1.80370654173e-38
0.0257318417847 -0.0385977626771 0.869 1.84980365601e-38
0.0273400818963 -0.0385977626771 0.869 1.84076359936e-38
0.0289483220078 -0.0385977626771 0.869 1.86852948765e-38
0.030626887924 -0.0386865952724 0.871 1.8407994726e-38
0.0322388293937 -0.0386865952724 0.871 1.92352316562e-38
0.0338507708634 -0.0386865952724 0.871 1.89597251677e-38
0.0356255720912 -0.0388642604631 0.875 1.95128905391e-38
0.0373726131329 -0.0389975093561 0.878 1.98820261858e-38
0.0390863419515 -0.0390863419515 0.88 1.98816674534e-38
0.0407149395328 -0.0390863419515 0.88 2.06163514227e-38
0.0424397724257 -0.0391751745468 0.882 2.05248746589e-38
0.0442219763698 -0.0393084234398 0.885 2.06163514227e-38
0.0458598273464 -0.0393084234398 0.885 2.07096456705e-38
0.0474976783231 -0.0393084234398 0.885 2.21858603533e-38
0.0491355292998 -0.0393084234398 0.885 2.08969642427e-38
-0.0180977906223 -0.0378408349376 0.889 1.40886225305e-38
-0.0164525369294 -0.0378408349376 0.889 1.34424796047e-38
-0.0148072832364 -0.0378408349376 0.889 1.58409672796e-38
-0.0131324186784 -0.0377557037004 0.887 1.6206467958e-38
-0.0114649568366 -0.0376705724632 0.885 1.29753847875e-38
-0.0097937936367 -0.0375428756073 0.882 1.12294005322e-38
-0.00812448111586 -0.0373726131329 0.878 1.15992536436e-38
-0.00649958489268 -0.0373726131329 0.878 1.2514738746e-38
-0.00485803255789 -0.0372449162771 0.875 1.43568324578e-38
-0.00323868837192 -0.0372449162771 0.875 1.23303502888e-38
-0.00161934418596 -0.0372449162771 0.875 1.1688578013e-38
0.0 -0.0371597850399 0.873 1.51894643872e-38
0.00161194146968 -0.0370746538027 0.871 1.56497769197e-38
0.00322388293937 -0.0370746538027 0.871 1.61042152091e-38
0.00483582440905 -0.0370746538027 0.871 1.64740683206e-38
0.00644776587873 -0.0370746538027 0.871 1.63822328244e-38
0.00805970734842 -0.0370746538027 0.871 1.64733508557e-38
0.00964944066926 -0.0369895225655 0.869 1.69332458014e-38
0.0112576807808 -0.0369895225655 0.869 1.72105459519e-38
0.0128659208924 -0.0369895225655 0.869 1.73027401804e-38
0.0144741610039 -0.0369895225655 0.869 1.77640700557e-38
0.0160824011154 -0.0369895225655 0.869 1.73942169442e-38
0.017690641227 -0.0369895225655 0.869 1.73938582118e-38
0.0192988813385 -0.0369895225655 0.869 1.71176342585e-38
0.0209071214501 -0.0369895225655 0.869 1.79455886535e-38
0.0225153615616 -0.0369895225655 0.869 1.74864111727e-38
0.0241236016732 -0.0369895225655 0.869 1.82232475364e-38
0.0257910635149 -0.0370746538027 0.871 1.83147243002e-38
0.0274030049846 -0.0370746538027 0.871 1.84998302221e-38
0.0290149464543 -0.0370746538027 0.871 1.81299771107e-38
0.030626887924 -0.0370746538027 0.871 1.84087121908e-38
0.0322388293937 -0.0370746538027 0.871 1.89590077029e-38
0.0339284993843 -0.0371597850399 0.873 1.90522781287e-38
0.0356255720912 -0.0372449162771 0.875 1.96032911057e-38
0.0373726131329 -0.0373726131329 0.878 2.05259508561e-38
0.0390863419515 -0.0374577443701 0.88 2.0617812977e-38
0.0408074734862 -0.0375428756073 0.882 2.02475745084e-38
0.0424397724257 -0.0375428756073 0.882 1.98791563265e-38
0.0442219763698 -0.0376705724632 0.885 2.12617180291e-38
0.0459634653743 -0.0377557037004 0.887 2.08922348604e-38
0.0476050177091 -0.0377557037004 0.887 2.10784632224e-38
0.0492465700439 -0.0377557037004 0.887 2.20918892783e-38
-0.016415523348 -0.0361141513656 0.887 1.38105082255e-38
-0.0147739710132 -0.0361141513656 0.887 1.63912697982e-38
-0.0131324186784 -0.0361141513656 0.887 1.33496225619e-38
-0.0114908663436 -0.0361141513656 0.887 1.45437292392e-38
-0.00982710585995 -0.0360327214865 0.885 1.55622952579e-38
-0.00816149469725 -0.0359105766679 0.882 1.18736839349e-38
-0.00649958489268 -0.0357477169098 0.878 1.30650342581e-38
-0.00487468866951 -0.0357477169098 0.878 1.34366810316e-38
-0.00323868837192 -0.0356255720912 0.875 1.33437693382e-38
-0.00161934418596 -0.0356255720912 0.875 1.19626495718e-38
0.0 -0.0355441422121 0.873 1.51862399994e-38
0.00161564282782 -0.0355441422121 0.873 1.61114234884e-38
0.00322388293937 -0.035462712333 0.871 1.61060088711e-38
0.00483582440905 -0.035462712333 0.871 1.65666212815e-38
0.00644776587873 -0.035462712333 0.871 1.65676974788e-38
0.00805970734842 -0.035462712333 0.871 1.64747857854e-38
0.0096716488181 -0.035462712333 0.871 1.71183517233e-38
0.0112835902878 -0.035462712333 0.871 1.71183517233e-38
0.0128955317575 -0.035462712333 0.871 1.7394934409e-38
0.0145074732272 -0.035462712333 0.871 1.73038163776e-38
0.0161194146968 -0.035462712333 0.871 1.73952931414e-38
0.0177313561665 -0.035462712333 0.871 1.7393140747e-38
0.0193432976362 -0.035462712333 0.871 1.76718758271e-38
0.0209552391059 -0.035462712333 0.871 1.7853394425e-38
0.0225671805756 -0.035462712333 0.871 1.79459473859e-38
0.0241791220453 -0.035462712333 0.871 1.82236062689e-38
0.0257910635149 -0.035462712333 0.871 1.87767716402e-38
0.0274030049846 -0.035462712333 0.871 1.78559321765e-38
0.0290149464543 -0.035462712333 0.871 1.86842186793e-38
0.0306972137286 -0.0355441422121 0.873 1.88693358116e-38
0.0323128565565 -0.0355441422121 0.873 1.87742605134e-38
0.0341228206866 -0.0357477169098 0.878 1.93259909552e-38
0.0357477169098 -0.0357477169098 0.878 2.04305280359e-38
0.0374577443701 -0.0358291467888 0.88 2.08003811474e-38
0.0390863419515 -0.0358291467888 0.88 2.01550215474e-38
0.0408074734862 -0.0359105766679 0.882 2.01550215474e-38
0.0425841253931 -0.0360327214865 0.885 2.00631860513e-38
0.0442219763698 -0.0360327214865 0.885 2.05230992137e-38
0.0459634653743 -0.0361141513656 0.887 2.13546773666e-38
0.0476050177091 -0.0361141513656 0.887 2.03408841705e-38
0.0492465700439 -0.0361141513656 0.887 2.2829810247e-38
-0.0166190980456 -0.0349001058959 0.898 1.38112369007e-38
-0.0148072832364 -0.0345503275517 0.889 1.38990941106e-38
-0.0131620295435 -0.0345503275517 0.889 1.51877043563e-38
-0.0114908663436 -0.0344725990308 0.887 1.07673531921e-38
-0.00984931400879 -0.0344725990308 0.887 1.30704152442e-38
-0.00818925488329 -0.0343948705098 0.885 1.71277964749e-38
-0.0065291957578 -0.0342782777284 0.882 1.31640542115e-38
-0.00488579274393 -0.0342005492075 0.88 1.141091913e-38
-0.00325719516262 -0.0342005492075 0.88 1.38025880866e-38
-0.00162489622317 -0.0341228206866 0.878 1.28802870686e-38
0.0 -0.0341228206866 0.878 1.58326842043e-38
0.00162489622317 -0.0341228206866 0.878 1.52842215906e-38
0.00323868837192 -0.0340062279052 0.875 1.63829502892e-38
0.00485803255789 -0.0340062279052 0.875 1.64733508557e-38
0.00646257131129 -0.0339284993843 0.873 1.67502922738e-38
0.00807821413911 -0.0339284993843 0.873 1.6934680731e-38
0.0096716488181 -0.0338507708634 0.871 1.73960106062e-38
0.0112835902878 -0.0338507708634 0.871 1.72112634167e-38
0.0128955317575 -0.0338507708634 0.871 1.72105459519e-38
0.0145074732272 -0.0338507708634 0.871 1.72105459519e-38
0.0161194146968 -0.0338507708634 0.871 1.72105459519e-38
0.0177313561665 -0.0338507708634 0.871 1.73030989128e-38
0.0193432976362 -0.0338507708634 0.871 1.74864111727e-38
0.0209552391059 -0.0338507708634 0.871 1.82232475364e-38
0.0225671805756 -0.0338507708634 0.871 1.84991127573e-38
0.0241791220453 -0.0338507708634 0.871 1.80399352765e-38
0.0257910635149 -0.0338507708634 0.871 1.81321295051e-38
0.027465928073 -0.0339284993843 0.873 1.80388590793e-38
0.0290815709008 -0.0339284993843 0.873 1.88671722068e-38
0.0306972137286 -0.0339284993843 0.873 1.85905895211e-38
0.0323868837192 -0.0340062279052 0.875 1.98805912562e-38
0.0341228206866 -0.0341228206866 0.878 1.99717092875e-38
0.0357477169098 -0.0341228206866 0.878 2.03390512721e-38
0.0374577443701 -0.0342005492075 0.88 2.05238026656e-38
0.0390863419515 -0.0342005492075 0.88 2.02482919732e-38
0.0409462744165 -0.0343948705098 0.885 2.0341562399e-38
0.0425841253931 -0.0343948705098 0.885 2.07099805808e-38
0.0443219130396 -0.0344725990308 0.887 2.07082149448e-38
0.0459634653743 -0.0344725990308 0.887 2.10780582472e-38
0.0477123570952 -0.0345503275517 0.889 2.08018721289e-38
0.0493576107881 -0.0345503275517 0.889 2.20933017872e-38
-0.0166190980456 -0.0332381960913 0.898 1.40867700139e-38
-0.0149571882411 -0.0332381960913 0.898 1.57452543906e-38
-0.0132360567063 -0.0330901417657 0.894 1.48181595305e-38
-0.0115167758506 -0.0329050738588 0.889 1.22385147927e-38
-0.00984931400879 -0.032831046696 0.887 1.15935139251e-38
-0.00818925488329 -0.0327570195332 0.885 1.15856218122e-38
-0.00655140390664 -0.0327570195332 0.885 1.71244613846e-38
-0.00489689681835 -0.032645978789 0.882 1.61132984257e-38
-0.00325719516262 -0.0325719516262 0.88 1.54656715249e-38
-0.00162859758131 -0.0325719516262 0.88 1.43579058525e-38
0.0 -0.0325719516262 0.88 1.59226980125e-38
0.00162489622317 -0.0324979244634 0.878 1.6111050743e-38
0.00324979244634 -0.0324979244634 0.878 1.65651863519e-38
0.00487468866951 -0.0324979244634 0.878 1.63822328244e-38
0.00647737674385 -0.0323868837192 0.875 1.65666212815e-38
0.00807821413911 -0.0323128565565 0.873 1.66577393129e-38
0.0096716488181 -0.0322388293937 0.871 1.71176342585e-38
0.0112835902878 -0.0322388293937 0.871 1.72083935574e-38
0.0128955317575 -0.0322388293937 0.871 1.70257987623e-38
0.0145074732272 -0.0322388293937 0.871 1.73009465184e-38
0.0161194146968 -0.0322388293937 0.871 1.75778879365e-38
0.0177313561665 -0.0322388293937 0.871 1.75786054013e-38
0.0193432976362 -0.0322388293937 0.871 1.77612001964e-38
0.0209552391059 -0.0322388293937 0.871 1.7853394425e-38
0.0226189995895 -0.0323128565565 0.873 1.88675309392e-38
0.0242346424173 -0.0323128565565 0.873 1.81324882375e-38
0.0258502852452 -0.0323128565565 0.873 1.90533543259e-38
0.027465928073 -0.0323128565565 0.873 1.85927419155e-38
0.0291481953473 -0.0323868837192 0.875 1.86827837496e-38
0.0307675395333 -0.0323868837192 0.875 1.88653785447e-38
0.0323868837192 -0.0323868837192 0.875 1.978875576e-38
0.0341228206866 -0.0324979244634 0.878 1.99735029495e-38
0.0357477169098 -0.0324979244634 0.878 2.05259508561e-38
0.0374577443701 -0.0325719516262 0.88 1.98784388617e-38
0.0393084234398 -0.0327570195332 0.885 1.99706330903e-38
0.04103880837 -0.032831046696 0.887 2.0249009438e-38
0.0426803607048 -0.032831046696 0.887 2.05263095885e-38
0.0444218497093 -0.0329050738588 0.889 2.08007637019e-38
0.0460671034023 -0.0329050738588 0.889 2.02475745084e-38
0.0477123570952 -0.0329050738588 0.889 2.24599136953e-38
0.0493576107881 -0.0329050738588 0.889 2.14501562388e-38
-0.0166190980456 -0.0315762862867 0.898 1.18762427059e-38
-0.0149571882411 -0.0315762862867 0.898 1.64827647788e-38
-0.0132360567063 -0.0314356346774 0.894 1.34403412232e-38
-0.0115426853575 -0.0313301459705 0.891 1.41742348601e-38
-0.00987152215763 -0.0312598201658 0.889 1.25136625487e-38
-0.00820776167399 -0.0311894943612 0.887 1.16806859e-38
-0.00656620933919 -0.0311894943612 0.887 1.50936660189e-38
-0.00489689681835 -0.0310136798495 0.882 1.82297327457e-38
-0.0032645978789 -0.0310136798495 0.882 1.52805656029e-38
-0.00162859758131 -0.0309433540449 0.88 1.62014316913e-38
0.0 -0.0309433540449 0.88 1.8227644811e-38
0.00162859758131 -0.0309433540449 0.88 1.57404605485e-38
0.00324979244634 -0.0308730282403 0.878 1.66577393129e-38
0.00487468866951 -0.0308730282403 0.878 1.6749574809e-38
0.00649958489268 -0.0308730282403 0.878 1.6289321131e-38
0.00809672092981 -0.0307675395333 0.875 1.64733508557e-38
0.00969385696694 -0.0306972137286 0.873 1.73927820145e-38
0.0113094997948 -0.0306972137286 0.873 1.69336045338e-38
0.0129251426226 -0.0306972137286 0.873 1.71183517233e-38
0.0145074732272 -0.030626887924 0.871 1.7302381448e-38
0.0161194146968 -0.030626887924 0.871 1.73016639832e-38
0.0177313561665 -0.030626887924 0.871 1.7209133443e-38
0.0193432976362 -0.030626887924 0.871 1.7853394425e-38
0.0209552391059 -0.030626887924 0.871 1.77640700557e-38
0.0226189995895 -0.0306972137286 0.873 1.83147243002e-38
0.0242346424173 -0.0306972137286 0.873 1.86827837496e-38
0.0258502852452 -0.0306972137286 0.873 1.85905895211e-38
0.0275288511614 -0.0307675395333 0.875 1.8868248404e-38
0.0291481953473 -0.0307675395333 0.875 1.90508431991e-38
0.0307675395333 -0.0307675395333 0.875 1.98809499886e-38
0.0324979244634 -0.0308730282403 0.878 1.98809527912e-38
0.0341228206866 -0.0308730282403 0.878 2.01560977446e-38
0.0358291467888 -0.0309433540449 0.88 2.00639035161e-38
0.0375428756073 -0.0310136798495 0.882 1.99706330903e-38
0.0393084234398 -0.0311191685565 0.885 2.0154662815e-38
0.04103880837 -0.0311894943612 0.887 2.07089450213e-38
0.0426803607048 -0.0311894943612 0.887 2.01550215474e-38
0.0444218497093 -0.0312598201658 0.889 2.07074932761e-38
0.0460671034023 -0.0312598201658 0.889 2.0891862115e-38
0.0478196964812 -0.0313301459705 0.891 2.1538695881e-38
0.0494686515323 -0.0313301459705 0.891 2.11742924192e-38
-0.0184438676083 -0.0301808742682 0.906 1.39071123404e-38
-0.0166746184177 -0.0300143131519 0.901 9.38699573204e-39
-0.0149571882411 -0.0299143764822 0.898 1.49150691284e-38
-0.0132656675714 -0.0298477520357 0.896 1.58384491462e-38
-0.011581549618 -0.0297811275891 0.894 1.29775133599e-38
-0.00987152215763 -0.0296145664729 0.889 1.33444868031e-38
-0.00820776167399 -0.0295479420264 0.887 1.35288752602e-38
-0.00656620933919 -0.0295479420264 0.887 1.39873352762e-38
-0.00491355292998 -0.0294813175799 0.885 1.78595082902e-38
-0.00327570195332 -0.0294813175799 0.885 1.48185490914e-38
-0.00163229893945 -0.0293813809101 0.882 1.57372319569e-38
0.0 -0.0293147564636 0.88 1.60120209805e-38
0.00162859758131 -0.0293147564636 0.88 1.65644688871e-38
0.00325719516262 -0.0293147564636 0.88 1.66570218481e-38
0.00488579274393 -0.0293147564636 0.88 1.70275924244e-38
0.00651439032524 -0.0293147564636 0.88 1.63822328244e-38
0.00809672092981 -0.0291481953473 0.875 1.67510097387e-38
0.00969385696694 -0.0290815709008 0.873 1.6934680731e-38
0.0113094997948 -0.0290815709008 0.873 1.71179929909e-38
0.0129251426226 -0.0290815709008 0.873 1.75782466689e-38
0.0145407854504 -0.0290815709008 0.873 1.75793228661e-38
0.0161564282782 -0.0290815709008 0.873 1.71183517233e-38
0.0177720711061 -0.0290815709008 0.873 1.79473823156e-38
0.0193877139339 -0.0290815709008 0.873 1.75796815985e-38
0.0210033567617 -0.0290815709008 0.873 1.78562642842e-38
0.0226189995895 -0.0290815709008 0.873 1.81314120403e-38
0.0242901627894 -0.0291481953473 0.875 1.83143655678e-38
0.0259095069754 -0.0291481953473 0.875 1.8773901781e-38
0.0275288511614 -0.0291481953473 0.875 1.89582902381e-38
0.0292481320171 -0.0292481320171 0.878 1.96040085705e-38
0.0308730282403 -0.0292481320171 0.878 1.96029323733e-38
0.0325719516262 -0.0293147564636 0.88 2.06159926902e-38
0.0342005492075 -0.0293147564636 0.88 1.95107381447e-38
0.0359105766679 -0.0293813809101 0.882 2.04323216979e-38
0.0376705724632 -0.0294813175799 0.885 1.96940504046e-38
0.0393972560352 -0.0295479420264 0.887 2.07071107216e-38
0.0411313423234 -0.0296145664729 0.889 2.04298105711e-38
0.0427765960164 -0.0296145664729 0.889 2.03379750749e-38
0.0445217863791 -0.0296811909194 0.891 2.06145577606e-38
0.0461707414302 -0.0296811909194 0.891 2.14436289905e-38
0.0478196964812 -0.0296811909194 0.891 2.21854553781e-38
-0.0184438676083 -0.0285041590311 0.906 1.47368603975e-38
-0.0167116319991 -0.0284097743985 0.903 1.06780722631e-38
-0.015007156576 -0.0283468513102 0.901 1.26094441014e-38
-0.0133396947342 -0.0283468513102 0.901 1.42704031711e-38
-0.011607459125 -0.0281895435892 0.896 1.36250155452e-38
-0.00989373030646 -0.0280322358683 0.891 1.09424146067e-38
-0.00822626846469 -0.0279693127799 0.889 1.54571081899e-38
-0.00658101477175 -0.0279693127799 0.889 1.52787719409e-38
-0.00492465700439 -0.0279063896916 0.887 1.73059855877e-38
-0.0032831046696 -0.0279063896916 0.887 1.51855015151e-38
-0.00163785097666 -0.0278434666032 0.885 1.61042152091e-38
0.0 -0.0278434666032 0.885 1.62889623986e-38
0.00163785097666 -0.0278434666032 0.885 1.64726333909e-38
0.00327570195332 -0.0278434666032 0.885 1.66559456508e-38
0.00489689681835 -0.0277490819706 0.882 1.70257987623e-38
0.0065291957578 -0.0277490819706 0.882 1.68424865024e-38
0.00816149469725 -0.0277490819706 0.882 1.67502922738e-38
0.00974937733903 -0.0276232357939 0.878 1.70257987623e-38
0.0113742735622 -0.0276232357939 0.878 1.7393140747e-38
0.0129991697854 -0.0276232357939 0.878 1.75775292041e-38
0.0145740976737 -0.0275288511614 0.875 1.75793228661e-38
0.0161564282782 -0.027465928073 0.873 1.74864111727e-38
0.0177720711061 -0.027465928073 0.873 1.74864111727e-38
0.0193877139339 -0.027465928073 0.873 1.81317707727e-38
0.0210033567617 -0.027465928073 0.873 1.77640700557e-38
0.0227485471244 -0.0276232357939 0.878 1.83143655678e-38
0.0243734433476 -0.0276232357939 0.878 1.83147243002e-38
0.0259983395707 -0.0276232357939 0.878 1.89582902381e-38
0.0276232357939 -0.0276232357939 0.878 1.93256322227e-38
0.0292481320171 -0.0276232357939 0.878 2.08922166435e-38
0.0309433540449 -0.0276861588823 0.88 2.08025335418e-38
0.0325719516262 -0.0276861588823 0.88 1.96022149084e-38
0.0342782777284 -0.0277490819706 0.882 1.93277846172e-38
0.0360327214865 -0.0278434666032 0.885 1.94199788458e-38
0.0377557037004 -0.0279063896916 0.887 1.9786962098e-38
0.0394860886305 -0.0279693127799 0.889 1.96929742074e-38
0.0411313423234 -0.0279693127799 0.889 2.11637994963e-38
0.042872831328 -0.0280322358683 0.891 2.03383338073e-38
0.0446716913837 -0.0281266205009 0.894 2.02450858023e-38
0.0464298364999 -0.0281895435892 0.896 2.15362001684e-38
0.0480880449463 -0.0281895435892 0.896 2.1077367407e-38
-0.0184845825479 -0.0268866655242 0.908 1.48311944088e-38
-0.0167671523712 -0.026827443794 0.906 1.13245332836e-38
-0.0150404687992 -0.0267386111986 0.903 1.26987810824e-38
-0.0133693055993 -0.0267386111986 0.903 1.09506682546e-38
-0.011607459125 -0.0265313351428 0.896 1.56554872109e-38
-0.00992704252972 -0.0264721134126 0.894 1.13158620487e-38
-0.00824477525538 -0.0263832808172 0.891 1.33348094359e-38
-0.00658101477175 -0.026324059087 0.889 1.52766195464e-38
-0.00493576107881 -0.026324059087 0.889 1.79517081239e-38
-0.0032831046696 -0.0262648373568 0.887 1.47281387158e-38
-0.0016415523348 -0.0262648373568 0.887 1.61049326739e-38
0.0 -0.0262648373568 0.887 1.61034977443e-38
0.00163785097666 -0.0262056156265 0.885 1.66570218481e-38
0.00327570195332 -0.0262056156265 0.885 1.65648276195e-38
0.00491355292998 -0.0262056156265 0.885 1.69328870689e-38
0.00655140390664 -0.0262056156265 0.885 1.69336045338e-38
0.00816149469725 -0.0261167830312 0.882 1.72105459519e-38
0.0097937936367 -0.0261167830312 0.882 1.71190691881e-38
0.0114260925761 -0.0261167830312 0.882 1.71183517233e-38
0.0130583915156 -0.0261167830312 0.882 1.73016639832e-38
0.0146573782318 -0.026057561301 0.88 1.73952931414e-38
0.0162489622317 -0.0259983395707 0.878 1.79484585128e-38
0.0178127860456 -0.0259095069754 0.875 1.80428051358e-38
0.0194321302315 -0.0259095069754 0.875 1.75786054013e-38
0.0211236509012 -0.0259983395707 0.878 1.96090308242e-38
0.0227485471244 -0.0259983395707 0.878 1.7760841464e-38
0.0243734433476 -0.0259983395707 0.878 1.89593664353e-38
0.026057561301 -0.026057561301 0.88 1.91430374277e-38
0.0276861588823 -0.026057561301 0.88 1.95093032151e-38
0.0293147564636 -0.026057561301 0.88 1.96004212464e-38
0.0310136798495 -0.0261167830312 0.882 1.94163915217e-38
0.0327570195332 -0.0262056156265 0.885 2.06156339578e-38
0.0343948705098 -0.0262056156265 0.885 1.92355903886e-38
0.0361141513656 -0.0262648373568 0.887 1.95110968771e-38
0.0378408349376 -0.026324059087 0.889 1.92327205294e-38
0.0397081701189 -0.0264721134126 0.894 1.96929742074e-38
0.0413626772071 -0.0264721134126 0.894 2.08889908545e-38
0.0432096549187 -0.026590556873 0.898 2.00617511216e-38
0.0448715647232 -0.026590556873 0.898 2.06134815634e-38
0.0466889315697 -0.0266793894684 0.901 2.12595712399e-38
0.0483563934114 -0.0266793894684 0.901 2.10759058527e-38
-0.0184845825479 -0.0252062489289 0.908 1.3815632774e-38
-0.0167671523712 -0.0251507285568 0.906 1.28014612273e-38
-0.0150904371341 -0.0251507285568 0.906 1.18708140756e-38
-0.0133693055993 -0.0250674479987 0.903 1.25165520262e-38
-0.011633368632 -0.0249286470685 0.898 1.10407072862e-38
-0.00994925067855 -0.0248731266964 0.896 1.5835537248e-38
-0.00827253544143 -0.0248176063243 0.894 1.53695999034e-38
-0.00659582020431 -0.0247343257662 0.891 1.52784132085e-38
-0.00493576107881 -0.0246788053941 0.889 1.59237728084e-38
-0.00329050738588 -0.0246788053941 0.889 1.55560720914e-38
-0.0016415523348 -0.024623285022 0.887 1.61974856349e-38
0.0 -0.024623285022 0.887 1.63822328244e-38
0.0016415523348 -0.024623285022 0.887 1.62907560607e-38
0.0032831046696 -0.024623285022 0.887 1.65655450843e-38
0.00492465700439 -0.024623285022 0.887 1.66570218481e-38
0.00656620933919 -0.024623285022 0.887 1.68414131078e-38
0.00820776167399 -0.024623285022 0.887 1.67502922738e-38
0.00982710585995 -0.0245677646499 0.885 1.71183517233e-38
0.0114649568366 -0.0245677646499 0.885 1.73016639832e-38
0.0131028078133 -0.0245677646499 0.885 1.73009465184e-38
0.0147406587899 -0.0245677646499 0.885 1.73020227156e-38
0.0163229893945 -0.0244844840917 0.882 1.76711583623e-38
0.0179145733944 -0.0244289637197 0.88 1.75778879365e-38
0.0195431709757 -0.0244289637197 0.88 1.79459473859e-38
0.021171768557 -0.0244289637197 0.88 1.80370654173e-38
0.0228003661383 -0.0244289637197 0.88 1.97880382952e-38
0.0244289637197 -0.0244289637197 0.88 1.88683268767e-38
0.026057561301 -0.0244289637197 0.88 1.99731442171e-38
0.0276861588823 -0.0244289637197 0.88 1.94199788458e-38
0.0293813809101 -0.0244844840917 0.882 1.95082270178e-38
0.0311191685565 -0.0245677646499 0.885 1.97858859008e-38
0.032831046696 -0.024623285022 0.887 1.91412437656e-38
0.0344725990308 -0.024623285022 0.887 1.92330792618e-38
0.0361955812446 -0.0246788053941 0.889 1.99709918227e-38
0.0379259661748 -0.0247343257662 0.891 1.93263496876e-38
0.0397081701189 -0.0248176063243 0.894 1.99688394283e-38
0.0414552111606 -0.0248731266964 0.896 2.03358226805e-38
0.0433540078861 -0.0250119276266 0.901 1.98744928053e-38
0.0451214063976 -0.0250674479987 0.903 2.14443170281e-38
0.0467925695976 -0.0250674479987 0.903 2.10759058527e-38
-0.0185252974874 -0.0235776513476 0.91 1.28014864507e-38
-0.0168041659526 -0.0235258323337 0.908 1.24301745875e-38
-0.0151237493574 -0.0235258323337 0.908 1.20577136596e-38
-0.013413721897 -0.0234740133197 0.906 1.18736839349e-38
-0.011633368632 -0.0232667372639 0.898 1.1503472091e-38
-0.00997145882739 -0.0232667372639 0.898 1.49114355614e-38
-0.00829104223213 -0.02321491825 0.896 1.23271216972e-38
-0.00661802835314 -0.023163099236 0.894 1.62961608688e-38
-0.00494686515323 -0.0230853707151 0.891 1.73124399684e-38
-0.00329050738588 -0.0230335517011 0.889 1.50940443695e-38
-0.00164525369294 -0.0230335517011 0.889 1.59209029492e-38
0.0 -0.0230335517011 0.889 1.6381874092e-38
0.00164525369294 -0.0230335517011 0.889 1.63822328244e-38
0.00329050738588 -0.0230335517011 0.889 1.6749574809e-38
0.00492465700439 -0.0229817326872 0.887 1.65648276195e-38
0.00656620933919 -0.0229817326872 0.887 1.67492160766e-38
0.00820776167399 -0.0229817326872 0.887 1.7302381448e-38
0.00984931400879 -0.0229817326872 0.887 1.73038163776e-38
0.0114908663436 -0.0229817326872 0.887 1.71183517233e-38
0.0131324186784 -0.0229817326872 0.887 1.72105459519e-38
0.0147739710132 -0.0229817326872 0.887 1.83165179622e-38
0.0163785097666 -0.0229299136732 0.885 1.79466648507e-38
0.0179552883339 -0.0228521851523 0.882 1.86824250172e-38
0.0195875872734 -0.0228521851523 0.882 1.84983952925e-38
0.0212198862128 -0.0228521851523 0.882 1.94196201133e-38
0.0228521851523 -0.0228521851523 0.882 1.92355903886e-38
0.0244844840917 -0.0228521851523 0.882 1.96054435001e-38
0.0261167830312 -0.0228521851523 0.882 1.9328502082e-38
0.0277490819706 -0.0228521851523 0.882 1.89590553471e-38
0.0295479420264 -0.0229817326872 0.887 1.85898720563e-38
0.0311894943612 -0.0229817326872 0.887 1.8772108119e-38
0.0329050738588 -0.0230335517011 0.889 1.93256322227e-38
0.0345503275517 -0.0230335517011 0.889 1.97851684359e-38
0.0362770111237 -0.0230853707151 0.891 1.96936916722e-38
0.0380536630306 -0.023163099236 0.894 1.9786962098e-38
0.0397970027142 -0.02321491825 0.896 1.99709918227e-38
0.0415477451141 -0.0232667372639 0.898 2.00617511216e-38
0.0434502431977 -0.0233962847988 0.903 2.12595586282e-38
0.0451214063976 -0.0233962847988 0.903 2.08003811474e-38
0.0467925695976 -0.0233962847988 0.903 2.07982287529e-38
0.0484637327975 -0.0233962847988 0.903 2.14446673527e-38
-0.0185252974874 -0.0218935333942 0.91 1.09557885992e-38
-0.016841179534 -0.0218935333942 0.91 1.31655816268e-38
-0.0151570615806 -0.0218935333942 0.91 7.71418167727e-39
-0.0134433327621 -0.0218454157384 0.908 1.46309782855e-38
-0.0116722328924 -0.0216770039431 0.901 1.19622908394e-38
-0.0100047710506 -0.0216770039431 0.901 1.3708600196e-38
-0.00830954902282 -0.0216048274593 0.898 1.2329632824e-38
-0.0066328337857 -0.0215567098035 0.896 1.19622908394e-38
-0.00497462533928 -0.0215567098035 0.896 1.24250556443e-38
-0.00329791010215 -0.021436415664 0.891 1.55542840345e-38
-0.00164895505108 -0.021436415664 0.891 1.63815153596e-38
0.0 -0.021436415664 0.891 1.62900385958e-38
0.00164525369294 -0.0213882980082 0.889 1.64733508557e-38
0.00329050738588 -0.0213882980082 0.889 1.65655450843e-38
0.00493576107881 -0.0213882980082 0.889 1.73945756766e-38
0.00658101477175 -0.0213882980082 0.889 1.69357569282e-38
0.00820776167399 -0.0213401803524 0.887 1.71183517233e-38
0.00984931400879 -0.0213401803524 0.887 1.71190691881e-38
0.0114908663436 -0.0213401803524 0.887 1.73938582118e-38
0.0131324186784 -0.0213401803524 0.887 1.77637113232e-38
0.0147739710132 -0.0213401803524 0.887 1.813292264e-38
0.016415523348 -0.0213401803524 0.887 1.79459473859e-38
