# .PCD v0.7 - Point Cloud Data file format
VERSION 0.7
FIELDS x y z rgb
SIZE 4 4 4 4
TYPE F F F F
COUNT 1 1 1 1
WIDTH 853
HEIGHT 1
VIEWPOINT 0 0 0 1 0 0 0
POINTS 853
DATA ascii
-0.0160824011154 -0.207609178036 0.79 9.57967286959e-39
-0.0146203646504 -0.207609178036 0.79 9.30346152799e-39
-0.0131583281854 -0.207609178036 0.79 9.21126309553e-39
-0.0117555134506 -0.208660363747 0.794 9.48712971771e-39
-0.0102860742692 -0.208660363747 0.794 9.67081472301e-39
-0.00883884323675 -0.209185956603 0.796 9.67152378003e-39
-0.00734719590659 -0.208660363747 0.794 9.67151817484e-39
-0.00587775672528 -0.208660363747 0.794 1.00402964904e-38
-0.00440831754396 -0.208660363747 0.794 9.9474002113e-39
-0.00294628107892 -0.209185956603 0.796 9.57967847478e-39
-0.00147314053946 -0.209185956603 0.796 9.67151817484e-39
0.0 -0.208660363747 0.794 9.11832197488e-39
0.00146943918132 -0.208660363747 0.794 8.84285472276e-39
0.00293887836264 -0.208660363747 0.794 9.11834719825e-39
0.00440831754396 -0.208660363747 0.794 9.11832477748e-39
0.00587775672528 -0.208660363747 0.794 8.7506562903e-39
0.00734719590659 -0.208660363747 0.794 8.93502232666e-39
0.00881663508791 -0.208660363747 0.794 9.11941638898e-39
0.0102601647623 -0.208134770891 0.792 9.39457535544e-39
0.0117259025854 -0.208134770891 0.792 8.93430626314e-39
0.0131583281854 -0.207609178036 0.79 9.39348234264e-39
0.0146203646504 -0.207609178036 0.79 8.84175750607e-39
0.0160620436457 -0.207346381608 0.789 8.8428266968e-39
0.0175222294316 -0.207346381608 0.789 8.47475323437e-39
0.0189824152176 -0.207346381608 0.789 8.84285192017e-39
0.0204426010036 -0.207346381608 0.789 8.74919193341e-39
0.0218472664175 -0.206820788752 0.787 7.83047964072e-39
0.0233037508453 -0.206820788752 0.787 8.56516641258e-39
0.0247602352731 -0.206820788752 0.787 7.91979700354e-39
0.026216719701 -0.206820788752 0.787 9.02652010989e-39
0.0276732041288 -0.206820788752 0.787 9.67152097743e-39
-0.0287965663241 -0.203015792585 0.778 2.34907705028e-38
-0.0273567380079 -0.203015792585 0.778 1.36312611325e-38
-0.0260168463614 -0.203798629831 0.781 8.19344817285e-39
-0.024571466008 -0.203798629831 0.781 9.94845118515e-39
-0.0231853073848 -0.204320521329 0.783 1.03161645139e-38
-0.0218472664175 -0.205364304324 0.787 9.7629879321e-39
-0.0203907819896 -0.205364304324 0.787 1.02243388268e-38
-0.0189824152176 -0.205886195822 0.789 9.67043917502e-39
-0.0175222294316 -0.205886195822 0.789 9.57967847478e-39
-0.0160824011154 -0.206147141571 0.79 9.3038146552e-39
-0.0146203646504 -0.206147141571 0.79 9.0265046956e-39
-0.0131583281854 -0.206147141571 0.79 9.11869752287e-39
-0.0117555134506 -0.207190924566 0.794 9.02650189301e-39
-0.0102860742692 -0.207190924566 0.794 9.11834719825e-39
-0.00883884323675 -0.207712816064 0.796 9.48712971771e-39
-0.00736570269729 -0.207712816064 0.796 9.30237832428e-39
-0.00587775672528 -0.207190924566 0.794 9.48712411251e-39
-0.00440831754396 -0.207190924566 0.794 9.30273145149e-39
-0.00294628107892 -0.207712816064 0.796 9.48642346328e-39
-0.00147314053946 -0.207712816064 0.796 9.39602569935e-39
0.0 -0.207712816064 0.796 9.30416497982e-39
0.00147314053946 -0.207712816064 0.796 9.11941919158e-39
0.00294628107892 -0.207712816064 0.796 9.02686763191e-39
0.00441942161837 -0.207712816064 0.796 9.11906326177e-39
0.00589256215783 -0.207712816064 0.796 9.2109253826e-39
0.00736570269729 -0.207712816064 0.796 9.11906606437e-39
0.00881663508791 -0.207190924566 0.794 8.93505035263e-39
0.0102860742692 -0.207190924566 0.794 9.0268704345e-39
0.0117555134506 -0.207190924566 0.794 9.02650189301e-39
0.0131916404086 -0.206669033068 0.792 9.02649909041e-39
0.0146573782318 -0.206669033068 0.792 8.84210783068e-39
0.0160824011154 -0.206147141571 0.79 8.47404978254e-39
0.0175444375805 -0.206147141571 0.79 8.47369385273e-39
0.0189824152176 -0.205886195822 0.789 8.84105125164e-39
0.0204426010036 -0.205886195822 0.789 8.56480067368e-39
0.0218472664175 -0.205364304324 0.787 8.10598753049e-39
0.0233037508453 -0.205364304324 0.787 8.19709435145e-39
0.0247602352731 -0.205364304324 0.787 8.10418966456e-39
0.026216719701 -0.205364304324 0.787 7.64211850244e-39
0.0276732041288 -0.205364304324 0.787 8.84247356958e-39
0.0290556613938 -0.204842412827 0.785 1.09615535411e-38
0.0331160512727 -0.203015792585 0.778 1.07735483326e-38
-0.0287965663241 -0.201575964269 0.778 9.01931183059e-39
-0.0273567380079 -0.201575964269 0.778 9.20544350301e-39
-0.0260168463614 -0.202353249478 0.781 1.02239913048e-38
-0.024571466008 -0.202353249478 0.781 9.76264041008e-39
-0.0233037508453 -0.203907819896 0.787 9.66973572319e-39
-0.0218472664175 -0.203907819896 0.787 9.48712971771e-39
-0.0204426010036 -0.204426010036 0.789 9.11906606437e-39
-0.0189824152176 -0.204426010036 0.789 9.39457535544e-39
-0.0175222294316 -0.204426010036 0.789 9.39528301116e-39
-0.0160824011154 -0.204685105106 0.79 9.48570739977e-39
-0.0146203646504 -0.204685105106 0.79 8.93395593853e-39
-0.0131916404086 -0.205203295245 0.792 9.11905345268e-39
-0.0117555134506 -0.205721485385 0.794 9.48748004232e-39
-0.0103119837762 -0.206239675524 0.796 8.84211063328e-39
-0.00883884323675 -0.206239675524 0.796 9.02614876579e-39
-0.00736570269729 -0.206239675524 0.796 8.93395313593e-39
-0.00589256215783 -0.206239675524 0.796 9.30237832428e-39
-0.00441942161837 -0.206239675524 0.796 9.39457535544e-39
-0.00294628107892 -0.206239675524 0.796 9.39457535544e-39
-0.00147314053946 -0.206239675524 0.796 9.30237832428e-39
0.0 -0.206239675524 0.796 9.02650189301e-39
0.00147314053946 -0.206239675524 0.796 8.84247637218e-39
0.00294628107892 -0.206239675524 0.796 9.11869752287e-39
0.00441942161837 -0.206239675524 0.796 8.74919193341e-39
0.00589256215783 -0.206239675524 0.796 8.93467200204e-39
0.00736570269729 -0.206239675524 0.796 9.02721795652e-39
0.00881663508791 -0.205721485385 0.794 8.84282949939e-39
0.0102860742692 -0.205721485385 0.794 8.93430626314e-39
0.0117555134506 -0.205721485385 0.794 9.11797445286e-39
0.0132249526319 -0.205721485385 0.794 8.84247637218e-39
0.0146573782318 -0.205203295245 0.792 8.65846066044e-39
0.0160824011154 -0.204685105106 0.79 8.47440010715e-39
0.0175444375805 -0.204685105106 0.79 8.38115070084e-39
0.0190064740455 -0.204685105106 0.79 8.19710416054e-39
0.0204685105106 -0.204685105106 0.79 8.56586706181e-39
0.0219027867896 -0.204426010036 0.789 8.56731880702e-39
0.0233037508453 -0.203907819896 0.787 8.47371066831e-39
0.0247602352731 -0.203907819896 0.787 8.6559397245e-39
0.0261500952545 -0.203389629757 0.785 7.91979700354e-39
0.0276028783241 -0.203389629757 0.785 8.10312187513e-39
0.0290556613938 -0.203389629757 0.785 8.47047647145e-39
0.0302363946403 -0.201575964269 0.778 1.04079944048e-38
0.0316762229565 -0.201575964269 0.778 1.02228772725e-38
0.0331160512727 -0.201575964269 0.778 8.00912557674e-39
0.0344670469936 -0.201057774129 0.776 1.22471706133e-38
-0.0302363946403 -0.200136135952 0.778 9.38809715264e-39
-0.0287965663241 -0.200136135952 0.778 9.94123309676e-39
-0.0274270638125 -0.200650624734 0.78 1.08675432297e-38
-0.0260168463614 -0.200907869124 0.781 1.01299781908e-38
-0.0246343890964 -0.201422357906 0.783 9.4867737879e-39
-0.0233037508453 -0.202451335469 0.787 1.01306942543e-38
-0.0218472664175 -0.202451335469 0.787 9.30237832428e-39
-0.0204426010036 -0.20296582425 0.789 9.39457535544e-39
-0.0189824152176 -0.20296582425 0.789 9.39492708135e-39
-0.0175222294316 -0.20296582425 0.789 9.4856807751e-39
-0.0160824011154 -0.203223068641 0.79 9.48497171807e-39
-0.0146203646504 -0.203223068641 0.79 9.02650189301e-39
-0.0131916404086 -0.203737557422 0.792 9.11869752287e-39
-0.0117555134506 -0.204252046203 0.794 9.02542009059e-39
-0.0103119837762 -0.204766534985 0.796 9.11869752287e-39
-0.00883884323675 -0.204766534985 0.796 9.02650189301e-39
-0.00736570269729 -0.204766534985 0.796 8.84247637218e-39
-0.00589256215783 -0.204766534985 0.796 8.65844524616e-39
-0.00441942161837 -0.204766534985 0.796 9.02614876579e-39
-0.00294628107892 -0.204766534985 0.796 8.93360561391e-39
-0.00147314053946 -0.204766534985 0.796 9.11729061921e-39
0.0 -0.204766534985 0.796 9.11834439566e-39
0.0014768418976 -0.205281023766 0.798 9.11869752287e-39
0.00294628107892 -0.204766534985 0.796 9.02650189301e-39
0.00441942161837 -0.204766534985 0.796 8.65879557077e-39
0.00589256215783 -0.204766534985 0.796 9.11834439566e-39
0.00736570269729 -0.204766534985 0.796 9.57932254497e-39
0.00883884323675 -0.204766534985 0.796 8.7506562903e-39
0.0103119837762 -0.204766534985 0.796 9.11869752287e-39
0.0117555134506 -0.204252046203 0.794 9.02577321781e-39
0.0132249526319 -0.204252046203 0.794 8.47440290975e-39
0.0146943918132 -0.204252046203 0.794 8.65844524616e-39
0.016123116055 -0.203737557422 0.792 8.38185415267e-39
0.0175444375805 -0.203223068641 0.79 8.28823620487e-39
0.0190064740455 -0.203223068641 0.79 8.47404978254e-39
0.0204685105106 -0.203223068641 0.79 8.10669098232e-39
0.0219027867896 -0.20296582425 0.789 8.19854189276e-39
0.0233629725755 -0.20296582425 0.789 8.29000884743e-39
0.0248231583615 -0.20296582425 0.789 8.1945860272e-39
0.0261500952545 -0.201936846687 0.785 7.91907533483e-39
0.0276028783241 -0.201936846687 0.785 8.1953189063e-39
0.028981634231 -0.201422357906 0.783 7.91765581949e-39
0.0302363946403 -0.200136135952 0.778 7.9172774689e-39
0.0316762229565 -0.200136135952 0.778 1.15172062173e-38
0.0331160512727 -0.200136135952 0.778 1.13303164424e-38
0.0344670469936 -0.199621647171 0.776 7.27190805986e-39
0.0359031739516 -0.199621647171 0.776 1.38145369586e-38
-0.0316762229565 -0.198696307636 0.778 1.51056555286e-38
-0.0302363946403 -0.198696307636 0.778 9.48349474949e-39
-0.0287965663241 -0.198696307636 0.778 1.07771454658e-38
-0.0274270638125 -0.199207095059 0.78 1.11412532536e-38
-0.0260168463614 -0.199462488771 0.781 9.85159343529e-39
-0.0246343890964 -0.199973276194 0.783 9.67152097743e-39
-0.0233629725755 -0.201505638464 0.789 8.9332524867e-39
-0.0219027867896 -0.201505638464 0.789 9.209100892e-39
-0.0204426010036 -0.201505638464 0.789 9.02542009059e-39
-0.0190064740455 -0.201761032176 0.79 9.57787640496e-39
-0.0175444375805 -0.201761032176 0.79 9.76082012337e-39
-0.0160824011154 -0.201761032176 0.79 8.93430626314e-39
-0.0146573782318 -0.202271819599 0.792 8.93467200204e-39
-0.0131916404086 -0.202271819599 0.792 9.4856807751e-39
-0.0117555134506 -0.202782607022 0.794 9.57752327775e-39
-0.0103119837762 -0.203293394445 0.796 8.65846066044e-39
-0.00883884323675 -0.203293394445 0.796 8.65844244356e-39
-0.00736570269729 -0.203293394445 0.796 8.7495618762e-39
-0.00589256215783 -0.203293394445 0.796 8.74955767231e-39
-0.00443052569279 -0.203804181868 0.798 8.5655167372e-39
-0.00295368379519 -0.203804181868 0.798 8.47404978254e-39
-0.0014768418976 -0.203804181868 0.798 8.28788307766e-39
0.0 -0.203804181868 0.798 8.38044444642e-39
0.0014768418976 -0.203804181868 0.798 8.6559397245e-39
0.00295368379519 -0.203804181868 0.798 8.74813535437e-39
0.00443052569279 -0.203804181868 0.798 9.0257760204e-39
0.00590736759039 -0.203804181868 0.798 8.7495618762e-39
0.00738420948799 -0.203804181868 0.798 8.56659573702e-39
0.00883884323675 -0.203293394445 0.796 8.84247637218e-39
0.0103119837762 -0.203293394445 0.796 8.28895507098e-39
0.0117851243157 -0.203293394445 0.796 8.1956818426e-39
0.0132582648551 -0.203293394445 0.796 7.91909355171e-39
0.0147314053946 -0.203293394445 0.796 8.47224911401e-39
0.0161638309945 -0.202782607022 0.794 8.28823620487e-39
0.0175888538782 -0.202271819599 0.792 8.1956818426e-39
0.0190064740455 -0.201761032176 0.79 8.1956818426e-39
0.0204685105106 -0.201761032176 0.79 8.01162409191e-39
0.0219027867896 -0.201505638464 0.789 8.19709435145e-39
0.0233629725755 -0.201505638464 0.789 8.56334892847e-39
0.0248231583615 -0.201505638464 0.789 8.74775980638e-39
0.0262833441475 -0.201505638464 0.789 7.92087740465e-39
0.0276028783241 -0.200484063617 0.785 8.10528407866e-39
0.028981634231 -0.199973276194 0.783 8.2889396567e-39
0.0302363946403 -0.198696307636 0.778 7.8294006409e-39
0.0316762229565 -0.198696307636 0.778 8.47476864865e-39
0.0331160512727 -0.198696307636 0.778 1.09604577257e-38
0.0344670469936 -0.198185520213 0.776 9.57680160904e-39
0.0359031739516 -0.198185520213 0.776 8.28496837685e-39
0.0373393009097 -0.198185520213 0.776 1.7406573594e-38
-0.0316762229565 -0.19725647932 0.778 8.46681908246e-39
-0.0302363946403 -0.19725647932 0.778 1.0409436341e-38
-0.0287965663241 -0.19725647932 0.778 1.19731691194e-38
-0.0273567380079 -0.19725647932 0.778 1.25248911533e-38
-0.0260168463614 -0.198017108418 0.781 1.25248911533e-38
-0.0246343890964 -0.198524194483 0.783 1.05912898492e-38
-0.0233037508453 -0.199538366613 0.787 1.01299781908e-38
-0.0219027867896 -0.200045452678 0.789 9.29951407021e-39
-0.0204426010036 -0.200045452678 0.789 9.20911630628e-39
-0.0190064740455 -0.20029899571 0.79 9.57680721423e-39
-0.0175444375805 -0.20029899571 0.79 9.11332494456e-39
-0.0160824011154 -0.20029899571 0.79 8.47154846478e-39
-0.0146573782318 -0.200806081776 0.792 8.56374409464e-39
-0.0131916404086 -0.200806081776 0.792 8.56194622871e-39
-0.0117851243157 -0.201820253906 0.796 7.91656000409e-39
-0.0103378932832 -0.202327339971 0.798 8.83995543624e-39
-0.00886105138558 -0.202327339971 0.798 9.02645705146e-39
-0.00738420948799 -0.202327339971 0.798 9.11725558675e-39
-0.00590736759039 -0.202327339971 0.798 9.85481782306e-39
-0.00443052569279 -0.202327339971 0.798 9.02720814743e-39
-0.00295368379519 -0.202327339971 0.798 9.39455853986e-39
-0.0014768418976 -0.202327339971 0.798 9.67187130205e-39
0.0 -0.202327339971 0.798 8.19713218651e-39
0.0014768418976 -0.202327339971 0.798 9.85588981639e-39
0.00295368379519 -0.202327339971 0.798 9.48605492179e-39
0.00443052569279 -0.202327339971 0.798 1.01303257128e-38
0.00590736759039 -0.202327339971 0.798 9.4856807751e-39
0.00738420948799 -0.202327339971 0.798 9.94953438886e-39
0.00886105138558 -0.202327339971 0.798 9.48602829711e-39
0.0103119837762 -0.201820253906 0.796 9.57787640496e-39
0.0117851243157 -0.201820253906 0.796 9.02615156839e-39
0.0132582648551 -0.201820253906 0.796 9.30272864889e-39
0.0147314053946 -0.201820253906 0.796 8.93430346055e-39
0.0161638309945 -0.201313167841 0.794 8.47369385273e-39
0.0175888538782 -0.200806081776 0.792 8.65844524616e-39
0.0190064740455 -0.20029899571 0.79 8.65844524616e-39
0.0204685105106 -0.20029899571 0.79 8.56659853961e-39
0.0219027867896 -0.200045452678 0.789 8.47440290975e-39
0.0233629725755 -0.200045452678 0.789 8.84138756327e-39
0.0248231583615 -0.200045452678 0.789 9.0254088802e-39
0.0262833441475 -0.200045452678 0.789 8.56659853961e-39
0.0276732041288 -0.199538366613 0.787 8.56554336187e-39
0.028981634231 -0.198524194483 0.783 9.02542569579e-39
0.0303141231612 -0.197763565385 0.78 8.38079477103e-39
0.0316762229565 -0.19725647932 0.778 8.19783844093e-39
0.0331160512727 -0.19725647932 0.778 1.05945688876e-38
0.0344670469936 -0.196749393255 0.776 1.10526757763e-38
0.0359031739516 -0.196749393255 0.776 8.10309384916e-39
-0.0357643730214 -0.194558189236 0.773 1.6202932482e-38
-0.0343337981005 -0.194558189236 0.773 2.20167334378e-38
-0.0329032231797 -0.194558189236 0.773 1.59346875222e-38
-0.0314726482588 -0.194558189236 0.773 1.04029553356e-38
-0.030042073338 -0.194558189236 0.773 1.07739014598e-38
-0.0287225391613 -0.195313266297 0.776 1.32613870015e-38
-0.0273567380079 -0.195816651004 0.778 1.29847987106e-38
-0.0259169096917 -0.195816651004 0.778 1.29844273665e-38
-0.0247602352731 -0.198081882185 0.787 1.26177958402e-38
-0.0233037508453 -0.198081882185 0.787 1.21568176909e-38
-0.0219305469756 -0.198836959245 0.79 1.26167266495e-38
-0.0204685105106 -0.198836959245 0.79 1.21553883665e-38
-0.0190545917013 -0.199340343952 0.792 1.22472280665e-38
-0.0175888538782 -0.199340343952 0.792 1.16965654142e-38
-0.016123116055 -0.199340343952 0.792 1.10519092661e-38
-0.0146943918132 -0.199843728659 0.794 1.08682494841e-38
-0.0132249526319 -0.199843728659 0.794 1.09608248659e-38
-0.0118147351808 -0.200850498073 0.798 1.09622345721e-38
-0.0103378932832 -0.200850498073 0.798 1.07767671152e-38
-0.00886105138558 -0.200850498073 0.798 1.00391992737e-38
-0.00738420948799 -0.200850498073 0.798 1.00385014271e-38
-0.00590736759039 -0.200850498073 0.798 1.0132129184e-38
-0.00444162976721 -0.20135388278 0.8 9.94737919182e-39
-0.00296108651147 -0.20135388278 0.8 1.02225269479e-38
-0.00148054325574 -0.20135388278 0.8 9.67043917502e-39
0.0 -0.20135388278 0.8 9.67151817484e-39
0.00148054325574 -0.20135388278 0.8 9.5800259968e-39
0.00295368379519 -0.200850498073 0.798 9.7626221932e-39
0.00443052569279 -0.200850498073 0.798 1.02225241453e-38
0.00592217302295 -0.20135388278 0.8 1.02221710181e-38
0.00740271627868 -0.20135388278 0.8 1.02239913048e-38
0.00888325953442 -0.20135388278 0.8 9.67042235944e-39
0.0103378932832 -0.200850498073 0.798 1.07764167906e-38
0.0118147351808 -0.200850498073 0.798 9.67043917502e-39
0.0132915770784 -0.200850498073 0.798 9.48712411251e-39
0.0147314053946 -0.200347113366 0.796 9.67042516203e-39
0.016204545934 -0.200347113366 0.796 9.4867737879e-39
0.0175888538782 -0.199340343952 0.792 9.12012264341e-39
0.0190064740455 -0.198836959245 0.79 8.84317982401e-39
0.0204685105106 -0.198836959245 0.79 8.84247637218e-39
0.0219027867896 -0.198585266892 0.789 9.02577321781e-39
0.0233629725755 -0.198585266892 0.789 8.93430346055e-39
0.0248231583615 -0.198585266892 0.789 9.11795343339e-39
0.0262833441475 -0.198585266892 0.789 9.02612354242e-39
0.0276732041288 -0.198081882185 0.787 8.84103443606e-39
0.0290556613938 -0.197578497478 0.785 8.74919193341e-39
0.0304307159426 -0.197075112771 0.783 8.19781321756e-39
0.0317983677751 -0.196571728064 0.781 8.19781321756e-39
0.0331160512727 -0.195816651004 0.778 9.21161482144e-39
0.0345558795889 -0.195816651004 0.778 8.93395593853e-39
0.0359957079051 -0.195816651004 0.778 8.37898149082e-39
0.0374355362213 -0.195816651004 0.778 1.25220619317e-38
-0.0357643730214 -0.193127614316 0.773 1.62969610103e-38
-0.0342449655052 -0.192627930967 0.771 2.01742389546e-38
-0.0328180919425 -0.192627930967 0.771 1.12344900482e-38
-0.0313912183798 -0.192627930967 0.771 1.1327422761e-38
-0.030042073338 -0.193127614316 0.773 1.13277997103e-38
-0.0287225391613 -0.193877139339 0.776 1.34472033818e-38
-0.0273567380079 -0.194376822688 0.778 1.32610142561e-38
-0.0259169096917 -0.194376822688 0.778 1.28000361068e-38
-0.0247602352731 -0.196625397757 0.787 1.25248911533e-38
-0.0233629725755 -0.197125081106 0.789 1.23401467664e-38
-0.0219305469756 -0.19737492278 0.79 1.29847987106e-38
-0.0204685105106 -0.19737492278 0.79 1.13285003596e-38
-0.0191027093571 -0.198374289478 0.794 1.15114622949e-38
-0.0176332701758 -0.198374289478 0.794 1.18777252797e-38
-0.016204545934 -0.198873972827 0.796 1.11441076985e-38
-0.014768418976 -0.199373656176 0.798 1.11430413104e-38
-0.0132915770784 -0.199373656176 0.798 1.05913066647e-38
-0.0118147351808 -0.199373656176 0.798 1.05916569894e-38
-0.0103897122971 -0.200373022873 0.802 1.02235961386e-38
-0.00890546768326 -0.200373022873 0.802 1.00392048789e-38
-0.00740271627868 -0.199873339524 0.8 1.07764041789e-38
-0.00592217302295 -0.199873339524 0.8 9.94738479702e-39
-0.00445828587884 -0.200622864548 0.803 9.67152378003e-39
-0.00296848922775 -0.200373022873 0.802 9.85446749844e-39
-0.00148424461388 -0.200373022873 0.802 9.85518636456e-39
0.0 -0.200373022873 0.802 9.67043917502e-39
0.00148424461388 -0.200373022873 0.802 1.00388517517e-38
0.00296108651147 -0.199873339524 0.8 1.01303285154e-38
0.00444162976721 -0.199873339524 0.8 9.85483603994e-39
0.0059369784555 -0.200373022873 0.802 9.67079510483e-39
0.00740271627868 -0.199873339524 0.8 9.48712691511e-39
0.00888325953442 -0.199873339524 0.8 9.48712411251e-39
0.0103638027902 -0.199873339524 0.8 9.76299073469e-39
0.0118147351808 -0.199373656176 0.798 9.85518636456e-39
0.0132915770784 -0.199373656176 0.798 9.7626193906e-39
0.014768418976 -0.199373656176 0.798 9.76262499579e-39
0.016204545934 -0.198873972827 0.796 9.39563053318e-39
0.0176332701758 -0.198374289478 0.794 9.11905065008e-39
0.0190545917013 -0.197874606129 0.792 8.93502232666e-39
0.0204685105106 -0.19737492278 0.79 9.02614876579e-39
0.0219305469756 -0.19737492278 0.79 8.93430346055e-39
0.0233629725755 -0.197125081106 0.789 8.9332496841e-39
0.0248231583615 -0.197125081106 0.789 8.47440290975e-39
0.0262833441475 -0.197125081106 0.789 8.74918913081e-39
0.0277435299334 -0.197125081106 0.789 8.38115070084e-39
0.0290556613938 -0.196125714408 0.785 8.4733491333e-39
0.0304307159426 -0.19562603106 0.783 8.37968634395e-39
0.0317983677751 -0.195126347711 0.781 8.47404978254e-39
0.0332011825099 -0.194876506036 0.78 8.93430906574e-39
0.0346447121842 -0.194876506036 0.78 9.67007203482e-39
0.0359031739516 -0.193877139339 0.776 8.19496577908e-39
0.0373393009097 -0.193877139339 0.776 1.2153597507e-38
0.0387754278677 -0.193877139339 0.776 1.86079950493e-38
-0.0355793051144 -0.190705075413 0.769 1.54700940228e-38
-0.0341561329098 -0.190705075413 0.769 2.06359037401e-38
-0.0327329607053 -0.190705075413 0.769 1.10486750692e-38
-0.0313097885007 -0.190705075413 0.769 1.10504897507e-38
-0.029964344817 -0.191201057404 0.771 1.20649877999e-38
-0.0287225391613 -0.192441012381 0.776 1.36308687689e-38
-0.0276028783241 -0.194672931339 0.785 1.36297967756e-38
-0.0261500952545 -0.194672931339 0.785 1.26167266495e-38
-0.0248546199057 -0.195912886315 0.79 1.27096411455e-38
-0.0234518051709 -0.196408868306 0.792 1.25245408287e-38
-0.0220415877198 -0.196904850297 0.794 1.25234450133e-38
-0.0205721485385 -0.196904850297 0.794 1.17898302348e-38
-0.019150827013 -0.197400832287 0.796 1.13281528375e-38
-0.0177221027712 -0.197896814278 0.798 1.13274255636e-38
-0.0162452608736 -0.197896814278 0.798 1.14189023274e-38
-0.014768418976 -0.197896814278 0.798 1.11437601765e-38
-0.0132915770784 -0.197896814278 0.798 1.08678935543e-38
-0.0118443460459 -0.198392796269 0.8 1.06835022946e-38
-0.0103897122971 -0.198888778259 0.802 1.0866446013e-38
-0.00891657175768 -0.199136769255 0.803 1.08657453638e-38
-0.00743047646473 -0.199136769255 0.803 1.03147225778e-38
-0.00594438117178 -0.199136769255 0.803 1.00377769558e-38
-0.00446938995326 -0.199632751245 0.805 9.76227186858e-39
-0.00297219058589 -0.199136769255 0.803 9.76227186858e-39
-0.00148609529295 -0.199136769255 0.803 9.85446749844e-39
0.0 -0.199136769255 0.803 8.84246376049e-39
0.00148609529295 -0.199136769255 0.803 9.67222442926e-39
0.00297219058589 -0.199136769255 0.803 9.76187670241e-39
0.00445828587884 -0.199136769255 0.803 9.76262499579e-39
0.00594438117178 -0.199136769255 0.803 9.85481782306e-39
0.00742122306938 -0.198888778259 0.802 9.57822953217e-39
0.00890546768326 -0.198888778259 0.802 9.7626221932e-39
0.0103638027902 -0.198392796269 0.8 1.04079887996e-38
0.0118443460459 -0.198392796269 0.8 9.85374022454e-39
0.0133248893016 -0.198392796269 0.8 1.013067884e-38
0.0148054325574 -0.198392796269 0.8 9.67043917502e-39
0.0162452608736 -0.197896814278 0.798 9.48712411251e-39
0.0176776864735 -0.197400832287 0.796 9.3030817761e-39
0.0191027093571 -0.196904850297 0.794 9.11905065008e-39
0.0205203295245 -0.196408868306 0.792 9.11796884767e-39
0.0219860673477 -0.196408868306 0.792 8.56659853961e-39
0.0233925834406 -0.195912886315 0.79 8.65844524616e-39
0.0248546199057 -0.195912886315 0.79 8.47440290975e-39
0.0263166563707 -0.195912886315 0.79 8.84317702141e-39
0.0277435299334 -0.19566489532 0.789 8.01307303452e-39
0.0290556613938 -0.194672931339 0.785 8.56554336187e-39
0.0304307159426 -0.194176949348 0.783 8.10348621273e-39
0.0317983677751 -0.193680967357 0.781 8.19638529443e-39
0.0332011825099 -0.193432976362 0.78 9.11760310877e-39
0.0345558795889 -0.192936994371 0.778 9.76226906598e-39
0.0359031739516 -0.192441012381 0.776 7.91692714428e-39
0.0373393009097 -0.192441012381 0.776 1.21543163732e-38
0.0387754278677 -0.192441012381 0.776 1.90696850582e-38
-0.0354867711609 -0.188789622576 0.767 1.55641099394e-38
-0.0340673003145 -0.188789622576 0.767 1.97128908625e-38
-0.0327329607053 -0.189281903209 0.769 1.05866305318e-38
-0.0313097885007 -0.189281903209 0.769 1.09600891842e-38
-0.029964344817 -0.189774183841 0.771 1.11455692528e-38
-0.0286114984171 -0.190266464474 0.773 1.35397521389e-38
-0.0276028783241 -0.193220148269 0.785 1.35368976939e-38
-0.0261500952545 -0.193220148269 0.785 1.28929506028e-38
-0.0248546199057 -0.19445084985 0.79 1.28000361068e-38
-0.0234518051709 -0.194943130483 0.792 1.31684612952e-38
-0.0220971080919 -0.195927691748 0.796 1.22465092004e-38
-0.0206239675524 -0.195927691748 0.796 1.21550324367e-38
-0.0191989446688 -0.19641997238 0.798 1.19724390429e-38
-0.0177665190688 -0.196912253013 0.8 1.14203246453e-38
-0.0162859758131 -0.196912253013 0.8 1.09586416429e-38
-0.0148054325574 -0.196912253013 0.8 1.09586570572e-38
-0.0133582015249 -0.197404533646 0.802 1.03150729024e-38
-0.0118887623436 -0.197650673962 0.803 1.04987537038e-38
-0.0104026670506 -0.197650673962 0.803 1.06820505494e-38
-0.00893877990651 -0.198142954594 0.805 1.03136253611e-38
-0.00744898325543 -0.198142954594 0.805 1.04051175391e-38
-0.00595918660434 -0.198142954594 0.805 9.9459372557e-39
-0.00446938995326 -0.198142954594 0.805 9.9452141857e-39
-0.00297959330217 -0.198142954594 0.805 1.01303257128e-38
-0.00148979665109 -0.198142954594 0.805 1.02225241453e-38
0.0 -0.198142954594 0.805 9.76226906598e-39
0.00148609529295 -0.197650673962 0.803 1.18827419282e-38
0.00297219058589 -0.197650673962 0.803 9.11543530005e-39
0.00445828587884 -0.197650673962 0.803 9.7626193906e-39
0.00594438117178 -0.197650673962 0.803 1.02221457947e-38
0.00743047646473 -0.197650673962 0.803 9.76297532041e-39
0.00891657175768 -0.197650673962 0.803 1.01303285154e-38
0.0104026670506 -0.197650673962 0.803 9.85373742194e-39
0.0118887623436 -0.197650673962 0.803 9.9459372557e-39
0.0133748576365 -0.197650673962 0.803 9.66970629592e-39
0.0148609529295 -0.197650673962 0.803 9.7626221932e-39
0.0163266907526 -0.197404533646 0.802 9.3030817761e-39
0.0178109353665 -0.197404533646 0.802 9.02614876579e-39
0.019150827013 -0.195927691748 0.796 8.93430346055e-39
0.0205203295245 -0.194943130483 0.792 9.39491446967e-39
0.0219860673477 -0.194943130483 0.792 8.93395313593e-39
0.0234518051709 -0.194943130483 0.792 8.65844524616e-39
0.0248546199057 -0.19445084985 0.79 8.47369385273e-39
0.0263166563707 -0.19445084985 0.79 8.47404978254e-39
0.0277435299334 -0.194204709534 0.789 8.38185415267e-39
0.0290556613938 -0.193220148269 0.785 8.47404978254e-39
0.0304307159426 -0.192727867636 0.783 8.65914589539e-39
0.0317983677751 -0.192235587004 0.781 8.93502793185e-39
0.0332011825099 -0.191989446688 0.78 9.02614876579e-39
0.0345558795889 -0.191497166055 0.778 9.57787640496e-39
0.0358106399981 -0.19051260479 0.774 6.81128584035e-39
0.0372430655981 -0.19051260479 0.774 1.67659125478e-38
-0.0368581243516 -0.187125862093 0.766 1.73986198239e-38
-0.0354405041842 -0.187125862093 0.766 1.43666233302e-38
-0.0340673003145 -0.18737015173 0.767 1.87002060934e-38
-0.0326478294681 -0.18737015173 0.767 1.19692216616e-38
-0.0312283586216 -0.18737015173 0.767 1.09600919868e-38
-0.0298866162961 -0.187858731004 0.769 1.05927514035e-38
-0.0284634440915 -0.187858731004 0.769 1.32628121221e-38
-0.0277786928358 -0.192988813385 0.79 1.30773460664e-38
-0.0263166563707 -0.192988813385 0.79 1.27096383429e-38
-0.0249175429941 -0.19347739266 0.792 1.28929506028e-38
-0.0235110269011 -0.193965971934 0.794 1.25230918861e-38
-0.0220971080919 -0.194454551208 0.796 1.24319766574e-38
-0.0206757865664 -0.194943130483 0.798 1.17862569237e-38
-0.0191989446688 -0.194943130483 0.798 1.16033076001e-38
-0.0177665190688 -0.195431709757 0.8 1.1143391635e-38
-0.0162859758131 -0.195431709757 0.8 1.16958199234e-38
-0.0148424461388 -0.195920289032 0.802 1.11437755908e-38
-0.0133582015249 -0.195920289032 0.802 1.08678935543e-38
-0.0118887623436 -0.196164578669 0.803 1.09593857324e-38
-0.0104285765576 -0.196653157943 0.805 1.08657425612e-38
-0.00893877990651 -0.196653157943 0.805 1.06820561546e-38
-0.00744898325543 -0.196653157943 0.805 1.04987537038e-38
-0.00595918660434 -0.196653157943 0.805 1.0130331318e-38
-0.00446938995326 -0.196653157943 0.805 1.02225241453e-38
-0.00297959330217 -0.196653157943 0.805 1.01306816426e-38
-0.00148979665109 -0.196653157943 0.805 1.04065454622e-38
0.0 -0.196653157943 0.805 1.13270696338e-38
0.00148609529295 -0.196164578669 0.803 1.27103992479e-38
0.00297219058589 -0.196164578669 0.803 1.01310347699e-38
0.00446938995326 -0.196653157943 0.805 1.00377797584e-38
0.00595918660434 -0.196653157943 0.805 1.00377797584e-38
0.00744898325543 -0.196653157943 0.805 9.85483603994e-39
0.00893877990651 -0.196653157943 0.805 9.94558412849e-39
0.0104285765576 -0.196653157943 0.805 9.76226906598e-39
0.0119183732087 -0.196653157943 0.805 9.94488347926e-39
0.0134081698598 -0.196653157943 0.805 1.02228898842e-38
0.0148609529295 -0.196164578669 0.803 9.7629851295e-39
0.0163470482224 -0.196164578669 0.803 1.00399475671e-38
0.0178331435154 -0.196164578669 0.803 9.48712971771e-39
0.0192951799804 -0.195920289032 0.802 8.7506590929e-39
0.0207276055803 -0.195431709757 0.8 9.30306916442e-39
0.022152628464 -0.194943130483 0.798 9.02650189301e-39
0.0235702486313 -0.194454551208 0.796 8.93395313593e-39
0.0249804660824 -0.193965971934 0.794 9.02577321781e-39
0.0263832808172 -0.19347739266 0.792 8.74955767231e-39
0.0277786928358 -0.192988813385 0.79 8.47440010715e-39
0.0292037157194 -0.192744523748 0.789 8.47440290975e-39
0.0306639015054 -0.192744523748 0.789 8.84173788789e-39
0.0321240872913 -0.192744523748 0.789 8.75024570985e-39
0.0343782143982 -0.18908017919 0.774 9.85446749844e-39
0.0358106399981 -0.18908017919 0.774 9.2076365351e-39
0.0372430655981 -0.18908017919 0.774 1.90744410652e-38
-0.0382757445189 -0.185708241925 0.766 1.64737193972e-38
-0.0368581243516 -0.185708241925 0.766 1.75808082425e-38
-0.0354405041842 -0.185708241925 0.766 1.35347326878e-38
-0.0340673003145 -0.185950680883 0.767 1.8423962522e-38
-0.0326478294681 -0.185950680883 0.767 1.34457586431e-38
-0.0312283586216 -0.185950680883 0.767 1.07739014598e-38
-0.0298088877752 -0.185950680883 0.767 1.04976662962e-38
-0.0284634440915 -0.1864355588 0.769 1.32628275363e-38
-0.0278490186404 -0.192011654837 0.792 1.28011333235e-38
-0.0263832808172 -0.192011654837 0.792 1.26170923884e-38
-0.0249804660824 -0.192496532753 0.794 1.28007773937e-38
-0.0235110269011 -0.192496532753 0.794 1.22472126522e-38
-0.022152628464 -0.193466288585 0.798 1.18784525536e-38
-0.0207276055803 -0.193951166502 0.8 1.16958619624e-38
-0.0192470623246 -0.193951166502 0.8 1.16951529053e-38
-0.0177665190688 -0.193951166502 0.8 1.15114650974e-38
-0.0163266907526 -0.194436044418 0.802 1.10515589415e-38
-0.0148609529295 -0.194678483376 0.803 1.10504925533e-38
-0.0133748576365 -0.194678483376 0.803 1.10511960052e-38
-0.0118887623436 -0.194678483376 0.803 1.05916569894e-38
-0.0104285765576 -0.195163361292 0.805 1.0499106831e-38
-0.00893877990651 -0.195163361292 0.805 1.07739014598e-38
-0.00744898325543 -0.195163361292 0.805 1.03143694505e-38
-0.0059739920369 -0.195648239208 0.807 1.03136659987e-38
-0.00448049402767 -0.195648239208 0.807 1.02225269479e-38
-0.00297959330217 -0.195163361292 0.805 1.01303285154e-38
-0.00148979665109 -0.195163361292 0.805 1.01303285154e-38
0.0 -0.195163361292 0.805 1.00381328856e-38
0.00148979665109 -0.195163361292 0.805 9.30165945816e-39
0.00297959330217 -0.195163361292 0.805 9.76226906598e-39
0.00446938995326 -0.195163361292 0.805 1.00388517517e-38
0.00595918660434 -0.195163361292 0.805 9.76227186858e-39
0.00744898325543 -0.195163361292 0.805 9.76263480488e-39
0.00893877990651 -0.195163361292 0.805 9.67079510483e-39
0.0104285765576 -0.195163361292 0.805 9.4856807751e-39
0.0119183732087 -0.195163361292 0.805 9.57787640496e-39
0.0134081698598 -0.195163361292 0.805 9.7626221932e-39
0.0148979665109 -0.195163361292 0.805 9.67042516203e-39
0.0163470482224 -0.194678483376 0.803 9.02685502022e-39
0.0178331435154 -0.194678483376 0.803 9.21196514606e-39
0.0192951799804 -0.194436044418 0.802 9.30272864889e-39
0.0207276055803 -0.193951166502 0.8 9.11869752287e-39
0.0222081488361 -0.193951166502 0.8 9.11869752287e-39
0.0235702486313 -0.192981410669 0.796 9.30165945816e-39
0.0250433891708 -0.192981410669 0.796 9.02575359963e-39
0.0264499052637 -0.192496532753 0.794 8.74919193341e-39
0.0278490186404 -0.192011654837 0.792 8.84138756327e-39
0.0292407293008 -0.19152677692 0.79 9.11797445286e-39
0.0307027657658 -0.19152677692 0.79 8.8428266968e-39
-0.0382757445189 -0.184290621758 0.766 1.69368877761e-38
-0.0368581243516 -0.184290621758 0.766 1.7489708428e-38
-0.0354405041842 -0.184290621758 0.766 1.40846442441e-38
-0.0340228840168 -0.184290621758 0.766 1.67662488595e-38
-0.0326052638495 -0.184290621758 0.766 1.54751316908e-38
-0.0311876436821 -0.184290621758 0.766 1.10461863631e-38
-0.0297700235147 -0.184290621758 0.766 1.12359558064e-38
-0.0293887836264 -0.191027093571 0.794 1.16955214468e-38
-0.0279193444451 -0.191027093571 0.794 1.25266918219e-38
-0.0264499052637 -0.191027093571 0.794 1.21564673663e-38
-0.0250433891708 -0.19150827013 0.796 1.22468777419e-38
-0.0235702486313 -0.19150827013 0.796 1.21568373091e-38
-0.022152628464 -0.191989446688 0.798 1.14203610791e-38
-0.0207276055803 -0.192470623246 0.8 1.1696212287e-38
-0.0192951799804 -0.192951799804 0.802 1.16036607273e-38
-0.0178109353665 -0.192951799804 0.802 1.13281500349e-38
-0.0163470482224 -0.193192388083 0.803 1.08685998088e-38
-0.0148609529295 -0.193192388083 0.803 1.05913038621e-38
-0.0133748576365 -0.193192388083 0.803 1.08667963376e-38
-0.0119183732087 -0.193673564641 0.805 1.05913066647e-38
-0.0104544860646 -0.194154741199 0.807 1.07745993065e-38
-0.00896098805535 -0.194154741199 0.807 1.08664488156e-38
-0.00746749004612 -0.194154741199 0.807 1.04987537038e-38
-0.0059739920369 -0.194154741199 0.807 1.07739014598e-38
-0.00448049402767 -0.194154741199 0.807 1.04987537038e-38
-0.00298699601845 -0.194154741199 0.807 1.01313977062e-38
-0.00149349800922 -0.194154741199 0.807 1.03158085841e-38
0.0 -0.194154741199 0.807 9.85266823122e-39
0.00148979665109 -0.193673564641 0.805 9.4856807751e-39
0.00297959330217 -0.193673564641 0.805 9.48748004232e-39
0.00448049402767 -0.194154741199 0.807 9.76227186858e-39
0.0059739920369 -0.194154741199 0.807 9.85446469585e-39
0.00746749004612 -0.194154741199 0.807 9.66973852579e-39
0.00896098805535 -0.194154741199 0.807 1.00377797584e-38
0.0104285765576 -0.193673564641 0.805 1.00374112169e-38
0.0119183732087 -0.193673564641 0.805 9.85446749844e-39
0.0134081698598 -0.193673564641 0.805 9.39422783342e-39
0.0148979665109 -0.193673564641 0.805 9.30272864889e-39
0.0163877631619 -0.193673564641 0.805 9.39491446967e-39
0.017877559813 -0.193673564641 0.805 9.4867737879e-39
0.0193192388083 -0.193192388083 0.803 9.39528301116e-39
0.0207794245943 -0.192951799804 0.802 9.57787640496e-39
0.0222081488361 -0.192470623246 0.8 9.4856807751e-39
0.0236294703616 -0.191989446688 0.798 9.39383546985e-39
0.0250433891708 -0.19150827013 0.796 9.20979873863e-39
0.0264499052637 -0.191027093571 0.794 9.11796884767e-39
0.0279193444451 -0.191027093571 0.794 9.02577321781e-39
0.0293147564636 -0.190545917013 0.792 8.84317982401e-39
0.0307804942868 -0.190545917013 0.792 8.65879557077e-39
-0.0381758078492 -0.18239552639 0.764 1.66581274726e-38
-0.0367618890399 -0.18239552639 0.764 1.81343547671e-38
-0.0353479702307 -0.18239552639 0.764 1.39013291816e-38
-0.0339340514215 -0.18239552639 0.764 1.24363108735e-38
-0.0324350013751 -0.181918051191 0.762 1.78725936152e-38
-0.031024783924 -0.181918051191 0.762 1.17873092989e-38
-0.0296922949938 -0.18239552639 0.764 1.10497610755e-38
-0.0294628107892 -0.19003512959 0.796 1.08657425612e-38
-0.0279896702497 -0.19003512959 0.796 1.21568345065e-38
-0.0265165297102 -0.19003512959 0.796 1.23397796262e-38
-0.0250433891708 -0.19003512959 0.796 1.18777252797e-38
-0.0236294703616 -0.19051260479 0.798 1.14192680663e-38
-0.0222081488361 -0.19099007999 0.8 1.13277997103e-38
-0.0207794245943 -0.19146755519 0.802 1.14192680663e-38
-0.0192951799804 -0.19146755519 0.802 1.15114650974e-38
-0.0178331435154 -0.19170629279 0.803 1.14192680663e-38
-0.0163470482224 -0.19170629279 0.803 1.10512058142e-38
-0.0148979665109 -0.19218376799 0.805 1.07753475999e-38
-0.0134081698598 -0.19218376799 0.805 1.15128677972e-38
-0.0119479840738 -0.19266124319 0.807 1.06820799767e-38
-0.0104544860646 -0.19266124319 0.807 1.06813470976e-38
-0.00898319620418 -0.19313871839 0.809 1.07739014598e-38
-0.00748599683682 -0.19313871839 0.809 1.07749944726e-38
-0.00598879746946 -0.19313871839 0.809 1.03147225778e-38
-0.00449159810209 -0.19313871839 0.809 1.02225241453e-38
-0.00298699601845 -0.19266124319 0.807 9.67043917502e-39
-0.00149349800922 -0.19266124319 0.807 9.67043917502e-39
0.0 -0.19266124319 0.807 9.94486386108e-39
0.00149349800922 -0.19266124319 0.807 9.57787640496e-39
0.00298699601845 -0.19266124319 0.807 1.00388489491e-38
0.00448049402767 -0.19266124319 0.807 9.66973852579e-39
0.0059739920369 -0.19266124319 0.807 9.21014906325e-39
0.00746749004612 -0.19266124319 0.807 9.02650189301e-39
0.00896098805535 -0.19266124319 0.807 1.01310445789e-38
0.0104544860646 -0.19266124319 0.807 9.20944561142e-39
0.0119479840738 -0.19266124319 0.807 9.2090952868e-39
0.0134081698598 -0.19218376799 0.805 8.93430346055e-39
0.0148979665109 -0.19218376799 0.805 9.11869752287e-39
0.0163877631619 -0.19218376799 0.805 9.57787640496e-39
0.017877559813 -0.19218376799 0.805 9.02650189301e-39
0.0193192388083 -0.19170629279 0.803 9.30272864889e-39
0.0208053341012 -0.19170629279 0.803 9.7626193906e-39
0.0222636692081 -0.19146755519 0.802 9.20911630628e-39
0.0236886920918 -0.19099007999 0.8 9.20945121661e-39
0.0251063122592 -0.19051260479 0.798 9.21016447753e-39
0.0265165297102 -0.19003512959 0.796 8.93430626314e-39
0.0279896702497 -0.19003512959 0.796 8.84210783068e-39
0.0293887836264 -0.18955765439 0.794 9.11832477748e-39
0.0308582228077 -0.18955765439 0.794 8.93395313593e-39
-0.0394860886305 -0.180507833739 0.762 1.78592126162e-38
-0.0380758711794 -0.180507833739 0.762 1.85960335656e-38
-0.0366175360725 -0.180270946819 0.761 1.79481656414e-38
-0.0352091693005 -0.180270946819 0.761 1.4545249648e-38
-0.0338008025285 -0.180270946819 0.761 1.32653302554e-38
-0.0323924357565 -0.180270946819 0.761 1.36326736413e-38
-0.0309840689844 -0.180270946819 0.761 1.68566214e-38
-0.0295757022124 -0.180270946819 0.761 1.13241857616e-38
-0.0294628107892 -0.188561989051 0.796 1.00370608922e-38
-0.0279896702497 -0.188561989051 0.796 1.12344928508e-38
-0.0265165297102 -0.188561989051 0.796 1.16026069509e-38
-0.0250433891708 -0.188561989051 0.796 1.16011453966e-38
-0.0236294703616 -0.189035762892 0.798 1.15114622949e-38
-0.0222081488361 -0.189509536734 0.8 1.11437573739e-38
-0.0207794245943 -0.189983310576 0.802 1.08668145545e-38
-0.0193192388083 -0.190220197497 0.803 1.10508428779e-38
-0.0178331435154 -0.190220197497 0.803 1.11416035782e-38
-0.0163877631619 -0.190693971339 0.805 1.05913038621e-38
-0.0148979665109 -0.190693971339 0.805 1.02225269479e-38
-0.0134081698598 -0.190693971339 0.805 1.03154414439e-38
-0.0119775949389 -0.191641519023 0.809 1.02225269479e-38
-0.0104803955715 -0.191641519023 0.809 1.02228772725e-38
-0.00898319620418 -0.191641519023 0.809 1.06827540012e-38
-0.00748599683682 -0.191641519023 0.809 1.0499106831e-38
-0.00598879746946 -0.191641519023 0.809 1.01324823112e-38
-0.00449159810209 -0.191641519023 0.809 9.85481502046e-39
-0.00299439873473 -0.191641519023 0.809 9.76193135305e-39
-0.00149719936736 -0.191641519023 0.809 9.76263760748e-39
0.0 -0.191641519023 0.809 9.67008604781e-39
0.00149719936736 -0.191641519023 0.809 9.7626221932e-39
0.00299439873473 -0.191641519023 0.809 9.67147893848e-39
0.00449159810209 -0.191641519023 0.809 1.00388517517e-38
0.00598879746946 -0.191641519023 0.809 9.48603109971e-39
0.00748599683682 -0.191641519023 0.809 9.39528301116e-39
0.00898319620418 -0.191641519023 0.809 9.2094638283e-39
0.0104544860646 -0.191167745181 0.807 9.76296971522e-39
0.0119479840738 -0.191167745181 0.807 9.39457815803e-39
0.013441482083 -0.191167745181 0.807 9.11905065008e-39
0.0148979665109 -0.190693971339 0.805 9.11904784749e-39
0.0163877631619 -0.190693971339 0.805 9.11869752287e-39
0.017877559813 -0.190693971339 0.805 9.11869752287e-39
0.0193673564641 -0.190693971339 0.805 9.02542009059e-39
0.0208053341012 -0.190220197497 0.803 9.57857705419e-39
0.0222636692081 -0.189983310576 0.802 8.7495618762e-39
0.0236886920918 -0.189509536734 0.8 9.209100892e-39
0.0251692353475 -0.189509536734 0.8 8.65736484504e-39
0.0265831541568 -0.189035762892 0.798 8.5662454124e-39
0.0279896702497 -0.188561989051 0.796 8.74919193341e-39
0.0294628107892 -0.188561989051 0.796 9.39381725297e-39
0.0309359513286 -0.188561989051 0.796 9.85481782306e-39
0.0324090918681 -0.188561989051 0.796 7.4577468609e-39
-0.0394860886305 -0.179097616288 0.762 1.72127305762e-38
-0.0380758711794 -0.179097616288 0.762 1.69357891581e-38
-0.0366175360725 -0.178862580046 0.761 1.90540801985e-38
-0.0352091693005 -0.178862580046 0.761 1.50990820375e-38
-0.0338008025285 -0.178862580046 0.761 1.25234688354e-38
-0.0323924357565 -0.178862580046 0.761 1.34497425346e-38
-0.0309840689844 -0.178862580046 0.761 1.43684366104e-38
-0.0295757022124 -0.178862580046 0.761 1.63931251174e-38
-0.0294628107892 -0.187088848511 0.796 1.06813316833e-38
-0.0279896702497 -0.187088848511 0.796 1.06820925884e-38
-0.0265165297102 -0.187088848511 0.796 1.07735483326e-38
-0.0251063122592 -0.187558920995 0.798 1.08657425612e-38
-0.0236886920918 -0.188028993479 0.8 1.0866098491e-38
-0.0222636692081 -0.188499065962 0.802 1.05909563401e-38
-0.0208053341012 -0.188734102204 0.803 9.67151817484e-39
-0.0193192388083 -0.188734102204 0.803 1.01328494514e-38
-0.0178331435154 -0.188734102204 0.803 9.85553668917e-39
-0.0163877631619 -0.189204174688 0.805 1.00392020763e-38
-0.0149349800922 -0.189674247172 0.807 1.02239492658e-38
-0.013441482083 -0.189674247172 0.807 1.04079887996e-38
-0.0119775949389 -0.190144319655 0.809 1.03143470298e-38
-0.0105063050785 -0.190614392139 0.811 1.02239492658e-38
-0.00900540435302 -0.190614392139 0.811 1.05909339194e-38
-0.00750450362752 -0.190614392139 0.811 1.00399335541e-38
-0.00600360290201 -0.190614392139 0.811 9.94775053592e-39
-0.00450270217651 -0.190614392139 0.811 9.85552407749e-39
-0.00300180145101 -0.190614392139 0.811 9.67257755648e-39
-0.0015009007255 -0.190614392139 0.811 9.67186849945e-39
0.0 -0.190614392139 0.811 9.3030845787e-39
0.0015009007255 -0.190614392139 0.811 1.00392020763e-38
0.00300180145101 -0.190614392139 0.811 9.76297532041e-39
0.00450270217651 -0.190614392139 0.811 9.48642626588e-39
0.00600360290201 -0.190614392139 0.811 9.11869752287e-39
0.00748599683682 -0.190144319655 0.809 9.11869752287e-39
0.00898319620418 -0.190144319655 0.809 9.3027188398e-39
0.0104803955715 -0.190144319655 0.809 9.48603109971e-39
0.0119775949389 -0.190144319655 0.809 8.84210783068e-39
0.013441482083 -0.189674247172 0.807 8.56659853961e-39
0.0149349800922 -0.189674247172 0.807 9.485309431e-39
0.0164284781015 -0.189674247172 0.807 9.30203080226e-39
0.017877559813 -0.189204174688 0.805 9.11834439566e-39
0.0193673564641 -0.189204174688 0.805 9.11869752287e-39
0.0208053341012 -0.188734102204 0.803 9.11869752287e-39
0.0222914293942 -0.188734102204 0.803 8.93467480464e-39
0.023747913822 -0.188499065962 0.802 9.30203080226e-39
0.0251692353475 -0.188028993479 0.8 8.65736484504e-39
0.0265831541568 -0.187558920995 0.798 9.30273425409e-39
0.0280599960544 -0.187558920995 0.798 9.57822953217e-39
0.0295368379519 -0.187558920995 0.798 9.57787640496e-39
0.0309359513286 -0.187088848511 0.796 8.37933321674e-39
0.0324090918681 -0.187088848511 0.796 1.08656879106e-38
-0.0381758078492 -0.178153769963 0.764 1.65673667723e-38
-0.0366656537283 -0.177687398837 0.762 1.67489063897e-38
-0.0352554362772 -0.177687398837 0.762 1.72152921498e-38
-0.0338008025285 -0.177454213274 0.761 1.27971830631e-38
-0.0323073045192 -0.176987842149 0.759 1.20646374753e-38
-0.0309026391054 -0.176987842149 0.759 1.36326680361e-38
-0.0294979736915 -0.176987842149 0.759 1.48297650843e-38
-0.0280933082776 -0.176987842149 0.759 1.58446246686e-38
-0.0280599960544 -0.186082079097 0.798 1.0403981086e-38
-0.0265831541568 -0.186082079097 0.798 1.05884354042e-38
-0.0251692353475 -0.186548450223 0.8 1.05909563401e-38
-0.023747913822 -0.187014821348 0.802 1.08664488156e-38
-0.0222914293942 -0.187248006911 0.803 1.04987565064e-38
-0.0208053341012 -0.187248006911 0.803 9.76442286172e-39
-0.0193673564641 -0.187714378037 0.805 9.3041803941e-39
-0.017877559813 -0.187714378037 0.805 9.76191593877e-39
-0.0164284781015 -0.188180749162 0.807 9.76262499579e-39
-0.0149349800922 -0.188180749162 0.807 9.94556451031e-39
-0.013441482083 -0.188180749162 0.807 9.4856751699e-39
-0.0119775949389 -0.188647120288 0.809 9.578932984e-39
-0.0105063050785 -0.189113491413 0.811 9.67042516203e-39
-0.00900540435302 -0.189113491413 0.811 9.67042516203e-39
-0.00750450362752 -0.189113491413 0.811 9.39527740597e-39
-0.00600360290201 -0.189113491413 0.811 9.02650189301e-39
-0.00450270217651 -0.189113491413 0.811 9.3027188398e-39
-0.00300920416729 -0.189579862539 0.813 9.11905065008e-39
-0.00150460208364 -0.189579862539 0.813 9.02650189301e-39
0.0 -0.189579862539 0.813 9.30272864889e-39
0.00150460208364 -0.189579862539 0.813 9.76226906598e-39
0.00300920416729 -0.189579862539 0.813 9.39312641283e-39
0.00451380625093 -0.189579862539 0.813 9.39312641283e-39
0.00601840833457 -0.189579862539 0.813 9.57857705419e-39
0.00750450362752 -0.189113491413 0.811 9.39387190361e-39
0.00900540435302 -0.189113491413 0.811 9.02722075912e-39
0.0105063050785 -0.189113491413 0.811 8.93502232666e-39
0.012007205804 -0.189113491413 0.811 8.84282949939e-39
0.0134747943063 -0.188647120288 0.809 9.30451810703e-39
0.0149349800922 -0.188180749162 0.807 9.11869752287e-39
0.0164284781015 -0.188180749162 0.807 9.02650189301e-39
0.0179219761107 -0.188180749162 0.807 9.3030817761e-39
0.0193673564641 -0.187714378037 0.805 9.30236290999e-39
0.0208053341012 -0.187248006911 0.803 9.30236290999e-39
0.0222914293942 -0.187248006911 0.803 9.3030817761e-39
0.023747913822 -0.187014821348 0.802 9.11869752287e-39
0.0251692353475 -0.186548450223 0.8 9.30272864889e-39
0.0266497786033 -0.186548450223 0.8 9.57787640496e-39
0.0280599960544 -0.186082079097 0.798 8.93250699592e-39
0.0294628107892 -0.185615707972 0.796 7.45413431346e-39
0.0309359513286 -0.185615707972 0.796 1.40881713124e-38
0.0324090918681 -0.185615707972 0.796 1.75938178974e-38
-0.0323073045192 -0.175583176735 0.759 1.27089376936e-38
-0.0309026391054 -0.175583176735 0.759 1.14203638817e-38
-0.0294979736915 -0.175583176735 0.759 1.27103992479e-38
-0.0280933082776 -0.175583176735 0.759 1.50159556113e-38
-0.028130321859 -0.185067906967 0.8 1.82413957529e-38
-0.0266497786033 -0.185067906967 0.8 1.09575304132e-38
-0.0251692353475 -0.185067906967 0.8 1.11347722482e-38
-0.023747913822 -0.185530576735 0.802 1.03140163233e-38
-0.0222914293942 -0.185761911618 0.803 9.94558132589e-39
-0.0208571531152 -0.186224581386 0.805 1.05930891164e-38
-0.0193673564641 -0.186224581386 0.805 9.85518356196e-39
-0.017877559813 -0.186224581386 0.805 9.76263480488e-39
-0.0164284781015 -0.186687251153 0.807 9.76297532041e-39
-0.0149719936736 -0.18714992092 0.809 9.67042516203e-39
-0.0134747943063 -0.18714992092 0.809 9.76297532041e-39
-0.012007205804 -0.187612590688 0.811 1.013067884e-38
-0.0105322145855 -0.188075260455 0.813 1.0036683943e-38
-0.00902761250186 -0.188075260455 0.813 9.67077828925e-39
-0.00752301041821 -0.188075260455 0.813 9.57857985679e-39
-0.00601840833457 -0.188075260455 0.813 9.30238112687e-39
-0.00451380625093 -0.188075260455 0.813 9.11869752287e-39
-0.00300920416729 -0.188075260455 0.813 9.11869752287e-39
-0.00150460208364 -0.188075260455 0.813 8.74919193341e-39
0.0 -0.188075260455 0.813 9.67005942314e-39
0.00150460208364 -0.188075260455 0.813 9.30165945816e-39
0.00300920416729 -0.188075260455 0.813 9.30272864889e-39
0.00451380625093 -0.188075260455 0.813 9.11905345268e-39
0.00601840833457 -0.188075260455 0.813 9.57822953217e-39
0.00752301041821 -0.188075260455 0.813 9.57787640496e-39
0.00900540435302 -0.187612590688 0.811 9.11869752287e-39
