# .PCD v0.7 - Point Cloud Data file format
VERSION 0.7
FIELDS x y z rgb
SIZE 4 4 4 4
TYPE F F F F
COUNT 1 1 1 1
WIDTH 841
HEIGHT 1
VIEWPOINT 0 0 0 1 0 0 0
POINTS 841
DATA ascii
0.0371764411516 -0.0371764411516 0.837 1.99591536533e-38
0.0387254595329 -0.0371764411516 0.837 2.09714965055e-38
0.0402744779142 -0.0371764411516 0.837 2.09725727027e-38
0.0419234329653 -0.0372652737469 0.839 2.1614703711e-38
0.0434761527047 -0.0372652737469 0.839 2.23511813423e-38
0.0450288724442 -0.0372652737469 0.839 2.18001683653e-38
0.0466926329278 -0.0373541063422 0.841 2.27246834349e-38
0.0483637961277 -0.0374429389376 0.843 2.21764786601e-38
0.0499239185834 -0.0374429389376 0.843 2.06073831125e-38
0.0514840410392 -0.0374429389376 0.843 2.17097677988e-38
0.0531700096716 -0.0375317715329 0.845 2.18001683653e-38
0.0547338334855 -0.0375317715329 0.845 2.32749313029e-38
0.0562976572994 -0.0375317715329 0.845 2.2631351352e-38
0.0579984313644 -0.0376206041283 0.847 2.34668391276e-38
0.059847259755 -0.037798269319 0.851 2.34748181211e-38
0.0619274230293 -0.0381091834027 0.858 2.34810286759e-38
0.0639594686478 -0.0383756811887 0.864 1.77616037704e-38
0.0657860888896 -0.0385089300817 0.867 2.34835061716e-38
0.067390627643 -0.0385089300817 0.867 2.32944611996e-38
0.0689951663964 -0.0385089300817 0.867 2.3483099795e-38
0.00321648022309 -0.0369895225655 0.869 2.13550739341e-38
0.00478585607417 -0.0366915632353 0.862 1.93271568355e-38
0.00635153056711 -0.0365213007609 0.858 1.89561616657e-38
0.0079023996275 -0.0363510382865 0.854 1.784804707e-38
0.00948287955299 -0.0363510382865 0.854 1.87663838147e-38
0.011024495218 -0.0362233414307 0.851 1.86770440311e-38
0.0125402013761 -0.0360530789563 0.847 1.85844910702e-38
0.0140411021016 -0.0358828164819 0.843 1.90418748889e-38
0.0155642109759 -0.0357976852446 0.841 1.87635083503e-38
0.017079917134 -0.0357125540074 0.839 1.89478869983e-38
0.0185882205758 -0.0356274227702 0.837 1.88538991077e-38
0.0201372389571 -0.0356274227702 0.837 2.06009259292e-38
0.0216862573384 -0.0356274227702 0.837 1.98676768895e-38
0.0232352757197 -0.0356274227702 0.837 1.97744064637e-38
0.024784294101 -0.0356274227702 0.837 2.0509090433e-38
0.0263333124823 -0.0356274227702 0.837 2.04172549368e-38
0.0278823308637 -0.0356274227702 0.837 2.0050630417e-38
0.029431349245 -0.0356274227702 0.837 1.96814947704e-38
0.0309803676263 -0.0356274227702 0.837 2.15235856796e-38
0.0325293860076 -0.0356274227702 0.837 2.03268543703e-38
0.0340784043889 -0.0356274227702 0.837 1.9956283794e-38
0.0357125540074 -0.0357125540074 0.839 2.03239845111e-38
0.0372652737469 -0.0357125540074 0.839 2.02328664797e-38
0.0388179934863 -0.0357125540074 0.839 2.00484780226e-38
0.0403707132258 -0.0357125540074 0.839 2.07860318511e-38
0.042023369635 -0.0357976852446 0.841 2.17998096329e-38
0.0435797907326 -0.0357976852446 0.841 2.09682679138e-38
0.0451362118302 -0.0357976852446 0.841 2.22600675148e-38
0.046803673672 -0.0358828164819 0.843 2.16179323026e-38
0.0483637961277 -0.0358828164819 0.843 2.18952324531e-38
0.0500423620439 -0.0359679477191 0.845 2.14349787751e-38
0.0516061858578 -0.0359679477191 0.845 2.19859917521e-38
0.0531700096716 -0.0359679477191 0.845 2.34621980271e-38
0.0548633810204 -0.0360530789563 0.847 2.34650454656e-38
0.0564309061924 -0.0360530789563 0.847 2.34628930711e-38
0.0582723318667 -0.0362233414307 0.851 2.34646867332e-38
0.0601988887783 -0.0364361695237 0.856 2.34603819443e-38
0.0619274230293 -0.0365213007609 0.858 2.12548951069e-38
0.0639594686478 -0.0367766944725 0.864 2.34694175168e-38
0.0657860888896 -0.0369043913283 0.867 2.34896186355e-38
0.067390627643 -0.0369043913283 0.867 1.95111599355e-38
0.0689951663964 -0.0369043913283 0.867 2.34870500554e-38
0.0705997051498 -0.0369043913283 0.867 2.35098085437e-38
0.00321648022309 -0.035381282454 0.869 1.91416697604e-38
0.00479696014859 -0.0351777077563 0.864 2.05263460223e-38
0.00638114143223 -0.0350962778772 0.862 1.886329061e-38
0.00792090641819 -0.03485198824 0.856 1.93242085035e-38
0.00948287955299 -0.034770558361 0.854 1.94142503376e-38
0.0110633594785 -0.034770558361 0.854 1.82153554235e-38
0.0125994231063 -0.0346484135424 0.851 1.84894269823e-38
0.0141410387714 -0.0345669836633 0.849 1.87645747384e-38
0.0156382381387 -0.0344041239052 0.845 1.92251871488e-38
0.0171613470131 -0.0343226940261 0.843 1.86723805098e-38
0.0186770531711 -0.0342412641471 0.841 1.93152289829e-38
0.0201853566129 -0.034159834268 0.839 1.94974650456e-38
0.0217380763524 -0.034159834268 0.839 1.98658832275e-38
0.0232907960918 -0.034159834268 0.839 1.98666006923e-38
0.0248435158313 -0.034159834268 0.839 2.0141389716e-38
0.0263962355707 -0.034159834268 0.839 2.1063690734e-38
0.0279489553102 -0.034159834268 0.839 2.01456945048e-38
0.0295016750496 -0.034159834268 0.839 2.08810959389e-38
0.0310543947891 -0.034159834268 0.839 2.02343014093e-38
0.0326848430495 -0.0342412641471 0.841 2.06963487494e-38
0.0342412641471 -0.0342412641471 0.841 2.06037957884e-38
0.0357976852446 -0.0342412641471 0.841 2.05094491654e-38
0.0373541063422 -0.0342412641471 0.841 2.05094491654e-38
0.0389105274398 -0.0342412641471 0.841 2.04183311341e-38
0.0404669485374 -0.0342412641471 0.841 2.04183311341e-38
0.042023369635 -0.0342412641471 0.841 2.17083328692e-38
0.0436834287605 -0.0343226940261 0.843 2.09729314351e-38
0.0452435512162 -0.0343226940261 0.843 2.14331851131e-38
0.046803673672 -0.0343226940261 0.843 2.1250590318e-38
0.04847853823 -0.0344041239052 0.845 2.06974249466e-38
0.0500423620439 -0.0344041239052 0.845 2.16193672323e-38
0.0517283306764 -0.0344855537843 0.847 2.30908875652e-38
0.0532958558484 -0.0344855537843 0.847 2.30923224949e-38
0.0548633810204 -0.0344855537843 0.847 2.3278504614e-38
0.0566974039784 -0.0346484135424 0.851 2.34657629304e-38
0.0586147074946 -0.03485198824 0.856 2.34621840141e-38
0.0601988887783 -0.03485198824 0.856 2.34657629304e-38
0.0620717759968 -0.0350148479982 0.86 2.34661258667e-38
0.0641815501362 -0.0352998525749 0.867 2.34769536999e-38
0.0657860888896 -0.0352998525749 0.867 2.19064316305e-38
0.067390627643 -0.0352998525749 0.867 2.34816200238e-38
0.0689951663964 -0.0352998525749 0.867 2.34860425218e-38
0.0705997051498 -0.0352998525749 0.867 2.35098029385e-38
0.00321648022309 -0.0337730423424 0.869 2.11706742666e-38
0.00481361626021 -0.0336953138215 0.867 1.99739093261e-38
0.00639594686478 -0.0335787210401 0.864 1.85874043697e-38
0.00795791999959 -0.0334232639983 0.86 1.8956514793e-38
0.00950508770183 -0.0332678069564 0.856 1.86770664519e-38
0.0110892689855 -0.0332678069564 0.856 1.81245961246e-38
0.012643839404 -0.0331900784355 0.854 1.84876333203e-38
0.0141743509946 -0.0330734856541 0.851 1.87645747384e-38
0.0157122653015 -0.0329957571332 0.849 1.84869158555e-38
0.0172834918317 -0.0329957571332 0.849 1.89468108011e-38
0.0187658857665 -0.0328403000913 0.845 1.88538991077e-38
0.0203297095803 -0.0328403000913 0.845 1.95896592742e-38
0.0218417143803 -0.0327625715704 0.843 1.98666006923e-38
0.023401836836 -0.0327625715704 0.843 2.02335839445e-38
0.0249027375615 -0.0326848430495 0.841 2.04183311341e-38
0.0264591586591 -0.0326848430495 0.841 2.02346601417e-38
0.0280155797567 -0.0326848430495 0.841 1.99584361885e-38
0.0295720008543 -0.0326848430495 0.841 2.03261369055e-38
0.0311284219519 -0.0326848430495 0.841 2.04183311341e-38
0.0326848430495 -0.0326848430495 0.841 2.04190485989e-38
0.0342412641471 -0.0326848430495 0.841 1.97729715341e-38
0.0357976852446 -0.0326848430495 0.841 2.18019690338e-38
0.0373541063422 -0.0326848430495 0.841 2.08796610093e-38
0.0390030613933 -0.0327625715704 0.843 2.00495542198e-38
0.040563183849 -0.0327625715704 0.843 2.09686266462e-38
0.0421233063048 -0.0327625715704 0.843 2.19856330197e-38
0.0436834287605 -0.0327625715704 0.843 2.0882889601e-38
0.0453508906023 -0.0328403000913 0.845 2.11573198922e-38
0.0469147144162 -0.0328403000913 0.845 2.14339025779e-38
0.04847853823 -0.0328403000913 0.845 2.09740076323e-38
0.0501608055044 -0.0329180286122 0.847 2.12477204587e-38
0.051850475495 -0.0329957571332 0.849 2.31791357373e-38
0.0534217020251 -0.0329957571332 0.849 2.34607406767e-38
0.0551224760902 -0.0330734856541 0.851 2.34650454656e-38
0.057030526211 -0.0332678069564 0.856 2.34628930711e-38
0.0587516577458 -0.0333455354773 0.858 2.34646867332e-38
0.0606208436061 -0.0335009925192 0.862 2.34639692684e-38
0.0622161289642 -0.0335009925192 0.862 2.34700929427e-38
0.0641815501362 -0.0336953138215 0.867 2.17147900525e-38
0.0657860888896 -0.0336953138215 0.867 2.34705483647e-38
0.067390627643 -0.0336953138215 0.867 2.34838144572e-38
0.0689951663964 -0.0336953138215 0.867 2.34867529801e-38
0.0705997051498 -0.0336953138215 0.867 2.35098155502e-38
0.00161194146968 -0.0322388293937 0.871 2.03592944298e-38
0.00322388293937 -0.0322388293937 0.871 2.13557311431e-38
0.00483582440905 -0.0322388293937 0.871 1.89598008379e-38
0.00639594686478 -0.0319797343239 0.864 2.07100520471e-38
0.00795791999959 -0.0318316799983 0.86 1.91387550595e-38
0.00950508770183 -0.0316836256728 0.856 1.92280570081e-38
0.0110892689855 -0.0316836256728 0.856 1.89507568576e-38
0.012643839404 -0.03160959851 0.854 1.86738154395e-38
0.0142243193295 -0.03160959851 0.854 1.91340691175e-38
0.0157492788829 -0.0314985577658 0.851 1.91333516527e-38
0.0173242067712 -0.0314985577658 0.851 2.10694360577e-38
0.0188547183618 -0.031424530603 0.849 1.86727392422e-38
0.0203778272361 -0.0313505034402 0.847 2.06059481829e-38
0.0218935333942 -0.0312764762774 0.845 1.96843646296e-38
0.0234573572081 -0.0312764762774 0.845 2.04190485989e-38
0.025021181022 -0.0312764762774 0.845 2.0510884095e-38
0.0265220817475 -0.0312024491147 0.843 2.08800197417e-38
0.0280822042032 -0.0312024491147 0.843 2.07892604428e-38
0.0296423266589 -0.0312024491147 0.843 2.07892604428e-38
0.0312024491147 -0.0312024491147 0.843 2.05123190247e-38
0.0327625715704 -0.0312024491147 0.843 2.10651256636e-38
0.0343226940261 -0.0312024491147 0.843 2.27228281158e-38
0.0358828164819 -0.0312024491147 0.843 1.97740533365e-38
0.0374429389376 -0.0312024491147 0.843 2.02335839445e-38
0.0390030613933 -0.0312024491147 0.843 2.07871080483e-38
0.040563183849 -0.0312024491147 0.843 2.1618291035e-38
0.0422232429745 -0.0312764762774 0.845 2.18030382246e-38
0.0437870667884 -0.0312764762774 0.845 2.13427845466e-38
0.0454582299883 -0.0313505034402 0.847 2.13427845466e-38
0.0470257551603 -0.0313505034402 0.847 2.14331851131e-38
0.0487080224347 -0.031424530603 0.849 2.3462188218e-38
0.0502792489648 -0.031424530603 0.849 2.26317269e-38
0.0519726203136 -0.0314985577658 0.851 2.3457512085e-38
0.0535475482019 -0.0314985577658 0.851 2.3463610536e-38
0.0554463449273 -0.0316836256728 0.856 2.34639692684e-38
0.057297023997 -0.0318316799983 0.86 2.34607406767e-38
0.059367933876 -0.0320907750681 0.867 2.34632700204e-38
0.0607614952154 -0.0319797343239 0.864 2.34632518036e-38
0.0623604819316 -0.0319797343239 0.864 2.3469061587e-38
0.0641815501362 -0.0320907750681 0.867 2.34715671086e-38
0.0659378445733 -0.0321648022309 0.869 2.34762306299e-38
0.0675460846849 -0.0321648022309 0.869 2.34773558726e-38
0.0691543247964 -0.0321648022309 0.869 2.34892627056e-38
0.0707625649079 -0.0321648022309 0.869 2.35098113463e-38
0.00322388293937 -0.030626887924 0.871 2.14472681627e-38
0.00483582440905 -0.030626887924 0.871 2.07082569837e-38
0.00643296044618 -0.0305565621193 0.869 1.79420545788e-38
0.00799493358098 -0.0303807476077 0.864 1.9505382382e-38
0.0095495039995 -0.0302400959984 0.86 2.00581637976e-38
0.0110892689855 -0.0300994443891 0.856 1.8858562629e-38
0.0126734502691 -0.0300994443891 0.856 1.89503981252e-38
0.0142243193295 -0.0300291185845 0.854 1.89478869983e-38
0.015804799255 -0.0300291185845 0.854 1.89468108011e-38
0.0173242067712 -0.0299236298775 0.851 1.98658832275e-38
0.0188547183618 -0.0298533040729 0.849 1.95007258672e-38
0.020425944892 -0.0298533040729 0.849 1.98673181571e-38
0.0219453524082 -0.0297829782682 0.847 1.99609473153e-38
0.0235128775802 -0.0297829782682 0.847 2.05119602923e-38
0.025021181022 -0.0297126524636 0.845 2.06037957884e-38
0.0265850048358 -0.0297126524636 0.845 2.06037957884e-38
0.0281488286497 -0.0297126524636 0.845 2.08814546713e-38
0.0297126524636 -0.0297126524636 0.845 2.06059481829e-38
0.0312764762774 -0.0297126524636 0.845 2.08814546713e-38
0.0328403000913 -0.0297126524636 0.845 2.08789435445e-38
0.0344041239052 -0.0297126524636 0.845 2.1520357088e-38
0.0359679477191 -0.0297126524636 0.845 2.087679115e-38
0.0375317715329 -0.0297126524636 0.845 2.07863905835e-38
0.0390955953468 -0.0297126524636 0.845 2.23536924691e-38
0.0406594191607 -0.0297126524636 0.845 2.12509490504e-38
0.0423231796443 -0.0297829782682 0.847 2.31870292516e-38
0.0438907048163 -0.0297829782682 0.847 2.13420670817e-38
0.0455655693744 -0.0298533040729 0.849 2.16186497674e-38
0.0471367959045 -0.0298533040729 0.849 2.2725697975e-38
0.0487080224347 -0.0298533040729 0.849 2.14349787751e-38
0.050575357616 -0.0300291185845 0.854 2.34607406767e-38
0.0521558375415 -0.0300291185845 0.854 2.34625343387e-38
0.0539880098204 -0.0301697701938 0.858 2.3463610536e-38
0.0557054399971 -0.0302400959984 0.86 2.30941525906e-38
0.057297023997 -0.0302400959984 0.86 2.34647007462e-38
0.059367933876 -0.0304862363147 0.867 2.34621756063e-38
0.0607614952154 -0.0303807476077 0.864 2.34639692684e-38
0.0623604819316 -0.0303807476077 0.864 2.34722719618e-38
0.0641815501362 -0.0304862363147 0.867 2.34694105103e-38
0.0659378445733 -0.0305565621193 0.869 2.34726881474e-38
0.0675460846849 -0.0305565621193 0.869 2.34801486604e-38
0.0693134831964 -0.030626887924 0.871 2.34910661768e-38
0.0709254246661 -0.030626887924 0.871 2.35098141489e-38
0.00323128565565 -0.0290815709008 0.873 2.13521984696e-38
0.00484692848347 -0.0290815709008 0.873 2.07085624668e-38
0.00646257131129 -0.0290815709008 0.873 1.87718110437e-38
0.00805970734842 -0.0290149464543 0.871 1.96908582467e-38
0.00964944066926 -0.0289483220078 0.869 1.9873792156e-38
0.0110892689855 -0.0285152631055 0.856 1.8582382116e-38
0.0126734502691 -0.0285152631055 0.856 1.93177401098e-38
0.0142243193295 -0.028448638659 0.854 2.06084593097e-38
0.015804799255 -0.028448638659 0.854 1.95014111021e-38
0.0173852791805 -0.028448638659 0.854 2.01453371737e-38
0.0188991346595 -0.0283487019892 0.851 1.95003349049e-38
0.0204740625478 -0.0283487019892 0.851 1.93159464478e-38
0.0219971714221 -0.0282820775427 0.849 2.08818134037e-38
0.0235683979523 -0.0282820775427 0.849 2.06045132532e-38
0.0251396244824 -0.0282820775427 0.849 2.13420670817e-38
0.0266479279242 -0.0282154530962 0.847 2.06952725522e-38
0.0281488286497 -0.0281488286497 0.845 2.13399146873e-38
0.0297126524636 -0.0281488286497 0.845 2.11555262302e-38
0.0312764762774 -0.0281488286497 0.845 2.09718552379e-38
0.0328403000913 -0.0281488286497 0.845 2.11555262302e-38
0.0344855537843 -0.0282154530962 0.847 2.15225094824e-38
0.0360530789563 -0.0282154530962 0.847 2.22600633109e-38
0.0376206041283 -0.0282154530962 0.847 2.20778272482e-38
0.0391881293003 -0.0282154530962 0.847 2.25416682503e-38
0.0407556544723 -0.0282154530962 0.847 2.14356962399e-38
0.0424231163141 -0.0282820775427 0.849 2.24491152893e-38
0.0440979808721 -0.0283487019892 0.851 2.18030382246e-38
0.0456729087604 -0.0283487019892 0.851 2.29086515025e-38
0.047414397765 -0.028448638659 0.854 2.25387983911e-38
0.0489948776905 -0.028448638659 0.854 2.34664930069e-38
0.0506938010764 -0.0285152631055 0.856 2.33710701867e-38
0.0524001271787 -0.028581887552 0.858 2.34603819443e-38
0.0541138559972 -0.0286485119985 0.86 2.34621756063e-38
0.055834987532 -0.028715136445 0.862 2.34679251339e-38
0.05743027289 -0.028715136445 0.862 2.34625343387e-38
0.059367933876 -0.0288816975613 0.867 2.34646867332e-38
0.0609724726294 -0.0288816975613 0.867 2.34700761271e-38
0.0625770113828 -0.0288816975613 0.867 2.34715292736e-38
0.0643296044618 -0.0289483220078 0.869 2.34686818351e-38
0.0659378445733 -0.0289483220078 0.869 2.34769901337e-38
0.0677015417267 -0.0290149464543 0.871 2.34733635733e-38
0.0693134831964 -0.0290149464543 0.871 2.34925095142e-38
0.0016415523348 -0.0279063896916 0.887 2.33095517828e-38
0.0032831046696 -0.0279063896916 0.887 2.10752598541e-38
0.00487468866951 -0.0276232357939 0.878 2.08936739939e-38
0.00649958489268 -0.0276232357939 0.878 2.02461998346e-38
0.00812448111586 -0.0276232357939 0.878 1.88600283872e-38
0.00971606511577 -0.0275288511614 0.875 1.95975513872e-38
0.0113354093017 -0.0275288511614 0.875 1.90447447482e-38
0.0128955317575 -0.0274030049846 0.871 1.90433098185e-38
0.0143242559993 -0.0270569279986 0.86 1.92248284164e-38
0.015804799255 -0.0268681587335 0.854 1.93159464478e-38
0.0173852791805 -0.0268681587335 0.854 1.96840058972e-38
0.018965759106 -0.0268681587335 0.854 1.95014111021e-38
0.0204740625478 -0.0267737741009 0.851 1.96850820944e-38
0.0220489904361 -0.0267737741009 0.851 1.99609473153e-38
0.0236239183244 -0.0267737741009 0.851 2.07910541048e-38
0.0251988462126 -0.0267737741009 0.851 2.10626145368e-38
0.0267108510126 -0.0267108510126 0.849 2.10622558044e-38
0.0282154530962 -0.0266479279242 0.847 2.12470029939e-38
0.0297829782682 -0.0266479279242 0.847 2.19845568224e-38
0.0313505034402 -0.0266479279242 0.847 2.08793022769e-38
0.0329180286122 -0.0266479279242 0.847 2.20774685158e-38
0.0344855537843 -0.0266479279242 0.847 2.13424258142e-38
0.0361382101935 -0.0267108510126 0.849 2.18927213263e-38
0.0377094367236 -0.0267108510126 0.849 2.21689452796e-38
0.0393731972073 -0.0267737741009 0.851 2.2171097674e-38
0.0409481250955 -0.0267737741009 0.851 2.18041144218e-38
0.0426729579885 -0.0268681587335 0.854 2.15275317361e-38
0.0443570759419 -0.0269310818219 0.856 2.24458866977e-38
0.0459412572255 -0.0269310818219 0.856 2.34567946202e-38
0.0475254385092 -0.0269310818219 0.856 2.34600232119e-38
0.0492243618951 -0.0269940049102 0.858 2.34614581415e-38
0.0509306879973 -0.0270569279986 0.86 2.34693544584e-38
0.0525222719973 -0.0270569279986 0.86 2.33699813778e-38
0.0542397021739 -0.027119851087 0.862 2.32795808112e-38
0.055834987532 -0.027119851087 0.862 2.34628930711e-38
0.0578966440156 -0.0273400818963 0.869 2.34646867332e-38
0.0595048841271 -0.0273400818963 0.869 2.34654518421e-38
0.0611131242387 -0.0273400818963 0.869 2.34704264517e-38
0.0627213643502 -0.0273400818963 0.869 2.34661538927e-38
0.0643296044618 -0.0273400818963 0.869 2.34733747837e-38
0.066089600257 -0.0274030049846 0.871 2.34748293315e-38
0.0677015417267 -0.0274030049846 0.871 2.34708454399e-38
0.0693134831964 -0.0274030049846 0.871 2.34964849979e-38
0.0016415523348 -0.0262648373568 0.887 2.34968353225e-38
0.0032831046696 -0.0262648373568 0.887 1.95987018532e-38
0.00489689681835 -0.0261167830312 0.882 2.05227867242e-38
0.00651439032524 -0.026057561301 0.88 2.0244013809e-38
0.00814298790655 -0.026057561301 0.88 1.97826881377e-38
0.00974937733903 -0.0259983395707 0.878 1.85855672674e-38
0.0113742735622 -0.0259983395707 0.878 1.93206099691e-38
0.0129547534877 -0.0259095069754 0.875 1.91355040471e-38
0.0144408487806 -0.0256726200545 0.867 1.94110105356e-38
0.015989867162 -0.0255837874591 0.864 1.95024872993e-38
0.0175481389386 -0.0255245657289 0.862 2.12534601773e-38
0.0190545917013 -0.0254061222684 0.858 1.94084994087e-38
0.0205943566873 -0.0253469005382 0.856 2.05133952219e-38
0.0221785379709 -0.0253469005382 0.856 1.99623878501e-38
0.0237627192546 -0.0253469005382 0.856 2.01456945048e-38
0.0253469005382 -0.0253469005382 0.856 2.08793022769e-38
0.0269310818219 -0.0253469005382 0.856 2.12477204587e-38
0.0285152631055 -0.0253469005382 0.856 2.09729314351e-38
0.0300994443891 -0.0253469005382 0.856 2.06041545208e-38
0.0316836256728 -0.0253469005382 0.856 2.29075753053e-38
0.0332678069564 -0.0253469005382 0.856 2.1618291035e-38
0.0349334181191 -0.0254061222684 0.858 2.15275317361e-38
0.0365213007609 -0.0254061222684 0.858 2.18934387911e-38
0.0381091834027 -0.0254061222684 0.858 2.21675103499e-38
0.0396970660444 -0.0254061222684 0.858 2.18909276643e-38
0.0412849486862 -0.0254061222684 0.858 2.3468658013e-38
0.0429727679978 -0.0254653439987 0.86 2.23572797932e-38
0.0444607139698 -0.0254061222684 0.858 2.32745585575e-38
0.0460485966116 -0.0254061222684 0.858 2.34593057471e-38
0.0477475199975 -0.0254653439987 0.86 2.3465404198e-38
0.0494538460997 -0.0255245657289 0.862 2.32777871492e-38
0.0510491314578 -0.0255245657289 0.862 2.22643680998e-38
0.0526444168159 -0.0255245657289 0.862 2.34632518036e-38
0.0545543176158 -0.0256726200545 0.867 2.31870278503e-38
0.056288403904 -0.0257318417847 0.869 2.33696226454e-38
0.0578966440156 -0.0257318417847 0.869 2.3469357261e-38
0.0596418343783 -0.0257910635149 0.871 2.3465404198e-38
0.061253775848 -0.0257910635149 0.871 2.34639692684e-38
0.0628657173177 -0.0257910635149 0.871 2.34769536999e-38
0.0646257131129 -0.0258502852452 0.873 2.34776445401e-38
0.0674554014104 -0.026324059087 0.889 2.34668965809e-38
0.0691006551034 -0.026324059087 0.889 2.34755566054e-38
0.0707459087963 -0.026324059087 0.889 2.34986359911e-38
0.0016415523348 -0.024623285022 0.887 2.34989989274e-38
0.0032831046696 -0.024623285022 0.887 1.96934058073e-38
0.00489689681835 -0.0244844840917 0.882 2.07986127087e-38
0.0065291957578 -0.0244844840917 0.882 1.89572462708e-38
0.00816149469725 -0.0244844840917 0.882 1.96933791826e-38
0.00977158548786 -0.0244289637197 0.88 1.83089845817e-38
0.0114001830692 -0.0244289637197 0.88 1.93202512366e-38
0.0129991697854 -0.0243734433476 0.878 1.94110105356e-38
0.0145407854504 -0.0242346424173 0.873 1.95964751899e-38
0.0160824011154 -0.0241236016732 0.869 1.95961164575e-38
0.0176499262875 -0.0240680813011 0.867 1.95936053307e-38
0.0191434242967 -0.0239292803708 0.862 2.03282892999e-38
0.0206905919989 -0.0238737599988 0.86 2.0695990017e-38
0.0222821759988 -0.0238737599988 0.86 2.02368125362e-38
0.0238737599988 -0.0238737599988 0.86 2.11598310191e-38
0.0254653439987 -0.0238737599988 0.86 2.1346730603e-38
0.0270569279986 -0.0238737599988 0.86 2.06055894504e-38
0.0286485119985 -0.0238737599988 0.86 2.09740076323e-38
0.0302400959984 -0.0238737599988 0.86 2.15271730037e-38
0.0318316799983 -0.0238737599988 0.86 2.17101265312e-38
0.0334232639983 -0.0238737599988 0.86 2.0510884095e-38
0.0350148479982 -0.0238737599988 0.86 2.18026794922e-38
0.0366064319981 -0.0238737599988 0.86 2.17086944042e-38
0.038198015998 -0.0238737599988 0.86 2.20738811918e-38
0.0397895999979 -0.0238737599988 0.86 2.30894526356e-38
0.0413811839978 -0.0238737599988 0.86 2.27192407917e-38
0.0430727046675 -0.0239292803708 0.862 2.34607406767e-38
0.0446679900256 -0.0239292803708 0.862 2.34614581415e-38
0.0463706147697 -0.0239848007429 0.864 2.2902911784e-38
0.0481361626021 -0.0240680813011 0.867 2.32774284168e-38
0.0498554434579 -0.0241236016732 0.869 2.32774284168e-38
0.0514636835694 -0.0241236016732 0.869 2.33699813778e-38
0.053071923681 -0.0241236016732 0.869 2.33706988426e-38
0.0548060099692 -0.0241791220453 0.871 2.34657629304e-38
0.0564179514389 -0.0241791220453 0.871 2.34628930711e-38
0.0581631418016 -0.0242346424173 0.873 2.34693978986e-38
0.0597787846294 -0.0242346424173 0.873 2.34701097582e-38
0.0615350790666 -0.0242901627894 0.875 2.34722201137e-38
0.0633709527037 -0.0243734433476 0.878 2.34769298779e-38
0.0655140390664 -0.0245677646499 0.885 2.25431438176e-38
0.0674554014104 -0.0246788053941 0.889 2.29137844588e-38
0.0691006551034 -0.0246788053941 0.889 2.34813187447e-38
0.0707459087963 -0.0246788053941 0.889 2.35029589968e-38
0.0723911624893 -0.0246788053941 0.889 2.3509837971e-38
0.00164525369294 -0.0230335517011 0.889 2.35033149266e-38
0.00329050738588 -0.0230335517011 0.889 2.0894115403e-38
0.00492465700439 -0.0229817326872 0.887 2.02461844203e-38
0.00655140390664 -0.0229299136732 0.885 2.02443669362e-38
0.00818925488329 -0.0229299136732 0.885 2.01525188284e-38
0.0097937936367 -0.0228521851523 0.882 1.8679555158e-38
0.0114001830692 -0.0228003661383 0.88 1.94124454652e-38
0.0130287806505 -0.0228003661383 0.88 1.9318816307e-38
0.0145740976737 -0.0226708186035 0.875 1.95946815279e-38
0.0161564282782 -0.0226189995895 0.873 1.95936053307e-38
0.017690641227 -0.0225153615616 0.869 1.99627409773e-38
0.0192544650409 -0.0224635425477 0.867 2.04219184581e-38
0.0208590037943 -0.0224635425477 0.867 2.05123190247e-38
0.0224635425477 -0.0224635425477 0.867 2.13424258142e-38
0.0239848007429 -0.0223858140267 0.864 2.11569611598e-38
0.0255837874591 -0.0223858140267 0.864 1.99616647801e-38
0.027119851087 -0.0223339950128 0.862 2.18044731542e-38
0.028715136445 -0.0223339950128 0.862 2.11598310191e-38
0.0303104218031 -0.0223339950128 0.862 2.12498728532e-38
0.0319057071611 -0.0223339950128 0.862 2.2723904313e-38
0.0334232639983 -0.0222821759988 0.86 2.13435020114e-38
0.0350148479982 -0.0222821759988 0.86 2.24466041625e-38
0.0366064319981 -0.0222821759988 0.86 2.2537004729e-38
0.038198015998 -0.0222821759988 0.86 2.23540512015e-38
0.0398821339514 -0.0223339950128 0.862 2.29086515025e-38
0.0414774193095 -0.0223339950128 0.862 2.29990520691e-38
0.0431726413373 -0.0223858140267 0.864 2.34571533526e-38
0.0449270850953 -0.0224635425477 0.867 2.27199582565e-38
0.0465316238487 -0.0224635425477 0.867 2.2997258407e-38
0.0482472033463 -0.0225153615616 0.869 2.34650454656e-38
0.0498554434579 -0.0225153615616 0.869 2.29118800942e-38
0.0514636835694 -0.0225153615616 0.869 2.33696226454e-38
0.0531940684996 -0.0225671805756 0.871 2.34621756063e-38
0.054931856146 -0.0226189995895 0.873 2.34700677193e-38
0.0565474989738 -0.0226189995895 0.873 2.34693502545e-38
0.0582963906946 -0.0226708186035 0.875 2.34725816487e-38
0.0601211602573 -0.0227485471244 0.878 2.31023670022e-38
0.0620273596991 -0.0228521851523 0.882 2.34758074378e-38
0.0638761880897 -0.0229299136732 0.885 2.34697089869e-38
0.0656620933919 -0.0229817326872 0.887 2.29159298468e-38
0.0674554014104 -0.0230335517011 0.889 2.34787767892e-38
0.0691006551034 -0.0230335517011 0.889 2.34816886874e-38
0.0707459087963 -0.0230335517011 0.889 2.35047582641e-38
0.0723911624893 -0.0230335517011 0.889 2.35098449775e-38
0.00329050738588 -0.0213882980082 0.889 2.11706798718e-38
0.00492465700439 -0.0213401803524 0.887 2.15376841435e-38
0.00656620933919 -0.0213401803524 0.887 2.02447200634e-38
0.00820776167399 -0.0213401803524 0.887 1.93220448987e-38
0.00982710585995 -0.0212920626966 0.885 1.90451034806e-38
0.0114260925761 -0.0212198862128 0.882 2.02418347899e-38
0.0130287806505 -0.021171768557 0.88 1.91347865823e-38
0.0146240660085 -0.0211236509012 0.878 1.91348202135e-38
0.0161934418596 -0.0210514744175 0.875 2.00538590087e-38
0.0177313561665 -0.0209552391059 0.871 1.9777276323e-38
0.0193432976362 -0.0209552391059 0.871 2.01464119697e-38
0.0209071214501 -0.0209071214501 0.869 2.01439008428e-38
0.0225153615616 -0.0209071214501 0.869 2.125238398e-38
0.0240680813011 -0.0208590037943 0.867 2.05098078978e-38
0.0255837874591 -0.0207868273105 0.864 2.09740076323e-38
0.0271827741753 -0.0207868273105 0.864 2.125238398e-38
0.0287817608915 -0.0207868273105 0.864 2.13427845466e-38
0.0304862363147 -0.0208590037943 0.867 2.23569350738e-38
0.0320907750681 -0.0208590037943 0.867 2.18026794922e-38
0.0335009925192 -0.0207387096547 0.862 2.18005270977e-38
0.0350962778772 -0.0207387096547 0.862 2.29072165729e-38
0.0366915632353 -0.0207387096547 0.862 2.309160503e-38
0.0382868485934 -0.0207387096547 0.862 2.29086627129e-38
0.0398821339514 -0.0207387096547 0.862 2.3089811368e-38
0.0415736546211 -0.0207868273105 0.864 2.34610994091e-38
0.0433225463419 -0.0208590037943 0.867 2.22589871137e-38
0.0449270850953 -0.0208590037943 0.867 2.34632518036e-38
0.0466389632348 -0.0209071214501 0.869 2.34716077463e-38
0.0482472033463 -0.0209071214501 0.869 2.31924088364e-38
0.0498554434579 -0.0209071214501 0.869 2.346719786e-38
0.0515821270299 -0.0209552391059 0.871 2.34650454656e-38
0.0531940684996 -0.0209552391059 0.871 2.30015631959e-38
0.054931856146 -0.0210033567617 0.873 2.34679153248e-38
0.0566770465087 -0.0210514744175 0.875 2.33735687018e-38
0.0582963906946 -0.0210514744175 0.875 2.346719786e-38
0.0602581105085 -0.021171768557 0.88 2.34744019354e-38
0.0623789887223 -0.0213401803524 0.887 2.34697089869e-38
0.0640205410571 -0.0213401803524 0.887 2.33750036315e-38
0.0658101477175 -0.0213882980082 0.889 2.30992042716e-38
0.0674554014104 -0.0213882980082 0.889 2.34805494318e-38
0.0691006551034 -0.0213882980082 0.889 2.34834711391e-38
0.0707459087963 -0.0213882980082 0.889 2.3509462423e-38
0.00329050738588 -0.0197430443153 0.889 2.1265393635e-38
0.00493576107881 -0.0197430443153 0.889 1.88618402661e-38
0.00658101477175 -0.0197430443153 0.889 1.96929742074e-38
0.00822626846469 -0.0197430443153 0.889 2.09830011658e-38
0.00984931400879 -0.0196986280176 0.887 2.04283854505e-38
0.0114260925761 -0.0195875872734 0.882 1.98726991432e-38
0.0130583915156 -0.0195875872734 0.882 1.91351453147e-38
0.0146573782318 -0.0195431709757 0.88 2.01482056317e-38
0.0162489622317 -0.0194987546781 0.878 2.04219184581e-38
0.0178127860456 -0.0194321302315 0.875 2.07899779076e-38
0.0193877139339 -0.0193877139339 0.873 2.06992186086e-38
0.0210033567617 -0.0193877139339 0.873 2.07899779076e-38
0.0225671805756 -0.0193432976362 0.871 2.079033664e-38
0.0241236016732 -0.0192988813385 0.869 2.09747250971e-38
0.0257318417847 -0.0192988813385 0.869 2.1158760427e-38
0.0273400818963 -0.0192988813385 0.869 2.16186497674e-38
0.0289483220078 -0.0192988813385 0.869 2.1709050334e-38
0.0304862363147 -0.0192544650409 0.867 2.23536924691e-38
0.0320907750681 -0.0192544650409 0.867 2.34596644795e-38
0.0335787210401 -0.0191878405943 0.864 2.28150223443e-38
0.0351777077563 -0.0191878405943 0.864 2.31830817938e-38
0.0367766944725 -0.0191878405943 0.864 2.28143048795e-38
0.0383756811887 -0.0191878405943 0.864 2.34607406767e-38
0.0401134688351 -0.0192544650409 0.867 2.34603819443e-38
0.0417180075885 -0.0192544650409 0.867 2.26288402252e-38
0.0434224830117 -0.0192988813385 0.869 2.34618336895e-38
0.0450307231232 -0.0192988813385 0.869 2.34801346475e-38
0.0466389632348 -0.0192988813385 0.869 2.34730566889e-38
0.0483582440905 -0.0193432976362 0.871 2.20839256991e-38
0.0499701855602 -0.0193432976362 0.871 2.34704264517e-38
0.0517005704903 -0.0193877139339 0.873 2.29075753053e-38
0.0533162133182 -0.0193877139339 0.873 2.34646993449e-38
0.0550577023227 -0.0194321302315 0.875 2.34675944275e-38
0.056871367811 -0.0194987546781 0.878 2.34700677193e-38
0.0586295129272 -0.0195431709757 0.88 2.34661216628e-38
0.0607374363875 -0.0196986280176 0.887 2.34639692684e-38
0.0625196403316 -0.0197430443153 0.889 2.34700677193e-38
0.0641648940246 -0.0197430443153 0.889 2.34722579488e-38
0.0659582020431 -0.0197874606129 0.891 2.34705147335e-38
0.0676071570942 -0.0197874606129 0.891 2.34776907829e-38
0.0692561121452 -0.0197874606129 0.891 2.34813005278e-38
0.0709050671963 -0.0197874606129 0.891 2.35097819191e-38
0.00500238552532 -0.0183420802595 0.901 2.0520973444e-38
0.00658101477175 -0.0180977906223 0.889 1.93245980645e-38
0.00822626846469 -0.0180977906223 0.889 1.95968493366e-38
0.00984931400879 -0.0180570756828 0.887 2.00571044159e-38
0.0114649568366 -0.0180163607432 0.885 1.98723404108e-38
0.0131028078133 -0.0180163607432 0.885 2.01485643641e-38
0.014690690455 -0.0179552883339 0.882 2.02389649306e-38
0.0162859758131 -0.0179145733944 0.88 2.09754425619e-38
0.0179145733944 -0.0179145733944 0.88 2.06059481829e-38
0.0194987546781 -0.0178738584549 0.878 2.03286480323e-38
0.0211236509012 -0.0178738584549 0.878 2.11569611598e-38
0.0226189995895 -0.0177720711061 0.873 2.18037556894e-38
0.0242346424173 -0.0177720711061 0.873 2.1618291035e-38
0.0257910635149 -0.0177313561665 0.871 2.1710843996e-38
0.0274030049846 -0.0177313561665 0.871 2.29097276998e-38
0.0290149464543 -0.0177313561665 0.871 2.25384396586e-38
0.030626887924 -0.0177313561665 0.871 2.21689452796e-38
0.0322388293937 -0.0177313561665 0.871 2.34628958737e-38
0.0337730423424 -0.017690641227 0.869 2.26291989576e-38
0.035381282454 -0.017690641227 0.869 2.3089811368e-38
0.0370746538027 -0.0177313561665 0.871 2.28143048795e-38
0.0386865952724 -0.0177313561665 0.871 2.28160985416e-38
0.0402985367421 -0.0177313561665 0.871 2.21736088009e-38
0.0419104782118 -0.0177313561665 0.871 2.26342212113e-38
0.0435224196815 -0.0177313561665 0.871 2.27246217778e-38
0.0451343611511 -0.0177313561665 0.871 2.22640093674e-38
0.0467463026208 -0.0177313561665 0.871 2.34618168739e-38
0.0484692848347 -0.0177720711061 0.873 2.32781458816e-38
0.0500849276625 -0.0177720711061 0.873 2.34646867332e-38
0.0518190139508 -0.0178127860456 0.875 2.34711439165e-38
0.0536215753646 -0.0178738584549 0.878 2.34661216628e-38
0.0553723177646 -0.0179145733944 0.88 2.33735687018e-38
0.0571304628807 -0.0179552883339 0.882 2.34722201137e-38
0.0590958840527 -0.0180570756828 0.887 2.34697089869e-38
0.0610113368898 -0.0181385055618 0.891 2.34693502545e-38
0.0626602919409 -0.0181385055618 0.891 2.34682768598e-38
0.064309246992 -0.0181385055618 0.891 2.29140773302e-38
0.0661802835314 -0.0181995779711 0.894 2.34791537385e-38
0.0676071570942 -0.0181385055618 0.891 2.34758662923e-38
0.0692561121452 -0.0181385055618 0.891 2.34852423804e-38
0.00500238552532 -0.0166746184177 0.901 2.05241571941e-38
0.00664763921826 -0.0166190980456 0.898 1.94185845538e-38
0.00827253544143 -0.0165450708829 0.894 1.96905051195e-38
0.00987152215763 -0.0164525369294 0.889 1.97823125897e-38
0.0115167758506 -0.0164525369294 0.889 1.98726991432e-38
0.0131324186784 -0.016415523348 0.887 2.00570876003e-38
0.0147406587899 -0.0163785097666 0.885 2.03311591592e-38
0.0163785097666 -0.0163785097666 0.885 2.16208021619e-38
0.0179552883339 -0.0163229893945 0.882 2.11601897515e-38
0.0195875872734 -0.0163229893945 0.882 2.18059080838e-38
0.021171768557 -0.0162859758131 0.88 2.12498728532e-38
0.0227485471244 -0.0162489622317 0.878 2.21728913361e-38
0.0243734433476 -0.0162489622317 0.878 2.20789034455e-38
0.0259095069754 -0.0161934418596 0.875 2.24483978245e-38
0.027465928073 -0.0161564282782 0.873 2.20803383751e-38
0.0290815709008 -0.0161564282782 0.873 2.30923224949e-38
0.0306972137286 -0.0161564282782 0.873 2.25387983911e-38
0.0323128565565 -0.0161564282782 0.873 2.2169304012e-38
0.0339284993843 -0.0161564282782 0.873 2.26306338872e-38
0.0355441422121 -0.0161564282782 0.873 2.21714564064e-38
0.0371597850399 -0.0161564282782 0.873 2.2910803897e-38
0.0387754278677 -0.0161564282782 0.873 2.24501914866e-38
0.0404836046491 -0.0161934418596 0.875 2.25413095179e-38
0.042102948835 -0.0161934418596 0.875 2.24491152893e-38
0.043722293021 -0.0161934418596 0.875 2.2723904313e-38
0.0453416372069 -0.0161934418596 0.875 2.3369263913e-38
0.047121990472 -0.0162489622317 0.878 2.32774284168e-38
0.0487468866951 -0.0162489622317 0.878 2.34682740572e-38
0.0503717829183 -0.0162489622317 0.878 2.34693502545e-38
0.0521151226019 -0.0162859758131 0.88 2.19009721716e-38
0.0538658650018 -0.0163229893945 0.882 2.0980837561e-38
0.0554981639413 -0.0163229893945 0.882 2.30051743421e-38
0.0574543317179 -0.016415523348 0.887 2.34661216628e-38
0.0590958840527 -0.016415523348 0.887 2.34686327897e-38
0.0612167622666 -0.0165450708829 0.894 2.31870278503e-38
0.0630119209642 -0.0165820844643 0.896 2.29137214004e-38
0.0646701294106 -0.0165820844643 0.896 2.34805312149e-38
0.066328337857 -0.0165820844643 0.896 2.31967598681e-38
0.0679865463034 -0.0165820844643 0.896 2.34831320249e-38
0.0696447547499 -0.0165820844643 0.896 2.34805101954e-38
0.00500238552532 -0.015007156576 0.901 2.08940103056e-38
0.00664763921826 -0.0149571882411 0.898 1.99703388176e-38
0.00829104223213 -0.0149238760178 0.896 1.92309562946e-38
0.00992704252972 -0.0148905637946 0.894 1.98730578756e-38
0.0115426853575 -0.0148405954597 0.891 1.97805049147e-38
0.0131324186784 -0.0147739710132 0.887 2.01492818289e-38
0.0147739710132 -0.0147739710132 0.887 1.99630997098e-38
0.0163785097666 -0.0147406587899 0.885 2.09750838295e-38
0.0180163607432 -0.0147406587899 0.885 2.07924890344e-38
0.0196542117199 -0.0147406587899 0.885 2.18984610448e-38
0.021171768557 -0.0146573782318 0.88 2.18080604783e-38
0.0228003661383 -0.0146573782318 0.88 2.13456544058e-38
0.0244289637197 -0.0146573782318 0.88 2.17129963904e-38
0.026057561301 -0.0146573782318 0.88 2.11598310191e-38
0.0276232357939 -0.0146240660085 0.878 2.15253793417e-38
0.0292481320171 -0.0146240660085 0.878 2.19838393576e-38
0.0307675395333 -0.0145740976737 0.875 2.30923224949e-38
0.0323868837192 -0.0145740976737 0.875 2.18026794922e-38
0.0340062279052 -0.0145740976737 0.875 2.2910803897e-38
0.0356255720912 -0.0145740976737 0.875 2.18062668162e-38
0.0372449162771 -0.0145740976737 0.875 2.23594321876e-38
0.0388642604631 -0.0145740976737 0.875 2.26345799437e-38
0.0404836046491 -0.0145740976737 0.875 2.32770696844e-38
0.0422473018025 -0.0146240660085 0.878 2.29093689674e-38
0.0438721980256 -0.0146240660085 0.878 2.3463610536e-38
0.0454970942488 -0.0146240660085 0.878 2.34682810637e-38
0.047229329858 -0.0146573782318 0.88 2.34697103882e-38
0.0488579274393 -0.0146573782318 0.88 2.08875531222e-38
0.0504865250206 -0.0146573782318 0.88 2.07006535383e-38
0.0524112312531 -0.0147406587899 0.885 2.05159063487e-38
0.0541712270483 -0.0147739710132 0.887 1.87728466032e-38
0.0558127793831 -0.0147739710132 0.887 2.34700957453e-38
0.05790774809 -0.0148905637946 0.894 2.34679153248e-38
0.0596955040713 -0.0149238760178 0.896 2.19874266817e-38
0.0614906627689 -0.0149571882411 0.898 2.34679825872e-38
0.0631525725735 -0.0149571882411 0.898 2.34797703099e-38
0.064814482378 -0.0149571882411 0.898 2.24570214153e-38
0.0664763921826 -0.0149571882411 0.898 2.34687462948e-38
0.0681383019871 -0.0149571882411 0.898 2.34773726882e-38
0.00501348959974 -0.0133693055993 0.903 2.09877123313e-38
0.00666984736709 -0.0133396947342 0.901 1.95089528904e-38
0.00830954902282 -0.0132952784365 0.898 1.84944702555e-38
0.00997145882739 -0.0132952784365 0.898 1.96893868833e-38
0.011581549618 -0.0132360567063 0.894 2.04258645146e-38
0.0131620295435 -0.0131620295435 0.889 1.97801461822e-38
0.0148072832364 -0.0131620295435 0.889 1.97805049147e-38
0.016415523348 -0.0131324186784 0.887 2.01485643641e-38
0.0180570756828 -0.0131324186784 0.887 1.9871622946e-38
0.0196542117199 -0.0131028078133 0.885 2.09750838295e-38
0.0212198862128 -0.0130583915156 0.882 2.07924890344e-38
0.0228521851523 -0.0130583915156 0.882 2.07899779076e-38
0.0244844840917 -0.0130583915156 0.882 2.18037556894e-38
0.026057561301 -0.0130287806505 0.88 2.10679955229e-38
0.0276861588823 -0.0130287806505 0.88 2.13427845466e-38
0.0293147564636 -0.0130287806505 0.88 2.20760335862e-38
0.0309433540449 -0.0130287806505 0.88 2.26324275492e-38
0.0325719516262 -0.0130287806505 0.88 2.30955510865e-38
0.0342005492075 -0.0130287806505 0.88 2.2544896842e-38
0.0358291467888 -0.0130287806505 0.88 2.17165837145e-38
0.0374577443701 -0.0130287806505 0.88 2.27292852991e-38
0.0390863419515 -0.0130287806505 0.88 2.19016896365e-38
0.0407149395328 -0.0130287806505 0.88 2.33764820013e-38
0.0423435371141 -0.0130287806505 0.88 2.19946013298e-38
0.0439721346954 -0.0130287806505 0.88 2.16258244156e-38
0.0456007322767 -0.0130287806505 0.88 2.06070243801e-38
0.047229329858 -0.0130287806505 0.88 1.95032047641e-38
0.0489689681835 -0.0130583915156 0.882 2.00599574596e-38
0.0507733802764 -0.0131028078133 0.885 1.90425923537e-38
0.0525296747135 -0.0131324186784 0.887 2.18044829633e-38
0.0542933718669 -0.0131620295435 0.889 2.34704264517e-38
0.0560644717366 -0.0131916404086 0.891 2.34657783447e-38
0.0580372956249 -0.0132656675714 0.896 2.22640093674e-38
0.0598287529643 -0.0132952784365 0.898 2.34736662537e-38
0.0614906627689 -0.0132952784365 0.898 2.34761801832e-38
0.0633635499874 -0.0133396947342 0.901 2.07996636826e-38
0.0651753647966 -0.0133693055993 0.903 2.22708729273e-38
0.0668465279965 -0.0133693055993 0.903 2.3481587794e-38
0.00501348959974 -0.0116981423994 0.903 2.01578942093e-38
0.00668465279965 -0.0116981423994 0.903 2.05260083094e-38
0.00833730920887 -0.0116722328924 0.901 1.88614479025e-38
0.00997145882739 -0.011633368632 0.898 1.95975513872e-38
0.011607459125 -0.011607459125 0.896 2.00578050652e-38
0.0132360567063 -0.011581549618 0.894 1.96886694185e-38
0.0148405954597 -0.0115426853575 0.891 1.92280570081e-38
0.0164895505108 -0.0115426853575 0.891 1.97801461822e-38
0.0181385055618 -0.0115426853575 0.891 1.98730578756e-38
0.0197430443153 -0.0115167758506 0.889 2.06988598762e-38
0.0212920626966 -0.0114649568366 0.885 2.04222771905e-38
0.0229299136732 -0.0114649568366 0.885 2.18023207598e-38
0.0245677646499 -0.0114649568366 0.885 2.11598310191e-38
0.0262056156265 -0.0114649568366 0.885 2.16208021619e-38
0.0278434666032 -0.0114649568366 0.885 2.22668792267e-38
0.0293813809101 -0.0114260925761 0.882 2.14360549723e-38
0.0310136798495 -0.0114260925761 0.882 2.34722453371e-38
0.032645978789 -0.0114260925761 0.882 2.15293253981e-38
0.0343948705098 -0.0114649568366 0.885 1.98676768895e-38
0.0360327214865 -0.0114649568366 0.885 2.13427845466e-38
0.0376705724632 -0.0114649568366 0.885 2.16197259647e-38
0.0393084234398 -0.0114649568366 0.885 2.06992186086e-38
0.0409462744165 -0.0114649568366 0.885 2.11670056672e-38
0.0424397724257 -0.0114260925761 0.882 2.09787272055e-38
0.0440720713651 -0.0114260925761 0.882 1.86781202284e-38
0.0458598273464 -0.0114649568366 0.885 2.00560114031e-38
0.0474976783231 -0.0114649568366 0.885 1.7936261611e-38
0.0491355292998 -0.0114649568366 0.885 2.15311260667e-38
0.0510028644811 -0.0115167758506 0.889 2.32828094029e-38
0.052648118174 -0.0115167758506 0.889 2.34693502545e-38
0.0545987339134 -0.011581549618 0.894 2.13463718706e-38
0.0562532410017 -0.011581549618 0.894 2.30894526356e-38
0.0580372956249 -0.011607459125 0.896 2.3475465521e-38
0.0600286263038 -0.0116722328924 0.901 2.32861136647e-38
0.0616960881456 -0.0116722328924 0.901 1.83986676834e-38
0.0635042015967 -0.0116981423994 0.903 2.22723330803e-38
0.0655362472152 -0.0117629161668 0.908 2.34819773549e-38
0.00508011404625 -0.0101602280925 0.915 2.01586579169e-38
0.00672166638105 -0.0100824995716 0.908 2.02497969678e-38
0.00838357618561 -0.0100602914227 0.906 1.94153503569e-38
0.0100269791995 -0.0100269791995 0.903 1.96901113546e-38
0.0116981423994 -0.0100269791995 0.903 1.92291332053e-38
0.0133396947342 -0.0100047710506 0.901 1.94128041976e-38
0.0149238760178 -0.00994925067855 0.896 1.95064333558e-38
0.0165450708829 -0.00992704252972 0.894 1.95979101196e-38
0.0181995779711 -0.00992704252972 0.894 1.97812223795e-38
0.0197874606129 -0.00989373030646 0.891 1.99630997098e-38
0.0213882980082 -0.00987152215763 0.889 2.10676367905e-38
0.0229817326872 -0.00984931400879 0.887 2.12498728532e-38
0.024623285022 -0.00984931400879 0.887 2.12520252476e-38
0.0262648373568 -0.00984931400879 0.887 2.14371311696e-38
0.0279063896916 -0.00984931400879 0.887 2.15282492009e-38
0.0295479420264 -0.00984931400879 0.887 2.07867493159e-38
0.0311894943612 -0.00984931400879 0.887 2.34704544777e-38
0.032831046696 -0.00984931400879 0.887 2.03347478846e-38
0.0344725990308 -0.00984931400879 0.887 2.19899378085e-38
0.0361141513656 -0.00984931400879 0.887 2.24534200782e-38
0.0377557037004 -0.00984931400879 0.887 1.89464520687e-38
0.0393084234398 -0.00982710585995 0.885 1.9224469684e-38
0.0409462744165 -0.00982710585995 0.885 1.82121268318e-38
0.0425841253931 -0.00982710585995 0.885 2.03300913698e-38
0.0442219763698 -0.00982710585995 0.885 1.85826974081e-38
0.0458598273464 -0.00982710585995 0.885 2.05177000108e-38
0.0476050177091 -0.00984931400879 0.887 1.99663283014e-38
0.0492465700439 -0.00984931400879 0.887 2.34704376621e-38
0.0510028644811 -0.00987152215763 0.889 2.20763923186e-38
0.0527665616345 -0.00989373030646 0.891 2.17072566719e-38
0.0545987339134 -0.00992704252972 0.894 2.3097703481e-38
0.0563790871785 -0.00994925067855 0.896 2.34787123295e-38
0.0581668431598 -0.00997145882739 0.898 2.08861209952e-38
0.0600286263038 -0.0100047710506 0.901 2.17166061353e-38
0.0618330383968 -0.0100269791995 0.903 2.20860780936e-38
0.0638558306199 -0.0100824995716 0.908 2.34759125352e-38
0.0655362472152 -0.0100824995716 0.908 2.31945892568e-38
0.00508011404625 -0.00846685674374 0.915 2.02512613247e-38
0.006773485395 -0.00846685674374 0.915 1.92331044851e-38
0.00840208297631 -0.00840208297631 0.908 1.93213540585e-38
0.0100602914227 -0.00838357618561 0.906 1.93216875676e-38
0.0117370066599 -0.00838357618561 0.906 1.9505715891e-38
0.013413721897 -0.00838357618561 0.906 2.00595987272e-38
0.015007156576 -0.00833730920887 0.901 1.92302094025e-38
0.0166190980456 -0.00830954902282 0.898 2.00567288679e-38
0.0182402929107 -0.00829104223213 0.896 2.00581637976e-38
0.0198540850594 -0.00827253544143 0.894 2.02386061982e-38
0.0213882980082 -0.00822626846469 0.889 2.12527427124e-38
0.0230335517011 -0.00822626846469 0.889 2.18037556894e-38
0.0246788053941 -0.00822626846469 0.889 2.11598310191e-38
0.026324059087 -0.00822626846469 0.889 2.11594722867e-38
0.0279693127799 -0.00822626846469 0.889 2.17129963904e-38
0.0296145664729 -0.00822626846469 0.889 2.19885028789e-38
0.0312598201658 -0.00822626846469 0.889 2.34661314719e-38
0.0329050738588 -0.00822626846469 0.889 2.18998959744e-38
0.0345503275517 -0.00822626846469 0.889 2.18059080838e-38
0.0361141513656 -0.00820776167399 0.887 2.20828495019e-38
0.0377557037004 -0.00820776167399 0.887 1.95914529362e-38
0.0394860886305 -0.00822626846469 0.889 1.7751155689e-38
0.04103880837 -0.00820776167399 0.887 2.02343014093e-38
0.0426803607048 -0.00820776167399 0.887 2.09714965055e-38
0.0443219130396 -0.00820776167399 0.887 2.11644945403e-38
0.0459634653743 -0.00820776167399 0.887 2.15350665179e-38
0.0477123570952 -0.00822626846469 0.889 1.90443860158e-38
0.0493576107881 -0.00822626846469 0.889 2.3463620345e-38
0.0512897197369 -0.00827253544143 0.894 2.34639692684e-38
0.0529442268251 -0.00827253544143 0.894 2.34693726752e-38
0.0545987339134 -0.00827253544143 0.894 2.34708748672e-38
0.0563790871785 -0.00829104223213 0.896 2.16247482184e-38
0.0581668431598 -0.00830954902282 0.898 2.19942636169e-38
0.0598287529643 -0.00830954902282 0.898 2.30080203792e-38
0.0642074596432 -0.00844834995305 0.913 2.22737245696e-38
0.0658971296338 -0.00844834995305 0.913 2.26364142434e-38
0.00849461692979 -0.00679569354383 0.918 2.06145941944e-38
0.0100824995716 -0.00672166638105 0.908 1.91365802443e-38
0.0117629161668 -0.00672166638105 0.908 1.9598268852e-38
0.0134433327621 -0.00672166638105 0.908 2.01492818289e-38
0.0150904371341 -0.00670686094849 0.906 2.02414760575e-38
0.0167116319991 -0.00668465279965 0.903 2.02414760575e-38
0.0183420802595 -0.00666984736709 0.901 1.96890281509e-38
0.0199429176548 -0.00664763921826 0.898 2.12531014448e-38
0.0215567098035 -0.0066328337857 0.896 2.10694304525e-38
0.023163099236 -0.00661802835314 0.894 2.13452956734e-38
0.0247343257662 -0.00659582020431 0.891 2.09747250971e-38
0.0263832808172 -0.00659582020431 0.891 2.20817733047e-38
0.0280322358683 -0.00659582020431 0.891 2.2910803897e-38
0.0296811909194 -0.00659582020431 0.891 2.1895949918e-38
0.0313301459705 -0.00659582020431 0.891 2.34654112045e-38
0.0329791010215 -0.00659582020431 0.891 2.19910420317e-38
0.0346280560726 -0.00659582020431 0.891 2.06048719856e-38
0.0362770111237 -0.00659582020431 0.891 2.05180797627e-38
0.0378408349376 -0.00658101477175 0.889 2.1624389486e-38
0.0394860886305 -0.00658101477175 0.889 2.00570876003e-38
0.0411313423234 -0.00658101477175 0.889 2.05137539543e-38
0.042872831328 -0.00659582020431 0.891 1.98658832275e-38
0.0445217863791 -0.00659582020431 0.891 1.96829297e-38
0.0461707414302 -0.00659582020431 0.891 2.16197259647e-38
0.0479807055603 -0.00661802835314 0.894 2.28243493869e-38
0.0497462533928 -0.0066328337857 0.896 2.34750969795e-38
0.0514044618392 -0.0066328337857 0.896 2.31935354803e-38
0.0530626702856 -0.0066328337857 0.896 2.09775949564e-38
0.054720878732 -0.0066328337857 0.896 1.99649059835e-38
0.0565049333552 -0.00664763921826 0.898 1.96836723882e-38
0.058490711997 -0.00668465279965 0.903 2.29155192663e-38
0.0604949974294 -0.00672166638105 0.908 2.34733439551e-38
0.0645590886664 -0.00679569354383 0.918 2.34719328475e-38
0.0662580120524 -0.00679569354383 0.918 2.34690167454e-38
0.0686972070662 -0.00686972070662 0.928 2.34744215536e-38
0.00849461692979 -0.00509677015787 0.918 1.85855672674e-38
0.0101935403157 -0.00509677015787 0.918 1.95053571586e-38
0.0117888256738 -0.0050523538602 0.91 1.95053571586e-38
