# .PCD v0.7 - Point Cloud Data file format
VERSION 0.7
FIELDS x y z rgb
SIZE 4 4 4 4
TYPE F F F F
COUNT 1 1 1 1
WIDTH 854
HEIGHT 1
VIEWPOINT 0 0 0 1 0 0 0
POINTS 854
DATA ascii
-0.00330901417657 -0.228321978183 0.894 1.270814596e-38
-0.00165450708829 -0.228321978183 0.894 1.30765879639e-38
0.0 -0.228321978183 0.894 1.30748013084e-38
0.00165450708829 -0.228321978183 0.894 1.30744327669e-38
0.00330901417657 -0.228321978183 0.894 1.29826295006e-38
0.00496352126486 -0.228321978183 0.894 1.28911233096e-38
0.00661802835314 -0.228321978183 0.894 1.28914890485e-38
0.00824477525538 -0.227555797049 0.891 1.28000178899e-38
0.00989373030646 -0.227555797049 0.891 1.29840392069e-38
0.0115426853575 -0.227555797049 0.891 1.30751544356e-38
0.0131620295435 -0.227045009625 0.889 1.24294318994e-38
0.0148072832364 -0.227045009625 0.889 1.22454203915e-38
0.0164525369294 -0.227045009625 0.889 1.22443610099e-38
0.0180977906223 -0.227045009625 0.889 1.19677545021e-38
0.0197430443153 -0.227045009625 0.889 1.12312712656e-38
0.0213882980082 -0.227045009625 0.889 1.16925969369e-38
0.0229817326872 -0.226534222202 0.887 1.14163589707e-38
0.024623285022 -0.226534222202 0.887 1.17851428914e-38
0.0262056156265 -0.226023434779 0.885 1.16007502304e-38
0.0277490819706 -0.225257253644 0.882 1.16929472616e-38
0.0293813809101 -0.225257253644 0.882 1.12326879784e-38
0.0309433540449 -0.224746466221 0.88 1.15081986707e-38
0.0324979244634 -0.224235678798 0.878 1.1232353068e-38
0.0341228206866 -0.224235678798 0.878 9.57570719494e-39
0.0357477169098 -0.224235678798 0.878 7.45700557401e-39
-0.0307675395333 -0.221850153477 0.875 1.06759464933e-38
-0.0291481953473 -0.221850153477 0.875 1.11390756357e-38
-0.0275288511614 -0.221850153477 0.875 1.03136253611e-38
-0.0259983395707 -0.222610782574 0.878 9.66825595201e-39
-0.0243734433476 -0.222610782574 0.878 1.03136253611e-38
-0.0228003661383 -0.22311786864 0.88 9.20764634419e-39
-0.0212920626966 -0.224385583802 0.885 9.20944561142e-39
-0.0196986280176 -0.224892669867 0.887 9.02360540908e-39
-0.0180570756828 -0.224892669867 0.887 9.39235569867e-39
-0.0164525369294 -0.225399755932 0.889 9.30055103108e-39
-0.0148072832364 -0.225399755932 0.889 1.02210794066e-38
-0.0131620295435 -0.225399755932 0.889 9.20763373251e-39
-0.0115167758506 -0.225399755932 0.889 1.05877137355e-38
-0.00989373030646 -0.225906841998 0.891 1.08617782878e-38
-0.00824477525538 -0.225906841998 0.891 1.11390854448e-38
-0.00659582020431 -0.225906841998 0.891 1.08621286125e-38
-0.00494686515323 -0.225906841998 0.891 1.06806156198e-38
-0.00330901417657 -0.226667471095 0.894 1.12319873291e-38
-0.00165450708829 -0.226667471095 0.894 1.16007642434e-38
0.0 -0.226667471095 0.894 1.14167513342e-38
0.00165820844643 -0.22717455716 0.896 1.29840798445e-38
0.00331641689285 -0.22717455716 0.896 1.2246512003e-38
0.00496352126486 -0.226667471095 0.894 1.2708173986e-38
0.00661802835314 -0.226667471095 0.894 1.16011173706e-38
0.00827253544143 -0.226667471095 0.894 1.27992878134e-38
0.00992704252972 -0.226667471095 0.894 1.11394259604e-38
0.0115426853575 -0.225906841998 0.891 1.25220072811e-38
0.0131620295435 -0.225399755932 0.889 1.25241330509e-38
0.0148072832364 -0.225399755932 0.889 1.19716781378e-38
0.0164525369294 -0.225399755932 0.889 1.18773441265e-38
0.0180977906223 -0.225399755932 0.889 1.1785145694e-38
0.0197430443153 -0.225399755932 0.889 1.19706243614e-38
0.0213882980082 -0.225399755932 0.889 1.10489973679e-38
0.0229817326872 -0.224892669867 0.887 1.15081986707e-38
0.024623285022 -0.224892669867 0.887 1.14160030409e-38
0.0262056156265 -0.224385583802 0.885 1.1324182959e-38
0.0277490819706 -0.223624954705 0.882 1.07728266639e-38
0.0293147564636 -0.22311786864 0.88 1.04965718821e-38
0.0308730282403 -0.222610782574 0.878 1.1140123807e-38
0.0324979244634 -0.222610782574 0.878 1.13266884806e-38
0.0341228206866 -0.222610782574 0.878 8.83849388194e-39
0.0357477169098 -0.222610782574 0.878 8.19170215496e-39
-0.0382868485934 -0.216958808696 0.862 1.42744655354e-38
-0.0366064319981 -0.216455423989 0.86 1.28896729657e-38
-0.03485198824 -0.215448654575 0.856 1.18777224771e-38
-0.0332678069564 -0.215448654575 0.856 1.50126933885e-38
-0.0316836256728 -0.215448654575 0.856 1.62098100549e-38
-0.0302400959984 -0.216455423989 0.86 1.17826023373e-38
-0.0291481953473 -0.220230809291 0.875 1.05866179201e-38
-0.0275288511614 -0.220230809291 0.875 1.04058209909e-38
-0.0259983395707 -0.220985886351 0.878 1.04058209909e-38
-0.0244289637197 -0.221489271058 0.88 9.11545071433e-39
-0.0228003661383 -0.221489271058 0.88 9.66825595201e-39
-0.0212920626966 -0.222747732826 0.885 9.57677918826e-39
-0.0196986280176 -0.223251117533 0.887 9.57677918826e-39
-0.0180570756828 -0.223251117533 0.887 9.57713231547e-39
-0.0164525369294 -0.22375450224 0.889 1.00366867456e-38
-0.0148072832364 -0.22375450224 0.889 9.76117325058e-39
-0.0131620295435 -0.22375450224 0.889 1.00377615415e-38
-0.0115426853575 -0.224257886946 0.891 9.66897762072e-39
-0.00989373030646 -0.224257886946 0.891 9.85265001434e-39
-0.00824477525538 -0.224257886946 0.891 9.66825595201e-39
-0.00659582020431 -0.224257886946 0.891 9.57642886364e-39
-0.00496352126486 -0.225012964007 0.894 9.76082012337e-39
-0.00331641689285 -0.225516348714 0.896 1.04058237935e-38
-0.00165820844643 -0.225516348714 0.896 1.03132750364e-38
0.0 -0.225516348714 0.896 1.13259976405e-38
0.00165820844643 -0.225516348714 0.896 1.39088975946e-38
0.00331641689285 -0.225516348714 0.896 1.20660289647e-38
0.00497462533928 -0.225516348714 0.896 1.06809393197e-38
0.00661802835314 -0.225012964007 0.894 1.09539725164e-38
0.00827253544143 -0.225012964007 0.894 1.01278075795e-38
0.00992704252972 -0.225012964007 0.894 1.00363308157e-38
0.011581549618 -0.225012964007 0.894 9.66825875461e-39
0.0131916404086 -0.224257886946 0.891 9.76045158188e-39
0.0148405954597 -0.224257886946 0.891 9.30055103108e-39
0.0164525369294 -0.22375450224 0.889 8.83849388194e-39
0.0180977906223 -0.22375450224 0.889 8.83706876141e-39
0.0197430443153 -0.22375450224 0.889 8.837071564e-39
0.0213882980082 -0.22375450224 0.889 8.56299860386e-39
0.0229817326872 -0.223251117533 0.887 8.37823880263e-39
0.024623285022 -0.223251117533 0.887 9.48495630379e-39
0.0262056156265 -0.222747732826 0.885 9.85372200766e-39
0.0277490819706 -0.221992655765 0.882 1.0498369748e-38
0.0293147564636 -0.221489271058 0.88 1.07749524337e-38
0.0308730282403 -0.220985886351 0.878 1.16951108664e-38
0.0324979244634 -0.220985886351 0.878 1.1512181161e-38
0.0341228206866 -0.220985886351 0.878 9.76080470909e-39
0.0357477169098 -0.220985886351 0.878 8.19381251045e-39
0.0373726131329 -0.220985886351 0.878 9.48135917063e-39
-0.0382868485934 -0.215363523338 0.862 7.74115106752e-39
-0.0362233414307 -0.212615264919 0.851 1.390999341e-38
-0.0346484135424 -0.212615264919 0.851 1.04043594366e-38
-0.0330734856541 -0.212615264919 0.851 1.28003864314e-38
-0.0316836256728 -0.213864473291 0.856 1.47342848109e-38
-0.0302400959984 -0.214863839989 0.86 1.62111917351e-38
-0.0291481953473 -0.218611465105 0.875 1.20613570356e-38
-0.0275288511614 -0.218611465105 0.875 1.04933685138e-38
-0.0259983395707 -0.219360990128 0.878 1.06824064792e-38
-0.0244289637197 -0.219860673477 0.88 9.66860627663e-39
-0.0228003661383 -0.219860673477 0.88 9.76080751169e-39
-0.0212920626966 -0.221109881849 0.885 9.57748544269e-39
-0.0196986280176 -0.221609565198 0.887 9.02540327501e-39
-0.0180977906223 -0.222109248547 0.889 9.39310118945e-39
-0.0164525369294 -0.222109248547 0.889 1.04054440416e-38
-0.0148405954597 -0.222608931895 0.891 9.30054542588e-39
-0.0131916404086 -0.222608931895 0.891 9.1183051593e-39
-0.0115426853575 -0.222608931895 0.891 9.39310118945e-39
-0.00992704252972 -0.223358456919 0.894 9.39274806224e-39
-0.00827253544143 -0.223358456919 0.894 9.85192133913e-39
-0.00661802835314 -0.223358456919 0.894 9.30054542588e-39
-0.00497462533928 -0.223858140267 0.896 9.30090135569e-39
-0.00331641689285 -0.223858140267 0.896 9.30055103108e-39
-0.00165820844643 -0.223858140267 0.896 1.08667991402e-38
0.0 -0.223858140267 0.896 1.03143288129e-38
0.00165820844643 -0.223858140267 0.896 9.57570719494e-39
0.00331641689285 -0.223858140267 0.896 1.13259822262e-38
0.00497462533928 -0.223858140267 0.896 1.01277879613e-38
0.0066328337857 -0.223858140267 0.896 9.29984757925e-39
0.00827253544143 -0.223358456919 0.894 9.76117044799e-39
0.00992704252972 -0.223358456919 0.894 9.57678199086e-39
0.011581549618 -0.223358456919 0.894 9.39274525964e-39
0.0131916404086 -0.222608931895 0.891 9.66932794534e-39
0.0148405954597 -0.222608931895 0.891 9.11650729337e-39
0.0164525369294 -0.222109248547 0.889 9.02430886091e-39
0.0180977906223 -0.222109248547 0.889 9.20724136894e-39
0.0197430443153 -0.222109248547 0.889 9.02575640222e-39
0.0213882980082 -0.222109248547 0.889 9.11579122986e-39
0.0229817326872 -0.221609565198 0.887 8.84101201528e-39
0.024623285022 -0.221609565198 0.887 8.4704372351e-39
0.0262648373568 -0.221609565198 0.887 8.74667239877e-39
0.0278434666032 -0.221109881849 0.885 8.10201204675e-39
0.0293813809101 -0.220360356826 0.882 9.29984477665e-39
0.0309433540449 -0.219860673477 0.88 9.20980154123e-39
0.0324979244634 -0.219360990128 0.878 9.20979873863e-39
0.0341228206866 -0.219360990128 0.878 7.27119059504e-39
0.0357477169098 -0.219360990128 0.878 8.19238318601e-39
0.0373726131329 -0.219360990128 0.878 1.64841716825e-38
-0.0380203508073 -0.212280292008 0.856 0.0
-0.0362233414307 -0.211040337031 0.851 9.02577321781e-39
-0.0346484135424 -0.211040337031 0.851 1.25267086374e-38
-0.0330734856541 -0.211040337031 0.851 1.09568269614e-38
-0.0314985577658 -0.211040337031 0.851 1.19677545021e-38
-0.0308730282403 -0.217736093905 0.878 1.38127236784e-38
-0.0292481320171 -0.217736093905 0.878 1.44584237939e-38
-0.0276232357939 -0.217736093905 0.878 1.55648105886e-38
-0.0261167830312 -0.218728057886 0.882 1.19694949148e-38
-0.0244844840917 -0.218728057886 0.882 1.09557185343e-38
-0.0228521851523 -0.218728057886 0.882 9.84940320579e-39
-0.0213401803524 -0.219968012863 0.887 9.30020070646e-39
-0.0196986280176 -0.219968012863 0.887 8.65483129742e-39
-0.0180977906223 -0.220463994854 0.889 9.85335626876e-39
-0.0164895505108 -0.220959976844 0.891 9.02575640222e-39
-0.0148405954597 -0.220959976844 0.891 9.85336888045e-39
-0.0131916404086 -0.220959976844 0.891 1.0036683943e-38
-0.0115426853575 -0.220959976844 0.891 9.76080751169e-39
-0.00992704252972 -0.22170394983 0.894 9.57534005474e-39
-0.00827253544143 -0.22170394983 0.894 9.30054542588e-39
-0.0066328337857 -0.222199931821 0.896 9.11760030617e-39
-0.00497462533928 -0.222199931821 0.896 9.39310118945e-39
-0.00331641689285 -0.222199931821 0.896 9.66897481812e-39
-0.00165820844643 -0.222199931821 0.896 9.30054822848e-39
0.0 -0.222199931821 0.896 9.57602108579e-39
0.00165820844643 -0.222199931821 0.896 9.76117044799e-39
0.00331641689285 -0.222199931821 0.896 9.66897762072e-39
0.00497462533928 -0.222199931821 0.896 1.01288767702e-38
0.0066328337857 -0.222199931821 0.896 9.20835259862e-39
0.00829104223213 -0.222199931821 0.896 9.76186128813e-39
0.00994925067855 -0.222199931821 0.896 9.57606032215e-39
0.011607459125 -0.222199931821 0.896 9.4842164182e-39
0.0132656675714 -0.222199931821 0.896 9.85192133913e-39
0.0148405954597 -0.220959976844 0.891 9.76007743519e-39
0.0164895505108 -0.220959976844 0.891 9.21085812027e-39
0.0180977906223 -0.220463994854 0.889 8.65700891523e-39
0.0197430443153 -0.220463994854 0.889 9.02540327501e-39
0.0213882980082 -0.220463994854 0.889 9.39236550776e-39
0.0230335517011 -0.220463994854 0.889 8.93285732053e-39
0.024623285022 -0.219968012863 0.887 9.20977211396e-39
0.0262648373568 -0.219968012863 0.887 8.74881638542e-39
0.0278434666032 -0.219472030872 0.885 8.37861154803e-39
0.0293813809101 -0.218728057886 0.882 8.83774979246e-39
0.0308730282403 -0.217736093905 0.878 8.00691572907e-39
0.0324979244634 -0.217736093905 0.878 7.63669547739e-39
0.0341228206866 -0.217736093905 0.878 1.09468062761e-38
0.0357477169098 -0.217736093905 0.878 1.60210873816e-38
-0.037931518212 -0.210203830091 0.854 2.75506488474e-40
-0.0361382101935 -0.20897312851 0.849 0.0
-0.0345669836633 -0.20897312851 0.849 1.18780994264e-38
-0.0329957571332 -0.20897312851 0.849 1.26166972222e-38
-0.031424530603 -0.20897312851 0.849 1.0955731146e-38
-0.0298533040729 -0.20897312851 0.849 1.04937006215e-38
-0.0294813175799 -0.217834179896 0.885 1.38145061301e-38
-0.0278434666032 -0.217834179896 0.885 1.43655121005e-38
-0.0262056156265 -0.217834179896 0.885 1.53785822266e-38
-0.0245677646499 -0.217834179896 0.885 1.60247153433e-38
-0.0229299136732 -0.217834179896 0.885 1.2798943094e-38
-0.0213401803524 -0.218326460528 0.887 1.23365019891e-38
-0.0197430443153 -0.218818741161 0.889 1.08620879748e-38
-0.0180977906223 -0.218818741161 0.889 9.75397057648e-39
-0.0164895505108 -0.219311021793 0.891 1.02152962478e-38
-0.0148405954597 -0.219311021793 0.891 9.20584847826e-39
-0.0132360567063 -0.220049442742 0.894 9.1136528484e-39
-0.011581549618 -0.220049442742 0.894 9.29733084721e-39
-0.00992704252972 -0.220049442742 0.894 9.114378721e-39
-0.00829104223213 -0.220541723375 0.896 9.02469982318e-39
-0.0066328337857 -0.220541723375 0.896 9.57642886364e-39
-0.00498572941369 -0.221034004007 0.898 9.57677918826e-39
-0.00332381960913 -0.221034004007 0.898 9.39274806224e-39
-0.00166190980456 -0.221034004007 0.898 9.11795343339e-39
0.0 -0.221034004007 0.898 9.21014906325e-39
0.00166190980456 -0.221034004007 0.898 9.39274806224e-39
0.00332381960913 -0.221034004007 0.898 9.66897762072e-39
0.00498572941369 -0.221034004007 0.898 1.01292298974e-38
0.0066328337857 -0.220541723375 0.896 1.03118232912e-38
0.00829104223213 -0.220541723375 0.896 9.66790842999e-39
0.00994925067855 -0.220541723375 0.896 9.76080470909e-39
0.011607459125 -0.220541723375 0.896 8.83779043011e-39
0.0132656675714 -0.220541723375 0.896 9.02184818081e-39
0.0148905637946 -0.220049442742 0.894 9.11580103894e-39
0.0164895505108 -0.219311021793 0.891 9.39236831036e-39
0.0181385055618 -0.219311021793 0.891 8.93320764515e-39
0.0197430443153 -0.218818741161 0.889 8.38075973857e-39
0.0213882980082 -0.218818741161 0.889 8.37967092967e-39
0.0230335517011 -0.218818741161 0.889 8.28676624278e-39
0.024623285022 -0.218326460528 0.887 9.02214105219e-39
0.0262648373568 -0.218326460528 0.887 8.83632467192e-39
0.0278434666032 -0.217834179896 0.885 8.83417788267e-39
0.0293813809101 -0.217095758947 0.882 1.05804844367e-38
0.0308730282403 -0.216111197682 0.878 1.26099051286e-38
0.0324979244634 -0.216111197682 0.878 1.68515220749e-38
-0.037931518212 -0.208623350166 0.854 6.25378204892e-39
-0.0361382101935 -0.20740190198 0.849 1.83670992316e-40
-0.0345669836633 -0.20740190198 0.849 0.0
-0.0329957571332 -0.20740190198 0.849 1.33543197144e-38
-0.0313505034402 -0.206913322706 0.847 1.23387076329e-38
-0.0297126524636 -0.206424743431 0.845 1.14156499137e-38
-0.0281488286497 -0.206424743431 0.845 1.04926076087e-38
-0.0265220817475 -0.205936164157 0.843 1.03993525972e-38
-0.0249619592917 -0.205936164157 0.843 1.29801113673e-38
-0.0245677646499 -0.216196328919 0.885 1.50090962553e-38
-0.0229299136732 -0.216196328919 0.885 1.482541125e-38
-0.0213882980082 -0.217173487468 0.889 1.58366891154e-38
-0.0197430443153 -0.217173487468 0.889 1.64835256839e-38
-0.0180977906223 -0.217173487468 0.889 1.41811754914e-38
-0.0164895505108 -0.217662066742 0.891 1.38098496153e-38
-0.0148405954597 -0.217662066742 0.891 1.25187422557e-38
-0.0132360567063 -0.218394935654 0.894 1.19669809854e-38
-0.011581549618 -0.218394935654 0.894 9.93548777305e-39
-0.00992704252972 -0.218394935654 0.894 9.56812757154e-39
-0.00829104223213 -0.218883514928 0.896 9.29154488585e-39
-0.00664763921826 -0.219372094203 0.898 9.01530411698e-39
-0.00498572941369 -0.219372094203 0.898 8.64941247626e-39
-0.00332381960913 -0.219372094203 0.898 8.55865177602e-39
-0.00166190980456 -0.219372094203 0.898 9.01997884866e-39
0.0 -0.219372094203 0.898 8.65304604318e-39
0.00166190980456 -0.219372094203 0.898 8.74487593414e-39
0.00332381960913 -0.219372094203 0.898 8.83632467192e-39
0.00498572941369 -0.219372094203 0.898 8.92922655621e-39
0.00664763921826 -0.219372094203 0.898 9.1136528484e-39
0.00830954902282 -0.219372094203 0.898 9.02143760036e-39
0.00994925067855 -0.218883514928 0.896 9.02177251069e-39
0.011607459125 -0.218883514928 0.896 9.11398916003e-39
0.0132656675714 -0.218883514928 0.896 8.28459843405e-39
0.0149238760178 -0.218883514928 0.896 8.8359743473e-39
0.0165450708829 -0.218394935654 0.894 9.57459596525e-39
0.0181995779711 -0.218394935654 0.894 7.26900036554e-39
0.0197874606129 -0.217662066742 0.891 7.45231963194e-39
0.021436415664 -0.217662066742 0.891 7.91077684532e-39
0.0230335517011 -0.217173487468 0.889 1.0764892512e-38
0.0246788053941 -0.217173487468 0.889 1.20559844573e-38
0.026324059087 -0.217173487468 0.889 1.26091610391e-38
0.0279063896916 -0.216684908193 0.887 1.6115055654e-38
0.0295479420264 -0.216684908193 0.887 1.84178346438e-38
0.0308730282403 -0.214486301459 0.878 1.91524849819e-38
0.0324979244634 -0.214486301459 0.878 2.02627701889e-38
-0.037798269319 -0.206315553366 0.851 1.49025681448e-38
-0.0361382101935 -0.20583067545 0.849 6.24481373874e-39
-0.0345669836633 -0.20583067545 0.849 0.0
-0.0329957571332 -0.20583067545 0.849 8.38259684086e-39
-0.0313505034402 -0.205345797533 0.847 1.19724110169e-38
-0.0297126524636 -0.204860919617 0.845 1.19691642084e-38
-0.0280822042032 -0.204376041701 0.843 1.31673486642e-38
-0.0264591586591 -0.203891163785 0.841 1.22450644617e-38
-0.0249027375615 -0.203891163785 0.841 1.1230892915e-38
-0.0233463164639 -0.203891163785 0.841 1.07688189503e-38
-0.0218417143803 -0.204376041701 0.843 1.24280291996e-38
-0.0213882980082 -0.215528233775 0.889 1.46406696657e-38
-0.0197430443153 -0.215528233775 0.889 1.54715163408e-38
-0.0180977906223 -0.215528233775 0.889 1.48279293834e-38
-0.0165450708829 -0.216740428565 0.894 1.58399135031e-38
-0.0148905637946 -0.216740428565 0.894 1.58377877334e-38
-0.0132360567063 -0.216740428565 0.894 1.64845668487e-38
-0.011581549618 -0.216740428565 0.894 1.65771436317e-38
-0.00994925067855 -0.217225306482 0.896 1.60257719223e-38
-0.00830954902282 -0.217710184398 0.898 1.44573672149e-38
-0.00664763921826 -0.217710184398 0.898 1.42708081464e-38
-0.00498572941369 -0.217710184398 0.898 1.32570261607e-38
-0.00332381960913 -0.217710184398 0.898 1.23340160856e-38
-0.00166190980456 -0.217710184398 0.898 1.23343467921e-38
0.0 -0.217710184398 0.898 1.13191060547e-38
0.00166190980456 -0.217710184398 0.898 1.21481408508e-38
0.00332381960913 -0.217710184398 0.898 1.22407316469e-38
0.00498572941369 -0.217710184398 0.898 1.15035169326e-38
0.00664763921826 -0.217710184398 0.898 1.2053424285e-38
0.00830954902282 -0.217710184398 0.898 1.14999422202e-38
0.00997145882739 -0.217710184398 0.898 1.24229775186e-38
0.011633368632 -0.217710184398 0.898 1.20552683938e-38
0.0132952784365 -0.217710184398 0.898 1.2518044409e-38
0.0149238760178 -0.217225306482 0.896 1.33484805037e-38
0.0165820844643 -0.217225306482 0.896 1.27031110946e-38
0.0181995779711 -0.216740428565 0.894 1.35328899803e-38
0.0197874606129 -0.216013111691 0.891 1.53742844442e-38
0.021436415664 -0.216013111691 0.891 1.8140491053e-38
0.0230335517011 -0.215528233775 0.889 1.85074953247e-38
0.0246788053941 -0.215528233775 0.889 1.97053378637e-38
0.026324059087 -0.215528233775 0.889 2.03496086548e-38
0.0279693127799 -0.215528233775 0.889 2.05386284033e-38
0.0295479420264 -0.215043355859 0.887 2.05412025886e-38
0.0311894943612 -0.215043355859 0.887 1.93411964448e-38
0.032831046696 -0.215043355859 0.887 1.62990993917e-38
0.0344725990308 -0.215043355859 0.887 1.68497494324e-38
-0.037798269319 -0.204740625478 0.851 1.46129856132e-38
-0.0361382101935 -0.20425944892 0.849 1.50757462142e-38
-0.0345669836633 -0.20425944892 0.849 4.13259732711e-39
-0.0329957571332 -0.20425944892 0.849 8.01273532159e-39
-0.0312764762774 -0.203297095803 0.845 1.02214451455e-38
-0.0297126524636 -0.203297095803 0.845 1.22457665122e-38
-0.0280822042032 -0.202815919245 0.843 1.20613598382e-38
-0.0264591586591 -0.202334742687 0.841 1.25212814085e-38
-0.0249027375615 -0.202334742687 0.841 1.26148811394e-38
-0.0233463164639 -0.202334742687 0.841 1.25234141848e-38
-0.0217898953663 -0.202334742687 0.841 1.20610039084e-38
-0.0201853566129 -0.201853566129 0.839 1.15989369502e-38
-0.0186326368734 -0.201853566129 0.839 1.21499849596e-38
-0.0170392021945 -0.201372389571 0.837 1.40860917854e-38
-0.0154901838131 -0.201372389571 0.837 1.2981889615e-38
-0.0139744776551 -0.201853566129 0.839 1.41786573581e-38
-0.0124217579156 -0.201853566129 0.839 1.61161528707e-38
-0.011607459125 -0.215567098035 0.896 1.57495311535e-38
-0.00997145882739 -0.216048274593 0.898 1.64867472691e-38
-0.00830954902282 -0.216048274593 0.898 1.65778316692e-38
-0.00664763921826 -0.216048274593 0.898 1.72228605628e-38
-0.00498572941369 -0.216048274593 0.898 1.67611691525e-38
-0.00332381960913 -0.216048274593 0.898 1.74965888035e-38
-0.00166190980456 -0.216048274593 0.898 1.75887942424e-38
0.0 -0.216048274593 0.898 1.80494066529e-38
0.00166190980456 -0.216048274593 0.898 1.71267272842e-38
0.00332381960913 -0.216048274593 0.898 1.83241592428e-38
0.00498572941369 -0.216048274593 0.898 1.80461416274e-38
0.00664763921826 -0.216048274593 0.898 1.85075135416e-38
0.00830954902282 -0.216048274593 0.898 1.97975012637e-38
0.00997145882739 -0.216048274593 0.898 1.91517871353e-38
0.011633368632 -0.216048274593 0.898 1.91503592121e-38
0.0132952784365 -0.216048274593 0.898 1.99819023325e-38
0.0149238760178 -0.215567098035 0.896 2.05347229845e-38
0.0165820844643 -0.215567098035 0.896 2.15510034854e-38
0.0182402929107 -0.215567098035 0.896 2.14627735302e-38
0.0185438042781 -0.200891213013 0.835 2.20181095129e-38
0.0200891213013 -0.200891213013 0.835 2.2662014565e-38
0.0216344383245 -0.200891213013 0.835 2.14609756642e-38
0.0232352757197 -0.201372389571 0.837 1.96156379464e-38
0.024784294101 -0.201372389571 0.837 1.87844003091e-38
0.0279693127799 -0.213882980082 0.889 1.66664567906e-38
0.0295479420264 -0.213401803524 0.887 1.50066033453e-38
0.0311894943612 -0.213401803524 0.887 1.68494313376e-38
0.0312764762774 -0.203297095803 0.845 1.76824163941e-38
0.0328403000913 -0.203297095803 0.845 1.88802239007e-38
0.0344041239052 -0.203297095803 0.845 1.93386839166e-38
0.0359679477191 -0.203297095803 0.845 2.08152503254e-38
-0.0329957571332 -0.202688222389 0.849 9.75113154579e-39
-0.0312764762774 -0.201733271989 0.845 1.00366811404e-38
-0.0297126524636 -0.201733271989 0.845 1.10475806551e-38
-0.0281488286497 -0.201733271989 0.845 1.11379910307e-38
-0.0265220817475 -0.20125579679 0.843 1.25220100837e-38
-0.0249027375615 -0.20077832159 0.841 1.27063607058e-38
-0.0233463164639 -0.20077832159 0.841 1.27060075786e-38
-0.0217898953663 -0.20077832159 0.841 1.26134588215e-38
-0.0201853566129 -0.20030084639 0.839 1.27971242086e-38
-0.0186326368734 -0.20030084639 0.839 1.37190861124e-38
-0.0170392021945 -0.19982337119 0.837 1.32566786387e-38
-0.0154901838131 -0.19982337119 0.837 1.32570261607e-38
-0.0139744776551 -0.20030084639 0.839 1.32577716515e-38
-0.0124217579156 -0.20030084639 0.839 1.39031410605e-38
-0.0108690381762 -0.20030084639 0.839 1.28882842789e-38
-0.00931631843672 -0.20030084639 0.839 1.49162350087e-38
-0.00774509190657 -0.19982337119 0.837 1.57470550591e-38
-0.00619607352526 -0.19982337119 0.837 1.62083681187e-38
-0.00464705514394 -0.19982337119 0.837 1.74998047835e-38
-0.00309063404635 -0.19934589599 0.835 1.80526310406e-38
-0.00154531702318 -0.19934589599 0.835 1.77767658197e-38
0.0 -0.214386364789 0.898 1.84206848849e-38
0.00166190980456 -0.214386364789 0.898 1.96185106083e-38
0.00332381960913 -0.214386364789 0.898 1.93430139289e-38
0.00498572941369 -0.214386364789 0.898 1.97110733783e-38
0.00664763921826 -0.214386364789 0.898 1.95255905071e-38
0.00830954902282 -0.214386364789 0.898 2.00784321786e-38
0.00994925067855 -0.213908889589 0.896 1.92486504903e-38
0.011607459125 -0.213908889589 0.896 1.93397531074e-38
0.0132656675714 -0.213908889589 0.896 1.90621320595e-38
0.0149238760178 -0.213908889589 0.896 1.90606845182e-38
0.0154901838131 -0.19982337119 0.837 1.85064387457e-38
0.0170392021945 -0.19982337119 0.837 1.6573219996e-38
0.0185438042781 -0.19934589599 0.835 1.54686450802e-38
0.0200891213013 -0.19934589599 0.835 1.50073067972e-38
0.0216344383245 -0.19934589599 0.835 1.50033383199e-38
0.0232352757197 -0.19982337119 0.837 1.50977171728e-38
0.024784294101 -0.19982337119 0.837 1.64806516207e-38
0.0263333124823 -0.19982337119 0.837 1.71281762268e-38
0.0279489553102 -0.20030084639 0.839 1.86025622152e-38
0.0295016750496 -0.20030084639 0.839 1.89713797671e-38
0.0310543947891 -0.20030084639 0.839 1.86011160751e-38
0.0328403000913 -0.201733271989 0.845 1.94301480687e-38
0.0344041239052 -0.201733271989 0.845 1.9708555245e-38
0.0359679477191 -0.201733271989 0.845 1.85135741575e-38
-0.0313505034402 -0.200643222017 0.847 1.05913038621e-38
-0.0297126524636 -0.200169448176 0.845 1.02199807886e-38
-0.0280822042032 -0.199695674334 0.843 1.15082042759e-38
-0.0264591586591 -0.199221900492 0.841 1.150712948e-38
-0.0249027375615 -0.199221900492 0.841 1.32595302811e-38
-0.0233463164639 -0.199221900492 0.841 1.27992780043e-38
-0.0217898953663 -0.199221900492 0.841 1.26141804902e-38
-0.0201372389571 -0.198274352808 0.837 1.30744537864e-38
-0.0185882205758 -0.198274352808 0.837 1.35347046618e-38
-0.0170392021945 -0.198274352808 0.837 1.34414426438e-38
-0.0154901838131 -0.198274352808 0.837 1.38102055451e-38
-0.0139744776551 -0.19874812665 0.839 1.40868120528e-38
-0.0124217579156 -0.19874812665 0.839 1.36269058968e-38
-0.0108690381762 -0.19874812665 0.839 1.4827246951e-38
-0.00931631843672 -0.19874812665 0.839 1.38120006084e-38
-0.00774509190657 -0.198274352808 0.837 1.43637520696e-38
-0.00619607352526 -0.198274352808 0.837 1.48254490851e-38
-0.00463595106953 -0.197800578966 0.835 1.4824730219e-38
-0.00309063404635 -0.197800578966 0.835 1.48247274164e-38
-0.00154531702318 -0.197800578966 0.835 1.57470368422e-38
0.0 -0.197800578966 0.835 1.52878537562e-38
0.00154531702318 -0.197800578966 0.835 1.54718946913e-38
0.00309063404635 -0.197800578966 0.835 1.49179950396e-38
0.00463595106953 -0.197800578966 0.835 1.54682975582e-38
0.00664763921826 -0.212724454984 0.898 1.54679416284e-38
0.00830954902282 -0.212724454984 0.898 1.56515789895e-38
0.00994925067855 -0.212250681142 0.896 1.58388597267e-38
0.011607459125 -0.212250681142 0.896 1.61147473683e-38
0.0132656675714 -0.212250681142 0.896 1.50083900009e-38
0.0139078532086 -0.197800578966 0.835 1.57481116381e-38
0.0154531702318 -0.197800578966 0.835 1.54675758895e-38
0.0169984872549 -0.197800578966 0.835 1.65756834787e-38
0.0185438042781 -0.197800578966 0.835 1.65782212302e-38
0.0200891213013 -0.197800578966 0.835 1.72217969772e-38
0.0216344383245 -0.197800578966 0.835 1.78660915903e-38
0.0232352757197 -0.198274352808 0.837 1.72210879202e-38
0.024784294101 -0.198274352808 0.837 1.78664475202e-38
0.0263333124823 -0.198274352808 0.837 1.8234851689e-38
0.0279489553102 -0.19874812665 0.839 1.8047942296e-38
0.0295016750496 -0.19874812665 0.839 1.88787917736e-38
0.0310543947891 -0.19874812665 0.839 1.95230723738e-38
0.0328403000913 -0.200169448176 0.845 1.67575538025e-38
0.0344041239052 -0.200169448176 0.845 1.7033459661e-38
0.0360530789563 -0.200643222017 0.847 1.92482973631e-38
0.0376206041283 -0.200643222017 0.847 7.63454308295e-39
-0.0330734856541 -0.200015841813 0.851 7.27300807915e-39
-0.031424530603 -0.199545769329 0.849 1.0866446013e-38
-0.0297829782682 -0.199075696845 0.847 1.12319747174e-38
-0.0280822042032 -0.198135551878 0.843 1.06791666772e-38
-0.0264591586591 -0.197665479394 0.841 1.21542981563e-38
-0.0249027375615 -0.197665479394 0.841 1.17858491459e-38
-0.0233463164639 -0.197665479394 0.841 1.24287298488e-38
-0.0217898953663 -0.197665479394 0.841 1.31666480149e-38
-0.0201372389571 -0.196725334427 0.837 1.2890063928e-38
-0.0185882205758 -0.196725334427 0.837 1.32584779059e-38
-0.0170392021945 -0.196725334427 0.837 1.42719221787e-38
-0.0154901838131 -0.196725334427 0.837 1.3903847315e-38
-0.0139411654318 -0.196725334427 0.837 1.44566665656e-38
-0.0123921470505 -0.196725334427 0.837 1.45481335203e-38
-0.0108431286692 -0.196725334427 0.837 1.4271909567e-38
-0.00929411028789 -0.196725334427 0.837 1.44566665656e-38
-0.00774509190657 -0.196725334427 0.837 1.464213122e-38
-0.0061812680927 -0.196255261943 0.835 1.52882068834e-38
-0.00463595106953 -0.196255261943 0.835 1.51027590447e-38
-0.00309063404635 -0.196255261943 0.835 1.53768053801e-38
-0.00154531702318 -0.196255261943 0.835 1.63020435198e-38
0.0 -0.196255261943 0.835 1.51020499876e-38
0.00154531702318 -0.196255261943 0.835 1.6117266903e-38
0.00309063404635 -0.196255261943 0.835 1.55644434484e-38
0.00463595106953 -0.196255261943 0.835 1.74065679888e-38
0.0061812680927 -0.196255261943 0.835 1.74086811469e-38
0.00772658511588 -0.196255261943 0.835 1.66686203955e-38
0.00927190213905 -0.196255261943 0.835 1.75902207643e-38
0.0108172191622 -0.196255261943 0.835 1.71288922903e-38
0.0123625361854 -0.196255261943 0.835 1.69455576097e-38
0.0139078532086 -0.196255261943 0.835 1.61165228135e-38
0.0154531702318 -0.196255261943 0.835 1.75891697904e-38
0.0169984872549 -0.196255261943 0.835 1.63906083853e-38
0.0185438042781 -0.196255261943 0.835 1.66679169436e-38
0.0200891213013 -0.196255261943 0.835 1.70373875006e-38
0.0216344383245 -0.196255261943 0.835 1.7404390371e-38
0.0232352757197 -0.196725334427 0.837 1.73125450658e-38
0.024784294101 -0.196725334427 0.837 1.74054595618e-38
0.0263962355707 -0.197195406911 0.839 1.78650153931e-38
0.0279489553102 -0.197195406911 0.839 1.67590181594e-38
0.0295720008543 -0.197665479394 0.841 1.70344840102e-38
0.0312024491147 -0.198135551878 0.843 1.71252797429e-38
0.0328403000913 -0.198605624362 0.845 1.82323531739e-38
0.0344041239052 -0.198605624362 0.845 1.7957211023e-38
0.0360530789563 -0.199075696845 0.847 1.84199688214e-38
0.0376206041283 -0.199075696845 0.847 1.27038579867e-38
-0.0330734856541 -0.198440913925 0.851 7.27445421917e-39
-0.031424530603 -0.197974542799 0.849 1.07721260147e-38
-0.0298533040729 -0.197974542799 0.849 1.10475778525e-38
-0.0282154530962 -0.197508171673 0.847 1.10475806551e-38
-0.0265850048358 -0.197041800548 0.845 1.20624570549e-38
-0.0249619592917 -0.196575429422 0.843 1.20621011251e-38
-0.023401836836 -0.196575429422 0.843 1.27975305852e-38
-0.0217898953663 -0.196109058297 0.841 1.3352111268e-38
-0.0201853566129 -0.195642687171 0.839 1.28900667305e-38
-0.0185882205758 -0.195176316046 0.837 1.36269030943e-38
-0.0170392021945 -0.195176316046 0.837 1.36272534189e-38
-0.0154901838131 -0.195176316046 0.837 1.42729759551e-38
-0.0139411654318 -0.195176316046 0.837 1.39960429448e-38
-0.0123921470505 -0.195176316046 0.837 1.51016674332e-38
-0.0108431286692 -0.195176316046 0.837 1.45474146542e-38
-0.00929411028789 -0.195176316046 0.837 1.45477831957e-38
-0.00772658511588 -0.19470994492 0.835 1.4457386833e-38
-0.0061812680927 -0.19470994492 0.835 1.49190740394e-38
-0.00463595106953 -0.19470994492 0.835 1.51020331721e-38
-0.00309063404635 -0.19470994492 0.835 1.51023862993e-38
-0.00154531702318 -0.19470994492 0.835 1.50116368094e-38
0.0 -0.19470994492 0.835 1.58396052175e-38
0.00154531702318 -0.19470994492 0.835 1.52871503044e-38
0.00309063404635 -0.19470994492 0.835 1.58406744082e-38
0.00463595106953 -0.19470994492 0.835 1.57484787783e-38
0.0061812680927 -0.19470994492 0.835 1.6299128819e-38
0.00772658511588 -0.19470994492 0.835 1.63906055827e-38
0.00927190213905 -0.19470994492 0.835 1.62054968582e-38
0.0108172191622 -0.19470994492 0.835 1.61140144892e-38
0.0123625361854 -0.19470994492 0.835 1.67608160253e-38
0.0139078532086 -0.19470994492 0.835 1.65771408291e-38
0.0154531702318 -0.19470994492 0.835 1.67615390953e-38
0.0169984872549 -0.19470994492 0.835 1.64856738744e-38
0.0185882205758 -0.195176316046 0.837 1.6945582833e-38
0.0200891213013 -0.19470994492 0.835 1.65764275682e-38
0.0216344383245 -0.19470994492 0.835 1.67586860516e-38
0.0232907960918 -0.195642687171 0.839 1.70359777944e-38
0.0248435158313 -0.195642687171 0.839 1.63906111879e-38
0.0264591586591 -0.196109058297 0.841 1.70356246672e-38
0.0280155797567 -0.196109058297 0.841 1.676011958e-38
0.0295720008543 -0.196109058297 0.841 1.71277992775e-38
0.0312024491147 -0.196575429422 0.843 1.84171003634e-38
0.0329180286122 -0.197508171673 0.847 1.83256053828e-38
0.0344855537843 -0.197508171673 0.847 1.62083625135e-38
0.0361382101935 -0.197974542799 0.849 1.67611859681e-38
0.037931518212 -0.199140470613 0.854 1.45405398839e-38
0.0397895999979 -0.20053958399 0.86 1.4365171585e-38
0.0413811839978 -0.20053958399 0.86 1.46414151565e-38
-0.0349334181191 -0.198485330222 0.858 0.0
-0.0331900784355 -0.197559990687 0.854 7.64323253472e-39
-0.0314985577658 -0.196865986036 0.851 8.83275276214e-39
-0.0299236298775 -0.196865986036 0.851 1.22431951296e-38
-0.0282820775427 -0.196403316269 0.849 1.15996375994e-38
-0.0266479279242 -0.195940646501 0.847 1.18780629926e-38
-0.025021181022 -0.195477976734 0.845 1.21543009589e-38
-0.023401836836 -0.195015306967 0.843 1.21535947044e-38
-0.0218417143803 -0.195015306967 0.843 1.38134467484e-38
-0.0201853566129 -0.194089967432 0.839 1.2706741859e-38
-0.0185882205758 -0.193627297664 0.837 1.33503260138e-38
-0.0170392021945 -0.193627297664 0.837 1.36279820941e-38
-0.0154901838131 -0.193627297664 0.837 1.3903847315e-38
-0.0139411654318 -0.193627297664 0.837 1.44566665656e-38
-0.0123921470505 -0.193627297664 0.837 1.45495670486e-38
-0.0108431286692 -0.193627297664 0.837 1.43641023943e-38
-0.00927190213905 -0.193164627897 0.835 1.4456316241e-38
-0.00772658511588 -0.193164627897 0.835 1.54701094371e-38
-0.0061812680927 -0.193164627897 0.835 1.51034877199e-38
-0.00463595106953 -0.193164627897 0.835 1.52871348901e-38
-0.00309063404635 -0.193164627897 0.835 1.58410275354e-38
-0.00154531702318 -0.193164627897 0.835 1.5287500629e-38
0.0 -0.193164627897 0.835 1.59307176436e-38
0.00154531702318 -0.193164627897 0.835 1.6023267802e-38
0.00309063404635 -0.193164627897 0.835 1.55640931238e-38
0.00463595106953 -0.193164627897 0.835 1.54711912395e-38
0.0061812680927 -0.193164627897 0.835 1.59310945929e-38
0.00772658511588 -0.193164627897 0.835 1.62991316216e-38
0.00927190213905 -0.193164627897 0.835 1.58377877334e-38
0.0108172191622 -0.193164627897 0.835 1.63005637486e-38
0.0123625361854 -0.193164627897 0.835 1.59314210954e-38
0.0139078532086 -0.193164627897 0.835 1.57488277016e-38
0.0154531702318 -0.193164627897 0.835 1.58413750574e-38
0.0169984872549 -0.193164627897 0.835 1.54729666847e-38
0.0185882205758 -0.193627297664 0.837 1.6023267802e-38
0.0201372389571 -0.193627297664 0.837 1.63906083853e-38
0.0217380763524 -0.194089967432 0.839 1.61147473683e-38
0.0232907960918 -0.194089967432 0.839 1.67608160253e-38
0.0248435158313 -0.194089967432 0.839 1.65764275682e-38
0.0264591586591 -0.194552637199 0.841 1.67608160253e-38
0.0280155797567 -0.194552637199 0.841 1.74973076696e-38
0.0296423266589 -0.195015306967 0.843 1.81408609958e-38
0.0312764762774 -0.195477976734 0.845 1.86032838839e-38
0.0329180286122 -0.195940646501 0.847 1.49183453642e-38
0.0344855537843 -0.195940646501 0.847 1.1020259539e-39
0.0361382101935 -0.196403316269 0.849 1.7221791372e-38
0.0380203508073 -0.198022660455 0.856 1.6385489442e-38
0.0396970660444 -0.198485330222 0.858 1.46424815446e-38
0.0412849486862 -0.198485330222 0.858 1.51952881836e-38
-0.0349334181191 -0.19689744758 0.858 0.0
-0.0331900784355 -0.195979510762 0.854 7.36736591254e-39
-0.0314985577658 -0.195291058148 0.851 7.35621578066e-39
-0.0299236298775 -0.195291058148 0.851 1.25994528433e-38
-0.0282820775427 -0.194832089739 0.849 8.17766394694e-39
-0.0266479279242 -0.194373121329 0.847 1.27952941128e-38
-0.025021181022 -0.19391415292 0.845 1.25234422107e-38
-0.0234573572081 -0.19391415292 0.845 1.23397670145e-38
-0.0218935333942 -0.19391415292 0.845 1.22472126522e-38
-0.0201853566129 -0.192537247692 0.839 1.27985871642e-38
-0.0186326368734 -0.192537247692 0.839 1.34436062486e-38
-0.0170392021945 -0.192078279283 0.837 1.35350605916e-38
-0.0154901838131 -0.192078279283 0.837 1.36269030943e-38
-0.0139411654318 -0.192078279283 0.837 1.39956954228e-38
-0.0123921470505 -0.192078279283 0.837 1.39953422956e-38
-0.0108431286692 -0.192078279283 0.837 1.39963932694e-38
-0.00927190213905 -0.191619310874 0.835 1.46406822774e-38
-0.00772658511588 -0.191619310874 0.835 1.49176391097e-38
-0.0061812680927 -0.191619310874 0.835 1.49190712368e-38
-0.00463595106953 -0.191619310874 0.835 1.51956581264e-38
-0.00309063404635 -0.191619310874 0.835 1.51041855665e-38
-0.00154531702318 -0.191619310874 0.835 1.52882222977e-38
0.0 -0.191619310874 0.835 1.58406772108e-38
0.00154531702318 -0.191619310874 0.835 1.61183360937e-38
0.00309063404635 -0.191619310874 0.835 1.55622952579e-38
0.00463595106953 -0.191619310874 0.835 1.52875034316e-38
0.0061812680927 -0.191619310874 0.835 1.53796990615e-38
0.00772658511588 -0.191619310874 0.835 1.54718946913e-38
0.00927190213905 -0.191619310874 0.835 1.56570090211e-38
0.0108172191622 -0.191619310874 0.835 1.53800886224e-38
0.0123625361854 -0.191619310874 0.835 1.56570090211e-38
0.0139078532086 -0.191619310874 0.835 1.57484787783e-38
0.0154531702318 -0.191619310874 0.835 1.57488277016e-38
0.0169984872549 -0.191619310874 0.835 1.57470396448e-38
0.0185882205758 -0.192078279283 0.837 1.60228978592e-38
0.0201853566129 -0.192537247692 0.839 1.64835256839e-38
0.0217380763524 -0.192537247692 0.839 1.69448541578e-38
0.0232907960918 -0.192537247692 0.839 1.6668623198e-38
0.0248435158313 -0.192537247692 0.839 1.70370469851e-38
0.0264591586591 -0.192996216102 0.841 1.77745755902e-38
0.0280155797567 -0.192996216102 0.841 1.76827975473e-38
0.0296423266589 -0.193455184511 0.843 1.33535630132e-38
0.0312764762774 -0.19391415292 0.845 5.78563625795e-39
0.0329957571332 -0.194832089739 0.849 1.33394939766e-38
0.0345669836633 -0.194832089739 0.849 8.26519465422e-40
0.0362233414307 -0.195291058148 0.851 1.76856632027e-38
0.0380203508073 -0.196438479171 0.856 1.4817147793e-38
0.0396970660444 -0.19689744758 0.858 1.56526902192e-38
0.0412849486862 -0.19689744758 0.858 1.50080270646e-38
-0.0350148479982 -0.19576483199 0.86 0.0
-0.0332678069564 -0.194854297888 0.856 5.24794542551e-39
-0.03160959851 -0.194399030836 0.854 1.05901926325e-38
-0.0299236298775 -0.19371613026 0.851 1.16835949956e-38
-0.0282820775427 -0.193260863209 0.849 7.07134441455e-39
-0.0266479279242 -0.192805596157 0.847 1.26026716259e-38
-0.025021181022 -0.192350329106 0.845 1.28889120606e-38
-0.0234573572081 -0.192350329106 0.845 1.2887167444e-38
-0.0218935333942 -0.192350329106 0.845 1.32598974213e-38
-0.0202334742687 -0.191439795004 0.841 1.28003710171e-38
-0.0186770531711 -0.191439795004 0.841 1.30758845121e-38
-0.017079917134 -0.190984527953 0.839 1.3535057789e-38
-0.0155271973945 -0.190984527953 0.839 1.38116642968e-38
-0.0139411654318 -0.190529260902 0.837 1.40889602434e-38
-0.0123921470505 -0.190529260902 0.837 1.46432060159e-38
-0.0108431286692 -0.190529260902 0.837 1.29858342702e-38
-0.00929411028789 -0.190529260902 0.837 1.46450024805e-38
-0.00772658511588 -0.190073993851 0.835 1.47328821111e-38
-0.0061812680927 -0.190073993851 0.835 1.50101906694e-38
-0.00463595106953 -0.190073993851 0.835 1.51953021966e-38
-0.00309063404635 -0.190073993851 0.835 1.49190880524e-38
-0.00154531702318 -0.190073993851 0.835 1.56580782118e-38
0.0 -0.190073993851 0.835 1.56573621483e-38
0.00154531702318 -0.190073993851 0.835 1.55626609968e-38
0.00309063404635 -0.190073993851 0.835 1.61140439165e-38
0.00463595106953 -0.190073993851 0.835 1.53803997107e-38
0.0061812680927 -0.190073993851 0.835 1.57488305042e-38
0.00774509190657 -0.190529260902 0.837 1.56548440149e-38
0.00927190213905 -0.190073993851 0.835 1.59339420314e-38
0.0108172191622 -0.190073993851 0.835 1.58410247328e-38
0.0123625361854 -0.190073993851 0.835 1.61179801639e-38
0.0139078532086 -0.190073993851 0.835 1.56555600785e-38
0.0154531702318 -0.190073993851 0.835 1.62998350734e-38
0.0169984872549 -0.190073993851 0.835 1.62076618643e-38
0.0186326368734 -0.190984527953 0.839 1.6299128819e-38
0.0201853566129 -0.190984527953 0.839 1.676011958e-38
0.0217380763524 -0.190984527953 0.839 1.72214410474e-38
0.0233463164639 -0.191439795004 0.841 1.73136366773e-38
0.0249027375615 -0.191439795004 0.841 1.69455982473e-38
0.0265220817475 -0.191895062055 0.843 1.86951263865e-38
0.0280822042032 -0.191895062055 0.843 1.02160151139e-38
0.0297829782682 -0.192805596157 0.847 3.58158435016e-39
0.031424530603 -0.193260863209 0.849 1.91625687256e-38
0.0330734856541 -0.19371613026 0.851 1.8606881017e-38
0.0346484135424 -0.19371613026 0.851 1.28569694621e-39
0.0363510382865 -0.194399030836 0.854 1.87037163461e-38
0.0381091834027 -0.195309564939 0.858 1.50955339498e-38
0.0397895999979 -0.19576483199 0.86 1.51924183243e-38
-0.0350148479982 -0.19417324799 0.86 0.0
-0.0332678069564 -0.193270116604 0.856 6.7219965035e-39
-0.03160959851 -0.192818550911 0.854 1.04987256778e-38
-0.0300291185845 -0.192818550911 0.854 1.10464848397e-38
-0.0283487019892 -0.192141202371 0.851 1.11386650553e-38
-0.0266479279242 -0.191238070985 0.847 9.93473527578e-39
-0.0250804027522 -0.191238070985 0.847 9.27898504771e-39
-0.0234573572081 -0.190786505292 0.845 1.24986027942e-38
-0.0218935333942 -0.190786505292 0.845 1.19576805674e-38
-0.0202815919245 -0.190334939599 0.843 1.45477523671e-38
-0.0186770531711 -0.189883373906 0.841 1.44570196928e-38
-0.0171206320735 -0.189883373906 0.841 1.24287102306e-38
-0.0155271973945 -0.189431808213 0.839 1.41800992942e-38
-0.0139744776551 -0.189431808213 0.839 1.51045386937e-38
-0.0123921470505 -0.18898024252 0.837 1.37219727873e-38
-0.0108431286692 -0.18898024252 0.837 3.85709083864e-39
-0.00929411028789 -0.18898024252 0.837 1.56509512078e-38
-0.00774509190657 -0.18898024252 0.837 1.54686745075e-38
-0.0061812680927 -0.188528676827 0.835 1.58396052175e-38
-0.00463595106953 -0.188528676827 0.835 1.49197915042e-38
-0.00309063404635 -0.188528676827 0.835 1.52875034316e-38
-0.00154531702318 -0.188528676827 0.835 1.5380415125e-38
0.0 -0.188528676827 0.835 1.54729638821e-38
0.00154901838131 -0.18898024252 0.837 1.60261404638e-38
0.00309803676263 -0.18898024252 0.837 1.55626455825e-38
0.00464705514394 -0.18898024252 0.837 1.52885726223e-38
0.00619607352526 -0.18898024252 0.837 1.53796962589e-38
0.00774509190657 -0.18898024252 0.837 1.59310707708e-38
0.00929411028789 -0.18898024252 0.837 1.54726135574e-38
0.0108431286692 -0.18898024252 0.837 1.57481228485e-38
0.0123921470505 -0.18898024252 0.837 1.60232706046e-38
0.0139411654318 -0.18898024252 0.837 1.61154634319e-38
0.0154901838131 -0.18898024252 0.837 1.61154662345e-38
0.0170392021945 -0.18898024252 0.837 1.58392492877e-38
0.0186326368734 -0.189431808213 0.839 1.64831725567e-38
0.0201853566129 -0.189431808213 0.839 1.66672134918e-38
0.0217380763524 -0.189431808213 0.839 1.74047589125e-38
0.0233463164639 -0.189883373906 0.841 1.76817003306e-38
0.0249027375615 -0.189883373906 0.841 1.80501227164e-38
0.0265850048358 -0.190786505292 0.845 1.93401272541e-38
0.0281488286497 -0.190786505292 0.845 6.53036473461e-39
0.0297829782682 -0.191238070985 0.847 9.56637314586e-39
0.0314985577658 -0.192141202371 0.851 1.77778223988e-38
0.0331900784355 -0.192818550911 0.854 1.7957506697e-38
0.034770558361 -0.192818550911 0.854 6.52283135407e-39
0.0364361695237 -0.193270116604 0.856 1.84210408147e-38
0.0381091834027 -0.193721682297 0.858 1.60182315353e-38
0.0397895999979 -0.19417324799 0.86 1.53807556405e-38
-0.0349334181191 -0.192133799655 0.858 0.0
-0.0333455354773 -0.192133799655 0.858 7.64755133659e-39
-0.0316836256728 -0.19168593532 0.856 8.83884700916e-39
-0.0300291185845 -0.191238070985 0.854 1.09539178658e-38
-0.0283487019892 -0.190566274483 0.851 1.16000061409e-38
-0.0267108510126 -0.190118410148 0.849 1.26138119487e-38
-0.0250804027522 -0.189670545813 0.847 1.22432105438e-38
-0.0234573572081 -0.189222681479 0.845 8.73226424796e-39
-0.0218935333942 -0.189222681479 0.845 1.16670540685e-38
-0.0203297095803 -0.189222681479 0.845 8.54070674789e-39
-0.0187214694688 -0.188774817144 0.843 1.38811883188e-38
-0.0171206320735 -0.188326952809 0.841 8.72580706464e-39
-0.0155642109759 -0.188326952809 0.841 1.54611074958e-38
-0.0139744776551 -0.187879088474 0.839 1.58352443766e-38
-0.0124217579156 -0.187879088474 0.839 1.48240057477e-38
-0.0108690381762 -0.187879088474 0.839 4.95911679253e-39
-0.00929411028789 -0.187431224139 0.837 6.61215572338e-39
-0.00774509190657 -0.187431224139 0.837 1.07520089739e-38
-0.00619607352526 -0.187431224139 0.837 1.6294049112e-38
-0.00464705514394 -0.187431224139 0.837 1.51971028651e-38
-0.00309803676263 -0.187431224139 0.837 1.51041855665e-38
-0.00154901838131 -0.187431224139 0.837 1.53797144758e-38
0.0 -0.187431224139 0.837 1.5380415125e-38
0.00154901838131 -0.187431224139 0.837 1.57495549756e-38
0.00309803676263 -0.187431224139 0.837 1.55644434484e-38
0.00464705514394 -0.187431224139 0.837 1.5194586133e-38
0.00619607352526 -0.187431224139 0.837 1.58381562749e-38
0.00774509190657 -0.187431224139 0.837 1.62076590617e-38
0.00931631843672 -0.187879088474 0.839 1.56555418616e-38
0.0108431286692 -0.187431224139 0.837 1.60236167253e-38
0.0123921470505 -0.187431224139 0.837 1.60229006618e-38
0.0139411654318 -0.187431224139 0.837 1.61154522215e-38
0.0155271973945 -0.187879088474 0.839 1.57470368422e-38
0.017079917134 -0.187879088474 0.839 1.65771674538e-38
0.0186770531711 -0.188326952809 0.841 1.65757241164e-38
0.0202334742687 -0.188326952809 0.841 1.69437849671e-38
0.0217898953663 -0.188326952809 0.841 1.71263769596e-38
0.0233463164639 -0.188326952809 0.841 1.74018890533e-38
0.0249619592917 -0.188774817144 0.843 1.75869991791e-38
0.0265850048358 -0.189222681479 0.845 1.92475841022e-38
0.0281488286497 -0.189222681479 0.845 4.86907495841e-39
0.0298533040729 -0.190118410148 0.849 1.29776128521e-38
0.0314985577658 -0.190566274483 0.851 1.89796250072e-38
0.0331900784355 -0.191238070985 0.854 1.0305324069e-38
0.03485198824 -0.19168593532 0.856 1.30481906506e-38
0.0364361695237 -0.19168593532 0.856 1.96188805511e-38
0.0381091834027 -0.192133799655 0.858 1.51899184079e-38
0.0396970660444 -0.192133799655 0.858 1.53807556405e-38
-0.0349334181191 -0.190545917013 0.858 1.19386145005e-39
-0.0333455354773 -0.190545917013 0.858 8.74813815696e-39
-0.0316836256728 -0.190101754037 0.856 7.54705581592e-39
-0.0300291185845 -0.18965759106 0.854 7.71669280412e-39
-0.0283487019892 -0.188991346595 0.851 1.15009609642e-38
-0.0267108510126 -0.188547183618 0.849 1.32551764467e-38
-0.0250804027522 -0.188103020641 0.847 1.27985899668e-38
-0.0235128775802 -0.188103020641 0.847 1.30740642254e-38
-0.0218935333942 -0.187658857665 0.845 1.31648151166e-38
-0.0203297095803 -0.187658857665 0.845 1.24258039376e-38
-0.0187214694688 -0.187214694688 0.843 1.17771849174e-38
-0.0171613470131 -0.187214694688 0.843 1.10270754547e-38
-0.0155642109759 -0.186770531711 0.841 1.02855853788e-38
-0.0140077898783 -0.186770531711 0.841 1.15713607977e-38
-0.0124217579156 -0.186326368734 0.839 1.58399583447e-38
-0.0108690381762 -0.186326368734 0.839 6.15297824259e-39
-0.00931631843672 -0.186326368734 0.839 1.38023540698e-38
-0.00776359869727 -0.186326368734 0.839 6.71295952971e-39
-0.00619607352526 -0.185882205758 0.837 1.22306871395e-38
-0.00464705514394 -0.185882205758 0.837 1.55655322573e-38
-0.00309803676263 -0.185882205758 0.837 1.51023891019e-38
-0.00154901838131 -0.185882205758 0.837 1.53797018641e-38
0.0 -0.185882205758 0.837 1.56573593457e-38
0.00154901838131 -0.185882205758 0.837 1.55651763275e-38
0.00309803676263 -0.185882205758 0.837 1.56552069512e-38
0.00464705514394 -0.185882205758 0.837 1.4919076842e-38
0.00621087895782 -0.186326368734 0.839 1.56534118879e-38
0.00776359869727 -0.186326368734 0.839 1.57448914543e-38
0.00931631843672 -0.186326368734 0.839 1.6298781297e-38
0.0108690381762 -0.186326368734 0.839 1.60239726551e-38
0.0124217579156 -0.186326368734 0.839 1.60236237318e-38
0.0139744776551 -0.186326368734 0.839 1.61151004956e-38
0.0155271973945 -0.186326368734 0.839 1.61147473683e-38
0.017079917134 -0.186326368734 0.839 1.62998574942e-38
