# .PCD v0.7 - Point Cloud Data file format
VERSION 0.7
FIELDS x y z rgb
SIZE 4 4 4 4
TYPE F F F F
COUNT 1 1 1 1
WIDTH 840
HEIGHT 1
VIEWPOINT 0 0 0 1 0 0 0
POINTS 840
DATA ascii
0.0133693055993 -0.0902428127953 0.903 1.68320832626e-38
0.0150404687992 -0.0902428127953 0.903 1.79384140054e-38
0.0167671523712 -0.0905426228046 0.906 1.83064734548e-38
0.0184438676083 -0.0905426228046 0.906 1.94161266763e-38
0.0201205828455 -0.0905426228046 0.906 1.56342757561e-38
0.0217972980826 -0.0905426228046 0.906 1.46212154391e-38
0.0235258323337 -0.0907424961441 0.908 1.73816613099e-38
0.025261769301 -0.0909423694836 0.91 1.71101008779e-38
0.0269458872544 -0.0909423694836 0.91 1.45300974077e-38
0.0286300052078 -0.0909423694836 0.91 1.32390194754e-38
0.0304806842775 -0.0914420528324 0.915 1.48020165722e-38
-0.0375798891887 -0.0905333694092 0.923 2.02523151011e-38
-0.0356773911051 -0.0900429394558 0.918 1.14069730736e-38
-0.033867426975 -0.0897486814837 0.915 1.25990408616e-38
-0.0321740556262 -0.0897486814837 0.915 1.40791707723e-38
-0.0304806842775 -0.0897486814837 0.915 1.34363222992e-38
-0.0287243898404 -0.0895525095023 0.913 1.35285165278e-38
-0.0270347198498 -0.0895525095023 0.913 1.34345286372e-38
-0.025261769301 -0.0892582515302 0.91 1.36189170943e-38
-0.0235776513476 -0.0892582515302 0.91 1.38025880866e-38
-0.0218454157384 -0.0890620795488 0.908 1.26958986114e-38
-0.0201649991431 -0.0890620795488 0.908 1.52751846168e-38
-0.0184845825479 -0.0890620795488 0.908 1.40755834482e-38
-0.0167671523712 -0.0888659075675 0.906 1.49921447478e-38
-0.0150404687992 -0.0885716495954 0.903 1.50836215115e-38
-0.0133693055993 -0.0885716495954 0.903 1.52701623631e-38
-0.0116981423994 -0.0885716495954 0.903 1.49935796774e-38
-0.0100047710506 -0.088375477614 0.901 1.52680099687e-38
-0.00833730920887 -0.088375477614 0.901 1.5911934639e-38
-0.00666984736709 -0.088375477614 0.901 1.60973992933e-38
-0.00498572941369 -0.0880812196419 0.898 1.65569355065e-38
-0.00332381960913 -0.0880812196419 0.898 1.71997839797e-38
-0.00166190980456 -0.0880812196419 0.898 1.74763666653e-38
0.0 -0.0880812196419 0.898 1.77540255483e-38
0.00166190980456 -0.0880812196419 0.898 1.73863248312e-38
0.00332381960913 -0.0880812196419 0.898 1.74785190598e-38
0.00498572941369 -0.0880812196419 0.898 1.77536668159e-38
0.00666984736709 -0.088375477614 0.901 1.75699958235e-38
0.00833730920887 -0.088375477614 0.901 1.73856073664e-38
0.0100269791995 -0.0885716495954 0.903 1.74767253978e-38
0.0116981423994 -0.0885716495954 0.903 1.70153955225e-38
0.0133693055993 -0.0885716495954 0.903 1.74752904681e-38
0.0150404687992 -0.0885716495954 0.903 1.74767253978e-38
0.0167671523712 -0.0888659075675 0.906 2.0520583883e-38
0.0184438676083 -0.0888659075675 0.906 1.48963631952e-38
0.0201205828455 -0.0888659075675 0.906 1.78408387907e-38
0.0217972980826 -0.0888659075675 0.906 1.8030608234e-38
0.0235258323337 -0.0890620795488 0.908 1.4993220945e-38
0.025261769301 -0.0892582515302 0.91 1.47998641777e-38
0.0269458872544 -0.0892582515302 0.91 1.5172228416e-38
0.0286300052078 -0.0892582515302 0.91 1.44379031792e-38
-0.0375798891887 -0.0888251926279 0.923 1.99749448857e-38
-0.0356773911051 -0.0883440160698 0.918 1.25125863515e-38
-0.033867426975 -0.0880553101349 0.915 1.22299052149e-38
-0.0321740556262 -0.0880553101349 0.915 1.3342693141e-38
-0.0304806842775 -0.0880553101349 0.915 1.41735201979e-38
-0.0287243898404 -0.0878628395117 0.913 1.30693432509e-38
-0.0270347198498 -0.0878628395117 0.913 1.32526513069e-38
-0.025261769301 -0.0875741335768 0.91 1.33444868031e-38
-0.0235776513476 -0.0875741335768 0.91 1.36192758267e-38
-0.0218454157384 -0.0873816629536 0.908 1.34338111724e-38
-0.0201649991431 -0.0873816629536 0.908 1.5276260814e-38
-0.0184845825479 -0.0873816629536 0.908 1.42599719054e-38
-0.0167671523712 -0.0871891923303 0.906 1.50832627791e-38
-0.0150904371341 -0.0871891923303 0.906 1.51761744725e-38
-0.013413721897 -0.0871891923303 0.906 1.48070388258e-38
-0.0116981423994 -0.0869004863955 0.903 1.59126521038e-38
-0.0100269791995 -0.0869004863955 0.903 1.54531158906e-38
-0.00835581599956 -0.0869004863955 0.903 1.60973992933e-38
-0.00666984736709 -0.0867080157722 0.901 1.75707132884e-38
-0.00500238552532 -0.0867080157722 0.901 1.65580117038e-38
-0.00333492368355 -0.0867080157722 0.901 1.79384140054e-38
-0.00166746184177 -0.0867080157722 0.901 1.74767253978e-38
0.0 -0.0867080157722 0.901 1.7385248634e-38
0.00166746184177 -0.0867080157722 0.901 1.75699958235e-38
0.00333492368355 -0.0867080157722 0.901 1.77554604779e-38
0.00500238552532 -0.0867080157722 0.901 1.73856073664e-38
0.00666984736709 -0.0867080157722 0.901 1.72923369406e-38
0.00835581599956 -0.0869004863955 0.903 1.72930544054e-38
0.0100269791995 -0.0869004863955 0.903 1.72923369406e-38
0.0116981423994 -0.0869004863955 0.903 1.72001427121e-38
0.013413721897 -0.0871891923303 0.906 1.72919782082e-38
0.0150904371341 -0.0871891923303 0.906 1.75685608939e-38
0.0167671523712 -0.0871891923303 0.906 1.80309669664e-38
0.0184438676083 -0.0871891923303 0.906 1.60963230961e-38
0.0201205828455 -0.0871891923303 0.906 1.85848498026e-38
0.0217972980826 -0.0871891923303 0.906 1.45222052948e-38
0.0235258323337 -0.0873816629536 0.908 9.82819175094e-39
0.025261769301 -0.0875741335768 0.91 1.75725489893e-38
0.0269458872544 -0.0875741335768 0.91 1.23203057814e-38
0.0286300052078 -0.0875741335768 0.91 2.07010669213e-38
-0.0376613190678 -0.0873057851117 0.925 2.32079660519e-38
-0.0356773911051 -0.0866450926839 0.918 1.10435771454e-38
-0.0339784677192 -0.0866450926839 0.918 1.35206286187e-38
-0.0321740556262 -0.0863619387862 0.915 1.31572284867e-38
-0.0304806842775 -0.0863619387862 0.915 1.33430518734e-38
-0.0287873129287 -0.0863619387862 0.915 1.35288752602e-38
-0.0270347198498 -0.0861731695211 0.913 1.36210694887e-38
-0.0253450498591 -0.0861731695211 0.913 1.37132637173e-38
-0.0236553798685 -0.0861731695211 0.913 1.28838743926e-38
-0.0218935333942 -0.0858900156234 0.91 1.44472302218e-38
-0.0201649991431 -0.0857012463583 0.908 1.44479476866e-38
-0.0184845825479 -0.0857012463583 0.908 1.40741485186e-38
-0.0167671523712 -0.0855124770932 0.906 1.49910685506e-38
-0.0150904371341 -0.0855124770932 0.906 1.50836215115e-38
-0.013413721897 -0.0855124770932 0.906 1.51761744725e-38
-0.0117370066599 -0.0855124770932 0.906 1.53576930704e-38
-0.0100269791995 -0.0852293231956 0.903 1.64643825456e-38
-0.00835581599956 -0.0852293231956 0.903 1.70164717197e-38
-0.00668465279965 -0.0852293231956 0.903 1.69242774912e-38
-0.00500238552532 -0.0850405539305 0.901 1.74781603274e-38
-0.00333492368355 -0.0850405539305 0.901 1.72930544054e-38
-0.00166746184177 -0.0850405539305 0.901 1.7845502312e-38
0.0 -0.0850405539305 0.901 1.75689196263e-38
0.00166746184177 -0.0850405539305 0.901 1.75685608939e-38
0.00333492368355 -0.0850405539305 0.901 1.68331594598e-38
0.00500238552532 -0.0850405539305 0.901 1.69242774912e-38
0.00668465279965 -0.0852293231956 0.903 1.79384140054e-38
0.00835581599956 -0.0852293231956 0.903 1.74785190598e-38
0.0100602914227 -0.0855124770932 0.906 1.72001427121e-38
0.0117370066599 -0.0855124770932 0.906 1.72001427121e-38
0.013413721897 -0.0855124770932 0.906 1.72923369406e-38
0.0150904371341 -0.0855124770932 0.906 1.76603963901e-38
0.0168041659526 -0.0857012463583 0.908 1.84951667008e-38
0.0184845825479 -0.0857012463583 0.908 1.61038564767e-38
0.0201649991431 -0.0857012463583 0.908 1.65615990278e-38
0.0218454157384 -0.0857012463583 0.908 1.52554543344e-38
0.0235258323337 -0.0857012463583 0.908 1.31489776413e-38
0.0253450498591 -0.0861731695211 0.913 1.49907238311e-38
0.0270347198498 -0.0861731695211 0.913 1.2869166364e-38
0.0288816975613 -0.0866450926839 0.918 2.12484799625e-38
0.0305806209472 -0.0866450926839 0.918 1.53555406759e-38
-0.0397137221561 -0.0863341786002 0.933 2.34867810061e-38
-0.0376613190678 -0.0855939069723 0.925 2.34889249927e-38
-0.035755119626 -0.0851312372049 0.92 8.45962761874e-39
-0.0340524948819 -0.0851312372049 0.92 1.45308344907e-38
-0.0322795443332 -0.0849461692979 0.918 1.3708600196e-38
-0.0304806842775 -0.0846685674374 0.915 1.278809284e-38
-0.0287873129287 -0.0846685674374 0.915 1.36181996295e-38
-0.0270347198498 -0.0844834995305 0.913 1.30657517229e-38
-0.0253450498591 -0.0844834995305 0.913 1.42642766943e-38
-0.0236553798685 -0.0844834995305 0.913 1.18683029488e-38
-0.0218935333942 -0.08420589767 0.91 1.57379550269e-38
-0.0202094154408 -0.08420589767 0.91 1.4355753458e-38
-0.0184845825479 -0.0840208297631 0.908 1.4440414306e-38
-0.0168041659526 -0.0840208297631 0.908 1.50836215115e-38
-0.0150904371341 -0.0838357618561 0.906 1.54527571582e-38
-0.013413721897 -0.0838357618561 0.906 1.58215340725e-38
-0.0117370066599 -0.0838357618561 0.906 1.6373981979e-38
-0.0100602914227 -0.0838357618561 0.906 1.65580117038e-38
-0.00838357618561 -0.0838357618561 0.906 1.67402477665e-38
-0.00670686094849 -0.0838357618561 0.906 1.71083072159e-38
-0.00501348959974 -0.0835581599956 0.903 1.72001427121e-38
-0.00334232639983 -0.0835581599956 0.903 1.7385248634e-38
-0.00167116319991 -0.0835581599956 0.903 1.7845502312e-38
0.0 -0.0835581599956 0.903 1.72001427121e-38
0.00167116319991 -0.0835581599956 0.903 1.69242774912e-38
0.00334232639983 -0.0835581599956 0.903 1.72026538389e-38
0.00501348959974 -0.0835581599956 0.903 1.7387042296e-38
0.00668465279965 -0.0835581599956 0.903 1.71086659483e-38
0.00838357618561 -0.0838357618561 0.906 1.72930544054e-38
0.0100602914227 -0.0838357618561 0.906 1.74774428626e-38
0.0117370066599 -0.0838357618561 0.906 1.75685608939e-38
0.013413721897 -0.0838357618561 0.906 1.76603963901e-38
0.0150904371341 -0.0838357618561 0.906 1.74756492005e-38
0.0168041659526 -0.0840208297631 0.908 1.8679555158e-38
0.0184845825479 -0.0840208297631 0.908 1.6287527469e-38
0.0201649991431 -0.0840208297631 0.908 1.77633525908e-38
0.0218454157384 -0.0840208297631 0.908 1.24964433932e-38
0.0235776513476 -0.08420589767 0.91 1.43399692321e-38
0.0254005702312 -0.0846685674374 0.915 1.76593201928e-38
0.02709394158 -0.0846685674374 0.915 1.74835413135e-38
0.0288816975613 -0.0849461692979 0.918 1.58172292836e-38
0.0305806209472 -0.0849461692979 0.918 1.40569293631e-38
-0.0415292383234 -0.084788861577 0.935 2.30221875067e-38
-0.0397137221561 -0.0846074950282 0.933 2.26545036053e-38
-0.0377834638864 -0.0841540786561 0.928 2.34914501326e-38
-0.0358717124074 -0.083700662284 0.923 1.01187650005e-38
-0.0340524948819 -0.0834286124608 0.92 1.4441137376e-38
-0.0322795443332 -0.0832472459119 0.918 1.35234942741e-38
-0.0304806842775 -0.0829751960887 0.915 1.3521700612e-38
-0.0287873129287 -0.0829751960887 0.915 1.38919124559e-38
-0.0270347198498 -0.0827938295399 0.913 1.38940648504e-38
-0.0253450498591 -0.0827938295399 0.913 1.38025880866e-38
-0.0236553798685 -0.0827938295399 0.913 1.50007543256e-38
-0.0219657098779 -0.0827938295399 0.913 1.43546772608e-38
-0.0202094154408 -0.0825217797166 0.91 1.37964896357e-38
-0.0185252974874 -0.0825217797166 0.91 1.49899923534e-38
-0.0168041659526 -0.0823404131678 0.908 1.57264699846e-38
-0.0151237493574 -0.0823404131678 0.908 1.60963230961e-38
-0.0134433327621 -0.0823404131678 0.908 1.60973992933e-38
-0.0117370066599 -0.082159046619 0.906 1.62799940884e-38
-0.0100602914227 -0.082159046619 0.906 1.68342356571e-38
-0.00838357618561 -0.082159046619 0.906 1.6924994956e-38
-0.00670686094849 -0.082159046619 0.906 1.7385248634e-38
-0.00503014571137 -0.082159046619 0.906 1.82153554235e-38
-0.00335343047424 -0.082159046619 0.906 1.72008601769e-38
-0.00167671523712 -0.082159046619 0.906 1.71097421455e-38
0.0 -0.082159046619 0.906 1.71097421455e-38
0.00167671523712 -0.082159046619 0.906 1.67416826961e-38
0.00335343047424 -0.082159046619 0.906 1.67416826961e-38
0.00503014571137 -0.082159046619 0.906 1.72008601769e-38
0.00670686094849 -0.082159046619 0.906 1.72930544054e-38
0.00838357618561 -0.082159046619 0.906 1.74774428626e-38
0.0100602914227 -0.082159046619 0.906 1.73856073664e-38
0.0117370066599 -0.082159046619 0.906 1.75682021615e-38
0.013413721897 -0.082159046619 0.906 1.76589614604e-38
0.0151237493574 -0.0823404131678 0.908 1.78433499176e-38
0.0168041659526 -0.0823404131678 0.908 1.82178665503e-38
0.0185252974874 -0.0825217797166 0.91 1.73863248312e-38
0.0202094154408 -0.0825217797166 0.91 1.75699958235e-38
0.0218935333942 -0.0825217797166 0.91 1.64643825456e-38
0.0237071988825 -0.0829751960887 0.915 1.84033312047e-38
0.0254838507894 -0.0832472459119 0.918 1.51736633457e-38
0.0271827741753 -0.0832472459119 0.918 1.29602843953e-38
0.0289446206497 -0.0834286124608 0.92 1.99552580435e-38
0.0306472453938 -0.0834286124608 0.92 1.91419612304e-38
0.0326311733564 -0.0841540786561 0.928 1.61017222991e-38
-0.0433984241838 -0.0833249744329 0.938 2.2378613161e-38
-0.0415292383234 -0.0830584766468 0.935 2.21942219013e-38
-0.0397988533933 -0.0830584766468 0.935 2.26551776298e-38
-0.0378648937655 -0.0826143136701 0.93 2.34914459287e-38
-0.0358717124074 -0.0819924855027 0.923 1.09503067196e-38
-0.0341635356261 -0.0819924855027 0.923 1.49953873524e-38
-0.0323498701378 -0.0817259877167 0.92 1.32479877856e-38
-0.0305806209472 -0.081548322526 0.918 1.36135361082e-38
-0.0287873129287 -0.08128182474 0.915 1.36113837138e-38
-0.02709394158 -0.08128182474 0.915 1.31511300357e-38
-0.0254005702312 -0.08128182474 0.915 1.36121011786e-38
-0.0237071988825 -0.08128182474 0.915 1.45315323374e-38
-0.0219657098779 -0.0811041595493 0.913 1.48084737555e-38
-0.0202760398873 -0.0811041595493 0.913 1.49003092516e-38
-0.0185252974874 -0.0808376617632 0.91 1.55427989923e-38
-0.016841179534 -0.0808376617632 0.91 1.62810702857e-38
-0.0151237493574 -0.0806599965725 0.908 1.62799940884e-38
-0.0134433327621 -0.0806599965725 0.908 1.59140870334e-38
-0.0117629161668 -0.0806599965725 0.908 1.63750581763e-38
-0.0100824995716 -0.0806599965725 0.908 1.67416826961e-38
-0.00838357618561 -0.0804823313819 0.906 1.72937718703e-38
-0.00670686094849 -0.0804823313819 0.906 1.73863248312e-38
-0.00503014571137 -0.0804823313819 0.906 1.69246362236e-38
-0.00335343047424 -0.0804823313819 0.906 1.68320832626e-38
-0.00167671523712 -0.0804823313819 0.906 1.77554604779e-38
0.0 -0.0804823313819 0.906 1.66502059323e-38
0.00167671523712 -0.0804823313819 0.906 1.67431176257e-38
0.00335343047424 -0.0804823313819 0.906 1.69271473504e-38
0.00503014571137 -0.0804823313819 0.906 1.71097421455e-38
0.00672166638105 -0.0806599965725 0.908 1.70182653818e-38
0.00840208297631 -0.0806599965725 0.908 1.76629075169e-38
0.0100824995716 -0.0806599965725 0.908 1.80316844312e-38
0.0117629161668 -0.0806599965725 0.908 1.72923369406e-38
0.0134433327621 -0.0806599965725 0.908 1.7383454972e-38
0.0151237493574 -0.0806599965725 0.908 1.85809037461e-38
0.0168041659526 -0.0806599965725 0.908 1.75732244152e-38
0.0185252974874 -0.0808376617632 0.91 1.84912206444e-38
0.0202094154408 -0.0808376617632 0.91 1.73909883525e-38
0.0219657098779 -0.0811041595493 0.913 1.50872088356e-38
0.0237071988825 -0.08128182474 0.915 1.33301375068e-38
0.0254838507894 -0.081548322526 0.918 1.25007481821e-38
0.0271827741753 -0.081548322526 0.918 1.68328133391e-38
0.0289446206497 -0.0817259877167 0.92 1.96915490868e-38
0.03081380651 -0.0821701506934 0.925 1.74846175107e-38
0.0326311733564 -0.0824366484794 0.928 1.61895935219e-38
0.0343486035331 -0.0824366484794 0.928 2.34893131524e-38
-0.0433984241838 -0.0815890374655 0.938 2.31161781999e-38
-0.0415292383234 -0.0813280917167 0.935 2.28399640557e-38
-0.0397988533933 -0.0813280917167 0.935 2.20116509283e-38
-0.0379870385841 -0.0811541278841 0.933 2.3489663477e-38
-0.0359494409284 -0.0804582725539 0.925 1.22406896079e-38
-0.0342375627889 -0.0804582725539 0.925 1.36942621101e-38
-0.0324553588448 -0.0802843087214 0.923 1.38894013291e-38
-0.0305806209472 -0.07984939914 0.918 1.37060890692e-38
-0.0287873129287 -0.0795884533912 0.915 1.34280714539e-38
-0.02709394158 -0.0795884533912 0.915 1.3793261044e-38
-0.0254005702312 -0.0795884533912 0.915 1.47123334704e-38
-0.0237071988825 -0.0795884533912 0.915 1.48981568572e-38
-0.0220138275337 -0.0795884533912 0.915 1.50829040467e-38
-0.0202760398873 -0.0794144895587 0.913 1.55427989923e-38
-0.0185863698967 -0.0794144895587 0.913 1.54506047638e-38
-0.0168966999061 -0.0794144895587 0.913 1.62810702857e-38
-0.0151570615806 -0.0791535438098 0.91 1.60977580258e-38
-0.0134433327621 -0.0789795799773 0.908 1.60973992933e-38
-0.0117629161668 -0.0789795799773 0.908 1.6464741278e-38
-0.0100824995716 -0.0789795799773 0.908 1.66480535379e-38
-0.00840208297631 -0.0789795799773 0.908 1.68328007274e-38
-0.00672166638105 -0.0789795799773 0.908 1.72005014445e-38
-0.00504124978578 -0.0789795799773 0.908 1.67406064989e-38
-0.00335343047424 -0.0788056161447 0.906 1.68328007274e-38
-0.00167671523712 -0.0788056161447 0.906 1.66494884675e-38
0.0 -0.0788056161447 0.906 1.66491297351e-38
0.00167671523712 -0.0788056161447 0.906 1.69257124208e-38
0.00336083319052 -0.0789795799773 0.908 1.68349531219e-38
0.00504124978578 -0.0789795799773 0.908 1.70182653818e-38
0.00672166638105 -0.0789795799773 0.908 1.73859660988e-38
0.00840208297631 -0.0789795799773 0.908 1.71097421455e-38
0.0100824995716 -0.0789795799773 0.908 1.72008601769e-38
0.0117629161668 -0.0789795799773 0.908 1.74756492005e-38
0.0134433327621 -0.0789795799773 0.908 1.76589614604e-38
0.0151237493574 -0.0789795799773 0.908 1.83043210604e-38
0.016841179534 -0.0791535438098 0.91 1.77586890696e-38
0.0185863698967 -0.0794144895587 0.913 1.5440201524e-38
0.0202760398873 -0.0794144895587 0.913 1.42571020461e-38
0.0220138275337 -0.0795884533912 0.915 1.35249292037e-38
0.0237849274034 -0.07984939914 0.918 1.2225600426e-38
0.0254838507894 -0.07984939914 0.918 1.71944057961e-38
0.0271827741753 -0.07984939914 0.918 2.11684658202e-38
0.0291019283706 -0.0804582725539 0.925 2.00660923443e-38
0.03081380651 -0.0804582725539 0.925 1.61009866174e-38
0.0326311733564 -0.0807192183028 0.928 1.75685650978e-38
0.0343486035331 -0.0807192183028 0.928 2.34921591896e-38
-0.0432596232536 -0.0795977067866 0.935 2.28403199855e-38
-0.0415292383234 -0.0795977067866 0.935 2.27474181012e-38
-0.0397988533933 -0.0795977067866 0.935 2.22874993336e-38
-0.0379870385841 -0.0794274443121 0.933 2.34910914001e-38
-0.0360660337097 -0.0790017881261 0.928 1.11332630497e-38
-0.0342375627889 -0.0787463944145 0.925 1.15712725159e-38
-0.0325256846495 -0.0787463944145 0.925 1.20347575882e-38
-0.0306472453938 -0.0783207382285 0.92 1.48063241636e-38
-0.0288816975613 -0.0781504757541 0.918 1.36146123054e-38
-0.02709394158 -0.0778950820425 0.915 1.40719961242e-38
-0.0254005702312 -0.0778950820425 0.915 1.42542321869e-38
-0.0237071988825 -0.0778950820425 0.915 1.48070388258e-38
-0.0220138275337 -0.0778950820425 0.915 1.50829040467e-38
-0.020320456185 -0.0778950820425 0.915 1.5819381678e-38
-0.0185863698967 -0.077724819568 0.913 1.5911934639e-38
-0.0168966999061 -0.077724819568 0.913 1.5544233922e-38
-0.0151570615806 -0.0774694258564 0.91 1.63743407115e-38
-0.0134729436272 -0.0774694258564 0.91 1.6006281262e-38
-0.0117629161668 -0.077299163382 0.908 1.60973992933e-38
-0.0100824995716 -0.077299163382 0.908 1.59133695686e-38
-0.00840208297631 -0.077299163382 0.908 1.64654587428e-38
-0.00672166638105 -0.077299163382 0.908 1.6370394655e-38
-0.00504124978578 -0.077299163382 0.908 1.6832441995e-38
-0.00336083319052 -0.077299163382 0.908 1.71104596103e-38
-0.00168041659526 -0.077299163382 0.908 1.72033713037e-38
0.0 -0.077299163382 0.908 1.69271473504e-38
0.00168041659526 -0.077299163382 0.908 1.70171891846e-38
0.00336083319052 -0.077299163382 0.908 1.71104596103e-38
0.00504124978578 -0.077299163382 0.908 1.71097421455e-38
0.00672166638105 -0.077299163382 0.908 1.73863248312e-38
0.00840208297631 -0.077299163382 0.908 1.72952067999e-38
0.0100824995716 -0.077299163382 0.908 1.74785190598e-38
0.0117629161668 -0.077299163382 0.908 1.7845502312e-38
0.0134433327621 -0.077299163382 0.908 1.7477801595e-38
0.0151237493574 -0.077299163382 0.908 1.79366203434e-38
0.016841179534 -0.0774694258564 0.91 1.7113688202e-38
0.0185863698967 -0.077724819568 0.913 1.62652860598e-38
0.020320456185 -0.0778950820425 0.915 1.64622301511e-38
0.0220138275337 -0.0778950820425 0.915 1.6557294239e-38
0.0237849274034 -0.0781504757541 0.918 1.95136080039e-38
0.0255393711615 -0.0783207382285 0.92 1.89539854492e-38
0.0272419959056 -0.0783207382285 0.92 1.87688795273e-38
0.0291019283706 -0.0787463944145 0.925 1.72880321517e-38
0.03081380651 -0.0787463944145 0.925 1.47980705157e-38
0.0327014991611 -0.0791720506005 0.93 1.88568011968e-38
0.0344226306959 -0.0791720506005 0.93 2.34946464943e-38
-0.0432596232536 -0.0778673218564 0.935 2.31161781999e-38
-0.0415292383234 -0.0778673218564 0.935 2.2009837648e-38
-0.0397988533933 -0.0778673218564 0.935 2.34845935792e-38
-0.0379870385841 -0.0777007607401 0.933 2.34885718655e-38
-0.0361437622307 -0.0774509190657 0.93 1.15946041353e-38
-0.0343486035331 -0.0772843579495 0.928 1.39694014584e-38
-0.0325256846495 -0.0770345162751 0.925 1.24917798719e-38
-0.0307471820635 -0.0768679551588 0.923 1.23059564852e-38
-0.0289446206497 -0.0766181134844 0.92 1.54456231477e-38
-0.0271827741753 -0.0764515523681 0.918 1.40719961242e-38
-0.0254005702312 -0.0762017106937 0.915 1.47144858649e-38
-0.0237071988825 -0.0762017106937 0.915 1.47144858649e-38
-0.0220138275337 -0.0762017106937 0.915 1.49903510858e-38
-0.020320456185 -0.0762017106937 0.915 1.56349932209e-38
-0.0186270848362 -0.0762017106937 0.915 1.55438751896e-38
-0.0169337134875 -0.0762017106937 0.915 1.54509634962e-38
-0.0152070299155 -0.0760351495774 0.913 1.56360694181e-38
-0.0134729436272 -0.075785307903 0.91 1.54527571582e-38
-0.0117629161668 -0.0756187467868 0.908 1.58215340725e-38
-0.0100824995716 -0.0756187467868 0.908 1.59133695686e-38
-0.00840208297631 -0.0756187467868 0.908 1.6098834223e-38
-0.00672166638105 -0.0756187467868 0.908 1.66494884675e-38
-0.00504124978578 -0.0756187467868 0.908 1.66491297351e-38
-0.00336083319052 -0.0756187467868 0.908 1.71104596103e-38
-0.00168041659526 -0.0756187467868 0.908 1.7017547917e-38
0.0 -0.0756187467868 0.908 1.68328007274e-38
0.00168041659526 -0.0756187467868 0.908 1.71097421455e-38
0.00336083319052 -0.0756187467868 0.908 1.70182653818e-38
0.00504124978578 -0.0756187467868 0.908 1.72937718703e-38
0.00672166638105 -0.0756187467868 0.908 1.72937718703e-38
0.00840208297631 -0.0756187467868 0.908 1.74785190598e-38
0.0100824995716 -0.0756187467868 0.908 1.73863248312e-38
0.0117629161668 -0.0756187467868 0.908 1.73856073664e-38
0.0134433327621 -0.0756187467868 0.908 1.77533080834e-38
0.0151570615806 -0.075785307903 0.91 1.83064734548e-38
0.0169337134875 -0.0762017106937 0.915 1.77579716047e-38
0.0186270848362 -0.0762017106937 0.915 1.79391314702e-38
0.020320456185 -0.0762017106937 0.915 2.16283579632e-38
0.0220860040175 -0.0764515523681 0.918 1.79381099236e-38
0.0238367464174 -0.0766181134844 0.92 1.87674445977e-38
0.0255393711615 -0.0766181134844 0.92 1.95046396938e-38
0.0273308285009 -0.0768679551588 0.923 1.68360293191e-38
0.0290390052822 -0.0768679551588 0.923 1.70103732688e-38
0.03081380651 -0.0770345162751 0.925 1.68295721358e-38
0.0325256846495 -0.0770345162751 0.925 2.14368368969e-38
-0.0449900081837 -0.0761369369263 0.935 2.28367046355e-38
-0.0432596232536 -0.0761369369263 0.935 2.2745618834e-38
-0.0415292383234 -0.0761369369263 0.935 2.23779125118e-38
-0.0397988533933 -0.0761369369263 0.935 2.32998730143e-38
-0.0379870385841 -0.0759740771681 0.933 2.3490372534e-38
-0.0361437622307 -0.0757297875309 0.93 1.13162137746e-38
-0.0344226306959 -0.0757297875309 0.93 1.30438690461e-38
-0.0326311733564 -0.0755669277728 0.928 1.5073581208e-38
-0.0307471820635 -0.0751597783775 0.923 1.69369452293e-38
-0.0289446206497 -0.0749154887403 0.92 8.08331732394e-39
-0.0271827741753 -0.0747526289822 0.918 1.4903897977e-38
-0.0254005702312 -0.074508339345 0.915 1.46233678335e-38
-0.0237071988825 -0.074508339345 0.915 1.49003092516e-38
-0.0220138275337 -0.074508339345 0.915 1.49907098182e-38
-0.020320456185 -0.074508339345 0.915 1.56331995589e-38
-0.0186270848362 -0.074508339345 0.915 1.52662163066e-38
-0.0169337134875 -0.074508339345 0.915 1.52680099687e-38
-0.0152070299155 -0.0743454795868 0.913 1.55438751896e-38
-0.0135173599249 -0.0743454795868 0.913 1.5083980244e-38
-0.0117888256738 -0.0741011899496 0.91 1.60963230961e-38
-0.0101047077204 -0.0741011899496 0.91 1.62828639477e-38
-0.008420589767 -0.0741011899496 0.91 1.6098834223e-38
-0.0067364718136 -0.0741011899496 0.91 1.62814290181e-38
-0.00504124978578 -0.0739383301915 0.908 1.67402477665e-38
-0.00336083319052 -0.0739383301915 0.908 1.68320832626e-38
-0.00168041659526 -0.0739383301915 0.908 1.71083072159e-38
0.0 -0.0739383301915 0.908 1.71083072159e-38
0.0016841179534 -0.0741011899496 0.91 1.6924994956e-38
0.0033682359068 -0.0741011899496 0.91 1.71104596103e-38
0.0050523538602 -0.0741011899496 0.91 1.7385248634e-38
0.0067364718136 -0.0741011899496 0.91 1.74785190598e-38
0.008420589767 -0.0741011899496 0.91 1.73856073664e-38
0.0101047077204 -0.0741011899496 0.91 1.77536668159e-38
0.0117888256738 -0.0741011899496 0.91 1.77536668159e-38
0.0134729436272 -0.0741011899496 0.91 1.7751155689e-38
0.0152403421387 -0.074508339345 0.915 1.83990264158e-38
0.0169337134875 -0.074508339345 0.915 1.79384140054e-38
0.0186270848362 -0.074508339345 0.915 1.82146379587e-38
0.020320456185 -0.074508339345 0.915 1.81195738709e-38
0.0220860040175 -0.0747526289822 0.918 1.89486044631e-38
0.0238367464174 -0.0749154887403 0.92 1.82117680994e-38
0.0256226517196 -0.0751597783775 0.923 2.1531137277e-38
0.0273308285009 -0.0751597783775 0.923 1.37032192099e-38
0.0290390052822 -0.0751597783775 0.923 1.87599392431e-38
0.03081380651 -0.0753226381356 0.925 1.65504783232e-38
0.0325256846495 -0.0753226381356 0.925 2.23610212601e-38
-0.0449900081837 -0.0744065519961 0.935 2.2746675413e-38
-0.0432596232536 -0.0744065519961 0.935 2.32087325622e-38
-0.0415292383234 -0.0744065519961 0.935 2.25630072233e-38
-0.0397988533933 -0.0744065519961 0.935 2.25623065741e-38
-0.0380684684631 -0.0744065519961 0.935 2.3490372534e-38
-0.0362603550121 -0.0742473935961 0.933 1.03027947252e-38
-0.0344226306959 -0.0740086559961 0.93 1.3967972134e-38
-0.0326311733564 -0.0738494975962 0.928 1.50718253811e-38
-0.03081380651 -0.0736107599962 0.925 1.43504033005e-38
-0.0290390052822 -0.0734516015962 0.923 9.19251792597e-39
-0.0272419959056 -0.0732128639962 0.92 1.52662485365e-38
-0.0254838507894 -0.0730537055962 0.918 1.46251614956e-38
-0.0237849274034 -0.0730537055962 0.918 1.45304561402e-38
-0.0220860040175 -0.0730537055962 0.918 1.46226503687e-38
-0.020320456185 -0.0728149679962 0.915 1.5449887299e-38
-0.0186270848362 -0.0728149679962 0.915 1.49896336209e-38
-0.0169337134875 -0.0728149679962 0.915 1.51750982753e-38
-0.0152403421387 -0.0728149679962 0.915 1.57282636467e-38
-0.0135173599249 -0.0726558095962 0.913 1.55438751896e-38
-0.0118276899343 -0.0726558095962 0.913 1.60041288676e-38
-0.0101380199437 -0.0726558095962 0.913 1.646653494e-38
-0.00844834995305 -0.0726558095962 0.913 1.63764931059e-38
-0.0067364718136 -0.0724170719962 0.91 1.67416826961e-38
-0.0050523538602 -0.0724170719962 0.91 1.68328007274e-38
-0.0033682359068 -0.0724170719962 0.91 1.68328007274e-38
-0.00168041659526 -0.0722579135962 0.908 1.68320832626e-38
0.0 -0.0722579135962 0.908 1.76596789253e-38
0.0016841179534 -0.0724170719962 0.91 1.78462197768e-38
0.0033682359068 -0.0724170719962 0.91 1.71097421455e-38
0.0050523538602 -0.0724170719962 0.91 1.75707132884e-38
0.0067364718136 -0.0724170719962 0.91 1.7477801595e-38
0.00844834995305 -0.0726558095962 0.913 1.75689196263e-38
0.0101380199437 -0.0726558095962 0.913 1.78444261148e-38
0.0118276899343 -0.0726558095962 0.913 1.76603963901e-38
0.0135173599249 -0.0726558095962 0.913 1.72912607434e-38
0.0152403421387 -0.0728149679962 0.915 1.78444261148e-38
0.0169337134875 -0.0728149679962 0.915 1.83068321872e-38
0.0186881572455 -0.0730537055962 0.918 1.89496806604e-38
0.0203870806315 -0.0730537055962 0.918 1.93195337718e-38
0.0220860040175 -0.0730537055962 0.918 1.87667271328e-38
0.0238367464174 -0.0732128639962 0.92 1.90422336213e-38
0.0256781720917 -0.0736107599962 0.925 2.05177000108e-38
0.0273900502311 -0.0736107599962 0.925 1.33276263799e-38
0.0291963130031 -0.0738494975962 0.928 1.98651979925e-38
0.0309137431798 -0.0738494975962 0.928 2.17187529245e-38
0.0326311733564 -0.0738494975962 0.928 1.88668653224e-38
0.0343486035331 -0.0738494975962 0.928 2.34910928014e-38
-0.0449900081837 -0.072676167066 0.935 2.33012925296e-38
-0.0432596232536 -0.072676167066 0.935 2.30243356973e-38
-0.0416624872164 -0.0729093526288 0.938 2.23775411677e-38
-0.0399265502491 -0.0729093526288 0.938 2.34846356181e-38
-0.0380684684631 -0.072676167066 0.935 2.34892781199e-38
-0.0362603550121 -0.0725207100241 0.933 1.08574020327e-38
-0.0344226306959 -0.0722875244614 0.93 1.17614329214e-38
-0.0326311733564 -0.0721320674195 0.928 1.12989946191e-38
-0.03081380651 -0.0718988818567 0.925 1.72999277744e-38
-0.0290390052822 -0.0717434248149 0.923 9.101063583e-39
-0.0272419959056 -0.0715102392521 0.92 1.49842974764e-38
-0.0254838507894 -0.0713547822102 0.918 1.36146123054e-38
-0.0237849274034 -0.0713547822102 0.918 1.47155620621e-38
-0.0220860040175 -0.0713547822102 0.918 1.43467851478e-38
-0.0203870806315 -0.0713547822102 0.918 1.52669337715e-38
-0.0186270848362 -0.0711215966475 0.915 1.49925034802e-38
-0.0169337134875 -0.0711215966475 0.915 1.5451680961e-38
-0.0152403421387 -0.0711215966475 0.915 1.56371456153e-38
-0.0135173599249 -0.0709661396056 0.913 1.58208166077e-38
-0.0118276899343 -0.0709661396056 0.913 1.59140870334e-38
-0.0101380199437 -0.0709661396056 0.913 1.58215340725e-38
-0.00844834995305 -0.0709661396056 0.913 1.62828639477e-38
-0.00675867996244 -0.0709661396056 0.913 1.64640238132e-38
-0.0050523538602 -0.0707329540428 0.91 1.69239187588e-38
-0.0033682359068 -0.0707329540428 0.91 1.69271473504e-38
-0.0016841179534 -0.0707329540428 0.91 1.73874010284e-38
0.0 -0.0707329540428 0.91 1.72937718703e-38
0.0016841179534 -0.0707329540428 0.91 1.71097421455e-38
0.00337933998122 -0.0709661396056 0.913 1.70182653818e-38
0.00506900997183 -0.0709661396056 0.913 1.71097421455e-38
0.00675867996244 -0.0709661396056 0.913 1.77533080834e-38
0.00844834995305 -0.0709661396056 0.913 1.75689196263e-38
0.0101380199437 -0.0709661396056 0.913 1.82153554235e-38
0.0118276899343 -0.0709661396056 0.913 1.76611138549e-38
0.01354697079 -0.0711215966475 0.915 1.78465785092e-38
0.0152403421387 -0.0711215966475 0.915 1.7938055273e-38
0.0169337134875 -0.0711215966475 0.915 1.84894269823e-38
0.0186881572455 -0.0713547822102 0.918 1.89496806604e-38
0.0203870806315 -0.0713547822102 0.918 1.90422336213e-38
0.0220860040175 -0.0713547822102 0.918 1.91333516527e-38
0.0239144749383 -0.0717434248149 0.923 1.88571276994e-38
0.0256781720917 -0.0718988818567 0.925 2.03329528212e-38
0.0273900502311 -0.0718988818567 0.925 1.87645747384e-38
0.0291963130031 -0.0721320674195 0.928 2.18116702231e-38
0.0309137431798 -0.0721320674195 0.928 1.84044074019e-38
0.0326311733564 -0.0721320674195 0.928 2.0520625922e-38
-0.0433984241838 -0.0711734156614 0.938 2.30236294428e-38
-0.0416624872164 -0.0711734156614 0.938 2.3299496065e-38
-0.0399265502491 -0.0711734156614 0.938 2.24704584662e-38
-0.0380684684631 -0.0709457821358 0.935 2.34896522666e-38
-0.0362603550121 -0.0707940264521 0.933 1.131875573e-38
-0.0345336714401 -0.0707940264521 0.933 1.20523691073e-38
-0.0327014991611 -0.0705663929266 0.93 8.26591211903e-39
-0.03081380651 -0.0701870037173 0.925 1.01087260983e-38
-0.0291019283706 -0.0701870037173 0.925 1.16749601945e-38
-0.0273308285009 -0.0700352480336 0.923 1.13930007266e-38
-0.0255393711615 -0.069807614508 0.92 1.41692126064e-38
-0.0238367464174 -0.069807614508 0.92 1.42571020461e-38
-0.0220860040175 -0.0696558588243 0.918 1.44407730384e-38
-0.0203870806315 -0.0696558588243 0.918 1.46226503687e-38
-0.0186270848362 -0.0694282252987 0.915 1.53584105352e-38
-0.0169337134875 -0.0694282252987 0.915 1.55435164571e-38
-0.0152403421387 -0.0694282252987 0.915 1.54531158906e-38
-0.01354697079 -0.0694282252987 0.915 1.56371456153e-38
-0.0118276899343 -0.069276469615 0.913 1.59130108362e-38
-0.0101380199437 -0.069276469615 0.913 1.59133695686e-38
-0.00844834995305 -0.069276469615 0.913 1.60973992933e-38
-0.00675867996244 -0.069276469615 0.913 1.73877597609e-38
-0.00506900997183 -0.069276469615 0.913 1.6557294239e-38
-0.00337933998122 -0.069276469615 0.913 1.70171891846e-38
-0.0016841179534 -0.0690488360894 0.91 1.71104596103e-38
0.0 -0.0690488360894 0.91 1.72026538389e-38
0.00168966999061 -0.069276469615 0.913 1.69260711532e-38
0.00337933998122 -0.069276469615 0.913 1.74781603274e-38
0.00508011404625 -0.0694282252987 0.915 1.72026538389e-38
0.006773485395 -0.0694282252987 0.915 1.79376965406e-38
0.00846685674374 -0.0694282252987 0.915 1.77543842807e-38
0.0101602280925 -0.0694282252987 0.915 1.7938055273e-38
0.0118535994412 -0.0694282252987 0.915 1.77536668159e-38
0.01354697079 -0.0694282252987 0.915 1.81210088005e-38
0.0152903104736 -0.0696558588243 0.918 1.78458610444e-38
0.0169892338596 -0.0696558588243 0.918 1.84887095175e-38
0.0186881572455 -0.0696558588243 0.918 1.8396515289e-38
0.0203870806315 -0.0696558588243 0.918 1.86727392422e-38
0.0221341216733 -0.069807614508 0.92 1.89496806604e-38
0.0239662939522 -0.0701870037173 0.925 1.88578451642e-38
0.0256781720917 -0.0701870037173 0.925 1.95961164575e-38
0.0273900502311 -0.0701870037173 0.925 2.09815410128e-38
0.0291963130031 -0.0704146372428 0.928 1.80352717552e-38
0.0309137431798 -0.0704146372428 0.928 1.78519594953e-38
0.0326311733564 -0.0704146372428 0.928 2.03416450756e-38
-0.0399265502491 -0.0694374786941 0.938 2.24708143961e-38
-0.0380684684631 -0.0692153972057 0.935 2.3489649464e-38
-0.036338083533 -0.0692153972057 0.935 1.14098429328e-38
-0.0345336714401 -0.0690673428801 0.933 1.44494232539e-38
-0.0328069878681 -0.0690673428801 0.933 9.56310812044e-39
-0.0309137431798 -0.0686972070662 0.928 9.37979025534e-39
-0.0291019283706 -0.0684751255778 0.925 7.80601717343e-39
-0.0273900502311 -0.0684751255778 0.925 1.19465304356e-38
-0.0256226517196 -0.0683270712523 0.923 1.42628417646e-38
-0.0238367464174 -0.0681049897639 0.92 1.4072713589e-38
-0.0221341216733 -0.0681049897639 0.92 1.47152033297e-38
-0.0203870806315 -0.0679569354383 0.918 1.49925034802e-38
-0.0186881572455 -0.0679569354383 0.918 1.52680099687e-38
-0.0169892338596 -0.0679569354383 0.918 1.52690861659e-38
-0.0152403421387 -0.06773485395 0.915 1.52683687011e-38
-0.01354697079 -0.06773485395 0.915 1.56382218126e-38
-0.0118535994412 -0.06773485395 0.915 1.59140870334e-38
-0.0101602280925 -0.06773485395 0.915 1.57293398439e-38
-0.00846685674374 -0.06773485395 0.915 1.58218928049e-38
-0.006773485395 -0.06773485395 0.915 1.6739889034e-38
-0.00506900997183 -0.0675867996244 0.913 1.70171891846e-38
-0.00337933998122 -0.0675867996244 0.913 1.71097421455e-38
-0.00168966999061 -0.0675867996244 0.913 1.72937718703e-38
0.0 -0.0675867996244 0.913 1.7017547917e-38
0.00168966999061 -0.0675867996244 0.913 1.72008601769e-38
0.00337933998122 -0.0675867996244 0.913 1.75685608939e-38
0.00508011404625 -0.06773485395 0.915 1.7477801595e-38
0.006773485395 -0.06773485395 0.915 1.73856073664e-38
0.00846685674374 -0.06773485395 0.915 1.75689196263e-38
0.0101602280925 -0.06773485395 0.915 1.80291733043e-38
0.0118535994412 -0.06773485395 0.915 1.7938055273e-38
0.01354697079 -0.06773485395 0.915 1.7845502312e-38
0.0152903104736 -0.0679569354383 0.918 1.78447848472e-38
0.0169892338596 -0.0679569354383 0.918 1.84887095175e-38
0.0187288721851 -0.0681049897639 0.92 1.8396515289e-38
0.0204314969292 -0.0681049897639 0.92 1.96875932213e-38
0.0221341216733 -0.0681049897639 0.92 1.88607150234e-38
0.0239662939522 -0.0684751255778 0.925 1.77558192103e-38
0.0256781720917 -0.0684751255778 0.925 1.98726991432e-38
0.0274788828265 -0.0686972070662 0.928 2.0980823548e-38
0.0292592360915 -0.0688452613918 0.93 1.71122532724e-38
0.0310803042961 -0.0690673428801 0.933 1.66559456508e-38
0.0328069878681 -0.0690673428801 0.933 2.08033070586e-38
-0.0400116814863 -0.0678458946941 0.94 2.31161992194e-38
-0.0381906132817 -0.0677015417267 0.938 2.34885634577e-38
-0.036338083533 -0.0674850122756 0.935 1.39920380338e-38
-0.0346076986028 -0.0674850122756 0.935 1.09470837332e-38
-0.0328069878681 -0.0673406593081 0.933 1.25158317588e-38
-0.0309803676263 -0.067124129857 0.93 1.08581124911e-38
-0.0291019283706 -0.0667632474384 0.925 6.61215572338e-39
-0.0273900502311 -0.0667632474384 0.925 7.53051068496e-39
-0.0256226517196 -0.0666188944709 0.923 1.49964635497e-38
-0.0239144749383 -0.0666188944709 0.923 1.4072713589e-38
-0.0221341216733 -0.0664023650198 0.92 1.57279049143e-38
-0.0203870806315 -0.0662580120524 0.918 1.50850564412e-38
-0.0186881572455 -0.0662580120524 0.918 1.51758157401e-38
-0.0169892338596 -0.0662580120524 0.918 1.49003092516e-38
-0.0152903104736 -0.0662580120524 0.918 1.52680099687e-38
-0.01354697079 -0.0660414826012 0.915 1.5451680961e-38
-0.0118535994412 -0.0660414826012 0.915 1.57293398439e-38
-0.0101602280925 -0.0660414826012 0.915 1.62825052153e-38
-0.00846685674374 -0.0660414826012 0.915 1.62828639477e-38
-0.006773485395 -0.0660414826012 0.915 1.66498471999e-38
-0.00508011404625 -0.0660414826012 0.915 1.70171891846e-38
-0.00337933998122 -0.0658971296338 0.913 1.72008601769e-38
-0.00168966999061 -0.0658971296338 0.913 1.7017547917e-38
0.0 -0.0658971296338 0.913 1.75685608939e-38
0.00169337134875 -0.0660414826012 0.915 1.72923369406e-38
0.0033867426975 -0.0660414826012 0.915 1.75685608939e-38
0.00508011404625 -0.0660414826012 0.915 1.77533080834e-38
0.006773485395 -0.0660414826012 0.915 1.77543842807e-38
0.00846685674374 -0.0660414826012 0.915 1.78465785092e-38
0.0101602280925 -0.0660414826012 0.915 1.7938055273e-38
0.0118535994412 -0.0660414826012 0.915 1.78458610444e-38
0.0135913870877 -0.0662580120524 0.918 1.7938055273e-38
0.0152903104736 -0.0662580120524 0.918 1.80291733043e-38
0.0169892338596 -0.0662580120524 0.918 1.89496806604e-38
0.0187288721851 -0.0664023650198 0.92 1.72033713037e-38
0.0204314969292 -0.0664023650198 0.92 1.88625086855e-38
0.022206298157 -0.0666188944709 0.923 1.67452700202e-38
0.0239662939522 -0.0667632474384 0.925 1.46309012141e-38
0.0257614526498 -0.0669797768895 0.928 1.84955268346e-38
0.0274788828265 -0.0669797768895 0.928 2.15325652002e-38
0.0292592360915 -0.067124129857 0.93 1.72040887685e-38
0.0309803676263 -0.067124129857 0.93 1.79459473859e-38
0.0327014991611 -0.067124129857 0.93 2.17263717843e-38
0.0344226306959 -0.067124129857 0.93 2.34936151387e-38
-0.0400116814863 -0.0661062563686 0.94 2.21949505765e-38
-0.0381906132817 -0.0659656047594 0.938 2.34914375209e-38
-0.0364546763144 -0.0659656047594 0.938 1.2886406539e-38
-0.034718739347 -0.0659656047594 0.938 7.07779038749e-39
-0.0328069878681 -0.0656139757361 0.933 1.49144175246e-38
-0.0309803676263 -0.0654029983222 0.93 1.09528178465e-38
-0.0291963130031 -0.0652623467129 0.928 5.78566848782e-39
-0.0273900502311 -0.0650513692989 0.925 6.15297824259e-39
-0.0256226517196 -0.0649107176896 0.923 1.51719649719e-38
-0.0239144749383 -0.0649107176896 0.923 1.43507312043e-38
-0.022206298157 -0.0649107176896 0.923 1.49921447478e-38
-0.0204314969292 -0.0646997402757 0.92 1.48088324879e-38
-0.0186881572455 -0.0645590886664 0.918 1.49925034802e-38
-0.0169892338596 -0.0645590886664 0.918 1.54527571582e-38
-0.0152903104736 -0.0645590886664 0.918 1.53612803945e-38
-0.0135913870877 -0.0645590886664 0.918 1.60970405609e-38
-0.0118924637017 -0.0645590886664 0.918 1.61895935219e-38
-0.0101935403157 -0.0645590886664 0.918 1.61895935219e-38
-0.00849461692979 -0.0645590886664 0.918 1.67424001609e-38
-0.00679569354383 -0.0645590886664 0.918 1.70182653818e-38
-0.00508011404625 -0.0643481112525 0.915 1.70182653818e-38
-0.0033867426975 -0.0643481112525 0.915 1.72937718703e-38
-0.00169337134875 -0.0643481112525 0.915 1.69260711532e-38
0.0 -0.0643481112525 0.915 1.72008601769e-38
0.00169337134875 -0.0643481112525 0.915 1.76611138549e-38
0.0033867426975 -0.0643481112525 0.915 1.75707132884e-38
0.00508011404625 -0.0643481112525 0.915 1.75699958235e-38
0.006773485395 -0.0643481112525 0.915 1.75689196263e-38
0.00846685674374 -0.0643481112525 0.915 1.74785190598e-38
0.0101935403157 -0.0645590886664 0.918 1.78444261148e-38
0.0118924637017 -0.0645590886664 0.918 1.76611138549e-38
0.0135913870877 -0.0645590886664 0.918 1.82146379587e-38
0.0152903104736 -0.0645590886664 0.918 1.84922968416e-38
0.017026247441 -0.0646997402757 0.92 1.46179868474e-38
0.0187288721851 -0.0646997402757 0.92 1.46208567067e-38
0.0204981213757 -0.0649107176896 0.923 1.61031390119e-38
0.0222544158128 -0.0650513692989 0.925 1.62032253534e-38
0.0240440224732 -0.0652623467129 0.928 1.08602648855e-38
0.0257614526498 -0.0652623467129 0.928 1.54574206795e-38
0.0274788828265 -0.0652623467129 0.928 2.1813468089e-38
0.0292592360915 -0.0654029983222 0.93 1.69285822801e-38
0.0309803676263 -0.0654029983222 0.93 1.72998703212e-38
0.0327014991611 -0.0654029983222 0.93 2.30138679977e-38
0.0344226306959 -0.0654029983222 0.93 2.34914599416e-38
-0.0400116814863 -0.0643666180432 0.94 2.30250937997e-38
-0.0381906132817 -0.064229667792 0.938 2.34903697314e-38
-0.0364546763144 -0.064229667792 0.938 1.27016649546e-38
-0.034718739347 -0.064229667792 0.938 6.43135459031e-39
-0.0328069878681 -0.0638872921641 0.933 1.53710614577e-38
-0.0310803042961 -0.0638872921641 0.933 1.24257731091e-38
-0.0292592360915 -0.0636818667874 0.93 9.10000420136e-39
-0.0274788828265 -0.0635449165362 0.928 9.1885718695e-39
-0.0256781720917 -0.0633394911595 0.925 1.72077321445e-38
-0.0239662939522 -0.0633394911595 0.925 1.38025880866e-38
-0.022206298157 -0.0632025409083 0.923 1.48095499527e-38
-0.0204314969292 -0.0629971155316 0.92 1.44407730384e-38
-0.0187288721851 -0.0629971155316 0.92 1.49910685506e-38
-0.0169892338596 -0.0628601652804 0.918 1.52680099687e-38
-0.0152903104736 -0.0628601652804 0.918 1.54527571582e-38
-0.0135913870877 -0.0628601652804 0.918 1.57293398439e-38
-0.0118924637017 -0.0628601652804 0.918 1.61895935219e-38
-0.0101935403157 -0.0628601652804 0.918 1.6464741278e-38
-0.00849461692979 -0.0628601652804 0.918 1.67413239637e-38
-0.00679569354383 -0.0628601652804 0.918 1.64654587428e-38
-0.00509677015787 -0.0628601652804 0.918 1.68345943895e-38
-0.0033867426975 -0.0626547399037 0.915 1.71104596103e-38
-0.00169337134875 -0.0626547399037 0.915 1.71097421455e-38
0.0 -0.0626547399037 0.915 1.75707132884e-38
0.00169337134875 -0.0626547399037 0.915 1.77540255483e-38
0.0033867426975 -0.0626547399037 0.915 1.73856073664e-38
0.00508011404625 -0.0626547399037 0.915 1.78458610444e-38
0.00679569354383 -0.0628601652804 0.918 1.73856073664e-38
0.00849461692979 -0.0628601652804 0.918 1.75699958235e-38
0.0101935403157 -0.0628601652804 0.918 1.7938055273e-38
0.0118924637017 -0.0628601652804 0.918 1.81213675329e-38
0.0135913870877 -0.0628601652804 0.918 1.78458610444e-38
0.0153236226969 -0.0629971155316 0.92 1.84011788103e-38
0.017026247441 -0.0629971155316 0.92 1.62832226801e-38
0.0187288721851 -0.0629971155316 0.92 1.4355753458e-38
0.0205425376733 -0.0633394911595 0.925 1.48221055869e-38
0.0222544158128 -0.0633394911595 0.925 1.22395909899e-38
0.0240440224732 -0.0635449165362 0.928 1.41703126257e-38
0.0257614526498 -0.0635449165362 0.928 1.57343620976e-38
0.0275381045567 -0.0636818667874 0.93 2.10744583114e-38
0.0292592360915 -0.0636818667874 0.93 1.66523583268e-38
0.0309803676263 -0.0636818667874 0.93 1.7393140747e-38
0.0327014991611 -0.0636818667874 0.93 2.28284187577e-38
0.0344226306959 -0.0636818667874 0.93 2.34921718013e-38
-0.0401393783421 -0.0628268530572 0.943 2.24719074089e-38
-0.0382720431608 -0.0626269797177 0.94 2.34910899988e-38
-0.0365324048353 -0.0626269797177 0.94 1.2517631026e-38
-0.034718739347 -0.0624937308247 0.938 1.15885225e-38
-0.0328773136727 -0.0622938574851 0.935 1.1676051806e-38
-0.0310803042961 -0.0621606085921 0.933 1.51938406423e-38
-0.0292592360915 -0.0619607352526 0.93 1.28835156602e-38
-0.0274788828265 -0.0618274863596 0.928 1.41695713388e-38
-0.0256781720917 -0.06162761302 0.925 1.55503323729e-38
-0.0239662939522 -0.06162761302 0.925 1.42603306378e-38
-0.0222544158128 -0.06162761302 0.925 1.48084737555e-38
-0.0204981213757 -0.061494364127 0.923 1.52687274335e-38
-0.0187288721851 -0.0612944907875 0.92 1.52690861659e-38
-0.017026247441 -0.0612944907875 0.92 1.59126521038e-38
-0.0152903104736 -0.0611612418945 0.918 1.60984754906e-38
-0.0135913870877 -0.0611612418945 0.918 1.57307747735e-38
-0.0118924637017 -0.0611612418945 0.918 1.62825052153e-38
-0.0101935403157 -0.0611612418945 0.918 1.65580117038e-38
-0.00849461692979 -0.0611612418945 0.918 1.66498471999e-38
-0.00679569354383 -0.0611612418945 0.918 1.6559087901e-38
-0.00509677015787 -0.0611612418945 0.918 1.68345943895e-38
-0.00339784677192 -0.0611612418945 0.918 1.71104596103e-38
-0.00169892338596 -0.0611612418945 0.918 1.7017547917e-38
0.0 -0.0611612418945 0.918 1.77540255483e-38
0.00169892338596 -0.0611612418945 0.918 1.7477801595e-38
0.00339784677192 -0.0611612418945 0.918 1.7938055273e-38
0.00509677015787 -0.0611612418945 0.918 1.7938055273e-38
0.00679569354383 -0.0611612418945 0.918 1.77536668159e-38
0.00849461692979 -0.0611612418945 0.918 1.73863248312e-38
0.0101935403157 -0.0611612418945 0.918 1.81220849977e-38
0.0118924637017 -0.0611612418945 0.918 1.81213675329e-38
0.0136209979528 -0.0612944907875 0.92 1.81220849977e-38
0.0153236226969 -0.0612944907875 0.92 1.87678033301e-38
0.0170817678131 -0.061494364127 0.923 1.67467049498e-38
0.0187899445944 -0.061494364127 0.923 1.21438094373e-38
0.0205425376733 -0.06162761302 0.925 1.61971269025e-38
0.0222544158128 -0.06162761302 0.925 1.56392980098e-38
0.0240440224732 -0.0618274863596 0.928 1.73902708877e-38
0.0257614526498 -0.0618274863596 0.928 1.92327205294e-38
0.0275381045567 -0.0619607352526 0.93 2.04287343739e-38
0.0292592360915 -0.0619607352526 0.93 1.63725470494e-38
0.0309803676263 -0.0619607352526 0.93 1.86824544445e-38
0.0327014991611 -0.0619607352526 0.93 2.25536269314e-38
0.0344226306959 -0.0619607352526 0.93 2.34932451959e-38
-0.0401393783421 -0.0610816626945 0.943 2.34860397192e-38
-0.0382720431608 -0.0608873413922 0.94 2.34889291966e-38
-0.0365324048353 -0.0608873413922 0.94 1.24265045869e-38
-0.0347927665098 -0.0608873413922 0.94 1.36179053568e-38
-0.0329828023797 -0.0607577938573 0.938 5.32645877716e-39
-0.0310803042961 -0.0604339250201 0.933 1.47303191362e-38
-0.0292592360915 -0.0602396037178 0.93 1.33419756762e-38
-0.0274788828265 -0.0601100561829 0.928 1.37060890692e-38
-0.0256781720917 -0.0599157348806 0.925 1.47173557241e-38
-0.0239662939522 -0.0599157348806 0.925 1.48099086851e-38
-0.0222544158128 -0.0599157348806 0.925 1.55456688516e-38
-0.0205425376733 -0.0599157348806 0.925 1.52705210955e-38
-0.0187899445944 -0.0597861873457 0.923 1.5546027584e-38
-0.0170817678131 -0.0597861873457 0.923 1.59130108362e-38
-0.0153236226969 -0.0595918660434 0.92 1.59140870334e-38
-0.0136209979528 -0.0595918660434 0.92 1.60973992933e-38
-0.0119183732087 -0.0595918660434 0.92 1.61895935219e-38
-0.0102157484646 -0.0595918660434 0.92 1.66502059323e-38
-0.00851312372049 -0.0595918660434 0.92 1.69257124208e-38
-0.00681049897639 -0.0595918660434 0.92 1.69257124208e-38
-0.00510787423229 -0.0595918660434 0.92 1.68349531219e-38
-0.00339784677192 -0.0594623185085 0.918 1.71104596103e-38
-0.00169892338596 -0.0594623185085 0.918 1.75699958235e-38
0.0 -0.0594623185085 0.918 1.72008601769e-38
0.00169892338596 -0.0594623185085 0.918 1.77533080834e-38
0.00339784677192 -0.0594623185085 0.918 1.74767253978e-38
0.00509677015787 -0.0594623185085 0.918 1.75699958235e-38
0.00679569354383 -0.0594623185085 0.918 1.77536668159e-38
0.00849461692979 -0.0594623185085 0.918 1.77543842807e-38
0.0101935403157 -0.0594623185085 0.918 1.7938055273e-38
0.0119183732087 -0.0595918660434 0.92 1.81213675329e-38
0.0136209979528 -0.0595918660434 0.92 1.81213675329e-38
0.0153236226969 -0.0595918660434 0.92 1.92273395433e-38
0.0170817678131 -0.0597861873457 0.923 1.43410454293e-38
0.0188306595339 -0.0599157348806 0.925 1.79427187943e-38
0.0205425376733 -0.0599157348806 0.925 2.00664146429e-38
