# .PCD v0.7 - Point Cloud Data file format
VERSION 0.7
FIELDS x y z rgb
SIZE 4 4 4 4
TYPE F F F F
COUNT 1 1 1 1
WIDTH 840
HEIGHT 1
VIEWPOINT 0 0 0 1 0 0 0
POINTS 840
DATA ascii
0.00670686094849 -0.0888659075675 0.906 1.69257124208e-38
0.00838357618561 -0.0888659075675 0.906 1.7017547917e-38
0.0100602914227 -0.0888659075675 0.906 1.75714307532e-38
0.0117370066599 -0.0888659075675 0.906 1.72959242647e-38
0.013413721897 -0.0888659075675 0.906 1.58218928049e-38
0.0151237493574 -0.0890620795488 0.908 1.74803127218e-38
0.0168041659526 -0.0890620795488 0.908 1.55474625136e-38
0.0184845825479 -0.0890620795488 0.908 1.50904374273e-38
0.0202094154408 -0.0892582515302 0.91 1.25965297347e-38
0.0220138275337 -0.0897486814837 0.915 1.59958780222e-38
0.0237071988825 -0.0897486814837 0.915 1.43378168377e-38
0.0254005702312 -0.0897486814837 0.915 1.8953688374e-38
0.02709394158 -0.0897486814837 0.915 1.8032401896e-38
0.0287873129287 -0.0897486814837 0.915 1.95021285669e-38
0.0304806842775 -0.0897486814837 0.915 1.40655389409e-38
-0.0375798891887 -0.0888251926279 0.923 2.31201438746e-38
-0.0358717124074 -0.0888251926279 0.923 7.62593350518e-39
-0.0340524948819 -0.0885364866931 0.92 1.22259591584e-38
-0.0323498701378 -0.0885364866931 0.92 1.25039767738e-38
-0.0306472453938 -0.0885364866931 0.92 1.3427353989e-38
-0.0288816975613 -0.0883440160698 0.918 1.37968483681e-38
-0.0271827741753 -0.0883440160698 0.918 1.39794431632e-38
-0.0254005702312 -0.0880553101349 0.915 1.59158806955e-38
-0.0237071988825 -0.0880553101349 0.915 1.16781747732e-38
-0.0220138275337 -0.0880553101349 0.915 1.24128587424e-38
-0.020320456185 -0.0880553101349 0.915 1.09341637613e-38
-0.0185863698967 -0.0878628395117 0.913 1.28777759417e-38
-0.0168966999061 -0.0878628395117 0.913 7.44441490731e-39
-0.0151570615806 -0.0875741335768 0.91 1.22313513549e-38
-0.0134729436272 -0.0875741335768 0.91 9.83500766667e-39
-0.0117629161668 -0.0873816629536 0.908 1.16724350546e-38
-0.0100824995716 -0.0873816629536 0.908 1.28569694621e-38
-0.00840208297631 -0.0873816629536 0.908 1.28655790399e-38
-0.00672166638105 -0.0873816629536 0.908 1.50811215951e-38
-0.00504124978578 -0.0873816629536 0.908 1.1212540109e-38
-0.00336083319052 -0.0873816629536 0.908 1.48117023471e-38
-0.00168041659526 -0.0873816629536 0.908 1.54588556091e-38
0.0 -0.0873816629536 0.908 1.60095098537e-38
0.00168041659526 -0.0873816629536 0.908 1.67416826961e-38
0.00336083319052 -0.0873816629536 0.908 1.75714307532e-38
0.00503014571137 -0.0871891923303 0.906 1.70200590438e-38
0.00670686094849 -0.0871891923303 0.906 1.42556671165e-38
0.00838357618561 -0.0871891923303 0.906 1.54617254684e-38
0.0100602914227 -0.0871891923303 0.906 1.11239332045e-38
0.0117370066599 -0.0871891923303 0.906 1.3142520458e-38
0.0134433327621 -0.0873816629536 0.908 1.36085138545e-38
0.0151237493574 -0.0873816629536 0.908 1.20326023911e-38
0.0168041659526 -0.0873816629536 0.908 1.32329210245e-38
0.0185252974874 -0.0875741335768 0.91 1.40723618631e-38
0.0202760398873 -0.0878628395117 0.913 1.06697779774e-38
0.0220138275337 -0.0880553101349 0.915 1.70258239857e-38
0.0237071988825 -0.0880553101349 0.915 1.26847779068e-38
0.0254005702312 -0.0880553101349 0.915 1.91362243145e-38
0.02709394158 -0.0880553101349 0.915 1.85830561405e-38
0.0288816975613 -0.0883440160698 0.918 1.94120867328e-38
0.0305806209472 -0.0883440160698 0.918 1.1020259539e-38
0.0322795443332 -0.0883440160698 0.918 2.34630247932e-38
-0.0358717124074 -0.0871170158466 0.923 7.07240940139e-39
-0.0341635356261 -0.0871170158466 0.923 1.25043355062e-38
-0.0324553588448 -0.0871170158466 0.923 1.25983233968e-38
-0.0306472453938 -0.086833861949 0.92 1.37032192099e-38
-0.0289446206497 -0.086833861949 0.92 1.42588957082e-38
-0.0271827741753 -0.0866450926839 0.918 1.41631141555e-38
-0.0254838507894 -0.0866450926839 0.918 1.62832226801e-38
-0.0237071988825 -0.0863619387862 0.915 1.39790844308e-38
-0.0220138275337 -0.0863619387862 0.915 1.5085773906e-38
-0.020320456185 -0.0863619387862 0.915 1.1314778845e-38
-0.0186270848362 -0.0863619387862 0.915 8.82589340615e-39
-0.0168966999061 -0.0861731695211 0.913 1.01187650005e-38
-0.0151570615806 -0.0858900156234 0.91 1.53648733237e-38
-0.0134729436272 -0.0858900156234 0.91 1.01076442959e-38
-0.0117888256738 -0.0858900156234 0.91 1.34252015946e-38
-0.0100824995716 -0.0857012463583 0.908 1.03774110659e-38
-0.00840208297631 -0.0857012463583 0.908 1.4715618114e-38
-0.00672166638105 -0.0857012463583 0.908 1.0488618112e-38
-0.00504124978578 -0.0857012463583 0.908 1.42682339611e-38
-0.00336083319052 -0.0857012463583 0.908 1.20552025328e-38
-0.00168041659526 -0.0857012463583 0.908 1.5272016281e-38
0.0 -0.0857012463583 0.908 1.60102273185e-38
0.00168041659526 -0.0857012463583 0.908 1.66498471999e-38
0.00336083319052 -0.0857012463583 0.908 1.64654587428e-38
0.00504124978578 -0.0857012463583 0.908 1.67441938229e-38
0.00672166638105 -0.0857012463583 0.908 1.17646292832e-38
0.00840208297631 -0.0857012463583 0.908 1.31608158107e-38
0.0100824995716 -0.0857012463583 0.908 1.32540862365e-38
0.0117629161668 -0.0857012463583 0.908 1.35231411469e-38
0.0134433327621 -0.0857012463583 0.908 1.35260054009e-38
0.0151237493574 -0.0857012463583 0.908 1.57307747735e-38
0.016841179534 -0.0858900156234 0.91 1.4155580775e-38
0.0185863698967 -0.0861731695211 0.913 1.3966887529e-38
0.0202760398873 -0.0861731695211 0.913 1.57286223791e-38
0.0220138275337 -0.0863619387862 0.915 1.71147643992e-38
0.0237849274034 -0.0866450926839 0.918 1.83089845817e-38
0.0254838507894 -0.0866450926839 0.918 1.90440272834e-38
0.0271827741753 -0.0866450926839 0.918 1.75707132884e-38
0.0288816975613 -0.0866450926839 0.918 1.65519132529e-38
0.0305806209472 -0.0866450926839 0.918 1.50728595393e-38
-0.0399265502491 -0.0867968483676 0.938 2.23775411677e-38
-0.0376613190678 -0.0855939069723 0.925 2.30283041745e-38
-0.0359494409284 -0.0855939069723 0.925 7.07133320417e-39
-0.0341635356261 -0.0854088390653 0.923 1.24135762072e-38
-0.0324553588448 -0.0854088390653 0.923 1.37060890692e-38
-0.0307471820635 -0.0854088390653 0.923 1.35220593445e-38
-0.0289446206497 -0.0851312372049 0.92 1.41641903527e-38
-0.0272419959056 -0.0851312372049 0.92 1.42520797924e-38
-0.0254838507894 -0.0849461692979 0.918 1.6743842097e-38
-0.0237071988825 -0.0846685674374 0.915 1.15870567418e-38
-0.0220138275337 -0.0846685674374 0.915 1.43521661339e-38
-0.0203870806315 -0.0849461692979 0.918 1.31565110219e-38
-0.0186270848362 -0.0846685674374 0.915 1.09431320715e-38
-0.0169337134875 -0.0846685674374 0.915 1.10281516519e-38
-0.0152070299155 -0.0844834995305 0.913 1.32325622921e-38
-0.0135173599249 -0.0844834995305 0.913 1.07447530505e-38
-0.0118276899343 -0.0844834995305 0.913 1.3338406569e-38
-0.0100824995716 -0.0840208297631 0.908 1.2148831691e-38
-0.00840208297631 -0.0840208297631 0.908 1.3069339047e-38
-0.0067364718136 -0.08420589767 0.91 1.2695539879e-38
-0.0050523538602 -0.08420589767 0.91 1.53605629296e-38
-0.0033682359068 -0.08420589767 0.91 1.18503663284e-38
-0.00168041659526 -0.0840208297631 0.908 1.81192543748e-38
0.0 -0.0840208297631 0.908 1.65580117038e-38
0.00168041659526 -0.0840208297631 0.908 1.70171891846e-38
0.00336083319052 -0.0840208297631 0.908 1.69260711532e-38
0.00504124978578 -0.0840208297631 0.908 1.60970405609e-38
0.00672166638105 -0.0840208297631 0.908 1.85884525409e-38
0.00840208297631 -0.0840208297631 0.908 1.49035378433e-38
0.0100824995716 -0.0840208297631 0.908 1.31561522894e-38
0.0117629161668 -0.0840208297631 0.908 1.2974992424e-38
0.0134433327621 -0.0840208297631 0.908 1.29775035508e-38
0.0151570615806 -0.08420589767 0.91 1.14962974429e-38
0.016841179534 -0.08420589767 0.91 1.39733447123e-38
0.0185863698967 -0.0844834995305 0.913 1.37850101987e-38
0.020320456185 -0.0846685674374 0.915 1.94124510704e-38
0.0220138275337 -0.0846685674374 0.915 1.89525505196e-38
0.0237849274034 -0.0849461692979 0.918 1.85844910702e-38
0.0254838507894 -0.0849461692979 0.918 1.69275060828e-38
0.0271827741753 -0.0849461692979 0.918 1.4898874322e-38
0.0288816975613 -0.0849461692979 0.918 1.73766488653e-38
0.0305806209472 -0.0849461692979 0.918 1.82164316207e-38
0.0326311733564 -0.0858715088327 0.928 2.27350964838e-38
-0.0399265502491 -0.0850609114002 0.938 2.34853082414e-38
-0.0381906132817 -0.0850609114002 0.938 2.32123465109e-38
-0.0360660337097 -0.0841540786561 0.928 7.34791588986e-39
-0.0342375627889 -0.0838820288328 0.925 1.31468252469e-38
-0.0325256846495 -0.0838820288328 0.925 1.3061446934e-38
-0.0307471820635 -0.083700662284 0.923 1.3614253573e-38
-0.0289446206497 -0.0834286124608 0.92 1.39794431632e-38
-0.0272419959056 -0.0834286124608 0.92 1.43453502182e-38
-0.0254838507894 -0.0832472459119 0.918 1.70215177955e-38
-0.0237071988825 -0.0829751960887 0.915 8.63791762495e-39
-0.0220138275337 -0.0829751960887 0.915 1.17657054804e-38
-0.0203870806315 -0.0832472459119 0.918 1.32411718699e-38
-0.0186270848362 -0.0829751960887 0.915 1.38933473856e-38
-0.0169337134875 -0.0829751960887 0.915 1.44465127569e-38
-0.0152403421387 -0.0829751960887 0.915 1.49038965757e-38
-0.0135173599249 -0.0827938295399 0.913 1.49038965757e-38
-0.0118276899343 -0.0827938295399 0.913 1.38940648504e-38
-0.0101380199437 -0.0827938295399 0.913 1.24185984609e-38
-0.00844834995305 -0.0827938295399 0.913 1.61024229483e-38
-0.00675867996244 -0.0827938295399 0.913 1.80313256988e-38
-0.0050523538602 -0.0825217797166 0.91 1.72952067999e-38
-0.0033682359068 -0.0825217797166 0.91 1.71108183427e-38
-0.0016841179534 -0.0825217797166 0.91 1.68349531219e-38
0.0 -0.0825217797166 0.91 1.68349531219e-38
0.0016841179534 -0.0825217797166 0.91 1.68328007274e-38
0.00337933998122 -0.0827938295399 0.913 1.70179066494e-38
0.00506900997183 -0.0827938295399 0.913 1.66502059323e-38
0.00675867996244 -0.0827938295399 0.913 1.68345943895e-38
0.00844834995305 -0.0827938295399 0.913 1.79409251322e-38
0.0101380199437 -0.0827938295399 0.913 1.16745874491e-38
0.0118276899343 -0.0827938295399 0.913 1.3142520458e-38
0.0135173599249 -0.0827938295399 0.913 1.44379031792e-38
0.0152070299155 -0.0827938295399 0.913 1.44454365597e-38
0.0169337134875 -0.0829751960887 0.915 1.58269150586e-38
0.0186270848362 -0.0829751960887 0.915 1.70225701707e-38
0.0203870806315 -0.0832472459119 0.918 1.79409251322e-38
0.0221341216733 -0.0834286124608 0.92 1.56314058968e-38
0.0239144749383 -0.083700662284 0.923 1.43406866969e-38
0.0256226517196 -0.083700662284 0.923 1.51797617966e-38
0.0273900502311 -0.0838820288328 0.925 1.47177144565e-38
0.0289446206497 -0.0834286124608 0.92 2.29162255207e-38
0.0306472453938 -0.0834286124608 0.92 1.0846633054e-38
0.0326311733564 -0.0841540786561 0.928 2.34755804274e-38
-0.0399265502491 -0.0833249744329 0.938 2.24708242051e-38
-0.0381906132817 -0.0833249744329 0.938 2.32098409893e-38
-0.0361437622307 -0.0826143136701 0.93 8.91306538102e-39
-0.0343486035331 -0.0824366484794 0.928 1.37025017451e-38
-0.0325256846495 -0.0821701506934 0.925 1.34298651159e-38
-0.0307471820635 -0.0819924855027 0.923 1.40723548566e-38
-0.0289446206497 -0.0817259877167 0.92 1.36121011786e-38
-0.0272419959056 -0.0817259877167 0.92 1.36121011786e-38
-0.0254838507894 -0.081548322526 0.918 1.65612487032e-38
-0.0237071988825 -0.08128182474 0.915 9.1889306019e-39
-0.0220138275337 -0.08128182474 0.915 1.25904312838e-38
-0.0203870806315 -0.081548322526 0.918 1.30575022789e-38
-0.0186270848362 -0.08128182474 0.915 9.84218231481e-39
-0.0169337134875 -0.08128182474 0.915 1.18575409766e-38
-0.0152403421387 -0.08128182474 0.915 1.17549435082e-38
-0.0135173599249 -0.0811041595493 0.913 1.45333259994e-38
-0.0118276899343 -0.0811041595493 0.913 1.3340899479e-38
-0.0101380199437 -0.0811041595493 0.913 1.41717237333e-38
-0.00844834995305 -0.0811041595493 0.913 1.44479476866e-38
-0.00675867996244 -0.0811041595493 0.913 1.57340033652e-38
-0.00506900997183 -0.0811041595493 0.913 1.61917459164e-38
-0.00337933998122 -0.0811041595493 0.913 1.63764931059e-38
-0.0016841179534 -0.0808376617632 0.91 1.72033713037e-38
0.0 -0.0808376617632 0.91 1.68356705867e-38
0.00168966999061 -0.0811041595493 0.913 1.66530757916e-38
0.00337933998122 -0.0811041595493 0.913 1.59169568927e-38
0.00506900997183 -0.0811041595493 0.913 1.70232876355e-38
0.006773485395 -0.08128182474 0.915 1.63782867679e-38
0.00844834995305 -0.0811041595493 0.913 1.64704809965e-38
0.0101380199437 -0.0811041595493 0.913 1.66559456508e-38
0.0118276899343 -0.0811041595493 0.913 1.69307346745e-38
0.0135173599249 -0.0811041595493 0.913 1.46283900872e-38
0.0152070299155 -0.0811041595493 0.913 1.68388991783e-38
0.0169337134875 -0.08128182474 0.915 1.14812306818e-38
0.0186270848362 -0.08128182474 0.915 1.70143193253e-38
0.0203870806315 -0.081548322526 0.918 1.61921046488e-38
0.0221341216733 -0.0817259877167 0.92 1.47195081186e-38
0.0239144749383 -0.0819924855027 0.923 1.43421216265e-38
0.0256226517196 -0.0819924855027 0.923 1.76621900521e-38
0.0273308285009 -0.0819924855027 0.923 2.18166924768e-38
0.0291019283706 -0.0821701506934 0.925 1.99717807537e-38
0.03081380651 -0.0821701506934 0.925 8.72437213501e-39
0.0326311733564 -0.0824366484794 0.928 2.34881921136e-38
0.0343486035331 -0.0824366484794 0.928 2.30279510473e-38
-0.0399265502491 -0.0815890374655 0.938 2.26552350831e-38
-0.0381906132817 -0.0815890374655 0.938 2.3394232249e-38
-0.0362603550121 -0.0811541278841 0.933 9.65133667435e-39
-0.0344226306959 -0.0808931821353 0.93 1.31500538385e-38
-0.0326311733564 -0.0807192183028 0.928 1.34287889187e-38
-0.03081380651 -0.0804582725539 0.925 1.37964896357e-38
-0.0289446206497 -0.0800233629726 0.92 1.43475026127e-38
-0.0272419959056 -0.0800233629726 0.92 1.42553083841e-38
-0.0254838507894 -0.07984939914 0.918 1.48073975583e-38
-0.0237071988825 -0.0795884533912 0.915 1.64704809965e-38
-0.0220138275337 -0.0795884533912 0.915 1.49957320719e-38
-0.0203870806315 -0.07984939914 0.918 1.38915537235e-38
-0.0186881572455 -0.07984939914 0.918 1.09370336206e-38
-0.0169337134875 -0.0795884533912 0.915 1.41512759861e-38
-0.0152403421387 -0.0795884533912 0.915 1.1208952785e-38
-0.01354697079 -0.0795884533912 0.915 1.27823545228e-38
-0.0118535994412 -0.0795884533912 0.915 1.29728442334e-38
-0.0101380199437 -0.0794144895587 0.913 1.15877840157e-38
-0.00844834995305 -0.0794144895587 0.913 1.26058567773e-38
-0.00675867996244 -0.0794144895587 0.913 1.34198206085e-38
-0.00508011404625 -0.0795884533912 0.915 1.32436829967e-38
-0.0033867426975 -0.0795884533912 0.915 1.47184319214e-38
-0.00168966999061 -0.0794144895587 0.913 1.56367868829e-38
0.0 -0.0794144895587 0.913 1.3329420042e-38
0.00169337134875 -0.0795884533912 0.915 1.59115759066e-38
0.0033867426975 -0.0795884533912 0.915 1.19490177403e-38
0.00508011404625 -0.0795884533912 0.915 1.61881585923e-38
0.006773485395 -0.0795884533912 0.915 1.37929023116e-38
0.00844834995305 -0.0794144895587 0.913 1.41566569722e-38
0.0101380199437 -0.0794144895587 0.913 1.56364281505e-38
0.0118276899343 -0.0794144895587 0.913 1.4440414306e-38
0.0135173599249 -0.0794144895587 0.913 1.20512564763e-38
0.0152403421387 -0.0795884533912 0.915 1.61017321082e-38
0.0169337134875 -0.0795884533912 0.915 1.11120950351e-38
0.0186881572455 -0.07984939914 0.918 1.64564904326e-38
0.0203870806315 -0.07984939914 0.918 1.5536341809e-38
0.0221341216733 -0.0800233629726 0.92 1.73863374429e-38
0.0239144749383 -0.0802843087214 0.923 2.01578942093e-38
0.0256226517196 -0.0802843087214 0.923 2.08033336832e-38
0.0273308285009 -0.0802843087214 0.923 1.79445124563e-38
0.0291019283706 -0.0804582725539 0.925 1.60999104202e-38
0.0309137431798 -0.0807192183028 0.928 1.12039305313e-38
0.0326311733564 -0.0807192183028 0.928 2.34885662603e-38
0.0343486035331 -0.0807192183028 0.928 2.32112661098e-38
-0.0380684684631 -0.0795977067866 0.935 2.34882145344e-38
-0.0362603550121 -0.0794274443121 0.933 9.5598599106e-39
-0.0345336714401 -0.0794274443121 0.933 1.30571421452e-38
-0.0327014991611 -0.0791720506005 0.93 1.38894013291e-38
-0.03081380651 -0.0787463944145 0.925 1.42571020461e-38
-0.0290390052822 -0.0785761319401 0.923 1.46244440308e-38
-0.0273308285009 -0.0785761319401 0.923 1.43475026127e-38
-0.0255393711615 -0.0783207382285 0.92 1.50843389764e-38
-0.0237849274034 -0.0781504757541 0.918 1.40691262649e-38
-0.0220860040175 -0.0781504757541 0.918 1.51736633457e-38
-0.0203870806315 -0.0781504757541 0.918 1.57293398439e-38
-0.0186881572455 -0.0781504757541 0.918 1.74828294539e-38
-0.0169892338596 -0.0781504757541 0.918 1.58237032825e-38
-0.0152403421387 -0.0778950820425 0.915 1.49042553081e-38
-0.01354697079 -0.0778950820425 0.915 1.38944235828e-38
-0.0118535994412 -0.0778950820425 0.915 1.47177144565e-38
-0.0101602280925 -0.0778950820425 0.915 1.31418029932e-38
-0.00846685674374 -0.0778950820425 0.915 1.63775693031e-38
-0.006773485395 -0.0778950820425 0.915 1.41570157046e-38
-0.00508011404625 -0.0778950820425 0.915 1.33287025771e-38
-0.0033867426975 -0.0778950820425 0.915 1.43392517673e-38
-0.00169337134875 -0.0778950820425 0.915 1.2955620874e-38
0.0 -0.0778950820425 0.915 1.3872540906e-38
0.00169337134875 -0.0778950820425 0.915 1.46115296641e-38
0.0033867426975 -0.0778950820425 0.915 1.40619516168e-38
0.00508011404625 -0.0778950820425 0.915 1.71043611594e-38
0.006773485395 -0.0778950820425 0.915 1.40644627436e-38
0.00846685674374 -0.0778950820425 0.915 1.7477801595e-38
0.0101602280925 -0.0778950820425 0.915 1.31360632747e-38
0.0118535994412 -0.0778950820425 0.915 1.4889188547e-38
0.01354697079 -0.0778950820425 0.915 1.45268688161e-38
0.0152403421387 -0.0778950820425 0.915 1.70229289031e-38
0.0169892338596 -0.0781504757541 0.918 1.60102273185e-38
0.0186881572455 -0.0781504757541 0.918 1.96032911057e-38
0.0204314969292 -0.0783207382285 0.92 2.01572089743e-38
0.0221341216733 -0.0783207382285 0.92 1.98820261858e-38
0.0239662939522 -0.0787463944145 0.925 1.9235949121e-38
0.0256781720917 -0.0787463944145 0.925 1.60959643637e-38
0.0273900502311 -0.0787463944145 0.925 1.52687274335e-38
0.0291963130031 -0.0790017881261 0.928 1.76650599114e-38
0.0309137431798 -0.0790017881261 0.928 1.2957414536e-38
0.0327014991611 -0.0791720506005 0.93 2.34886040954e-38
0.0344226306959 -0.0791720506005 0.93 2.29346806215e-38
-0.0380684684631 -0.0778673218564 0.935 2.33952916306e-38
-0.0362603550121 -0.0777007607401 0.933 8.73011185352e-39
-0.0345336714401 -0.0777007607401 0.933 1.36081551221e-38
-0.0327014991611 -0.0774509190657 0.93 1.37964896357e-38
-0.03081380651 -0.0770345162751 0.925 1.47152033297e-38
-0.0291019283706 -0.0770345162751 0.925 1.44396968412e-38
-0.0273308285009 -0.0768679551588 0.923 1.44396968412e-38
-0.0255393711615 -0.0766181134844 0.92 1.48077562907e-38
-0.0237849274034 -0.0764515523681 0.918 1.43467851478e-38
-0.0220860040175 -0.0764515523681 0.918 1.49896336209e-38
-0.0204314969292 -0.0766181134844 0.92 1.50807516523e-38
-0.0186881572455 -0.0764515523681 0.918 1.52680099687e-38
-0.0169892338596 -0.0764515523681 0.918 1.52690861659e-38
-0.0152403421387 -0.0762017106937 0.915 1.57304160411e-38
-0.01354697079 -0.0762017106937 0.915 1.60073574592e-38
-0.0118535994412 -0.0762017106937 0.915 1.7208034825e-38
-0.0101602280925 -0.0762017106937 0.915 1.87767730415e-38
-0.00846685674374 -0.0762017106937 0.915 1.79459473859e-38
-0.006773485395 -0.0762017106937 0.915 1.74857413521e-38
-0.00508011404625 -0.0762017106937 0.915 1.72087522898e-38
-0.0033867426975 -0.0762017106937 0.915 1.74835413135e-38
-0.00169337134875 -0.0762017106937 0.915 1.69310934069e-38
0.0 -0.0762017106937 0.915 1.64708397289e-38
0.00169337134875 -0.0762017106937 0.915 1.62871687366e-38
0.0033867426975 -0.0762017106937 0.915 1.63804391624e-38
0.00508011404625 -0.0762017106937 0.915 1.67452700202e-38
0.006773485395 -0.0762017106937 0.915 1.74824651163e-38
0.00846685674374 -0.0762017106937 0.915 1.74828238487e-38
0.0101602280925 -0.0762017106937 0.915 1.94189250693e-38
0.0118535994412 -0.0762017106937 0.915 1.82229546651e-38
0.01354697079 -0.0762017106937 0.915 1.86842186793e-38
0.0152903104736 -0.0764515523681 0.918 1.79466648507e-38
0.0169892338596 -0.0764515523681 0.918 1.9421055043e-38
0.0186881572455 -0.0764515523681 0.918 1.84998302221e-38
0.0204314969292 -0.0766181134844 0.92 1.5919826752e-38
0.022206298157 -0.0768679551588 0.923 1.48084737555e-38
0.0239662939522 -0.0770345162751 0.925 1.6739889034e-38
0.0256781720917 -0.0770345162751 0.925 1.49928622126e-38
0.0273900502311 -0.0770345162751 0.925 1.7300587786e-38
0.0291963130031 -0.0772843579495 0.928 1.66466186083e-38
0.0309137431798 -0.0772843579495 0.928 1.7652146946e-38
0.0327014991611 -0.0774509190657 0.93 2.34896929043e-38
0.0344226306959 -0.0774509190657 0.93 2.30254315127e-38
-0.0380684684631 -0.0761369369263 0.935 2.3487132732e-38
-0.0362603550121 -0.0759740771681 0.933 1.06669081182e-38
-0.0345336714401 -0.0759740771681 0.933 1.34302238483e-38
-0.0327014991611 -0.0757297875309 0.93 1.38890425967e-38
-0.0309137431798 -0.0755669277728 0.928 1.46230091011e-38
-0.0291019283706 -0.0753226381356 0.925 1.4532967267e-38
-0.0273308285009 -0.0751597783775 0.923 1.46244440308e-38
-0.0255393711615 -0.0749154887403 0.92 1.46244440308e-38
-0.0238367464174 -0.0749154887403 0.92 1.49003092516e-38
-0.0221341216733 -0.0749154887403 0.92 1.56392980098e-38
-0.0204314969292 -0.0749154887403 0.92 1.5085773906e-38
-0.0186881572455 -0.0747526289822 0.918 1.5085773906e-38
-0.0169892338596 -0.0747526289822 0.918 1.50829040467e-38
-0.0152903104736 -0.0747526289822 0.918 1.59108584418e-38
-0.0135913870877 -0.0747526289822 0.918 1.72065998954e-38
-0.0118535994412 -0.074508339345 0.915 1.57307747735e-38
-0.0101602280925 -0.074508339345 0.915 1.51808379938e-38
-0.00846685674374 -0.074508339345 0.915 1.51855015151e-38
-0.006773485395 -0.074508339345 0.915 1.61063676035e-38
-0.00508011404625 -0.074508339345 0.915 1.61063676035e-38
-0.0033867426975 -0.074508339345 0.915 1.87778842712e-38
-0.00169337134875 -0.074508339345 0.915 1.81329100283e-38
0.0 -0.074508339345 0.915 1.73967490905e-38
0.00169337134875 -0.074508339345 0.915 1.74893006502e-38
0.0033867426975 -0.074508339345 0.915 1.8134650441e-38
0.00508011404625 -0.074508339345 0.915 1.9054490779e-38
0.006773485395 -0.074508339345 0.915 1.7302381448e-38
0.00849461692979 -0.0747526289822 0.918 1.70275938257e-38
0.0101935403157 -0.0747526289822 0.918 1.74860524403e-38
0.0118924637017 -0.0747526289822 0.918 1.55503323729e-38
0.0135913870877 -0.0747526289822 0.918 1.39848241493e-38
0.0152903104736 -0.0747526289822 0.918 1.33337248308e-38
0.017026247441 -0.0749154887403 0.92 1.46201392419e-38
0.0187288721851 -0.0749154887403 0.92 1.44296523338e-38
0.0204314969292 -0.0749154887403 0.92 1.3061446934e-38
0.022206298157 -0.0751597783775 0.923 1.62854031005e-38
0.0239662939522 -0.0753226381356 0.925 1.55467450488e-38
0.0257614526498 -0.0755669277728 0.928 1.74864293896e-38
0.0274788828265 -0.0755669277728 0.928 1.56428853338e-38
0.0291963130031 -0.0755669277728 0.928 1.57185778717e-38
0.0309137431798 -0.0755669277728 0.928 2.17180704922e-38
0.0327014991611 -0.0757297875309 0.93 2.34885802733e-38
0.0344226306959 -0.0757297875309 0.93 2.33009267907e-38
-0.0380684684631 -0.0744065519961 0.935 2.28403325972e-38
-0.0362603550121 -0.0742473935961 0.933 1.19554875353e-38
-0.0345336714401 -0.0742473935961 0.933 1.37961309033e-38
-0.0327014991611 -0.0740086559961 0.93 1.40741485186e-38
-0.0309803676263 -0.0740086559961 0.93 1.41641903527e-38
-0.0291963130031 -0.0738494975962 0.928 1.44396968412e-38
-0.0273900502311 -0.0736107599962 0.925 1.44389793764e-38
-0.0256226517196 -0.0734516015962 0.923 1.48070388258e-38
-0.0238367464174 -0.0732128639962 0.92 1.53580518028e-38
-0.0221341216733 -0.0732128639962 0.92 1.49003092516e-38
-0.0204314969292 -0.0732128639962 0.92 1.49003092516e-38
-0.0186881572455 -0.0730537055962 0.918 1.60970405609e-38
-0.0169892338596 -0.0730537055962 0.918 1.57293398439e-38
-0.0152903104736 -0.0730537055962 0.918 1.54531158906e-38
-0.0135913870877 -0.0730537055962 0.918 1.74821077852e-38
-0.0118924637017 -0.0730537055962 0.918 1.46280313548e-38
-0.0101935403157 -0.0730537055962 0.918 1.13144201126e-38
-0.00846685674374 -0.0728149679962 0.915 1.26905176253e-38
-0.006773485395 -0.0728149679962 0.915 1.47195081186e-38
-0.00508011404625 -0.0728149679962 0.915 1.3331213704e-38
-0.0033867426975 -0.0728149679962 0.915 1.5453474623e-38
-0.00169337134875 -0.0728149679962 0.915 1.28670139695e-38
0.0 -0.0728149679962 0.915 1.27672863604e-38
0.00169892338596 -0.0730537055962 0.918 1.5264781377e-38
0.00339784677192 -0.0730537055962 0.918 1.53555406759e-38
0.00509677015787 -0.0730537055962 0.918 1.41534283805e-38
0.00679569354383 -0.0730537055962 0.918 1.3235073419e-38
0.00849461692979 -0.0730537055962 0.918 1.26786794559e-38
0.0101935403157 -0.0730537055962 0.918 1.58125657623e-38
0.0118924637017 -0.0730537055962 0.918 1.3236867081e-38
0.0135913870877 -0.0730537055962 0.918 1.17793373119e-38
0.0153236226969 -0.0732128639962 0.92 1.19630083042e-38
0.017026247441 -0.0732128639962 0.92 1.30585770748e-38
0.0187288721851 -0.0732128639962 0.92 1.43421216265e-38
0.0204981213757 -0.0734516015962 0.923 1.63779280355e-38
0.0222544158128 -0.0736107599962 0.925 1.52751846168e-38
0.0240440224732 -0.0738494975962 0.928 1.61860061978e-38
0.0257614526498 -0.0738494975962 0.928 1.51736633457e-38
0.0274788828265 -0.0738494975962 0.928 1.64651000104e-38
0.0291963130031 -0.0738494975962 0.928 2.1260651641e-38
0.0309803676263 -0.0740086559961 0.93 1.68367467839e-38
0.0327014991611 -0.0740086559961 0.93 2.34892949355e-38
0.0344226306959 -0.0740086559961 0.93 2.34842544649e-38
-0.036338083533 -0.072676167066 0.935 1.20491349104e-38
-0.0345336714401 -0.0725207100241 0.933 1.36121011786e-38
-0.0328069878681 -0.0725207100241 0.933 1.4440414306e-38
-0.0309803676263 -0.0722875244614 0.93 1.43492962747e-38
-0.0291963130031 -0.0721320674195 0.928 1.40719961242e-38
-0.0273900502311 -0.0718988818567 0.925 1.48981568572e-38
-0.0256226517196 -0.0717434248149 0.923 1.51736633457e-38
-0.0238367464174 -0.0715102392521 0.92 1.49925034802e-38
-0.0221341216733 -0.0715102392521 0.92 1.44411317708e-38
-0.0204981213757 -0.0717434248149 0.923 1.50846977088e-38
-0.0187288721851 -0.0715102392521 0.92 1.58215340725e-38
-0.017026247441 -0.0715102392521 0.92 1.5546027584e-38
-0.0152903104736 -0.0713547822102 0.918 1.57304160411e-38
-0.0135913870877 -0.0713547822102 0.918 1.84037543968e-38
-0.0118924637017 -0.0713547822102 0.918 1.12225846164e-38
-0.0101935403157 -0.0713547822102 0.918 1.26051393125e-38
-0.00849461692979 -0.0713547822102 0.918 1.52651401094e-38
-0.00679569354383 -0.0713547822102 0.918 1.25893550866e-38
-0.00509677015787 -0.0713547822102 0.918 1.42416765526e-38
-0.0033867426975 -0.0711215966475 0.915 1.40572880955e-38
-0.00169337134875 -0.0711215966475 0.915 1.60970405609e-38
0.0 -0.0711215966475 0.915 1.23188708518e-38
0.00169892338596 -0.0713547822102 0.918 1.68367467839e-38
0.00339784677192 -0.0713547822102 0.918 1.40676913353e-38
0.00509677015787 -0.0713547822102 0.918 1.38786393569e-38
0.00679569354383 -0.0713547822102 0.918 1.36985556886e-38
0.00849461692979 -0.0713547822102 0.918 1.39679637262e-38
0.0101935403157 -0.0713547822102 0.918 1.83061147224e-38
0.0119183732087 -0.0715102392521 0.92 1.36103075165e-38
0.0136209979528 -0.0715102392521 0.92 1.51826316558e-38
0.0153236226969 -0.0715102392521 0.92 1.42671465535e-38
0.017026247441 -0.0715102392521 0.92 1.33437693382e-38
0.0187899445944 -0.0717434248149 0.923 1.64708397289e-38
0.0204981213757 -0.0717434248149 0.923 1.56353519533e-38
0.0222544158128 -0.0718988818567 0.925 1.54556270175e-38
0.0240440224732 -0.0721320674195 0.928 1.54480936369e-38
0.0257614526498 -0.0721320674195 0.928 1.97826573091e-38
0.0274788828265 -0.0721320674195 0.928 2.16322815989e-38
0.0292592360915 -0.0722875244614 0.93 1.68385404459e-38
0.0309803676263 -0.0722875244614 0.93 1.85841351403e-38
0.0327014991611 -0.0722875244614 0.93 2.34885452408e-38
-0.036338083533 -0.0709457821358 0.935 1.12218881711e-38
-0.0345336714401 -0.0707940264521 0.933 1.45344021966e-38
-0.0328069878681 -0.0707940264521 0.933 1.44429254329e-38
-0.0309803676263 -0.0705663929266 0.93 1.44429254329e-38
-0.0291963130031 -0.0704146372428 0.928 1.40719961242e-38
-0.0273900502311 -0.0701870037173 0.925 1.48999505192e-38
-0.0256781720917 -0.0701870037173 0.925 1.50846977088e-38
-0.0239144749383 -0.0700352480336 0.923 1.34298651159e-38
-0.022206298157 -0.0700352480336 0.923 1.3248346518e-38
-0.0204981213757 -0.0700352480336 0.923 1.49928622126e-38
-0.0187899445944 -0.0700352480336 0.923 1.58204578752e-38
-0.017026247441 -0.069807614508 0.92 1.54531158906e-38
-0.0152903104736 -0.0696558588243 0.918 1.5913728301e-38
-0.0135913870877 -0.0696558588243 0.918 1.75771704717e-38
-0.0118924637017 -0.0696558588243 0.918 1.18614870331e-38
-0.0101935403157 -0.0696558588243 0.918 1.20361897152e-38
-0.00849461692979 -0.0696558588243 0.918 1.69221250967e-38
-0.00679569354383 -0.0696558588243 0.918 1.36067201925e-38
-0.00509677015787 -0.0696558588243 0.918 1.64658174752e-38
-0.00339784677192 -0.0696558588243 0.918 1.31475427117e-38
-0.00169892338596 -0.0696558588243 0.918 1.39862590789e-38
0.0 -0.0696558588243 0.918 1.40798882371e-38
0.00169892338596 -0.0696558588243 0.918 1.44475889542e-38
0.00339784677192 -0.0696558588243 0.918 1.50000368607e-38
0.00509677015787 -0.0696558588243 0.918 1.26890826957e-38
0.00679569354383 -0.0696558588243 0.918 1.48945695331e-38
0.00851312372049 -0.069807614508 0.92 1.54513222286e-38
0.0102157484646 -0.069807614508 0.92 1.58136419595e-38
0.0119183732087 -0.069807614508 0.92 1.41577331694e-38
0.0136209979528 -0.069807614508 0.92 1.60948881665e-38
0.0153236226969 -0.069807614508 0.92 1.26915938226e-38
0.0170817678131 -0.0700352480336 0.923 1.30592945396e-38
0.0187899445944 -0.0700352480336 0.923 1.55424402599e-38
0.0205425376733 -0.0701870037173 0.925 1.58107721003e-38
0.0222544158128 -0.0701870037173 0.925 1.77522711226e-38
0.0240440224732 -0.0704146372428 0.928 2.19089063236e-38
0.0258169730219 -0.0705663929266 0.93 1.93299734454e-38
0.0275381045567 -0.0705663929266 0.93 1.67424001609e-38
0.0293536207241 -0.0707940264521 0.933 1.72022951065e-38
0.0310803042961 -0.0707940264521 0.933 1.82193224994e-38
0.0328069878681 -0.0707940264521 0.933 2.34903669288e-38
-0.0364546763144 -0.0694374786941 0.938 1.1127879261e-38
-0.034718739347 -0.0694374786941 0.938 1.48099086851e-38
-0.0328069878681 -0.0690673428801 0.933 1.44429254329e-38
-0.0309803676263 -0.0688452613918 0.93 1.42571020461e-38
-0.0292592360915 -0.0688452613918 0.93 1.42571020461e-38
-0.0274788828265 -0.0686972070662 0.928 1.45318910698e-38
-0.0256781720917 -0.0684751255778 0.925 1.51776094021e-38
-0.0239144749383 -0.0683270712523 0.923 1.26944636818e-38
-0.022206298157 -0.0683270712523 0.923 7.44011011842e-39
-0.0205425376733 -0.0684751255778 0.925 1.48160155438e-38
-0.0188306595339 -0.0684751255778 0.925 1.29731987619e-38
-0.0170817678131 -0.0683270712523 0.923 1.49960908043e-38
-0.0153735910318 -0.0683270712523 0.923 1.57304160411e-38
-0.0136209979528 -0.0681049897639 0.92 1.60084336564e-38
-0.0119183732087 -0.0681049897639 0.92 1.6098834223e-38
-0.0102157484646 -0.0681049897639 0.92 1.63743407115e-38
-0.00849461692979 -0.0679569354383 0.918 1.67413239637e-38
-0.00679569354383 -0.0679569354383 0.918 1.13040168728e-38
-0.00509677015787 -0.0679569354383 0.918 1.59984087672e-38
-0.00339784677192 -0.0679569354383 0.918 1.3340899479e-38
-0.00169892338596 -0.0679569354383 0.918 1.18672267516e-38
0.0 -0.0679569354383 0.918 1.15910252191e-38
0.00169892338596 -0.0679569354383 0.918 1.19648019662e-38
0.00339784677192 -0.0679569354383 0.918 1.22424608492e-38
0.00509677015787 -0.0679569354383 0.918 1.2974992424e-38
0.00679569354383 -0.0679569354383 0.918 1.20501802791e-38
0.00851312372049 -0.0681049897639 0.92 1.53630740565e-38
0.0102157484646 -0.0681049897639 0.92 1.38789980893e-38
0.0119183732087 -0.0681049897639 0.92 1.58136419595e-38
0.0136654142505 -0.0683270712523 0.923 1.42445464119e-38
0.0153735910318 -0.0683270712523 0.923 1.60012590083e-38
0.0170817678131 -0.0683270712523 0.923 1.72980766591e-38
0.0188306595339 -0.0684751255778 0.925 1.99724295549e-38
0.0205425376733 -0.0684751255778 0.925 2.00664426689e-38
0.0223265922965 -0.0686972070662 0.928 1.95132885079e-38
0.0240958414871 -0.0688452613918 0.93 1.62860925394e-38
0.0258169730219 -0.0688452613918 0.93 1.57311335059e-38
0.0275381045567 -0.0688452613918 0.93 1.82121380422e-38
0.0293536207241 -0.0690673428801 0.933 1.7666494841e-38
0.0310803042961 -0.0690673428801 0.933 1.90454734234e-38
0.0328069878681 -0.0690673428801 0.933 2.34881991201e-38
-0.0364546763144 -0.0677015417267 0.938 1.20502012986e-38
-0.034718739347 -0.0677015417267 0.938 1.40734310538e-38
-0.0328069878681 -0.0673406593081 0.933 1.42574607785e-38
-0.0309803676263 -0.067124129857 0.93 1.4440414306e-38
-0.0292592360915 -0.067124129857 0.93 1.42563845813e-38
-0.0274788828265 -0.0669797768895 0.928 1.47184319214e-38
-0.0256781720917 -0.0667632474384 0.925 1.49028203785e-38
-0.0239662939522 -0.0667632474384 0.925 1.26076504393e-38
-0.0222544158128 -0.0667632474384 0.925 1.10439358778e-38
-0.0205425376733 -0.0667632474384 0.925 1.1692165337e-38
-0.0188306595339 -0.0667632474384 0.925 1.14166588485e-38
-0.0171187813945 -0.0667632474384 0.925 9.56846948837e-39
-0.0153735910318 -0.0666188944709 0.923 1.67391981939e-38
-0.0136654142505 -0.0666188944709 0.923 1.60984754906e-38
-0.0119572374691 -0.0666188944709 0.923 1.81271142579e-38
-0.0102490606878 -0.0666188944709 0.923 1.74853349755e-38
-0.00851312372049 -0.0664023650198 0.92 1.68396502743e-38
-0.00681049897639 -0.0664023650198 0.92 1.68399753756e-38
-0.00510787423229 -0.0664023650198 0.92 1.64722746585e-38
-0.00340524948819 -0.0664023650198 0.92 1.60113035157e-38
-0.0017026247441 -0.0664023650198 0.92 1.49993193959e-38
0.0 -0.0664023650198 0.92 1.52751846168e-38
0.0017026247441 -0.0664023650198 0.92 1.5001113058e-38
0.00340524948819 -0.0664023650198 0.92 1.52787719409e-38
0.00510787423229 -0.0664023650198 0.92 1.52780544761e-38
0.00681049897639 -0.0664023650198 0.92 1.6014173375e-38
0.00851312372049 -0.0664023650198 0.92 1.71179929909e-38
0.0102157484646 -0.0664023650198 0.92 1.89622404985e-38
0.0119572374691 -0.0666188944709 0.923 1.87800002319e-38
0.0136950251156 -0.0667632474384 0.925 1.85938685595e-38
0.015406903255 -0.0667632474384 0.925 1.84065654015e-38
0.0171187813945 -0.0667632474384 0.925 1.88696889388e-38
0.0188306595339 -0.0667632474384 0.925 1.56443202635e-38
0.0206091621199 -0.0669797768895 0.928 1.50850564412e-38
0.0223265922965 -0.0669797768895 0.928 1.54452237777e-38
0.0240958414871 -0.067124129857 0.93 1.63761343735e-38
0.02590025358 -0.0673406593081 0.933 1.59173156251e-38
0.027626937152 -0.0673406593081 0.933 1.7196555388e-38
0.0294165438124 -0.0674850122756 0.935 1.69282235477e-38
0.0311469287426 -0.0674850122756 0.935 2.02447354777e-38
0.0328773136727 -0.0674850122756 0.935 2.34907074444e-38
-0.038516332798 -0.0665282111965 0.946 2.28428535331e-38
-0.0365324048353 -0.0661062563686 0.94 1.19576427324e-38
-0.0347927665098 -0.0661062563686 0.94 1.37964896357e-38
-0.0329828023797 -0.0659656047594 0.938 1.44393381088e-38
-0.0310803042961 -0.0656139757361 0.933 1.4900667984e-38
-0.0293536207241 -0.0656139757361 0.933 1.4532967267e-38
-0.0275381045567 -0.0654029983222 0.93 1.47184319214e-38
-0.0256781720917 -0.0650513692989 0.925 1.41677776768e-38
-0.0239662939522 -0.0650513692989 0.925 8.73369917759e-39
-0.0222544158128 -0.0650513692989 0.925 1.36156955091e-38
-0.0205425376733 -0.0650513692989 0.925 9.84397597684e-39
-0.0188306595339 -0.0650513692989 0.925 1.30732851035e-38
-0.0171187813945 -0.0650513692989 0.925 8.73872143128e-39
-0.015406903255 -0.0650513692989 0.925 1.45401699411e-38
-0.0136654142505 -0.0649107176896 0.923 1.52755433492e-38
-0.0119572374691 -0.0649107176896 0.923 1.62810702857e-38
-0.0102490606878 -0.0649107176896 0.923 1.74856937079e-38
-0.00854088390653 -0.0649107176896 0.923 1.37096763932e-38
-0.00683270712523 -0.0649107176896 0.923 1.67524446683e-38
-0.00512453034392 -0.0649107176896 0.923 1.68425215349e-38
-0.00340524948819 -0.0646997402757 0.92 1.84087135921e-38
-0.0017026247441 -0.0646997402757 0.92 1.78581210047e-38
0.0 -0.0646997402757 0.92 1.75807577957e-38
0.0017026247441 -0.0646997402757 0.92 1.72137745435e-38
0.00340524948819 -0.0646997402757 0.92 1.88711336775e-38
0.00512453034392 -0.0649107176896 0.923 1.7490004102e-38
0.00683270712523 -0.0649107176896 0.923 1.72148969836e-38
0.00854088390653 -0.0649107176896 0.923 1.68449976293e-38
0.0102490606878 -0.0649107176896 0.923 1.50922310893e-38
0.0119831469761 -0.0650513692989 0.925 1.53634327889e-38
0.0136950251156 -0.0650513692989 0.925 1.46204979743e-38
0.015406903255 -0.0650513692989 0.925 1.38793568217e-38
0.0171187813945 -0.0650513692989 0.925 1.43388930349e-38
0.0188917319432 -0.0652623467129 0.928 1.43492962747e-38
0.0206091621199 -0.0652623467129 0.928 1.52737538911e-38
0.022446886436 -0.0656139757361 0.933 1.70204177762e-38
0.024173570008 -0.0656139757361 0.933 1.65587291686e-38
0.02590025358 -0.0656139757361 0.933 1.65601640982e-38
0.0276861588823 -0.0657546273454 0.935 1.91355236653e-38
0.0294165438124 -0.0657546273454 0.935 1.72955655323e-38
0.0311469287426 -0.0657546273454 0.935 2.10748941152e-38
0.0328773136727 -0.0657546273454 0.935 2.34896480627e-38
-0.0422398990862 -0.0651198444245 0.951 2.18265141777e-38
-0.0403522064351 -0.0649144190478 0.948 2.22874993336e-38
-0.038516332798 -0.0647774687966 0.946 2.30275853084e-38
-0.0366489976167 -0.0645720434199 0.943 1.20480517067e-38
-0.0347927665098 -0.0643666180432 0.94 1.44411317708e-38
-0.0330531281843 -0.0643666180432 0.94 1.46248027632e-38
-0.0312468654123 -0.064229667792 0.938 1.45344021966e-38
-0.0293536207241 -0.0638872921641 0.933 1.44389793764e-38
-0.0275381045567 -0.0636818667874 0.93 1.49910685506e-38
-0.0257614526498 -0.0635449165362 0.928 1.45322498022e-38
-0.0239662939522 -0.0633394911595 0.925 1.41677776768e-38
-0.0222544158128 -0.0633394911595 0.925 1.53627153241e-38
-0.0206091621199 -0.0635449165362 0.928 1.05718440304e-38
-0.0188306595339 -0.0633394911595 0.925 1.02873692317e-38
-0.0171187813945 -0.0633394911595 0.925 1.3426672958e-38
-0.015406903255 -0.0633394911595 0.925 3.12240686937e-39
-0.0136950251156 -0.0633394911595 0.925 1.24193159257e-38
-0.0119831469761 -0.0633394911595 0.925 1.86742120069e-38
-0.0102712688367 -0.0633394911595 0.925 1.50014830008e-38
-0.00855939069723 -0.0633394911595 0.925 1.17700102693e-38
-0.00683270712523 -0.0632025409083 0.923 1.33430518734e-38
-0.00512453034392 -0.0632025409083 0.923 1.37017842803e-38
-0.00341635356261 -0.0632025409083 0.923 1.48956457303e-38
-0.00170817678131 -0.0632025409083 0.923 1.48974393924e-38
0.0 -0.0632025409083 0.923 1.56335582913e-38
0.00170817678131 -0.0632025409083 0.923 1.36095900517e-38
0.00341635356261 -0.0632025409083 0.923 1.42466988063e-38
0.00512453034392 -0.0632025409083 0.923 1.36935334349e-38
0.00683270712523 -0.0632025409083 0.923 1.45261513513e-38
0.00854088390653 -0.0632025409083 0.923 1.26901588929e-38
0.0102712688367 -0.0633394911595 0.925 1.39841066845e-38
0.0119831469761 -0.0633394911595 0.925 1.44465127569e-38
0.0136950251156 -0.0633394911595 0.925 1.46276726224e-38
0.015406903255 -0.0633394911595 0.925 1.62825052153e-38
0.0171743017665 -0.0635449165362 0.928 1.6098834223e-38
0.0188917319432 -0.0635449165362 0.928 1.44432841653e-38
0.0206535784175 -0.0636818667874 0.93 1.40791707723e-38
0.022446886436 -0.0638872921641 0.933 1.53637915213e-38
0.024173570008 -0.0638872921641 0.933 1.77554604779e-38
0.0259557739521 -0.0640242424153 0.935 1.67416826961e-38
0.0276861588823 -0.0640242424153 0.935 1.80277383747e-38
0.0294165438124 -0.0640242424153 0.935 1.83061147224e-38
0.0311469287426 -0.0640242424153 0.935 2.13536235902e-38
0.0328773136727 -0.0640242424153 0.935 2.34871355346e-38
-0.0422398990862 -0.0633598486293 0.951 2.19187112089e-38
-0.0403522064351 -0.0631599752897 0.948 2.26562734452e-38
-0.038516332798 -0.0630267263967 0.946 2.23811340969e-38
-0.0367655903981 -0.0630267263967 0.946 1.27852510067e-38
-0.034903807254 -0.0628268530572 0.943 1.48131372768e-38
-0.0330531281843 -0.0626269797177 0.94 1.44411317708e-38
-0.0313134898588 -0.0626269797177 0.94 1.41649078176e-38
-0.0294165438124 -0.0622938574851 0.935 1.48084737555e-38
-0.027626937152 -0.0621606085921 0.933 1.51758157401e-38
-0.0258169730219 -0.0619607352526 0.93 1.52680099687e-38
-0.0240440224732 -0.0618274863596 0.928 1.52680099687e-38
-0.0223265922965 -0.0618274863596 0.928 1.8409788388e-38
-0.0206091621199 -0.0618274863596 0.928 1.53688992542e-38
-0.0188917319432 -0.0618274863596 0.928 1.56418091366e-38
-0.0171743017665 -0.0618274863596 0.928 1.29714050999e-38
-0.015406903255 -0.06162761302 0.925 1.1775032523e-38
-0.0136950251156 -0.06162761302 0.925 1.28795696038e-38
-0.0119831469761 -0.06162761302 0.925 1.76658011982e-38
-0.0102712688367 -0.06162761302 0.925 1.42653528915e-38
-0.00855939069723 -0.06162761302 0.925 1.36131773758e-38
-0.00684751255778 -0.06162761302 0.925 1.33401820142e-38
-0.00513563441834 -0.06162761302 0.925 1.39787256984e-38
-0.00341635356261 -0.061494364127 0.923 1.39715510503e-38
-0.00170817678131 -0.061494364127 0.923 1.7019341579e-38
0.0 -0.061494364127 0.923 1.3423766665e-38
0.00170817678131 -0.061494364127 0.923 1.47094636112e-38
0.00341635356261 -0.061494364127 0.923 1.4710181076e-38
0.00512453034392 -0.061494364127 0.923 1.45247164216e-38
0.00684751255778 -0.06162761302 0.925 1.66519995944e-38
0.00855939069723 -0.06162761302 0.925 1.52705210955e-38
0.0102712688367 -0.06162761302 0.925 1.26004757912e-38
0.0119831469761 -0.06162761302 0.925 1.3708600196e-38
0.0137394414132 -0.0618274863596 0.928 1.42628417646e-38
0.0154568715899 -0.0618274863596 0.928 1.7297719328e-38
0.0171743017665 -0.0618274863596 0.928 1.54491698341e-38
0.0188917319432 -0.0618274863596 0.928 1.47180731889e-38
0.0206535784175 -0.0619607352526 0.93 1.58301506567e-38
0.022446886436 -0.0621606085921 0.933 1.56378630802e-38
0.024225389022 -0.0622938574851 0.935 1.71090246807e-38
0.0259557739521 -0.0622938574851 0.935 1.67406064989e-38
0.0276861588823 -0.0622938574851 0.935 1.82085395078e-38
0.0294165438124 -0.0622938574851 0.935 1.76600376577e-38
0.0311469287426 -0.0622938574851 0.935 2.14443744813e-38
0.0328773136727 -0.0622938574851 0.935 2.34878347825e-38
0.0345336714401 -0.0621606085921 0.933 2.34867599866e-38
-0.0423731479792 -0.0617941741363 0.954 2.22882153971e-38
-0.0403522064351 -0.0614055315317 0.948 2.32094458231e-38
-0.038516332798 -0.0612759839968 0.946 2.21978344487e-38
-0.0367655903981 -0.0612759839968 0.946 1.2233492539e-38
-0.034903807254 -0.0610816626945 0.943 1.51779681345e-38
-0.0331586168913 -0.0610816626945 0.943 1.43489375423e-38
-0.0313134898588 -0.0608873413922 0.94 1.45340434642e-38
-0.0294165438124 -0.060563472555 0.935 1.44418492357e-38
-0.027626937152 -0.0604339250201 0.933 1.48077562907e-38
-0.0258169730219 -0.0602396037178 0.93 1.48077562907e-38
-0.0240958414871 -0.0602396037178 0.93 1.84055088225e-38
-0.0223747099523 -0.0602396037178 0.93 1.38926299207e-38
-0.0206091621199 -0.0601100561829 0.928 1.50861326384e-38
-0.0188917319432 -0.0601100561829 0.928 1.58236864669e-38
-0.0171743017665 -0.0601100561829 0.928 1.6006281262e-38
-0.0154568715899 -0.0601100561829 0.928 1.62828639477e-38
-0.0137394414132 -0.0601100561829 0.928 1.5546027584e-38
-0.0120220112366 -0.0601100561829 0.928 1.7021135241e-38
-0.0103045810599 -0.0601100561829 0.928 1.343345244e-38
-0.00855939069723 -0.0599157348806 0.925 1.37961309033e-38
-0.00684751255778 -0.0599157348806 0.925 1.48070388258e-38
-0.00513563441834 -0.0599157348806 0.925 1.40676913353e-38
-0.00342375627889 -0.0599157348806 0.925 1.50789579903e-38
-0.00171187813945 -0.0599157348806 0.925 1.59069123853e-38
0.0 -0.0599157348806 0.925 1.42481337359e-38
0.00171187813945 -0.0599157348806 0.925 1.48956457303e-38
0.00342375627889 -0.0599157348806 0.925 1.5638580545e-38
0.00513563441834 -0.0599157348806 0.925 1.48056038962e-38
0.00684751255778 -0.0599157348806 0.925 1.59094235122e-38
0.00855939069723 -0.0599157348806 0.925 1.48102674175e-38
0.0103045810599 -0.0601100561829 0.928 1.40777358427e-38
0.0120220112366 -0.0601100561829 0.928 1.31604570783e-38
0.0137394414132 -0.0601100561829 0.928 1.39873352762e-38
0.0154568715899 -0.0601100561829 0.928 1.54484523693e-38
0.0171743017665 -0.0601100561829 0.928 1.56292535024e-38
0.0189324468827 -0.0602396037178 0.93 1.49928622126e-38
0.0206535784175 -0.0602396037178 0.93 1.61002845669e-38
0.0224950040919 -0.060563472555 0.935 1.52698036307e-38
0.024225389022 -0.060563472555 0.935 1.7385248634e-38
0.0259557739521 -0.060563472555 0.935 1.75703545559e-38
0.0276861588823 -0.060563472555 0.935 1.81206500681e-38
0.0294165438124 -0.060563472555 0.935 1.8398308951e-38
0.0310803042961 -0.0604339250201 0.933 2.27372769042e-38
0.0328069878681 -0.0604339250201 0.933 2.34896410562e-38
0.0345336714401 -0.0604339250201 0.933 2.30250363465e-38
-0.0403522064351 -0.0596510877736 0.948 2.21949505765e-38
-0.038516332798 -0.0595252415969 0.946 2.1919805623e-38
-0.0367655903981 -0.0595252415969 0.946 1.24185984609e-38
-0.034903807254 -0.0593364723318 0.943 1.49017441813e-38
-0.0331586168913 -0.0593364723318 0.943 1.46251614956e-38
-0.0314134265286 -0.0593364723318 0.943 1.44407730384e-38
-0.029510928445 -0.0590218568899 0.938 1.46244440308e-38
-0.0276861588823 -0.0588330876248 0.935 1.44400555736e-38
-0.02590025358 -0.0587072414481 0.933 1.49925034802e-38
-0.024173570008 -0.0587072414481 0.933 1.57332859004e-38
-0.022446886436 -0.0587072414481 0.933 1.51808379938e-38
-0.020720202864 -0.0587072414481 0.933 1.49928622126e-38
-0.0189324468827 -0.058518472183 0.93 1.72058824306e-38
-0.0172113153479 -0.058518472183 0.93 1.57311335059e-38
-0.0154901838131 -0.058518472183 0.93 1.60973992933e-38
-0.0137690522784 -0.058518472183 0.93 1.6098834223e-38
-0.0120479207436 -0.058518472183 0.93 1.72944893351e-38
-0.0103267892088 -0.058518472183 0.93 1.38933473856e-38
-0.00858715088327 -0.0583926260063 0.928 1.37936197764e-38
-0.00686972070662 -0.0583926260063 0.928 1.49856875645e-38
-0.00515229052996 -0.0583926260063 0.928 1.57228826606e-38
-0.00342375627889 -0.0582038567412 0.925 1.51765332049e-38
-0.00171187813945 -0.0582038567412 0.925 1.5266575039e-38
0.0 -0.0582038567412 0.925 1.42520797924e-38
0.00171187813945 -0.0582038567412 0.925 1.60991929554e-38
0.00342375627889 -0.0582038567412 0.925 1.35184720204e-38
0.00513563441834 -0.0582038567412 0.925 1.44353920523e-38
0.00684751255778 -0.0582038567412 0.925 1.72030125713e-38
0.00855939069723 -0.0582038567412 0.925 1.53637915213e-38
0.0103045810599 -0.0583926260063 0.928 1.30625231313e-38
0.0120220112366 -0.0583926260063 0.928 1.35256466685e-38
0.0137394414132 -0.0583926260063 0.928 1.47259653019e-38
0.0154568715899 -0.0583926260063 0.928 1.44379031792e-38
0.0172113153479 -0.058518472183 0.93 1.5725035055e-38
0.0189324468827 -0.058518472183 0.93 1.54541920878e-38
0.020720202864 -0.0587072414481 0.933 1.49968138743e-38
0.0224950040919 -0.0588330876248 0.935 1.57311335059e-38
0.024225389022 -0.0588330876248 0.935 1.72033713037e-38
0.0260390545103 -0.0590218568899 0.938 1.67449112877e-38
0.0276861588823 -0.0588330876248 0.935 1.83975914862e-38
0.0294165438124 -0.0588330876248 0.935 1.81213675329e-38
0.0310803042961 -0.0587072414481 0.933 2.24599655433e-38
0.0328069878681 -0.0587072414481 0.933 2.34892865277e-38
-0.0403522064351 -0.0578966440156 0.948 2.30243328947e-38
-0.038516332798 -0.057774499197 0.946 2.24733325294e-38
-0.0367655903981 -0.057774499197 0.946 1.27859572611e-38
-0.034903807254 -0.0575912819691 0.943 1.40755834482e-38
-0.0331586168913 -0.0575912819691 0.943 1.42599719054e-38
-0.0313134898588 -0.0574080647412 0.94 1.44429254329e-38
-0.029510928445 -0.0572859199226 0.938 1.48999505192e-38
-0.0276861588823 -0.0571027026947 0.935 1.42567433137e-38
-0.0259557739521 -0.0571027026947 0.935 1.63761343735e-38
-0.024173570008 -0.0569805578761 0.933 1.4719866851e-38
-0.022446886436 -0.0569805578761 0.933 1.54556270175e-38
-0.0207646191617 -0.0571027026947 0.935 1.56382218126e-38
-0.018993519292 -0.0569805578761 0.933 1.57293398439e-38
-0.01726683572 -0.0569805578761 0.933 1.59140870334e-38
