# .PCD v0.7 - Point Cloud Data file format
VERSION 0.7
FIELDS x y z rgb
SIZE 4 4 4 4
TYPE F F F F
COUNT 1 1 1 1
WIDTH 854
HEIGHT 1
VIEWPOINT 0 0 0 1 0 0 0
POINTS 854
DATA ascii
-0.0281895435892 -0.154213385518 0.896 7.26002645018e-39
-0.0263832808172 -0.15335281975 0.891 7.63383682852e-39
-0.024623285022 -0.152664367136 0.887 8.46360029989e-39
-0.0229817326872 -0.152664367136 0.887 9.2933231336e-39
-0.0212920626966 -0.152320140829 0.885 9.75215309237e-39
-0.0195431709757 -0.151459575062 0.88 9.29081761194e-39
-0.0177720711061 -0.150254782988 0.873 9.75215589497e-39
-0.0161194146968 -0.149910556681 0.871 9.38301464311e-39
-0.0143908804458 -0.148705764606 0.864 9.38551876346e-39
-0.0127918937296 -0.148705764606 0.864 7.35580800281e-39
-0.0110892689855 -0.147328859378 0.856 8.55182184731e-39
-0.00948287955299 -0.146984633071 0.854 8.82912199781e-39
-0.00787463944145 -0.146468293611 0.851 7.7260198467e-39
-0.00627010068805 -0.145779840997 0.847 8.46357928041e-39
-0.00469147144162 -0.14543561469 0.845 4.96665017308e-39
-0.00310543947891 -0.144402935769 0.839 1.01019045774e-39
-0.00154901838131 -0.144058709462 0.837 6.89234114742e-39
0.0 -0.143370256848 0.833 1.10453708074e-38
0.00153421294876 -0.142681804234 0.829 5.24108326693e-39
0.00306102318124 -0.142337577927 0.827 1.07663428559e-38
0.00458043069744 -0.141993351621 0.825 5.69702935346e-39
0.00609243549736 -0.141649125314 0.823 1.08667388844e-38
0.007597037581 -0.141304899007 0.821 4.40810381558e-39
0.0091164450972 -0.141304899007 0.821 1.26970406697e-38
0.0106099431064 -0.1409606727 0.819 5.23498201341e-39
0.0121256492645 -0.1409606727 0.819 3.21424236553e-39
0.0136413554225 -0.1409606727 0.819 2.04418617379e-38
0.0151570615806 -0.1409606727 0.819 1.73161702249e-38
0.0166727677387 -0.1409606727 0.819 1.7406160211e-38
0.0181884738967 -0.1409606727 0.819 1.77742042461e-38
0.0197522977106 -0.141304899007 0.821 1.75898704397e-38
0.0212717052268 -0.141304899007 0.821 1.74965860009e-38
0.022791112743 -0.141304899007 0.821 1.76806017126e-38
0.0243697419894 -0.141649125314 0.823 1.64842137214e-38
0.0258928508638 -0.141649125314 0.823 1.86029111385e-38
0.0274825841846 -0.141993351621 0.825 1.31623152001e-38
0.0290093944171 -0.141993351621 0.825 1.46330536085e-38
0.0306102318124 -0.142337577927 0.827 1.59212616816e-38
0.032140743403 -0.142337577927 0.827 1.70283098892e-38
0.0336712549936 -0.142337577927 0.827 1.60123797129e-38
0.0352017665842 -0.142337577927 0.827 1.38007944246e-38
0.0367322781748 -0.142337577927 0.827 1.63790042327e-38
0.0383553237189 -0.142681804234 0.829 1.7208034825e-38
0.0398895366677 -0.142681804234 0.829 1.84976890381e-38
0.0414237496164 -0.142681804234 0.829 1.59191092871e-38
0.043165238621 -0.143370256848 0.833 1.56461139255e-38
0.0448141936721 -0.143714483155 0.835 1.77738959605e-38
0.0462484699511 -0.143370256848 0.833 1.68526361072e-38
0.0477900856161 -0.143370256848 0.833 1.70366840488e-38
0.0494501447416 -0.143714483155 0.835 1.69448373422e-38
0.0509954617648 -0.143714483155 0.835 1.65764247656e-38
0.052540778788 -0.143714483155 0.835 1.71292300033e-38
0.0540860958111 -0.143714483155 0.835 1.71288796787e-38
0.0557646617273 -0.144058709462 0.837 1.69448345397e-38
0.0573136801086 -0.144058709462 0.837 1.72203466333e-38
0.05886269849 -0.144058709462 0.837 1.88802365124e-38
0.0604117168713 -0.144058709462 0.837 3.85709083864e-39
0.0621087895782 -0.144402935769 0.839 1.65303893084e-39
0.0636615093176 -0.144402935769 0.839 1.33496351736e-38
0.0652142290571 -0.144402935769 0.839 1.85143350625e-38
-0.0471201397929 -0.160557513368 0.943 1.08530902374e-38
-0.0449900081837 -0.159195413573 0.935 1.150029815e-38
-0.0431670893001 -0.158854888624 0.933 9.5709988321e-39
-0.0414404057281 -0.158854888624 0.933 7.81499389139e-39
-0.0393731972073 -0.157492788829 0.925 1.08570909445e-38
-0.0373763144911 -0.156300951508 0.918 1.02149431206e-38
-0.0355607983237 -0.155790164085 0.915 8.83019819503e-39
-0.033682359068 -0.154938851713 0.91 8.18412113027e-39
-0.03192791531 -0.154598326764 0.908 6.06437133809e-39
-0.0300143131519 -0.153406489443 0.901 6.71044840286e-39
-0.0282524666776 -0.15289570202 0.898 6.52498374851e-39
-0.0264721134126 -0.152214652122 0.894 6.80300136383e-39
-0.024623285022 -0.151022814801 0.887 9.56850732343e-39
-0.0229817326872 -0.151022814801 0.887 8.74303602926e-39
-0.0212920626966 -0.150682289853 0.885 9.4770081389e-39
-0.0195431709757 -0.149830977481 0.88 9.75394535311e-39
-0.0177720711061 -0.14863914016 0.873 9.75144964054e-39
-0.0161194146968 -0.148298615211 0.871 9.56812476895e-39
-0.0144408487806 -0.147617565313 0.867 1.03085484567e-38
-0.0127918937296 -0.14710677789 0.864 6.15728303147e-39
-0.0110892689855 -0.145744678095 0.856 7.44871969619e-39
-0.00948287955299 -0.145404153146 0.854 8.00116760276e-39
-0.00787463944145 -0.144893365723 0.851 8.09443802855e-39
-0.00627010068805 -0.144212315825 0.847 7.7263785791e-39
-0.00469147144162 -0.143871790876 0.845 5.33399215771e-39
-0.00311284219519 -0.143190740979 0.841 4.22443282327e-39
-0.00154901838131 -0.142509691081 0.837 7.91257891515e-39
0.0 -0.142169166132 0.835 1.0215996897e-38
0.00153421294876 -0.141147591286 0.829 8.37606819131e-39
0.00306102318124 -0.140807066337 0.827 9.01999005904e-39
0.00458043069744 -0.140466541388 0.825 9.57279950062e-39
0.00610724092991 -0.140466541388 0.825 9.57426385752e-39
0.0076155443717 -0.140126016439 0.823 3.94892633479e-39
0.0091164450972 -0.13978549149 0.821 1.30711733467e-38
0.0106099431064 -0.139444966542 0.819 5.23569947823e-39
0.0121256492645 -0.139444966542 0.819 2.75506488474e-39
0.0136413554225 -0.139444966542 0.819 1.99844611035e-38
0.0151570615806 -0.139444966542 0.819 1.65782240328e-38
0.0166727677387 -0.139444966542 0.819 1.74983586434e-38
0.0182328901944 -0.13978549149 0.821 1.79561096024e-38
0.0197522977106 -0.13978549149 0.821 1.76806045152e-38
0.0212717052268 -0.13978549149 0.821 1.72206997605e-38
0.0228466331151 -0.140126016439 0.823 1.75894570566e-38
0.0243697419894 -0.140126016439 0.823 1.69448317371e-38
0.0259557739521 -0.140466541388 0.825 1.74972894527e-38
0.0274825841846 -0.140466541388 0.825 1.78660691696e-38
0.0290797202217 -0.140807066337 0.827 1.77746022149e-38
0.0306102318124 -0.140807066337 0.827 1.61971269025e-38
0.032140743403 -0.140807066337 0.827 1.73917128238e-38
0.0336712549936 -0.140807066337 0.827 1.61935395784e-38
0.0352017665842 -0.140807066337 0.827 1.48138547416e-38
0.0368211107702 -0.141147591286 0.829 1.42588957082e-38
0.0383553237189 -0.141147591286 0.829 1.60098685861e-38
0.0398895366677 -0.141147591286 0.829 1.53641502537e-38
0.041623622956 -0.141828641183 0.833 1.73024865454e-38
0.0432688766489 -0.142169166132 0.835 1.87848235012e-38
0.0448141936721 -0.142169166132 0.835 1.69459079343e-38
0.0463595106953 -0.142169166132 0.835 1.69441282852e-38
0.0479048277184 -0.142169166132 0.835 1.80511792954e-38
0.0494501447416 -0.142169166132 0.835 1.64842137214e-38
0.0509954617648 -0.142169166132 0.835 1.758948228e-38
0.052540778788 -0.142169166132 0.835 1.71285027294e-38
0.054215643346 -0.142509691081 0.837 1.72196403789e-38
0.0557646617273 -0.142509691081 0.837 1.70366840488e-38
0.0573136801086 -0.142509691081 0.837 1.71281762268e-38
0.05886269849 -0.142509691081 0.837 1.88806064551e-38
0.0604117168713 -0.142509691081 0.837 4.22443282327e-39
0.0622568439037 -0.143190740979 0.841 1.83670992316e-39
0.0638132650013 -0.143190740979 0.841 1.83188385125e-38
0.0653696860989 -0.143190740979 0.841 1.83299550132e-38
-0.0471201397929 -0.158812323006 0.943 2.00758958283e-38
-0.0449900081837 -0.157465028643 0.935 9.74747695939e-39
-0.0431670893001 -0.157128205052 0.933 1.01223971661e-38
-0.0414404057281 -0.157128205052 0.933 9.38301464311e-39
-0.0393731972073 -0.15578091069 0.925 1.01205670703e-38
-0.0373763144911 -0.154602028122 0.918 1.04911572648e-38
-0.0355607983237 -0.154096792736 0.915 9.20041003892e-39
-0.0337933998122 -0.153759969145 0.913 8.09515549336e-39
-0.03192791531 -0.152917910169 0.908 4.68361030406e-39
-0.0300143131519 -0.151739027601 0.901 8.64941527885e-39
-0.0282524666776 -0.151233792215 0.898 5.60591132211e-39
-0.0264721134126 -0.150560145034 0.894 5.9707421799e-39
-0.024623285022 -0.149381262467 0.887 6.7969113207e-39
-0.0229817326872 -0.149381262467 0.887 1.03063932597e-38
-0.0212920626966 -0.149044438876 0.885 9.66067352602e-39
-0.0194987546781 -0.147865556309 0.878 9.47771719592e-39
-0.0177720711061 -0.147023497332 0.873 9.93762054932e-39
-0.0161194146968 -0.146686673741 0.871 9.56812757154e-39
-0.0144408487806 -0.14601302656 0.867 1.02206716287e-38
-0.0128363100272 -0.14601302656 0.867 5.41972920295e-39
-0.0111151784924 -0.144497320402 0.858 7.44584983693e-39
-0.00948287955299 -0.14382367322 0.854 7.17106081327e-39
-0.00787463944145 -0.143318437834 0.851 7.44871969619e-39
-0.00627010068805 -0.142644790653 0.847 7.17177827809e-39
-0.00469147144162 -0.142307967062 0.845 5.88572259947e-39
-0.00312024491147 -0.141971143472 0.843 1.19386145005e-39
-0.00155271973945 -0.14129749629 0.839 9.3816497784e-39
0.0 -0.140623849109 0.835 1.12301292074e-38
0.0015379143069 -0.139950201928 0.831 9.38664540743e-39
0.00306842589751 -0.139613378337 0.829 9.84579065835e-39
0.00459153477185 -0.139276554746 0.827 1.00298161792e-38
0.00610724092991 -0.138939731156 0.825 1.03993119596e-38
0.0076155443717 -0.138602907565 0.823 4.5917748079e-39
0.00913865324604 -0.138602907565 0.823 1.39052500147e-38
0.0106358526134 -0.138266083974 0.821 3.67341984632e-39
0.0121552601296 -0.138266083974 0.821 2.57139389242e-39
0.0136746676458 -0.138266083974 0.821 1.93419601525e-38
0.015194075162 -0.138266083974 0.821 1.71310460861e-38
0.0167134826782 -0.138266083974 0.821 1.74976551916e-38
0.0182328901944 -0.138266083974 0.821 1.74965986126e-38
0.0197522977106 -0.138266083974 0.821 1.74965860009e-38
0.0213235242407 -0.138602907565 0.823 1.72207221813e-38
0.0229021534872 -0.138939731156 0.825 1.7867150972e-38
0.0244289637197 -0.138939731156 0.825 1.74980083188e-38
0.0260186970405 -0.139276554746 0.827 1.70370315708e-38
0.0275492086311 -0.139276554746 0.827 1.71288950929e-38
0.0290797202217 -0.139276554746 0.827 1.69448513552e-38
0.0306102318124 -0.139276554746 0.827 1.62954195819e-38
0.0322184719239 -0.139613378337 0.829 1.86010740362e-38
0.0337526848727 -0.139613378337 0.829 1.50033355173e-38
0.0352868978214 -0.139613378337 0.829 1.62864512718e-38
0.0369987759609 -0.140287025518 0.833 1.60106505106e-38
0.0385403916259 -0.140287025518 0.833 1.72094697546e-38
0.0400820072909 -0.140287025518 0.833 1.86029307567e-38
0.0417235596257 -0.140623849109 0.835 1.72210907228e-38
0.0432688766489 -0.140623849109 0.835 1.76824163941e-38
0.0448141936721 -0.140623849109 0.835 1.70381063667e-38
0.0463595106953 -0.140623849109 0.835 1.74058323071e-38
0.0479048277184 -0.140623849109 0.835 1.75916528913e-38
0.0494501447416 -0.140623849109 0.835 1.78671453668e-38
0.0509954617648 -0.140623849109 0.835 1.6761875407e-38
0.0526666249647 -0.1409606727 0.837 1.74054595618e-38
0.054215643346 -0.1409606727 0.837 1.69441128709e-38
0.0558979106203 -0.14129749629 0.839 1.72203298177e-38
0.0573136801086 -0.1409606727 0.837 1.74969335229e-38
0.05886269849 -0.1409606727 0.837 1.85125456044e-38
0.0604117168713 -0.1409606727 0.837 5.32645877716e-39
0.0622568439037 -0.141634319881 0.841 2.47955839627e-39
0.063965020685 -0.141971143472 0.843 1.95119965107e-38
-0.0472700447975 -0.157566815992 0.946 1.85952908774e-38
-0.0452305964628 -0.156567449294 0.94 8.63863508977e-39
-0.0434909581373 -0.156567449294 0.94 8.56007269266e-39
-0.0417513198118 -0.156567449294 0.94 9.94370358595e-39
-0.0393731972073 -0.15406903255 0.925 1.03103281058e-38
-0.0373763144911 -0.152903104736 0.918 1.06773533969e-38
-0.0355607983237 -0.152403421387 0.915 1.02152640179e-38
-0.0337933998122 -0.152070299155 0.913 3.58158435016e-39
-0.03192791531 -0.151237493574 0.908 7.35797581154e-39
-0.0300809375984 -0.150404687992 0.903 1.11376084763e-38
-0.0283468513102 -0.15007156576 0.901 7.63597801257e-39
-0.0265313351428 -0.149238760178 0.896 7.90215745847e-39
-0.0246788053941 -0.148072832364 0.889 6.4306371255e-39
-0.0230335517011 -0.148072832364 0.889 9.75537467754e-39
-0.0212920626966 -0.147406587899 0.885 8.46357367522e-39
-0.0194987546781 -0.146240660085 0.878 8.82948073022e-39
-0.0177720711061 -0.145407854504 0.873 9.75179996516e-39
-0.0161194146968 -0.145074732272 0.871 9.93833661283e-39
-0.0144741610039 -0.144741610039 0.869 9.66249381273e-39
-0.0128363100272 -0.144408487806 0.867 6.98667235614e-39
-0.0111151784924 -0.14290943776 0.858 7.26002645018e-39
-0.00948287955299 -0.142243193295 0.854 6.89268446555e-39
-0.00787463944145 -0.141743509946 0.851 7.16890841883e-39
-0.00627010068805 -0.141077265481 0.847 6.80300136383e-39
-0.00470257551603 -0.141077265481 0.847 6.89770671924e-39
-0.00312024491147 -0.140411021016 0.843 1.1020259539e-39
-0.00155271973945 -0.139744776551 0.839 9.75187983917e-39
0.0 -0.139078532086 0.835 1.10464638202e-38
0.0015379143069 -0.138412287621 0.831 8.28026141531e-39
0.00306842589751 -0.138079165388 0.829 1.05804872393e-38
0.00459153477185 -0.137746043156 0.827 1.03957246355e-38
0.00612204636247 -0.137746043156 0.827 1.15027588301e-38
0.00763405116239 -0.137412920923 0.825 3.85709083864e-39
0.00913865324604 -0.137079798691 0.823 1.24322877456e-38
0.0106358526134 -0.136746676458 0.821 2.75506488474e-39
0.0121552601296 -0.136746676458 0.821 2.11221641163e-39
0.0136746676458 -0.136746676458 0.821 1.94370074247e-38
0.015194075162 -0.136746676458 0.821 1.74076245679e-38
0.0167134826782 -0.136746676458 0.821 1.71295831305e-38
0.0182773064921 -0.137079798691 0.823 1.70363309216e-38
0.0198004153664 -0.137079798691 0.823 1.80508289708e-38
0.0213235242407 -0.137079798691 0.823 1.71277936723e-38
0.0229021534872 -0.137412920923 0.825 1.75884088854e-38
0.0244881854499 -0.137746043156 0.827 1.74962356763e-38
0.0260186970405 -0.137746043156 0.827 1.74051092371e-38
0.0275492086311 -0.137746043156 0.827 1.72214256331e-38
0.0290797202217 -0.137746043156 0.827 1.76820478526e-38
0.0306102318124 -0.137746043156 0.827 1.7497652389e-38
0.0322184719239 -0.138079165388 0.829 1.71310460861e-38
0.0337526848727 -0.138079165388 0.829 1.59285372232e-38
0.0352868978214 -0.138079165388 0.829 1.77688162536e-38
0.0370876085562 -0.139078532086 0.835 1.86918445455e-38
0.0386329255794 -0.139078532086 0.835 1.86951109722e-38
0.0401782426026 -0.139078532086 0.835 1.8051905168e-38
0.0417235596257 -0.139078532086 0.835 1.63941816964e-38
0.0432688766489 -0.139078532086 0.835 1.63956278364e-38
0.0448141936721 -0.139078532086 0.835 1.3814871869e-38
0.0463595106953 -0.139078532086 0.835 1.39074360403e-38
0.0480195698208 -0.139411654318 0.837 1.72256771727e-38
0.0495685882021 -0.139411654318 0.837 1.58355975039e-38
0.0511176065834 -0.139411654318 0.837 1.01108728876e-38
0.0526666249647 -0.139411654318 0.837 1.88772573518e-38
0.054215643346 -0.139411654318 0.837 1.77749497369e-38
0.0558979106203 -0.139744776551 0.839 1.72221318876e-38
0.0574506303598 -0.139744776551 0.839 1.69444814124e-38
0.0590033500993 -0.139744776551 0.839 1.79600808822e-38
0.0605560698387 -0.139744776551 0.839 5.6938007618e-39
0.0622568439037 -0.140077898783 0.841 2.75506488474e-39
0.063965020685 -0.140411021016 0.843 2.13544447511e-38
-0.0494353393091 -0.157133757089 0.954 1.84973190953e-38
-0.0472700447975 -0.155816073592 0.946 1.98864094474e-38
-0.0453749494302 -0.15532194228 0.943 4.86728129637e-39
-0.0436297590675 -0.15532194228 0.943 4.77689053893e-39
-0.0417513198118 -0.154827810969 0.94 4.40846254799e-39
-0.0393731972073 -0.152357154411 0.925 6.89559075856e-39
-0.0373763144911 -0.15120418135 0.918 8.46896727301e-39
-0.0355607983237 -0.150710050039 0.915 1.10489861575e-38
-0.0337933998122 -0.150380629164 0.913 6.9895422154e-39
-0.0319982411146 -0.149886497853 0.91 7.08174204916e-39
-0.0301808742682 -0.149227656104 0.906 1.04911572648e-38
-0.0283468513102 -0.148404103918 0.901 9.29403919711e-39
-0.0265313351428 -0.147580551732 0.896 7.9035923881e-39
-0.0246788053941 -0.146427578671 0.889 7.71848646615e-39
-0.0230335517011 -0.146427578671 0.889 6.15584810184e-39
-0.0212920626966 -0.145768736923 0.885 6.43207205513e-39
-0.0194987546781 -0.144615763862 0.878 8.46322895579e-39
-0.0177720711061 -0.143792211676 0.873 9.47843325944e-39
-0.0161564282782 -0.143792211676 0.873 1.01248634514e-38
-0.0145074732272 -0.143462790802 0.871 1.04007595009e-38
-0.0128659208924 -0.143133369927 0.869 7.63310815332e-39
-0.0111151784924 -0.141321555118 0.858 9.01207552532e-39
-0.00948287955299 -0.140662713369 0.854 5.97181837712e-39
-0.00787463944145 -0.140168582058 0.851 5.87783048652e-39
-0.00627010068805 -0.139509740309 0.847 5.78958231443e-39
-0.00470257551603 -0.139509740309 0.847 5.14673384132e-39
-0.00312764762774 -0.139180319435 0.845 1.1020259539e-39
-0.00155642109759 -0.138521477686 0.841 1.03079052607e-38
0.0 -0.137862635937 0.837 1.05866025058e-38
0.0015379143069 -0.136874373314 0.831 8.00439619443e-39
0.00306842589751 -0.136544952439 0.829 1.03964308899e-38
0.00460263884627 -0.136544952439 0.829 1.03028381655e-38
0.00612204636247 -0.136215531565 0.827 1.159495446e-38
0.00763405116239 -0.135886110691 0.825 4.95911679253e-39
0.00916086139487 -0.135886110691 0.825 1.19652237571e-38
0.0106617621204 -0.135556689816 0.823 2.75506488474e-39
0.0121848709947 -0.135556689816 0.823 1.83670992316e-39
0.0137079798691 -0.135556689816 0.823 1.88842091935e-38
0.015194075162 -0.135227268942 0.821 1.74976551916e-38
0.0167134826782 -0.135227268942 0.821 1.78660649657e-38
0.0183217227897 -0.135886110691 0.825 1.73125422632e-38
0.0198485330222 -0.135886110691 0.825 1.8143011989e-38
0.0214271622687 -0.136215531565 0.827 1.74047434982e-38
0.0229576738593 -0.136215531565 0.827 1.8233419562e-38
0.0244881854499 -0.136215531565 0.827 1.768059891e-38
0.0260186970405 -0.136215531565 0.827 1.78675167109e-38
0.0276158330776 -0.136544952439 0.829 1.76841988458e-38
0.0291500460264 -0.136544952439 0.829 1.72239437665e-38
0.0306842589751 -0.136544952439 0.829 1.65789457015e-38
0.0322184719239 -0.136544952439 0.829 1.72242996963e-38
0.0337526848727 -0.136544952439 0.829 1.56591179753e-38
0.0354571602958 -0.137203794188 0.833 1.73139351539e-38
0.0370876085562 -0.137533215063 0.835 1.45473572009e-38
0.0386329255794 -0.137533215063 0.835 1.2425157939e-38
0.0401782426026 -0.137533215063 0.835 1.21427528582e-38
0.0417235596257 -0.137533215063 0.835 1.34399628726e-38
0.0432688766489 -0.137533215063 0.835 1.20548914445e-38
0.0449215330581 -0.137862635937 0.837 1.53750271324e-38
0.0464705514394 -0.137862635937 0.837 1.11401266096e-38
0.0480195698208 -0.137862635937 0.837 1.67626489237e-38
0.0495685882021 -0.137862635937 0.837 1.53814955261e-38
0.0511176065834 -0.137862635937 0.837 1.49183453642e-38
0.0526666249647 -0.137862635937 0.837 1.56573201093e-38
0.054215643346 -0.137862635937 0.837 1.79614877859e-38
0.0560311595134 -0.138521477686 0.841 1.74998103887e-38
0.057587580611 -0.138521477686 0.841 1.75916500887e-38
0.0591440017085 -0.138521477686 0.841 1.62112351754e-38
0.0607004228061 -0.138521477686 0.841 4.86728129637e-39
0.0624048982293 -0.13885089856 0.843 2.57139389242e-39
0.063965020685 -0.13885089856 0.843 2.27351693514e-38
0.0655251431408 -0.13885089856 0.843 1.92377932298e-38
-0.0513082265276 -0.155693928773 0.956 1.7760517764e-38
-0.0494353393091 -0.155368209257 0.954 1.71158518068e-38
-0.0475198864719 -0.154879629983 0.951 1.97899104299e-38
-0.0453749494302 -0.153576751918 0.943 5.32645877716e-39
-0.0436297590675 -0.153576751918 0.943 5.14816877095e-39
-0.0418845687048 -0.153576751918 0.943 3.76956013136e-39
-0.0395008940631 -0.151133855546 0.928 2.7582934764e-39
-0.0373763144911 -0.149505257964 0.918 2.11329260885e-39
-0.0355607983237 -0.14901667869 0.915 3.95144166554e-39
-0.0337933998122 -0.148690959174 0.913 1.03132301949e-38
-0.0319982411146 -0.148202379899 0.91 9.20835259862e-39
-0.0301808742682 -0.147550940867 0.906 7.90969083901e-39
-0.0283468513102 -0.146736642076 0.901 1.05804872393e-38
-0.026590556873 -0.146248062802 0.898 1.01201999301e-38
-0.024623285022 -0.144456605462 0.887 6.9841612293e-39
-0.0229817326872 -0.144456605462 0.887 6.70614361397e-39
-0.0212920626966 -0.144130885946 0.885 4.22443282327e-39
-0.0194987546781 -0.142990867639 0.878 5.14458144688e-39
-0.0177720711061 -0.142176568848 0.873 7.07638628643e-39
-0.0161564282782 -0.142176568848 0.873 7.5434250516e-39
-0.0145074732272 -0.141850849332 0.871 6.25307439319e-39
-0.0128659208924 -0.141525129816 0.869 6.98704229894e-39
-0.0111410879994 -0.140059391993 0.86 8.54787579083e-39
-0.00948287955299 -0.139082233444 0.854 6.06401260568e-39
-0.00787463944145 -0.13859365417 0.851 5.51012976948e-39
-0.0062849061206 -0.138267934653 0.849 4.77544580022e-39
-0.00469147144162 -0.137616495621 0.845 4.68612143091e-39
-0.00312764762774 -0.137616495621 0.845 9.1835496158e-41
-0.00155642109759 -0.136965056588 0.841 9.38737828652e-39
0.0 -0.136639337072 0.839 1.02200088145e-38
0.00154161566504 -0.135662178523 0.833 7.63346688573e-39
0.00307582861379 -0.135336459007 0.831 1.02109788472e-38
0.00460263884627 -0.135010739491 0.829 1.1132207872e-38
0.00612204636247 -0.134685019974 0.827 1.05811850859e-38
0.00765255795309 -0.134685019974 0.827 1.00283700392e-38
0.00916086139487 -0.134359300458 0.825 1.16864634536e-38
0.0106876716274 -0.134359300458 0.825 7.17321320772e-39
0.0121848709947 -0.134033580942 0.823 2.29588740395e-39
0.0137079798691 -0.134033580942 0.823 1.93448117948e-38
0.0152681023248 -0.134359300458 0.825 1.79590257045e-38
0.0167949125573 -0.134359300458 0.825 1.69473554756e-38
0.0183661390874 -0.134685019974 0.827 1.71317495379e-38
0.019896650678 -0.134685019974 0.827 1.74994544588e-38
0.0214271622687 -0.134685019974 0.827 1.67619048342e-38
0.0229576738593 -0.134685019974 0.827 1.36301499028e-38
0.0245474071801 -0.135010739491 0.829 1.53818514559e-38
0.0260816201289 -0.135010739491 0.829 1.28900387046e-38
0.0276158330776 -0.135010739491 0.829 1.21499779531e-38
0.0291500460264 -0.135010739491 0.829 9.01997324346e-39
0.0306842589751 -0.135010739491 0.829 1.30715264739e-38
0.0322184719239 -0.135010739491 0.829 1.4450903025e-38
0.0338341147517 -0.135336459007 0.831 1.34399754843e-38
0.035542291533 -0.135987898039 0.835 1.7039154538e-38
0.0370876085562 -0.135987898039 0.835 1.40925349558e-38
0.0386329255794 -0.135987898039 0.835 1.50148738089e-38
0.0401782426026 -0.135987898039 0.835 1.6303039843e-38
0.0418234962955 -0.136313617556 0.837 1.38105404554e-38
0.0433725146768 -0.136313617556 0.837 1.74068664654e-38
0.0449215330581 -0.136313617556 0.837 1.32541002495e-38
0.0464705514394 -0.136313617556 0.837 1.42718493112e-38
0.0480195698208 -0.136313617556 0.837 1.12305425904e-38
0.0495685882021 -0.136313617556 0.837 8.74989818784e-39
0.051239751402 -0.136639337072 0.839 1.17988756164e-38
0.0527924711414 -0.136639337072 0.839 1.21622253017e-38
0.0543451908809 -0.136639337072 0.839 1.07724959575e-38
0.0560311595134 -0.136965056588 0.841 9.75544754506e-39
0.0577245308621 -0.137290776104 0.843 1.39957472708e-38
0.0592846533178 -0.137290776104 0.843 1.51981720558e-38
0.0608447757736 -0.137290776104 0.843 4.22443282327e-39
0.0625529525549 -0.137616495621 0.845 2.20405190779e-39
0.063965020685 -0.137290776104 0.843 2.34820376108e-38
0.0655251431408 -0.137290776104 0.843 2.06182067418e-38
-0.0513082265276 -0.153924679583 0.956 1.91470395361e-38
-0.0494353393091 -0.153602661425 0.954 2.09890954129e-38
-0.0476697914766 -0.153602661425 0.954 2.15452077149e-38
-0.0455193023976 -0.152314588792 0.946 4.5917748079e-39
-0.0437685599977 -0.152314588792 0.946 4.59787325882e-39
-0.0418845687048 -0.151831561555 0.943 4.231248739e-39
-0.0397137221561 -0.150221470764 0.933 3.49800390326e-39
-0.0376613190678 -0.148933398132 0.925 3.12850532029e-39
-0.0355607983237 -0.147323307341 0.915 3.22141701367e-39
-0.0337933998122 -0.147001289183 0.913 1.01019045774e-39
-0.0319982411146 -0.146518261946 0.91 5.61205461458e-39
-0.0301808742682 -0.14587422563 0.906 9.94121067598e-39
-0.0283468513102 -0.145069180234 0.901 9.4762752598e-39
-0.026590556873 -0.144586152997 0.898 9.93724640263e-39
-0.024623285022 -0.142815053127 0.887 9.47736406871e-39
-0.0229817326872 -0.142815053127 0.887 5.6938007618e-39
-0.0212920626966 -0.142493034969 0.885 7.81394151625e-39
-0.0194987546781 -0.141365971416 0.878 5.23892806989e-39
-0.0177720711061 -0.140560926021 0.873 5.14386398207e-39
-0.0161564282782 -0.140560926021 0.873 4.13368753731e-39
-0.0145074732272 -0.140238907862 0.871 3.12241247457e-39
-0.0128659208924 -0.139916889704 0.869 9.10649081195e-39
-0.0111669975064 -0.138789826151 0.862 8.2748804292e-39
-0.00948287955299 -0.137501753518 0.854 7.44549110453e-39
-0.00787463944145 -0.137018726281 0.851 5.96930725027e-39
-0.00627010068805 -0.136374689965 0.847 4.95911679253e-39
-0.00469147144162 -0.136052671807 0.845 3.58230181498e-39
-0.00312024491147 -0.135730653649 0.843 8.26519465422e-40
-0.00155642109759 -0.135408635491 0.841 4.78696307229e-39
0.0 -0.135086617332 0.839 1.06841861283e-38
0.00154161566504 -0.134120562858 0.833 7.449437161e-39
0.00307582861379 -0.1337985447 0.831 9.10463549278e-39
0.00460263884627 -0.133476526542 0.829 1.05790368954e-38
0.00612204636247 -0.133154508384 0.827 1.04886265198e-38
0.00765255795309 -0.133154508384 0.827 9.56525490969e-39
0.00918306954371 -0.133154508384 0.827 1.79542795066e-38
0.0106876716274 -0.132832490226 0.825 8.64365734346e-39
0.0122144818598 -0.132832490226 0.825 3.67341984632e-39
0.0137412920923 -0.132832490226 0.825 1.98987072427e-38
0.0152681023248 -0.132832490226 0.825 1.2703094279e-38
0.0168356274968 -0.133154508384 0.827 1.09513829168e-38
0.0183661390874 -0.133154508384 0.827 1.06744975507e-38
0.019896650678 -0.133154508384 0.827 1.3066151093e-38
0.0214271622687 -0.133154508384 0.827 1.4633126476e-38
0.0230131942314 -0.133476526542 0.829 1.39038627292e-38
0.0245474071801 -0.133476526542 0.829 1.54779889384e-38
0.0260816201289 -0.133476526542 0.829 1.49255172097e-38
0.0276158330776 -0.133476526542 0.829 1.55712355421e-38
0.0291500460264 -0.133476526542 0.829 1.29004755755e-38
0.0307582861379 -0.1337985447 0.831 1.40021946451e-38
0.0322962004448 -0.1337985447 0.831 1.49144049129e-38
0.0339155446308 -0.134120562858 0.833 1.29772022717e-38
0.035542291533 -0.134442581016 0.835 1.31608648562e-38
0.0370876085562 -0.134442581016 0.835 1.18766098461e-38
0.0386329255794 -0.134442581016 0.835 1.15135936698e-38
0.0401782426026 -0.134442581016 0.835 1.29930523586e-38
0.0418234962955 -0.134764599174 0.837 1.18852922914e-38
0.0433725146768 -0.134764599174 0.837 1.27107341583e-38
0.0449215330581 -0.134764599174 0.837 1.06784828435e-38
0.0464705514394 -0.134764599174 0.837 1.12349034312e-38
0.0481343119231 -0.135086617332 0.839 1.23408908559e-38
0.0496870316625 -0.135086617332 0.839 1.00428174263e-38
0.051239751402 -0.135086617332 0.839 9.68054113565e-39
0.0527924711414 -0.135086617332 0.839 7.65262824093e-39
0.0543451908809 -0.135086617332 0.839 8.8496664346e-39
0.0561644084064 -0.135730653649 0.843 8.38261225514e-39
0.0577245308621 -0.135730653649 0.843 1.52886581015e-38
0.0592846533178 -0.135730653649 0.843 1.29844077484e-38
0.0608447757736 -0.135730653649 0.843 3.94892633479e-39
0.0627010068805 -0.136374689965 0.847 2.29588740395e-39
0.0642685320525 -0.136374689965 0.847 2.34866422775e-38
-0.0514692356066 -0.152632905592 0.959 1.9422848705e-38
-0.049538977337 -0.152155430392 0.956 1.9883102383e-38
-0.0476697914766 -0.151837113592 0.954 2.14522609891e-38
-0.0455193023976 -0.150563846392 0.946 5.05095228869e-39
-0.0437685599977 -0.150563846392 0.946 5.05884580294e-39
-0.0417513198118 -0.149608895992 0.94 4.41599592853e-39
-0.0393731972073 -0.147221519992 0.925 3.13029898232e-39
-0.0376613190678 -0.147221519992 0.925 3.12850532029e-39
-0.0356773911051 -0.146107411192 0.918 3.31289377742e-39
-0.033867426975 -0.145629935992 0.915 2.94340360224e-39
-0.0319982411146 -0.144834143992 0.91 2.20512810501e-39
-0.0301808742682 -0.144197510392 0.906 4.32095286019e-39
-0.0284097743985 -0.143720035193 0.903 9.66319446196e-39
-0.0266793894684 -0.143401718393 0.901 9.56846948837e-39
-0.024623285022 -0.141173500793 0.887 8.73800396647e-39
-0.0229817326872 -0.141173500793 0.887 5.51048850189e-39
-0.0212920626966 -0.140855183993 0.885 8.55186949145e-39
-0.0194987546781 -0.139741075193 0.878 9.29800767437e-39
-0.0177720711061 -0.138945283193 0.873 3.30607786169e-39
-0.0161564282782 -0.138945283193 0.873 3.39791896304e-39
-0.0145074732272 -0.138626966393 0.871 2.84690878869e-39
-0.0128659208924 -0.138308649593 0.869 7.81360100072e-39
-0.0111669975064 -0.137194540793 0.862 8.82948073022e-39
-0.00950508770183 -0.136239590393 0.856 8.64329861106e-39
-0.00787463944145 -0.135443798393 0.851 7.16424489754e-39
-0.00627010068805 -0.134807164793 0.847 6.3366492349e-39
-0.00469147144162 -0.134488847993 0.845 2.29588740395e-39
-0.00312024491147 -0.134170531193 0.843 1.37753244237e-39
-0.00155642109759 -0.133852214393 0.841 0.0
0.0 -0.133215580793 0.837 8.37605277703e-39
0.00154531702318 -0.132897263993 0.835 9.38300483402e-39
0.00307582861379 -0.132260630393 0.831 8.18304493305e-39
0.00461374292069 -0.132260630393 0.831 9.65708339936e-39
0.00613685179503 -0.131942313593 0.829 1.05804690224e-38
0.00765255795309 -0.131623996793 0.827 1.08549231358e-38
0.00918306954371 -0.131623996793 0.827 1.84156682364e-38
0.0107135811343 -0.131623996793 0.827 3.76525534248e-39
0.0122440927249 -0.131623996793 0.827 2.75506488474e-39
0.0137746043156 -0.131623996793 0.827 2.09114144325e-38
0.0153051159062 -0.131623996793 0.827 1.4639276775e-38
0.0168356274968 -0.131623996793 0.827 1.38152670351e-38
0.0183661390874 -0.131623996793 0.827 1.57513332233e-38
0.019896650678 -0.131623996793 0.827 1.59317714201e-38
0.0214789812826 -0.131942313593 0.829 1.57423424924e-38
0.0230131942314 -0.131942313593 0.829 1.2149982157e-38
0.0245474071801 -0.131942313593 0.829 1.67650969921e-38
0.0260816201289 -0.131942313593 0.829 1.04050334612e-38
0.0276158330776 -0.131942313593 0.829 1.16968582856e-38
0.029220371831 -0.132260630393 0.831 1.08758473244e-38
0.0308323133007 -0.132578947193 0.833 9.95598876959e-39
0.0323739289658 -0.132578947193 0.833 1.28047626865e-38
0.0339969745099 -0.132897263993 0.835 1.15092972887e-38
0.035542291533 -0.132897263993 0.835 1.16908523204e-38
0.0370876085562 -0.132897263993 0.835 1.00360197275e-38
0.0386329255794 -0.132897263993 0.835 1.01393290555e-38
0.0401782426026 -0.132897263993 0.835 8.39194770551e-39
0.0418234962955 -0.133215580793 0.837 6.27109509144e-39
0.0433725146768 -0.133215580793 0.837 1.09680527634e-38
0.0449215330581 -0.133215580793 0.837 8.38763170624e-39
0.0464705514394 -0.133215580793 0.837 1.05970870209e-38
0.0481343119231 -0.133533897593 0.839 1.07742938234e-38
0.0496870316625 -0.133533897593 0.839 1.10490800445e-38
0.051239751402 -0.133533897593 0.839 1.22505127101e-38
0.0527924711414 -0.133533897593 0.839 1.2995204753e-38
0.0544747384158 -0.133852214393 0.841 1.22587243191e-38
0.0561644084064 -0.134170531193 0.843 1.34543962468e-38
0.0577245308621 -0.134170531193 0.843 1.87902114938e-38
0.0594253049271 -0.134488847993 0.845 9.29224833768e-39
0.060989128741 -0.134488847993 0.845 3.58158435016e-39
0.062849061206 -0.135125481593 0.849 3.30607786169e-39
0.0644202877362 -0.135125481593 0.849 2.34920582961e-38
-0.0514692356066 -0.150858104364 0.959 1.80359892201e-38
-0.049538977337 -0.150386181201 0.956 1.87742605134e-38
-0.0477697281463 -0.150386181201 0.956 2.0620329709e-38
-0.0456155377093 -0.149127719434 0.948 5.96930725027e-39
-0.0437685599977 -0.148813103992 0.946 5.14852750336e-39
-0.0417513198118 -0.147869257667 0.94 4.41563719613e-39
-0.0393731972073 -0.145509641853 0.925 4.41599592853e-39
-0.0376613190678 -0.145509641853 0.925 3.3125462554e-39
-0.0358717124074 -0.145195026411 0.923 4.04506661983e-39
-0.033867426975 -0.143936564644 0.915 3.03559362691e-39
-0.0321037298216 -0.143621949202 0.913 2.66609924784e-39
-0.0301808742682 -0.142520795155 0.906 6.06869574515e-39
-0.0284097743985 -0.142048871993 0.903 5.69488116291e-39
-0.0266793894684 -0.141734256551 0.901 8.37283119186e-39
-0.0246788053941 -0.1398465639 0.889 8.73800396647e-39
-0.0230335517011 -0.1398465639 0.889 7.54127265716e-39
-0.0213401803524 -0.139531948458 0.887 9.47807732963e-39
-0.0195431709757 -0.138430794411 0.88 1.14120822078e-38
-0.0178127860456 -0.137644255807 0.875 3.58158435016e-39
-0.0161564282782 -0.137329640365 0.873 3.48976707088e-39
-0.0145074732272 -0.137015024923 0.871 3.12240686937e-39
-0.0128955317575 -0.137015024923 0.871 4.22445944794e-39
-0.0111929070134 -0.135913870877 0.864 8.92311128971e-39
-0.0095495039995 -0.135284639993 0.86 8.55002818527e-39
-0.0079023996275 -0.134340793667 0.854 8.36671592536e-39
-0.0062849061206 -0.133554255063 0.849 7.6320319561e-39
-0.00469147144162 -0.132925024179 0.845 2.8469003809e-39
-0.00312024491147 -0.132610408737 0.843 4.5917748079e-40
-0.00155642109759 -0.132295793295 0.841 0.0
0.0 -0.131666562412 0.837 8.36783135894e-39
0.00154531702318 -0.13135194697 0.835 7.53338054421e-39
0.00307582861379 -0.130722716086 0.831 7.53122814977e-39
0.00461374292069 -0.130722716086 0.831 9.37799519201e-39
0.00613685179503 -0.130408100644 0.829 1.07634309577e-38
0.00767106474379 -0.130408100644 0.829 9.19574932023e-39
0.00918306954371 -0.130093485203 0.827 1.79546718702e-38
0.0107135811343 -0.130093485203 0.827 4.77544580022e-39
0.0122440927249 -0.130093485203 0.827 2.93873587706e-39
0.0137746043156 -0.130093485203 0.827 2.00816509611e-38
0.0153051159062 -0.130093485203 0.827 1.13223668762e-38
0.0168763424363 -0.130408100644 0.829 1.21654721102e-38
0.0184105553851 -0.130408100644 0.829 1.12460269384e-38
0.0199447683338 -0.130408100644 0.829 1.23487843701e-38
0.0214789812826 -0.130408100644 0.829 1.31713577791e-38
0.0230131942314 -0.130408100644 0.829 1.19692160564e-38
0.0245474071801 -0.130408100644 0.829 1.16022538237e-38
0.0260816201289 -0.130408100644 0.829 1.12363481699e-38
0.0276824575241 -0.130722716086 0.831 1.1885642616e-38
0.0292906976357 -0.131037331528 0.833 7.83375447523e-39
0.0308323133007 -0.131037331528 0.833 8.76147431445e-39
0.0323739289658 -0.131037331528 0.833 9.12881489778e-39
0.0339969745099 -0.13135194697 0.835 9.49290727128e-39
0.035542291533 -0.13135194697 0.835 9.5825875704e-39
0.0370876085562 -0.13135194697 0.835 9.5814875511e-39
0.0386329255794 -0.13135194697 0.835 1.00413951084e-38
0.0401782426026 -0.13135194697 0.835 1.17931120758e-38
0.0418234962955 -0.131666562412 0.837 1.20714589963e-38
0.0433725146768 -0.131666562412 0.837 1.26274970295e-38
0.0449215330581 -0.131666562412 0.837 1.31799645543e-38
0.0465815921836 -0.131981177854 0.839 1.40990369806e-38
0.0481343119231 -0.131981177854 0.839 1.14231931033e-38
0.0496870316625 -0.131981177854 0.839 1.29001280535e-38
0.0513618962206 -0.132295793295 0.841 1.0038130083e-38
0.0529183173182 -0.132295793295 0.841 7.8186358661e-39
0.0546042859506 -0.132610408737 0.843 7.53844343556e-39
0.0561644084064 -0.132610408737 0.843 1.42769234129e-38
0.0578614811133 -0.132925024179 0.845 1.96192112575e-38
0.0594253049271 -0.132925024179 0.845 5.97289457434e-39
0.060989128741 -0.132925024179 0.845 2.66322938858e-39
0.0627010068805 -0.133239639621 0.847 3.58158435016e-39
0.0644202877362 -0.133554255063 0.849 2.33937445971e-38
-0.047919633151 -0.149083303136 0.959 2.02505004196e-38
-0.0459042436441 -0.148306017927 0.954 5.51012976948e-39
-0.0441386958117 -0.148306017927 0.954 4.41279256025e-39
-0.0423731479792 -0.148306017927 0.954 4.04686028187e-39
-0.0395008940631 -0.144264134839 0.928 6.80766768771e-39
-0.0376613190678 -0.143797763713 0.925 4.5038993812e-39
-0.0358717124074 -0.14348684963 0.923 4.04434915502e-39
-0.033867426975 -0.142243193295 0.915 4.13833704562e-39
-0.0321037298216 -0.141932279211 0.913 1.01019045774e-39
-0.0302474987147 -0.141154994002 0.908 1.21567742507e-38
-0.0285041590311 -0.140844079918 0.906 5.05095228869e-39
-0.0266793894684 -0.140066794709 0.901 6.71116586767e-39
-0.0246788053941 -0.138201310207 0.889 8.27667409124e-39
-0.0230335517011 -0.138201310207 0.889 7.90610351495e-39
-0.0213401803524 -0.137890396123 0.887 1.07659518937e-38
-0.0195431709757 -0.13680219683 0.88 1.18737259738e-38
-0.0178127860456 -0.136024911621 0.875 2.38772290011e-39
-0.0161564282782 -0.135713997537 0.873 2.02040613885e-39
-0.0145074732272 -0.135403083453 0.871 3.21424236553e-39
-0.0128955317575 -0.135403083453 0.871 3.12241807976e-39
-0.0111929070134 -0.13431488416 0.864 8.27918802068e-39
-0.0095495039995 -0.133693055993 0.86 8.45711649189e-39
-0.0079023996275 -0.132760313742 0.854 7.44692603416e-39
-0.00629971155316 -0.132293942616 0.851 1.15084971473e-38
-0.00470257551603 -0.131672114449 0.847 1.56120343469e-39
-0.00312764762774 -0.131361200365 0.845 3.67341984632e-40
-0.00156012245573 -0.131050286282 0.843 0.0
0.0 -0.13011754403 0.837 1.32570471802e-38
0.00154531702318 -0.129806629947 0.835 5.78994104684e-39
0.00308323133007 -0.129495715863 0.833 6.8901733387e-39
0.00461374292069 -0.129184801779 0.831 7.07133320417e-39
0.00615165722759 -0.129184801779 0.831 8.91629817658e-39
0.00767106474379 -0.128873887696 0.829 1.14113185001e-38
0.00920527769254 -0.128873887696 0.829 1.71267300868e-38
0.0107394906413 -0.128873887696 0.829 5.60196526564e-39
0.0122737035901 -0.128873887696 0.829 5.14926879025e-39
0.0138079165388 -0.128873887696 0.829 2.01752955336e-38
0.0153421294876 -0.128873887696 0.829 1.18759091969e-38
0.0168763424363 -0.128873887696 0.829 1.13335562444e-38
0.0184105553851 -0.128873887696 0.829 3.04642146014e-39
0.0199447683338 -0.128873887696 0.829 9.04095488537e-39
0.0215308002966 -0.129184801779 0.831 1.0510304607e-38
0.0230687146034 -0.129184801779 0.831 1.00464299738e-38
0.0246066289103 -0.129184801779 0.831 9.21021212168e-39
0.0261445432172 -0.129184801779 0.831 1.07768119568e-38
0.0276824575241 -0.129184801779 0.831 1.01314243308e-38
0.0292906976357 -0.129495715863 0.833 1.13303164424e-38
0.0309063404635 -0.129806629947 0.835 1.21615190473e-38
0.0324516574867 -0.129806629947 0.835 1.17981119087e-38
0.0339969745099 -0.129806629947 0.835 1.34555018713e-38
0.035542291533 -0.129806629947 0.835 1.39157191155e-38
0.0370876085562 -0.129806629947 0.835 1.12434961934e-38
0.0386329255794 -0.129806629947 0.835 1.2532434343e-38
0.0401782426026 -0.129806629947 0.835 1.10558777433e-38
0.0418234962955 -0.13011754403 0.837 1.43694875843e-38
0.0433725146768 -0.13011754403 0.837 9.29655032396e-39
0.0450288724442 -0.130428458114 0.839 7.81821407526e-39
0.0465815921836 -0.130428458114 0.839 1.38166164855e-38
0.0481343119231 -0.130428458114 0.839 8.74775980638e-39
0.049805475123 -0.130739372198 0.841 1.06014184345e-38
0.0514840410392 -0.131050286282 0.843 1.29930845885e-38
0.0530441634949 -0.131050286282 0.843 1.44660062199e-38
0.0546042859506 -0.131050286282 0.843 1.49237599814e-38
0.0562976572994 -0.131361200365 0.845 1.36312218961e-38
0.0578614811133 -0.131361200365 0.845 1.9712184608e-38
0.0594253049271 -0.131361200365 0.845 4.5917748079e-39
0.060989128741 -0.131361200365 0.845 2.47955839627e-39
0.0627010068805 -0.131672114449 0.847 7.90937414556e-39
0.0644202877362 -0.131983028533 0.849 1.85060043432e-38
-0.047919633151 -0.147308501909 0.959 1.95154549153e-38
-0.0460004789557 -0.14684768282 0.956 5.51012976948e-39
-0.0442312297651 -0.14684768282 0.956 4.41279256025e-39
-0.0413071568351 -0.142853917388 0.93 4.22837887974e-39
-0.0395008940631 -0.142546704662 0.928 1.05870130863e-38
-0.0376613190678 -0.142085885574 0.925 4.60183332828e-39
-0.0358717124074 -0.141778672848 0.923 5.42549554613e-39
-0.033867426975 -0.140549821946 0.915 5.05848566923e-39
-0.0321037298216 -0.140242609221 0.913 2.9408882715e-39
-0.0302474987147 -0.139474577407 0.908 8.27993211017e-39
-0.0285670821194 -0.139474577407 0.908 1.14116548117e-38
-0.026827443794 -0.139167364681 0.906 3.21460109794e-39
-0.0250119276266 -0.138399332867 0.901 8.73911099226e-39
-0.0230335517011 -0.136556056514 0.889 7.54199012198e-39
-0.0213401803524 -0.136248843788 0.887 8.46215275857e-39
-0.0196542117199 -0.135941631063 0.885 1.21481646729e-38
-0.0179145733944 -0.135173599249 0.88 9.29583285915e-39
-0.0161934418596 -0.134405567435 0.875 3.30607786169e-39
-0.0145407854504 -0.134098354709 0.873 3.30609467727e-39
-0.0128659208924 -0.133483929258 0.869 2.47955979756e-39
-0.0111929070134 -0.132715897444 0.864 7.08281264119e-39
-0.0095495039995 -0.132101471993 0.86 5.97325330674e-39
-0.0079023996275 -0.131179833816 0.854 6.52032022722e-39
-0.00629971155316 -0.130719014728 0.851 1.18762623241e-38
-0.00471367959045 -0.130411802003 0.849 1.92854541932e-39
-0.00312764762774 -0.129797376551 0.845 1.56227963191e-39
-0.00156012245573 -0.129490163826 0.843 0.0
0.0 -0.128875738375 0.839 1.29783163039e-38
0.00154531702318 -0.128261312924 0.835 4.13259732711e-39
0.00308323133007 -0.127954100198 0.833 6.24911852763e-39
0.00462484699511 -0.127954100198 0.833 6.52354881888e-39
0.00615165722759 -0.127646887472 0.831 6.79582671569e-39
0.00767106474379 -0.127339674747 0.829 1.05786893734e-38
0.00920527769254 -0.127339674747 0.829 1.71263335193e-38
0.0107394906413 -0.127339674747 0.829 5.60196526564e-39
0.0122737035901 -0.127339674747 0.829 7.63819206415e-39
0.0138079165388 -0.127339674747 0.829 1.91632903944e-38
0.0153421294876 -0.127339674747 0.829 1.12273630442e-38
0.0168763424363 -0.127339674747 0.829 1.13281654492e-38
0.0184105553851 -0.127339674747 0.829 1.0871859229e-38
0.0199447683338 -0.127339674747 0.829 1.13396322746e-38
0.0215308002966 -0.127646887472 0.831 1.21683363643e-38
0.0230687146034 -0.127646887472 0.831 1.35490833853e-38
0.0246066289103 -0.127646887472 0.831 1.46503904731e-38
0.0261445432172 -0.127646887472 0.831 1.40961447006e-38
0.0276824575241 -0.127646887472 0.831 1.32688881522e-38
0.0293610234403 -0.128261312924 0.835 1.27168256027e-38
0.0309063404635 -0.128261312924 0.835 1.04104676966e-38
0.0324516574867 -0.128261312924 0.835 9.29838462365e-39
0.0339969745099 -0.128261312924 0.835 1.02157040257e-38
0.035542291533 -0.128261312924 0.835 1.14084318253e-38
0.0371764411516 -0.128568525649 0.837 9.85803800693e-39
0.0387254595329 -0.128568525649 0.837 1.02361741936e-38
0.0402744779142 -0.128568525649 0.837 4.79274623106e-39
0.0418234962955 -0.128568525649 0.837 1.17927995862e-38
0.0434761527047 -0.128875738375 0.839 1.07750126895e-38
0.0451362118302 -0.1291829511 0.841 1.06766625568e-38
0.0466926329278 -0.1291829511 0.841 1.46420765693e-38
0.0482490540254 -0.1291829511 0.841 8.92998746128e-39
0.049805475123 -0.1291829511 0.841 1.04112566277e-38
0.0514840410392 -0.129490163826 0.843 1.16134067581e-38
0.0530441634949 -0.129490163826 0.843 1.06917559426e-38
0.0546042859506 -0.129490163826 0.843 1.44674719781e-38
0.0562976572994 -0.129797376551 0.845 1.35393793935e-38
0.0578614811133 -0.129797376551 0.845 1.97118146652e-38
0.0594253049271 -0.129797376551 0.845 4.04076183095e-39
0.060989128741 -0.129797376551 0.845 2.57139389242e-39
0.0627010068805 -0.130104589277 0.847 8.46038992511e-39
0.0644202877362 -0.130411802003 0.849 1.841273672e-38
-0.0413071568351 -0.141132785853 0.93 9.5731890616e-39
-0.0395860253003 -0.141132785853 0.93 3.39791335785e-39
-0.0377834638864 -0.140829274486 0.928 4.69258141683e-39
-0.0359494409284 -0.140374007435 0.925 1.04126158872e-38
-0.0339784677192 -0.139311717649 0.918 3.86785281084e-39
-0.0321037298216 -0.13855293923 0.913 5.3390144114e-39
-0.0302474987147 -0.137794160811 0.908 8.92922375361e-39
-0.0285670821194 -0.137794160811 0.908 9.29511539433e-39
-0.026827443794 -0.137490649444 0.906 9.66891456229e-39
-0.0250674479987 -0.137035382393 0.903 3.12240686937e-39
-0.0230853707151 -0.135214314188 0.891 8.28135162551e-39
-0.0213401803524 -0.134607291453 0.887 1.07655833522e-38
-0.0196542117199 -0.134303780086 0.885 1.14131387868e-38
-0.0180163607432 -0.134303780086 0.885 1.10468169475e-38
-0.0161934418596 -0.132786223249 0.875 8.83844904039e-39
-0.0145407854504 -0.132482711881 0.873 2.93874848874e-39
-0.0128659208924 -0.131875689147 0.869 3.30608066428e-39
-0.0111929070134 -0.131116910728 0.864 1.37753244237e-39
-0.00957171214834 -0.130813399361 0.862 5.60844486974e-39
-0.00793941320889 -0.130206376626 0.858 5.97002471508e-39
-0.00633672513455 -0.129902865258 0.856 1.07659336768e-38
-0.00472478366487 -0.12914408684 0.851 1.744874427e-39
-0.0031424530603 -0.128840575472 0.849 1.19386145005e-39
-0.00156752517201 -0.128537064105 0.847 0.0
0.0 -0.127626530003 0.841 1.2246122442e-38
0.00155271973945 -0.127323018635 0.839 4.41169113965e-39
0.00309063404635 -0.1267159959 0.835 5.23641694304e-39
0.00463595106953 -0.1267159959 0.835 6.06759992975e-39
0.00616646266014 -0.126412484533 0.833 5.14278778485e-39
0.00768957153448 -0.126108973166 0.831 1.14970485388e-38
0.00920527769254 -0.125805461798 0.829 1.54700800098e-38
0.0107394906413 -0.125805461798 0.829 5.14278778485e-39
0.0122737035901 -0.125805461798 0.829 9.66433371761e-39
0.0138079165388 -0.125805461798 0.829 1.93469669919e-38
0.0153421294876 -0.125805461798 0.829 1.57492228678e-38
0.0168763424363 -0.125805461798 0.829 1.26217615149e-38
0.0184105553851 -0.125805461798 0.829 1.0780339025e-38
0.0199447683338 -0.125805461798 0.829 9.58078690187e-39
0.0215308002966 -0.126108973166 0.831 9.58582176725e-39
0.0230687146034 -0.126108973166 0.831 1.46482801176e-38
0.0246658506406 -0.126412484533 0.833 1.4369885553e-38
0.0262074663056 -0.126412484533 0.833 1.15099587016e-38
0.0277490819706 -0.126412484533 0.833 9.95023784069e-39
0.0293610234403 -0.1267159959 0.835 8.20678292903e-39
0.0309063404635 -0.1267159959 0.835 1.20754569008e-38
0.0324516574867 -0.1267159959 0.835 1.04073007621e-38
0.0339969745099 -0.1267159959 0.835 1.19699503368e-38
0.0356274227702 -0.127019507268 0.837 1.16904067074e-38
0.0371764411516 -0.127019507268 0.837 1.14185085625e-38
0.0387254595329 -0.127019507268 0.837 1.12409500341e-38
0.0402744779142 -0.127019507268 0.837 1.21636322053e-38
0.0419234329653 -0.127323018635 0.839 1.15201027012e-38
0.0435797907326 -0.127626530003 0.841 1.02318820164e-38
0.0451362118302 -0.127626530003 0.841 9.30132735043e-39
0.0466926329278 -0.127626530003 0.841 1.06781129007e-38
0.0483637961277 -0.12793004137 0.843 7.81713787804e-39
0.0499239185834 -0.12793004137 0.843 8.65123136166e-39
0.0514840410392 -0.12793004137 0.843 1.07764167906e-38
0.0530441634949 -0.12793004137 0.843 1.1793812725e-38
0.0547338334855 -0.128233552738 0.845 1.30845319249e-38
0.0562976572994 -0.128233552738 0.845 1.39085290531e-38
0.0578614811133 -0.128233552738 0.845 1.95299443414e-38
0.0595659565364 -0.128537064105 0.847 3.76525534248e-39
0.0611334817084 -0.128537064105 0.847 2.47955839627e-39
0.062849061206 -0.128840575472 0.849 1.34295862575e-38
-0.0413071568351 -0.139411654318 0.93 1.0589138856e-38
-0.0395860253003 -0.139411654318 0.93 3.85852576826e-39
-0.0377834638864 -0.139111844309 0.928 3.31398118503e-39
-0.0359494409284 -0.138662129295 0.925 8.47942236085e-39
-0.0339784677192 -0.137612794263 0.918 5.61954315357e-39
-0.0321740556262 -0.137163079249 0.915 4.41599592853e-39
-0.0303141231612 -0.136413554225 0.91 7.63848913942e-39
-0.0285670821194 -0.136113744216 0.908 1.27960255906e-38
-0.026827443794 -0.135813934207 0.906 8.6558542453e-39
-0.0250674479987 -0.135364219193 0.903 2.38772290011e-39
-0.0230853707151 -0.133565359137 0.891 5.24287412636e-39
-0.0213401803524 -0.132965739119 0.887 1.04004063737e-38
-0.0196542117199 -0.132665929109 0.885 1.06776770969e-38
-0.0180163607432 -0.132665929109 0.885 8.64940126587e-39
-0.0162489622317 -0.131616594077 0.878 1.16018642627e-38
-0.0145407854504 -0.130867069054 0.873 1.56120343469e-39
-0.0128955317575 -0.130567259044 0.871 5.42230058563e-39
-0.0111929070134 -0.129517924012 0.864 2.66322938858e-39
-0.00957171214834 -0.129218114003 0.862 4.68900810574e-39
-0.00793941320889 -0.128618493984 0.858 6.80587122308e-39
-0.00635153056711 -0.128618493984 0.858 7.35150321393e-39
-0.0047414397765 -0.128018873965 0.854 1.56120343469e-39
-0.00314985577658 -0.127569158951 0.851 9.1835496158e-40
-0.00156752517201 -0.126969538933 0.847 0.0
0.0 -0.126070108905 0.841 1.25219848603e-38
0.00155271973945 -0.125770298896 0.839 7.45053998289e-39
0.00309803676263 -0.125470488886 0.837 4.77544860281e-39
