# .PCD v0.7 - Point Cloud Data file format
VERSION 0.7
FIELDS x y z rgb
SIZE 4 4 4 4
TYPE F F F F
COUNT 1 1 1 1
WIDTH 845
HEIGHT 1
VIEWPOINT 0 0 0 1 0 0 0
POINTS 845
DATA ascii
0.0102601647623 -0.0513008238113 0.792 5.41829427332e-39
0.0117259025854 -0.0513008238113 0.792 7.4386751888e-39
0.0131583281854 -0.0511712762764 0.79 9.55125033284e-39
0.0146203646504 -0.0511712762764 0.79 7.53051068496e-39
0.0160824011154 -0.0511712762764 0.79 2.34887021863e-38
0.0175444375805 -0.0511712762764 0.79 2.08138434217e-38
0.0190064740455 -0.0511712762764 0.79 2.34999938493e-38
0.0204426010036 -0.051106502509 0.789 1.55496779665e-38
0.0219027867896 -0.051106502509 0.789 1.90689507778e-38
0.0233925834406 -0.0511712762764 0.79 2.34946913359e-38
0.0248231583615 -0.051106502509 0.789 2.34942793542e-38
0.0262833441475 -0.051106502509 0.789 2.34960884305e-38
0.0277435299334 -0.051106502509 0.789 2.34982296145e-38
0.0292037157194 -0.051106502509 0.789 2.34953359332e-38
0.0305861729845 -0.0509769549741 0.787 2.34975373731e-38
0.0320426574123 -0.0509769549741 0.787 2.34943326035e-38
0.0334140106029 -0.0508474074392 0.785 2.34946661125e-38
0.0347779610773 -0.0507178599043 0.783 2.34961122525e-38
0.0362270427888 -0.0507178599043 0.783 2.35000611116e-38
0.0376761245004 -0.0507178599043 0.783 2.35018687866e-38
0.0392251428817 -0.0508474074392 0.785 2.35003932193e-38
0.0406779259514 -0.0508474074392 0.785 6.43350698476e-39
0.0421307090211 -0.0508474074392 0.785 1.02866531682e-38
0.0436945328349 -0.0509769549741 0.787 2.31144433924e-38
0.0451510172628 -0.0509769549741 0.787 3.94892633479e-39
0.0466075016906 -0.0509769549741 0.787 1.48092584826e-38
0.048186130937 -0.051106502509 0.789 1.44375486507e-38
0.049646316723 -0.051106502509 0.789 1.42549678686e-38
0.051106502509 -0.051106502509 0.789 1.46216050001e-38
0.0525666882949 -0.051106502509 0.789 1.50818614807e-38
0.0540268740809 -0.051106502509 0.789 1.46259434201e-38
0.0554870598669 -0.051106502509 0.789 1.44433051848e-38
0.0569472456528 -0.051106502509 0.789 1.41670784289e-38
0.0584074314388 -0.051106502509 0.789 1.58244669902e-38
0.0598676172248 -0.051106502509 0.789 1.42574607785e-38
0.0613278030108 -0.051106502509 0.789 1.42571188617e-38
0.0627879887967 -0.051106502509 0.789 1.30607294692e-38
0.0642481745827 -0.051106502509 0.789 1.48120919081e-38
0.0657083603687 -0.051106502509 0.789 1.64709504315e-38
0.0671685461546 -0.051106502509 0.789 1.3893410444e-38
0.0684547681081 -0.0509769549741 0.787 1.04864881383e-38
0.0699112525359 -0.0509769549741 0.787 1.34295708432e-38
0.0713677369637 -0.0509769549741 0.787 1.60088904797e-38
0.00589256215783 -0.0500867783416 0.796 2.08109147079e-38
0.00734719590659 -0.0499609321648 0.794 2.19183440687e-38
0.00879442693908 -0.0498350859881 0.792 2.19180105597e-38
0.0102601647623 -0.0498350859881 0.792 9.65851132249e-39
0.0116962917203 -0.0497092398114 0.79 7.34683969264e-39
0.0131583281854 -0.0497092398114 0.79 9.73635625478e-39
0.0146203646504 -0.0497092398114 0.79 7.89785266959e-39
0.0160824011154 -0.0497092398114 0.79 1.76695062314e-38
0.0175222294316 -0.049646316723 0.789 2.10968650739e-38
0.0189824152176 -0.049646316723 0.789 2.34943045775e-38
0.0204426010036 -0.049646316723 0.789 1.31633269376e-38
0.0219027867896 -0.049646316723 0.789 2.34935478764e-38
0.0233629725755 -0.049646316723 0.789 2.34910521638e-38
0.0248231583615 -0.049646316723 0.789 2.34957170864e-38
0.0262833441475 -0.049646316723 0.789 2.34939262269e-38
0.0276732041288 -0.0495204705463 0.787 2.34957268955e-38
0.0291296885566 -0.0495204705463 0.787 2.34953597553e-38
0.0305861729845 -0.0495204705463 0.787 2.3495372367e-38
0.0320426574123 -0.0495204705463 0.787 2.34957296981e-38
0.0334140106029 -0.0493946243695 0.785 2.34971772394e-38
0.0347779610773 -0.0492687781928 0.783 2.35029449839e-38
0.0362270427888 -0.0492687781928 0.783 2.35069120598e-38
0.0376761245004 -0.0492687781928 0.783 2.303724586e-38
0.0391252062119 -0.0492687781928 0.783 1.88854675595e-38
0.0405742879235 -0.0492687781928 0.783 7.5484473053e-39
0.0421307090211 -0.0493946243695 0.785 5.87747175411e-39
0.0435834920908 -0.0493946243695 0.785 5.96930725027e-39
0.0450362751604 -0.0493946243695 0.785 2.38772290011e-39
0.0464890582301 -0.0493946243695 0.785 1.43561542294e-38
0.0480639861184 -0.0495204705463 0.787 1.43554507775e-38
0.0495204705463 -0.0495204705463 0.787 1.41732273265e-38
0.0509769549741 -0.0495204705463 0.787 1.34374601536e-38
0.0524334394019 -0.0495204705463 0.787 1.25165772496e-38
0.0538899238298 -0.0495204705463 0.787 1.30668769656e-38
0.0553464082576 -0.0495204705463 0.787 1.19623244706e-38
0.0568028926854 -0.0495204705463 0.787 1.14095220355e-38
0.0582593771132 -0.0495204705463 0.787 1.63898082439e-38
0.0598676172248 -0.049646316723 0.789 1.17804135091e-38
0.0613278030108 -0.049646316723 0.789 9.38121117198e-39
0.0626288303967 -0.0495204705463 0.787 8.35740149447e-39
0.0640853148246 -0.0495204705463 0.787 8.63255765833e-39
0.0657083603687 -0.049646316723 0.789 1.1020259539e-38
0.0671685461546 -0.049646316723 0.789 9.73456259275e-39
0.0684547681081 -0.0495204705463 0.787 8.99987862348e-39
0.0699112525359 -0.0495204705463 0.787 1.91513036873e-38
0.0713677369637 -0.0495204705463 0.787 1.71122911074e-38
0.0728242213916 -0.0495204705463 0.787 2.35040029642e-38
0.00590736759039 -0.0487357826207 0.798 2.05350564935e-38
0.00734719590659 -0.0484914929835 0.794 1.97967725885e-38
0.00879442693908 -0.0483693481649 0.792 2.2654474178e-38
0.0102342552553 -0.0482472033463 0.79 1.69419226414e-38
0.0116962917203 -0.0482472033463 0.79 8.81620763117e-39
0.0131583281854 -0.0482472033463 0.79 1.01022633098e-38
0.0146203646504 -0.0482472033463 0.79 9.09171411964e-39
0.0160620436457 -0.048186130937 0.789 5.6938007618e-39
0.0175222294316 -0.048186130937 0.789 2.35028749189e-38
0.0189824152176 -0.048186130937 0.789 2.12661517374e-38
0.0204426010036 -0.048186130937 0.789 1.84245538699e-38
0.0218472664175 -0.0480639861184 0.787 2.34939108127e-38
0.0233037508453 -0.0480639861184 0.787 2.200729289e-38
0.0247602352731 -0.0480639861184 0.787 2.34971786407e-38
0.026216719701 -0.0480639861184 0.787 2.34961150551e-38
0.0276732041288 -0.0480639861184 0.787 2.34971590225e-38
0.0291296885566 -0.0480639861184 0.787 2.34997009779e-38
0.0305861729845 -0.0480639861184 0.787 2.35029730098e-38
0.0319612275332 -0.0479418412998 0.785 2.35047540602e-38
0.0334140106029 -0.0479418412998 0.785 2.34949589839e-38
0.0348667936726 -0.0479418412998 0.785 1.9430482979e-38
0.0362270427888 -0.0478196964812 0.783 7.80606341628e-39
0.0376761245004 -0.0478196964812 0.783 4.95911679253e-39
0.0391252062119 -0.0478196964812 0.783 2.29588740395e-39
0.0405742879235 -0.0478196964812 0.783 3.39791335785e-39
0.042023369635 -0.0478196964812 0.783 3.94892633479e-39
0.0434724513466 -0.0478196964812 0.783 5.6938007618e-39
0.0449215330581 -0.0478196964812 0.783 6.42848473106e-39
0.0463706147697 -0.0478196964812 0.783 6.06114274643e-39
0.0478196964812 -0.0478196964812 0.783 5.78563625795e-39
0.0493946243695 -0.0479418412998 0.785 5.32645877716e-39
0.0508474074392 -0.0479418412998 0.785 3.94892633479e-39
0.0523001905089 -0.0479418412998 0.785 3.489748854e-39
0.0537529735786 -0.0479418412998 0.785 3.39791335785e-39
0.0552057566483 -0.0479418412998 0.785 4.13259732711e-39
0.0568028926854 -0.0480639861184 0.787 4.49993931174e-39
0.0582593771132 -0.0480639861184 0.787 4.77544580022e-39
0.0597158615411 -0.0480639861184 0.787 5.32645877716e-39
0.0611723459689 -0.0480639861184 0.787 7.34683969264e-39
0.0626288303967 -0.0480639861184 0.787 8.26519465422e-39
0.0640853148246 -0.0480639861184 0.787 8.81620763117e-39
0.0655417992524 -0.0480639861184 0.787 1.06529175543e-38
0.0669982836802 -0.0480639861184 0.787 1.276872129e-38
0.0684547681081 -0.0480639861184 0.787 1.70183564662e-38
0.0699112525359 -0.0480639861184 0.787 2.34863353932e-38
0.0713677369637 -0.0480639861184 0.787 2.13604605254e-38
0.0728242213916 -0.0480639861184 0.787 2.35062478443e-38
0.00590736759039 -0.0472589407231 0.798 1.95191235147e-38
0.00734719590659 -0.0470220538022 0.794 1.99811358223e-38
0.00879442693908 -0.0469036103417 0.792 2.12740284361e-38
0.0102342552553 -0.0467851668813 0.79 1.90610194285e-38
0.0116962917203 -0.0467851668813 0.79 8.81620763117e-39
0.0131583281854 -0.0467851668813 0.79 9.64272709659e-39
0.0146018578597 -0.0467259451511 0.789 8.81620763117e-39
0.0160620436457 -0.0467259451511 0.789 5.78563625795e-39
0.0175222294316 -0.0467259451511 0.789 2.35011120855e-38
0.0189342975618 -0.0466075016906 0.787 1.41678365313e-38
0.0203907819896 -0.0466075016906 0.787 2.35010756517e-38
0.0218472664175 -0.0466075016906 0.787 2.34921704e-38
0.0233037508453 -0.0466075016906 0.787 1.46449310143e-38
0.0247602352731 -0.0466075016906 0.787 2.3502203697e-38
0.026216719701 -0.0466075016906 0.787 2.35029099514e-38
0.0276732041288 -0.0466075016906 0.787 2.35036582448e-38
0.0291296885566 -0.0466075016906 0.787 2.34996925701e-38
0.0305861729845 -0.0466075016906 0.787 1.68518345645e-38
0.0319612275332 -0.0464890582301 0.785 9.82646254863e-39
0.0334140106029 -0.0464890582301 0.785 6.24481373874e-39
0.0348667936726 -0.0464890582301 0.785 2.93873587706e-39
0.0363195767423 -0.0464890582301 0.785 3.03057137321e-39
0.0376761245004 -0.0463706147697 0.783 4.40810381558e-39
0.0391252062119 -0.0463706147697 0.783 6.15297824259e-39
0.0405742879235 -0.0463706147697 0.783 7.53051068496e-39
0.042023369635 -0.0463706147697 0.783 1.10260160731e-38
0.0434724513466 -0.0463706147697 0.783 1.37100855724e-38
0.0449215330581 -0.0463706147697 0.783 1.30665294436e-38
0.0463706147697 -0.0463706147697 0.783 6.70399121953e-39
0.0478196964812 -0.0463706147697 0.783 7.07133320417e-39
0.0493946243695 -0.0464890582301 0.785 8.26519465422e-39
0.0508474074392 -0.0464890582301 0.785 1.13955188599e-38
0.0523001905089 -0.0464890582301 0.785 1.14909164568e-38
0.0537529735786 -0.0464890582301 0.785 1.32504989125e-38
0.0552057566483 -0.0464890582301 0.785 1.1126085599e-38
0.056658539718 -0.0464890582301 0.785 1.26901588929e-38
0.0582593771132 -0.0466075016906 0.787 1.0478584815e-38
0.0597158615411 -0.0466075016906 0.787 1.67421297103e-38
0.0611723459689 -0.0466075016906 0.787 1.2686215639e-38
0.0626288303967 -0.0466075016906 0.787 1.95969922691e-38
0.0640853148246 -0.0466075016906 0.787 2.1823233738e-38
0.0655417992524 -0.0466075016906 0.787 2.34874690436e-38
0.0669982836802 -0.0466075016906 0.787 2.34950178384e-38
0.0684547681081 -0.0466075016906 0.787 5.32645877716e-39
0.0699112525359 -0.0466075016906 0.787 1.8960505691e-38
0.0713677369637 -0.0466075016906 0.787 1.35261133009e-38
0.0728242213916 -0.0466075016906 0.787 2.35095184749e-38
0.00734719590659 -0.0455526146209 0.794 1.89677279833e-38
0.00877221879024 -0.0453231304162 0.79 2.00744356753e-38
0.0102342552553 -0.0453231304162 0.79 2.03517540427e-38
0.0116962917203 -0.0453231304162 0.79 7.71418167727e-39
0.0131416720737 -0.0452657593651 0.789 9.09171411964e-39
0.0146018578597 -0.0452657593651 0.789 9.09171411964e-39
0.0160620436457 -0.0452657593651 0.789 7.53051068496e-39
0.017477813134 -0.0451510172628 0.787 2.34871579554e-38
0.0189342975618 -0.0451510172628 0.787 1.57397669058e-38
0.0203907819896 -0.0451510172628 0.787 2.3487813763e-38
0.0217917460454 -0.0450362751604 0.785 2.34968030927e-38
0.0232445291151 -0.0450362751604 0.785 2.12783416328e-38
0.0246973121848 -0.0450362751604 0.785 2.35003581869e-38
0.0261500952545 -0.0450362751604 0.785 1.93400277619e-38
0.0276732041288 -0.0451510172628 0.787 8.44886564654e-39
0.0291296885566 -0.0451510172628 0.787 4.68361030406e-39
0.0305861729845 -0.0451510172628 0.787 2.11221641163e-39
0.0319612275332 -0.0450362751604 0.785 3.489748854e-39
0.0334140106029 -0.0450362751604 0.785 4.31626831943e-39
0.0348667936726 -0.0450362751604 0.785 7.80601717343e-39
0.0363195767423 -0.0450362751604 0.785 1.16699631642e-38
0.0376761245004 -0.0449215330581 0.783 1.28767628029e-38
0.0391252062119 -0.0449215330581 0.783 1.45405651073e-38
0.0405742879235 -0.0449215330581 0.783 1.54635948005e-38
0.042023369635 -0.0449215330581 0.783 1.57391054929e-38
0.0434724513466 -0.0449215330581 0.783 1.47231585011e-38
0.0449215330581 -0.0449215330581 0.783 1.62865115276e-38
0.0463706147697 -0.0449215330581 0.783 1.58291361166e-38
0.0478196964812 -0.0449215330581 0.783 1.35235391156e-38
0.0493946243695 -0.0450362751604 0.785 1.16724350546e-38
0.0508474074392 -0.0450362751604 0.785 1.13962111014e-38
0.0523001905089 -0.0450362751604 0.785 1.60895674362e-38
0.0537529735786 -0.0450362751604 0.785 1.41588093666e-38
0.0552057566483 -0.0450362751604 0.785 1.75692839639e-38
0.056658539718 -0.0450362751604 0.785 2.01602021478e-38
0.0582593771132 -0.0451510172628 0.787 2.3491353443e-38
0.0597158615411 -0.0451510172628 0.787 2.34878165656e-38
0.0611723459689 -0.0451510172628 0.787 2.34907284638e-38
0.0626288303967 -0.0451510172628 0.787 2.34863830373e-38
0.0640853148246 -0.0451510172628 0.787 2.2746304069e-38
0.0655417992524 -0.0451510172628 0.787 2.33920041844e-38
0.0669982836802 -0.0451510172628 0.787 2.34906976353e-38
0.0684547681081 -0.0451510172628 0.787 5.41829427332e-39
0.0699112525359 -0.0451510172628 0.787 6.61215572338e-39
0.0713677369637 -0.0451510172628 0.787 4.77544580022e-39
0.00877221879024 -0.0438610939512 0.79 2.0717662499e-38
0.0102342552553 -0.0438610939512 0.79 2.23804278425e-38
0.0116962917203 -0.0438610939512 0.79 5.41829427332e-39
0.0131416720737 -0.0438055735791 0.789 7.34683969264e-39
0.0146018578597 -0.0438055735791 0.789 9.64272709659e-39
0.0160213287061 -0.0436945328349 0.787 7.80601717343e-39
0.0174333968363 -0.0435834920908 0.785 1.86789764217e-38
0.018886179906 -0.0435834920908 0.785 2.35076659584e-38
0.0203389629757 -0.0435834920908 0.785 2.35022205125e-38
0.0217917460454 -0.0435834920908 0.785 2.18310824107e-38
0.0231853073848 -0.0434724513466 0.783 7.16496236236e-39
0.0246343890964 -0.0434724513466 0.783 6.97949770801e-39
0.0261500952545 -0.0435834920908 0.785 4.31626831943e-39
0.0276028783241 -0.0435834920908 0.785 5.32645877716e-39
0.0291296885566 -0.0436945328349 0.787 7.53051068496e-39
0.0305861729845 -0.0436945328349 0.787 1.11175096524e-38
0.0320426574123 -0.0436945328349 0.787 1.40785079581e-38
0.0334140106029 -0.0435834920908 0.785 1.45394833049e-38
0.0348667936726 -0.0435834920908 0.785 1.50008229892e-38
0.0363195767423 -0.0435834920908 0.785 1.54607011192e-38
0.0376761245004 -0.0434724513466 0.783 1.44458233181e-38
0.0391252062119 -0.0434724513466 0.783 1.51823191663e-38
0.0405742879235 -0.0434724513466 0.783 1.37968791967e-38
0.042023369635 -0.0434724513466 0.783 1.31486189089e-38
0.0434724513466 -0.0434724513466 0.783 1.08380234763e-38
0.0449215330581 -0.0434724513466 0.783 1.42380920312e-38
0.0463706147697 -0.0434724513466 0.783 1.47044413575e-38
0.0479418412998 -0.0435834920908 0.785 1.62778865356e-38
0.0493946243695 -0.0435834920908 0.785 2.10774066434e-38
0.0508474074392 -0.0435834920908 0.785 2.33937417945e-38
0.0524334394019 -0.0436945328349 0.787 2.34878347825e-38
0.0538899238298 -0.0436945328349 0.787 2.34888913616e-38
0.0553464082576 -0.0436945328349 0.787 2.34925081129e-38
0.0568028926854 -0.0436945328349 0.787 2.3486048127e-38
0.0582593771132 -0.0436945328349 0.787 2.32976813835e-38
0.0597158615411 -0.0436945328349 0.787 2.32047486706e-38
0.0611723459689 -0.0436945328349 0.787 2.29299568444e-38
0.0626288303967 -0.0436945328349 0.787 2.24696975612e-38
0.0640853148246 -0.0436945328349 0.787 2.25626036494e-38
0.0655417992524 -0.0436945328349 0.787 2.21019940415e-38
0.0669982836802 -0.0436945328349 0.787 2.34892599031e-38
0.0684547681081 -0.0436945328349 0.787 5.96930725027e-39
0.0699112525359 -0.0436945328349 0.787 8.72437213501e-39
0.0713677369637 -0.0436945328349 0.787 6.70399121953e-39
0.00877221879024 -0.0423990574862 0.79 2.08094377394e-38
0.0102342552553 -0.0423990574862 0.79 2.05340027171e-38
0.0116962917203 -0.0423990574862 0.79 1.48182436084e-38
0.0131416720737 -0.0423453877931 0.789 7.98968816575e-39
0.0146018578597 -0.0423453877931 0.789 8.99987862348e-39
0.0159806137666 -0.0421307090211 0.785 9.64272709659e-39
0.0174333968363 -0.0421307090211 0.785 7.98968816575e-39
0.018886179906 -0.0421307090211 0.785 1.44459816648e-38
0.0203389629757 -0.0421307090211 0.785 6.61219215714e-39
0.0217362256733 -0.042023369635 0.783 5.60196526564e-39
0.0231853073848 -0.042023369635 0.783 6.61215572338e-39
0.0246343890964 -0.042023369635 0.783 1.20476691522e-38
0.0260834708079 -0.042023369635 0.783 1.43568296552e-38
0.0276028783241 -0.0421307090211 0.785 1.51823345806e-38
0.0291296885566 -0.0422380484071 0.787 1.61017895614e-38
0.0305084444635 -0.0421307090211 0.785 1.47228109791e-38
0.0319612275332 -0.0421307090211 0.785 1.52748833376e-38
0.0334140106029 -0.0421307090211 0.785 1.34269952566e-38
0.0348667936726 -0.0421307090211 0.785 1.26851366392e-38
0.0363195767423 -0.0421307090211 0.785 1.09284240428e-38
0.037772359812 -0.0421307090211 0.785 1.46136946702e-38
0.0391252062119 -0.042023369635 0.783 1.53526708167e-38
0.0405742879235 -0.042023369635 0.783 1.76604258173e-38
0.042023369635 -0.042023369635 0.783 2.13543242394e-38
0.0434724513466 -0.042023369635 0.783 2.34838789169e-38
0.0449215330581 -0.042023369635 0.783 2.3491419304e-38
0.0463706147697 -0.042023369635 0.783 2.34925277311e-38
0.0479418412998 -0.0421307090211 0.785 2.3388819033e-38
0.0493946243695 -0.0421307090211 0.785 2.32040480214e-38
0.0508474074392 -0.0421307090211 0.785 2.32962156253e-38
0.0524334394019 -0.0422380484071 0.787 2.34856347439e-38
0.0538899238298 -0.0422380484071 0.787 2.34820179926e-38
0.0553464082576 -0.0422380484071 0.787 2.34816998978e-38
0.0568028926854 -0.0422380484071 0.787 2.29278044499e-38
0.0582593771132 -0.0422380484071 0.787 2.34816886874e-38
0.0598676172248 -0.0423453877931 0.789 2.28374235016e-38
0.0613278030108 -0.0423453877931 0.789 2.21005591119e-38
0.0627879887967 -0.0423453877931 0.789 2.21012877871e-38
0.0642481745827 -0.0423453877931 0.789 2.18239778275e-38
0.0657083603687 -0.0423453877931 0.789 2.28377584119e-38
0.0671685461546 -0.0423453877931 0.789 2.32079884727e-38
0.0686287319406 -0.0423453877931 0.789 6.42848473106e-39
0.0700889177266 -0.0423453877931 0.789 8.54070114269e-39
0.0715491035126 -0.0423453877931 0.789 1.02023832825e-38
0.0102342552553 -0.0409370210211 0.79 1.9426557942e-38
0.0116962917203 -0.0409370210211 0.79 1.82301853651e-38
0.0131416720737 -0.0408852020072 0.789 1.915604428e-38
0.0145278306969 -0.0406779259514 0.785 7.80818918605e-39
0.0159806137666 -0.0406779259514 0.785 9.45905610427e-39
0.0174333968363 -0.0406779259514 0.785 8.90804312733e-39
0.018886179906 -0.0406779259514 0.785 1.22260054013e-38
0.0202871439617 -0.0405742879235 0.783 1.34342343645e-38
0.0217362256733 -0.0405742879235 0.783 1.53667286429e-38
0.0231853073848 -0.0405742879235 0.783 1.47213732468e-38
0.0246343890964 -0.0405742879235 0.783 1.45373435221e-38
0.0260834708079 -0.0405742879235 0.783 1.45315323374e-38
0.0276028783241 -0.0406779259514 0.785 1.12039305313e-38
0.0290556613938 -0.0406779259514 0.785 1.45175417735e-38
0.0305084444635 -0.0406779259514 0.785 1.22169908483e-38
0.0319612275332 -0.0406779259514 0.785 1.48913409415e-38
0.0334140106029 -0.0406779259514 0.785 1.64626687576e-38
0.0349556262679 -0.0407815639793 0.787 2.06186593612e-38
0.0363195767423 -0.0406779259514 0.785 2.34892108576e-38
0.037772359812 -0.0406779259514 0.785 2.34881402656e-38
0.0392251428817 -0.0406779259514 0.785 2.1262243516e-38
0.0406779259514 -0.0406779259514 0.785 2.18150347407e-38
0.0421307090211 -0.0406779259514 0.785 1.9501509193e-38
0.0435834920908 -0.0406779259514 0.785 2.34637394554e-38
0.0450362751604 -0.0406779259514 0.785 1.87685908598e-38
0.0464890582301 -0.0406779259514 0.785 1.5265879995e-38
0.0479418412998 -0.0406779259514 0.785 2.18123708723e-38
0.0493946243695 -0.0406779259514 0.785 2.1907936625e-38
0.0509769549741 -0.0407815639793 0.787 2.17296185928e-38
0.0524334394019 -0.0407815639793 0.787 2.12643244442e-38
0.0538899238298 -0.0407815639793 0.787 1.76672683577e-38
0.0553464082576 -0.0407815639793 0.787 2.34763231156e-38
0.0569472456528 -0.0408852020072 0.789 2.31161431674e-38
0.0584074314388 -0.0408852020072 0.789 2.21005436976e-38
0.0598676172248 -0.0408852020072 0.789 2.25604666692e-38
0.0613278030108 -0.0408852020072 0.789 2.2098747233e-38
0.0627879887967 -0.0408852020072 0.789 2.219205129e-38
0.0642481745827 -0.0408852020072 0.789 2.25618945923e-38
0.0657083603687 -0.0408852020072 0.789 2.31140272068e-38
0.0671685461546 -0.0408852020072 0.789 2.34863886425e-38
0.0686287319406 -0.0408852020072 0.789 6.3366492349e-39
0.0701777503219 -0.0409370210211 0.79 8.44886564654e-39
0.071639786787 -0.0409370210211 0.79 1.5179505359e-38
0.0102342552553 -0.0394749845561 0.79 1.78613804249e-38
0.0116814862878 -0.0394250162212 0.789 1.91503241797e-38
0.0131416720737 -0.0394250162212 0.789 2.03463408268e-38
0.0145278306969 -0.0392251428817 0.785 1.41545045778e-38
0.0159806137666 -0.0392251428817 0.785 1.45315799815e-38
0.0174333968363 -0.0392251428817 0.785 1.41689463597e-38
0.018886179906 -0.0392251428817 0.785 1.32458634171e-38
0.0202871439617 -0.0391252062119 0.783 1.21319712678e-38
0.0217362256733 -0.0391252062119 0.783 1.37850101987e-38
0.0231853073848 -0.0391252062119 0.783 1.36981969562e-38
0.0246343890964 -0.0391252062119 0.783 1.71097729741e-38
0.0260834708079 -0.0391252062119 0.783 1.50832627791e-38
0.0276028783241 -0.0392251428817 0.785 2.02495615496e-38
0.0290556613938 -0.0392251428817 0.785 2.34880183526e-38
0.0305084444635 -0.0392251428817 0.785 2.34881668902e-38
0.0320426574123 -0.0393250795514 0.787 2.34924997051e-38
0.0334991418401 -0.0393250795514 0.787 2.34910675781e-38
0.0349556262679 -0.0393250795514 0.787 2.34878614072e-38
0.0364121106958 -0.0393250795514 0.787 1.54509929234e-38
0.0378685951236 -0.0393250795514 0.787 2.11458530669e-38
0.0393250795514 -0.0393250795514 0.787 2.02394049383e-38
0.0407815639793 -0.0393250795514 0.787 2.09830880464e-38
0.0422380484071 -0.0393250795514 0.787 2.34795376943e-38
0.0436945328349 -0.0393250795514 0.787 1.93278392678e-38
0.0451510172628 -0.0393250795514 0.787 2.33830260652e-38
0.0466075016906 -0.0393250795514 0.787 2.348707668e-38
0.0480639861184 -0.0393250795514 0.787 2.34892921329e-38
0.0495204705463 -0.0393250795514 0.787 2.34888941642e-38
0.0509769549741 -0.0393250795514 0.787 2.11861460029e-38
0.0524334394019 -0.0393250795514 0.787 1.74032735361e-38
0.0540268740809 -0.0394250162212 0.789 2.10807319246e-38
0.0554870598669 -0.0394250162212 0.789 2.34713302892e-38
0.0569472456528 -0.0394250162212 0.789 2.2009813826e-38
0.0584074314388 -0.0394250162212 0.789 2.27455753938e-38
0.0599434950666 -0.0394749845561 0.79 2.21924464561e-38
0.0614055315317 -0.0394749845561 0.79 2.19140378785e-38
0.0627879887967 -0.0394250162212 0.789 2.3114380334e-38
0.0642481745827 -0.0394250162212 0.789 2.21008800093e-38
0.0657916409268 -0.0394749845561 0.79 2.27448565276e-38
0.0672536773918 -0.0394749845561 0.79 2.31165159128e-38
0.0687157138569 -0.0394749845561 0.79 6.97949770801e-39
0.0701777503219 -0.0394749845561 0.79 7.53051068496e-39
0.071639786787 -0.0394749845561 0.79 1.5824874768e-38
0.0102342552553 -0.038012948091 0.79 1.76766388406e-38
0.0116814862878 -0.0379648304352 0.789 1.80432549526e-38
0.0131416720737 -0.0379648304352 0.789 1.74879357855e-38
0.0145278306969 -0.037772359812 0.785 2.27438055538e-38
0.0159398988271 -0.0376761245004 0.783 1.04850490048e-38
0.0173889805386 -0.0376761245004 0.783 1.57311699397e-38
0.0188380622502 -0.0376761245004 0.783 1.83201753512e-38
0.0202871439617 -0.0376761245004 0.783 1.91474375048e-38
0.0217362256733 -0.0376761245004 0.783 2.25639208699e-38
0.0231853073848 -0.0376761245004 0.783 2.34888913616e-38
0.0246343890964 -0.0376761245004 0.783 2.34910563677e-38
0.0260834708079 -0.0376761245004 0.783 2.34899773679e-38
0.0276028783241 -0.037772359812 0.785 2.34903389029e-38
0.0291296885566 -0.0378685951236 0.787 2.32065759638e-38
0.0305861729845 -0.0378685951236 0.787 2.34810048538e-38
0.0320426574123 -0.0378685951236 0.787 2.34849298908e-38
0.0334991418401 -0.0378685951236 0.787 2.26512399811e-38
0.0349556262679 -0.0378685951236 0.787 2.05306802384e-38
0.0364121106958 -0.0378685951236 0.787 2.34821160835e-38
0.0378685951236 -0.0378685951236 0.787 2.34878151643e-38
0.0393250795514 -0.0378685951236 0.787 2.34914361196e-38
0.0407815639793 -0.0378685951236 0.787 2.3493574501e-38
0.0422380484071 -0.0378685951236 0.787 2.34871089099e-38
0.0436945328349 -0.0378685951236 0.787 2.20137612837e-38
0.0451510172628 -0.0378685951236 0.787 1.69440904502e-38
0.0466075016906 -0.0378685951236 0.787 2.34874017813e-38
0.0480639861184 -0.0378685951236 0.787 1.06687017802e-38
0.0495204705463 -0.0378685951236 0.787 1.07447530505e-38
0.0509769549741 -0.0378685951236 0.787 8.73082931833e-39
0.0525666882949 -0.0379648304352 0.789 1.02080893698e-38
0.0540268740809 -0.0379648304352 0.789 2.16407006001e-38
0.0554870598669 -0.0379648304352 0.789 2.34695114038e-38
0.0569472456528 -0.0379648304352 0.789 2.23789480713e-38
0.0584814586016 -0.038012948091 0.79 2.21927421301e-38
0.0599434950666 -0.038012948091 0.79 2.1731431873e-38
0.0614055315317 -0.038012948091 0.79 2.23782236e-38
0.0628675679967 -0.038012948091 0.79 2.21019940415e-38
0.0643296044618 -0.038012948091 0.79 2.24693472366e-38
0.0657916409268 -0.038012948091 0.79 2.30218147613e-38
0.0672536773918 -0.038012948091 0.79 2.3022883952e-38
0.0688896776894 -0.0381091834027 0.792 7.71418167727e-39
0.0703554155126 -0.0381091834027 0.792 7.34683969264e-39
0.0723652529823 -0.0383978893375 0.798 2.10750090217e-38
0.0738420948799 -0.0383978893375 0.798 2.35098435762e-38
0.0102342552553 -0.036550911626 0.79 1.7680936623e-38
0.0116814862878 -0.0365046446493 0.789 1.79557284492e-38
0.0131416720737 -0.0365046446493 0.789 1.21492338636e-38
0.0145278306969 -0.0363195767423 0.785 1.33495903321e-38
0.0159398988271 -0.0362270427888 0.783 8.0815236619e-39
0.0173889805386 -0.0362270427888 0.783 1.99625027566e-38
0.0188380622502 -0.0362270427888 0.783 2.34903767379e-38
0.0202871439617 -0.0362270427888 0.783 2.34867375658e-38
0.0217362256733 -0.0362270427888 0.783 2.34834963625e-38
0.0231853073848 -0.0362270427888 0.783 2.34806222993e-38
0.0246343890964 -0.0362270427888 0.783 2.30211015004e-38
0.0260834708079 -0.0362270427888 0.783 2.34820418147e-38
0.0276028783241 -0.0363195767423 0.785 2.28384744754e-38
0.0291296885566 -0.0364121106958 0.787 2.32990882872e-38
0.0305861729845 -0.0364121106958 0.787 2.25608408159e-38
0.0320426574123 -0.0364121106958 0.787 2.00643519316e-38
0.0334991418401 -0.0364121106958 0.787 1.45283583964e-38
0.0350444588633 -0.0365046446493 0.789 1.34201793409e-38
0.0365046446493 -0.0365046446493 0.789 1.41724411981e-38
0.0379648304352 -0.0365046446493 0.789 1.85111106748e-38
0.0394250162212 -0.0365046446493 0.789 1.88769798947e-38
0.0408852020072 -0.0365046446493 0.789 1.63657689687e-38
0.0423453877931 -0.0365046446493 0.789 1.37925435792e-38
0.0438055735791 -0.0365046446493 0.789 6.79582671569e-39
0.0452657593651 -0.0365046446493 0.789 1.50144688336e-38
0.0466075016906 -0.0364121106958 0.787 1.31464665145e-38
0.0480639861184 -0.0364121106958 0.787 1.57304160411e-38
0.049646316723 -0.0365046446493 0.789 1.34298735237e-38
0.051106502509 -0.0365046446493 0.789 1.40788120399e-38
0.0525666882949 -0.0365046446493 0.789 1.80400655973e-38
0.0540268740809 -0.0365046446493 0.789 1.97950307745e-38
0.0554870598669 -0.0365046446493 0.789 2.31039560747e-38
0.0570194221366 -0.036550911626 0.79 2.34842222351e-38
0.0584814586016 -0.036550911626 0.79 2.25615624846e-38
0.0599434950666 -0.036550911626 0.79 2.20094424819e-38
0.0614055315317 -0.036550911626 0.79 2.20094452845e-38
0.0630267263967 -0.0366434455795 0.792 2.19165307885e-38
0.0644924642199 -0.0366434455795 0.792 2.23774837144e-38
0.0659582020431 -0.0366434455795 0.792 2.33923769298e-38
0.0674239398663 -0.0366434455795 0.792 2.16406221274e-38
0.0688896776894 -0.0366434455795 0.792 8.26519465422e-39
0.0708884110847 -0.0369210474399 0.798 6.97949770801e-39
0.0723652529823 -0.0369210474399 0.798 2.30057418679e-38
0.0738420948799 -0.0369210474399 0.798 2.35098421749e-38
0.0116962917203 -0.035088875161 0.79 1.85092679673e-38
0.0131416720737 -0.0350444588633 0.789 1.54661283482e-38
0.0145278306969 -0.0348667936726 0.785 1.43611512597e-38
0.0159398988271 -0.0347779610773 0.783 7.34683969264e-39
0.0173889805386 -0.0347779610773 0.783 1.71991646057e-38
0.0188380622502 -0.0347779610773 0.783 2.34899857757e-38
0.0202871439617 -0.0347779610773 0.783 2.22838839835e-38
0.0217362256733 -0.0347779610773 0.783 2.28377612145e-38
0.0231853073848 -0.0347779610773 0.783 2.34849116739e-38
0.0246973121848 -0.0348667936726 0.785 2.23767802626e-38
0.0261500952545 -0.0348667936726 0.785 2.32980317081e-38
0.0276732041288 -0.0349556262679 0.787 2.23771333898e-38
0.0291296885566 -0.0349556262679 0.787 2.34863606165e-38
0.0305861729845 -0.0349556262679 0.787 1.74911587719e-38
0.0320426574123 -0.0349556262679 0.787 2.34842376494e-38
0.0335842730773 -0.0350444588633 0.789 1.87843680792e-38
0.0350444588633 -0.0350444588633 0.789 1.78470451416e-38
0.0365046446493 -0.0350444588633 0.789 1.39917031235e-38
0.0379648304352 -0.0350444588633 0.789 1.14160450798e-38
0.0394250162212 -0.0350444588633 0.789 7.34935081949e-39
0.0408852020072 -0.0350444588633 0.789 2.21903234889e-38
0.0423990574862 -0.035088875161 0.79 8.73334044518e-39
0.0438610939512 -0.035088875161 0.79 1.17549435082e-38
0.0453231304162 -0.035088875161 0.79 1.6017760699e-38
0.0467851668813 -0.035088875161 0.79 2.25633197129e-38
0.048186130937 -0.0350444588633 0.789 2.18289594436e-38
0.049646316723 -0.0350444588633 0.789 2.3485297031e-38
0.0511712762764 -0.035088875161 0.79 2.34856501582e-38
0.0526333127414 -0.035088875161 0.79 2.23786005493e-38
0.0540953492065 -0.035088875161 0.79 1.93332692994e-38
0.0555573856715 -0.035088875161 0.79 2.34806951668e-38
0.0570194221366 -0.035088875161 0.79 2.25611673184e-38
0.0584814586016 -0.035088875161 0.79 2.19168937248e-38
0.0602470064341 -0.0352665403517 0.794 2.24696975612e-38
0.0618719026572 -0.035355372947 0.796 2.2192760347e-38
0.0633450431967 -0.035355372947 0.796 2.34841970117e-38
0.0648181837362 -0.035355372947 0.796 2.17332045156e-38
0.0664578853919 -0.0354442055423 0.798 2.24693668547e-38
0.0679347272895 -0.0354442055423 0.798 2.15484839507e-38
0.0694115691871 -0.0354442055423 0.798 8.54070114269e-39
0.0708884110847 -0.0354442055423 0.798 7.25500419648e-39
0.0725466195311 -0.0355330381377 0.8 2.34750129016e-38
0.0740271627868 -0.0355330381377 0.8 2.3509823958e-38
0.0131416720737 -0.0335842730773 0.789 1.40838833391e-38
0.0145278306969 -0.0334140106029 0.785 1.42642766943e-38
0.0159398988271 -0.0333288793657 0.783 8.17335915806e-39
0.0173889805386 -0.0333288793657 0.783 1.45294514092e-38
0.018886179906 -0.0334140106029 0.785 2.34906640041e-38
0.0203389629757 -0.0334140106029 0.785 2.24690109249e-38
0.0217917460454 -0.0334140106029 0.785 2.23775467729e-38
0.0232445291151 -0.0334140106029 0.785 2.24697143768e-38
0.0246973121848 -0.0334140106029 0.785 2.24707737584e-38
0.0261500952545 -0.0334140106029 0.785 2.23774991287e-38
0.0276732041288 -0.0334991418401 0.787 2.23760796134e-38
0.0292037157194 -0.0335842730773 0.789 2.34845641519e-38
0.0306639015054 -0.0335842730773 0.789 1.71216475773e-38
0.0321240872913 -0.0335842730773 0.789 2.34841801961e-38
0.0335842730773 -0.0335842730773 0.789 1.14119953273e-38
0.035088875161 -0.0336268386959 0.79 2.20886732983e-38
0.036550911626 -0.0336268386959 0.79 1.1480513217e-38
0.038012948091 -0.0336268386959 0.79 1.78602103407e-38
0.0394749845561 -0.0336268386959 0.79 6.70403746238e-39
0.0409370210211 -0.0336268386959 0.79 2.08177936821e-38
0.0425063968722 -0.0337119699331 0.792 2.07208896894e-38
0.0439721346954 -0.0337119699331 0.792 2.3201036631e-38
0.0454378725186 -0.0337119699331 0.792 2.34853194518e-38
0.0469036103417 -0.0337119699331 0.792 2.2282416824e-38
0.0482472033463 -0.0336268386959 0.79 1.85881050189e-38
0.0497092398114 -0.0336268386959 0.79 2.00595987272e-38
0.0513008238113 -0.0337119699331 0.792 2.1631620186e-38
0.0527665616345 -0.0337119699331 0.792 2.29292533926e-38
0.0542322994576 -0.0337119699331 0.792 2.30225027989e-38
0.0556980372808 -0.0337119699331 0.792 2.23746348747e-38
0.057163775104 -0.0337119699331 0.792 2.22846028496e-38
0.0589256215783 -0.0338822324075 0.796 2.2193107869e-38
0.0603987621178 -0.0338822324075 0.796 2.22849559768e-38
0.0620273596991 -0.0339673636447 0.798 2.23764327406e-38
0.0635042015967 -0.0339673636447 0.798 2.27462816482e-38
0.0649810434943 -0.0339673636447 0.798 2.19175831636e-38
0.0664578853919 -0.0339673636447 0.798 2.31150669702e-38
0.0679347272895 -0.0339673636447 0.798 2.03506652338e-38
0.0694115691871 -0.0339673636447 0.798 9.09171411964e-39
0.0710660762754 -0.0340524948819 0.8 7.4386751888e-39
0.0727279860799 -0.0341376261192 0.802 2.34858197153e-38
0.0742122306938 -0.0341376261192 0.802 2.35098393723e-38
0.0145278306969 -0.0319612275332 0.785 1.57391209072e-38
0.0159806137666 -0.0319612275332 0.785 7.80601717343e-39
0.0174333968363 -0.0319612275332 0.785 1.23192758271e-38
0.018886179906 -0.0319612275332 0.785 2.32140771145e-38
0.0204426010036 -0.0321240872913 0.789 2.21942050857e-38
0.0218472664175 -0.0320426574123 0.787 2.20090921573e-38
0.0233037508453 -0.0320426574123 0.787 2.26558838842e-38
0.0247602352731 -0.0320426574123 0.787 2.20097984117e-38
0.0262833441475 -0.0321240872913 0.789 2.31161207467e-38
0.0277435299334 -0.0321240872913 0.789 2.19165560119e-38
0.0292037157194 -0.0321240872913 0.789 2.34842208338e-38
0.0307027657658 -0.0321648022309 0.79 1.80425122644e-38
0.0321648022309 -0.0321648022309 0.79 2.34789085113e-38
0.0336268386959 -0.0321648022309 0.79 2.16438871528e-38
0.035088875161 -0.0321648022309 0.79 2.34881710941e-38
0.036550911626 -0.0321648022309 0.79 2.34867627892e-38
0.038012948091 -0.0321648022309 0.79 2.34802831851e-38
0.0395749212258 -0.0322462321099 0.792 2.08091196446e-38
0.041040659049 -0.0322462321099 0.792 2.06257597405e-38
0.0425063968722 -0.0322462321099 0.792 2.11691748772e-38
0.0439721346954 -0.0322462321099 0.792 2.0339768737e-38
0.0454378725186 -0.0322462321099 0.792 1.94185439161e-38
0.0469036103417 -0.0322462321099 0.792 2.34733215343e-38
0.0483693481649 -0.0322462321099 0.792 2.1075170171e-38
0.0498350859881 -0.0322462321099 0.792 2.14479323781e-38
0.0514303713462 -0.032327661989 0.794 2.34809698213e-38
0.0528998105275 -0.032327661989 0.794 2.2838814991e-38
0.0543692497088 -0.032327661989 0.794 2.26533657509e-38
0.0559793404994 -0.0324090918681 0.796 2.26530546626e-38
0.0575968340063 -0.0324905217471 0.798 2.30239699584e-38
0.0590736759039 -0.0324905217471 0.798 2.1457340696e-38
0.0605505178015 -0.0324905217471 0.798 2.31157704221e-38
0.0621828167409 -0.0325719516262 0.8 2.21920386783e-38
0.0636633599967 -0.0325719516262 0.8 2.30218315769e-38
0.0651439032524 -0.0325719516262 0.8 2.26537553119e-38
0.0666244465082 -0.0325719516262 0.8 2.34860411205e-38
0.0681049897639 -0.0325719516262 0.8 1.95201632782e-38
0.0695855330196 -0.0325719516262 0.8 1.02855755697e-38
0.0712437414661 -0.0326533815053 0.802 7.4386751888e-39
0.0727279860799 -0.0326533815053 0.802 2.34962061395e-38
0.016123116055 -0.0307804942868 0.792 7.4386751888e-39
0.0175888538782 -0.0307804942868 0.792 8.63253663885e-39
0.0190545917013 -0.0307804942868 0.792 2.34910283417e-38
0.0205203295245 -0.0307804942868 0.792 2.18243477703e-38
0.0219027867896 -0.0306639015054 0.789 2.28370703744e-38
0.0233629725755 -0.0306639015054 0.789 2.21934637988e-38
0.0248546199057 -0.0307027657658 0.79 2.21013032014e-38
0.0263832808172 -0.0307804942868 0.792 2.22863993143e-38
0.0278490186404 -0.0307804942868 0.792 2.20098082208e-38
0.0292407293008 -0.0307027657658 0.79 2.27455599795e-38
0.0307027657658 -0.0307027657658 0.79 2.21923890029e-38
0.0322462321099 -0.0307804942868 0.792 1.68317819834e-38
0.0337119699331 -0.0307804942868 0.792 2.07068080411e-38
0.0351777077563 -0.0307804942868 0.792 1.89583995394e-38
0.0366434455795 -0.0307804942868 0.792 1.93267812875e-38
0.0381091834027 -0.0307804942868 0.792 1.99684806959e-38
0.0396748578956 -0.0308582228077 0.794 1.95078682854e-38
0.0411442970769 -0.0308582228077 0.794 2.06152752254e-38
0.0426137362582 -0.0308582228077 0.794 2.34726222864e-38
0.0440831754396 -0.0308582228077 0.794 1.99735029495e-38
0.0455526146209 -0.0308582228077 0.794 2.20940430741e-38
0.0470220538022 -0.0308582228077 0.794 2.3388767185e-38
0.0486136378021 -0.0309359513286 0.796 2.32962184279e-38
0.0500867783416 -0.0309359513286 0.796 2.34845935792e-38
0.0516894664159 -0.0310136798495 0.798 2.25633225155e-38
0.0532995572065 -0.0310914083705 0.8 2.09978170945e-38
0.0547801004623 -0.0310914083705 0.8 2.07208714725e-38
0.0564012953273 -0.0311691368914 0.802 2.16406949949e-38
0.0578855399412 -0.0311691368914 0.802 2.21927421301e-38
0.059369784555 -0.0311691368914 0.802 1.96126713976e-38
0.0608540291689 -0.0311691368914 0.802 2.05347173793e-38
0.0623382737828 -0.0311691368914 0.802 2.25676385148e-38
0.0638225183967 -0.0311691368914 0.802 2.05400759446e-38
0.0653067630106 -0.0311691368914 0.802 1.75898129864e-38
0.0667910076244 -0.0311691368914 0.802 2.26552224714e-38
0.0682752522383 -0.0311691368914 0.802 1.78613804249e-38
0.0697594968522 -0.0311691368914 0.802 1.01937400735e-38
0.0713325740614 -0.0312080011519 0.803 7.53051068496e-39
0.0728186693543 -0.0312080011519 0.803 2.35015590997e-38
0.0132915770784 -0.0295368379519 0.798 1.46363326469e-38
0.014768418976 -0.0295368379519 0.798 1.5182331778e-38
0.016123116055 -0.0293147564636 0.792 8.54070394529e-39
0.0175888538782 -0.0293147564636 0.792 9.09171411964e-39
0.0191027093571 -0.0293887836264 0.794 2.33974145978e-38
0.0205721485385 -0.0293887836264 0.794 2.31157872376e-38
0.0220415877198 -0.0293887836264 0.794 2.19147707576e-38
0.0235110269011 -0.0293887836264 0.794 2.31136040146e-38
0.0249804660824 -0.0293887836264 0.794 2.24707709558e-38
0.0264499052637 -0.0293887836264 0.794 2.20094424819e-38
0.0279193444451 -0.0293887836264 0.794 2.21941868688e-38
0.0293147564636 -0.0293147564636 0.792 2.32998281727e-38
0.0307804942868 -0.0293147564636 0.792 2.28381115391e-38
0.0322462321099 -0.0293147564636 0.792 2.34845753623e-38
0.0337119699331 -0.0293147564636 0.792 2.22860644039e-38
0.0352665403517 -0.0293887836264 0.794 2.30221524743e-38
0.036735979533 -0.0293887836264 0.794 1.9792722836e-38
0.0382054187143 -0.0293887836264 0.794 2.23735180398e-38
0.0397747945654 -0.0294628107892 0.796 2.22838993978e-38
0.0412479351048 -0.0294628107892 0.796 2.12671060217e-38
0.0427210756443 -0.0294628107892 0.796 2.21884037101e-38
0.0443052569279 -0.0295368379519 0.798 2.22838447472e-38
0.0457820988255 -0.0295368379519 0.798 2.25611519042e-38
0.0472589407231 -0.0295368379519 0.798 2.09052403115e-38
0.0487357826207 -0.0295368379519 0.798 2.09038334078e-38
0.0503384706951 -0.0296108651147 0.8 1.87814463719e-38
0.0519485614857 -0.0296848922775 0.802 1.89687817597e-38
0.0534328060995 -0.0296848922775 0.802 2.05336636029e-38
0.054985525839 -0.0297219058589 0.803 1.63923670149e-38
0.0566122727412 -0.0297959330217 0.805 1.8600397209e-38
0.0581020693923 -0.0297959330217 0.805 1.74929706509e-38
0.0594438117178 -0.0297219058589 0.803 1.69451876669e-38
0.0609299070108 -0.0297219058589 0.803 1.61176326419e-38
0.0624160023037 -0.0297219058589 0.803 1.639312792e-38
0.0639020975967 -0.0297219058589 0.803 1.64835256839e-38
0.0653881928896 -0.0297219058589 0.803 1.60236615669e-38
0.0668742881826 -0.0297219058589 0.803 2.34889964589e-38
0.0683603834755 -0.0297219058589 0.803 1.74025700843e-38
0.0698464787685 -0.0297219058589 0.803 9.55089160043e-39
0.0713325740614 -0.0297219058589 0.803 7.4386751888e-39
0.0728186693543 -0.0297219058589 0.803 2.3504856355e-38
0.0118887623436 -0.028235810566 0.803 1.5739824359e-38
0.0132915770784 -0.0280599960544 0.798 1.61125501323e-38
0.014768418976 -0.0280599960544 0.798 1.61997319163e-38
0.016204545934 -0.0279896702497 0.796 7.4386751888e-39
0.0176776864735 -0.0279896702497 0.796 7.62234618111e-39
0.019150827013 -0.0279896702497 0.796 2.34910759859e-38
0.0205721485385 -0.0279193444451 0.794 2.21023569779e-38
0.0220415877198 -0.0279193444451 0.794 2.26530098211e-38
0.0235110269011 -0.0279193444451 0.794 2.21009122391e-38
0.0249804660824 -0.0279193444451 0.794 2.22845874353e-38
0.0265165297102 -0.0279896702497 0.796 2.26530098211e-38
0.0279193444451 -0.0279193444451 0.794 2.23775047339e-38
0.0293887836264 -0.0279193444451 0.794 2.23782502247e-38
0.0308582228077 -0.0279193444451 0.794 2.26555335596e-38
0.032327661989 -0.0279193444451 0.794 2.21009094365e-38
0.0338822324075 -0.0279896702497 0.796 2.29296219341e-38
0.035355372947 -0.0279896702497 0.796 2.3482790108e-38
0.0368285134865 -0.0279896702497 0.796 2.29325128128e-38
0.0383016540259 -0.0279896702497 0.796 2.31172221673e-38
0.0398747312351 -0.0280599960544 0.798 2.15491860013e-38
0.0413515731327 -0.0280599960544 0.798 2.02580842469e-38
0.0429357544164 -0.028130321859 0.8 2.06254122185e-38
0.0444162976721 -0.028130321859 0.8 1.91510108159e-38
0.0458968409278 -0.028130321859 0.8 1.96148952582e-38
0.0473773841836 -0.028130321859 0.8 1.98050164274e-38
0.0488579274393 -0.028130321859 0.8 1.77712951505e-38
0.0505272399602 -0.028235810566 0.803 1.8143011989e-38
0.0520133352531 -0.028235810566 0.803 1.79600780797e-38
0.0536326794391 -0.0283061363706 0.805 1.64828194295e-38
0.0551224760902 -0.0283061363706 0.805 1.61165606486e-38
0.0566122727412 -0.0283061363706 0.805 1.81437672888e-38
0.0582464223598 -0.0283764621753 0.807 1.68533844006e-38
0.0595918660434 -0.0283061363706 0.805 1.69498960297e-38
0.0610816626945 -0.0283061363706 0.805 1.73230071601e-38
0.0625714593456 -0.0283061363706 0.805 1.55669615818e-38
0.0640612559967 -0.0283061363706 0.805 1.74944532246e-38
0.0655510526477 -0.0283061363706 0.805 2.06311897721e-38
0.0670408492988 -0.0283061363706 0.805 2.34907522859e-38
0.0685306459499 -0.0283061363706 0.805 1.54664212195e-38
0.070020442601 -0.0283061363706 0.805 9.1835496158e-39
0.0715102392521 -0.0283061363706 0.805 7.4386751888e-39
0.0730000359032 -0.0283061363706 0.805 2.35094876464e-38
0.0118887623436 -0.026749715273 0.803 1.44523351521e-38
0.0133248893016 -0.0266497786033 0.8 1.75876451777e-38
0.014768418976 -0.0265831541568 0.798 1.66628596575e-38
0.016204545934 -0.0265165297102 0.796 7.34935081949e-39
0.0176776864735 -0.0265165297102 0.796 7.71418167727e-39
0.0191989446688 -0.0265831541568 0.798 2.32108947657e-38
0.0206239675524 -0.0265165297102 0.796 2.24700647014e-38
0.0220971080919 -0.0265165297102 0.796 2.2470053491e-38
0.0235702486313 -0.0265165297102 0.796 2.24707961792e-38
0.0250433891708 -0.0265165297102 0.796 2.24696975612e-38
0.0265831541568 -0.0265831541568 0.798 2.23789480713e-38
0.0279896702497 -0.0265165297102 0.796 2.3391673478e-38
0.0294628107892 -0.0265165297102 0.796 2.09978114893e-38
0.0309359513286 -0.0265165297102 0.796 2.13676435813e-38
0.0324905217471 -0.0265831541568 0.798 2.06272269e-38
0.0339673636447 -0.0265831541568 0.798 2.06264631924e-38
0.0354442055423 -0.0265831541568 0.798 1.85938685595e-38
0.0369210474399 -0.0265831541568 0.798 2.01619201398e-38
0.0383978893375 -0.0265831541568 0.798 2.09946067197e-38
0.0399746679049 -0.0266497786033 0.8 1.97082175321e-38
0.0414552111606 -0.0266497786033 0.8 1.74951244466e-38
0.0430430938024 -0.0267164030498 0.802 1.85125301901e-38
0.0445273384163 -0.0267164030498 0.802 1.63044845817e-38
0.0460115830302 -0.0267164030498 0.802 1.65807561791e-38
0.047495827644 -0.0267164030498 0.802 1.74047855372e-38
0.0490411446672 -0.026749715273 0.803 1.61140200944e-38
0.0506530861369 -0.0268163397195 0.805 1.77760623679e-38
0.052142882788 -0.0268163397195 0.805 1.74090594975e-38
0.0537659283321 -0.026882964166 0.807 1.80573127788e-38
0.0552594263413 -0.026882964166 0.807 1.84243002349e-38
0.0567529243505 -0.026882964166 0.807 1.62054716348e-38
0.0582464223598 -0.026882964166 0.807 1.62076170228e-38
0.059739920369 -0.026882964166 0.807 1.77764154951e-38
0.0613851740619 -0.0269495886125 0.809 1.87019661243e-38
0.0627269163874 -0.026882964166 0.807 1.85189985838e-38
0.0642204143967 -0.026882964166 0.807 1.99890853885e-38
0.0657139124059 -0.026882964166 0.807 2.01705843682e-38
0.0672074104151 -0.026882964166 0.807 2.3487813763e-38
0.0687009084243 -0.026882964166 0.807 1.52816782339e-38
0.0701944064336 -0.026882964166 0.807 8.99987862348e-39
0.0716879044428 -0.026882964166 0.807 7.16316870032e-39
0.073181402452 -0.026882964166 0.807 2.3509837971e-38
0.0118887623436 -0.0252636199801 0.803 1.57409201744e-38
0.0133248893016 -0.0251692353475 0.8 1.75840578536e-38
0.0148054325574 -0.0251692353475 0.8 1.64745055257e-38
0.0162452608736 -0.0251063122592 0.798 7.16567982717e-39
0.0177221027712 -0.0251063122592 0.798 6.06114274643e-39
0.0191989446688 -0.0251063122592 0.798 2.3493574501e-38
0.0206757865664 -0.0251063122592 0.798 2.16439165801e-38
0.022152628464 -0.0251063122592 0.798 2.01713130434e-38
0.0236294703616 -0.0251063122592 0.798 2.13686455097e-38
0.0251063122592 -0.0251063122592 0.798 1.9243907095e-38
0.0265831541568 -0.0251063122592 0.798 2.05310880163e-38
0.0280599960544 -0.0251063122592 0.798 2.01630145539e-38
0.0295368379519 -0.0251063122592 0.798 1.83223585742e-38
0.0310136798495 -0.0251063122592 0.798 2.26577265917e-38
0.0324905217471 -0.0251063122592 0.798 1.86004126233e-38
0.0339673636447 -0.0251063122592 0.798 1.68490207572e-38
0.0355330381377 -0.0251692353475 0.8 1.83248753063e-38
0.0371061153469 -0.0252321584359 0.802 1.90649584785e-38
0.0385903599608 -0.0252321584359 0.802 1.58370814789e-38
0.0400746045747 -0.0252321584359 0.802 1.66675694216e-38
0.0416106682025 -0.0252636199801 0.803 1.73136590981e-38
0.0430967634954 -0.0252636199801 0.803 1.67637447391e-38
0.0445828587884 -0.0252636199801 0.803 1.39067746274e-38
0.0460689540813 -0.0252636199801 0.803 1.85154617065e-38
0.0476734928347 -0.0253265430684 0.805 1.72271793646e-38
0.0491632894858 -0.0253265430684 0.805 1.71335614168e-38
0.0507789323136 -0.0253894661568 0.807 1.76817129423e-38
0.0524019778577 -0.0254523892452 0.809 1.61143676165e-38
0.0538991772251 -0.0254523892452 0.809 1.65771408291e-38
0.0553963765925 -0.0254523892452 0.809 1.77753182784e-38
0.0568935759598 -0.0254523892452 0.809 1.67597370255e-38
0.0585351282946 -0.0255153123336 0.811 1.6761875407e-38
0.0600360290201 -0.0255153123336 0.811 1.56537650151e-38
0.0615369297456 -0.0255153123336 0.811 1.90631984476e-38
0.0630378304711 -0.0255153123336 0.811 1.91596988664e-38
0.0646978895966 -0.0255782354219 0.813 2.04504012507e-38
0.0662024916803 -0.0255782354219 0.813 1.9985472841e-38
0.0675405326476 -0.0255153123336 0.811 2.34903669288e-38
0.0690414333731 -0.0255153123336 0.811 1.20526914059e-38
0.0705423340987 -0.0255153123336 0.811 1.02855755697e-38
0.073286891159 -0.0259557739521 0.825 7.4386751888e-39
0.0119183732087 -0.0238367464174 0.805 1.54610948841e-38
0.0133748576365 -0.0237775246871 0.803 1.67525469631e-38
0.0148609529295 -0.0237775246871 0.803 2.16399789314e-38
0.0163470482224 -0.0237775246871 0.803 1.40831798872e-38
0.0178331435154 -0.0237775246871 0.803 7.62234618111e-39
0.0193192388083 -0.0237775246871 0.803 2.34914697507e-38
0.0207794245943 -0.023747913822 0.802 1.78667656149e-38
0.0222636692081 -0.023747913822 0.802 1.76823435266e-38
0.0236886920918 -0.0236886920918 0.8 1.768059891e-38
0.0251692353475 -0.0236886920918 0.8 1.80493940412e-38
0.0267164030498 -0.023747913822 0.802 1.86000412792e-38
0.0282006476636 -0.023747913822 0.802 1.86007181064e-38
0.0296848922775 -0.023747913822 0.802 1.86961955772e-38
0.0312080011519 -0.0237775246871 0.803 1.62984309723e-38
0.0326940964448 -0.0237775246871 0.803 1.73129388306e-38
0.0343504542122 -0.0238959681476 0.807 1.72214410474e-38
0.035755119626 -0.0238367464174 0.805 1.72225158433e-38
0.0372449162771 -0.0238367464174 0.805 1.75920214328e-38
0.0389271835515 -0.0239551898778 0.809 1.79636920284e-38
0.0403244462491 -0.0238959681476 0.807 1.65815044725e-38
0.0418179442583 -0.0238959681476 0.807 1.86075998831e-38
0.0433114422675 -0.0238959681476 0.807 1.66675287839e-38
0.0448049402767 -0.0238959681476 0.807 1.85110826488e-38
0.046298438286 -0.0238959681476 0.807 1.77753154758e-38
