# .PCD v0.7 - Point Cloud Data file format
VERSION 0.7
FIELDS x y z rgb
SIZE 4 4 4 4
TYPE F F F F
COUNT 1 1 1 1
WIDTH 862
HEIGHT 1
VIEWPOINT 0 0 0 1 0 0 0
POINTS 862
DATA ascii
0.0383516223608 -0.138399332867 0.901 1.01083617607e-38
0.0401079167979 -0.138706545593 0.903 1.77717463686e-38
0.041917880928 -0.139167364681 0.906 1.79560941881e-38
0.0435945961652 -0.139167364681 0.906 1.86925676155e-38
0.0454711847418 -0.139781790132 0.91 1.67554182236e-38
0.0471553026952 -0.139781790132 0.91 1.00100690812e-38
0.0491077691137 -0.140549821946 0.915 1.18467790044e-38
0.0509677015787 -0.141010641035 0.918 1.34079824391e-38
0.0526666249647 -0.141010641035 0.918 1.3958995416e-38
0.0543655483507 -0.141010641035 0.918 1.36834889275e-38
0.0561866165552 -0.14131785376 0.92 1.36834889275e-38
0.0583926260063 -0.142546704662 0.928 1.36834889275e-38
0.0602396037178 -0.142853917388 0.93 1.40508309122e-38
0.0621606085921 -0.143314736476 0.933 1.34079824391e-38
0.0640242424153 -0.143621949202 0.935 1.32243114468e-38
0.0657546273454 -0.143621949202 0.935 1.35916758522e-38
0.0674850122756 -0.143621949202 0.935 2.06978999868e-38
0.0692153972057 -0.143621949202 0.935 9.36901427015e-39
0.0711734156614 -0.14408276829 0.938 1.16631080121e-38
-0.0718600175963 -0.137035382393 0.903 1.67484986118e-38
-0.0701888543963 -0.137035382393 0.903 1.70243750431e-38
-0.0679865463034 -0.135973092607 0.896 1.79466648507e-38
-0.0656620933919 -0.134607291453 0.887 1.76707996299e-38
-0.0636596586385 -0.133848513035 0.882 2.01626362033e-38
-0.0620273596991 -0.133848513035 0.882 3.94892633479e-39
-0.0602581105085 -0.133545001667 0.88 1.01162818996e-39
-0.0584962640342 -0.1332414903 0.878 5.16002375596e-39
-0.0566770465087 -0.132786223249 0.875 4.42245311186e-39
-0.054931856146 -0.132482711881 0.873 1.46936793853e-39
-0.0533162133182 -0.132482711881 0.873 2.11365134126e-39
-0.0515821270299 -0.132179200514 0.871 2.66861457858e-39
-0.0498554434579 -0.131875689147 0.869 6.08129622094e-39
-0.0481361626021 -0.131572177779 0.867 1.84029724723e-39
-0.0465316238487 -0.131572177779 0.867 0.0
-0.0446679900256 -0.130813399361 0.862 7.34688173159e-40
-0.0430727046675 -0.130813399361 0.862 1.83670992316e-40
-0.0413811839978 -0.130509887993 0.86 2.66322938858e-39
-0.0396970660444 -0.130206376626 0.858 7.63928928085e-39
-0.0381091834027 -0.130206376626 0.858 9.58425931946e-39
-0.0364361695237 -0.129902865258 0.856 9.58109518753e-39
-0.034770558361 -0.129599353891 0.854 2.20405190779e-39
-0.0330734856541 -0.12914408684 0.851 3.21424236553e-39
-0.031424530603 -0.128840575472 0.849 1.92854541932e-39
-0.0298533040729 -0.128840575472 0.849 1.47367272741e-39
-0.0282154530962 -0.128537064105 0.847 1.56227963191e-39
-0.0266479279242 -0.128537064105 0.847 1.19529637968e-39
-0.025021181022 -0.128233552738 0.845 1.28569694621e-39
-0.0234573572081 -0.128233552738 0.845 8.28313127456e-40
-0.0218935333942 -0.128233552738 0.845 0.0
-0.0203778272361 -0.128537064105 0.847 1.002879183e-38
-0.0188103020641 -0.128537064105 0.847 1.45434489795e-38
-0.0172427768921 -0.128537064105 0.847 1.5548933877e-38
-0.0157122653015 -0.128840575472 0.849 1.49964761613e-38
-0.0141410387714 -0.128840575472 0.849 1.44454701909e-38
-0.0125698122412 -0.128840575472 0.849 1.38940970802e-38
-0.011024495218 -0.12914408684 0.851 1.45398042022e-38
-0.00948287955299 -0.129599353891 0.854 1.45383748778e-38
-0.0079023996275 -0.129599353891 0.854 1.43554479749e-38
-0.00633672513455 -0.129902865258 0.856 1.34349406189e-38
-0.00476364792533 -0.130206376626 0.858 1.4077789092e-38
-0.00318316799983 -0.130509887993 0.86 1.20508977439e-38
-0.00159528535806 -0.130813399361 0.862 1.6841818083e-38
0.0 -0.131116910728 0.864 1.62033262469e-38
0.0016045387534 -0.131572177779 0.867 1.41685427858e-38
0.00320907750681 -0.131572177779 0.867 1.8315897187e-38
0.00482472033463 -0.131875689147 0.869 1.04879006472e-38
0.00643296044618 -0.131875689147 0.869 8.63253663885e-39
0.00804120055772 -0.131875689147 0.869 9.73671498719e-39
0.0096716488181 -0.132179200514 0.871 1.52810196236e-38
0.0112835902878 -0.132179200514 0.871 1.23303657031e-38
0.0129251426226 -0.132482711881 0.873 8.45675775949e-39
0.0146240660085 -0.1332414903 0.878 1.08502203781e-38
0.0162489622317 -0.1332414903 0.878 1.56450377283e-38
0.0179552883339 -0.133848513035 0.882 1.36153297702e-38
0.0196542117199 -0.134303780086 0.885 1.28738298852e-38
0.0212920626966 -0.134303780086 0.885 1.72992243226e-38
0.0229817326872 -0.134607291453 0.887 1.72130570787e-38
0.024623285022 -0.134607291453 0.887 1.33398232818e-38
0.0262648373568 -0.134607291453 0.887 1.08552426318e-38
0.0279693127799 -0.134910802821 0.889 8.91665270509e-39
0.0296811909194 -0.135214314188 0.891 1.28774172093e-38
0.0314356346774 -0.135669581239 0.894 1.86904124185e-38
0.0332381960913 -0.136276603974 0.898 1.67586229932e-38
0.0349001058959 -0.136276603974 0.898 1.07612547412e-38
0.036684160519 -0.136731871025 0.901 1.19569771156e-38
0.0383516223608 -0.136731871025 0.901 1.58305752502e-38
0.0401079167979 -0.137035382393 0.903 1.82327217154e-38
0.041917880928 -0.137490649444 0.906 1.91535864025e-38
0.0435945961652 -0.137490649444 0.906 1.28767628029e-38
0.0454711847418 -0.138097672179 0.91 1.17549435082e-38
0.0471553026952 -0.138097672179 0.91 1.23977919813e-38
0.0492687781928 -0.139311717649 0.918 1.34079824391e-38
0.0509677015787 -0.139311717649 0.918 1.34079824391e-38
0.0526666249647 -0.139311717649 0.918 1.36834889275e-38
0.0544839918111 -0.139615229016 0.92 1.35916534314e-38
0.0564919786017 -0.140374007435 0.925 1.34079824391e-38
0.058518472183 -0.141132785853 0.93 1.36834889275e-38
0.0604339250201 -0.141588052904 0.933 1.31324759506e-38
0.0622938574851 -0.141891564272 0.935 1.32243114468e-38
0.0640242424153 -0.141891564272 0.935 1.23977933826e-38
0.0659656047594 -0.142346831323 0.938 1.96944581825e-38
0.0674850122756 -0.141891564272 0.935 1.6929051715e-38
0.0692153972057 -0.141891564272 0.935 1.11120950351e-38
0.0711734156614 -0.142346831323 0.938 1.21222854929e-38
-0.0718600175963 -0.135364219193 0.903 1.80402940089e-38
-0.0698002117917 -0.13461469417 0.898 1.80374325575e-38
-0.0679865463034 -0.13431488416 0.896 1.7945234125e-38
-0.0656620933919 -0.132965739119 0.887 1.79434362591e-38
-0.0638761880897 -0.132665929109 0.885 2.02519451583e-38
-0.062238337113 -0.132665929109 0.885 4.13259732711e-39
-0.0603950607596 -0.132216214095 0.882 0.0
-0.0584962640342 -0.131616594077 0.878 4.5917748079e-40
-0.0566770465087 -0.131166879063 0.875 6.81484093455e-39
-0.0550577023227 -0.131166879063 0.875 5.79998555423e-39
-0.0533162133182 -0.130867069054 0.873 4.14515296135e-39
-0.0517005704903 -0.130867069054 0.873 9.1835496158e-40
-0.0499701855602 -0.130567259044 0.871 1.37753244237e-39
-0.0482472033463 -0.130267449035 0.869 3.03810475376e-39
-0.0465316238487 -0.129967639026 0.867 4.97814782698e-39
-0.0447716280535 -0.129517924012 0.864 4.69761908481e-39
-0.0430727046675 -0.129218114003 0.862 2.02038091548e-39
-0.0414774193095 -0.129218114003 0.862 1.1020259539e-39
-0.0397895999979 -0.128918303993 0.86 0.0
-0.0381091834027 -0.128618493984 0.858 1.83670992316e-40
-0.0365213007609 -0.128618493984 0.858 4.87377070956e-39
-0.034770558361 -0.128018873965 0.854 1.02296315311e-38
-0.0330734856541 -0.127569158951 0.851 8.65846066044e-39
-0.031424530603 -0.127269348942 0.849 4.04183802817e-39
-0.0298533040729 -0.127269348942 0.849 1.37753244237e-39
-0.0282154530962 -0.126969538933 0.847 0.0
-0.0266479279242 -0.126969538933 0.847 7.34683969264e-40
-0.0250804027522 -0.126969538933 0.847 1.47008540334e-39
-0.0234573572081 -0.126669728924 0.845 6.43924670327e-40
-0.0218935333942 -0.126669728924 0.845 0.0
-0.0203778272361 -0.126969538933 0.847 1.08589084286e-38
-0.0188103020641 -0.126969538933 0.847 1.59263890327e-38
-0.0172834918317 -0.127269348942 0.849 1.41688636831e-38
-0.0157122653015 -0.127269348942 0.849 1.47206123418e-38
-0.0141743509946 -0.127569158951 0.851 1.48131610988e-38
-0.0125994231063 -0.127569158951 0.851 1.43525542936e-38
-0.0110633594785 -0.128018873965 0.854 1.27870236493e-38
-0.00948287955299 -0.128018873965 0.854 1.43554227516e-38
-0.00792090641819 -0.128318683975 0.856 1.50018767656e-38
-0.00635153056711 -0.128618493984 0.858 1.38018986478e-38
-0.00476364792533 -0.128618493984 0.858 1.39852165129e-38
-0.00318316799983 -0.128918303993 0.86 9.83500766667e-39
-0.00159528535806 -0.129218114003 0.862 1.78588244565e-38
0.0 -0.129517924012 0.864 1.54624989851e-38
0.0016045387534 -0.129967639026 0.867 1.59176743575e-38
0.00321648022309 -0.130267449035 0.869 1.74893553008e-38
0.00483582440905 -0.130567259044 0.871 1.29717638323e-38
0.00644776587873 -0.130567259044 0.871 1.49082714295e-38
0.00805970734842 -0.130567259044 0.871 1.45408902085e-38
0.00969385696694 -0.130867069054 0.873 1.24225823525e-38
0.0113354093017 -0.131166879063 0.875 6.97949770801e-39
0.0129991697854 -0.131616594077 0.878 1.43490286267e-38
0.0146573782318 -0.131916404086 0.88 1.55506911053e-38
0.0162859758131 -0.131916404086 0.88 1.80417289386e-38
0.0179552883339 -0.132216214095 0.882 1.79535760548e-38
0.0196542117199 -0.132665929109 0.885 1.5462103819e-38
0.0213401803524 -0.132965739119 0.887 1.57390662565e-38
0.0229817326872 -0.132965739119 0.887 1.42672250262e-38
0.024623285022 -0.132965739119 0.887 1.26923112874e-38
0.026324059087 -0.133265549128 0.889 1.42635830515e-38
0.0280322358683 -0.133565359137 0.891 1.50983505597e-38
0.0297811275891 -0.134015074151 0.894 1.49132936832e-38
0.0315059604821 -0.13431488416 0.896 1.36182500762e-38
0.0332381960913 -0.13461469417 0.898 1.0024063849e-38
0.0350166986772 -0.135064409184 0.901 1.58287423518e-38
0.0367655903981 -0.135364219193 0.903 1.59263413885e-38
0.038436753598 -0.135364219193 0.903 1.73089255118e-38
0.0402411656909 -0.135813934207 0.906 1.80504604293e-38
0.041917880928 -0.135813934207 0.906 9.09279031686e-39
0.0436908314768 -0.136113744216 0.908 1.13876015236e-38
0.0454711847418 -0.136413554225 0.91 1.34079824391e-38
0.047414397765 -0.137163079249 0.915 1.33161469429e-38
0.0493761175788 -0.137912604272 0.92 1.34079824391e-38
0.0510787423229 -0.137912604272 0.92 1.34998179352e-38
0.0529534802205 -0.138362319286 0.923 1.35916534314e-38
0.0546616570018 -0.138362319286 0.923 1.35916534314e-38
0.0566751958296 -0.139111844309 0.928 1.35916534314e-38
0.0587072414481 -0.139861369332 0.933 1.2765133966e-38
0.0604339250201 -0.139861369332 0.933 2.02465473566e-38
0.0622938574851 -0.140161179342 0.935 1.84120500837e-38
0.0640242424153 -0.140161179342 0.935 1.28831919603e-38
0.0659656047594 -0.140610894355 0.938 1.25814629736e-38
0.0677015417267 -0.140610894355 0.938 1.25814629736e-38
0.0694374786941 -0.140610894355 0.938 1.2765133966e-38
0.0711734156614 -0.140610894355 0.938 1.18467790044e-38
-0.0718600175963 -0.133693055993 0.903 1.8501280566e-38
-0.0698002117917 -0.132952784365 0.898 1.9697301417e-38
-0.0679865463034 -0.132656675714 0.896 1.8869361035e-38
-0.0658101477175 -0.131620295435 0.889 1.97905564285e-38
-0.0638761880897 -0.131028078133 0.885 2.24657164722e-38
-0.062238337113 -0.131028078133 0.885 3.85709083864e-39
-0.0603950607596 -0.130583915156 0.882 0.0
-0.0584962640342 -0.129991697854 0.878 5.51012976948e-40
-0.056871367811 -0.129991697854 0.878 2.75506488474e-40
-0.0550577023227 -0.129547534877 0.875 8.26519465422e-40
-0.0534383581368 -0.129547534877 0.875 5.70779132566e-39
-0.0517005704903 -0.129251426226 0.873 5.43192610478e-39
-0.0499701855602 -0.128955317575 0.871 6.53720026852e-39
-0.0483582440905 -0.128955317575 0.871 4.5917748079e-40
-0.0466389632348 -0.128659208924 0.869 0.0
-0.0449270850953 -0.128363100272 0.867 2.75686555327e-39
-0.0431726413373 -0.127918937296 0.864 3.31146445298e-39
-0.0414774193095 -0.127622828645 0.862 6.53574572071e-39
-0.0398821339514 -0.127622828645 0.862 5.15247355983e-39
-0.0381091834027 -0.127030611342 0.858 0.0
-0.0365213007609 -0.127030611342 0.858 5.51012976948e-40
-0.03485198824 -0.126734502691 0.856 0.0
-0.0331900784355 -0.12643839404 0.854 1.28641441103e-39
-0.0314985577658 -0.125994231063 0.851 1.01338864122e-38
-0.0298533040729 -0.125698122412 0.849 1.05030164537e-38
-0.0282820775427 -0.125698122412 0.849 8.65552914405e-39
-0.0266479279242 -0.125402013761 0.847 1.28569694621e-39
-0.0250804027522 -0.125402013761 0.847 8.27236930236e-40
-0.0235128775802 -0.125402013761 0.847 1.37789117478e-39
-0.0219453524082 -0.125402013761 0.847 0.0
-0.020425944892 -0.125698122412 0.849 1.08581895625e-38
-0.0188547183618 -0.125698122412 0.849 1.53714117824e-38
-0.0172834918317 -0.125698122412 0.849 1.44425835161e-38
-0.0157492788829 -0.125994231063 0.851 1.49057126585e-38
-0.0141743509946 -0.125994231063 0.851 1.41677944924e-38
-0.0125994231063 -0.125994231063 0.851 1.41663455498e-38
-0.0110633594785 -0.12643839404 0.854 1.54606492712e-38
-0.00948287955299 -0.12643839404 0.854 1.58349164728e-38
-0.00792090641819 -0.126734502691 0.856 1.40806617539e-38
-0.00635153056711 -0.127030611342 0.858 1.33434470396e-38
-0.00477475199975 -0.127326719993 0.86 1.12215084192e-38
-0.00319057071611 -0.127622828645 0.862 1.65677899645e-38
-0.00159528535806 -0.127622828645 0.862 1.67525343514e-38
0.0 -0.127918937296 0.864 1.68425817907e-38
0.0016045387534 -0.128363100272 0.867 1.76744500124e-38
0.00321648022309 -0.128659208924 0.869 1.61996856735e-38
0.00483582440905 -0.128955317575 0.871 1.7208837769e-38
0.00644776587873 -0.128955317575 0.871 1.51851736113e-38
0.00805970734842 -0.128955317575 0.871 1.32508576449e-38
0.00969385696694 -0.129251426226 0.873 1.00290818988e-38
0.0113354093017 -0.129547534877 0.875 4.95911679253e-39
0.0129991697854 -0.129991697854 0.878 1.4807889414e-38
0.0146573782318 -0.130287806505 0.88 1.85013015855e-38
0.0163229893945 -0.130583915156 0.882 1.56457551931e-38
0.0180163607432 -0.131028078133 0.885 1.64787318418e-38
0.0196542117199 -0.131028078133 0.885 1.45433705068e-38
0.0213401803524 -0.131324186784 0.887 1.4819237129e-38
0.0230335517011 -0.131620295435 0.889 1.4727407238e-38
0.0246788053941 -0.131620295435 0.889 1.47266827667e-38
0.0263832808172 -0.131916404086 0.891 1.4816072997e-38
0.0281266205009 -0.132360567063 0.894 1.38011601635e-38
0.0298477520357 -0.132656675714 0.896 1.19551189939e-38
0.0315059604821 -0.132656675714 0.896 1.5000855219e-38
0.0332381960913 -0.132952784365 0.898 1.58323548992e-38
0.0350166986772 -0.133396947342 0.901 1.79539319846e-38
0.0367655903981 -0.133693055993 0.903 1.76766584587e-38
0.038436753598 -0.133693055993 0.903 9.92476503721e-39
0.0402411656909 -0.13413721897 0.906 1.09284240428e-38
0.0420104148815 -0.134433327621 0.908 1.2214120989e-38
0.0437870667884 -0.134729436272 0.91 1.34079824391e-38
0.0456210897465 -0.135173599249 0.913 1.34079824391e-38
0.0475698548068 -0.135913870877 0.918 1.34998179352e-38
0.0495371266579 -0.136654142505 0.923 1.33161469429e-38
0.0512453034392 -0.136654142505 0.923 1.34998179352e-38
0.0530682223228 -0.136950251156 0.925 1.29488049583e-38
0.0547801004623 -0.136950251156 0.925 1.24896274775e-38
0.0567973406482 -0.137690522784 0.93 2.34537243753e-38
0.0587072414481 -0.13813468576 0.933 1.82244596596e-38
0.0604339250201 -0.13813468576 0.933 1.49046140405e-38
0.0622938574851 -0.138430794411 0.935 1.61892347895e-38
0.0640242424153 -0.138430794411 0.935 1.06529175543e-38
0.0659656047594 -0.138874957388 0.938 1.23977919813e-38
0.0678458946941 -0.139171066039 0.94 1.73784509352e-38
0.0695855330196 -0.139171066039 0.94 1.29488049583e-38
0.0717804383963 -0.140059391993 0.946 1.2214120989e-38
-0.0679865463034 -0.130998467268 0.896 1.84994714897e-38
-0.0658101477175 -0.129975041742 0.889 1.8866454742e-38
-0.0640205410571 -0.129682634449 0.887 2.12664446088e-38
-0.062238337113 -0.129390227156 0.885 3.489748854e-39
-0.0606004861364 -0.129390227156 0.885 0.0
-0.0587627618202 -0.128951616217 0.882 1.46972667093e-39
-0.056871367811 -0.128366801631 0.878 2.20800637206e-39
-0.0552464715878 -0.128366801631 0.878 1.92854541932e-39
-0.0534383581368 -0.127928190691 0.875 2.57139389242e-39
-0.0518190139508 -0.127928190691 0.875 5.51012976948e-40
-0.0500849276625 -0.127635783398 0.873 3.77458238506e-39
-0.0483582440905 -0.127343376105 0.871 5.3440366651e-39
-0.0467463026208 -0.127343376105 0.871 5.61920263805e-39
-0.0450307231232 -0.127050968812 0.869 6.26203289427e-39
-0.0433225463419 -0.126758561519 0.867 7.34683969264e-40
-0.0415736546211 -0.126319950579 0.864 1.92854541932e-39
-0.0398821339514 -0.126027543286 0.862 6.4432291935e-39
-0.038198015998 -0.125735135993 0.86 5.98945371829e-39
-0.0365213007609 -0.1254427287 0.858 8.2903059227e-40
-0.03485198824 -0.125150321407 0.856 7.35760166485e-40
-0.0332678069564 -0.125150321407 0.856 1.01019045774e-39
-0.0314985577658 -0.124419303175 0.851 0.0
-0.0298533040729 -0.124126895882 0.849 4.78805888769e-39
-0.0282820775427 -0.124126895882 0.849 9.57928050602e-39
-0.0266479279242 -0.123834488589 0.847 1.65555005769e-39
-0.0250804027522 -0.123834488589 0.847 1.10453708074e-39
-0.0235128775802 -0.123834488589 0.847 7.36477631298e-40
-0.0219453524082 -0.123834488589 0.847 0.0
-0.020425944892 -0.124126895882 0.849 1.15046309648e-38
-0.0188547183618 -0.124126895882 0.849 1.48193099965e-38
-0.0172834918317 -0.124126895882 0.849 1.4351091338e-38
-0.0157492788829 -0.124419303175 0.851 1.44436555094e-38
-0.0141743509946 -0.124419303175 0.851 1.42563901865e-38
-0.012643839404 -0.124857914114 0.854 1.27823545228e-38
-0.0110633594785 -0.124857914114 0.854 1.81328974167e-38
-0.00950508770183 -0.125150321407 0.856 1.5372804673e-38
-0.00793941320889 -0.1254427287 0.858 1.41739307784e-38
-0.00635153056711 -0.1254427287 0.858 1.30679363472e-38
-0.00477475199975 -0.125735135993 0.86 1.52802741328e-38
-0.00319057071611 -0.126027543286 0.862 1.65713058223e-38
-0.00159528535806 -0.126027543286 0.862 1.69343668401e-38
0.0 -0.126319950579 0.864 1.65663284102e-38
0.0016045387534 -0.126758561519 0.867 1.73053101618e-38
0.00321648022309 -0.127050968812 0.869 1.43540004336e-38
0.00483582440905 -0.127343376105 0.871 1.94229580063e-38
0.00644776587873 -0.127343376105 0.871 9.28686454898e-39
0.00807821413911 -0.127635783398 0.873 5.96930725027e-39
0.00971606511577 -0.127928190691 0.875 8.72438895059e-39
0.0113354093017 -0.127928190691 0.875 9.65026047713e-39
0.0129991697854 -0.128366801631 0.878 1.4261514735e-38
0.0146573782318 -0.128659208924 0.88 1.48181595305e-38
0.0163229893945 -0.128951616217 0.882 1.40759519897e-38
0.0180163607432 -0.129390227156 0.885 1.36156899039e-38
0.0196986280176 -0.129682634449 0.887 1.45415768448e-38
0.0213401803524 -0.129682634449 0.887 1.40802469695e-38
0.0230335517011 -0.129975041742 0.889 1.09517416492e-38
0.0246788053941 -0.129975041742 0.889 1.00323104904e-38
0.0263832808172 -0.130267449035 0.891 8.00152633517e-39
0.0281266205009 -0.130706059975 0.894 8.17945760898e-39
0.0298477520357 -0.130998467268 0.896 7.90287492328e-39
0.0315059604821 -0.130998467268 0.896 9.75214048068e-39
0.0332381960913 -0.131290874561 0.898 1.39066204846e-38
0.0350166986772 -0.1317294855 0.901 1.90653116057e-38
0.0367655903981 -0.132021892793 0.903 9.56057737542e-39
0.0385644504538 -0.132460503733 0.906 1.18467790044e-38
0.0403299982863 -0.132752911026 0.908 1.31324759506e-38
0.042102948835 -0.133045318319 0.91 1.36834889275e-38
0.0439314197559 -0.133483929258 0.913 1.35916534314e-38
0.0457210264162 -0.133776336551 0.915 1.32243114468e-38
0.0475698548068 -0.134214947491 0.918 1.32243114468e-38
0.0493761175788 -0.134507354784 0.92 1.33161469429e-38
0.0512453034392 -0.134945965723 0.923 1.73644687791e-38
0.0530682223228 -0.135238373016 0.925 1.77565520894e-38
0.054957765653 -0.135676983956 0.928 1.21381439876e-38
0.0569805578761 -0.136408002188 0.933 2.00399553253e-38
0.0588330876248 -0.136700409481 0.935 1.11120950351e-38
0.060563472555 -0.136700409481 0.935 1.23059564852e-38
0.0622938574851 -0.136700409481 0.935 1.25814657762e-38
0.064229667792 -0.137139020421 0.938 1.75628421949e-38
0.0659656047594 -0.137139020421 0.938 1.39633002049e-38
0.0680624241453 -0.137870038653 0.943 1.34998179352e-38
0.069807614508 -0.137870038653 0.943 1.29488049583e-38
0.0717804383963 -0.138308649593 0.946 1.23059564852e-38
-0.0679865463034 -0.129340258821 0.896 1.93285217002e-38
-0.0658101477175 -0.128329788049 0.889 1.89619125946e-38
-0.0640205410571 -0.128041082114 0.887 2.14519078619e-38
-0.0623789887223 -0.128041082114 0.887 3.12240686937e-39
-0.0606004861364 -0.127752376179 0.885 0.0
-0.0589626351597 -0.127752376179 0.885 1.5619208995e-39
-0.0571304628807 -0.127319317277 0.882 3.77570482513e-39
-0.0552464715878 -0.126741905407 0.878 4.9680851027e-39
-0.0534383581368 -0.126308846505 0.875 2.20405190779e-39
-0.0518190139508 -0.126308846505 0.875 7.34683969264e-40
-0.0500849276625 -0.12602014057 0.873 9.1835496158e-41
-0.0483582440905 -0.125731434635 0.871 0.0
-0.0467463026208 -0.125731434635 0.871 1.01019045774e-39
-0.0450307231232 -0.1254427287 0.869 4.50893144399e-39
-0.0433225463419 -0.125154022766 0.867 5.25148370413e-39
-0.0417180075885 -0.125154022766 0.867 2.20658125152e-39
-0.0399746679049 -0.124720963863 0.864 1.83670992316e-39
-0.038198015998 -0.124143551994 0.86 4.5917748079e-40
-0.0366064319981 -0.124143551994 0.86 1.01198411977e-39
-0.0349334181191 -0.123854846059 0.858 5.34477514939e-39
-0.0332678069564 -0.123566140124 0.856 6.26494619378e-39
-0.03160959851 -0.123277434189 0.854 1.83670992316e-39
-0.0299236298775 -0.122844375287 0.851 6.42848473106e-40
-0.0282820775427 -0.122555669352 0.849 0.0
-0.0267108510126 -0.122555669352 0.849 5.51371709355e-40
-0.0251396244824 -0.122555669352 0.849 7.17464813734e-43
-0.0235683979523 -0.122555669352 0.849 4.59536213197e-40
-0.0219971714221 -0.122555669352 0.849 0.0
-0.020425944892 -0.122555669352 0.849 1.10415018224e-38
-0.0188547183618 -0.122555669352 0.849 1.55568624237e-38
-0.0173242067712 -0.122844375287 0.851 1.41656266837e-38
-0.0157492788829 -0.122844375287 0.851 1.37039366747e-38
-0.0142243193295 -0.123277434189 0.854 1.34277127214e-38
-0.012643839404 -0.123277434189 0.854 1.34298651159e-38
-0.0110633594785 -0.123277434189 0.854 1.30610966094e-38
-0.00950508770183 -0.123566140124 0.856 1.1586005768e-38
-0.00793941320889 -0.123854846059 0.858 1.52780544761e-38
-0.00636633599967 -0.124143551994 0.86 1.71266025687e-38
-0.00477475199975 -0.124143551994 0.86 1.47252478371e-38
-0.00319057071611 -0.124432257928 0.862 1.63837111943e-38
-0.0015989867162 -0.124720963863 0.864 1.73975113969e-38
0.0 -0.125154022766 0.867 1.68439858918e-38
0.00160824011154 -0.1254427287 0.869 1.69354388334e-38
0.00321648022309 -0.1254427287 0.869 1.41670910406e-38
0.00483582440905 -0.125731434635 0.871 1.63840404994e-38
0.00644776587873 -0.125731434635 0.871 1.56468496072e-38
0.00807821413911 -0.12602014057 0.873 5.78563625795e-39
0.00971606511577 -0.126308846505 0.875 1.50033537342e-38
0.0113742735622 -0.126741905407 0.878 1.11307491203e-38
0.0130287806505 -0.127030611342 0.88 1.07609128244e-38
0.014690690455 -0.127319317277 0.882 1.45405398839e-38
0.0163785097666 -0.127752376179 0.885 1.58330373316e-38
0.0180570756828 -0.128041082114 0.887 1.31651654412e-38
0.0196986280176 -0.128041082114 0.887 8.46500860484e-39
0.0213401803524 -0.128041082114 0.887 4.95915743019e-39
0.0230335517011 -0.128329788049 0.889 2.11221641163e-39
0.0247343257662 -0.128618493984 0.891 2.29983346043e-39
0.0264721134126 -0.129051552886 0.894 2.1154450033e-39
0.0281266205009 -0.129051552886 0.894 1.37789117478e-39
0.0298477520357 -0.129340258821 0.896 1.47367272741e-39
0.0315762862867 -0.129628964756 0.898 0.0
0.0333492368355 -0.130062023658 0.901 1.92854541932e-39
0.0350944271982 -0.130350729593 0.903 9.36722060812e-39
0.0368877352167 -0.130783788496 0.906 1.19386145005e-38
0.0385644504538 -0.130783788496 0.906 1.32243114468e-38
0.0403299982863 -0.13107249443 0.908 1.34998179352e-38
0.042102948835 -0.131361200365 0.91 1.31324759506e-38
0.0439314197559 -0.131794259268 0.913 1.32243114468e-38
0.0457210264162 -0.132082965202 0.915 1.29488049583e-38
0.0476734928347 -0.13280473004 0.92 1.25814629736e-38
0.0493761175788 -0.13280473004 0.92 2.0055710124e-38
0.0512453034392 -0.133237788942 0.923 1.87754656301e-38
0.0530682223228 -0.133526494877 0.925 1.56386842411e-38
0.0550762091134 -0.134248259714 0.93 1.12093115174e-38
0.0569805578761 -0.134681318616 0.933 1.28569694621e-38
0.0588330876248 -0.134970024551 0.935 1.26732984698e-38
0.060563472555 -0.134970024551 0.935 1.56217201218e-38
0.0622938574851 -0.134970024551 0.935 1.70982879319e-38
0.064229667792 -0.135403083453 0.938 1.17549435082e-38
0.0659656047594 -0.135403083453 0.938 1.46947555825e-38
0.0680624241453 -0.136124848291 0.943 1.69095820742e-38
0.0700296959964 -0.136557907193 0.946 1.2765133966e-38
0.0717804383963 -0.136557907193 0.946 1.38675186523e-38
0.073686637838 -0.136846613128 0.948 2.05245593667e-38
-0.0679865463034 -0.127682050375 0.896 1.87771303726e-38
-0.0659582020431 -0.126969538933 0.891 1.90544333258e-38
-0.0641648940246 -0.126684534356 0.889 2.04399307486e-38
-0.0623789887223 -0.126399529779 0.887 3.489748854e-39
-0.0607374363875 -0.126399529779 0.887 3.68059449446e-40
-0.0589626351597 -0.126114525203 0.885 7.34683969264e-40
-0.0571304628807 -0.125687018338 0.882 9.1835496158e-41
-0.0554981639413 -0.125687018338 0.882 3.489748854e-39
-0.0536215753646 -0.125117009184 0.878 5.067095247e-39
-0.0518190139508 -0.124689502319 0.875 6.08088844309e-39
-0.0500849276625 -0.124404497742 0.873 4.23304240103e-39
-0.0483582440905 -0.124119493166 0.871 6.42848473106e-40
-0.0467463026208 -0.124119493166 0.871 7.34683969264e-40
-0.0450307231232 -0.123834488589 0.869 3.67341984632e-40
-0.0433225463419 -0.123549484012 0.867 0.0
-0.0417180075885 -0.123549484012 0.867 6.16734155184e-39
-0.0399746679049 -0.123121977147 0.864 6.16661007405e-39
-0.038198015998 -0.122551967994 0.86 6.81198929218e-39
-0.0366064319981 -0.122551967994 0.86 1.65303893084e-39
-0.0349334181191 -0.122266963417 0.858 0.0
-0.0333455354773 -0.122266963417 0.858 2.66432240138e-39
-0.0316836256728 -0.12198195884 0.856 5.98869561582e-39
-0.0299236298775 -0.121269447398 0.851 2.85193244368e-39
-0.0283487019892 -0.121269447398 0.851 1.83670992316e-40
-0.0267108510126 -0.120984442822 0.849 1.37789117478e-39
-0.0251396244824 -0.120984442822 0.849 3.67341984632e-40
-0.0235683979523 -0.120984442822 0.849 8.28313127456e-40
-0.0219971714221 -0.120984442822 0.849 0.0
-0.0204740625478 -0.121269447398 0.851 1.23315203731e-38
-0.0188991346595 -0.121269447398 0.851 1.42654201538e-38
-0.0173242067712 -0.121269447398 0.851 1.36135697394e-38
-0.015804799255 -0.121696954263 0.854 1.32436829967e-38
-0.0142243193295 -0.121696954263 0.854 1.35184720204e-38
-0.012643839404 -0.121696954263 0.854 1.24168047989e-38
-0.0110892689855 -0.12198195884 0.856 1.02005559893e-38
-0.00952729585067 -0.122266963417 0.858 1.69383675472e-38
-0.00795791999959 -0.122551967994 0.86 1.74003153951e-38
-0.00636633599967 -0.122551967994 0.86 1.46316186789e-38
-0.00478585607417 -0.12283697257 0.862 1.72123830541e-38
-0.00319057071611 -0.12283697257 0.862 1.66599407528e-38
-0.0015989867162 -0.123121977147 0.864 1.7303522105e-38
0.0 -0.123549484012 0.867 1.65670710983e-38
0.00160824011154 -0.123834488589 0.869 1.70272869413e-38
0.00322388293937 -0.124119493166 0.871 1.44451170637e-38
0.00483582440905 -0.124119493166 0.871 1.34313266702e-38
0.00644776587873 -0.124119493166 0.871 1.65659178297e-38
0.00807821413911 -0.124404497742 0.873 5.51012976948e-39
0.00971606511577 -0.124689502319 0.875 1.05773371204e-38
0.0113742735622 -0.125117009184 0.878 1.27020124766e-38
0.0130287806505 -0.125402013761 0.88 1.74943229039e-38
0.014690690455 -0.125687018338 0.882 1.40893077654e-38
0.0163785097666 -0.126114525203 0.885 4.59464466715e-39
0.0180570756828 -0.126399529779 0.887 6.42848473106e-40
0.0196986280176 -0.126399529779 0.887 9.75222876249e-39
0.0213882980082 -0.126684534356 0.889 1.60181334444e-38
0.023163099236 -0.127397045798 0.894 4.50245043859e-39
0.0248176063243 -0.127397045798 0.894 2.11798275481e-39
0.0265313351428 -0.127682050375 0.896 2.29983346043e-39
0.0281895435892 -0.127682050375 0.896 2.30055092524e-39
0.0299143764822 -0.127967054951 0.898 8.2903059227e-40
0.0316817749937 -0.128394561817 0.901 4.68683889572e-39
0.0333492368355 -0.128394561817 0.901 8.99987862348e-39
0.0350944271982 -0.128679566393 0.903 1.23977919813e-38
0.0368877352167 -0.129107073258 0.906 1.33161469429e-38
0.038649581691 -0.129392077835 0.908 1.35916534314e-38
0.0404188308816 -0.129677082412 0.91 1.32243114468e-38
0.0422417497652 -0.130104589277 0.913 1.40508309122e-38
0.0440276550675 -0.130389593854 0.915 1.43263374006e-38
0.0458709314209 -0.130817100719 0.918 1.81157637403e-38
0.0476734928347 -0.131102105295 0.92 1.83148574235e-38
0.0493761175788 -0.131102105295 0.92 1.50901781871e-38
0.0513563441834 -0.131814616737 0.925 1.23977919813e-38
0.0532403354763 -0.132242123602 0.928 1.29488049583e-38
0.0550762091134 -0.132527128179 0.93 1.26732984698e-38
0.0571027026947 -0.133239639621 0.935 1.66347958531e-38
0.0588330876248 -0.133239639621 0.935 1.59019363745e-38
0.060563472555 -0.133239639621 0.935 1.18467790044e-38
0.0624937308247 -0.133667146486 0.938 1.65433134842e-38
0.0643666180432 -0.133952151063 0.94 1.50772133737e-38
0.0661062563686 -0.133952151063 0.94 1.33161819754e-38
0.0682789535964 -0.134807164793 0.946 1.51557267253e-38
0.0700296959964 -0.134807164793 0.946 1.28569694621e-38
0.0717804383963 -0.134807164793 0.946 1.55259595887e-38
0.073686637838 -0.13509216937 0.948 2.10795380184e-38
-0.0661802835314 -0.12574253871 0.894 1.86845774117e-38
-0.0641648940246 -0.125039280663 0.889 2.11764153864e-38
-0.0623789887223 -0.124757977445 0.887 3.21424236553e-39
-0.0607374363875 -0.124757977445 0.887 0.0
-0.0590958840527 -0.124757977445 0.887 8.26519465422e-40
-0.0573247841831 -0.124476674226 0.885 4.5917748079e-40
-0.0554981639413 -0.124054719398 0.882 4.50893144399e-39
-0.0536215753646 -0.123492112961 0.878 5.51012976948e-40
-0.0518190139508 -0.123070158133 0.875 2.8469003809e-39
-0.0501996697648 -0.123070158133 0.875 4.78369664557e-39
-0.0484692848347 -0.122788854915 0.873 7.00463700246e-39
-0.0467463026208 -0.122507551696 0.871 5.15390848946e-39
-0.0450307231232 -0.122226248477 0.869 3.67341984632e-40
-0.0434224830117 -0.122226248477 0.869 9.1835496158e-40
-0.0417180075885 -0.121944945259 0.867 0.0
-0.0401134688351 -0.121944945259 0.867 2.75506488474e-40
-0.0382868485934 -0.121241687212 0.862 5.05813954851e-39
-0.0366064319981 -0.120960383994 0.86 6.90775122663e-39
-0.0350148479982 -0.120960383994 0.86 6.35927039601e-39
-0.0333455354773 -0.120679080775 0.858 1.28569694621e-39
-0.0316836256728 -0.120397777557 0.856 1.92854541932e-39
-0.0300291185845 -0.120116474338 0.854 1.46936793853e-39
-0.0283487019892 -0.11969451951 0.851 1.28569694621e-39
-0.0267737741009 -0.11969451951 0.851 1.19386145005e-39
-0.0251396244824 -0.119413216291 0.849 1.01019045774e-39
-0.0235683979523 -0.119413216291 0.849 9.1835496158e-41
-0.0219971714221 -0.119413216291 0.849 0.0
-0.0204740625478 -0.11969451951 0.851 1.34356973201e-38
-0.0188991346595 -0.11969451951 0.851 1.3620403872e-38
-0.0173242067712 -0.11969451951 0.851 1.34298651159e-38
-0.015804799255 -0.120116474338 0.854 1.32433242643e-38
-0.0142243193295 -0.120116474338 0.854 1.35206286187e-38
-0.0126734502691 -0.120397777557 0.856 1.51869364447e-38
-0.0111151784924 -0.120679080775 0.858 1.72180793324e-38
-0.00952729585067 -0.120679080775 0.858 1.71269627024e-38
-0.00795791999959 -0.120960383994 0.86 1.62036513481e-38
-0.00636633599967 -0.120960383994 0.86 1.73078016705e-38
-0.00478585607417 -0.121241687212 0.862 1.64766284929e-38
-0.00319797343239 -0.121522990431 0.864 1.62915309787e-38
-0.0015989867162 -0.121522990431 0.864 1.68439886944e-38
0.0 -0.122226248477 0.869 1.71191336478e-38
0.00161194146968 -0.122507551696 0.871 1.60124105415e-38
0.00322388293937 -0.122507551696 0.871 1.39837759781e-38
0.00484692848347 -0.122788854915 0.873 1.42625082556e-38
0.00646257131129 -0.122788854915 0.873 6.61251445578e-39
0.00809672092981 -0.123070158133 0.875 5.41829427332e-39
0.00971606511577 -0.123070158133 0.875 1.62039918636e-38
0.0113742735622 -0.123492112961 0.878 1.64871536456e-38
0.0130583915156 -0.124054719398 0.882 5.42403399183e-39
0.0147406587899 -0.124476674226 0.885 2.75506488474e-39
0.016415523348 -0.124757977445 0.887 0.0
0.0180977906223 -0.125039280663 0.889 1.39074808819e-38
0.0197430443153 -0.125039280663 0.889 1.18797823858e-38
0.021436415664 -0.125320583882 0.891 1.96162573204e-38
0.023163099236 -0.12574253871 0.894 4.04076183095e-39
0.0248176063243 -0.12574253871 0.894 1.09532690646e-38
0.0265313351428 -0.126023841928 0.896 2.38772290011e-39
0.0281895435892 -0.126023841928 0.896 3.67341984632e-40
0.0299143764822 -0.126305145147 0.898 4.77903312428e-39
0.0316817749937 -0.126727099975 0.901 9.82639808891e-39
0.0334232639983 -0.127008403193 0.903 1.28569694621e-38
0.0352110199796 -0.127430358021 0.906 1.31324759506e-38
0.0369691650957 -0.12771166124 0.908 1.33161469429e-38
0.038649581691 -0.12771166124 0.908 1.34079824391e-38
0.0405520797746 -0.128414919286 0.913 1.2765133966e-38
0.0423342837187 -0.128696222505 0.915 1.89583701121e-38
0.0441720080349 -0.129118177333 0.918 1.64677288463e-38
0.0458709314209 -0.129118177333 0.918 1.59145718827e-38
0.0476734928347 -0.129399480551 0.92 1.23977919813e-38
0.0495371266579 -0.129821435379 0.923 1.23977919813e-38
0.0513563441834 -0.130102738598 0.925 1.31324759506e-38
0.0532403354763 -0.130524693426 0.928 1.65375723644e-38
0.0552538743041 -0.131227951472 0.933 1.53502269522e-38
0.0571027026947 -0.131509254691 0.935 1.24896274775e-38
0.0588330876248 -0.131509254691 0.935 1.37753300289e-38
0.0607577938573 -0.131931209519 0.938 1.5711076721e-38
0.0624937308247 -0.131931209519 0.938 1.43288485275e-38
0.0643666180432 -0.132212512737 0.94 1.2402814235e-38
0.0665282111965 -0.133056422393 0.946 1.76525393096e-38
0.0682789535964 -0.133056422393 0.946 1.19386145005e-38
0.0701777503219 -0.133337725612 0.948 1.2765133966e-38
0.07193219408 -0.133337725612 0.948 1.76468192092e-38
0.0739198234008 -0.13375968044 0.951 1.94189348784e-38
-0.0678347906197 -0.124088031621 0.894 1.85009540635e-38
-0.0661802835314 -0.124088031621 0.894 1.9790549422e-38
-0.064309246992 -0.123671628831 0.891 2.18210687319e-38
-0.0625196403316 -0.12339402697 0.889 3.39791335785e-39
-0.0607374363875 -0.12311642511 0.887 0.0
-0.0590958840527 -0.12311642511 0.887 9.1835496158e-40
-0.0573247841831 -0.122838823249 0.885 0.0
-0.0556869332064 -0.122838823249 0.885 3.40365728025e-39
-0.0538658650018 -0.122422420459 0.882 5.24646145043e-39
-0.0519966791415 -0.121867216738 0.878 7.27330095053e-39
-0.0501996697648 -0.121450813947 0.875 1.28569694621e-39
-0.0484692848347 -0.121173212087 0.873 2.75506488474e-40
-0.0468536420069 -0.121173212087 0.873 3.6788204506e-39
-0.0451343611511 -0.120895610226 0.871 3.59127853294e-39
-0.0434224830117 -0.120618008366 0.869 2.95093277889e-39
-0.0418142429001 -0.120618008366 0.869 2.75793474399e-39
-0.0401134688351 -0.120340406505 0.867 1.1020259539e-39
-0.0383756811887 -0.119924003715 0.864 0.0
-0.0366915632353 -0.119646401854 0.862 6.42848473106e-40
-0.0350148479982 -0.119368799994 0.86 0.0
-0.0333455354773 -0.119091198133 0.858 5.24579723496e-39
-0.0317576528356 -0.119091198133 0.858 7.82828380603e-39
-0.0300291185845 -0.118535994412 0.854 6.0773179346e-39
-0.028448638659 -0.118535994412 0.854 2.94232320112e-39
-0.0267737741009 -0.118119591622 0.851 1.83670992316e-40
-0.0251988462126 -0.118119591622 0.851 9.1835496158e-40
-0.0236239183244 -0.118119591622 0.851 4.5917748079e-40
-0.0220489904361 -0.118119591622 0.851 0.0
-0.0204740625478 -0.118119591622 0.851 1.26059366513e-38
-0.0188991346595 -0.118119591622 0.851 1.42643215358e-38
-0.0173242067712 -0.118119591622 0.851 1.33394645494e-38
-0.015804799255 -0.118535994412 0.854 1.29674590434e-38
-0.0142243193295 -0.118535994412 0.854 1.36128228473e-38
-0.0127030611342 -0.119091198133 0.858 1.58330135095e-38
-0.0111151784924 -0.119091198133 0.858 1.57411780133e-38
-0.0095495039995 -0.119368799994 0.86 1.56493425172e-38
-0.00797642679028 -0.119646401854 0.862 1.80489035867e-38
-0.00638114143223 -0.119646401854 0.862 1.68493136285e-38
-0.00479696014859 -0.119924003715 0.864 1.63837167995e-38
-0.00320907750681 -0.120340406505 0.867 1.67514399373e-38
-0.0016045387534 -0.120340406505 0.867 1.69351277452e-38
0.0 -0.120618008366 0.869 1.61982521451e-38
0.00161194146968 -0.120895610226 0.871 1.66574296259e-38
0.00323128565565 -0.121173212087 0.873 1.45373000819e-38
0.00484692848347 -0.121173212087 0.873 1.44461764453e-38
0.00647737674385 -0.121450813947 0.875 7.5326630794e-39
0.00809672092981 -0.121450813947 0.875 1.87905492067e-38
0.00974937733903 -0.121867216738 0.878 1.08653375859e-38
0.0114001830692 -0.122144818598 0.88 1.92854541932e-39
0.0130583915156 -0.122422420459 0.882 0.0
0.0147406587899 -0.122838823249 0.885 1.83370694055e-38
0.016415523348 -0.12311642511 0.887 8.26519465422e-40
0.0180977906223 -0.12339402697 0.889 1.68602339475e-38
0.0197430443153 -0.12339402697 0.889 8.27631535883e-39
0.021436415664 -0.123671628831 0.891 8.27994892575e-39
0.023163099236 -0.124088031621 0.894 1.62858501147e-38
0.0248176063243 -0.124088031621 0.894 1.41869138086e-38
0.0265313351428 -0.124365633482 0.896 1.37753244237e-39
0.0281895435892 -0.124365633482 0.896 5.23713440785e-39
0.0299143764822 -0.124643235342 0.898 1.03774110659e-38
0.0316817749937 -0.125059638133 0.901 1.29488049583e-38
0.0334232639983 -0.125337239993 0.903 1.33161469429e-38
0.0352887485005 -0.126031244645 0.908 1.34079824391e-38
0.0370505949748 -0.126308846505 0.91 1.36834889275e-38
0.038862409784 -0.126725249296 0.913 1.36834889275e-38
0.04064091237 -0.127002851156 0.915 1.3958995416e-38
0.0423342837187 -0.127002851156 0.915 1.20305228642e-38
0.0441720080349 -0.127419253947 0.918 1.2214120989e-38
0.0459708680906 -0.127696855807 0.92 1.20304499967e-38
0.0478289498766 -0.128113258598 0.923 1.25814629736e-38
0.0496444660439 -0.128390860458 0.925 1.55234274424e-38
0.0515229052996 -0.128807263249 0.928 1.72780114664e-38
0.0532403354763 -0.128807263249 0.928 1.28573281945e-38
0.0552538743041 -0.1295012679 0.933 1.23977919813e-38
0.0571027026947 -0.129778869761 0.935 1.8289680294e-38
0.0588330876248 -0.129778869761 0.935 1.34079964521e-38
0.0607577938573 -0.130195272551 0.938 1.34998179352e-38
0.0624937308247 -0.130195272551 0.938 1.78297783419e-38
0.0645720434199 -0.130889277202 0.943 1.16631080121e-38
0.0666688628058 -0.131583281854 0.948 1.31324759506e-38
0.0684233065639 -0.131583281854 0.948 1.33161469429e-38
0.0701777503219 -0.131583281854 0.948 1.26732984698e-38
0.07193219408 -0.131583281854 0.948 1.99499092873e-38
0.0739198234008 -0.131999684644 0.951 1.98820640209e-38
-0.0678347906197 -0.122433524533 0.894 1.86831550937e-38
-0.0661802835314 -0.122433524533 0.894 1.86831578963e-38
-0.064309246992 -0.12202267378 0.891 2.13586584556e-38
-0.0625196403316 -0.121748773277 0.889 3.489748854e-39
-0.0608743866387 -0.121748773277 0.889 0.0
-0.0590958840527 -0.121474872775 0.887 7.08537421478e-39
-0.0574543317179 -0.121474872775 0.887 3.67628970557e-39
-0.0556869332064 -0.121200972273 0.885 1.83670992316e-39
-0.0538658650018 -0.120790121519 0.882 9.1835496158e-41
-0.0519966791415 -0.120242320515 0.878 3.03057137321e-39
-0.0501996697648 -0.119831469761 0.875 5.98366075044e-39
-0.0485803255789 -0.119831469761 0.875 4.79196710911e-39
-0.0468536420069 -0.119557569259 0.873 1.28605567862e-39
-0.045237999179 -0.119557569259 0.873 2.75506488474e-40
-0.0435224196815 -0.119283668757 0.871 1.5619208995e-39
-0.0418142429001 -0.119009768254 0.869 6.62902735689e-39
-0.0401134688351 -0.118735867752 0.867 6.99997067857e-39
-0.0383756811887 -0.118325016998 0.864 3.31504617186e-39
-0.0366915632353 -0.118051116496 0.862 1.65447386047e-39
-0.0350962778772 -0.118051116496 0.862 9.1835496158e-40
-0.0334232639983 -0.117777215994 0.86 7.34683969264e-40
-0.0317576528356 -0.117503315492 0.858 6.42848473106e-40
-0.0300994443891 -0.117229414989 0.856 2.48027726238e-39
-0.028448638659 -0.116955514487 0.854 6.07840253961e-39
-0.0267737741009 -0.116544663733 0.851 6.17204711209e-39
-0.0251988462126 -0.116544663733 0.851 5.51012976948e-40
-0.0236239183244 -0.116544663733 0.851 1.01019045774e-39
-0.0220489904361 -0.116544663733 0.851 0.0
-0.0205462390315 -0.116955514487 0.854 1.31565894946e-38
-0.018965759106 -0.116955514487 0.854 1.26051575294e-38
-0.0173852791805 -0.116955514487 0.854 1.2599399594e-38
-0.015804799255 -0.116955514487 0.854 1.1952246332e-38
-0.0142576315527 -0.117229414989 0.856 1.49946853019e-38
-0.0127030611342 -0.117503315492 0.858 1.58348071715e-38
-0.0111410879994 -0.117777215994 0.86 1.58351659039e-38
-0.00957171214834 -0.118051116496 0.862 1.78630801999e-38
-0.00797642679028 -0.118051116496 0.862 1.70354845373e-38
-0.00639594686478 -0.118325016998 0.864 1.66620441018e-38
-0.00479696014859 -0.118325016998 0.864 1.64744774997e-38
-0.00321648022309 -0.119009768254 0.869 1.73949946648e-38
-0.00160824011154 -0.119009768254 0.869 1.76730206879e-38
0.0 -0.119283668757 0.871 1.66592246892e-38
0.00161564282782 -0.119557569259 0.873 1.56429301754e-38
0.00323868837192 -0.119831469761 0.875 1.4165642098e-38
0.00485803255789 -0.119831469761 0.875 1.88758224222e-38
0.00647737674385 -0.119831469761 0.875 1.6856607387e-38
0.00812448111586 -0.120242320515 0.878 2.11221641163e-39
0.00974937733903 -0.120242320515 0.878 0.0
0.0114001830692 -0.120516221017 0.88 0.0
0.0131028078133 -0.121200972273 0.885 1.24395548795e-38
0.0147739710132 -0.121474872775 0.887 1.69498736089e-38
0.0164525369294 -0.121748773277 0.889 2.57318755446e-39
0.0181385055618 -0.12202267378 0.891 2.15531530772e-38
0.0197874606129 -0.12202267378 0.891 1.73157077964e-38
0.0215085921477 -0.122433524533 0.894 1.69537397914e-38
0.023163099236 -0.122433524533 0.894 5.87747175411e-39
0.0248176063243 -0.122433524533 0.894 1.01019045774e-39
0.0265313351428 -0.122707425035 0.896 3.67485477595e-39
0.0281895435892 -0.122707425035 0.896 9.82639808891e-39
0.0300143131519 -0.123392176291 0.901 1.29488049583e-38
0.0317521007983 -0.123666076794 0.903 1.36834889275e-38
0.0336083319052 -0.124350828049 0.908 1.32243114468e-38
0.0352887485005 -0.124350828049 0.908 1.33161469429e-38
0.0371727397934 -0.125035579305 0.913 1.35916534314e-38
0.038862409784 -0.125035579305 0.913 1.34079824391e-38
0.04064091237 -0.125309479807 0.915 1.35916534314e-38
0.042473084649 -0.125720330561 0.918 1.35916534314e-38
0.0442682433465 -0.125994231063 0.92 1.44181728968e-38
0.0461207730953 -0.126405081817 0.923 1.70903930163e-38
0.0478289498766 -0.126405081817 0.923 1.57172102044e-38
0.0496444660439 -0.126678982319 0.925 1.26732984698e-38
0.0515229052996 -0.127089833072 0.928 1.43284897951e-38
0.0532403354763 -0.127089833072 0.928 1.73748944396e-38
0.0553723177646 -0.128048484831 0.935 1.24917924836e-38
0.0571027026947 -0.128048484831 0.935 1.35916548327e-38
0.0588330876248 -0.128048484831 0.935 1.55309636255e-38
0.0607577938573 -0.128459335584 0.938 1.41426664083e-38
0.0626269797177 -0.128733236086 0.94 1.35916534314e-38
0.0647774687966 -0.129554937593 0.946 1.33161469429e-38
0.0666688628058 -0.129828838096 0.948 1.70961215245e-38
0.0684233065639 -0.129828838096 0.948 1.35052507694e-38
0.0701777503219 -0.129828838096 0.948 1.24896274775e-38
0.0721598276055 -0.130239688849 0.951 2.25303065224e-38
-0.0678347906197 -0.120779017445 0.894 1.90515620652e-38
-0.0661802835314 -0.120779017445 0.894 1.85916657183e-38
-0.0645257764432 -0.120779017445 0.894 2.18206973878e-38
-0.0626602919409 -0.120373718729 0.891 3.30607786169e-39
-0.0608743866387 -0.120103519584 0.889 0.0
-0.0592291329458 -0.120103519584 0.889 2.57426375168e-39
-0.0574543317179 -0.11983332044 0.887 5.70636340253e-39
-0.0558127793831 -0.11983332044 0.887 5.24717891525e-39
-0.0540490822297 -0.119563121296 0.885 2.29588740395e-39
-0.0521151226019 -0.118887623436 0.88 5.51012976948e-40
-0.0503717829183 -0.118617424291 0.878 0.0
-0.0485803255789 -0.118212125575 0.875 4.5917748079e-40
-0.0469609813929 -0.118212125575 0.875 4.60220327107e-39
-0.045237999179 -0.117941926431 0.873 8.65555156483e-39
-0.0435224196815 -0.117671727287 0.871 1.744874427e-39
-0.0418142429001 -0.117401528143 0.869 2.20405190779e-39
-0.0401134688351 -0.117131328999 0.867 2.66322938858e-39
-0.0383756811887 -0.116726030282 0.864 0.0
-0.0367766944725 -0.116726030282 0.864 5.71072144075e-39
-0.0350962778772 -0.116455831138 0.862 4.04901267631e-39
-0.0334232639983 -0.116185631994 0.86 2.11221641163e-39
-0.0317576528356 -0.11591543285 0.858 8.26519465422e-40
-0.0300994443891 -0.115645233706 0.856 3.67341984632e-40
-0.028448638659 -0.115375034561 0.854 9.1835496158e-41
-0.0268681587335 -0.115375034561 0.854 2.11221641163e-39
-0.0251988462126 -0.114969735845 0.851 1.92854541932e-39
-0.0236239183244 -0.114969735845 0.851 1.01019045774e-39
-0.0220489904361 -0.114969735845 0.851 0.0
-0.0205462390315 -0.115375034561 0.854 1.28818004709e-38
-0.018965759106 -0.115375034561 0.854 1.21448856345e-38
-0.0173852791805 -0.115375034561 0.854 1.14945037808e-38
-0.0158418128364 -0.115645233706 0.856 1.53605797452e-38
-0.0142576315527 -0.115645233706 0.856 1.21387871836e-38
-0.0127030611342 -0.11591543285 0.858 1.44536874051e-38
-0.0111410879994 -0.116185631994 0.86 1.64790919756e-38
-0.00959392029717 -0.116726030282 0.864 1.64794493067e-38
-0.00799493358098 -0.116726030282 0.864 1.65709765172e-38
-0.00641815501362 -0.117131328999 0.867 1.66617456252e-38
-0.00481361626021 -0.117131328999 0.867 1.71205559658e-38
-0.00321648022309 -0.117401528143 0.869 1.80407143985e-38
-0.00161194146968 -0.117671727287 0.871 1.65677745502e-38
0.0 -0.117941926431 0.873 1.63819175322e-38
0.00161934418596 -0.118212125575 0.875 1.61968046038e-38
0.00323868837192 -0.118212125575 0.875 1.94300780038e-38
0.00487468866951 -0.118617424291 0.878 1.0584800436e-38
0.00649958489268 -0.118617424291 0.878 1.1020259539e-39
0.00812448111586 -0.118617424291 0.878 3.69855914077e-40
0.00977158548786 -0.118887623436 0.88 2.30449698171e-39
0.0114649568366 -0.119563121296 0.885 1.38255469607e-39
0.0131324186784 -0.11983332044 0.887 6.42848473106e-40
0.0147739710132 -0.11983332044 0.887 2.16302875512e-38
0.0164895505108 -0.120373718729 0.891 3.39791335785e-39
0.0181385055618 -0.120373718729 0.891 1.65875384637e-38
0.0198540850594 -0.120779017445 0.894 5.51012976948e-39
0.0215085921477 -0.120779017445 0.894 1.46488560513e-38
0.02321491825 -0.121049216589 0.896 1.26191298764e-38
0.0248731266964 -0.121049216589 0.896 4.86728129637e-39
0.0265313351428 -0.121049216589 0.896 9.45941623798e-39
0.0282524666776 -0.121319415733 0.898 1.30406404544e-38
0.0300143131519 -0.121724714449 0.901 1.36834889275e-38
0.0318575895053 -0.12240021231 0.906 1.36834889275e-38
0.0336083319052 -0.122670411454 0.908 1.29488049583e-38
0.0353664770214 -0.122940610598 0.91 1.34079824391e-38
0.0371727397934 -0.123345909315 0.913 1.35916534314e-38
0.038862409784 -0.123345909315 0.913 1.33161469429e-38
0.04064091237 -0.123616108459 0.915 1.52446923622e-38
0.042473084649 -0.124021407175 0.918 1.5157161655e-38
0.0442682433465 -0.124291606319 0.92 1.41426664083e-38
0.0461207730953 -0.124696905035 0.923 1.34079824391e-38
0.0478289498766 -0.124696905035 0.923 1.46018536982e-38
0.0496444660439 -0.12496710418 0.925 1.50671198208e-38
0.0515229052996 -0.125372402896 0.928 1.37753272263e-38
0.0532403354763 -0.125372402896 0.928 1.37756831561e-38
0.0553723177646 -0.1263180999 0.935 1.60798340171e-38
0.0571027026947 -0.1263180999 0.935 1.44285761366e-38
0.0590218568899 -0.126723398617 0.938 1.26732984698e-38
0.0608873413922 -0.126993597761 0.94 1.31324759506e-38
0.0628268530572 -0.127398896477 0.943 1.5801807994e-38
0.0647774687966 -0.127804195193 0.946 1.70058036345e-38
0.0666688628058 -0.128074394338 0.948 1.32243114468e-38
0.0684233065639 -0.128074394338 0.948 1.34998221391e-38
0.0703998318103 -0.128479693054 0.951 1.23059564852e-38
0.0721598276055 -0.128479693054 0.951 2.27150579158e-38
-0.0678347906197 -0.119124510357 0.894 1.87760541754e-38
-0.0661802835314 -0.119124510357 0.894 1.91448310897e-38
-0.0645257764432 -0.119124510357 0.894 2.16355424204e-38
-0.0626602919409 -0.118724763678 0.891 3.489748854e-39
