# .PCD v0.7 - Point Cloud Data file format
VERSION 0.7
FIELDS x y z rgb
SIZE 4 4 4 4
TYPE F F F F
COUNT 1 1 1 1
WIDTH 841
HEIGHT 1
VIEWPOINT 0 0 0 1 0 0 0
POINTS 841
DATA ascii
-0.00297219058589 -0.0252636199801 0.803 2.27423566112e-38
-0.00148979665109 -0.0253265430684 0.805 2.19122077827e-38
0.0 -0.0253265430684 0.805 2.11743064322e-38
0.00149719936736 -0.0254523892452 0.809 2.13586850802e-38
0.00300180145101 -0.0255153123336 0.811 2.16323937028e-38
0.00451380625093 -0.0255782354219 0.813 1.91467074283e-38
0.00604801919968 -0.0257040815987 0.817 1.89616169207e-38
0.0075785307903 -0.025767004687 0.819 1.95129956365e-38
0.00909423694836 -0.025767004687 0.819 2.09881257143e-38
0.0106358526134 -0.0258299277754 0.821 1.96069639089e-38
0.0122144818598 -0.0259557739521 0.825 2.02477020266e-38
0.0137746043156 -0.0260186970405 0.827 1.99768226256e-38
0.0153051159062 -0.0260186970405 0.827 2.03477757564e-38
0.0169577723154 -0.0262074663056 0.833 1.65624047745e-38
0.0184993879804 -0.0262074663056 0.833 2.0806975658e-38
0.0200891213013 -0.026270389394 0.835 1.4261810409e-38
0.0216862573384 -0.0263333124823 0.837 1.79438146097e-38
0.0232907960918 -0.0263962355707 0.839 2.19115239491e-38
0.0249027375615 -0.0264591586591 0.841 2.08032790326e-38
0.0264591586591 -0.0264591586591 0.841 2.00700748345e-38
0.0280155797567 -0.0264591586591 0.841 1.3803308354e-38
0.0296423266589 -0.0265220817475 0.843 1.59370459075e-38
0.0312764762774 -0.0265850048358 0.845 1.94247208398e-38
0.0328403000913 -0.0265850048358 0.845 2.23702165806e-38
0.0344855537843 -0.0266479279242 0.847 1.60967546961e-38
0.0362233414307 -0.0267737741009 0.851 1.15070594151e-38
0.037931518212 -0.0268681587335 0.854 1.61903726439e-38
0.039604532091 -0.0269310818219 0.856 2.03247510213e-38
0.0412849486862 -0.0269940049102 0.858 1.93963081121e-38
0.0433225463419 -0.0272771588079 0.867 1.9667187513e-38
0.0450307231232 -0.0273400818963 0.869 2.123955229e-38
0.0467463026208 -0.0274030049846 0.871 2.18892376983e-38
0.0484692848347 -0.027465928073 0.873 2.05102717276e-38
0.0501996697648 -0.0275288511614 0.875 1.98612743568e-38
0.0519966791415 -0.0276232357939 0.878 2.17992126798e-38
0.0536215753646 -0.0276232357939 0.878 2.10655348428e-38
0.0553723177646 -0.0276861588823 0.88 2.06031301716e-38
0.0571304628807 -0.0277490819706 0.882 1.96708168761e-38
0.0590958840527 -0.0279063896916 0.887 2.11526843969e-38
0.0607374363875 -0.0279063896916 0.887 2.13364198489e-38
0.0625196403316 -0.0279693127799 0.889 2.14232597161e-38
0.064309246992 -0.0280322358683 0.891 2.21611358432e-38
0.0661802835314 -0.0281266205009 0.894 1.79215535823e-38
0.0678347906197 -0.0281266205009 0.894 2.34842012156e-38
0.0700333973545 -0.0283468513102 0.901 2.02458691282e-38
0.0718600175963 -0.0284097743985 0.903 2.02296392894e-38
0.0737754704334 -0.0285041590311 0.906 2.17970028321e-38
0.0760351495774 -0.0287243898404 0.913 1.97669417468e-38
0.0781504757541 -0.0288816975613 0.918 1.91208534717e-38
0.0802843087214 -0.0290390052822 0.923 2.34754907443e-38
0.0819924855027 -0.0290390052822 0.923 2.34817209173e-38
0.0838820288328 -0.0291019283706 0.925 2.30120687305e-38
0.0855939069723 -0.0291019283706 0.925 2.30152931183e-38
0.0873057851117 -0.0291019283706 0.925 2.34914459287e-38
0.089306369186 -0.0291963130031 0.928 2.21866815142e-38
0.0910237993627 -0.0291963130031 0.928 1.80216399238e-38
0.0927412295394 -0.0291963130031 0.928 2.13346373973e-38
0.094458659716 -0.0291963130031 0.928 2.13335471871e-38
-0.0265165297102 -0.0235702486313 0.796 1.40853448933e-38
-0.0250433891708 -0.0235702486313 0.796 1.41800740708e-38
-0.0235110269011 -0.0235110269011 0.794 1.15085391863e-38
-0.0220415877198 -0.0235110269011 0.794 1.16936661277e-38
-0.0205721485385 -0.0235110269011 0.794 1.2339736186e-38
-0.0191027093571 -0.0235110269011 0.794 7.72888970595e-39
-0.0175888538782 -0.0234518051709 0.792 1.95187283485e-38
-0.016123116055 -0.0234518051709 0.792 2.01626235916e-38
-0.0146943918132 -0.0235110269011 0.794 2.02530619932e-38
-0.0132915770784 -0.0236294703616 0.798 2.00682727647e-38
-0.011873956911 -0.023747913822 0.802 1.95126004703e-38
-0.0103897122971 -0.023747913822 0.802 1.96969917301e-38
-0.00891657175768 -0.0237775246871 0.803 2.01579544651e-38
-0.00743047646473 -0.0237775246871 0.803 1.71148134447e-38
-0.00595918660434 -0.0238367464174 0.805 2.32890283655e-38
-0.00446938995326 -0.0238367464174 0.805 2.32069136768e-38
-0.00297959330217 -0.0238367464174 0.805 2.30196539591e-38
-0.00149349800922 -0.0238959681476 0.807 2.09916780059e-38
0.0 -0.0239551898778 0.809 2.1819322714e-38
0.00150460208364 -0.0240736333383 0.813 2.06197131377e-38
0.00301660688356 -0.0241328550685 0.815 2.13576074817e-38
0.00453601439976 -0.0241920767987 0.817 1.50879683394e-38
0.00606282463224 -0.024251298529 0.819 2.02480523512e-38
0.0076155443717 -0.0243697419894 0.823 1.93289476949e-38
0.00913865324604 -0.0243697419894 0.823 1.87765039922e-38
0.0106876716274 -0.0244289637197 0.825 1.90487678761e-38
0.0122737035901 -0.0245474071801 0.829 1.87718530826e-38
0.0138412287621 -0.0246066289103 0.831 1.79435217383e-38
0.0154161566504 -0.0246658506406 0.833 1.5732283972e-38
0.0169984872549 -0.0247250723708 0.835 2.1539874373e-38
0.0185882205758 -0.024784294101 0.837 1.67532350006e-38
0.0201853566129 -0.0248435158313 0.839 1.42531559896e-38
0.0218417143803 -0.0249619592917 0.843 1.9141752437e-38
0.023401836836 -0.0249619592917 0.843 2.05310487799e-38
0.0249619592917 -0.0249619592917 0.843 1.94268662277e-38
0.0265850048358 -0.025021181022 0.845 7.16962588365e-39
0.0281488286497 -0.025021181022 0.845 1.95220199986e-38
0.0299236298775 -0.0251988462126 0.851 2.14680998656e-38
0.03160959851 -0.025287678808 0.854 2.08105069301e-38
0.0331900784355 -0.025287678808 0.854 2.08126565219e-38
0.03485198824 -0.0253469005382 0.856 2.00746654883e-38
0.0366064319981 -0.0254653439987 0.86 1.4908560097e-38
0.038198015998 -0.0254653439987 0.86 1.92152169103e-38
0.0401134688351 -0.0256726200545 0.867 1.94852947685e-38
0.0418142429001 -0.0257318417847 0.869 2.10501247636e-38
0.043722293021 -0.0259095069754 0.875 2.16175973923e-38
0.0453416372069 -0.0259095069754 0.875 2.13417644013e-38
0.0469609813929 -0.0259095069754 0.875 1.97658515366e-38
0.0485803255789 -0.0259095069754 0.875 2.06881567586e-38
0.0503717829183 -0.0259983395707 0.878 2.04068601048e-38
0.0521151226019 -0.026057561301 0.88 1.90254320527e-38
0.0537437201832 -0.026057561301 0.88 2.17973769788e-38
0.0556869332064 -0.0262056156265 0.885 1.92155223933e-38
0.0574543317179 -0.0262648373568 0.887 2.17966735269e-38
0.0592291329458 -0.026324059087 0.889 2.18920963472e-38
0.0608743866387 -0.026324059087 0.889 2.05073598294e-38
0.0626602919409 -0.0263832808172 0.891 2.04998390605e-38
0.0645257764432 -0.0264721134126 0.894 2.08682306177e-38
0.0664763921826 -0.026590556873 0.898 2.28075436144e-38
0.0681383019871 -0.026590556873 0.898 1.95883350472e-38
0.0701888543963 -0.0267386111986 0.903 2.33661908654e-38
0.0720987551962 -0.026827443794 0.906 2.02311639021e-38
0.0739383301915 -0.0268866655242 0.908 1.92108854967e-38
0.0766181134844 -0.0272419959056 0.92 1.9941963925e-38
0.0783207382285 -0.0272419959056 0.92 2.34730608928e-38
0.0802843087214 -0.0273308285009 0.923 2.34874550306e-38
0.0821701506934 -0.0273900502311 0.925 2.34831684586e-38
0.0841540786561 -0.0274788828265 0.928 2.3481329955e-38
0.0858715088327 -0.0274788828265 0.928 2.34799006306e-38
0.0875889390094 -0.0274788828265 0.928 1.95065090259e-38
0.089306369186 -0.0274788828265 0.928 1.94002485634e-38
0.0915142293162 -0.027626937152 0.933 2.18776966042e-38
0.0932409128882 -0.027626937152 0.933 2.25327966297e-38
-0.0251063122592 -0.022152628464 0.798 1.28896729657e-38
-0.0236294703616 -0.022152628464 0.798 1.32573666762e-38
-0.0220971080919 -0.0220971080919 0.796 1.16907948671e-38
-0.0206239675524 -0.0220971080919 0.796 1.16929598733e-38
-0.019150827013 -0.0220971080919 0.796 6.71404833861e-39
-0.0176776864735 -0.0220971080919 0.796 2.12718592261e-38
-0.016204545934 -0.0220971080919 0.796 1.9976819823e-38
-0.014768418976 -0.022152628464 0.798 1.93300463129e-38
-0.0133582015249 -0.0222636692081 0.802 1.97920586205e-38
-0.011873956911 -0.0222636692081 0.802 2.01608663633e-38
-0.0104026670506 -0.0222914293942 0.803 1.98828095116e-38
-0.00891657175768 -0.0222914293942 0.803 1.8589199433e-38
-0.00743047646473 -0.0222914293942 0.803 1.79427762475e-38
-0.00595918660434 -0.0223469497663 0.805 2.28266208917e-38
-0.00448049402767 -0.0224024701384 0.807 1.91496431486e-38
-0.00298699601845 -0.0224024701384 0.807 2.10828366749e-38
-0.00149719936736 -0.0224579905105 0.809 2.18196758412e-38
0.0 -0.0225135108825 0.811 2.09909941723e-38
0.00150830344178 -0.0226245516267 0.815 1.99750443779e-38
0.00302400959984 -0.0226800719988 0.817 1.97895853287e-38
0.00454711847418 -0.0227355923709 0.819 1.85917624079e-38
0.0060776300648 -0.022791112743 0.821 1.98781684111e-38
0.00763405116239 -0.0229021534872 0.825 2.08037750923e-38
0.00918306954371 -0.0229576738593 0.827 1.97913397544e-38
0.0107654001483 -0.0230687146034 0.831 2.21901819578e-38
0.0123329253203 -0.0231242349755 0.833 1.71162371639e-38
0.0139078532086 -0.0231797553476 0.835 2.02494858795e-38
0.0154531702318 -0.0231797553476 0.835 1.87775605713e-38
0.0170392021945 -0.0232352757197 0.837 1.59170185498e-38
0.0186326368734 -0.0232907960918 0.839 1.79452789666e-38
0.0201853566129 -0.0232907960918 0.839 1.95136794702e-38
0.0218417143803 -0.023401836836 0.843 1.98881975042e-38
0.023401836836 -0.023401836836 0.843 1.44494807071e-38
0.025021181022 -0.0234573572081 0.845 2.10023853275e-38
0.0265850048358 -0.0234573572081 0.845 6.44032290049e-39
0.0282154530962 -0.0235128775802 0.847 2.12654090493e-38
0.0300291185845 -0.0237071988825 0.854 1.83190585163e-38
0.03160959851 -0.0237071988825 0.854 2.05345912625e-38
0.0332678069564 -0.0237627192546 0.856 7.08962855692e-39
0.0349334181191 -0.0238182396267 0.858 1.4808199101e-38
0.0369043913283 -0.0240680813011 0.867 1.95814630795e-38
0.0385089300817 -0.0240680813011 0.867 2.01274986443e-38
0.0401134688351 -0.0240680813011 0.867 1.96707846462e-38
0.0419104782118 -0.0241791220453 0.871 2.23412531426e-38
0.043722293021 -0.0242901627894 0.875 2.13392911095e-38
0.0454970942488 -0.0243734433476 0.878 2.00481192902e-38
0.047121990472 -0.0243734433476 0.878 1.93923648582e-38
0.0488579274393 -0.0244289637197 0.88 2.03136555401e-38
0.0504865250206 -0.0244289637197 0.88 1.99473659306e-38
0.0524112312531 -0.0245677646499 0.885 2.00374119686e-38
0.0541712270483 -0.024623285022 0.887 2.13285459529e-38
0.0559386255599 -0.0246788053941 0.889 2.15197166946e-38
0.0577134267877 -0.0247343257662 0.891 2.16133514579e-38
0.0593623818388 -0.0247343257662 0.891 2.09686714877e-38
0.0612167622666 -0.0248176063243 0.894 1.96704062956e-38
0.0631525725735 -0.0249286470685 0.898 2.08668125037e-38
0.0650310118292 -0.0250119276266 0.901 2.03153749333e-38
0.0668465279965 -0.0250674479987 0.903 2.15125434477e-38
0.068745324722 -0.0251507285568 0.906 2.31824399991e-38
0.070577497001 -0.0252062489289 0.908 1.70907713669e-38
0.0724170719962 -0.025261769301 0.91 2.18773406743e-38
0.0747526289822 -0.0254838507894 0.918 2.34808451058e-38
0.0768679551588 -0.0256226517196 0.923 2.0331543115e-38
0.0787463944145 -0.0256781720917 0.925 2.34882103305e-38
0.0804582725539 -0.0256781720917 0.925 2.34881865084e-38
0.0821701506934 -0.0256781720917 0.925 2.26562594322e-38
0.0841540786561 -0.0257614526498 0.928 1.28688272497e-38
0.0860565767397 -0.0258169730219 0.93 1.83836359548e-38
0.0877777082745 -0.0258169730219 0.93 2.23422522685e-38
0.0899800163674 -0.0259557739521 0.935 2.10558869029e-38
0.0917104012975 -0.0259557739521 0.935 2.34648142513e-38
0.0934407862277 -0.0259557739521 0.935 2.15182873701e-38
-0.0252321584359 -0.0207794245943 0.802 1.31669408863e-38
-0.0236886920918 -0.0207276055803 0.8 1.48257643772e-38
-0.0222081488361 -0.0207276055803 0.8 1.28886219918e-38
-0.0206757865664 -0.0206757865664 0.798 1.18741337517e-38
-0.0191989446688 -0.0206757865664 0.798 7.26685918149e-39
-0.0177665190688 -0.0207276055803 0.8 2.12707634107e-38
-0.0162859758131 -0.0207276055803 0.8 1.95165633424e-38
-0.0148054325574 -0.0207276055803 0.8 1.91459731479e-38
-0.0133748576365 -0.0208053341012 0.803 1.93293036247e-38
-0.0118887623436 -0.0208053341012 0.803 1.91427627732e-38
-0.0104026670506 -0.0208053341012 0.803 1.94182636564e-38
-0.00893877990651 -0.0208571531152 0.805 1.96022751643e-38
-0.00744898325543 -0.0208571531152 0.805 1.84066032366e-38
-0.0059739920369 -0.0209089721291 0.807 1.77630513117e-38
-0.00448049402767 -0.0209089721291 0.807 1.96055387884e-38
-0.00298699601845 -0.0209089721291 0.807 2.08984314022e-38
-0.0015009007255 -0.021012610157 0.811 2.16353224166e-38
0.0 -0.0211162481849 0.815 2.17292654656e-38
0.00151570615806 -0.0212198862128 0.819 1.98835564037e-38
0.0030388150324 -0.0212717052268 0.821 1.96977400235e-38
0.00458043069744 -0.0213753432547 0.825 1.89591001886e-38
0.00612204636247 -0.0214271622687 0.827 2.34766608286e-38
0.00767106474379 -0.0214789812826 0.829 2.15420127544e-38
0.00922748584138 -0.0215308002966 0.831 2.2552545129e-38
0.0107913096553 -0.0215826193105 0.833 2.16324413469e-38
0.0123625361854 -0.0216344383245 0.835 2.24588949513e-38
0.0139078532086 -0.0216344383245 0.835 2.08033813274e-38
0.0154901838131 -0.0216862573384 0.837 2.07082415695e-38
0.017079917134 -0.0217380763524 0.839 1.43503724719e-38
0.0186326368734 -0.0217380763524 0.839 1.98814600612e-38
0.0202334742687 -0.0217898953663 0.841 2.15502818167e-38
0.0218417143803 -0.0218417143803 0.843 1.02142004324e-38
0.0234573572081 -0.0218935333942 0.845 1.7953929182e-38
0.0250804027522 -0.0219453524082 0.847 2.15520180255e-38
0.0267108510126 -0.0219971714221 0.849 1.01241459866e-38
0.0283487019892 -0.0220489904361 0.851 2.17282691424e-38
0.0300994443891 -0.0221785379709 0.856 1.92418135551e-38
0.0318316799983 -0.0222821759988 0.86 9.84541090647e-39
0.0335009925192 -0.0223339950128 0.862 1.46287530235e-38
0.0351777077563 -0.0223858140267 0.864 1.93099432851e-38
0.0369043913283 -0.0224635425477 0.867 1.98555220266e-38
0.0385977626771 -0.0225153615616 0.869 1.98523018428e-38
0.0402985367421 -0.0225671805756 0.871 1.98533584218e-38
0.0419104782118 -0.0225671805756 0.871 2.17912799292e-38
0.043722293021 -0.0226708186035 0.875 1.93934760879e-38
0.0454970942488 -0.0227485471244 0.878 1.98526745882e-38
0.047229329858 -0.0228003661383 0.88 2.04072734879e-38
0.0488579274393 -0.0228003661383 0.88 2.031542538e-38
0.0506012671229 -0.0228521851523 0.882 1.99477218604e-38
0.0525296747135 -0.0229817326872 0.887 2.2167562198e-38
0.0542933718669 -0.0230335517011 0.889 2.26296739978e-38
0.0560644717366 -0.0230853707151 0.891 2.07839691398e-38
0.05790774809 -0.023163099236 0.894 2.0599953428e-38
0.0596955040713 -0.02321491825 0.896 2.07806999104e-38
0.0616960881456 -0.0233444657848 0.901 2.03165071825e-38
0.0635042015967 -0.0233962847988 0.903 2.0405475622e-38
0.0651753647966 -0.0233962847988 0.903 2.34558249217e-38
0.0670686094849 -0.0234740133197 0.906 2.26268083424e-38
0.0688970804057 -0.0235258323337 0.908 1.82932003558e-38
0.0707329540428 -0.0235776513476 0.91 2.2903033697e-38
0.0730537055962 -0.0237849274034 0.918 1.82115060566e-38
0.0751597783775 -0.0239144749383 0.923 2.34896242407e-38
0.0770345162751 -0.0239662939522 0.925 2.34820123874e-38
0.0787463944145 -0.0239662939522 0.925 2.3488217337e-38
0.0807192183028 -0.0240440224732 0.928 2.34860271075e-38
0.0824366484794 -0.0240440224732 0.928 1.97881321822e-38
0.0859677441444 -0.0245622126127 0.948 1.7281216236e-38
0.0877221879024 -0.0245622126127 0.948 2.17909239993e-38
0.0894766316605 -0.0245622126127 0.948 2.1513990989e-38
0.0912310754185 -0.0245622126127 0.948 2.34744832107e-38
0.0932797771486 -0.0246399411336 0.951 2.18028126155e-38
0.0955394562927 -0.0247694886685 0.956 2.1055145616e-38
0.0973087054833 -0.0247694886685 0.956 2.00381154204e-38
-0.0252321584359 -0.0192951799804 0.802 1.28907127291e-38
-0.023747913822 -0.0192951799804 0.802 1.19684397371e-38
-0.0222636692081 -0.0192951799804 0.802 1.43640743683e-38
-0.0207794245943 -0.0192951799804 0.802 1.26102148155e-38
-0.0192951799804 -0.0192951799804 0.802 6.80515375827e-39
-0.0178109353665 -0.0192951799804 0.802 1.97870784058e-38
-0.0163266907526 -0.0192951799804 0.802 1.99757240076e-38
-0.0148609529295 -0.0193192388083 0.803 1.93278364652e-38
-0.0134081698598 -0.0193673564641 0.805 1.95118816042e-38
-0.0119183732087 -0.0193673564641 0.805 1.92345716446e-38
-0.0104285765576 -0.0193673564641 0.805 1.98802885757e-38
-0.00893877990651 -0.0193673564641 0.805 2.00657364145e-38
-0.00746749004612 -0.0194154741199 0.807 1.63783414186e-38
-0.00598879746946 -0.0194635917757 0.809 1.83198250266e-38
-0.00450270217651 -0.0195117094315 0.811 2.13604787423e-38
-0.00300920416729 -0.0195598270874 0.813 2.16352677659e-38
-0.00151200479992 -0.019656062399 0.817 2.13594039463e-38
0.0 -0.0197041800548 0.819 2.07140345373e-38
0.0015194075162 -0.0197522977106 0.821 1.98835732193e-38
0.00305362046496 -0.0198485330222 0.825 1.91449291806e-38
0.00459153477185 -0.019896650678 0.827 2.17235551744e-38
0.00613685179503 -0.0199447683338 0.829 2.28326941193e-38
0.00767106474379 -0.0199447683338 0.829 2.03413045601e-38
0.00924969399022 -0.0200410036455 0.833 2.34748713704e-38
0.0108172191622 -0.0200891213013 0.835 1.99724842056e-38
0.0123625361854 -0.0200891213013 0.835 2.2828030598e-38
0.0139411654318 -0.0201372389571 0.837 2.00646574147e-38
0.0154901838131 -0.0201372389571 0.837 1.61960507052e-38
0.017079917134 -0.0201853566129 0.839 1.81307842586e-38
0.0186326368734 -0.0201853566129 0.839 1.93354581276e-38
0.0202815919245 -0.0202815919245 0.843 9.57205681244e-39
0.0218935333942 -0.0203297095803 0.845 1.05858738306e-38
0.0235128775802 -0.0203778272361 0.847 1.05833234674e-38
0.0251396244824 -0.020425944892 0.849 2.34799104397e-38
0.0267737741009 -0.0204740625478 0.851 1.74108293375e-38
0.028448638659 -0.0205462390315 0.854 1.1135771374e-38
0.0302400959984 -0.0206905919989 0.86 9.56524089671e-39
0.0319057071611 -0.0207387096547 0.862 1.50901389507e-38
0.0335787210401 -0.0207868273105 0.864 1.97723129238e-38
0.0351777077563 -0.0207868273105 0.864 1.96747250975e-38
0.0369043913283 -0.0208590037943 0.867 2.00442180753e-38
0.0386865952724 -0.0209552391059 0.871 1.96725628939e-38
0.0403910706956 -0.0210033567617 0.873 1.96697056464e-38
0.042102948835 -0.0210514744175 0.875 1.92097994904e-38
0.0438721980256 -0.0211236509012 0.878 2.08645984521e-38
0.0456007322767 -0.021171768557 0.88 2.00381154204e-38
0.047229329858 -0.021171768557 0.88 1.94863905839e-38
0.0488579274393 -0.021171768557 0.88 2.10468597382e-38
0.0507733802764 -0.0212920626966 0.885 2.17880597453e-38
0.0525296747135 -0.0213401803524 0.887 2.06942145718e-38
0.0542933718669 -0.0213882980082 0.889 2.17991678382e-38
0.0562532410017 -0.0215085921477 0.894 1.98587660326e-38
0.05790774809 -0.0215085921477 0.894 1.96722265823e-38
0.0598287529643 -0.0216048274593 0.898 2.16032803259e-38
0.0618330383968 -0.0217251215989 0.903 2.05930716513e-38
0.0635042015967 -0.0217251215989 0.903 2.34633204672e-38
0.0653918942478 -0.0217972980826 0.906 1.99505889171e-38
0.0672166638105 -0.0218454157384 0.908 2.05941828809e-38
0.0690488360894 -0.0218935333942 0.91 2.34697608349e-38
0.0711215966475 -0.0220138275337 0.915 1.92317396204e-38
0.0732128639962 -0.0221341216733 0.92 8.91163045139e-39
0.0751597783775 -0.022206298157 0.923 2.3489287929e-38
0.0770345162751 -0.0222544158128 0.925 2.3492156387e-38
0.0790017881261 -0.0223265922965 0.928 2.3485311044e-38
0.0807192183028 -0.0223265922965 0.928 1.89540415012e-38
0.0824366484794 -0.0223265922965 0.928 1.93948675773e-38
0.0859677441444 -0.0228077688546 0.948 2.18827538903e-38
0.0877221879024 -0.0228077688546 0.948 2.34518774639e-38
0.0897597855581 -0.0228799453383 0.951 2.28129890603e-38
0.0918084872882 -0.0229521218221 0.954 2.18895908255e-38
0.0935740351207 -0.0229521218221 0.954 2.26250104765e-38
0.0955394562927 -0.0230002394779 0.956 2.07825019803e-38
0.0976140675298 -0.0230724159616 0.959 2.08657124844e-38
-0.0252636199801 -0.0178331435154 0.803 1.34445871576e-38
-0.0237775246871 -0.0178331435154 0.803 1.26127315476e-38
-0.0224024701384 -0.0179219761107 0.807 1.2336867728e-38
-0.0208571531152 -0.017877559813 0.805 1.56594276622e-38
-0.0193673564641 -0.017877559813 0.805 7.63813040702e-39
-0.017877559813 -0.017877559813 0.805 1.82247679453e-38
-0.0163877631619 -0.017877559813 0.805 1.93317867256e-38
-0.0149349800922 -0.0179219761107 0.807 1.90490859708e-38
-0.0134747943063 -0.0179663924084 0.809 2.02447326751e-38
-0.0119479840738 -0.0179219761107 0.807 2.04327434888e-38
-0.0104544860646 -0.0179219761107 0.807 2.17249074274e-38
-0.00900540435302 -0.018010808706 0.811 1.62861037497e-38
-0.00750450362752 -0.018010808706 0.811 1.89619728505e-38
-0.00601840833457 -0.0180552250037 0.813 1.95154549153e-38
-0.00452491032535 -0.0180996413014 0.815 2.06240081175e-38
-0.00302400959984 -0.0181440575991 0.817 2.12664852465e-38
-0.00151570615806 -0.0181884738967 0.819 2.08065832944e-38
0.0 -0.0182328901944 0.821 1.99743465312e-38
0.00152310887434 -0.0182773064921 0.823 1.81325597037e-38
0.00306102318124 -0.0183661390874 0.827 1.73885655075e-38
0.00459153477185 -0.0183661390874 0.827 2.31046721382e-38
0.00613685179503 -0.0184105553851 0.829 2.2646877739e-38
0.00768957153448 -0.0184549716828 0.831 2.32937129062e-38
0.00924969399022 -0.0184993879804 0.833 2.20004601587e-38
0.0108172191622 -0.0185438042781 0.835 1.89587204367e-38
0.0123921470505 -0.0185882205758 0.837 2.01553942928e-38
0.0139411654318 -0.0185882205758 0.837 2.12632230237e-38
0.0154901838131 -0.0185882205758 0.837 1.90616682297e-38
0.017079917134 -0.0186326368734 0.839 1.6016474307e-38
0.0186326368734 -0.0186326368734 0.839 1.09485312745e-38
0.0202815919245 -0.0187214694688 0.843 1.02224414687e-38
0.0219453524082 -0.0188103020641 0.847 1.44595224119e-38
0.0236239183244 -0.0188991346595 0.851 1.26141384512e-38
0.0253469005382 -0.0190101754037 0.856 1.66656692609e-38
0.0269310818219 -0.0190101754037 0.856 1.01216390637e-38
0.028581887552 -0.0190545917013 0.858 1.16932555472e-38
0.0303807476077 -0.0191878405943 0.864 1.34327854219e-38
0.0319797343239 -0.0191878405943 0.864 2.02307953606e-38
0.0336953138215 -0.0192544650409 0.867 1.99484028915e-38
0.0352998525749 -0.0192544650409 0.867 1.94892618444e-38
0.0370746538027 -0.0193432976362 0.871 1.98594750896e-38
0.0387754278677 -0.0193877139339 0.873 1.9765125664e-38
0.0406224055793 -0.0194987546781 0.878 2.00427845469e-38
0.0422473018025 -0.0194987546781 0.878 2.00417181588e-38
0.0439721346954 -0.0195431709757 0.88 2.01332271524e-38
0.0456007322767 -0.0195431709757 0.88 2.07781887836e-38
0.047229329858 -0.0195431709757 0.88 1.98533556192e-38
0.0491355292998 -0.0196542117199 0.885 2.21632686195e-38
0.0508881223787 -0.0196986280176 0.887 2.13357304101e-38
0.0527665616345 -0.0197874606129 0.891 2.1060530806e-38
0.0545987339134 -0.0198540850594 0.894 1.89389425102e-38
0.0562532410017 -0.0198540850594 0.894 2.06820470973e-38
0.0580372956249 -0.0198985013571 0.896 2.13263403091e-38
0.0601618751969 -0.020053958399 0.903 2.0405823144e-38
0.0620384637735 -0.0201205828455 0.906 2.09575129481e-38
0.0637151790106 -0.0201205828455 0.906 2.03121911832e-38
0.0653918942478 -0.0201205828455 0.906 2.23351406787e-38
0.067364718136 -0.0202094154408 0.91 2.34730370707e-38
0.069276469615 -0.0202760398873 0.913 1.71177421585e-38
0.0715102392521 -0.0204314969292 0.92 1.42603979001e-38
0.0732128639962 -0.0204314969292 0.92 1.14102254873e-38
0.0753226381356 -0.0205425376733 0.925 1.54611102984e-38
0.0772843579495 -0.0206091621199 0.928 2.33919817637e-38
0.0790017881261 -0.0206091621199 0.928 1.46215741715e-38
0.0829807481259 -0.0211865739896 0.954 2.11419140169e-38
0.0847462959584 -0.0211865739896 0.954 2.13270787934e-38
0.0862397939676 -0.0211199495431 0.951 2.25324042662e-38
0.0879997897629 -0.0211199495431 0.951 2.34626324296e-38
0.0900429394558 -0.0211865739896 0.954 2.13399497198e-38
0.0918084872882 -0.0211865739896 0.954 2.34568983163e-38
0.0937702071021 -0.0212309902873 0.956 2.33668536796e-38
0.0955394562927 -0.0212309902873 0.956 2.11505614297e-38
0.0976140675298 -0.0212976147338 0.959 1.7173596514e-38
-0.0240736333383 -0.0165506229201 0.813 1.39981841289e-38
-0.0225135108825 -0.0165099079805 0.811 1.15071322826e-38
-0.021012610157 -0.0165099079805 0.811 1.39059758873e-38
-0.0194635917757 -0.016469193041 0.809 8.74410241739e-39
-0.0179663924084 -0.016469193041 0.809 1.54585333105e-38
-0.016469193041 -0.016469193041 0.809 1.99749869246e-38
-0.0149719936736 -0.016469193041 0.809 2.00639988044e-38
-0.0135081065295 -0.0165099079805 0.811 2.17227914667e-38
-0.0119775949389 -0.016469193041 0.809 2.09862633887e-38
-0.0104803955715 -0.016469193041 0.809 1.60977692361e-38
-0.00902761250186 -0.0165506229201 0.813 1.69286018982e-38
-0.00754151720891 -0.0165913378596 0.815 1.70258590182e-38
-0.00603321376713 -0.0165913378596 0.815 2.31961517046e-38
-0.00453601439976 -0.0166320527991 0.817 1.98850151554e-38
-0.0030388150324 -0.0167134826782 0.821 2.03434597571e-38
-0.00152310887434 -0.0167541976177 0.823 1.91463360842e-38
0.0 -0.0167949125573 0.825 1.90501747797e-38
0.00152681023248 -0.0167949125573 0.825 1.84033858553e-38
0.00306102318124 -0.0168356274968 0.827 2.31988856379e-38
0.00460263884627 -0.0168763424363 0.829 2.2462161378e-38
0.00613685179503 -0.0168763424363 0.829 2.22770218249e-38
0.00770807832518 -0.0169577723154 0.833 2.19096938533e-38
0.00927190213905 -0.0169984872549 0.835 2.16305958369e-38
0.0108431286692 -0.0170392021945 0.837 2.06171529654e-38
0.0124217579156 -0.017079917134 0.839 2.17227368161e-38
0.0139744776551 -0.017079917134 0.839 2.20087572469e-38
0.0155271973945 -0.017079917134 0.839 1.15988949112e-38
0.017079917134 -0.017079917134 0.839 1.18679456177e-38
0.0187214694688 -0.0171613470131 0.843 1.20595998074e-38
0.0203778272361 -0.0172427768921 0.847 1.71277810607e-38
0.0220489904361 -0.0173242067712 0.851 1.56544656644e-38
0.0237071988825 -0.0173852791805 0.854 1.11400971823e-38
0.0254061222684 -0.0174667090596 0.858 1.16958325351e-38
0.0270569279986 -0.0175074239991 0.86 1.16018208224e-38
0.0286485119985 -0.0175074239991 0.86 1.26091414209e-38
0.0303807476077 -0.0175888538782 0.864 1.83054673225e-38
0.0319797343239 -0.0175888538782 0.864 1.98551562877e-38
0.0337730423424 -0.017690641227 0.869 2.01303110503e-38
0.035462712333 -0.0177313561665 0.871 1.99473715358e-38
0.0372449162771 -0.0178127860456 0.875 1.96704511372e-38
0.0388642604631 -0.0178127860456 0.875 2.0316509985e-38
0.0406224055793 -0.0178738584549 0.878 1.99484505356e-38
0.0423435371141 -0.0179145733944 0.88 2.02228612087e-38
0.0439721346954 -0.0179145733944 0.88 2.00399146877e-38
0.0458598273464 -0.0180163607432 0.885 2.02232297502e-38
0.0474976783231 -0.0180163607432 0.885 2.08682334203e-38
0.0492465700439 -0.0180570756828 0.887 1.94874653798e-38
0.0510028644811 -0.0180977906223 0.889 2.05894464921e-38
0.0530626702856 -0.0182402929107 0.896 2.05055591609e-38
0.054720878732 -0.0182402929107 0.896 1.97669053131e-38
0.0565049333552 -0.0182810078502 0.898 2.05934387915e-38
0.0583611644621 -0.0183420802595 0.901 2.07756832619e-38
0.0603617485364 -0.0184438676083 0.906 2.06870973769e-38
0.0620384637735 -0.0184438676083 0.906 2.07789076497e-38
0.0638558306199 -0.0184845825479 0.908 2.23483857518e-38
0.0655362472152 -0.0184845825479 0.908 2.24575104684e-38
0.06773485395 -0.0186270848362 0.915 1.6203989061e-38
0.0694282252987 -0.0186270848362 0.915 1.42664921471e-38
0.0715102392521 -0.0187288721851 0.92 1.2881434732e-38
0.0732128639962 -0.0187288721851 0.92 1.50008370022e-38
0.0753226381356 -0.0188306595339 0.925 1.77598745681e-38
0.0772843579495 -0.0188917319432 0.928 1.72869573558e-38
0.0790017881261 -0.0188917319432 0.928 2.08700312862e-38
0.0829807481259 -0.0194210261571 0.954 2.07742062934e-38
0.0847462959584 -0.0194210261571 0.954 2.3458732616e-38
0.0865118437908 -0.0194210261571 0.954 2.0137558566e-38
0.0882773916233 -0.0194210261571 0.954 2.26249922596e-38
0.0902317087209 -0.0194617410967 0.956 2.23494675542e-38
0.0920009579115 -0.0194617410967 0.956 2.26256662842e-38
0.0940644650742 -0.019522813506 0.959 2.29026259191e-38
0.095839266302 -0.019522813506 0.959 2.03189622574e-38
0.0979194295763 -0.0195838859153 0.962 1.80915927431e-38
-0.0240144116081 -0.015009007255 0.811 1.51935323566e-38
-0.0225135108825 -0.015009007255 0.811 1.17826275607e-38
-0.021064429171 -0.0150460208364 0.813 1.28893380553e-38
-0.0195117094315 -0.015009007255 0.811 1.06780540462e-38
-0.018010808706 -0.015009007255 0.811 1.39834032327e-38
-0.0165099079805 -0.015009007255 0.811 2.04388349332e-38
-0.015009007255 -0.015009007255 0.811 2.02498151846e-38
-0.0135414187528 -0.0150460208364 0.813 2.13546927809e-38
-0.0120368166691 -0.0150460208364 0.813 1.79420125398e-38
-0.0105322145855 -0.0150460208364 0.813 1.92324038359e-38
-0.00904982065069 -0.0150830344178 0.815 1.86821013173e-38
-0.00756002399961 -0.0151200479992 0.817 1.98799536654e-38
-0.00606282463224 -0.0151570615806 0.819 2.0341266725e-38
-0.0045582225486 -0.015194075162 0.821 1.93275281796e-38
-0.00304621774868 -0.0152310887434 0.823 1.98842738685e-38
-0.00152681023248 -0.0152681023248 0.825 2.00672189882e-38
0.0 -0.0153051159062 0.827 1.79449440562e-38
0.00153421294876 -0.0153421294876 0.829 2.31993760923e-38
0.00306842589751 -0.0153421294876 0.829 2.17263493635e-38
0.00461374292069 -0.015379143069 0.831 2.24621767923e-38
0.00616646266014 -0.0154161566504 0.833 2.27380041781e-38
0.00772658511588 -0.0154531702318 0.835 2.22784567546e-38
0.00931631843672 -0.0155271973945 0.839 2.06189550352e-38
0.0108690381762 -0.0155271973945 0.839 2.34777047959e-38
0.0124513687807 -0.0155642109759 0.841 1.87797241761e-38
0.0139744776551 -0.0155271973945 0.839 9.84469344166e-39
0.0155271973945 -0.0155271973945 0.839 1.05912295933e-38
0.0171206320735 -0.0155642109759 0.841 1.41807775227e-38
0.0188103020641 -0.0156752517201 0.847 1.42675739495e-38
0.0204740625478 -0.0157492788829 0.851 1.40799569008e-38
0.022126718957 -0.015804799255 0.854 1.11358260246e-38
0.0237627192546 -0.0158418128364 0.856 1.13248289576e-38
0.0254653439987 -0.0159158399992 0.86 1.0679870129e-38
0.0271827741753 -0.015989867162 0.864 1.14141757477e-38
0.0287817608915 -0.015989867162 0.864 1.74814645892e-38
0.0305565621193 -0.0160824011154 0.869 1.9310646737e-38
0.0321648022309 -0.0160824011154 0.869 1.99473519176e-38
0.0338507708634 -0.0161194146968 0.871 2.02232577761e-38
0.0357477169098 -0.0162489622317 0.878 2.00402706175e-38
0.0373726131329 -0.0162489622317 0.878 1.94914156402e-38
0.0389975093561 -0.0162489622317 0.878 1.93992144051e-38
0.0408074734862 -0.0163229893945 0.882 1.94002863984e-38
0.0425841253931 -0.0163785097666 0.885 1.83890085331e-38
0.0443219130396 -0.016415523348 0.887 1.85719942905e-38
0.0459634653743 -0.016415523348 0.887 1.9308463514e-38
0.0476050177091 -0.016415523348 0.887 2.02246590746e-38
0.0493576107881 -0.0164525369294 0.889 2.10576469337e-38
0.0514044618392 -0.0165820844643 0.896 2.04094202771e-38
0.0530626702856 -0.0165820844643 0.896 2.05044913714e-38
0.0548430235506 -0.0166190980456 0.898 2.0501564059e-38
0.0566937026203 -0.0166746184177 0.901 2.04108425951e-38
0.0586850332993 -0.0167671523712 0.906 2.01292418596e-38
0.0604949974294 -0.0168041659526 0.908 2.13245200224e-38
0.0621754140247 -0.0168041659526 0.908 2.20736065373e-38
0.0639964822292 -0.016841179534 0.91 2.07907612334e-38
0.0656806001826 -0.016841179534 0.91 1.56450951815e-38
0.0679569354383 -0.0169892338596 0.918 1.54693541372e-38
0.069807614508 -0.017026247441 0.92 1.57430711676e-38
0.0715102392521 -0.017026247441 0.92 1.81340240606e-38
0.0736107599962 -0.0171187813945 0.925 2.14454843097e-38
0.0755669277728 -0.0171743017665 0.928 1.76542979392e-38
0.0774509190657 -0.0172113153479 0.93 2.16954885674e-38
0.0800233629726 -0.0173963832549 0.94 2.16972934399e-38
0.0822848927957 -0.0175074239991 0.946 2.34683553326e-38
0.0847462959584 -0.0176554783247 0.954 2.23462473704e-38
0.0865118437908 -0.0176554783247 0.954 2.27157557624e-38
0.0882773916233 -0.0176554783247 0.954 2.30877682748e-38
0.0902317087209 -0.0176924919061 0.956 2.21658021671e-38
0.0920009579115 -0.0176924919061 0.956 2.25309973625e-38
0.0940644650742 -0.0177480122781 0.959 2.34583136278e-38
0.0961390763113 -0.0178035326502 0.962 2.2072144983e-38
0.0979194295763 -0.0178035326502 0.962 1.82763441366e-38
0.100217972981 -0.0178960666037 0.967 2.3494377445e-38
-0.0240144116081 -0.0135081065295 0.811 1.39023955697e-38
-0.0225135108825 -0.0135081065295 0.811 1.38127012576e-38
-0.021064429171 -0.0135414187528 0.813 1.17851190694e-38
-0.0195117094315 -0.0135081065295 0.811 1.23372180526e-38
-0.018010808706 -0.0135081065295 0.811 1.07634071356e-38
-0.0165506229201 -0.0135414187528 0.813 2.09034480507e-38
-0.0150460208364 -0.0135414187528 0.813 2.04349070936e-38
-0.0135414187528 -0.0135414187528 0.813 2.02494466431e-38
-0.0120368166691 -0.0135414187528 0.813 2.09862633887e-38
-0.0105581240925 -0.013574730976 0.815 1.96951784499e-38
-0.00907202879953 -0.0136080431993 0.817 1.97880901432e-38
-0.0075785307903 -0.0136413554225 0.819 1.96051338131e-38
-0.0060776300648 -0.0136746676458 0.821 2.04338379029e-38
-0.00456932662302 -0.0137079798691 0.823 2.02530774075e-38
-0.00306102318124 -0.0137746043156 0.827 1.98857059956e-38
-0.00153421294876 -0.0138079165388 0.829 2.16380591525e-38
0.0 -0.0138079165388 0.829 2.12656837038e-38
0.0015379143069 -0.0138412287621 0.831 2.18192512478e-38
0.00308323133007 -0.0138745409853 0.833 2.34766257961e-38
0.00463595106953 -0.0139078532086 0.835 2.19085924327e-38
0.00621087895782 -0.0139744776551 0.839 2.31978724991e-38
0.00776359869727 -0.0139744776551 0.839 2.28305263106e-38
0.00933852658556 -0.0140077898783 0.841 2.302036722e-38
0.0108949476832 -0.0140077898783 0.841 1.48142779337e-38
0.0124513687807 -0.0140077898783 0.841 1.08520140401e-38
0.0140077898783 -0.0140077898783 0.841 1.07746021091e-38
0.0155642109759 -0.0140077898783 0.841 1.01281326807e-38
0.0171206320735 -0.0140077898783 0.841 1.25183526947e-38
0.0188547183618 -0.0141410387714 0.849 1.59256379367e-38
0.0204740625478 -0.0141743509946 0.851 9.84798369045e-39
0.022126718957 -0.0142243193295 0.854 1.92478867826e-38
0.0237627192546 -0.0142576315527 0.856 1.64842263331e-38
0.0255245657289 -0.0143575682225 0.862 1.02185192343e-38
0.0272771588079 -0.0144408487806 0.867 1.57355503987e-38
0.0289483220078 -0.0144741610039 0.869 1.87602923703e-38
0.030626887924 -0.0145074732272 0.871 2.07788866302e-38
0.0323128565565 -0.0145407854504 0.873 1.78365410083e-38
0.0340062279052 -0.0145740976737 0.875 1.72920342602e-38
0.0358291467888 -0.0146573782318 0.88 1.59127123596e-38
0.0374577443701 -0.0146573782318 0.88 1.55453717763e-38
0.0393084234398 -0.0147406587899 0.885 1.65638242898e-38
0.0409462744165 -0.0147406587899 0.885 1.43547249049e-38
0.0426803607048 -0.0147739710132 0.887 1.42629020205e-38
0.0444218497093 -0.0148072832364 0.889 1.39859592011e-38
0.0460671034023 -0.0148072832364 0.889 1.59177486263e-38
0.0478196964812 -0.0148405954597 0.891 1.60949428171e-38
0.0494686515323 -0.0148405954597 0.891 1.77483685064e-38
0.0514044618392 -0.0149238760178 0.896 2.05934822317e-38
0.0531811137461 -0.0149571882411 0.898 2.08682306177e-38
0.0551483855971 -0.0150404687992 0.903 2.09589829102e-38
0.0570083180621 -0.0150904371341 0.906 2.01342641133e-38
0.0588145808341 -0.0151237493574 0.908 2.14178296845e-38
0.0606282463224 -0.0151570615806 0.91 2.29147779794e-38
0.0623123642758 -0.0151570615806 0.91 1.85867583711e-38
0.0642074596432 -0.0152070299155 0.913 1.73028214557e-38
0.0658971296338 -0.0152070299155 0.913 1.47314023399e-38
0.0681049897639 -0.0153236226969 0.92 1.51877520004e-38
0.069807614508 -0.0153236226969 0.92 2.13597444619e-38
0.0717434248149 -0.0153735910318 0.923 2.06082224903e-38
0.0738494975962 -0.0154568715899 0.928 1.91219198598e-38
0.0757297875309 -0.0154901838131 0.93 2.04033498522e-38
0.0781171635308 -0.0156234327062 0.938 2.28919242028e-38
0.0800233629726 -0.0156567449294 0.94 2.21625973975e-38
0.0822848927957 -0.0157566815992 0.946 2.17037800504e-38
0.0844797981723 -0.0158399621573 0.951 2.30827432186e-38
0.0865118437908 -0.0158899304922 0.954 2.27161116922e-38
0.0882773916233 -0.0158899304922 0.954 2.21625819832e-38
0.0902317087209 -0.0159232427154 0.956 2.22533342757e-38
0.0922896638464 -0.0159732110503 0.959 2.34558165139e-38
0.0945548950276 -0.0160564916085 0.964 2.31792380321e-38
0.0963389496508 -0.0160564916085 0.964 2.13317128874e-38
0.098123004274 -0.0160564916085 0.964 1.85547162804e-38
0.100217972981 -0.0161064599433 0.967 2.35062380352e-38
-0.0226245516267 -0.0120664275343 0.815 1.27045614385e-38
-0.0211162481849 -0.0120664275343 0.815 1.24315660769e-38
-0.0195598270874 -0.0120368166691 0.813 1.21539057927e-38
-0.0180552250037 -0.0120368166691 0.813 5.88285274021e-39
-0.0165506229201 -0.0120368166691 0.813 2.14580287336e-38
-0.0150830344178 -0.0120664275343 0.815 1.99743465312e-38
-0.013574730976 -0.0120664275343 0.815 2.05264062781e-38
-0.0120664275343 -0.0120664275343 0.815 1.96962700614e-38
-0.0106099431064 -0.0121256492645 0.819 2.01568796692e-38
-0.0091164450972 -0.0121552601296 0.821 1.90508782315e-38
-0.0076155443717 -0.0121848709947 0.823 1.98799410537e-38
-0.00612204636247 -0.0122440927249 0.827 2.09909521333e-38
-0.00460263884627 -0.0122737035901 0.829 1.71183881571e-38
-0.00307582861379 -0.0123033144552 0.831 2.24642843452e-38
-0.00154161566504 -0.0123329253203 0.833 2.20972394359e-38
0.0 -0.0123625361854 0.835 2.26464531456e-38
0.00154901838131 -0.0123921470505 0.837 2.23702768364e-38
0.00309803676263 -0.0123921470505 0.837 2.30145714496e-38
0.00465815921836 -0.0124217579156 0.839 2.29213052277e-38
0.00622568439037 -0.0124513687807 0.841 2.34776977894e-38
0.00778210548797 -0.0124513687807 0.841 2.19154447822e-38
0.00933852658556 -0.0124513687807 0.841 1.04882593796e-38
0.0108949476832 -0.0124513687807 0.841 1.11346951767e-38
0.0124809796459 -0.0124809796459 0.843 9.85402749073e-39
0.0140411021016 -0.0124809796459 0.843 1.16003438538e-38
0.0156012245573 -0.0124809796459 0.843 1.91664517237e-38
0.0172020619526 -0.012510590511 0.845 1.72318961353e-38
0.0188991346595 -0.0125994231063 0.851 7.91149431014e-39
0.0205943566873 -0.0126734502691 0.856 1.87872799774e-38
0.0222303569849 -0.0127030611342 0.858 1.91499710525e-38
0.0238737599988 -0.0127326719993 0.86 9.93617020541e-39
0.0257318417847 -0.0128659208924 0.869 1.36193472929e-38
0.0274030049846 -0.0128955317575 0.871 1.63743911582e-38
0.0291481953473 -0.0129547534877 0.875 1.60048925752e-38
0.0308730282403 -0.0129991697854 0.878 1.6283630458e-38
0.0324979244634 -0.0129991697854 0.878 1.5183416383e-38
0.0341228206866 -0.0129991697854 0.878 1.27042265282e-38
0.0358291467888 -0.0130287806505 0.88 1.12333970354e-38
0.0375428756073 -0.0130583915156 0.882 1.20631142639e-38
0.0393084234398 -0.0131028078133 0.885 1.16032529495e-38
0.04103880837 -0.0131324186784 0.887 1.14203036259e-38
0.0427765960164 -0.0131620295435 0.889 1.15135768542e-38
0.0444218497093 -0.0131620295435 0.889 1.29850887794e-38
0.0461707414302 -0.0131916404086 0.891 1.26163286807e-38
0.0478196964812 -0.0131916404086 0.891 1.3257750632e-38
0.0496352126486 -0.0132360567063 0.894 1.49100889136e-38
0.0514044618392 -0.0132656675714 0.896 1.8029251777e-38
0.0533587789368 -0.0133396947342 0.901 1.9766557791e-38
0.0551483855971 -0.0133693055993 0.903 2.11444727879e-38
0.0570083180621 -0.013413721897 0.906 2.02272234508e-38
0.0588145808341 -0.0134433327621 0.908 2.3378705862e-38
0.0606282463224 -0.0134729436272 0.91 1.49128648859e-38
0.0625177896526 -0.0135173599249 0.913 1.71205966034e-38
0.0643481112525 -0.01354697079 0.915 1.46438744353e-38
0.0660414826012 -0.01354697079 0.915 1.28853429534e-38
0.0681049897639 -0.0136209979528 0.92 2.21934581936e-38
0.0701870037173 -0.0136950251156 0.925 1.80298921704e-38
0.0721320674195 -0.0137394414132 0.928 2.2248607696e-38
0.0742473935961 -0.013813468576 0.933 2.05877411119e-38
0.0761369369263 -0.0138430794411 0.935 2.27179095582e-38
0.0781171635308 -0.0138874957388 0.938 2.3457995533e-38
0.0802787566842 -0.0139615229016 0.943 2.09708238822e-38
0.0824588566283 -0.0140355500644 0.948 2.29012190155e-38
0.0844797981723 -0.0140799663621 0.951 2.22554866701e-38
0.0865118437908 -0.0141243826597 0.954 2.27153886222e-38
0.0884624595303 -0.0141539935248 0.956 2.25324406999e-38
0.0902317087209 -0.0141539935248 0.956 2.34558375334e-38
0.0922896638464 -0.0141984098225 0.959 2.27153605963e-38
0.0945548950276 -0.0142724369853 0.964 2.32642618164e-38
0.0963389496508 -0.0142724369853 0.964 2.27114355593e-38
0.0984283663205 -0.014316853283 0.967 2.09514425231e-38
0.100217972981 -0.014316853283 0.967 2.35084324686e-38
-0.0227355923709 -0.0106099431064 0.819 1.28893086281e-38
-0.0211680671989 -0.0105840335994 0.817 1.2707798438e-38
-0.0196079447432 -0.0105581240925 0.815 1.24312157523e-38
-0.0180996413014 -0.0105581240925 0.815 5.33255722808e-39
-0.0165913378596 -0.0105581240925 0.815 2.06275800272e-38
-0.0151200479992 -0.0105840335994 0.817 2.02519801908e-38
-0.0136080431993 -0.0105840335994 0.817 1.95111907641e-38
-0.0120960383994 -0.0105840335994 0.817 2.01561916316e-38
-0.0106617621204 -0.0106617621204 0.823 1.85892022356e-38
-0.00916086139487 -0.0106876716274 0.825 1.93256728604e-38
-0.00765255795309 -0.0107135811343 0.827 1.77573101919e-38
-0.00613685179503 -0.0107394906413 0.829 1.81274659838e-38
-0.00461374292069 -0.0107654001483 0.831 2.20962290997e-38
-0.00308323133007 -0.0107913096553 0.833 2.27430026098e-38
-0.00154531702318 -0.0108172191622 0.835 2.34791116996e-38
0.0 -0.0108431286692 0.837 2.2279510531e-38
0.00155271973945 -0.0108690381762 0.839 2.16341957726e-38
0.00311284219519 -0.0108949476832 0.841 2.27390621585e-38
0.00466926329278 -0.0108949476832 0.841 2.34795124709e-38
0.00624048982293 -0.0109208571901 0.843 2.00715377901e-38
0.00780061227866 -0.0109208571901 0.843 8.462497478e-39
0.0093607347344 -0.0109208571901 0.843 1.11408482783e-38
0.0109208571901 -0.0109208571901 0.843 9.39165224684e-39
0.012510590511 -0.0109467666971 0.845 1.54656813339e-38
0.0140744143248 -0.0109467666971 0.845 2.10082217356e-38
0.0156382381387 -0.0109467666971 0.845 1.20686620045e-38
0.0172020619526 -0.0109467666971 0.845 6.44175783011e-39
0.0190545917013 -0.0111151784924 0.858 1.18747979672e-38
0.0206905919989 -0.0111410879994 0.86 1.55618398359e-38
0.0223339950128 -0.0111669975064 0.862 1.08509995001e-38
0.0240680813011 -0.0112317712738 0.867 1.04947165629e-38
0.0258502852452 -0.0113094997948 0.873 1.38055308134e-38
0.0275288511614 -0.0113354093017 0.875 1.91581504316e-38
0.0292481320171 -0.0113742735622 0.878 1.02206450041e-38
0.0308730282403 -0.0113742735622 0.878 1.39012843401e-38
0.0324979244634 -0.0113742735622 0.878 1.85128651005e-38
0.0342005492075 -0.0114001830692 0.88 1.1973477405e-38
0.0358291467888 -0.0114001830692 0.88 1.1786568012e-38
0.0375428756073 -0.0114260925761 0.882 1.20620787043e-38
0.0393972560352 -0.0114908663436 0.887 1.19713095963e-38
0.04103880837 -0.0114908663436 0.887 1.27081137301e-38
0.0427765960164 -0.0115167758506 0.889 1.33542608598e-38
0.0445217863791 -0.0115426853575 0.891 1.24312339692e-38
0.0461707414302 -0.0115426853575 0.891 1.39960429448e-38
0.0479807055603 -0.011581549618 0.894 1.46424717355e-38
0.0497462533928 -0.011607459125 0.896 1.36290414757e-38
0.0515192039415 -0.011633368632 0.898 1.62951463287e-38
0.0534772223972 -0.0116981423994 0.903 1.8301497444e-38
0.055331602825 -0.0117370066599 0.906 2.34453992611e-38
0.0571341642389 -0.0117629161668 0.908 2.34734406447e-38
0.058944128369 -0.0117888256738 0.91 1.09384993788e-38
0.060961368555 -0.0118535994412 0.915 1.16897256764e-38
0.0626547399037 -0.0118535994412 0.915 1.17786198471e-38
0.0643481112525 -0.0118535994412 0.915 1.42643117267e-38
0.0662580120524 -0.0118924637017 0.918 2.24678870836e-38
0.0681049897639 -0.0119183732087 0.92 1.59080432332e-38
0.0704146372428 -0.0120220112366 0.928 2.04901574895e-38
0.0722875244614 -0.0120479207436 0.93 2.14185205247e-38
0.0746452895961 -0.0121515587715 0.938 2.34658498109e-38
0.0765440863216 -0.0121774682784 0.94 2.22590992176e-38
0.0785335663215 -0.0122163325389 0.943 2.24391492547e-38
0.0805341503958 -0.0122551967994 0.946 2.23498206815e-38
0.0824588566283 -0.0122811063063 0.948 2.24416505724e-38
0.0844797981723 -0.0123199705668 0.951 2.29944712244e-38
0.0865118437908 -0.0123588348273 0.954 2.19774326211e-38
0.0884624595303 -0.0123847443342 0.956 2.25313631014e-38
0.0902317087209 -0.0123847443342 0.956 2.33607608339e-38
0.0922896638464 -0.0124236085947 0.959 2.25287861135e-38
0.0951434109718 -0.0125661108831 0.97 2.34522249859e-38
0.0969385696694 -0.0125661108831 0.97 2.21571729712e-38
0.0987337283669 -0.0125661108831 0.97 2.28810627384e-38
-0.0227355923709 -0.00909423694836 0.819 1.36286883485e-38
-0.0212198862128 -0.00909423694836 0.819 1.22468048744e-38
-0.019656062399 -0.00907202879953 0.817 1.21546218562e-38
-0.0181440575991 -0.00907202879953 0.817 6.99205334225e-39
-0.0166320527991 -0.00907202879953 0.817 2.0347778559e-38
-0.0151200479992 -0.00907202879953 0.817 1.91463571037e-38
-0.0136746676458 -0.0091164450972 0.821 2.01572299938e-38
-0.0121552601296 -0.0091164450972 0.821 1.93274679237e-38
-0.0107135811343 -0.00918306954371 0.827 1.81282016655e-38
-0.00920527769254 -0.00920527769254 0.829 1.95078682854e-38
-0.00768957153448 -0.00922748584138 0.831 2.04381188697e-38
-0.00615165722759 -0.00922748584138 0.831 2.20983184357e-38
-0.00463595106953 -0.00927190213905 0.835 2.19132069085e-38
-0.00309803676263 -0.00929411028789 0.837 2.32961988097e-38
-0.00155271973945 -0.00931631843672 0.839 2.28330696673e-38
0.0 -0.00933852658556 0.841 2.17252801728e-38
0.00155642109759 -0.00933852658556 0.841 2.08959146702e-38
0.00311284219519 -0.00933852658556 0.841 2.34780943569e-38
0.00469147144162 -0.00938294288323 0.845 1.60124483765e-38
0.00625529525549 -0.00938294288323 0.845 9.84289977962e-39
0.00781911906936 -0.00938294288323 0.845 1.04980194234e-38
0.00938294288323 -0.00938294288323 0.845 1.0770986759e-38
0.0109467666971 -0.00938294288323 0.845 1.10428919105e-38
0.012510590511 -0.00938294288323 0.845 2.34942961697e-38
0.0141410387714 -0.0094273591809 0.849 1.5095459681e-38
0.0157122653015 -0.0094273591809 0.849 2.02627828006e-38
0.0175074239991 -0.0095495039995 0.86 1.6672548235e-38
0.0191434242967 -0.00957171214834 0.862 2.3492100335e-38
0.0207868273105 -0.00959392029717 0.864 8.93208380378e-39
0.0223858140267 -0.00959392029717 0.864 1.18758895787e-38
0.0242346424173 -0.00969385696694 0.873 1.39995882299e-38
0.0259095069754 -0.00971606511577 0.875 1.63992459891e-38
0.0276232357939 -0.00974937733903 0.878 1.74125921709e-38
0.0292481320171 -0.00974937733903 0.878 1.4089268529e-38
0.0308730282403 -0.00974937733903 0.878 1.73100423467e-38
0.0325719516262 -0.00977158548786 0.88 1.27074705342e-38
0.0342005492075 -0.00977158548786 0.88 1.13248289576e-38
0.0359105766679 -0.0097937936367 0.882 1.22471580016e-38
0.0376705724632 -0.00982710585995 0.885 1.20617227745e-38
0.0394860886305 -0.00987152215763 0.889 1.25223351849e-38
0.0411313423234 -0.00987152215763 0.889 1.32591813577e-38
0.0430171842954 -0.00992704252972 0.894 1.36297547366e-38
0.0446716913837 -0.00992704252972 0.894 1.36290414757e-38
0.0464298364999 -0.00994925067855 0.896 1.48254434799e-38
0.0481953843324 -0.00997145882739 0.898 1.41825809938e-38
0.0500238552532 -0.0100047710506 0.901 1.55651497028e-38
0.0519781723508 -0.0100602914227 0.906 1.48257615746e-38
0.0537733310484 -0.0100824995716 0.908 1.63736750947e-38
0.0554537476436 -0.0100824995716 0.908 2.34493859552e-38
0.0575746258575 -0.0101602280925 0.915 2.34806419175e-38
0.0594623185085 -0.0101935403157 0.918 8.63253663885e-39
0.0611612418945 -0.0101935403157 0.918 1.08595964661e-38
0.0629971155316 -0.0102157484646 0.92 1.85978090108e-38
0.0649107176896 -0.0102490606878 0.923 2.09863236445e-38
0.0667632474384 -0.0102712688367 0.925 1.89464856999e-38
0.0686972070662 -0.0103045810599 0.928 1.98501214224e-38
0.0705663929266 -0.0103267892088 0.93 2.3077313187e-38
0.0729093526288 -0.0104156218041 0.938 2.34587158004e-38
