# .PCD v0.7 - Point Cloud Data file format
VERSION 0.7
FIELDS x y z rgb
SIZE 4 4 4 4
TYPE F F F F
COUNT 1 1 1 1
WIDTH 855
HEIGHT 1
VIEWPOINT 0 0 0 1 0 0 0
POINTS 855
DATA ascii
0.0442386324814 -0.134098354709 0.747 4.5917748079e-39
0.0456210897465 -0.134098354709 0.747 5.60197227213e-39
0.0470035470115 -0.134098354709 0.747 4.13259732711e-39
0.0483860042765 -0.134098354709 0.747 3.58158435016e-39
0.0497684615416 -0.134098354709 0.747 9.65747436163e-39
0.0512878690578 -0.134457386449 0.749 8.46757998753e-39
0.052674027681 -0.134457386449 0.749 1.00274129523e-38
0.0541323627879 -0.134636902319 0.75 1.45561293293e-38
0.0555203720901 -0.134636902319 0.75 2.0091852414e-38
0.0569083813924 -0.134636902319 0.75 1.91723932292e-38
0.0584518477365 -0.134995934058 0.752 1.76983435525e-38
0.0598435583969 -0.134995934058 0.752 1.78838222198e-38
0.0613981288154 -0.135354965798 0.754 1.73306330264e-38
0.0628768213921 -0.135534481667 0.755 1.7145182385e-38
0.0642740840897 -0.135534481667 0.755 1.69600680553e-38
0.0658453106198 -0.135893513407 0.757 1.85298950807e-38
0.0672462746756 -0.135893513407 0.757 1.33640503309e-38
0.0686472387313 -0.135893513407 0.757 5.51012976948e-40
0.070048202787 -0.135893513407 0.757 4.20389539297e-45
0.0714491668428 -0.135893513407 0.757 1.57517858427e-38
0.0728501308985 -0.135893513407 0.757 1.3352406942e-38
-0.0579984313644 -0.150482416513 0.847 1.42729787577e-38
-0.0564309061924 -0.150482416513 0.847 1.32613449626e-38
-0.0547338334855 -0.150127086132 0.845 4.49994771953e-39
-0.0529183173182 -0.149416425369 0.841 9.02978373401e-39
-0.0513618962206 -0.149416425369 0.841 8.84495947306e-39
-0.0494501447416 -0.148350434225 0.835 9.67651800776e-39
-0.0477900856161 -0.147995103843 0.833 1.01367548702e-38
-0.0461374292069 -0.147639773462 0.831 6.35641875364e-39
-0.0443848361279 -0.146929112699 0.827 8.47078475711e-39
-0.0427506865094 -0.146573782318 0.825 1.08722095536e-38
-0.0411239396072 -0.146218451937 0.823 8.19710696314e-39
-0.039312124798 -0.145152460792 0.817 7.45921682299e-39
-0.0376150520911 -0.14444180003 0.813 8.28860194377e-39
-0.0360216174121 -0.144086469648 0.811 9.76444948639e-39
-0.0344355854494 -0.143731139267 0.809 9.11981435775e-39
-0.032938386082 -0.143731139267 0.809 1.00435629171e-38
-0.0312857296728 -0.143020478504 0.805 1.11459826359e-38
-0.0296848922775 -0.142487482932 0.802 7.82762379445e-39
-0.0280599960544 -0.141776822169 0.798 4.22734472148e-39
-0.0265165297102 -0.141421491788 0.796 2.02040894145e-39
-0.0249804660824 -0.141066161407 0.794 2.29588740395e-39
-0.0234518051709 -0.140710831025 0.792 4.69012353932e-39
-0.0219027867896 -0.140177835453 0.789 9.39350476341e-39
-0.0203389629757 -0.13946717469 0.785 9.48822132921e-39
-0.018886179906 -0.13946717469 0.785 9.48822132921e-39
-0.0173889805386 -0.139111844309 0.783 9.85629479164e-39
-0.0158991838875 -0.138756513928 0.781 9.94742683597e-39
-0.0144352967434 -0.138578848737 0.78 9.76410476697e-39
-0.0129251426226 -0.137868187974 0.776 9.85664791885e-39
-0.0114445993668 -0.137335192402 0.773 9.39604391623e-39
-0.00996220543204 -0.136624531639 0.769 9.58004421368e-39
-0.00848351285537 -0.135736205686 0.764 8.93578603432e-39
-0.00705108725545 -0.135380875305 0.762 9.30564755359e-39
-0.00564086980436 -0.135380875305 0.762 9.39712431734e-39
-0.00423065235327 -0.135380875305 0.762 8.56772378228e-39
-0.00281673354404 -0.135203210114 0.761 9.94956802002e-39
-0.00140466541388 -0.134847879733 0.759 9.48929051994e-39
0.0 -0.13413721897 0.755 9.67298253173e-39
0.00139541201853 -0.133959553779 0.754 9.39604391623e-39
0.00278342132079 -0.133604223398 0.752 9.49003601072e-39
0.00416402790676 -0.133248893016 0.75 5.8976518533e-39
0.00554463449273 -0.133071227826 0.749 1.2256611161e-38
0.00693079311592 -0.133071227826 0.749 1.32703903442e-38
0.0083169517391 -0.133071227826 0.749 2.38772290011e-39
0.00967720085531 -0.132715897444 0.747 2.57139389242e-39
0.0110596581204 -0.132715897444 0.747 5.1428270212e-39
0.0124421153854 -0.132715897444 0.747 5.51088366805e-39
0.0138060658597 -0.132538232254 0.746 3.76526375027e-39
0.0151866724457 -0.132538232254 0.746 0.0
0.0165672790317 -0.132538232254 0.746 1.60366319854e-38
0.0178997679619 -0.132182901872 0.744 1.83418660502e-38
0.0192766731897 -0.132182901872 0.744 1.05938626331e-38
0.0205980580454 -0.131827571491 0.742 1.8434517102e-38
0.0219712619151 -0.131827571491 0.742 1.29026868245e-38
0.0234073888732 -0.132182901872 0.744 1.72290514994e-38
0.024784294101 -0.132182901872 0.744 1.43749974898e-38
0.0260908735242 -0.131827571491 0.742 1.77901047798e-38
0.0274640773939 -0.131827571491 0.742 1.94485891565e-38
0.0288372812636 -0.131827571491 0.742 1.92584371588e-38
0.0302104851333 -0.131827571491 0.742 1.91680464013e-38
0.031583689003 -0.131827571491 0.742 1.98137759441e-38
0.0329568928727 -0.131827571491 0.742 1.93531565272e-38
0.0343300967424 -0.131827571491 0.742 2.15658488413e-38
0.0357033006121 -0.131827571491 0.742 2.04620194163e-38
0.0370765044818 -0.131827571491 0.742 1.40129846432e-45
0.0384497083515 -0.131827571491 0.742 1.40129846432e-44
0.0400375909933 -0.132538232254 0.746 1.40129846432e-45
0.0414181975792 -0.132538232254 0.746 3.94894455167e-39
0.0428561752164 -0.132715897444 0.747 5.32646017846e-39
0.0442386324814 -0.132715897444 0.747 5.05098031466e-39
0.0456210897465 -0.132715897444 0.747 5.05098872245e-39
0.0470035470115 -0.132715897444 0.747 8.18663225712e-39
0.0483860042765 -0.132715897444 0.747 1.15049644739e-38
0.0497684615416 -0.132715897444 0.747 8.46510389314e-39
0.0512878690578 -0.133071227826 0.749 1.53851262904e-38
0.052674027681 -0.133071227826 0.749 2.03691427554e-38
0.0541323627879 -0.133248893016 0.75 1.94482528449e-38
0.0555203720901 -0.133248893016 0.75 1.76061605343e-38
0.0569083813924 -0.133248893016 0.75 1.76065080563e-38
0.0586073047783 -0.133959553779 0.754 1.66845629681e-38
0.0600027167969 -0.133959553779 0.754 1.72377311421e-38
0.0614795586945 -0.13413721897 0.755 1.64090242497e-38
0.0628768213921 -0.13413721897 0.755 1.75150439043e-38
0.0644443465641 -0.134492549351 0.757 1.73302798991e-38
0.0660192744524 -0.134847879733 0.759 1.84369805847e-38
0.0674239398663 -0.134847879733 0.759 1.30870948998e-38
0.0688286052801 -0.134847879733 0.759 7.34683969264e-40
0.070048202787 -0.134492549351 0.757 8.26519465422e-40
0.0714491668428 -0.134492549351 0.757 1.68588116295e-38
0.0728501308985 -0.134492549351 0.757 1.54714841109e-38
-0.0581353816156 -0.149266520364 0.849 1.48286902884e-38
-0.0564309061924 -0.148914891341 0.847 1.61193926727e-38
-0.0547338334855 -0.148563262318 0.845 9.20665002098e-39
-0.0530441634949 -0.148211633295 0.843 1.05055934416e-38
-0.0514840410392 -0.148211633295 0.843 7.18441939153e-39
-0.0494501447416 -0.146805117202 0.835 9.58144551215e-39
-0.0479048277184 -0.146805117202 0.835 9.21374479511e-39
-0.0461374292069 -0.146101859155 0.831 9.21267140048e-39
-0.044492175514 -0.145750230132 0.829 1.05027067667e-38
-0.0428543245373 -0.145398601109 0.827 1.0226903203e-38
-0.0412238762769 -0.145046972085 0.825 7.46062372664e-39
-0.0396008307328 -0.144695343062 0.823 7.3659491998e-39
-0.037800119998 -0.143640455993 0.817 8.93291477377e-39
-0.0360216174121 -0.142585568923 0.811 9.94884915391e-39
-0.0344355854494 -0.1422339399 0.809 7.36773725664e-39
-0.032938386082 -0.1422339399 0.809 8.47338556706e-39
-0.0313634581937 -0.141882310876 0.807 9.58078690187e-39
-0.0296848922775 -0.141003238318 0.802 9.67298253173e-39
-0.0280599960544 -0.140299980272 0.798 4.13695116144e-39
-0.0265165297102 -0.139948351249 0.796 1.65308797629e-39
-0.0250433891708 -0.139948351249 0.796 4.96923556874e-39
-0.0234518051709 -0.139245093202 0.792 4.78302262101e-39
-0.0219305469756 -0.138893464179 0.79 8.47048908314e-39
-0.0203389629757 -0.138014391621 0.785 9.4896884887e-39
-0.018886179906 -0.138014391621 0.785 9.76445228899e-39
-0.0173889805386 -0.137662762597 0.783 9.76409916178e-39
-0.0159398988271 -0.137662762597 0.783 9.76338449956e-39
-0.0144538035341 -0.137311133574 0.781 1.01339592798e-38
-0.0129917670691 -0.137135319063 0.78 9.67188391374e-39
-0.0114445993668 -0.135904617481 0.773 9.57971350725e-39
-0.00998811493901 -0.135552988458 0.771 1.00406916566e-38
-0.00851682507863 -0.134849730412 0.767 9.48789062277e-39
-0.00708810083684 -0.1346739159 0.766 9.48823674349e-39
-0.00565567523691 -0.134322286877 0.764 9.58043657725e-39
-0.00423065235327 -0.133970657853 0.762 8.93686503414e-39
-0.00281673354404 -0.133794843342 0.761 9.30599787821e-39
-0.00140836677202 -0.133794843342 0.761 9.02976411583e-39
0.0 -0.132739956272 0.755 9.94921489281e-39
0.00139541201853 -0.132564141761 0.754 9.30493849657e-39
0.00278342132079 -0.132212512737 0.752 9.85846820556e-39
0.00416402790676 -0.131860883714 0.75 6.35755520669e-39
0.00554463449273 -0.131685069202 0.749 1.08758473244e-38
0.00693079311592 -0.131685069202 0.749 1.14268476897e-38
0.00829474359027 -0.131333440179 0.747 1.43756785209e-38
0.00967720085531 -0.131333440179 0.747 3.95289341075e-39
0.0110596581204 -0.131333440179 0.747 2.75506488474e-39
0.0124254592738 -0.131157625668 0.746 5.41866001222e-39
0.0137690522784 -0.130805996644 0.744 5.51160253417e-39
0.0151459575062 -0.130805996644 0.744 4.04078565303e-39
0.0164784464364 -0.130454367621 0.742 0.0
0.017851650306 -0.130454367621 0.742 1.17873863703e-38
0.0192248541757 -0.130454367621 0.742 2.02726717639e-38
0.0205980580454 -0.130454367621 0.742 1.65861483756e-38
0.0219712619151 -0.130454367621 0.742 1.84344176098e-38
0.0233444657848 -0.130454367621 0.742 1.44707636282e-38
0.0247176696545 -0.130454367621 0.742 1.30845347275e-38
0.0260908735242 -0.130454367621 0.742 1.55782476396e-38
0.0274270638125 -0.130278553109 0.741 1.66848250109e-38
0.0287984170032 -0.130278553109 0.741 2.01807816171e-38
0.0301697701938 -0.130278553109 0.741 1.95364687871e-38
0.0315411233844 -0.130278553109 0.741 1.99985259362e-38
0.032912476575 -0.130278553109 0.741 2.21190422387e-38
0.0343300967424 -0.130454367621 0.742 1.39157765688e-38
0.0357033006121 -0.130454367621 0.742 0.0
0.0370765044818 -0.130454367621 0.742 0.0
0.0384497083515 -0.130454367621 0.742 2.93873587706e-39
0.0400375909933 -0.131157625668 0.746 4.31626831943e-39
0.0414737179513 -0.131333440179 0.747 3.94894174908e-39
0.0428561752164 -0.131333440179 0.747 3.30607786169e-39
0.0442386324814 -0.131333440179 0.747 8.17808713908e-39
0.0456210897465 -0.131333440179 0.747 9.01530411698e-39
0.0470035470115 -0.131333440179 0.747 8.09423624157e-39
0.0485155518114 -0.131685069202 0.749 1.45531795961e-38
0.0499017104346 -0.131685069202 0.749 2.11974320608e-38
0.0512878690578 -0.131685069202 0.749 1.93553243359e-38
0.052674027681 -0.131685069202 0.749 1.80645855178e-38
0.0541323627879 -0.131860883714 0.75 1.84351785149e-38
0.0555203720901 -0.131860883714 0.75 1.78845256716e-38
0.0570601370761 -0.132212512737 0.752 1.73309959627e-38
0.0586073047783 -0.132564141761 0.754 1.73299267719e-38
0.0600027167969 -0.132564141761 0.754 1.72377465563e-38
0.0616424184526 -0.133091585295 0.757 1.73302798991e-38
0.0630433825083 -0.133091585295 0.757 1.72391562626e-38
0.0646146090385 -0.133443214319 0.759 1.75142984135e-38
0.0660192744524 -0.133443214319 0.759 1.86213900613e-38
0.0676016050569 -0.133794843342 0.761 1.29945433402e-38
0.069009971829 -0.133794843342 0.761 1.1020259539e-39
0.070233270694 -0.133443214319 0.759 1.19386285135e-39
0.0716379361079 -0.133443214319 0.759 1.76882023555e-38
-0.0582723318667 -0.148043221499 0.851 1.46417682837e-38
-0.0565641550854 -0.147695293834 0.849 1.63945446327e-38
-0.0549929285553 -0.147695293834 0.849 9.94417442223e-39
-0.0532958558484 -0.147347366169 0.847 9.95030790561e-39
-0.0516061858578 -0.146999438504 0.845 7.3648533844e-39
-0.0495685882021 -0.145607727844 0.837 1.03172112838e-38
-0.0479048277184 -0.145259800178 0.835 1.0781048082e-38
-0.0462484699511 -0.144911872513 0.833 9.76477318634e-39
-0.0445995149 -0.144563944848 0.831 1.00395972425e-38
-0.0429579625652 -0.144216017183 0.829 9.48857165383e-39
-0.0412238762769 -0.143520161853 0.825 8.84250159555e-39
-0.0396008307328 -0.143172234188 0.823 6.90353892345e-39
-0.0378926539515 -0.142476378858 0.819 8.74603200537e-39
-0.0361104500074 -0.141432595862 0.813 1.00417636499e-38
-0.0345207166866 -0.141084668197 0.811 7.4599328865e-39
-0.0330198159611 -0.141084668197 0.811 9.30529442638e-39
-0.0314411867146 -0.140736740532 0.809 1.00417636499e-38
-0.0297959330217 -0.140040885202 0.805 1.08722249679e-38
-0.028130321859 -0.139171066039 0.8 5.52458556444e-39
-0.0265831541568 -0.138823138374 0.798 3.58701718431e-39
-0.0250433891708 -0.138475210709 0.796 3.86467326463e-39
-0.0235110269011 -0.138127283044 0.794 5.88937017937e-39
-0.0219305469756 -0.137431427714 0.79 7.6382355044e-39
-0.0204426010036 -0.137257463881 0.789 8.65490276364e-39
-0.0189342975618 -0.136909536216 0.787 1.04090832137e-38
-0.0174333968363 -0.136561608551 0.785 1.02232850504e-38
-0.0159398988271 -0.136213680886 0.783 9.48822413181e-39
-0.0144538035341 -0.135865753221 0.781 9.94884915391e-39
-0.0129251426226 -0.134995934058 0.776 9.94886456819e-39
-0.0114594047994 -0.134648006393 0.774 9.67262940452e-39
-0.010014024446 -0.13447404256 0.773 9.58043377466e-39
-0.00853903322746 -0.13377818723 0.769 9.21093098779e-39
-0.00709735423219 -0.133430259565 0.767 9.85700384866e-39
-0.00565567523691 -0.132908368067 0.764 1.00406916566e-38
-0.00424175642769 -0.132908368067 0.764 8.93578603432e-39
-0.00282043490218 -0.132560440402 0.762 9.67478039766e-39
-0.00140836677202 -0.13238647657 0.761 9.58078690187e-39
0.0 -0.132038548905 0.759 9.58078409927e-39
0.0013972626976 -0.131342693575 0.755 9.02867250433e-39
0.00278342132079 -0.130820802077 0.752 9.39784038086e-39
0.00416402790676 -0.130472874412 0.75 7.74084558445e-39
0.00554463449273 -0.130298910579 0.749 1.09680373491e-38
0.00693079311592 -0.130298910579 0.749 1.06892826508e-38
0.00829474359027 -0.129950982914 0.747 1.13346520598e-38
0.00966424610182 -0.129777019082 0.746 1.43756785209e-38
0.0110448526878 -0.129777019082 0.746 5.61424904798e-39
0.0123921470505 -0.129429091417 0.744 7.34683969264e-40
0.0137690522784 -0.129429091417 0.744 4.86733734831e-39
0.0151052425667 -0.129081163751 0.742 5.23464710308e-39
0.0164784464364 -0.129081163751 0.742 5.23464710308e-39
0.017851650306 -0.129081163751 0.742 1.65303893084e-39
0.0191989446688 -0.128907199919 0.741 4.87664197012e-39
0.0205702978594 -0.128907199919 0.741 2.101235977e-38
0.02194165105 -0.128907199919 0.741 1.29912951303e-38
0.0233130042406 -0.128907199919 0.741 1.73241211924e-38
0.0246843574313 -0.128907199919 0.741 1.78791194622e-38
0.0260557106219 -0.128907199919 0.741 1.30834781485e-38
0.0274270638125 -0.128907199919 0.741 1.76990021628e-38
0.0287206884822 -0.128559272254 0.739 1.44681894429e-38
0.0300883403147 -0.128559272254 0.739 2.15618635485e-38
0.0315411233844 -0.128907199919 0.741 2.11066713605e-38
0.032912476575 -0.128907199919 0.741 1.01023529929e-39
0.0342838297657 -0.128907199919 0.741 1.54142831076e-44
0.0356551829563 -0.128907199919 0.741 1.12103877146e-44
0.0371764411516 -0.129429091417 0.744 3.85709083864e-39
0.0385533463794 -0.129429091417 0.744 3.67342965541e-39
0.0400375909933 -0.129777019082 0.746 3.489748854e-39
0.0414737179513 -0.129950982914 0.747 5.78600339815e-39
0.0428561752164 -0.129950982914 0.747 1.05884354042e-38
0.0442386324814 -0.129950982914 0.747 7.17653148248e-39
0.0456210897465 -0.129950982914 0.747 1.36302101586e-38
0.0470035470115 -0.129950982914 0.747 2.01833053556e-38
0.0485155518114 -0.130298910579 0.749 2.1198546093e-38
0.0499017104346 -0.130298910579 0.749 1.89865642372e-38
0.0512878690578 -0.130298910579 0.749 1.32700596377e-38
0.0527443534856 -0.130472874412 0.75 1.35376796184e-38
0.0541323627879 -0.130472874412 0.75 1.09601648543e-38
0.0556684264157 -0.130820802077 0.752 8.93079180659e-39
0.0570601370761 -0.130820802077 0.752 1.61303101891e-38
0.0586073047783 -0.131168729742 0.754 1.72395486262e-38
0.0600822959969 -0.131342693575 0.755 1.7330635829e-38
0.0618052782107 -0.132038548905 0.759 1.6870377947e-38
0.0633765047409 -0.13238647657 0.761 1.72391562626e-38
0.0647848715129 -0.13238647657 0.761 1.80681952627e-38
0.0661932382849 -0.13238647657 0.761 1.87132171497e-38
0.0676904376523 -0.132560440402 0.762 1.18881985844e-38
0.069009971829 -0.13238647657 0.761 4.5917748079e-40
0.070418338601 -0.13238647657 0.761 1.83670992316e-40
-0.0582723318667 -0.146468293611 0.851 1.45484866475e-38
-0.0566974039784 -0.146468293611 0.851 1.5471869468e-38
-0.0549929285553 -0.146124067304 0.849 1.13278179272e-38
-0.0534217020251 -0.146124067304 0.849 9.58188131597e-39
-0.0517283306764 -0.145779840997 0.847 6.53438085601e-39
-0.0496870316625 -0.144402935769 0.839 1.050059501e-38
-0.0480195698208 -0.144058709462 0.837 9.95024064329e-39
-0.0463595106953 -0.143714483155 0.835 1.08707648149e-38
-0.044706854286 -0.143370256848 0.833 1.00399475671e-38
-0.0430616005931 -0.143026030541 0.831 1.02243388268e-38
-0.0413238129467 -0.142337577927 0.827 9.76371940989e-39
-0.0396970660444 -0.141993351621 0.825 9.39527740597e-39
-0.037985187905 -0.141304899007 0.821 9.11549275328e-39
-0.0361992826028 -0.140272220086 0.815 9.30384548377e-39
-0.0346058479238 -0.139927993779 0.813 9.57758353358e-39
-0.0331012458401 -0.139927993779 0.813 1.10544708397e-38
-0.0315189152356 -0.139583767472 0.811 1.01347075731e-38
-0.0299439873473 -0.139239541165 0.809 1.05023564421e-38
-0.0283061363706 -0.138551088551 0.805 7.55177959305e-39
-0.0265831541568 -0.137346296477 0.798 6.72057979075e-39
-0.0250433891708 -0.13700207017 0.796 6.25885755195e-39
-0.0235110269011 -0.136657843863 0.794 6.99427019642e-39
-0.0219860673477 -0.136313617556 0.792 7.63893895623e-39
-0.0204685105106 -0.135969391249 0.79 9.39102166253e-39
-0.0189824152176 -0.135797278095 0.789 1.04097894682e-38
-0.017477813134 -0.135453051788 0.787 9.6708175256e-39
-0.0159806137666 -0.135108825481 0.785 9.94812468261e-39
-0.0144538035341 -0.134420372867 0.781 9.76445228899e-39
-0.0129251426226 -0.1335598071 0.776 9.76445228899e-39
-0.0114594047994 -0.133215580793 0.774 9.76409916178e-39
-0.010014024446 -0.13304346764 0.773 9.67262940452e-39
-0.00853903322746 -0.132355015026 0.769 9.85629479164e-39
-0.00711586102289 -0.132355015026 0.769 9.67298253173e-39
-0.00567048066947 -0.131838675565 0.766 9.6722818825e-39
-0.00424175642769 -0.131494449258 0.764 9.30384548377e-39
-0.00282043490218 -0.131150222951 0.762 9.7651781616e-39
-0.00140836677202 -0.130978109798 0.761 9.48858987071e-39
0.0 -0.130633883491 0.759 1.00417636499e-38
0.0013972626976 -0.129945430877 0.755 9.0279662499e-39
0.00279082403706 -0.129773317723 0.754 9.39784038086e-39
0.00416402790676 -0.12908486511 0.75 8.38585906368e-39
0.00554463449273 -0.128912751956 0.749 9.86097933241e-39
0.00693079311592 -0.128912751956 0.749 1.03226735452e-38
0.00829474359027 -0.128568525649 0.747 1.02301219856e-38
0.00966424610182 -0.128396412496 0.746 1.07829426375e-38
0.0110448526878 -0.128396412496 0.746 1.23477151794e-38
0.0123921470505 -0.128052186189 0.744 1.06853548112e-38
0.0137690522784 -0.128052186189 0.744 1.65303893084e-39
0.0150848850969 -0.127535846728 0.741 4.13264637256e-39
0.0164562382875 -0.127535846728 0.741 5.69418331628e-39
0.017851650306 -0.127707959882 0.742 5.8778430982e-39
0.0191989446688 -0.127535846728 0.741 2.66323919767e-39
0.0205702978594 -0.127535846728 0.741 0.0
0.02194165105 -0.127535846728 0.741 1.96315328749e-38
0.0233130042406 -0.127535846728 0.741 1.36377659599e-38
0.0246843574313 -0.127535846728 0.741 1.43731253551e-38
0.0259853848173 -0.127191620421 0.739 1.88958455759e-38
0.0273530366497 -0.127191620421 0.739 1.35494365125e-38
0.0287206884822 -0.127191620421 0.739 2.21179338116e-38
0.0300883403147 -0.127191620421 0.739 1.289951989e-38
0.0314559921472 -0.127191620421 0.739 9.80908925027e-44
0.0328236439797 -0.127191620421 0.739 0.0
0.0341912958122 -0.127191620421 0.739 4.13262675438e-39
0.0356551829563 -0.127535846728 0.741 3.67343245801e-39
0.0370265361469 -0.127535846728 0.741 2.93873587706e-39
0.0385533463794 -0.128052186189 0.744 5.41868803819e-39
0.0400375909933 -0.128396412496 0.746 1.01263628408e-38
0.0414737179513 -0.128568525649 0.747 6.8069530255e-39
0.0428561752164 -0.128568525649 0.747 1.29856142663e-38
0.0442386324814 -0.128568525649 0.747 1.89883761161e-38
0.0456210897465 -0.128568525649 0.747 1.91726903045e-38
0.0470035470115 -0.128568525649 0.747 1.03140961973e-38
0.0485155518114 -0.128912751956 0.749 1.54709950577e-38
0.0499017104346 -0.128912751956 0.749 5.05102936011e-39
0.0512878690578 -0.128912751956 0.749 1.65764275682e-38
0.0527443534856 -0.12908486511 0.75 1.89847187272e-38
0.0542767157553 -0.129429091417 0.752 1.96304819011e-38
0.0556684264157 -0.129429091417 0.752 1.9169505153e-38
0.0572118927598 -0.129773317723 0.754 1.1977913916e-38
0.0586850332993 -0.129945430877 0.755 1.79738640539e-38
0.0602414543969 -0.130289657184 0.757 1.77905363798e-38
0.0619681379689 -0.130978109798 0.761 1.71451697733e-38
0.0633765047409 -0.130978109798 0.761 1.70533370797e-38
0.0648700027501 -0.131150222951 0.762 1.70529741434e-38
0.0662802202012 -0.131150222951 0.762 1.92660349991e-38
0.0676904376523 -0.131150222951 0.762 1.05970842183e-38
0.0691006551034 -0.131150222951 0.762 4.5917748079e-40
0.0705108725545 -0.131150222951 0.762 1.28569694621e-39
-0.0586147074946 -0.145744678095 0.856 1.4733233837e-38
-0.0566974039784 -0.144893365723 0.851 1.55633462317e-38
-0.0551224760902 -0.144893365723 0.851 1.05887829262e-38
-0.0535475482019 -0.144893365723 0.851 1.13321367291e-38
-0.051850475495 -0.144552840774 0.849 5.24798045797e-39
-0.049805475123 -0.143190740979 0.841 7.73074642642e-39
-0.0480195698208 -0.142509691081 0.837 1.05023508369e-38
-0.0463595106953 -0.142169166132 0.835 9.94919947853e-39
-0.0448141936721 -0.142169166132 0.835 1.01317928723e-38
-0.0430616005931 -0.141488116234 0.831 1.02254360435e-38
-0.0414237496164 -0.141147591286 0.829 1.02239913048e-38
-0.0397933013561 -0.140807066337 0.827 1.03172435137e-38
-0.0380777218585 -0.140126016439 0.823 7.36703100221e-39
-0.0362881151981 -0.139104441593 0.817 7.460662963e-39
-0.034690979161 -0.138763916644 0.815 8.93294139844e-39
-0.0331012458401 -0.138423391695 0.813 9.94883093703e-39
-0.0315189152356 -0.138082866746 0.811 8.28932781637e-39
-0.0299439873473 -0.137742341797 0.809 9.85664791885e-39
-0.0283061363706 -0.1370612919 0.805 8.289302593e-39
-0.0267164030498 -0.136550504477 0.802 7.2723200416e-39
-0.0250433891708 -0.13552892963 0.796 7.54959917264e-39
-0.0235702486313 -0.13552892963 0.796 8.10062055738e-39
-0.0220415877198 -0.135188404681 0.794 8.01021718825e-39
-0.0204685105106 -0.134507354784 0.79 9.57971630984e-39
-0.0190064740455 -0.134507354784 0.79 9.85698703308e-39
-0.0175222294316 -0.134337092309 0.789 1.02247073683e-38
-0.0159806137666 -0.133656042412 0.785 1.01318082866e-38
-0.0144908171155 -0.133315517463 0.783 9.76409916178e-39
-0.0130084231807 -0.132974992514 0.781 1.03161869346e-38
-0.0114890156645 -0.132123680142 0.776 9.94812468261e-39
-0.0100269791995 -0.131783155193 0.774 9.58078409927e-39
-0.0085612413763 -0.13127236777 0.771 9.85629479164e-39
-0.00713436781358 -0.13127236777 0.771 9.94956241483e-39
-0.00567788338575 -0.130591317872 0.767 1.05034522575e-38
-0.0042528605021 -0.130421055398 0.766 8.75247097182e-39
-0.00282783761846 -0.130080530449 0.764 9.029060664e-39
-0.00141021745109 -0.1297400055 0.762 9.48751787738e-39
0.0 -0.129569743026 0.761 1.00410447838e-38
0.0013972626976 -0.128548168179 0.755 9.58043377466e-39
0.00279082403706 -0.128377905705 0.754 9.67263220712e-39
0.00416402790676 -0.127696855807 0.75 9.02871033939e-39
0.00554463449273 -0.127526593333 0.749 1.09655248209e-38
0.00693079311592 -0.127526593333 0.749 1.05985499765e-38
0.00829474359027 -0.127186068384 0.747 1.04134594688e-38
0.00966424610182 -0.12701580591 0.746 1.08729732613e-38
0.0110448526878 -0.12701580591 0.746 1.13332297419e-38
0.0123921470505 -0.126675280961 0.744 1.2161541468e-38
0.013732038697 -0.126334756012 0.742 1.2532124656e-38
0.0150848850969 -0.126164493538 0.741 1.56120343469e-39
0.0164562382875 -0.126164493538 0.741 4.13259732711e-39
0.0177794738223 -0.125823968589 0.739 5.69451822661e-39
0.0191471256548 -0.125823968589 0.739 5.6945308383e-39
0.0205147774873 -0.125823968589 0.739 3.30608907208e-39
0.0218824293198 -0.125823968589 0.739 0.0
0.0233130042406 -0.126164493538 0.741 1.81570866307e-38
0.0246843574313 -0.126164493538 0.741 1.27147180498e-38
0.0259853848173 -0.125823968589 0.739 2.10132762192e-38
0.0273530366497 -0.125823968589 0.739 2.16591360827e-38
0.0286818242218 -0.125653706114 0.738 1.15151350981e-38
0.0300476253752 -0.125653706114 0.738 7.34683969264e-40
0.0314559921472 -0.125823968589 0.739 0.0
0.0328236439797 -0.125823968589 0.739 3.94892633479e-39
0.0341912958122 -0.125823968589 0.739 3.21424236553e-39
0.0355589476447 -0.125823968589 0.739 6.88982441538e-39
0.0370265361469 -0.126164493538 0.741 1.35386128832e-38
0.0384497083515 -0.126334756012 0.742 7.36455771042e-39
0.0398229122212 -0.126334756012 0.742 1.08650391094e-38
0.0414181975792 -0.12701580591 0.746 2.05527927282e-38
0.0428561752164 -0.127186068384 0.747 2.06467820201e-38
0.0442386324814 -0.127186068384 0.747 1.33607881081e-38
0.0456210897465 -0.127186068384 0.747 1.1326821604e-38
0.0470035470115 -0.127186068384 0.747 1.29657816892e-38
0.0485155518114 -0.127526593333 0.749 9.56897115322e-39
0.0499017104346 -0.127526593333 0.749 1.28840901926e-38
0.0512878690578 -0.127526593333 0.749 2.04566874756e-38
0.0527443534856 -0.127696855807 0.75 1.95397324112e-38
0.0542767157553 -0.128037380756 0.752 1.57669142609e-38
0.0558164807413 -0.128377905705 0.754 1.40205474511e-38
0.0572118927598 -0.128377905705 0.754 1.39190598111e-38
0.0586850332993 -0.128548168179 0.755 1.83415577645e-38
0.0602414543969 -0.128888693128 0.757 1.77916111757e-38
0.0619681379689 -0.129569743026 0.761 1.76065136615e-38
0.063459785299 -0.1297400055 0.762 1.71455481239e-38
0.0648700027501 -0.1297400055 0.762 1.75135949616e-38
0.0664541840337 -0.130080530449 0.764 1.93575019537e-38
0.067868102843 -0.130080530449 0.764 1.05045396651e-38
0.069463388201 -0.130421055398 0.766 1.1020259539e-39
0.0711586102289 -0.130931842821 0.769 2.20765324485e-39
-0.0586147074946 -0.144160496811 0.856 1.57492046509e-38
-0.056897277318 -0.14382367322 0.854 1.56559104031e-38
-0.0553167973925 -0.14382367322 0.854 1.10493911327e-38
-0.0535475482019 -0.143318437834 0.851 1.14246980978e-38
-0.051850475495 -0.142981614244 0.849 1.15186677716e-38
-0.0501608055044 -0.142644790653 0.847 6.9982106477e-39
-0.0482490540254 -0.141634319881 0.841 9.67083293989e-39
-0.0464705514394 -0.1409606727 0.837 9.94918406424e-39
-0.0448141936721 -0.140623849109 0.835 1.06849666515e-38
-0.043165238621 -0.140287025518 0.833 1.02240067191e-38
-0.0414237496164 -0.139613378337 0.829 1.01335935409e-38
-0.0397933013561 -0.139276554746 0.827 9.48819890844e-39
-0.038170255812 -0.138939731156 0.825 4.78341498458e-39
-0.0365546129841 -0.138602907565 0.823 5.52456734756e-39
-0.0347761103982 -0.137592436793 0.817 7.82945669284e-39
-0.0331826757192 -0.137255613202 0.815 7.9198362399e-39
-0.0315966437565 -0.136918789611 0.813 9.39426847107e-39
-0.0300180145101 -0.136581966021 0.811 1.10548379799e-38
-0.0283764621753 -0.135908318839 0.807 8.84285472276e-39
-0.0268163397195 -0.135571495249 0.805 7.82764061003e-39
-0.0250433891708 -0.134055789091 0.796 7.36630232701e-39
-0.0235702486313 -0.134055789091 0.796 6.99644080774e-39
-0.0220415877198 -0.1337189655 0.794 8.19246586262e-39
-0.0205203295245 -0.133382141909 0.792 8.84180094632e-39
-0.0190064740455 -0.133045318319 0.79 9.48858706811e-39
-0.0175222294316 -0.132876906523 0.789 1.01335935409e-38
-0.0160213287061 -0.132540082933 0.787 9.58113722649e-39
-0.0144908171155 -0.131866435751 0.783 9.76553128881e-39
-0.0130084231807 -0.131529612161 0.781 1.01335907383e-38
-0.0114890156645 -0.130687553184 0.776 1.02240067191e-38
-0.0100528887065 -0.130687553184 0.776 9.76515854342e-39
-0.00858344952513 -0.130182317798 0.773 9.85629479164e-39
-0.00715287460428 -0.130182317798 0.773 9.39567537473e-39
-0.00569268881831 -0.129508670617 0.769 1.02240039165e-38
-0.00425841253931 -0.129171847026 0.767 8.10530509814e-39
-0.00283524033474 -0.12900343523 0.766 9.94956241483e-39
-0.00141021745109 -0.128329788049 0.762 9.67333285635e-39
0.0 -0.128161376254 0.761 9.7651781616e-39
0.00140466541388 -0.127824552663 0.759 9.48823954609e-39
0.00279082403706 -0.126982493686 0.754 9.48823674349e-39
0.00416402790676 -0.126308846505 0.75 9.21127850981e-39
0.00554463449273 -0.12614043471 0.749 1.11484685394e-38
0.00693079311592 -0.12614043471 0.749 1.03194463549e-38
0.00829474359027 -0.125803611119 0.747 1.059532699e-38
0.00966424610182 -0.125635199324 0.746 1.06882288743e-38
0.0110448526878 -0.125635199324 0.746 1.05963863717e-38
0.0123921470505 -0.125298375733 0.744 1.07807776314e-38
0.013732038697 -0.124961552142 0.742 1.14246980978e-38
0.0150848850969 -0.124793140347 0.741 1.50210535351e-38
0.0164118219898 -0.124456316756 0.739 2.75506488474e-39
0.0177794738223 -0.124456316756 0.739 3.489748854e-39
0.0191471256548 -0.124456316756 0.739 5.60198768641e-39
0.0204870173013 -0.124287904961 0.738 5.97041007216e-39
0.0218528184547 -0.124287904961 0.738 3.76526795416e-39
0.0232500811523 -0.124456316756 0.739 0.0
0.0246177329848 -0.124456316756 0.739 1.50113439381e-38
0.0259853848173 -0.124456316756 0.739 2.3131672357e-38
0.0273160230683 -0.124287904961 0.738 1.19386145005e-39
0.0286818242218 -0.124287904961 0.738 0.0
0.0300476253752 -0.124287904961 0.738 2.84692280167e-39
0.0314559921472 -0.124456316756 0.739 3.85709083864e-39
0.0328236439797 -0.124456316756 0.739 6.24592356713e-39
0.0341912958122 -0.124456316756 0.739 8.09343049495e-39
0.0355589476447 -0.124456316756 0.739 9.47384821086e-39
0.0370265361469 -0.124793140347 0.741 9.39131733651e-39
0.0384497083515 -0.124961552142 0.742 2.04598642192e-38
0.0398229122212 -0.124961552142 0.742 2.01872654251e-38
0.0414181975792 -0.125635199324 0.746 1.86192236539e-38
0.0428561752164 -0.125803611119 0.747 3.6759884264e-39
0.0442386324814 -0.125803611119 0.747 1.21432811477e-38
0.0456210897465 -0.125803611119 0.747 1.44534435792e-38
0.0470035470115 -0.125803611119 0.747 1.98098158746e-38
0.0485155518114 -0.12614043471 0.749 1.54819658234e-38
0.0499017104346 -0.12614043471 0.749 1.96315805191e-38
0.0513563441834 -0.126308846505 0.75 1.86192180487e-38
0.0528850050949 -0.126645670096 0.752 1.71451249318e-38
0.0544210687227 -0.126982493686 0.754 0.0
0.0558905079041 -0.127150905482 0.755 1.21706821379e-38
0.0572877706017 -0.127150905482 0.755 1.44704399282e-38
0.0588404903411 -0.127487729072 0.757 1.83433598343e-38
0.0604006127969 -0.127824552663 0.759 1.75157445535e-38
0.0620495678479 -0.128329788049 0.762 1.72388031354e-38
0.0636263464153 -0.12866661164 0.764 1.69625763795e-38
0.0650402652245 -0.12866661164 0.764 1.76065080563e-38
0.0666281478663 -0.12900343523 0.766 1.91738393692e-38
0.0680457680337 -0.12900343523 0.766 8.47658052756e-39
0.069463388201 -0.12900343523 0.766 1.01019045774e-39
0.0711586102289 -0.129508670617 0.769 3.31148967636e-39
-0.0587516577458 -0.14290943776 0.858 1.42744248977e-38
-0.057163775104 -0.14290943776 0.858 1.62090813797e-38
-0.0555758924622 -0.14290943776 0.858 1.0774230765e-38
-0.0538621636437 -0.142576315527 0.856 1.11470392149e-38
-0.0521558375415 -0.142243193295 0.854 9.49220662204e-39
-0.0502792489648 -0.141410387714 0.849 9.95136728725e-39
-0.04847853823 -0.140744143248 0.845 6.99819803601e-39
-0.0465815921836 -0.139744776551 0.839 9.95062179647e-39
-0.0449215330581 -0.139411654318 0.837 1.0685668702e-38
-0.0432688766489 -0.139078532086 0.835 1.03168875839e-38
-0.041623622956 -0.138745409853 0.833 1.0040299293e-38
-0.0398895366677 -0.138079165388 0.829 8.8439211109e-39
-0.038170255812 -0.137412920923 0.825 9.58109518753e-39
-0.0365546129841 -0.137079798691 0.823 3.30859319243e-39
-0.0349463728726 -0.136746676458 0.821 7.277340894e-39
-0.0332641055983 -0.136080431993 0.817 8.47193802575e-39
-0.0316743722774 -0.13574730976 0.815 9.30207284121e-39
-0.0300920416729 -0.135414187528 0.813 1.02254528591e-38
-0.0284467879799 -0.134747943063 0.809 8.10710156277e-39
-0.026882964166 -0.13441482083 0.807 7.82907553966e-39
-0.0252321584359 -0.133582015249 0.802 7.55211590468e-39
-0.0236886920918 -0.133248893016 0.8 6.71950079094e-39
-0.0220971080919 -0.132582648551 0.796 8.83963453889e-39
-0.0205721485385 -0.132249526319 0.794 8.6570383425e-39
-0.0190545917013 -0.131916404086 0.792 9.48823674349e-39
-0.0175444375805 -0.131583281854 0.79 9.94848061242e-39
-0.0160620436457 -0.131416720737 0.789 9.76410476697e-39
-0.0144908171155 -0.13041735404 0.783 1.00407042682e-38
-0.0130084231807 -0.130084231807 0.781 9.85698703308e-39
-0.0115482373947 -0.129917670691 0.78 9.67333846154e-39
-0.0100528887065 -0.129251426226 0.776 1.00421167771e-38
-0.00859455359955 -0.128918303993 0.774 1.05016698059e-38
-0.00715287460428 -0.128751742877 0.773 1.04094685708e-38
-0.00570749425087 -0.128418620644 0.771 1.06860610656e-38
-0.00426951661373 -0.128085498412 0.769 9.58114002908e-39
-0.00283894169288 -0.127752376179 0.767 9.95136168206e-39
-0.00141391880923 -0.127252692831 0.764 9.94956241483e-39
0.0 -0.126919570598 0.762 1.0318705068e-38
0.00140836677202 -0.126753009482 0.761 9.76447470977e-39
0.0027945253952 -0.125753642784 0.755 1.07786294409e-38
0.0041862360556 -0.125587081668 0.754 9.48538229852e-39
0.00555203720901 -0.124920837203 0.75 1.14236289071e-38
0.00693079311592 -0.124754276087 0.749 1.15179895431e-38
0.00829474359027 -0.124421153854 0.747 1.05045396651e-38
0.00967720085531 -0.124421153854 0.747 1.05978437221e-38
0.0110448526878 -0.124254592738 0.746 1.1149555947e-38
0.0123921470505 -0.123921470505 0.744 1.11499300937e-38
0.013732038697 -0.123588348273 0.742 1.00435629171e-38
0.0150441701574 -0.123088664924 0.739 1.15186929949e-38
0.0164118219898 -0.123088664924 0.739 1.07775154086e-38
0.0177794738223 -0.123088664924 0.739 5.97155072911e-39
0.0191212161478 -0.122922103808 0.738 3.94892633479e-39
0.0204870173013 -0.122922103808 0.738 5.51053054084e-39
0.0218528184547 -0.122922103808 0.738 5.32648400054e-39
0.0232186196081 -0.122922103808 0.738 5.23465831347e-39
0.0245844207615 -0.122922103808 0.738 5.79971230103e-39
0.0259502219149 -0.122922103808 0.738 3.67451285912e-40
0.0273160230683 -0.122922103808 0.738 1.28569694621e-39
0.0286818242218 -0.122922103808 0.738 2.75511673278e-39
0.0300476253752 -0.122922103808 0.738 5.51019142661e-39
0.0314134265286 -0.122922103808 0.738 1.14170624225e-38
0.0328236439797 -0.123088664924 0.739 7.73435617126e-39
0.0341912958122 -0.123088664924 0.739 1.15961777935e-38
0.0355589476447 -0.123088664924 0.739 1.99052737273e-38
0.0370265361469 -0.123421787156 0.741 1.99081575996e-38
0.0384497083515 -0.123588348273 0.742 1.91720218851e-38
0.0398229122212 -0.123588348273 0.742 1.83440787004e-38
0.0414181975792 -0.124254592738 0.746 1.20743428685e-38
0.0428561752164 -0.124421153854 0.747 6.7116899533e-39
0.0442386324814 -0.124421153854 0.747 1.98113320796e-38
0.0456210897465 -0.124421153854 0.747 2.02762016347e-38
0.0470035470115 -0.124421153854 0.747 1.95404512773e-38
0.0485155518114 -0.124754276087 0.749 1.94489815201e-38
0.0499683348811 -0.124920837203 0.75 1.90798136435e-38
0.0513563441834 -0.124920837203 0.75 2.75506488474e-40
0.0528850050949 -0.125253959435 0.752 3.92363570011e-44
0.0544210687227 -0.125587081668 0.754 1.01024650968e-39
0.0558905079041 -0.125753642784 0.755 1.66644767559e-38
0.0575912819691 -0.126419887249 0.759 1.52043896171e-38
0.058995947383 -0.126419887249 0.759 1.87114192838e-38
0.0605597711968 -0.126753009482 0.761 1.71469578301e-38
0.0622124276061 -0.127252692831 0.764 1.75153970315e-38
0.0636263464153 -0.127252692831 0.764 1.73317050197e-38
0.0650402652245 -0.127252692831 0.764 1.74224531082e-38
0.0666281478663 -0.127585815063 0.766 1.95426050731e-38
0.0680457680337 -0.127585815063 0.766 7.830495055e-39
0.0695540714754 -0.127752376179 0.767 8.26519465422e-40
0.0711586102289 -0.128085498412 0.769 5.5195086601e-39
-0.0588886079969 -0.141650975993 0.86 1.49198069185e-38
-0.057297023997 -0.141650975993 0.86 1.59339266171e-38
-0.0555758924622 -0.141321555118 0.858 1.07745838922e-38
-0.0538621636437 -0.140992134244 0.856 1.16065726255e-38
-0.0521558375415 -0.140662713369 0.854 1.087152572e-38
-0.0503976924253 -0.140168582058 0.851 8.289302593e-39
-0.0485932803324 -0.139509740309 0.847 8.47299600609e-39
-0.0466926329278 -0.138521477686 0.841 8.65810473063e-39
-0.0450288724442 -0.138192056811 0.839 9.67259297076e-39
-0.0433725146768 -0.137862635937 0.837 1.08704116877e-38
-0.0417235596257 -0.137533215063 0.835 9.48714513199e-39
-0.0399857719793 -0.136874373314 0.831 8.65811033583e-39
-0.0382627897654 -0.136215531565 0.827 1.11470336097e-38
-0.0366434455795 -0.135886110691 0.825 7.18297465282e-39
-0.0350315041098 -0.135556689816 0.823 8.29041382268e-39
-0.0332641055983 -0.134568427193 0.817 8.84357078628e-39
-0.0317521007983 -0.134568427193 0.817 9.58008345004e-39
-0.0300920416729 -0.133909585444 0.813 1.03187022654e-38
-0.0284467879799 -0.133250743695 0.809 7.09150489556e-39
-0.026882964166 -0.132921322821 0.807 9.48716475017e-39
-0.0252636199801 -0.132262481072 0.803 7.64360668141e-39
-0.0236886920918 -0.131768349761 0.8 7.64217875828e-39
-0.0222081488361 -0.131768349761 0.8 8.56520845154e-39
-0.0206239675524 -0.131109508012 0.796 9.30205182173e-39
-0.0191027093571 -0.130780087137 0.794 9.94921489281e-39
-0.0175888538782 -0.130450666263 0.792 1.01332404136e-38
-0.0160620436457 -0.129956534951 0.789 1.01318082866e-38
-0.0144908171155 -0.128968272328 0.783 1.00417636499e-38
-0.013041735404 -0.128968272328 0.783 1.01343096044e-38
-0.0115482373947 -0.128474141017 0.78 9.7651781616e-39
-0.0100787982134 -0.128144720142 0.778 1.00417636499e-38
-0.00861676174839 -0.127815299268 0.776 1.03176512915e-38
-0.00716212799963 -0.127485878393 0.774 9.58041695907e-39
-0.00572229968342 -0.127321167956 0.773 9.58183927702e-39
-0.00428062068815 -0.126991747082 0.771 8.56807831079e-39
-0.00283894169288 -0.126332905333 0.767 9.76518376679e-39
-0.00141391880923 -0.125838774021 0.764 9.4878710046e-39
0.0 -0.125509353147 0.762 1.05012984618e-38
0.00140836677202 -0.12534464271 0.761 9.48858987071e-39
0.0027945253952 -0.124356380087 0.755 9.48968568611e-39
0.0041862360556 -0.124191669649 0.754 9.76447751236e-39
0.00556684264157 -0.123862248775 0.752 1.16087586511e-38
0.00694004651127 -0.123532827901 0.75 1.05963863717e-38
0.0083169517391 -0.123368117463 0.749 1.07807776314e-38
0.00967720085531 -0.123038696589 0.747 1.03223232206e-38
0.0110596581204 -0.123038696589 0.747 1.03226735452e-38
0.0123921470505 -0.122544565277 0.744 1.08729704587e-38
0.013732038697 -0.122215144403 0.742 1.01379235531e-38
0.0150441701574 -0.121721013091 0.739 1.07832957647e-38
0.0164118219898 -0.121721013091 0.739 7.18227120099e-39
0.0177554149944 -0.121556302654 0.738 1.14199715181e-38
0.0191212161478 -0.121556302654 0.738 6.80952861208e-39
0.0204314969292 -0.12122688178 0.736 2.20405190779e-39
0.0217935967244 -0.12122688178 0.736 6.06225818001e-39
0.0231556965197 -0.12122688178 0.736 1.06806436457e-38
0.024517796315 -0.12122688178 0.736 1.1020259539e-39
0.0259502219149 -0.121556302654 0.738 2.38772290011e-39
0.0272419959056 -0.12122688178 0.736 5.78563625795e-39
0.0286040957008 -0.12122688178 0.736 9.195048671e-39
0.0300476253752 -0.121556302654 0.738 1.13225252229e-38
0.0314134265286 -0.121556302654 0.738 7.91368734223e-39
0.0328236439797 -0.121721013091 0.739 1.91705351074e-38
0.0341912958122 -0.121721013091 0.739 2.03705678759e-38
0.0356551829563 -0.122050433966 0.741 1.88950818683e-38
0.0370265361469 -0.122050433966 0.741 1.82504593513e-38
0.0384497083515 -0.122215144403 0.742 1.88043183655e-38
0.0399302516072 -0.122544565277 0.744 1.45622824309e-38
0.0414181975792 -0.122873986152 0.746 1.69610237408e-38
0.0428561752164 -0.123038696589 0.747 1.96344447731e-38
0.0442386324814 -0.123038696589 0.747 1.8711772411e-38
0.0456210897465 -0.123038696589 0.747 1.86192180487e-38
0.0471293931882 -0.123368117463 0.749 1.92627727762e-38
0.0485155518114 -0.123368117463 0.749 2.29588740395e-39
0.0499683348811 -0.123532827901 0.75 4.96883759998e-39
0.0513563441834 -0.123532827901 0.75 9.67094504377e-39
0.0528850050949 -0.123862248775 0.752 8.5647852594e-39
0.0544932452065 -0.124356380087 0.755 9.12636823066e-39
0.0560385622296 -0.124685800961 0.757 1.62224077281e-38
0.0575912819691 -0.125015221835 0.759 1.4651934704e-38
0.0591514044248 -0.12534464271 0.761 1.81585958292e-38
0.0606393503968 -0.125509353147 0.762 1.74221027836e-38
0.0622124276061 -0.125838774021 0.764 1.71458858368e-38
0.0637929075316 -0.126168194896 0.766 1.79756493082e-38
0.0652105276989 -0.126168194896 0.766 1.69611414499e-38
0.0667151297826 -0.126332905333 0.767 1.96340972511e-38
0.068134600629 -0.126332905333 0.767 6.72306849683e-39
0.0697354380243 -0.126662326207 0.769 9.1835496158e-40
0.0711586102289 -0.126662326207 0.769 5.06175209595e-39
-0.0588886079969 -0.140059391993 0.86 1.46446325377e-38
-0.057297023997 -0.140059391993 0.86 1.67643879351e-38
-0.0557054399971 -0.140059391993 0.86 7.54845571309e-39
-0.0539880098204 -0.139733672476 0.858 7.36479593116e-39
-0.0521558375415 -0.139082233444 0.854 9.39922766634e-39
-0.0503976924253 -0.13859365417 0.851 1.05945534733e-38
-0.0487080224347 -0.138267934653 0.849 9.02436631415e-39
-0.0470257551603 -0.137942215137 0.847 6.99424497305e-39
-0.0451362118302 -0.136965056588 0.841 1.0038890988e-38
-0.0433725146768 -0.136313617556 0.837 1.01328620631e-38
-0.0417235596257 -0.135987898039 0.835 9.94742123078e-39
-0.0400820072909 -0.135662178523 0.833 8.7506590929e-39
-0.0383553237189 -0.135010739491 0.829 9.76191874137e-39
-0.0366434455795 -0.134359300458 0.825 8.10061495218e-39
-0.0350315041098 -0.134033580942 0.823 8.29075433821e-39
-0.0334269653564 -0.133707861426 0.821 1.0134312407e-38
-0.0317521007983 -0.133056422393 0.817 1.07785845993e-38
-0.0301660688356 -0.132730702877 0.815 1.01354054198e-38
-0.0285171137846 -0.132079263844 0.811 7.27550519301e-39
-0.0269495886125 -0.131753544328 0.809 8.37794312866e-39
-0.0253265430684 -0.131102105295 0.805 8.74995003588e-39
-0.023747913822 -0.130613526021 0.802 8.28969495657e-39
-0.0222081488361 -0.130287806505 0.8 8.19607560747e-39
-0.0206239675524 -0.129636367472 0.796 8.657406884e-39
-0.0191027093571 -0.129310647956 0.794 9.48968568611e-39
-0.0175444375805 -0.128659208924 0.79 9.58188411857e-39
-0.0160620436457 -0.128496349165 0.789 9.67262940452e-39
-0.0145278306969 -0.127844910133 0.785 9.5814875511e-39
-0.013041735404 -0.127519190617 0.783 1.01343096044e-38
-0.0115630428273 -0.1271934711 0.781 1.00410601981e-38
-0.0101047077204 -0.127030611342 0.78 1.03161995463e-38
-0.00861676174839 -0.12637917231 0.776 1.03165526735e-38
-0.00716212799963 -0.126053452793 0.774 1.01328872864e-38
-0.0057297023997 -0.126053452793 0.774 1.02261535083e-38
-0.00428062068815 -0.125564873519 0.771 8.84286733445e-39
-0.00284634440915 -0.125239154003 0.769 1.00414105227e-38
-0.00141762016737 -0.124750574728 0.766 9.94884915391e-39
0.0 -0.124424855212 0.764 1.02240039165e-38
0.00140836677202 -0.123936275938 0.761 9.76482783698e-39
0.00280933082776 -0.123610556421 0.759 1.01336061525e-38
0.0041917880928 -0.122959117389 0.755 9.02690967086e-39
0.00558164807413 -0.122796257631 0.754 1.21629483717e-38
0.00695855330196 -0.122470538115 0.752 9.8591646509e-39
0.0083169517391 -0.12198195884 0.749 1.09648185665e-38
0.00970311036229 -0.12198195884 0.749 1.05963863717e-38
0.0110596581204 -0.121656239324 0.747 1.04141629207e-38
0.0123921470505 -0.12116766005 0.744 1.11492056223e-38
0.013732038697 -0.120841940533 0.742 1.05985499765e-38
0.0150848850969 -0.120679080775 0.741 1.11499090742e-38
0.0164118219898 -0.120353361259 0.739 4.50787766754e-39
0.0177554149944 -0.120190501501 0.738 8.09414655847e-39
0.0191212161478 -0.120190501501 0.738 9.94347097041e-39
0.0204314969292 -0.119864781984 0.736 1.20685442954e-38
0.0217935967244 -0.119864781984 0.736 1.27132102527e-38
0.0231556965197 -0.119864781984 0.736 1.28569694621e-39
0.024517796315 -0.119864781984 0.736 5.51270115216e-39
0.0258798961103 -0.119864781984 0.736 7.90475826842e-39
0.0272419959056 -0.119864781984 0.736 1.35365894082e-38
0.0286040957008 -0.119864781984 0.736 1.12302903567e-38
0.0300476253752 -0.120190501501 0.738 1.8982901243e-38
0.0314134265286 -0.120190501501 0.738 2.04627761175e-38
0.032912476575 -0.120679080775 0.741 1.90801975993e-38
0.0342838297657 -0.120679080775 0.741 1.82518760641e-38
0.0356551829563 -0.120679080775 0.741 1.75139480889e-38
0.0370765044818 -0.120841940533 0.742 1.90809220706e-38
0.0385533463794 -0.12116766005 0.744 1.51161778788e-38
0.0399302516072 -0.12116766005 0.744 1.81613858144e-38
0.0414181975792 -0.121493379566 0.746 6.82540532368e-39
0.0428561752164 -0.121656239324 0.747 1.95428923393e-38
0.0442386324814 -0.121656239324 0.747 1.92638699929e-38
0.0456210897465 -0.121656239324 0.747 1.56121884897e-39
0.0471293931882 -0.12198195884 0.749 3.67344506969e-39
0.0485803255789 -0.122144818598 0.75 2.12741307309e-38
0.0501015837741 -0.122470538115 0.752 4.59206908058e-40
0.0514932944345 -0.122470538115 0.752 7.5601243254e-39
0.0530256567042 -0.122796257631 0.754 1.17047489972e-38
0.0546375981739 -0.123284836905 0.757 1.48416761213e-38
0.0561866165552 -0.123610556421 0.759 1.76083087249e-38
0.0577430376528 -0.123936275938 0.761 1.64937215315e-38
0.0591514044248 -0.123936275938 0.761 1.87114192838e-38
0.0606393503968 -0.124099135696 0.762 1.72387905237e-38
0.0623752873642 -0.124750574728 0.766 1.73309987653e-38
0.0637929075316 -0.124750574728 0.766 1.78834508757e-38
0.0652956589361 -0.124913434487 0.767 1.80685483899e-38
0.0668890936151 -0.125239154003 0.769 1.8620290042e-38
0.0683122658197 -0.125239154003 0.769 6.07769908778e-39
0.0699168045731 -0.125564873519 0.771 7.34683969264e-40
0.0713436781358 -0.125564873519 0.771 8.09774929682e-39
-0.0590255582481 -0.138789826151 0.862 1.4272257089e-38
-0.05743027289 -0.138789826151 0.862 1.54726009458e-38
-0.055834987532 -0.138789826151 0.862 8.93102722474e-39
-0.0541138559972 -0.138467807993 0.86 1.40129846432e-44
-0.0522779823601 -0.137823771677 0.856 1.38293444795e-39
-0.050575357616 -0.137501753518 0.854 4.60439630317e-39
-0.0487080224347 -0.136696708123 0.849 9.76836051041e-39
-0.0470257551603 -0.136374689965 0.847 1.02268205264e-38
-0.0451362118302 -0.135408635491 0.841 9.48816667857e-39
-0.0434761527047 -0.135086617332 0.839 1.01324963242e-38
-0.0419234329653 -0.135086617332 0.839 9.9470316698e-39
-0.0400820072909 -0.134120562858 0.833 8.38148561118e-39
-0.0384478576724 -0.1337985447 0.831 8.74813535437e-39
-0.0367322781748 -0.133154508384 0.827 6.44146916263e-39
-0.035116635347 -0.132832490226 0.825 7.26978789528e-39
-0.0335083952355 -0.132510472068 0.823 6.99464013921e-39
-0.0317521007983 -0.131544417593 0.817 1.08711333564e-38
-0.0301660688356 -0.131222399435 0.815 9.02796344731e-39
-0.0285171137846 -0.130578363119 0.811 6.72374392269e-39
-0.0269495886125 -0.130256344961 0.809 7.0875420235e-39
-0.0253894661568 -0.129934326803 0.807 8.65523907527e-39
-0.0237775246871 -0.129290290486 0.803 8.56520845154e-39
-0.0222636692081 -0.129129281407 0.802 9.67262940452e-39
-0.0207276055803 -0.128807263249 0.8 9.67333846154e-39
-0.019150827013 -0.128163226933 0.796 9.67298253173e-39
-0.0175444375805 -0.127197172458 0.79 9.94921489281e-39
-0.0160620436457 -0.127036163379 0.789 1.02257891707e-38
-0.0145648442783 -0.126714145221 0.787 1.01335907383e-38
-0.0130750476272 -0.126392127063 0.785 1.00417636499e-38
-0.0115926536924 -0.126070108905 0.783 1.01335935409e-38
-0.0101047077204 -0.125587081668 0.78 1.01335935409e-38
-0.00866117804606 -0.125587081668 0.78 1.05934940916e-38
-0.00718063479032 -0.124943045352 0.776 1.02250576929e-38
-0.0057297023997 -0.124621027194 0.774 1.01336089551e-38
-0.00429172476257 -0.124460018114 0.773 9.94991834464e-39
-0.00285374712543 -0.124137999956 0.771 9.76519637848e-39
-0.00141947084644 -0.12349396364 0.767 1.02257863681e-38
0.0 -0.123010936403 0.764 1.13310927617e-38
0.00141021745109 -0.122688918245 0.762 9.76445228899e-39
