# .PCD v0.7 - Point Cloud Data file format
VERSION 0.7
FIELDS x y z rgb
SIZE 4 4 4 4
TYPE F F F F
COUNT 1 1 1 1
WIDTH 840
HEIGHT 1
VIEWPOINT 0 0 0 1 0 0 0
POINTS 840
DATA ascii
0.0721080085916 -0.0981896287205 0.829 1.4801072097e-38
0.0736422215403 -0.0981896287205 0.829 1.33301977626e-38
0.0753578010379 -0.0984265156414 0.831 1.65671145386e-38
0.0768957153448 -0.0984265156414 0.831 1.50916705699e-38
0.0784336296517 -0.0984265156414 0.831 1.44430375368e-38
0.0799715439586 -0.0984265156414 0.831 1.21349041855e-38
0.0815094582655 -0.0984265156414 0.831 1.07462622489e-38
0.0832472459119 -0.0986634025623 0.833 1.39799111969e-38
0.084788861577 -0.0986634025623 0.833 1.51809276769e-38
0.086330477242 -0.0986634025623 0.833 1.11125308389e-38
0.0878720929071 -0.0986634025623 0.833 1.27670131072e-38
0.0896283873442 -0.0989002894832 0.835 1.11121566922e-38
0.0913920844976 -0.0991371764041 0.837 1.12061081491e-38
0.0929411028789 -0.0991371764041 0.837 2.34998214896e-38
0.0944901212602 -0.0991371764041 0.837 2.12928787031e-38
0.0960391396415 -0.0991371764041 0.837 2.10155841577e-38
-0.0476734928347 -0.0938571890184 0.805 1.6129549284e-38
-0.0461836961836 -0.0938571890184 0.805 3.78146556311e-39
-0.0446938995326 -0.0938571890184 0.805 1.6130352228e-38
-0.0432041028815 -0.0938571890184 0.805 1.57578744845e-38
-0.0417143062304 -0.0938571890184 0.805 1.70490042649e-38
-0.0402245095793 -0.0938571890184 0.805 1.65883834467e-38
-0.0387347129282 -0.0938571890184 0.805 1.1702400421e-38
-0.0372449162771 -0.0938571890184 0.805 9.11658716738e-39
-0.035755119626 -0.0938571890184 0.805 1.06788710032e-38
-0.0343504542122 -0.0940903745811 0.807 1.32589067032e-38
-0.0328569562029 -0.0940903745811 0.807 1.21578714674e-38
-0.0313634581937 -0.0940903745811 0.807 1.2250732714e-38
-0.0298699601845 -0.0940903745811 0.807 1.04983907675e-38
-0.0283764621753 -0.0940903745811 0.807 1.08660788728e-38
-0.026882964166 -0.0940903745811 0.807 1.28951184115e-38
-0.0253894661568 -0.0940903745811 0.807 1.31738604981e-38
-0.0238959681476 -0.0940903745811 0.807 1.40944084918e-38
-0.0224579905105 -0.0943235601439 0.809 1.52925621191e-38
-0.021012610157 -0.0945567457067 0.811 1.76900128331e-38
-0.0195117094315 -0.0945567457067 0.811 1.58504232416e-38
-0.018010808706 -0.0945567457067 0.811 1.42863541516e-38
-0.0165099079805 -0.0945567457067 0.811 7.18944444783e-39
-0.015009007255 -0.0945567457067 0.811 1.28893674826e-39
-0.0135081065295 -0.0945567457067 0.811 5.04467447157e-44
-0.012007205804 -0.0945567457067 0.811 2.21953765712e-39
-0.0105063050785 -0.0945567457067 0.811 3.59996798472e-39
-0.00900540435302 -0.0945567457067 0.811 4.15349489111e-39
-0.00752301041821 -0.0947899312695 0.813 4.15419834294e-39
-0.00601840833457 -0.0947899312695 0.813 4.33823647545e-39
-0.00451380625093 -0.0947899312695 0.813 4.15349489111e-39
-0.00300920416729 -0.0947899312695 0.813 3.8761947406e-39
-0.00150460208364 -0.0947899312695 0.813 4.0584223955e-39
0.0 -0.0947899312695 0.813 3.32085735659e-39
0.00150460208364 -0.0947899312695 0.813 3.08285662151e-44
0.00300920416729 -0.0947899312695 0.813 8.0228498939e-39
0.00451380625093 -0.0947899312695 0.813 1.46575805355e-38
0.00601840833457 -0.0947899312695 0.813 0.0
0.00752301041821 -0.0947899312695 0.813 1.85310035078e-38
0.00902761250186 -0.0947899312695 0.813 8.85177258619e-39
0.0105322145855 -0.0947899312695 0.813 1.43492962747e-42
0.0120664275343 -0.0950231168323 0.815 5.90261525246e-39
0.013574730976 -0.0950231168323 0.815 1.53929595488e-38
0.0150830344178 -0.0950231168323 0.815 5.70315583034e-39
0.0165913378596 -0.0950231168323 0.815 3.59198758996e-39
0.0180996413014 -0.0950231168323 0.815 4.70696154167e-42
0.0196079447432 -0.0950231168323 0.815 3.41628017682e-39
0.0211162481849 -0.0950231168323 0.815 8.28608381043e-39
0.0226245516267 -0.0950231168323 0.815 8.45969207847e-39
0.0241920767987 -0.095256302395 0.817 1.11214935439e-38
0.0257040815987 -0.095256302395 0.817 1.23081593264e-38
0.0272827108451 -0.0954894879578 0.819 1.23085152562e-38
0.0287984170032 -0.0954894879578 0.819 1.2493625382e-38
0.0303141231612 -0.0954894879578 0.819 1.24896821281e-38
0.0318298293193 -0.0954894879578 0.819 1.22145595954e-38
0.0334269653564 -0.0957226735206 0.821 1.2122361163e-38
0.0349463728726 -0.0957226735206 0.821 1.24896989437e-38
0.0365546129841 -0.0959558590834 0.823 1.23060265501e-38
0.0380777218585 -0.0959558590834 0.823 1.20304976408e-38
0.0395045954212 -0.0957226735206 0.821 1.24918527394e-38
0.0410240029374 -0.0957226735206 0.821 1.05611507218e-38
0.0425434104536 -0.0957226735206 0.821 2.29139245887e-38
0.0440628179698 -0.0957226735206 0.821 1.27017672494e-38
0.045582225486 -0.0957226735206 0.821 1.62048102219e-38
0.0472163751045 -0.0959558590834 0.823 1.81394120532e-38
0.0487394839789 -0.0959558590834 0.823 1.6202702669e-38
0.0502625928532 -0.0959558590834 0.823 1.17707809835e-38
0.0519115479043 -0.0961890446462 0.825 1.07476915734e-38
0.0535679056716 -0.0964222302089 0.827 1.0193817145e-38
0.0550984172622 -0.0964222302089 0.827 1.02856330229e-38
0.0566289288529 -0.0964222302089 0.827 1.00101069163e-38
0.0581594404435 -0.0964222302089 0.827 1.0469246562e-38
0.0596899520341 -0.0964222302089 0.827 1.16631150186e-38
0.0612204636247 -0.0964222302089 0.827 1.15713664029e-38
0.0627509752153 -0.0964222302089 0.827 1.17568464715e-38
0.0644369438478 -0.0966554157717 0.829 1.48067978025e-38
0.0659711567966 -0.0966554157717 0.829 1.53642693641e-38
0.0675053697453 -0.0966554157717 0.829 1.58296013477e-38
0.0690395826941 -0.0966554157717 0.829 1.42626091491e-38
0.0707440581172 -0.0968886013345 0.831 1.38905812224e-38
0.0724559362567 -0.0971217868973 0.833 1.15778221849e-38
0.0739975519217 -0.0971217868973 0.833 1.30475600663e-38
0.0755391675868 -0.0971217868973 0.833 1.16764469721e-38
0.0772658511588 -0.09735497246 0.835 1.41625620439e-38
0.0788111681819 -0.09735497246 0.835 1.50873251434e-38
0.0803564852051 -0.09735497246 0.835 1.5181688582e-38
0.0820979742097 -0.0975881580228 0.837 1.13938246901e-38
0.083646992591 -0.0975881580228 0.837 1.40657000902e-38
0.0851960109723 -0.0975881580228 0.837 1.08434647182e-38
0.0867450293536 -0.0975881580228 0.837 1.27673788461e-38
0.0885050251489 -0.0978213435856 0.839 1.24922156758e-38
0.0900577448883 -0.0978213435856 0.839 1.09285011142e-38
0.0913920844976 -0.0975881580228 0.837 1.3144379981e-38
0.0929411028789 -0.0975881580228 0.837 2.35030430747e-38
0.0944901212602 -0.0975881580228 0.837 2.0555679403e-38
-0.0476734928347 -0.0923673923673 0.805 1.52069091517e-38
-0.0461836961836 -0.0923673923673 0.805 5.90087063587e-39
-0.0446938995326 -0.0923673923673 0.805 1.49346326562e-38
-0.0433114422675 -0.0925968765719 0.807 1.53905717363e-38
-0.0417143062304 -0.0923673923673 0.805 1.48374035623e-38
-0.0402245095793 -0.0923673923673 0.805 1.65898435997e-38
-0.0388309482398 -0.0925968765719 0.807 1.32718701153e-38
-0.0373374502306 -0.0925968765719 0.807 1.5850124765e-38
-0.0358439522214 -0.0925968765719 0.807 1.70490042649e-38
-0.0343504542122 -0.0925968765719 0.807 1.76936520052e-38
-0.0328569562029 -0.0925968765719 0.807 1.56664649831e-38
-0.0313634581937 -0.0925968765719 0.807 1.1978810747e-38
-0.0299439873473 -0.0928263607766 0.809 1.20671401944e-38
-0.0284467879799 -0.0928263607766 0.809 1.31730743697e-38
-0.0269495886125 -0.0928263607766 0.809 1.16950590183e-38
-0.0254523892452 -0.0928263607766 0.809 1.40036421864e-38
-0.0239551898778 -0.0928263607766 0.809 1.69560449274e-38
-0.0224579905105 -0.0928263607766 0.809 1.46550876256e-38
-0.021012610157 -0.0930558449812 0.811 8.84607630793e-39
-0.0195117094315 -0.0930558449812 0.811 2.48426255521e-39
-0.018010808706 -0.0930558449812 0.811 5.04467447157e-44
-0.0165506229201 -0.0932853291858 0.813 1.39193638928e-39
-0.0150460208364 -0.0932853291858 0.813 3.59920707965e-39
-0.0135414187528 -0.0932853291858 0.813 3.87689819243e-39
-0.0120368166691 -0.0932853291858 0.813 3.50847580668e-39
-0.0105322145855 -0.0932853291858 0.813 4.05913145252e-39
-0.00902761250186 -0.0932853291858 0.813 4.15132708238e-39
-0.00752301041821 -0.0932853291858 0.813 4.05983490435e-39
-0.00601840833457 -0.0932853291858 0.813 3.41557672499e-39
-0.00451380625093 -0.0932853291858 0.813 4.5190474176e-39
-0.00300920416729 -0.0932853291858 0.813 6.63126803313e-39
-0.00150460208364 -0.0932853291858 0.813 6.53582979862e-39
0.0 -0.0932853291858 0.813 1.0503407416e-38
0.00150460208364 -0.0932853291858 0.813 7.28407833702e-39
0.00301660688356 -0.0935148133905 0.815 6.8372420918e-39
0.00452491032535 -0.0935148133905 0.815 1.15269074065e-38
0.00601840833457 -0.0932853291858 0.813 4.62428493227e-44
0.00752301041821 -0.0932853291858 0.813 1.98183876173e-38
0.00904982065069 -0.0935148133905 0.815 1.041226276e-38
0.0105581240925 -0.0935148133905 0.815 1.6228436114e-38
0.0120960383994 -0.0937442975951 0.817 1.66873165196e-38
0.013574730976 -0.0935148133905 0.815 3.77996337116e-39
0.0150830344178 -0.0935148133905 0.815 1.76043710762e-38
0.0166320527991 -0.0937442975951 0.817 5.80400307693e-39
0.0181440575991 -0.0937442975951 0.817 6.35539020056e-39
0.019656062399 -0.0937442975951 0.817 8.18707506743e-39
0.0211680671989 -0.0937442975951 0.817 1.08449234699e-38
0.0226800719988 -0.0937442975951 0.817 1.19401180938e-38
0.024251298529 -0.0939737817998 0.819 1.24003605614e-38
0.025767004687 -0.0939737817998 0.819 1.23978452307e-38
0.0272827108451 -0.0939737817998 0.819 1.221490992e-38
0.0288687428078 -0.0942032660044 0.821 1.29506784943e-38
0.030388150324 -0.0942032660044 0.821 1.25826162423e-38
0.0319075578402 -0.0942032660044 0.821 1.21234555771e-38
0.0334269653564 -0.0942032660044 0.821 1.18468532732e-38
0.0350315041098 -0.094432750209 0.823 1.28577457815e-38
0.0366434455795 -0.0946622344137 0.825 1.2674093006e-38
0.038170255812 -0.0946622344137 0.825 1.22160043341e-38
0.0396970660444 -0.0946622344137 0.825 1.21227128889e-38
0.0412238762769 -0.0946622344137 0.825 1.15713467847e-38
0.0426470484815 -0.094432750209 0.823 1.21223443474e-38
0.0441701573558 -0.094432750209 0.823 1.11121356728e-38
0.0456932662302 -0.094432750209 0.823 1.0469246562e-38
0.0472163751045 -0.094432750209 0.823 1.03774489009e-38
0.0487394839789 -0.094432750209 0.823 9.91826441363e-39
0.0503847376718 -0.0946622344137 0.825 1.07447810765e-38
0.052037394081 -0.0948917186183 0.827 1.39634249205e-38
0.0535679056716 -0.0948917186183 0.827 1.38812289564e-38
0.0550984172622 -0.0948917186183 0.827 1.36061008185e-38
0.0566289288529 -0.0948917186183 0.827 1.53678580894e-38
0.0581594404435 -0.0948917186183 0.827 1.51827423584e-38
0.0598343050015 -0.095121202823 0.829 1.49983763221e-38
0.0613685179503 -0.095121202823 0.829 1.36165783272e-38
0.062902730899 -0.095121202823 0.829 1.34299940353e-38
0.0644369438478 -0.095121202823 0.829 1.13948756639e-38
0.0659711567966 -0.095121202823 0.829 1.10203506234e-38
0.0675053697453 -0.095121202823 0.829 9.55095886276e-39
0.0692061438103 -0.0953506870276 0.831 1.43357078835e-38
0.0709143205917 -0.0955801712322 0.833 1.65645655767e-38
0.0726299000892 -0.0958096554369 0.835 1.44444990911e-38
0.0741752171124 -0.0958096554369 0.835 1.55468613566e-38
0.0759019006844 -0.0960391396415 0.837 1.24161531951e-38
0.0774509190657 -0.0960391396415 0.837 1.2593437069e-38
0.078999937447 -0.0960391396415 0.837 1.22199419828e-38
0.0805489558284 -0.0960391396415 0.837 1.39810000058e-38
0.0820979742097 -0.0960391396415 0.837 1.51838213582e-38
0.0838468659305 -0.0962686238461 0.839 1.46292658988e-38
0.08539958567 -0.0962686238461 0.839 1.42557708126e-38
0.0869523054094 -0.0962686238461 0.839 1.19404936418e-38
0.0885050251489 -0.0962686238461 0.839 1.26762215784e-38
0.0900577448883 -0.0962686238461 0.839 1.13876659833e-38
0.0916104646278 -0.0962686238461 0.839 1.57230704346e-38
0.0931631843672 -0.0962686238461 0.839 2.3500889279e-38
-0.046298438286 -0.0911033785627 0.807 8.48053639313e-39
-0.0448049402767 -0.0911033785627 0.807 1.55778370591e-38
-0.0433114422675 -0.0911033785627 0.807 1.61302947748e-38
-0.0418179442583 -0.0911033785627 0.807 1.56689410775e-38
-0.0403244462491 -0.0911033785627 0.807 1.51147135219e-38
-0.0389271835515 -0.0913291614092 0.809 1.57611549242e-38
-0.0374299841841 -0.0913291614092 0.809 1.58540512033e-38
-0.0359327848167 -0.0913291614092 0.809 1.60384494696e-38
-0.0344355854494 -0.0913291614092 0.809 1.3914707378e-38
-0.032938386082 -0.0913291614092 0.809 1.03186209901e-38
-0.0314411867146 -0.0913291614092 0.809 1.33607488717e-38
-0.0299439873473 -0.0913291614092 0.809 1.27128753423e-38
-0.0284467879799 -0.0913291614092 0.809 1.70459928745e-38
-0.0269495886125 -0.0913291614092 0.809 1.52986535635e-38
-0.0255153123336 -0.0915549442557 0.811 1.1797723749e-38
-0.0240144116081 -0.0915549442557 0.811 2.11907016242e-39
-0.0225135108825 -0.0915549442557 0.811 5.76354058377e-42
-0.021064429171 -0.0917807271022 0.813 1.1153480984e-39
-0.0195598270874 -0.0917807271022 0.813 3.41375643828e-39
-0.0180552250037 -0.0917807271022 0.813 3.50847580668e-39
-0.0165506229201 -0.0917807271022 0.813 4.52010399664e-39
-0.0150460208364 -0.0917807271022 0.813 3.60102456376e-39
-0.0135414187528 -0.0917807271022 0.813 3.96944694951e-39
-0.0120368166691 -0.0917807271022 0.813 3.96909382229e-39
-0.0105322145855 -0.0917807271022 0.813 4.42790696548e-39
-0.00902761250186 -0.0917807271022 0.813 4.61159617468e-39
-0.00754151720891 -0.0920065099487 0.815 2.49361341986e-39
-0.00603321376713 -0.0920065099487 0.815 1.15226614722e-38
-0.00452491032535 -0.0920065099487 0.815 5.80323236277e-39
-0.00301660688356 -0.0920065099487 0.815 1.40972993705e-38
-0.00150830344178 -0.0920065099487 0.815 1.26242376093e-38
0.0 -0.0920065099487 0.815 1.40049916368e-38
0.00150830344178 -0.0920065099487 0.815 9.1835496158e-41
0.00302400959984 -0.0922322927952 0.817 1.50379896284e-38
0.00453601439976 -0.0922322927952 0.817 1.65994649149e-38
0.00603321376713 -0.0920065099487 0.815 2.21953765712e-39
0.00754151720891 -0.0920065099487 0.815 1.13384635916e-38
0.00907202879953 -0.0922322927952 0.817 1.44670908249e-38
0.0105840335994 -0.0922322927952 0.817 4.41889101116e-39
0.0121256492645 -0.0924580756417 0.819 3.2285916618e-42
0.0136413554225 -0.0924580756417 0.819 1.01145723155e-41
0.0151570615806 -0.0924580756417 0.819 5.25052381468e-39
0.0166727677387 -0.0924580756417 0.819 7.54493004615e-39
0.0181884738967 -0.0924580756417 0.819 1.02928272892e-38
0.0197041800548 -0.0924580756417 0.819 1.28617240678e-38
0.0212198862128 -0.0924580756417 0.819 1.24933142937e-38
0.0227355923709 -0.0924580756417 0.819 1.25861895534e-38
0.024251298529 -0.0924580756417 0.819 1.24021584273e-38
0.025767004687 -0.0924580756417 0.819 1.22174084352e-38
0.0273493352916 -0.0926838584882 0.821 1.25847868536e-38
0.0288687428078 -0.0926838584882 0.821 1.24911212616e-38
0.030388150324 -0.0926838584882 0.821 1.24000200459e-38
0.0319852863611 -0.0929096413347 0.823 1.20305242655e-38
0.0335083952355 -0.0929096413347 0.823 1.23978690527e-38
0.035116635347 -0.0931354241812 0.825 1.22141938565e-38
0.0366434455795 -0.0931354241812 0.825 1.19386565395e-38
0.038170255812 -0.0931354241812 0.825 1.19386425265e-38
0.0396970660444 -0.0931354241812 0.825 1.24897017463e-38
0.0412238762769 -0.0931354241812 0.825 1.15713593964e-38
0.0427506865094 -0.0931354241812 0.825 1.22142120734e-38
0.0442774967419 -0.0931354241812 0.825 1.53592471104e-38
0.0458043069744 -0.0931354241812 0.825 1.55507863936e-38
0.0473311172068 -0.0931354241812 0.825 1.53696573567e-38
0.0488579274393 -0.0931354241812 0.825 1.13923771488e-38
0.0505068824904 -0.0933612070277 0.827 1.36114986202e-38
0.052037394081 -0.0933612070277 0.827 1.40692523818e-38
0.0536974532065 -0.0935869898742 0.829 1.26845228705e-38
0.0552316661553 -0.0935869898742 0.829 1.20376891046e-38
0.056765879104 -0.0935869898742 0.829 1.23121698426e-38
0.0583000920528 -0.0935869898742 0.829 1.13966539117e-38
0.0598343050015 -0.0935869898742 0.829 1.49919317504e-38
0.0613685179503 -0.0935869898742 0.829 1.34306400339e-38
0.062902730899 -0.0935869898742 0.829 1.40774962207e-38
0.0644369438478 -0.0935869898742 0.829 1.40768081831e-38
0.0659711567966 -0.0935869898742 0.829 1.50920236971e-38
0.0676682295035 -0.0938127727207 0.831 1.1126902556e-38
0.0692061438103 -0.0938127727207 0.831 1.29503253671e-38
0.0710845830661 -0.0942643384137 0.835 1.0197366634e-38
0.0726299000892 -0.0942643384137 0.835 1.37865137919e-38
0.0743528823031 -0.0944901212602 0.837 1.14849048864e-38
0.0759019006844 -0.0944901212602 0.837 1.69280427802e-38
0.0776359869727 -0.0947159041067 0.839 1.58295438945e-38
0.0791887067122 -0.0947159041067 0.839 1.37983883951e-38
0.0807414264516 -0.0947159041067 0.839 1.22253397845e-38
0.0822941461911 -0.0947159041067 0.839 1.09295871205e-38
0.0838468659305 -0.0947159041067 0.839 1.14794958743e-38
0.08539958567 -0.0947159041067 0.839 1.23059985241e-38
0.0871595814652 -0.0949416869532 0.841 1.29517588954e-38
0.0887160025628 -0.0949416869532 0.841 1.28609827809e-38
0.0900577448883 -0.0947159041067 0.839 1.12039683663e-38
0.0916104646278 -0.0947159041067 0.839 1.6646453255e-38
0.0933852658556 -0.0949416869532 0.841 2.31317704479e-38
0.0949416869532 -0.0949416869532 0.841 2.12910920475e-38
-0.0464131803883 -0.0898319620418 0.809 1.13357492765e-38
-0.0449159810209 -0.0898319620418 0.809 1.47463037478e-38
-0.0434187816536 -0.0898319620418 0.809 1.57629541915e-38
-0.0419215822862 -0.0898319620418 0.809 1.53945276018e-38
-0.0404243829188 -0.0898319620418 0.809 1.5298378909e-38
-0.0389271835515 -0.0898319620418 0.809 1.67746076048e-38
-0.0374299841841 -0.0898319620418 0.809 1.17978386555e-38
-0.0359327848167 -0.0898319620418 0.809 1.30863522116e-38
-0.0345207166866 -0.0900540435302 0.811 1.52036020874e-38
-0.0330198159611 -0.0900540435302 0.811 1.71400634417e-38
-0.0315189152356 -0.0900540435302 0.811 1.60347598507e-38
-0.0300180145101 -0.0900540435302 0.811 1.41923270246e-38
-0.0285171137846 -0.0900540435302 0.811 7.18547877317e-39
-0.0270162130591 -0.0900540435302 0.811 1.8406910121e-39
-0.0255153123336 -0.0900540435302 0.811 7.94536229272e-42
-0.0240144116081 -0.0900540435302 0.811 3.23152878339e-39
-0.0225690312546 -0.0902761250186 0.813 3.41557111979e-39
-0.0211162481849 -0.0904982065069 0.815 4.15132708238e-39
-0.0195598270874 -0.0902761250186 0.813 4.15132708238e-39
-0.0180552250037 -0.0902761250186 0.813 3.41628017682e-39
-0.0165913378596 -0.0904982065069 0.815 3.41557111979e-39
-0.0150830344178 -0.0904982065069 0.815 3.23152878339e-39
-0.013574730976 -0.0904982065069 0.815 3.9679895991e-39
-0.0120664275343 -0.0904982065069 0.815 3.50560734872e-39
-0.0105581240925 -0.0904982065069 0.815 3.13751847201e-39
-0.00904982065069 -0.0904982065069 0.815 2.1230176202e-39
-0.00754151720891 -0.0904982065069 0.815 5.02926018846e-42
-0.00603321376713 -0.0904982065069 0.815 6.63411967551e-39
-0.00453601439976 -0.0907202879953 0.817 9.95640215263e-39
-0.00301660688356 -0.0904982065069 0.815 4.14989495535e-39
-0.00150830344178 -0.0904982065069 0.815 3.31654135732e-39
0.0 -0.0907202879953 0.817 5.5267183407e-39
0.00151200479992 -0.0907202879953 0.817 4.23849765595e-39
0.00303141231612 -0.0909423694836 0.819 5.58951332748e-40
0.00454711847418 -0.0909423694836 0.819 5.02645759153e-42
0.00606282463224 -0.0909423694836 0.819 2.86060367858e-39
0.0075785307903 -0.0909423694836 0.819 2.30600758146e-39
0.0091164450972 -0.091164450972 0.821 1.75531410056e-39
0.0106099431064 -0.0909423694836 0.819 3.5981533032e-39
0.0121256492645 -0.0909423694836 0.819 3.13646469557e-39
0.0136413554225 -0.0909423694836 0.819 7.5474439756e-39
0.0151570615806 -0.0909423694836 0.819 8.91602071948e-39
0.0166727677387 -0.0909423694836 0.819 1.19480312262e-38
0.0181884738967 -0.0909423694836 0.819 1.21248442639e-38
0.0197041800548 -0.0909423694836 0.819 1.221490992e-38
0.0212198862128 -0.0909423694836 0.819 1.2307824416e-38
0.022791112743 -0.091164450972 0.821 1.19401012782e-38
0.0243105202592 -0.091164450972 0.821 1.26755027123e-38
0.0258299277754 -0.091164450972 0.821 1.17560603431e-38
0.0274159597381 -0.0913865324604 0.823 1.30428278813e-38
0.0289390686124 -0.0913865324604 0.823 1.25840259485e-38
0.0305362046496 -0.0916086139487 0.825 1.24003549562e-38
0.0320630148821 -0.0916086139487 0.825 1.25833421149e-38
0.0335898251145 -0.0916086139487 0.825 1.32294359952e-38
0.0352017665842 -0.0918306954371 0.827 1.56379499607e-38
0.0367322781748 -0.0918306954371 0.827 1.37051389888e-38
0.0382627897654 -0.0918306954371 0.827 1.44430375368e-38
0.0397933013561 -0.0918306954371 0.827 1.5270274467e-38
0.0413238129467 -0.0918306954371 0.827 1.43537103648e-38
0.0428543245373 -0.0918306954371 0.827 1.3893142796e-38
0.0443848361279 -0.0918306954371 0.827 1.34306806716e-38
0.0459153477185 -0.0918306954371 0.827 1.06537387152e-38
0.0474458593092 -0.0918306954371 0.827 1.01938143424e-38
0.0489763708998 -0.0918306954371 0.827 1.39644786969e-38
0.050629027309 -0.0920527769254 0.829 1.35153555326e-38
0.0521632402577 -0.0920527769254 0.829 1.48114515147e-38
0.0536974532065 -0.0920527769254 0.829 1.56444645972e-38
0.0552316661553 -0.0920527769254 0.829 1.49047163353e-38
0.056765879104 -0.0920527769254 0.829 1.31487282102e-38
0.0583000920528 -0.0920527769254 0.829 1.32412895789e-38
0.0598343050015 -0.0920527769254 0.829 1.23153872238e-38
0.0615165722759 -0.0922748584138 0.831 1.11154175138e-38
0.0630544865828 -0.0922748584138 0.831 1.25012232223e-38
0.0645924008897 -0.0922748584138 0.831 1.36100720984e-38
0.0661303151966 -0.0922748584138 0.831 1.18544342979e-38
0.0678310892616 -0.0924969399022 0.833 1.59192536209e-38
0.0693727049266 -0.0924969399022 0.833 1.58263265132e-38
0.0712548455405 -0.0929411028789 0.837 1.20466462043e-38
0.0728038639218 -0.0929411028789 0.837 1.36994132833e-38
0.0743528823031 -0.0929411028789 0.837 1.17611218332e-38
0.0759019006844 -0.0929411028789 0.837 1.09285053181e-38
0.0776359869727 -0.0931631843672 0.839 1.14794762561e-38
0.0791887067122 -0.0931631843672 0.839 1.18468056291e-38
0.0807414264516 -0.0931631843672 0.839 1.27681215343e-38
0.0824903181724 -0.0933852658556 0.841 1.36043309786e-38
0.08404673927 -0.0933852658556 0.841 1.55482850758e-38
0.0856031603676 -0.0933852658556 0.841 1.41679346222e-38
0.0871595814652 -0.0933852658556 0.841 1.20323165263e-38
0.0887160025628 -0.0933852658556 0.841 1.29531784108e-38
0.0902724236604 -0.0933852658556 0.841 1.11121426793e-38
0.091828844758 -0.0933852658556 0.841 1.8122326021e-38
0.0933852658556 -0.0933852658556 0.841 2.32250170516e-38
0.0949416869532 -0.0933852658556 0.841 2.12910794358e-38
-0.048265710137 -0.0889899030651 0.815 1.40065709002e-38
-0.0465279224906 -0.0885531428047 0.811 1.30856641741e-38
-0.0450270217651 -0.0885531428047 0.811 1.5663215372e-38
-0.0435261210396 -0.0885531428047 0.811 1.53927269333e-38
-0.0420252203141 -0.0885531428047 0.811 1.53001753736e-38
-0.0405243195886 -0.0885531428047 0.811 1.58533351398e-38
-0.0390234188631 -0.0885531428047 0.811 1.68664108711e-38
-0.0375225181376 -0.0885531428047 0.811 1.76947239986e-38
-0.0360216174121 -0.0885531428047 0.811 1.61263291001e-38
-0.0345207166866 -0.0885531428047 0.811 1.50209554442e-38
-0.0330198159611 -0.0885531428047 0.811 1.15193516052e-38
-0.0315189152356 -0.0885531428047 0.811 2.11831486255e-39
-0.0300920416729 -0.0887715229349 0.813 1.90524743105e-40
-0.0285874395892 -0.0887715229349 0.813 9.36721780552e-40
-0.0270828375056 -0.0887715229349 0.813 3.23117845877e-39
-0.0255782354219 -0.0887715229349 0.813 3.96693021746e-39
-0.0240736333383 -0.0887715229349 0.813 3.87438146039e-39
-0.0225690312546 -0.0887715229349 0.813 3.41628017682e-39
-0.0211680671989 -0.0892082831954 0.817 3.78183410461e-39
-0.019656062399 -0.0892082831954 0.817 3.59780297859e-39
-0.0181440575991 -0.0892082831954 0.817 3.59885675503e-39
-0.0166320527991 -0.0892082831954 0.817 4.0584223955e-39
-0.0151200479992 -0.0892082831954 0.817 3.96622676563e-39
-0.0136080431993 -0.0892082831954 0.817 1.48017194969e-39
-0.0120960383994 -0.0892082831954 0.817 1.75496377594e-39
-0.0105840335994 -0.0892082831954 0.817 2.76411166763e-39
-0.00907202879953 -0.0892082831954 0.817 8.67649397038e-39
-0.00756002399961 -0.0892082831954 0.817 1.15320165407e-38
-0.00604801919968 -0.0892082831954 0.817 6.17673725805e-39
-0.00453601439976 -0.0892082831954 0.817 1.05016123526e-38
-0.00302400959984 -0.0892082831954 0.817 3.50560734872e-39
-0.00151200479992 -0.0892082831954 0.817 3.32337408863e-39
0.0 -0.0892082831954 0.817 3.96728054208e-39
0.00151570615806 -0.0894266633256 0.819 4.24387583946e-39
0.00303141231612 -0.0894266633256 0.819 4.15132147719e-39
0.0045582225486 -0.0896450434558 0.821 4.24387583946e-39
0.0060776300648 -0.0896450434558 0.821 4.42755383827e-39
0.007597037581 -0.0896450434558 0.821 4.05913145252e-39
0.0091164450972 -0.0896450434558 0.821 4.05983490435e-39
0.0106358526134 -0.0896450434558 0.821 4.05590426216e-39
0.0121552601296 -0.0896450434558 0.821 7.8208288982e-39
0.0136746676458 -0.0896450434558 0.821 1.14005733435e-38
0.015194075162 -0.0896450434558 0.821 1.24039478855e-38
0.0167134826782 -0.0896450434558 0.821 1.2218862983e-38
0.0182328901944 -0.0896450434558 0.821 1.23078061991e-38
0.0197522977106 -0.0896450434558 0.821 1.25833070824e-38
0.0212717052268 -0.0896450434558 0.821 1.23982053644e-38
0.0228466331151 -0.089863423586 0.823 1.22141924552e-38
0.0243697419894 -0.089863423586 0.823 1.25833168915e-38
0.0258928508638 -0.089863423586 0.823 1.23078061991e-38
0.0274825841846 -0.0900818037162 0.825 1.25840511719e-38
0.0290093944171 -0.0900818037162 0.825 1.2122361163e-38
0.0305362046496 -0.0900818037162 0.825 1.23067103837e-38
0.0320630148821 -0.0900818037162 0.825 1.14795154925e-38
0.0336712549936 -0.0903001838465 0.827 1.53506557495e-38
0.0352017665842 -0.0903001838465 0.827 1.26848731951e-38
0.0368211107702 -0.0905185639767 0.829 1.12965913922e-38
0.0383553237189 -0.0905185639767 0.829 1.29564434362e-38
0.0398895366677 -0.0905185639767 0.829 1.24075856563e-38
0.0413238129467 -0.0903001838465 0.827 9.73461303949e-39
0.0428543245373 -0.0903001838465 0.827 1.64670800451e-38
0.0443848361279 -0.0903001838465 0.827 1.46317209737e-38
0.0460263884627 -0.0905185639767 0.829 1.44445018937e-38
0.0475606014115 -0.0905185639767 0.829 1.46241833892e-38
0.0490948143602 -0.0905185639767 0.829 1.37962205864e-38
0.050629027309 -0.0905185639767 0.829 1.1298008105e-38
0.0521632402577 -0.0905185639767 0.829 1.44323063931e-38
0.0538270007414 -0.0907369441069 0.831 1.09366889011e-38
0.0553649150483 -0.0907369441069 0.831 1.14824049699e-38
0.0569028293552 -0.0907369441069 0.831 1.52706528176e-38
0.0584407436621 -0.0907369441069 0.831 1.30604954524e-38
0.059978657969 -0.0907369441069 0.831 1.73893488333e-38
0.0616646266014 -0.0909553242371 0.833 1.53661022625e-38
0.0632062422665 -0.0909553242371 0.833 1.14009068525e-38
0.0647478579315 -0.0909553242371 0.833 1.27745633033e-38
0.0662894735965 -0.0909553242371 0.833 1.12040118066e-38
0.0678310892616 -0.0909553242371 0.833 1.17549981589e-38
0.0695392660429 -0.0911737043673 0.835 1.20305424824e-38
0.0712548455405 -0.0913920844976 0.837 1.175503179e-38
0.0728038639218 -0.0913920844976 0.837 1.39627214686e-38
0.0745305474938 -0.0916104646278 0.839 1.42417522227e-38
0.0760832672332 -0.0916104646278 0.839 1.43465385193e-38
0.0776359869727 -0.0916104646278 0.839 1.55504542858e-38
0.0791887067122 -0.0916104646278 0.839 1.68411903013e-38
0.0807414264516 -0.0916104646278 0.839 1.47221621779e-38
0.0824903181724 -0.091828844758 0.841 1.24161503925e-38
0.08404673927 -0.091828844758 0.841 1.24108072415e-38
0.0856031603676 -0.091828844758 0.841 1.05636534409e-38
0.087366857521 -0.0920472248882 0.843 1.26733727386e-38
0.0889269799768 -0.0920472248882 0.843 1.28588149722e-38
0.0904871024325 -0.0920472248882 0.843 1.14794706509e-38
0.0920472248882 -0.0920472248882 0.843 1.97797005693e-38
0.093607347344 -0.0920472248882 0.843 2.3318651815e-38
0.0951674697997 -0.0920472248882 0.843 2.07386245228e-38
-0.0497740135788 -0.0874815996233 0.815 1.5668572536e-38
-0.048265710137 -0.0874815996233 0.815 1.40076372883e-38
-0.0466426645929 -0.0872669208513 0.813 1.33626027896e-38
-0.0451380625093 -0.0872669208513 0.813 1.33622973065e-38
-0.0435261210396 -0.0870522420792 0.811 1.6683093006e-38
-0.0420252203141 -0.0870522420792 0.811 1.68664080685e-38
-0.0405243195886 -0.0870522420792 0.811 1.69571617622e-38
-0.0390234188631 -0.0870522420792 0.811 1.53894226715e-38
-0.0375225181376 -0.0870522420792 0.811 1.39159573363e-38
-0.0360216174121 -0.0870522420792 0.811 8.2010600261e-39
-0.0345207166866 -0.0870522420792 0.811 1.56407329394e-39
-0.0330198159611 -0.0870522420792 0.811 3.72788831763e-40
-0.0315966437565 -0.0872669208513 0.813 3.32372441325e-39
-0.0300920416729 -0.0872669208513 0.813 3.87508491222e-39
-0.0286577653939 -0.0874815996233 0.815 3.5088261313e-39
-0.0271494619521 -0.0874815996233 0.815 3.87724851704e-39
-0.0256411585103 -0.0874815996233 0.815 3.8747345876e-39
-0.0241328550685 -0.0874815996233 0.815 3.59885675503e-39
-0.0226245516267 -0.0874815996233 0.815 2.95278389416e-39
-0.0211680671989 -0.0876962783954 0.817 3.58732406867e-43
-0.019656062399 -0.0876962783954 0.817 3.31979096846e-39
-0.0181440575991 -0.0876962783954 0.817 3.68532948197e-39
-0.0166727677387 -0.0879109571675 0.819 2.76692267234e-39
-0.0151570615806 -0.0879109571675 0.819 1.2925534996e-39
-0.0136413554225 -0.0879109571675 0.819 7.74982090111e-39
-0.0121256492645 -0.0879109571675 0.819 1.96376663583e-38
-0.0106099431064 -0.0879109571675 0.819 1.78863081233e-38
-0.00909423694836 -0.0879109571675 0.819 1.69672609203e-38
-0.0075785307903 -0.0879109571675 0.819 1.62318412693e-38
-0.00606282463224 -0.0879109571675 0.819 5.34799253066e-39
-0.00454711847418 -0.0879109571675 0.819 6.89955783451e-39
-0.00303141231612 -0.0879109571675 0.819 3.87151300243e-39
-0.00151570615806 -0.0879109571675 0.819 2.49431687169e-39
0.0 -0.0881256359396 0.821 2.86094139151e-39
0.0015194075162 -0.0881256359396 0.821 3.96693021746e-39
0.0030388150324 -0.0881256359396 0.821 4.42755383827e-39
0.0045582225486 -0.0881256359396 0.821 4.42755383827e-39
0.00609243549736 -0.0883403147117 0.823 4.06094613403e-39
0.0076155443717 -0.0883403147117 0.823 3.87403113577e-39
0.00913865324604 -0.0883403147117 0.823 5.89333305143e-39
0.0106617621204 -0.0883403147117 0.823 8.09449968568e-39
0.0121552601296 -0.0881256359396 0.821 1.24093582989e-38
0.0136746676458 -0.0881256359396 0.821 1.21262819961e-38
0.015194075162 -0.0881256359396 0.821 1.23085502886e-38
0.0167134826782 -0.0881256359396 0.821 1.2307824416e-38
0.0182328901944 -0.0881256359396 0.821 1.18468448654e-38
0.0198004153664 -0.0883403147117 0.823 1.27666193423e-38
0.0213235242407 -0.0883403147117 0.823 1.24911212616e-38
0.0228466331151 -0.0883403147117 0.823 1.16631724718e-38
0.0244289637197 -0.0885549934838 0.825 1.22141574228e-38
0.0259557739521 -0.0885549934838 0.825 1.2122319124e-38
0.0274825841846 -0.0885549934838 0.825 1.2216370073e-38
0.0290093944171 -0.0885549934838 0.825 1.20352228193e-38
0.0306102318124 -0.0887696722558 0.827 1.39745386186e-38
0.032140743403 -0.0887696722558 0.827 1.24057877904e-38
0.0337526848727 -0.0889843510279 0.829 1.39799714527e-38
0.0352868978214 -0.0889843510279 0.829 1.60121555052e-38
0.0368211107702 -0.0889843510279 0.829 1.42597154678e-38
0.0383553237189 -0.0889843510279 0.829 1.5179167646e-38
0.0398895366677 -0.0889843510279 0.829 1.36136426069e-38
0.0414237496164 -0.0889843510279 0.829 1.03821502573e-38
0.0429579625652 -0.0889843510279 0.829 1.11208027038e-38
0.044492175514 -0.0889843510279 0.829 1.23154054407e-38
0.0460263884627 -0.0889843510279 0.829 1.20355787491e-38
0.0476753435138 -0.0891990298 0.831 1.52691996711e-38
0.0492132578207 -0.0891990298 0.831 1.55522535531e-38
0.0507511721276 -0.0891990298 0.831 1.52738113443e-38
0.0522890864345 -0.0891990298 0.831 1.41653884629e-38
0.0539565482763 -0.0894137085721 0.833 1.49047163353e-38
0.0554981639413 -0.0894137085721 0.833 1.07523200622e-38
0.0570397796063 -0.0894137085721 0.833 1.24018403326e-38
0.0585813952714 -0.0894137085721 0.833 1.12040132079e-38
0.0601230109364 -0.0894137085721 0.833 1.12958080664e-38
0.061812680927 -0.0896283873442 0.835 1.20304850292e-38
0.0633579979502 -0.0896283873442 0.835 1.17549925537e-38
0.0649033149734 -0.0896283873442 0.835 1.35935830194e-38
0.0664486319965 -0.0896283873442 0.835 1.51719817875e-38
0.0679939490197 -0.0896283873442 0.835 1.50819371508e-38
0.0697058271592 -0.0898430661163 0.837 1.48114641264e-38
0.0714251080149 -0.0900577448883 0.839 1.47206754002e-38
0.0729778277543 -0.0900577448883 0.839 1.2041649174e-38
0.0745305474938 -0.0900577448883 0.839 1.31397584987e-38
0.0760832672332 -0.0900577448883 0.839 1.29578909775e-38
0.0778210548797 -0.0902724236604 0.841 1.24111603687e-38
0.0793774759773 -0.0902724236604 0.841 1.27763653732e-38
0.0809338970749 -0.0902724236604 0.841 1.22210391995e-38
0.0826864901538 -0.0904871024325 0.843 1.74787138403e-38
0.0842466126096 -0.0904871024325 0.843 1.49980386091e-38
0.0858067350653 -0.0904871024325 0.843 1.04771751087e-38
0.0875741335768 -0.0907017812046 0.845 1.34116384268e-38
0.0891379573907 -0.0907017812046 0.845 1.2677670521e-38
0.0907017812046 -0.0907017812046 0.845 1.11121230611e-38
0.0922656050184 -0.0907017812046 0.845 2.0802111751e-38
0.0938294288323 -0.0907017812046 0.845 2.24899729487e-38
-0.0497740135788 -0.0859732961816 0.815 1.57611367074e-38
-0.048265710137 -0.0859732961816 0.815 1.54838239452e-38
-0.0467574066952 -0.0859732961816 0.815 1.32697037079e-38
-0.0452491032535 -0.0859732961816 0.815 1.43735583563e-38
-0.0436334604256 -0.0857623187676 0.813 1.69575120869e-38
-0.042128858342 -0.0857623187676 0.813 1.50213590182e-38
-0.0406242562583 -0.0857623187676 0.813 1.29940781091e-38
-0.0391196541747 -0.0857623187676 0.813 5.4344680602e-39
-0.0375225181376 -0.0855513413537 0.811 2.02721224549e-39
-0.0360216174121 -0.0855513413537 0.811 1.20827380476e-39
-0.0346058479238 -0.0857623187676 0.813 3.87689819243e-39
-0.0331012458401 -0.0857623187676 0.813 4.05983490435e-39
-0.0315966437565 -0.0857623187676 0.813 3.87438146039e-39
-0.0301660688356 -0.0859732961816 0.815 4.05913145252e-39
-0.0286577653939 -0.0859732961816 0.815 3.50882893389e-39
-0.0271494619521 -0.0859732961816 0.815 3.60102456376e-39
-0.0256411585103 -0.0859732961816 0.815 3.8747345876e-39
-0.0241328550685 -0.0859732961816 0.815 2.9553020275e-39
-0.0226245516267 -0.0859732961816 0.815 3.31724480915e-39
-0.0212198862128 -0.0863952510095 0.819 1.79764872847e-38
-0.0197041800548 -0.0863952510095 0.819 1.85323781816e-38
-0.0181884738967 -0.0863952510095 0.819 2.08329753497e-38
-0.0166727677387 -0.0863952510095 0.819 3.22298646795e-44
-0.0151570615806 -0.0863952510095 0.819 0.0
-0.0136413554225 -0.0863952510095 0.819 1.82540704975e-38
-0.0121256492645 -0.0863952510095 0.819 1.84373309093e-38
-0.0106099431064 -0.0863952510095 0.819 0.0
-0.00909423694836 -0.0863952510095 0.819 0.0
-0.0075785307903 -0.0863952510095 0.819 0.0
-0.00606282463224 -0.0863952510095 0.819 1.66526385865e-39
-0.00454711847418 -0.0863952510095 0.819 1.84789088361e-39
-0.00303141231612 -0.0863952510095 0.819 4.97598562345e-39
-0.00151570615806 -0.0863952510095 0.819 4.60695227157e-39
0.0 -0.0866062284234 0.821 1.15262936378e-38
0.0015194075162 -0.0866062284234 0.821 4.23878211954e-39
0.0030388150324 -0.0866062284234 0.821 4.33248554655e-39
0.00456932662302 -0.0868172058373 0.823 4.24387583946e-39
0.00609243549736 -0.0868172058373 0.823 3.50666112517e-39
0.0076155443717 -0.0868172058373 0.823 6.90424237528e-39
0.00913865324604 -0.0868172058373 0.823 9.28621714909e-39
0.0106617621204 -0.0868172058373 0.823 1.22199447854e-38
0.0121848709947 -0.0868172058373 0.823 1.20330550105e-38
0.0137079798691 -0.0868172058373 0.823 1.23996669187e-38
0.015194075162 -0.0866062284234 0.821 1.22181693403e-38
0.0167134826782 -0.0866062284234 0.821 1.2586216178e-38
0.0182773064921 -0.0868172058373 0.823 1.19412125079e-38
0.0198485330222 -0.0870281832513 0.825 1.25844169108e-38
0.0213753432547 -0.0870281832513 0.825 1.221490992e-38
0.0229021534872 -0.0870281832513 0.825 1.49764810336e-38
0.0244289637197 -0.0870281832513 0.825 1.61976201595e-38
0.0260186970405 -0.0872391606652 0.827 1.49079757555e-38
0.0275492086311 -0.0872391606652 0.827 1.45391708153e-38
0.0290797202217 -0.0872391606652 0.827 1.21410138468e-38
0.0306102318124 -0.0872391606652 0.827 1.18526168138e-38
0.0322184719239 -0.0874501380792 0.829 1.13876940093e-38
0.0337526848727 -0.0874501380792 0.829 1.08366852362e-38
0.0352868978214 -0.0874501380792 0.829 1.25008574834e-38
0.0368211107702 -0.0874501380792 0.829 1.08366768284e-38
0.0383553237189 -0.0874501380792 0.829 1.69258903857e-38
0.0398895366677 -0.0874501380792 0.829 1.41682877495e-38
0.0414237496164 -0.0874501380792 0.829 1.27731563997e-38
0.0429579625652 -0.0874501380792 0.829 1.57373510672e-38
0.044492175514 -0.0874501380792 0.829 1.26909324097e-38
0.0460263884627 -0.0874501380792 0.829 1.27759968317e-38
0.0476753435138 -0.0876611154931 0.831 1.1941931374e-38
0.0492132578207 -0.0876611154931 0.831 1.0744825918e-38
0.0508733169462 -0.0878720929071 0.833 1.17549547186e-38
0.0524149326112 -0.0878720929071 0.833 1.175503179e-38
0.0540860958111 -0.088083070321 0.835 1.1295824882e-38
0.0556314128343 -0.088083070321 0.835 1.25815246308e-38
0.0571767298575 -0.088083070321 0.835 1.2217806404e-38
0.0587220468807 -0.088083070321 0.835 1.45219866922e-38
0.0602673639038 -0.088083070321 0.835 1.54589845286e-38
0.0619607352526 -0.0882940477349 0.837 1.38016660322e-38
0.0635097536339 -0.0882940477349 0.837 1.54553845928e-38
0.0650587720152 -0.0882940477349 0.837 1.39809845915e-38
0.0666077903965 -0.0882940477349 0.837 1.24054500774e-38
0.0681568087778 -0.0882940477349 0.837 1.28628198832e-38
0.0697058271592 -0.0882940477349 0.837 1.14841776125e-38
0.0714251080149 -0.0885050251489 0.839 1.47135105611e-38
0.0729778277543 -0.0885050251489 0.839 1.49054043729e-38
0.0747082126845 -0.0887160025628 0.841 1.62869445288e-38
0.0762646337821 -0.0887160025628 0.841 1.39835405599e-38
0.0778210548797 -0.0887160025628 0.841 1.43504887797e-38
0.0793774759773 -0.0887160025628 0.841 1.17657909596e-38
0.0809338970749 -0.0887160025628 0.841 1.29589195306e-38
0.0826864901538 -0.0889269799768 0.843 1.26838138135e-38
0.0842466126096 -0.0889269799768 0.843 1.59192438118e-38
0.086010309763 -0.0891379573907 0.845 1.06565679368e-38
0.0875741335768 -0.0891379573907 0.845 1.30443202642e-38
0.0891379573907 -0.0891379573907 0.845 1.27713038831e-38
0.0907017812046 -0.0891379573907 0.845 1.12039795767e-38
0.0922656050184 -0.0891379573907 0.845 2.1178080129e-38
0.0938294288323 -0.0891379573907 0.845 2.19364460423e-38
-0.0497740135788 -0.0844649927398 0.815 1.61302891696e-38
-0.048265710137 -0.0844649927398 0.815 1.49306725868e-38
-0.0468721487976 -0.0846722687956 0.817 1.40998203065e-38
-0.0452491032535 -0.0844649927398 0.815 9.49003881332e-39
-0.0437407998117 -0.0844649927398 0.815 1.2443834445e-38
-0.042128858342 -0.084257716684 0.813 4.32960167431e-39
-0.0406242562583 -0.084257716684 0.813 1.65913738176e-39
-0.0391196541747 -0.084257716684 0.813 1.66925055278e-39
-0.0376150520911 -0.084257716684 0.813 3.87438146039e-39
-0.0361104500074 -0.084257716684 0.813 3.96693021746e-39
-0.034690979161 -0.0844649927398 0.815 3.8747345876e-39
-0.0331826757192 -0.0844649927398 0.815 4.15132147719e-39
-0.0316743722774 -0.0844649927398 0.815 3.87543383553e-39
-0.0302400959984 -0.0846722687956 0.817 3.60067143654e-39
-0.0287280911985 -0.0846722687956 0.817 3.87578696275e-39
-0.0272160863986 -0.0846722687956 0.817 3.69321739102e-39
-0.0257040815987 -0.0846722687956 0.817 4.24422616408e-39
-0.0241920767987 -0.0846722687956 0.817 3.13681502018e-39
-0.0226800719988 -0.0846722687956 0.817 9.3117586162e-39
-0.0212198862128 -0.0848795448514 0.819 1.64101186638e-38
-0.0197041800548 -0.0848795448514 0.819 7.5964389751e-42
-0.0181884738967 -0.0848795448514 0.819 2.06496476755e-38
-0.0167134826782 -0.0850868209072 0.821 9.80908925027e-45
-0.015194075162 -0.0850868209072 0.821 0.0
-0.0136746676458 -0.0850868209072 0.821 1.64972570075e-38
-0.0121552601296 -0.0850868209072 0.821 1.78794908063e-38
-0.0106358526134 -0.0850868209072 0.821 1.71447900214e-38
-0.0091164450972 -0.0850868209072 0.821 1.68674786605e-38
-0.007597037581 -0.0850868209072 0.821 6.72372150191e-39
-0.0060776300648 -0.0850868209072 0.821 1.93142088377e-39
-0.0045582225486 -0.0850868209072 0.821 2.52233723578e-44
-0.0030388150324 -0.0850868209072 0.821 2.09208872101e-38
-0.0015194075162 -0.0850868209072 0.821 2.00936222539e-38
0.0 -0.085294096963 0.823 1.78859690091e-38
0.00152310887434 -0.085294096963 0.823 7.37633142012e-39
0.00305362046496 -0.0855013730188 0.825 3.77896144276e-39
0.00458043069744 -0.0855013730188 0.825 2.95243356954e-39
0.00610724092991 -0.0855013730188 0.825 6.90566469322e-39
0.00763405116239 -0.0855013730188 0.825 1.04811561977e-38
0.00916086139487 -0.0855013730188 0.825 1.1669981381e-38
0.0106876716274 -0.0855013730188 0.825 1.23092593457e-38
0.0122144818598 -0.0855013730188 0.825 1.20305256668e-38
0.0137412920923 -0.0855013730188 0.825 1.24914771915e-38
0.0152681023248 -0.0855013730188 0.825 1.23064020981e-38
0.0167949125573 -0.0855013730188 0.825 1.27677319733e-38
0.0183661390874 -0.0857086490746 0.827 1.20341115896e-38
0.019896650678 -0.0857086490746 0.827 1.25851371782e-38
0.0214271622687 -0.0857086490746 0.827 1.18468602797e-38
0.0229576738593 -0.0857086490746 0.827 1.52523840895e-38
0.0244881854499 -0.0857086490746 0.827 1.09374470036e-38
0.0260186970405 -0.0857086490746 0.827 1.42604427417e-38
0.0275492086311 -0.0857086490746 0.827 1.30629743494e-38
0.0290797202217 -0.0857086490746 0.827 1.49983609078e-38
0.0306842589751 -0.0859159251304 0.829 1.61972698349e-38
0.0322184719239 -0.0859159251304 0.829 1.45359926704e-38
0.0337526848727 -0.0859159251304 0.829 1.19515821165e-38
0.0352868978214 -0.0859159251304 0.829 1.40667384523e-38
0.0369099433655 -0.0861232011862 0.831 1.1574578179e-38
0.0384478576724 -0.0861232011862 0.831 1.17550387965e-38
0.0399857719793 -0.0861232011862 0.831 1.16631794783e-38
0.0415236862862 -0.0861232011862 0.831 1.15713565938e-38
0.0430616005931 -0.0861232011862 0.831 1.19386383226e-38
0.044706854286 -0.086330477242 0.833 1.19386761577e-38
0.0462484699511 -0.086330477242 0.833 1.17550149744e-38
0.0477900856161 -0.086330477242 0.833 1.26733657321e-38
0.0493317012812 -0.086330477242 0.833 1.37844188507e-38
0.0508733169462 -0.086330477242 0.833 1.50894200846e-38
0.052540778788 -0.0865377532978 0.835 1.4810715833e-38
0.0540860958111 -0.0865377532978 0.835 1.61951202431e-38
0.0556314128343 -0.0865377532978 0.835 1.52767554724e-38
0.0571767298575 -0.0865377532978 0.835 1.18615584993e-38
0.0587220468807 -0.0865377532978 0.835 1.21299267734e-38
0.0604117168713 -0.0867450293536 0.837 1.13920058047e-38
0.0619607352526 -0.0867450293536 0.837 1.17607112527e-38
0.0635097536339 -0.0867450293536 0.837 1.59109999729e-38
0.0650587720152 -0.0867450293536 0.837 1.34310281936e-38
0.0667669487965 -0.0869523054094 0.839 1.5735256126e-38
0.068319668536 -0.0869523054094 0.839 1.4347969245e-38
0.0698723882754 -0.0869523054094 0.839 1.324269368e-38
0.0715953704893 -0.0871595814652 0.841 1.33320376675e-38
0.0731517915869 -0.0871595814652 0.841 1.14866957458e-38
0.0747082126845 -0.0871595814652 0.841 1.30518788681e-38
0.0762646337821 -0.0871595814652 0.841 1.44369755196e-38
0.0780061227866 -0.087366857521 0.843 1.59217451295e-38
0.0795662452424 -0.087366857521 0.843 1.46282065171e-38
0.0811263676981 -0.087366857521 0.843 1.49040311004e-38
0.0826864901538 -0.087366857521 0.843 1.24129302086e-38
0.0844464859491 -0.0875741335768 0.845 1.19437306412e-38
0.086010309763 -0.0875741335768 0.845 1.22142092708e-38
0.0877814096326 -0.0877814096326 0.847 1.31329159583e-38
0.0893489348046 -0.0877814096326 0.847 1.30428587099e-38
0.0909164599767 -0.0877814096326 0.847 1.10202987753e-38
0.0924839851487 -0.0877814096326 0.847 2.20107092557e-38
0.0940515103207 -0.0877814096326 0.847 2.17520547825e-38
-0.0515340093741 -0.0833638386933 0.819 2.03684000672e-38
-0.050018303216 -0.0833638386933 0.819 1.69593267684e-38
-0.0485025970579 -0.0833638386933 0.819 1.51154015594e-38
-0.0468721487976 -0.0831602639957 0.817 1.55774685176e-38
-0.0453601439976 -0.0831602639957 0.817 0.0
-0.0438481391977 -0.0831602639957 0.817 6.50035732929e-40
-0.0423361343978 -0.0831602639957 0.817 3.41805001678e-39
-0.0407241929281 -0.082956689298 0.815 3.8747345876e-39
-0.0392158894863 -0.082956689298 0.815 3.87508491222e-39
-0.0377075860445 -0.082956689298 0.815 4.05983490435e-39
-0.0361992826028 -0.082956689298 0.815 3.50917925851e-39
-0.0347761103982 -0.0831602639957 0.817 3.41698362865e-39
-0.0332641055983 -0.0831602639957 0.817 4.15203053421e-39
-0.0317521007983 -0.0831602639957 0.817 3.60137488837e-39
-0.0302400959984 -0.0831602639957 0.817 3.87725131964e-39
-0.0287280911985 -0.0831602639957 0.817 4.06164398067e-39
-0.0272827108451 -0.0833638386933 0.819 2.67871373661e-39
-0.025767004687 -0.0833638386933 0.819 1.66346459142e-39
-0.024251298529 -0.0833638386933 0.819 2.2166383706e-39
-0.0227355923709 -0.0833638386933 0.819 8.36963342877e-40
-0.0212717052268 -0.083567413391 0.821 1.79366203434e-42
-0.0197522977106 -0.083567413391 0.821 2.30707817349e-39
-0.0182328901944 -0.083567413391 0.821 2.17538526485e-38
-0.0167541976177 -0.0837709880887 0.823 2.66246708222e-44
-0.0152310887434 -0.0837709880887 0.823 8.39231624701e-39
-0.0137079798691 -0.0837709880887 0.823 1.85317097622e-38
-0.0121552601296 -0.083567413391 0.821 1.5577118193e-38
-0.0106358526134 -0.083567413391 0.821 1.49320626748e-38
-0.0091164450972 -0.083567413391 0.821 1.14304406189e-38
-0.007597037581 -0.083567413391 0.821 2.09244423043e-38
-0.0060776300648 -0.083567413391 0.821 5.99416768633e-39
-0.0045582225486 -0.083567413391 0.821 2.18602560435e-42
-0.0030388150324 -0.083567413391 0.821 5.06432768253e-39
-0.0015194075162 -0.083567413391 0.821 7.34748428993e-40
0.0 -0.0837709880887 0.823 3.36311631438e-44
0.00152310887434 -0.0837709880887 0.823 1.2111604796e-39
0.00305362046496 -0.0839745627863 0.825 2.9553020275e-39
0.00458043069744 -0.0839745627863 0.825 7.27300527655e-39
0.00612204636247 -0.084178137484 0.827 1.02988977142e-38
0.00765255795309 -0.084178137484 0.827 1.20376891046e-38
0.00918306954371 -0.084178137484 0.827 1.14827552945e-38
0.0107135811343 -0.084178137484 0.827 1.24021752429e-38
0.0122440927249 -0.084178137484 0.827 1.19404936418e-38
0.0137746043156 -0.084178137484 0.827 1.27677319733e-38
0.0153051159062 -0.084178137484 0.827 1.23989634668e-38
0.0168356274968 -0.084178137484 0.827 1.23067552253e-38
0.0183661390874 -0.084178137484 0.827 1.31364906707e-38
0.0199447683338 -0.0843817121817 0.829 1.18479056483e-38
0.0214789812826 -0.0843817121817 0.829 1.35038340566e-38
0.0230131942314 -0.0843817121817 0.829 1.60024935523e-38
0.0245474071801 -0.0843817121817 0.829 1.4533450715e-38
0.0260816201289 -0.0843817121817 0.829 1.2226769109e-38
0.0276158330776 -0.0843817121817 0.829 1.27763653732e-38
0.0291500460264 -0.0843817121817 0.829 1.14849104916e-38
0.0307582861379 -0.0845852868793 0.831 1.07448371284e-38
0.0322962004448 -0.0845852868793 0.831 1.2030517259e-38
0.0338341147517 -0.0845852868793 0.831 1.23978788618e-38
0.0353720290586 -0.0845852868793 0.831 1.22141952578e-38
0.0369099433655 -0.0845852868793 0.831 1.2123821316e-38
0.0384478576724 -0.0845852868793 0.831 1.27695438522e-38
0.0400820072909 -0.084788861577 0.833 1.20330550105e-38
0.041623622956 -0.084788861577 0.833 1.62854829745e-38
0.043165238621 -0.084788861577 0.833 1.53664175546e-38
0.0448141936721 -0.0849924362746 0.835 1.52720723329e-38
0.0463595106953 -0.0849924362746 0.835 1.40753886678e-38
0.0479048277184 -0.0849924362746 0.835 1.42582903472e-38
0.0494501447416 -0.0849924362746 0.835 1.23200311269e-38
0.0509954617648 -0.0849924362746 0.835 1.25930531132e-38
0.052540778788 -0.0849924362746 0.835 1.1667502484e-38
0.0540860958111 -0.0849924362746 0.835 1.32366204525e-38
0.0556314128343 -0.0849924362746 0.835 1.36100664932e-38
0.0571767298575 -0.0849924362746 0.835 1.49033248459e-38
0.05886269849 -0.0851960109723 0.837 1.51806011744e-38
0.0604117168713 -0.0851960109723 0.837 1.53653819951e-38
0.0619607352526 -0.0851960109723 0.837 1.11178781939e-38
