# .PCD v0.7 - Point Cloud Data file format
VERSION 0.7
FIELDS x y z rgb
SIZE 4 4 4 4
TYPE F F F F
COUNT 1 1 1 1
WIDTH 842
HEIGHT 1
VIEWPOINT 0 0 0 1 0 0 0
POINTS 842
DATA ascii
0.0430967634954 -0.083221336405 0.803 1.23181561896e-38
0.0445273384163 -0.0831176983771 0.802 1.11142474296e-38
0.0460115830302 -0.0831176983771 0.802 1.77476188117e-38
0.047495827644 -0.0831176983771 0.802 1.98743176429e-38
0.0489800722579 -0.0831176983771 0.802 1.25947360727e-38
0.0504643168718 -0.0831176983771 0.802 2.06968630259e-38
0.0519485614857 -0.0831176983771 0.802 1.71145205733e-38
0.0534328060995 -0.0831176983771 0.802 1.13047343376e-38
0.0549170507134 -0.0831176983771 0.802 1.28648881997e-38
0.0564012953273 -0.0831176983771 0.802 1.2591507481e-38
0.0579577164249 -0.083221336405 0.803 1.23174429287e-38
0.0594438117178 -0.083221336405 0.803 1.22231061148e-38
0.0609299070108 -0.083221336405 0.803 1.24996719849e-38
0.0624160023037 -0.083221336405 0.803 1.1856106047e-38
0.0639020975967 -0.083221336405 0.803 1.2500404864e-38
0.0653881928896 -0.083221336405 0.803 1.11185522184e-38
0.0668742881826 -0.083221336405 0.803 9.1835496158e-39
0.0683603834755 -0.083221336405 0.803 2.25284764266e-38
0.0698464787685 -0.083221336405 0.803 2.34992623715e-38
0.0713325740614 -0.083221336405 0.803 2.34979017107e-38
0.0728186693543 -0.083221336405 0.803 2.34907130496e-38
0.0743047646473 -0.083221336405 0.803 1.9604738647e-38
0.0757908599402 -0.083221336405 0.803 1.25825391709e-38
0.0772769552332 -0.083221336405 0.803 1.25814629736e-38
0.0789592225075 -0.0834286124608 0.805 1.3958995416e-38
0.0804490191586 -0.0834286124608 0.805 1.19386145005e-38
0.0819388158097 -0.0834286124608 0.805 8.90804312733e-39
-0.0326848430495 -0.0856031603676 0.841 1.21312888355e-38
-0.0310543947891 -0.08539958567 0.839 1.1777605307e-38
-0.029431349245 -0.0851960109723 0.837 1.17783115614e-38
-0.0276824575241 -0.0845852868793 0.831 1.16871851223e-38
-0.0261445432172 -0.0845852868793 0.831 1.20563249728e-38
-0.0245474071801 -0.0843817121817 0.829 1.04922110412e-38
-0.0230131942314 -0.0843817121817 0.829 9.75146925872e-39
-0.0213753432547 -0.0839745627863 0.825 1.14189121365e-38
-0.0198004153664 -0.0837709880887 0.823 7.82832444368e-39
-0.0182328901944 -0.083567413391 0.821 1.87884388513e-38
-0.0166727677387 -0.0833638386933 0.819 1.98902770312e-38
-0.0150830344178 -0.082956689298 0.815 1.56540060385e-38
-0.0135414187528 -0.0827531146003 0.813 1.90673841262e-38
-0.0120368166691 -0.0827531146003 0.813 9.75501033994e-39
-0.0105322145855 -0.0827531146003 0.813 1.1040781555e-38
-0.00900540435302 -0.0825495399027 0.811 5.05925358079e-39
-0.00750450362752 -0.0825495399027 0.811 1.39107543151e-38
-0.00600360290201 -0.0825495399027 0.811 1.0774188726e-38
-0.00450270217651 -0.0825495399027 0.811 7.7314891146e-39
-0.00299439873473 -0.082345965205 0.809 7.07133320417e-39
-0.00149719936736 -0.082345965205 0.809 9.73528005756e-39
0.0 -0.082345965205 0.809 9.27538511196e-39
0.00149349800922 -0.0821423905073 0.807 1.01937400735e-38
0.00298699601845 -0.0821423905073 0.807 1.00100690812e-38
0.00446938995326 -0.0819388158097 0.805 9.36722060812e-39
0.00595918660434 -0.0819388158097 0.805 9.45905610427e-39
0.00744898325543 -0.0819388158097 0.805 9.09171411964e-39
0.00893877990651 -0.0819388158097 0.805 9.643085829e-39
0.0104285765576 -0.0819388158097 0.805 1.00100690812e-38
0.0119183732087 -0.0819388158097 0.805 9.09171411964e-39
0.0134081698598 -0.0819388158097 0.805 9.55089160043e-39
0.0148979665109 -0.0819388158097 0.805 1.9406505361e-38
0.0163877631619 -0.0819388158097 0.805 1.73954248635e-38
0.017877559813 -0.0819388158097 0.805 9.73456259275e-39
0.0193673564641 -0.0819388158097 0.805 1.74753339084e-38
0.0208571531152 -0.0819388158097 0.805 9.8314203426e-39
0.0222914293942 -0.081735241112 0.803 2.00614176126e-38
0.0237775246871 -0.081735241112 0.803 8.91270664861e-39
0.0252636199801 -0.081735241112 0.803 1.12986723204e-38
0.026749715273 -0.081735241112 0.803 9.09171411964e-39
0.028235810566 -0.081735241112 0.803 1.49814276171e-38
0.0297219058589 -0.081735241112 0.803 1.66525348904e-38
0.0312080011519 -0.081735241112 0.803 1.41473313309e-38
0.0326940964448 -0.081735241112 0.803 1.26894414281e-38
0.0341801917378 -0.081735241112 0.803 1.30575008776e-38
0.0356662870307 -0.081735241112 0.803 1.37947015789e-38
0.0371061153469 -0.0816334537632 0.802 1.31479014441e-38
0.0385903599608 -0.0816334537632 0.802 1.3881888968e-38
0.0400746045747 -0.0816334537632 0.802 1.39762411962e-38
0.0415588491885 -0.0816334537632 0.802 1.29685660692e-38
0.0430430938024 -0.0816334537632 0.802 1.3058244967e-38
0.0445273384163 -0.0816334537632 0.802 1.30560799609e-38
0.0460115830302 -0.0816334537632 0.802 1.10216944686e-38
0.047495827644 -0.0816334537632 0.802 1.52615597918e-38
0.0489800722579 -0.0816334537632 0.802 1.8679301523e-38
0.0504643168718 -0.0816334537632 0.802 1.24993132525e-38
0.0519485614857 -0.0816334537632 0.802 1.62818676245e-38
0.0534328060995 -0.0816334537632 0.802 1.98816828677e-38
0.0549170507134 -0.0816334537632 0.802 1.28670419955e-38
0.0564012953273 -0.0816334537632 0.802 1.28577163542e-38
0.0578855399412 -0.0816334537632 0.802 1.28681251992e-38
0.0594438117178 -0.081735241112 0.803 1.25929662327e-38
0.0609299070108 -0.081735241112 0.803 1.25936724872e-38
0.0624160023037 -0.081735241112 0.803 1.19483002755e-38
0.0638225183967 -0.0816334537632 0.802 9.64272709659e-39
0.0653067630106 -0.0816334537632 0.802 8.17335915806e-39
0.0668742881826 -0.081735241112 0.803 2.34816326355e-38
0.0683603834755 -0.081735241112 0.803 2.34735541499e-38
0.0697594968522 -0.0816334537632 0.802 2.35024096878e-38
0.0712437414661 -0.0816334537632 0.802 2.349506268e-38
0.0727279860799 -0.0816334537632 0.802 2.34986486028e-38
0.0742122306938 -0.0816334537632 0.802 2.31172501932e-38
0.0757908599402 -0.081735241112 0.803 2.34838901273e-38
0.0771807199216 -0.0816334537632 0.802 2.34770938298e-38
0.0786649645354 -0.0816334537632 0.802 2.18945752442e-38
0.0801492091493 -0.0816334537632 0.802 2.34654742629e-38
0.0816334537632 -0.0816334537632 0.802 1.27701562197e-38
-0.0327625715704 -0.0842466126096 0.843 1.07447530505e-38
-0.0311284219519 -0.08404673927 0.841 1.20531314136e-38
-0.0295016750496 -0.0838468659305 0.839 1.16864760653e-38
-0.0278157064172 -0.0834471192515 0.835 1.17793807521e-38
-0.0262074663056 -0.0832472459119 0.833 1.15939118939e-38
-0.0246658506406 -0.0832472459119 0.833 1.08602985167e-38
-0.0230687146034 -0.0830473725724 0.831 1.11343616677e-38
-0.0214789812826 -0.0828474992329 0.829 9.8440180158e-39
-0.0198485330222 -0.0824477525538 0.825 9.94337708341e-39
-0.0182328901944 -0.0820480058748 0.821 1.50120333769e-38
-0.0166727677387 -0.0818481325353 0.819 1.99882291951e-38
-0.0150830344178 -0.0814483858562 0.815 8.8334267867e-39
-0.0135414187528 -0.0812485125167 0.813 1.28014808455e-38
-0.0120368166691 -0.0812485125167 0.813 2.10009546018e-38
-0.0105322145855 -0.0812485125167 0.813 8.09838408503e-39
-0.00900540435302 -0.0810486391772 0.811 2.94883083119e-39
-0.00750450362752 -0.0810486391772 0.811 1.72211327618e-38
-0.00600360290201 -0.0810486391772 0.811 1.92503082264e-38
-0.00450270217651 -0.0810486391772 0.811 6.25736937298e-39
-0.00299439873473 -0.0808487658376 0.809 8.66138517034e-39
-0.00149719936736 -0.0808487658376 0.809 4.22837887974e-39
0.0 -0.0806488924981 0.807 8.44888246212e-39
0.00149349800922 -0.0806488924981 0.807 1.02855755697e-38
0.00298699601845 -0.0806488924981 0.807 9.91823358506e-39
0.00446938995326 -0.0804490191586 0.805 1.01937400735e-38
0.00595918660434 -0.0804490191586 0.805 9.1835496158e-39
0.00744898325543 -0.0804490191586 0.805 9.82711555372e-39
0.00893877990651 -0.0804490191586 0.805 9.27538511196e-39
0.0104285765576 -0.0804490191586 0.805 1.13876015236e-38
0.0119183732087 -0.0804490191586 0.805 1.96804536056e-38
0.0134081698598 -0.0804490191586 0.805 1.63625193576e-38
0.0148979665109 -0.0804490191586 0.805 1.12039305313e-38
0.0163877631619 -0.0804490191586 0.805 1.86685045183e-38
0.017877559813 -0.0804490191586 0.805 1.81322486155e-38
0.0193192388083 -0.0802491458191 0.803 1.19386369213e-38
0.0208053341012 -0.0802491458191 0.803 1.06529175543e-38
0.0222914293942 -0.0802491458191 0.803 2.22789065714e-38
0.0237775246871 -0.0802491458191 0.803 1.25094222196e-38
0.0252636199801 -0.0802491458191 0.803 1.11128124999e-38
0.0267164030498 -0.0801492091493 0.802 1.14794370197e-38
0.0282006476636 -0.0801492091493 0.802 1.18492901312e-38
0.0296848922775 -0.0801492091493 0.802 1.20343960532e-38
0.0311691368914 -0.0801492091493 0.802 1.22259591584e-38
0.0326533815053 -0.0801492091493 0.802 1.28698838288e-38
0.0341376261192 -0.0801492091493 0.802 1.30539135535e-38
0.035621870733 -0.0801492091493 0.802 1.3424489735e-38
0.0371061153469 -0.0801492091493 0.802 1.33333899205e-38
0.0385903599608 -0.0801492091493 0.802 1.40670018965e-38
0.0400746045747 -0.0801492091493 0.802 1.39740874005e-38
0.0415588491885 -0.0801492091493 0.802 1.47174327955e-38
0.0429357544164 -0.0799493358098 0.8 1.35220747587e-38
0.0444162976721 -0.0799493358098 0.8 1.39794627814e-38
0.0458968409278 -0.0799493358098 0.8 1.16695848136e-38
0.047495827644 -0.0801492091493 0.802 1.19436367542e-38
0.0488579274393 -0.0799493358098 0.8 1.13876323522e-38
0.0503384706951 -0.0799493358098 0.8 1.69333102611e-38
0.0518190139508 -0.0799493358098 0.8 1.38865468841e-38
0.0532995572065 -0.0799493358098 0.8 1.36885532202e-38
0.0549170507134 -0.0801492091493 0.802 1.94111464615e-38
0.0564012953273 -0.0801492091493 0.802 1.42617655674e-38
0.0578855399412 -0.0801492091493 0.802 1.19468653459e-38
0.059369784555 -0.0801492091493 0.802 1.27755596265e-38
0.0609299070108 -0.0802491458191 0.803 1.3328720794e-38
0.0624160023037 -0.0802491458191 0.803 8.99987862348e-39
0.0638225183967 -0.0801492091493 0.802 9.73456259275e-39
0.0653067630106 -0.0801492091493 0.802 2.34991993131e-38
0.0667910076244 -0.0801492091493 0.802 2.08827088335e-38
0.0682752522383 -0.0801492091493 0.802 2.35006944985e-38
0.0697594968522 -0.0801492091493 0.802 2.35098225567e-38
0.0712437414661 -0.0801492091493 0.802 7.07384433101e-39
0.0727279860799 -0.0801492091493 0.802 8.99987862348e-39
0.0742122306938 -0.0801492091493 0.802 2.35065505248e-38
0.0756964753077 -0.0801492091493 0.802 2.35094554165e-38
0.0771807199216 -0.0801492091493 0.802 2.29370628289e-38
0.0786649645354 -0.0801492091493 0.802 1.9471704976e-38
0.0801492091493 -0.0801492091493 0.802 2.34659787304e-38
0.0816334537632 -0.0801492091493 0.802 2.10709438549e-38
0.0831176983771 -0.0801492091493 0.802 2.07939632004e-38
0.084390965577 -0.0799493358098 0.8 1.18467790044e-38
-0.0385977626771 -0.0852367259118 0.869 2.34957563227e-38
-0.0352998525749 -0.0850405539305 0.867 2.25730657437e-38
-0.0329180286122 -0.0830788341166 0.847 8.81620763117e-39
-0.0312024491147 -0.0826864901538 0.843 1.25147947979e-38
-0.0295720008543 -0.0824903181724 0.841 1.16879081923e-38
-0.0278157064172 -0.0819018022283 0.835 1.19634216873e-38
-0.0262074663056 -0.0817056302469 0.833 1.17793807521e-38
-0.0246658506406 -0.0817056302469 0.833 1.12269524637e-38
-0.0231242349755 -0.0817056302469 0.833 1.10411094588e-38
-0.0215308002966 -0.0815094582655 0.831 1.05812005002e-38
-0.019896650678 -0.0811171143028 0.827 1.03049471197e-38
-0.0183217227897 -0.0809209423214 0.825 9.20620440807e-39
-0.0167134826782 -0.0805285983586 0.821 1.44638720423e-38
-0.0151200479992 -0.0801362543958 0.817 1.84231483676e-38
-0.013574730976 -0.0799400824144 0.815 1.04929229009e-38
-0.0120368166691 -0.0797439104331 0.813 1.50080228607e-38
-0.0105322145855 -0.0797439104331 0.813 8.74699890131e-39
-0.00900540435302 -0.0795477384517 0.811 2.48785688577e-39
-0.00750450362752 -0.0795477384517 0.811 1.77753757317e-38
-0.00600360290201 -0.0795477384517 0.811 2.08133361517e-38
-0.00449159810209 -0.0793515664703 0.809 7.26755983072e-39
-0.00299439873473 -0.0793515664703 0.809 4.79493926315e-39
-0.00149719936736 -0.0793515664703 0.809 8.02496305199e-39
0.0 -0.0791553944889 0.807 4.04578408465e-39
0.00148979665109 -0.0789592225075 0.805 9.55089160043e-39
0.00297959330217 -0.0789592225075 0.805 9.55089160043e-39
0.00446938995326 -0.0789592225075 0.805 9.91823358506e-39
0.00595918660434 -0.0789592225075 0.805 9.27538511196e-39
0.00744898325543 -0.0789592225075 0.805 9.45905610427e-39
0.00893877990651 -0.0789592225075 0.805 1.00100690812e-38
0.0104285765576 -0.0789592225075 0.805 1.77285653565e-38
0.0119183732087 -0.0789592225075 0.805 1.94691251855e-38
0.0134081698598 -0.0789592225075 0.805 2.34655723538e-38
0.0148979665109 -0.0789592225075 0.805 1.78429911852e-38
0.0163877631619 -0.0789592225075 0.805 1.24896274775e-38
0.017877559813 -0.0789592225075 0.805 8.72437213501e-39
0.0193192388083 -0.0787630505261 0.803 2.19000977614e-38
0.0208053341012 -0.0787630505261 0.803 7.99506915185e-39
0.0222914293942 -0.0787630505261 0.803 1.01019045774e-38
0.0237775246871 -0.0787630505261 0.803 2.07033496365e-38
0.0252321584359 -0.0786649645354 0.802 1.79568186594e-38
0.0267164030498 -0.0786649645354 0.802 1.43546772608e-38
0.0282006476636 -0.0786649645354 0.802 1.23059564852e-38
0.0296848922775 -0.0786649645354 0.802 1.25018243793e-38
0.0311691368914 -0.0786649645354 0.802 1.26872890337e-38
0.0326533815053 -0.0786649645354 0.802 1.29635157896e-38
0.0341376261192 -0.0786649645354 0.802 1.2870626517e-38
0.0355330381377 -0.0784687925541 0.8 1.31475721389e-38
0.0370135813934 -0.0784687925541 0.8 1.33333899205e-38
0.0384941246492 -0.0784687925541 0.8 1.2962827752e-38
0.0399746679049 -0.0784687925541 0.8 1.44386388609e-38
0.0414552111606 -0.0784687925541 0.8 1.416494285e-38
0.0429357544164 -0.0784687925541 0.8 1.42567853527e-38
0.0444162976721 -0.0784687925541 0.8 1.52717009888e-38
0.0458968409278 -0.0784687925541 0.8 1.66545401485e-38
0.0473773841836 -0.0784687925541 0.8 1.61965663831e-38
0.0488579274393 -0.0784687925541 0.8 1.02870413279e-38
0.0503384706951 -0.0784687925541 0.8 1.04768065672e-38
0.0516894664159 -0.0782726205727 0.798 1.93243079957e-38
0.0531663083135 -0.0782726205727 0.798 1.81308178897e-38
0.0547801004623 -0.0784687925541 0.8 9.92863682486e-39
0.056260643718 -0.0784687925541 0.8 2.0159752331e-38
0.0578855399412 -0.0786649645354 0.802 1.4353006913e-38
0.059369784555 -0.0786649645354 0.802 1.22241879172e-38
0.0608540291689 -0.0786649645354 0.802 9.45977356909e-39
0.0623382737828 -0.0786649645354 0.802 1.19386145005e-38
0.0638225183967 -0.0786649645354 0.802 2.3507518822e-38
0.0653067630106 -0.0786649645354 0.802 1.56279082559e-38
0.0667910076244 -0.0786649645354 0.802 2.34993940935e-38
0.0682752522383 -0.0786649645354 0.802 2.35098183528e-38
0.0695855330196 -0.0784687925541 0.8 1.99026000499e-38
0.0710660762754 -0.0784687925541 0.8 1.07544388255e-38
0.0725466195311 -0.0784687925541 0.8 2.12373438436e-38
0.0740271627868 -0.0784687925541 0.8 1.05610820582e-38
0.0755077060426 -0.0784687925541 0.8 2.35095955464e-38
0.0771807199216 -0.0786649645354 0.802 2.3506542117e-38
0.0786649645354 -0.0786649645354 0.802 2.34957114812e-38
0.0801492091493 -0.0786649645354 0.802 1.97923430841e-38
0.0814298790655 -0.0784687925541 0.8 2.34432917082e-38
0.0829104223213 -0.0784687925541 0.8 2.3088834663e-38
0.084390965577 -0.0784687925541 0.8 2.34647806202e-38
0.0854421512886 -0.0780764485913 0.796 1.39661700642e-38
-0.0385977626771 -0.0836284858003 0.869 2.34900081964e-38
-0.0369895225655 -0.0836284858003 0.869 2.34928892661e-38
-0.0352998525749 -0.083436015177 0.867 2.35015170607e-38
-0.0336953138215 -0.083436015177 0.867 7.71418167727e-39
-0.0321648022309 -0.0836284858003 0.869 1.26980916435e-38
-0.0295720008543 -0.0809338970749 0.841 1.15953622378e-38
-0.0278157064172 -0.0803564852051 0.835 1.23318510795e-38
-0.026270389394 -0.0803564852051 0.835 1.14113213027e-38
-0.0247250723708 -0.0803564852051 0.835 1.17779584342e-38
-0.0231797553476 -0.0803564852051 0.835 1.1318769743e-38
-0.0215826193105 -0.0801640145819 0.833 1.1043260452e-38
-0.0199447683338 -0.0797790733354 0.829 1.06759044543e-38
-0.0183661390874 -0.0795866027121 0.827 9.19936747286e-39
-0.0167541976177 -0.0792016614656 0.823 9.66604890693e-39
-0.015194075162 -0.0790091908424 0.821 1.2984448386e-38
-0.0136080431993 -0.0786242495959 0.817 1.94322864502e-38
-0.0120664275343 -0.0784317789727 0.815 1.36260917424e-38
-0.0105322145855 -0.0782393083494 0.813 9.29951407021e-39
-0.00902761250186 -0.0782393083494 0.813 2.11942048704e-39
-0.00750450362752 -0.0780468377262 0.811 1.74073190848e-38
-0.00600360290201 -0.0780468377262 0.811 2.00761060231e-38
-0.00449159810209 -0.0778543671029 0.809 7.17715926419e-39
-0.00299439873473 -0.0778543671029 0.809 5.25590900468e-39
-0.00149349800922 -0.0776618964797 0.807 1.11609078658e-39
0.0 -0.0776618964797 0.807 8.1146545615e-39
0.00148979665109 -0.0774694258564 0.805 5.61351897148e-39
0.00297959330217 -0.0774694258564 0.805 8.17335915806e-39
0.00446938995326 -0.0774694258564 0.805 9.64272709659e-39
0.00595918660434 -0.0774694258564 0.805 9.91823358506e-39
0.00744898325543 -0.0774694258564 0.805 8.90804312733e-39
0.00893877990651 -0.0774694258564 0.805 1.32243646961e-38
0.0104285765576 -0.0774694258564 0.805 1.89181122085e-38
0.0119183732087 -0.0774694258564 0.805 2.34569697825e-38
0.0134081698598 -0.0774694258564 0.805 1.84743602213e-38
0.0148979665109 -0.0774694258564 0.805 2.34635040373e-38
0.0163877631619 -0.0774694258564 0.805 2.03368988777e-38
0.017877559813 -0.0774694258564 0.805 1.24896274775e-38
0.0193192388083 -0.0772769552332 0.803 1.05610820582e-38
0.0208053341012 -0.0772769552332 0.803 1.45290716573e-38
0.0222636692081 -0.0771807199216 0.802 1.55618972891e-38
0.023747913822 -0.0771807199216 0.802 1.14794370197e-38
0.0252321584359 -0.0771807199216 0.802 1.72837918226e-38
0.0266497786033 -0.0769882492983 0.8 2.13633850353e-38
0.028130321859 -0.0769882492983 0.8 1.06586572728e-38
0.0296108651147 -0.0769882492983 0.8 1.37828578042e-38
0.0310914083705 -0.0769882492983 0.8 1.25936696846e-38
0.0325719516262 -0.0769882492983 0.8 1.2871683096e-38
0.0340524948819 -0.0769882492983 0.8 1.27798658167e-38
0.0355330381377 -0.0769882492983 0.8 1.28716858986e-38
0.0370135813934 -0.0769882492983 0.8 1.32404908388e-38
0.0384941246492 -0.0769882492983 0.8 1.4623069357e-38
0.0399746679049 -0.0769882492983 0.8 1.29671031136e-38
0.0413515731327 -0.0767957786751 0.798 1.36132138096e-38
0.0428284150303 -0.0767957786751 0.798 1.41652889707e-38
0.0443052569279 -0.0767957786751 0.798 1.46259266045e-38
0.0457820988255 -0.0767957786751 0.798 1.54538613814e-38
0.0473773841836 -0.0769882492983 0.8 1.54546110761e-38
0.0487357826207 -0.0767957786751 0.798 1.07483515849e-38
0.0502126245183 -0.0767957786751 0.798 1.12075178553e-38
0.0516894664159 -0.0767957786751 0.798 1.03799432122e-38
0.0531663083135 -0.0767957786751 0.798 1.64629966614e-38
0.0546431502111 -0.0767957786751 0.798 1.30550401975e-38
0.056260643718 -0.0769882492983 0.8 1.23059564852e-38
0.0577411869737 -0.0769882492983 0.8 1.35116827293e-38
0.0592217302295 -0.0769882492983 0.8 1.04739100833e-38
0.0607022734852 -0.0769882492983 0.8 1.0469246562e-38
0.0621828167409 -0.0769882492983 0.8 2.35054322886e-38
0.0636633599967 -0.0769882492983 0.8 1.71147672018e-38
0.0651439032524 -0.0769882492983 0.8 2.35055289782e-38
0.0666244465082 -0.0769882492983 0.8 2.35090756646e-38
0.0681049897639 -0.0769882492983 0.8 5.69738808586e-39
0.0694115691871 -0.0767957786751 0.798 1.31324759506e-38
0.0708884110847 -0.0767957786751 0.798 2.32048243408e-38
0.0723652529823 -0.0767957786751 0.798 1.50965526938e-38
0.0738420948799 -0.0767957786751 0.798 2.34662519836e-38
0.0755077060426 -0.0769882492983 0.8 2.35098001359e-38
0.0769882492983 -0.0769882492983 0.8 2.35098253593e-38
0.0784687925541 -0.0769882492983 0.8 2.35097833204e-38
0.0799493358098 -0.0769882492983 0.8 2.35094386009e-38
0.0812263043679 -0.0767957786751 0.798 1.99732030717e-38
0.0824958702097 -0.0766033080518 0.796 2.04046993026e-38
0.0839690107491 -0.0766033080518 0.796 2.34645227813e-38
0.0854421512886 -0.0766033080518 0.796 2.2360260355e-38
0.086915291828 -0.0766033080518 0.796 1.13876477664e-38
-0.0385977626771 -0.0820202456888 0.869 2.34914431261e-38
-0.0369895225655 -0.0820202456888 0.869 2.34954017942e-38
-0.035381282454 -0.0820202456888 0.869 2.35029758124e-38
-0.0337730423424 -0.0820202456888 0.869 6.70400663382e-39
-0.0321648022309 -0.0820202456888 0.869 1.3155112526e-38
-0.0295720008543 -0.0793774759773 0.841 1.19630657574e-38
-0.0278823308637 -0.078999937447 0.837 1.17808240896e-38
-0.026270389394 -0.0788111681819 0.835 1.15978411348e-38
-0.0247250723708 -0.0788111681819 0.835 1.1318769743e-38
-0.0232352757197 -0.078999937447 0.837 1.17790304275e-38
-0.0216344383245 -0.0788111681819 0.835 1.09492669562e-38
-0.0200410036455 -0.0786223989168 0.833 1.05804872393e-38
-0.0184105553851 -0.0782448603866 0.829 1.08570489055e-38
-0.0167541976177 -0.0776785525913 0.823 9.56741150803e-39
-0.015194075162 -0.0774897833262 0.821 8.56007269266e-39
-0.0136413554225 -0.0773010140611 0.819 1.24298298681e-38
-0.0120664275343 -0.0769234755309 0.815 2.05403856316e-38
-0.0105581240925 -0.0769234755309 0.815 1.44558496086e-38
-0.00902761250186 -0.0767347062658 0.813 2.66323219118e-39
-0.00750450362752 -0.0765459370007 0.811 1.83292907977e-38
-0.00600360290201 -0.0765459370007 0.811 1.99860613864e-38
-0.00449159810209 -0.0763571677356 0.809 7.177876729e-39
-0.00299439873473 -0.0763571677356 0.809 5.34846336695e-39
-0.00149349800922 -0.0761683984705 0.807 5.35023320691e-39
0.0 -0.0759796292053 0.805 9.21525959875e-39
0.00148979665109 -0.0759796292053 0.805 1.04969684495e-38
0.00297959330217 -0.0759796292053 0.805 6.44041538618e-39
0.00446938995326 -0.0759796292053 0.805 6.247683598e-39
0.00595918660434 -0.0759796292053 0.805 9.64272709659e-39
0.00744898325543 -0.0759796292053 0.805 8.99987862348e-39
0.00893877990651 -0.0759796292053 0.805 1.32243114468e-38
0.0104026670506 -0.0757908599402 0.803 2.34652108188e-38
0.0118887623436 -0.0757908599402 0.803 1.98590673118e-38
0.0133748576365 -0.0757908599402 0.803 2.34609060299e-38
0.0148609529295 -0.0757908599402 0.803 1.64457284604e-38
0.0163470482224 -0.0757908599402 0.803 2.34709070971e-38
0.0178331435154 -0.0757908599402 0.803 2.12538875733e-38
0.0192951799804 -0.0756964753077 0.802 1.49691956828e-38
0.0207794245943 -0.0756964753077 0.802 1.01019045774e-38
0.0222636692081 -0.0756964753077 0.802 7.98972459951e-39
0.0236886920918 -0.0755077060426 0.8 2.11639003898e-38
0.0251692353475 -0.0755077060426 0.8 1.04699640268e-38
0.0266497786033 -0.0755077060426 0.8 1.54355632261e-38
0.028130321859 -0.0755077060426 0.8 2.00569110367e-38
0.0296108651147 -0.0755077060426 0.8 1.4346870627e-38
0.0310914083705 -0.0755077060426 0.8 1.31324759506e-38
0.0325719516262 -0.0755077060426 0.8 1.23174709547e-38
0.0340524948819 -0.0755077060426 0.8 1.27794832622e-38
0.0355330381377 -0.0755077060426 0.8 1.27794874661e-38
0.0370135813934 -0.0755077060426 0.8 1.36085320714e-38
0.0384941246492 -0.0755077060426 0.8 1.30571491516e-38
0.0398747312351 -0.0753189367775 0.798 1.3705374407e-38
0.0413515731327 -0.0753189367775 0.798 1.33366073018e-38
0.0428284150303 -0.0753189367775 0.798 1.42571216643e-38
0.0443052569279 -0.0753189367775 0.798 1.49010589463e-38
0.0457820988255 -0.0753189367775 0.798 1.46248448021e-38
0.0472589407231 -0.0753189367775 0.798 1.4717040432e-38
0.0487357826207 -0.0753189367775 0.798 1.453121144e-38
0.0502126245183 -0.0753189367775 0.798 1.49921461491e-38
0.0516894664159 -0.0753189367775 0.798 9.09314904927e-39
0.0531663083135 -0.0753189367775 0.798 1.17610615773e-38
0.0546431502111 -0.0753189367775 0.798 1.25872125012e-38
0.0561199921087 -0.0753189367775 0.798 1.34194618761e-38
0.0575968340063 -0.0753189367775 0.798 1.27773308678e-38
0.0590736759039 -0.0753189367775 0.798 9.36722060812e-39
0.0605505178015 -0.0753189367775 0.798 2.34637870996e-38
0.0620273596991 -0.0753189367775 0.798 1.81415630464e-38
0.0635042015967 -0.0753189367775 0.798 2.35040856408e-38
0.0649810434943 -0.0753189367775 0.798 2.35097875243e-38
0.0664578853919 -0.0753189367775 0.798 7.44620856934e-39
0.0679347272895 -0.0753189367775 0.798 2.34810426889e-38
0.0694115691871 -0.0753189367775 0.798 8.26772259665e-39
0.0708884110847 -0.0753189367775 0.798 2.17248920131e-38
0.0723652529823 -0.0753189367775 0.798 2.34939444438e-38
0.0738420948799 -0.0753189367775 0.798 8.54076279983e-39
0.0753189367775 -0.0753189367775 0.798 2.35097454853e-38
0.0767957786751 -0.0753189367775 0.798 2.35097454853e-38
0.0782726205727 -0.0753189367775 0.798 2.35098057411e-38
0.0797494624703 -0.0753189367775 0.798 2.35080064739e-38
0.0812263043679 -0.0753189367775 0.798 2.35098225567e-38
0.0824958702097 -0.0751301675124 0.796 2.06326443199e-38
0.0839690107491 -0.0751301675124 0.796 2.34701405868e-38
0.0854421512886 -0.0751301675124 0.796 2.34615478246e-38
0.086915291828 -0.0751301675124 0.796 1.23059564852e-38
0.0886105138558 -0.0753189367775 0.798 1.20304499967e-38
-0.0385977626771 -0.0804120055772 0.869 2.3493964062e-38
-0.0369895225655 -0.0804120055772 0.869 2.34946885333e-38
-0.035381282454 -0.0804120055772 0.869 2.35047708758e-38
-0.0337730423424 -0.0804120055772 0.869 5.41829427332e-39
-0.0321648022309 -0.0804120055772 0.869 1.48060214832e-38
-0.0305565621193 -0.0804120055772 0.869 1.19652209545e-38
-0.0279489553102 -0.0776359869727 0.839 1.18719393183e-38
-0.0263333124823 -0.0774509190657 0.837 1.15964286259e-38
-0.024784294101 -0.0774509190657 0.837 1.15024449392e-38
-0.0232907960918 -0.0776359869727 0.839 1.1317365642e-38
-0.0216862573384 -0.0774509190657 0.837 1.10411094588e-38
-0.0201372389571 -0.0774509190657 0.837 1.10407563316e-38
-0.0185438042781 -0.0772658511588 0.835 1.08588663896e-38
-0.0169577723154 -0.0770807832518 0.833 1.09510592169e-38
-0.0153421294876 -0.0767106474379 0.829 1.01202293574e-38
-0.0137079798691 -0.076155443717 0.823 9.10787529483e-39
-0.0121552601296 -0.07597037581 0.821 1.13227354177e-38
-0.0105581240925 -0.0754151720891 0.815 1.99889690807e-38
-0.00902761250186 -0.0752301041821 0.813 3.58158435016e-39
-0.00752301041821 -0.0752301041821 0.813 1.76842717133e-38
-0.00600360290201 -0.0750450362752 0.811 2.02627071305e-38
-0.00449159810209 -0.0748599683682 0.809 7.63848913942e-39
-0.00299439873473 -0.0748599683682 0.809 7.19090880472e-39
-0.00149349800922 -0.0746749004612 0.807 2.30778022402e-39
0.0 -0.0744898325543 0.805 1.41841028039e-38
0.00148979665109 -0.0744898325543 0.805 1.97120122483e-38
0.00297959330217 -0.0744898325543 0.805 4.59607959678e-39
0.00446938995326 -0.0744898325543 0.805 1.16130564335e-38
0.00595918660434 -0.0744898325543 0.805 5.88428766984e-39
0.00744898325543 -0.0744898325543 0.805 9.27538511196e-39
0.00893877990651 -0.0744898325543 0.805 9.09171411964e-39
0.0104026670506 -0.0743047646473 0.803 1.69142540033e-38
0.0118887623436 -0.0743047646473 0.803 2.34720799839e-38
0.0133748576365 -0.0743047646473 0.803 1.57088920967e-38
0.0148609529295 -0.0743047646473 0.803 2.34673253782e-38
0.0163470482224 -0.0743047646473 0.803 1.58025212549e-38
0.0178331435154 -0.0743047646473 0.803 2.3463033201e-38
0.0192951799804 -0.0742122306938 0.802 2.34612297299e-38
0.0207276055803 -0.0740271627868 0.8 1.63467449408e-38
0.0222081488361 -0.0740271627868 0.8 1.12957660274e-38
0.0236294703616 -0.0738420948799 0.798 1.50693016425e-38
0.0251063122592 -0.0738420948799 0.798 2.20050872462e-38
0.0265831541568 -0.0738420948799 0.798 9.0009548207e-39
0.0280599960544 -0.0738420948799 0.798 1.1020259539e-38
0.0295368379519 -0.0738420948799 0.798 1.32243296636e-38
0.0310136798495 -0.0738420948799 0.798 2.21836981498e-38
0.0324905217471 -0.0738420948799 0.798 1.06647557238e-38
0.0339673636447 -0.0738420948799 0.798 1.2962827752e-38
0.0354442055423 -0.0738420948799 0.798 1.29649479166e-38
0.0369210474399 -0.0738420948799 0.798 1.33322941051e-38
0.0383978893375 -0.0738420948799 0.798 1.36096166764e-38
0.0398747312351 -0.0738420948799 0.798 1.37021626309e-38
0.0413515731327 -0.0738420948799 0.798 1.3978756527e-38
0.0427210756443 -0.0736570269729 0.796 1.43489683708e-38
0.0441942161837 -0.0736570269729 0.796 1.44433276055e-38
0.0457820988255 -0.0738420948799 0.798 1.46255510565e-38
0.0472589407231 -0.0738420948799 0.798 1.42585860212e-38
0.0486136378021 -0.0736570269729 0.796 1.3703656415e-38
0.0500867783416 -0.0736570269729 0.796 1.4435794225e-38
0.051559918881 -0.0736570269729 0.796 1.49954069706e-38
0.0530330594205 -0.0736570269729 0.796 1.03870968408e-38
0.05450619996 -0.0736570269729 0.796 1.28663133203e-38
0.0559793404994 -0.0736570269729 0.796 1.29588494657e-38
0.0574524810389 -0.0736570269729 0.796 1.28673727019e-38
0.0590736759039 -0.0738420948799 0.798 1.00100690812e-38
0.0605505178015 -0.0738420948799 0.798 2.20754492447e-38
0.0620273596991 -0.0738420948799 0.798 2.10850227005e-38
0.0635042015967 -0.0738420948799 0.798 2.35008332271e-38
0.0649810434943 -0.0738420948799 0.798 2.35098001359e-38
0.0664578853919 -0.0738420948799 0.798 2.35097973333e-38
0.0679347272895 -0.0738420948799 0.798 2.35097847217e-38
0.0692376053545 -0.0736570269729 0.796 6.52032022722e-39
0.070710745894 -0.0736570269729 0.796 2.33039115565e-38
0.0721838864334 -0.0736570269729 0.796 1.0652986218e-38
0.0738420948799 -0.0738420948799 0.798 2.16119445543e-38
0.0753189367775 -0.0738420948799 0.798 1.01019606293e-38
0.0767957786751 -0.0738420948799 0.798 1.11120950351e-38
0.0782726205727 -0.0738420948799 0.798 2.35001283739e-38
0.0797494624703 -0.0738420948799 0.798 2.35097805178e-38
0.0810227296702 -0.0736570269729 0.796 2.35069204676e-38
0.0824958702097 -0.0736570269729 0.796 1.6303683039e-38
0.0839690107491 -0.0736570269729 0.796 2.1419912014e-38
0.0854421512886 -0.0736570269729 0.796 2.3431337231e-38
0.0871336719583 -0.0738420948799 0.798 2.34706198309e-38
0.0886105138558 -0.0738420948799 0.798 1.43353057108e-38
0.0898615729069 -0.0736570269729 0.796 1.61630473238e-38
-0.0385977626771 -0.0788037654657 0.869 2.34907228586e-38
-0.0369895225655 -0.0788037654657 0.869 2.34957535201e-38
-0.035381282454 -0.0788037654657 0.869 2.35047666719e-38
-0.0337730423424 -0.0788037654657 0.869 6.15584810184e-39
-0.0321648022309 -0.0788037654657 0.869 1.36067748431e-38
-0.0305565621193 -0.0788037654657 0.869 1.19652237571e-38
-0.0280155797567 -0.0762646337821 0.841 1.19641391521e-38
-0.0263962355707 -0.0760832672332 0.839 1.25173087274e-38
-0.0248435158313 -0.0760832672332 0.839 1.18733518272e-38
-0.0232907960918 -0.0760832672332 0.839 1.10425415858e-38
-0.0217380763524 -0.0760832672332 0.839 1.17793387132e-38
-0.0201372389571 -0.0759019006844 0.837 1.06762996205e-38
-0.0185882205758 -0.0759019006844 0.837 1.08599453894e-38
-0.0169984872549 -0.0757205341356 0.835 1.02127935288e-38
-0.0154161566504 -0.0755391675868 0.833 1.04875699407e-38
-0.0138079165388 -0.0751764344891 0.829 1.08556434032e-38
-0.0121848709947 -0.0746323348426 0.823 9.10789771561e-39
-0.0106358526134 -0.0744509682938 0.821 1.19674041775e-38
-0.00904982065069 -0.0739068686473 0.815 9.39350756601e-39
-0.00754151720891 -0.0739068686473 0.815 1.0777165084e-38
-0.00601840833457 -0.0737255020985 0.813 2.16491742519e-38
-0.00450270217651 -0.0735441355497 0.811 7.82287759655e-39
-0.00300180145101 -0.0735441355497 0.811 7.28310443459e-39
-0.00149349800922 -0.073181402452 0.807 3.96586102673e-39
0.0 -0.073181402452 0.807 1.45535929791e-38
0.00148979665109 -0.0730000359032 0.805 1.97069745803e-38
0.00297959330217 -0.0730000359032 0.805 1.18754775969e-38
0.00446938995326 -0.0730000359032 0.805 2.11694439265e-39
0.00595918660434 -0.0730000359032 0.805 9.77237102661e-39
0.00743047646473 -0.0728186693543 0.803 5.97398478454e-39
0.00891657175768 -0.0728186693543 0.803 9.27538511196e-39
0.0104026670506 -0.0728186693543 0.803 7.4386751888e-39
0.0118887623436 -0.0728186693543 0.803 1.00100690812e-38
0.0133748576365 -0.0728186693543 0.803 2.34681269209e-38
0.0148609529295 -0.0728186693543 0.803 1.561313857e-38
0.0163470482224 -0.0728186693543 0.803 2.3464746989e-38
0.0178109353665 -0.0727279860799 0.802 1.89364411925e-38
0.0192470623246 -0.0725466195311 0.8 2.34507354057e-38
0.0207276055803 -0.0725466195311 0.8 2.34691456649e-38
0.022152628464 -0.0723652529823 0.798 1.89482457307e-38
0.0236294703616 -0.0723652529823 0.798 1.16631080121e-38
0.0251063122592 -0.0723652529823 0.798 1.18468504706e-38
0.0265831541568 -0.0723652529823 0.798 2.02538200957e-38
0.0280599960544 -0.0723652529823 0.798 1.66621365875e-38
0.0295368379519 -0.0723652529823 0.798 7.98968816575e-39
0.0310136798495 -0.0723652529823 0.798 1.9145945122e-38
0.0324905217471 -0.0723652529823 0.798 2.07143274087e-38
0.0339673636447 -0.0723652529823 0.798 1.01026220422e-38
0.0354442055423 -0.0723652529823 0.798 1.27794846635e-38
0.0369210474399 -0.0723652529823 0.798 1.34252015946e-38
0.0383978893375 -0.0723652529823 0.798 1.34266421294e-38
0.0397747945654 -0.0721838864334 0.796 1.35192006956e-38
0.0412479351048 -0.0721838864334 0.796 1.41627722387e-38
0.0427210756443 -0.0721838864334 0.796 1.34281008811e-38
0.0441942161837 -0.0721838864334 0.796 1.37983113237e-38
0.0456673567232 -0.0721838864334 0.796 1.45329994969e-38
0.0471404972627 -0.0721838864334 0.796 1.41660218498e-38
0.0486136378021 -0.0721838864334 0.796 1.50847481555e-38
0.0500867783416 -0.0721838864334 0.796 1.55450060374e-38
0.051559918881 -0.0721838864334 0.796 1.51772997152e-38
0.0530330594205 -0.0721838864334 0.796 1.09416971419e-38
0.05450619996 -0.0721838864334 0.796 1.27737435437e-38
0.0559793404994 -0.0721838864334 0.796 1.268226678e-38
0.0574524810389 -0.0721838864334 0.796 1.24078364887e-38
0.0589256215783 -0.0721838864334 0.796 1.28677426447e-38
0.0603987621178 -0.0721838864334 0.796 1.00100690812e-38
0.0618719026572 -0.0721838864334 0.796 2.35011036777e-38
0.0633450431967 -0.0721838864334 0.796 2.34927042947e-38
0.064655323978 -0.0720025198846 0.794 2.35097566957e-38
0.0661247631593 -0.0720025198846 0.794 2.35094119763e-38
0.0677644648151 -0.0721838864334 0.796 2.35098351684e-38
0.0692376053545 -0.0721838864334 0.796 2.34932522024e-38
0.070710745894 -0.0721838864334 0.796 1.95275985678e-38
0.0721838864334 -0.0721838864334 0.796 8.44894832314e-39
0.0738420948799 -0.0723652529823 0.798 2.23501976307e-38
0.0753189367775 -0.0723652529823 0.798 2.34739325004e-38
0.0767957786751 -0.0723652529823 0.798 4.9591476211e-39
0.0782726205727 -0.0723652529823 0.798 2.34856753816e-38
0.0797494624703 -0.0723652529823 0.798 2.34968086979e-38
0.0810227296702 -0.0721838864334 0.796 2.35097931294e-38
0.0824958702097 -0.0721838864334 0.796 2.3509786123e-38
0.0839690107491 -0.0721838864334 0.796 2.11019195574e-38
0.0856568300607 -0.0723652529823 0.798 2.08803784741e-38
0.086915291828 -0.0721838864334 0.796 2.19598477266e-38
0.0883884323675 -0.0721838864334 0.796 2.34731141421e-38
0.0898615729069 -0.0721838864334 0.796 2.34799524787e-38
0.0911052292418 -0.0720025198846 0.794 1.01951750032e-38
-0.0385977626771 -0.0771955253541 0.869 2.34935955205e-38
-0.0369895225655 -0.0771955253541 0.869 2.34928486284e-38
-0.035381282454 -0.0771955253541 0.869 2.35044093407e-38
-0.0337730423424 -0.0771955253541 0.869 1.09499479872e-38
-0.0321648022309 -0.0771955253541 0.869 1.30507199943e-38
-0.0305565621193 -0.0771955253541 0.869 1.19655866934e-38
-0.0289483220078 -0.0771955253541 0.869 1.15056819387e-38
-0.0263962355707 -0.0745305474938 0.839 1.14131359842e-38
-0.0248435158313 -0.0745305474938 0.839 1.15053147985e-38
-0.0233463164639 -0.0747082126845 0.841 1.13184194184e-38
-0.0217380763524 -0.0745305474938 0.839 1.15967845557e-38
-0.0201853566129 -0.0745305474938 0.839 1.10443114258e-38
-0.0185882205758 -0.0743528823031 0.837 1.11368629855e-38
-0.0170392021945 -0.0743528823031 0.837 1.08581475235e-38
-0.0154161566504 -0.0739975519217 0.833 1.12279768129e-38
-0.0138079165388 -0.0736422215403 0.829 1.04893355768e-38
-0.0122144818598 -0.073286891159 0.825 1.00298315935e-38
-0.0106358526134 -0.0729315607776 0.821 9.66138118175e-39
-0.00907202879953 -0.0725762303962 0.817 1.10508400753e-38
-0.00754151720891 -0.0723985652055 0.815 6.17060097207e-39
-0.00603321376713 -0.0723985652055 0.815 1.92547125075e-38
-0.00451380625093 -0.0722209000148 0.813 1.48242579814e-38
-0.00300180145101 -0.0720432348242 0.811 8.28466149249e-39
-0.00149719936736 -0.0718655696335 0.809 3.32049161769e-39
0.0 -0.0716879044428 0.807 1.62102360496e-38
0.00148979665109 -0.0715102392521 0.805 1.98917147634e-38
0.00297959330217 -0.0715102392521 0.805 1.04021636019e-38
0.00446938995326 -0.0715102392521 0.805 4.60657952618e-39
0.00595918660434 -0.0715102392521 0.805 2.68412555128e-39
0.00743047646473 -0.0713325740614 0.803 7.1012313082e-39
0.00891657175768 -0.0713325740614 0.803 6.44293632212e-39
0.0104026670506 -0.0713325740614 0.803 7.98968816575e-39
0.0118887623436 -0.0713325740614 0.803 7.53051068496e-39
0.0133582015249 -0.0712437414661 0.802 8.99987862348e-39
0.0148424461388 -0.0712437414661 0.802 2.34741497017e-38
0.0163266907526 -0.0712437414661 0.802 1.94982679897e-38
0.0177665190688 -0.0710660762754 0.8 2.34508068719e-38
0.0192470623246 -0.0710660762754 0.8 2.34594640938e-38
0.0206757865664 -0.0708884110847 0.798 2.34658512122e-38
0.022152628464 -0.0708884110847 0.798 2.1154821377e-38
0.0236294703616 -0.0708884110847 0.798 2.29037231358e-38
0.0251063122592 -0.0708884110847 0.798 1.36834889275e-38
0.0265831541568 -0.0708884110847 0.798 9.55089160043e-39
0.0280599960544 -0.0708884110847 0.798 1.95150989855e-38
0.0295368379519 -0.0708884110847 0.798 8.1751528201e-39
0.0310136798495 -0.0708884110847 0.798 1.27651633932e-38
0.0324905217471 -0.0708884110847 0.798 1.26732984698e-38
0.0339673636447 -0.0708884110847 0.798 2.15355709854e-38
0.0354442055423 -0.0708884110847 0.798 1.60134559101e-38
0.0369210474399 -0.0708884110847 0.798 1.17631943536e-38
0.0383016540259 -0.070710745894 0.796 1.28735005801e-38
0.0397747945654 -0.070710745894 0.796 1.34248540726e-38
0.0412479351048 -0.070710745894 0.796 1.42542854362e-38
0.0427210756443 -0.070710745894 0.796 1.3703632593e-38
0.0441942161837 -0.070710745894 0.796 1.45319134906e-38
0.0456673567232 -0.070710745894 0.796 1.46215741715e-38
0.0471404972627 -0.070710745894 0.796 1.47155928907e-38
0.0484914929835 -0.0705330807033 0.794 1.517584797e-38
0.0499609321648 -0.0705330807033 0.794 1.39794753931e-38
0.0514303713462 -0.0705330807033 0.794 1.48088885398e-38
0.0528998105275 -0.0705330807033 0.794 9.74317217051e-39
0.0543692497088 -0.0705330807033 0.794 1.31432561397e-38
0.0558386888901 -0.0705330807033 0.794 1.27762546706e-38
0.0573081280714 -0.0705330807033 0.794 1.24996719849e-38
0.0587775672528 -0.0705330807033 0.794 1.27748407604e-38
0.0602470064341 -0.0705330807033 0.794 9.82639808891e-39
0.0617164456154 -0.0705330807033 0.794 2.05077704098e-38
0.0631858847967 -0.0705330807033 0.794 2.34731589837e-38
0.064655323978 -0.0705330807033 0.794 2.34766832493e-38
0.0661247631593 -0.0705330807033 0.794 2.34890805368e-38
0.0675942023407 -0.0705330807033 0.794 2.35037114941e-38
0.069063641522 -0.0705330807033 0.794 2.20267288997e-38
0.0705330807033 -0.0705330807033 0.794 1.25818217061e-38
0.0720025198846 -0.0705330807033 0.794 2.14178170728e-38
0.0736570269729 -0.070710745894 0.796 2.0123853867e-38
0.0751301675124 -0.070710745894 0.796 1.74489096232e-38
0.0766033080518 -0.070710745894 0.796 1.28637853778e-38
0.0780764485913 -0.070710745894 0.796 1.20322744873e-38
0.0797494624703 -0.0708884110847 0.798 1.42345019045e-38
0.0810227296702 -0.070710745894 0.796 1.21230029577e-38
0.0824958702097 -0.070710745894 0.796 2.35091261114e-38
0.0839690107491 -0.070710745894 0.796 2.3509786123e-38
0.0856568300607 -0.0708884110847 0.798 2.35097833204e-38
0.086915291828 -0.070710745894 0.796 2.35097987346e-38
0.0883884323675 -0.070710745894 0.796 1.92536124882e-38
0.0898615729069 -0.070710745894 0.796 2.34953541501e-38
0.0911052292418 -0.0705330807033 0.794 9.65026047713e-39
0.0925746684231 -0.0705330807033 0.794 1.00100690812e-38
0.0940441076044 -0.0705330807033 0.794 1.23142507708e-38
-0.0369895225655 -0.0755872852426 0.869 2.34925123168e-38
-0.035381282454 -0.0755872852426 0.869 2.3499752826e-38
-0.0337730423424 -0.0755872852426 0.869 1.86061355262e-38
-0.0321648022309 -0.0755872852426 0.869 1.157485984e-38
-0.0305565621193 -0.0755872852426 0.869 1.23339586324e-38
-0.0289483220078 -0.0755872852426 0.869 1.19655740817e-38
-0.0272771588079 -0.07541332141 0.867 1.13216424049e-38
-0.0249619592917 -0.0733257554194 0.843 1.02152640179e-38
-0.023401836836 -0.0733257554194 0.843 1.2510090639e-38
-0.0217898953663 -0.0731517915869 0.841 1.11235744721e-38
-0.0201853566129 -0.0729778277543 0.839 1.05754313544e-38
-0.0186326368734 -0.0729778277543 0.839 1.10410912419e-38
-0.0170392021945 -0.0728038639218 0.837 1.11336456042e-38
-0.0154531702318 -0.0726299000892 0.835 1.13166075395e-38
-0.0138079165388 -0.0721080085916 0.829 1.10418157132e-38
-0.0122144818598 -0.0717600809265 0.825 1.00309274089e-38
-0.0106617621204 -0.0715861170939 0.823 9.93691429489e-39
-0.00909423694836 -0.0712381894288 0.819 9.93621084306e-39
-0.00756002399961 -0.0710642255963 0.817 9.11329972119e-39
-0.00603321376713 -0.0708902617637 0.815 1.15118154221e-38
-0.00451380625093 -0.0707162979312 0.813 2.01720136926e-38
-0.00300920416729 -0.0707162979312 0.813 1.24250556443e-38
-0.00149719936736 -0.0703683702661 0.809 3.12243349404e-39
0.0 -0.0703683702661 0.809 1.74984427214e-38
0.00149349800922 -0.0701944064336 0.807 1.98917147634e-38
0.00298699601845 -0.0701944064336 0.807 9.29690905637e-39
0.00446938995326 -0.070020442601 0.805 5.15832678352e-39
0.00595918660434 -0.070020442601 0.805 4.70846653622e-39
0.00744898325543 -0.070020442601 0.805 3.69827467718e-39
0.00891657175768 -0.0698464787685 0.803 4.70667847938e-39
0.0104026670506 -0.0698464787685 0.803 8.20109505857e-39
0.0118887623436 -0.0698464787685 0.803 5.69882301549e-39
0.0133582015249 -0.0697594968522 0.802 7.25500419648e-39
0.0148424461388 -0.0697594968522 0.802 7.34683969264e-39
0.0162859758131 -0.0695855330196 0.8 2.34562481138e-38
0.0177665190688 -0.0695855330196 0.8 2.21773082288e-38
0.0192470623246 -0.0695855330196 0.8 2.34701251725e-38
0.0206757865664 -0.0694115691871 0.798 1.97805049147e-38
0.022152628464 -0.0694115691871 0.798 1.88287878392e-38
0.0236294703616 -0.0694115691871 0.798 2.34787263425e-38
0.0251063122592 -0.0694115691871 0.798 2.10541647071e-38
0.0265831541568 -0.0694115691871 0.798 1.2765133966e-38
0.0279896702497 -0.0692376053545 0.796 8.7243819441e-39
0.0294628107892 -0.0692376053545 0.796 1.60035024872e-38
0.0309359513286 -0.0692376053545 0.796 2.02591898714e-38
0.0324090918681 -0.0692376053545 0.796 1.09284380558e-38
0.0338822324075 -0.0692376053545 0.796 1.2399612268e-38
0.035355372947 -0.0692376053545 0.796 2.19987421668e-38
0.0368285134865 -0.0692376053545 0.796 1.72084580171e-38
0.0383016540259 -0.0692376053545 0.796 1.01047744366e-38
0.0397747945654 -0.0692376053545 0.796 1.30553905221e-38
0.0412479351048 -0.0692376053545 0.796 1.39776999479e-38
0.0427210756443 -0.0692376053545 0.796 1.39794753931e-38
0.0441942161837 -0.0692376053545 0.796 1.46230329232e-38
0.0456673567232 -0.0692376053545 0.796 1.45301156246e-38
0.0471404972627 -0.0692376053545 0.796 1.45315603633e-38
0.0484914929835 -0.069063641522 0.794 1.47144858649e-38
0.0499609321648 -0.069063641522 0.794 1.4350795664e-38
0.0514303713462 -0.069063641522 0.794 1.49947007162e-38
0.0528998105275 -0.069063641522 0.794 1.09416971419e-38
0.0543692497088 -0.069063641522 0.794 1.25944123728e-38
0.0558386888901 -0.069063641522 0.794 1.25943773403e-38
0.0573081280714 -0.069063641522 0.794 1.27759099512e-38
0.0587775672528 -0.069063641522 0.794 1.2685854104e-38
0.0602470064341 -0.069063641522 0.794 9.73456259275e-39
0.0617164456154 -0.069063641522 0.794 1.5703869843e-38
0.0630267263967 -0.0688896776894 0.792 2.34862106776e-38
0.0644924642199 -0.0688896776894 0.792 2.34970329056e-38
0.0659582020431 -0.0688896776894 0.792 2.35030753046e-38
0.0674239398663 -0.0688896776894 0.792 2.338074335e-38
0.0688896776894 -0.0688896776894 0.792 2.35004576791e-38
0.0703554155126 -0.0688896776894 0.792 2.35097244658e-38
0.0718211533358 -0.0688896776894 0.792 2.35098323658e-38
0.0734719590659 -0.069063641522 0.794 2.14713102404e-38
0.0751301675124 -0.0692376053545 0.796 1.39828399107e-38
0.0764108374286 -0.069063641522 0.794 7.80601717343e-39
0.0778802766099 -0.069063641522 0.794 2.34839657975e-38
0.0795495891307 -0.0692376053545 0.796 2.264405132e-38
0.0810227296702 -0.0692376053545 0.796 2.02153264268e-38
0.0824958702097 -0.0692376053545 0.796 2.35033065189e-38
0.0839690107491 -0.0692376053545 0.796 2.35071937208e-38
0.0854421512886 -0.0692376053545 0.796 2.35098141489e-38
0.086915291828 -0.0692376053545 0.796 2.35054406964e-38
0.0883884323675 -0.0692376053545 0.796 2.35098015372e-38
0.0898615729069 -0.0692376053545 0.796 2.02613212463e-38
0.0911052292418 -0.069063641522 0.794 2.34881458708e-38
0.0925746684231 -0.069063641522 0.794 1.00100690812e-38
0.0940441076044 -0.069063641522 0.794 1.48059892533e-38
0.0955135467857 -0.069063641522 0.794 1.28734977775e-38
0.0972272756042 -0.0692376053545 0.796 1.60053031557e-38
-0.0370746538027 -0.0741493076054 0.871 2.34910745846e-38
-0.035462712333 -0.0741493076054 0.871 2.34957703357e-38
-0.0338507708634 -0.0741493076054 0.871 2.34939472464e-38
-0.0322388293937 -0.0741493076054 0.871 8.0815236619e-39
-0.0305565621193 -0.073979045131 0.869 1.15935139251e-38
-0.0289483220078 -0.073979045131 0.869 1.22385610355e-38
-0.0273400818963 -0.073979045131 0.869 8.45963462523e-39
-0.0256726200545 -0.0738087826566 0.867 1.97932174943e-38
-0.023401836836 -0.0717656329637 0.843 2.06308394475e-38
-0.0217898953663 -0.0715953704893 0.841 2.01677004959e-38
-0.0202334742687 -0.0715953704893 0.841 1.50987583376e-38
-0.0186326368734 -0.0714251080149 0.839 1.14980911049e-38
-0.017079917134 -0.0714251080149 0.839 1.07591023468e-38
-0.0154901838131 -0.0712548455405 0.837 1.05794334629e-38
-0.0139411654318 -0.0712548455405 0.837 1.0950665452e-38
-0.0122737035901 -0.0705737956428 0.829 1.0029463052e-38
-0.0106617621204 -0.0700630082196 0.823 1.0396440699e-38
-0.00909423694836 -0.0697224832708 0.819 1.06726842705e-38
-0.0075785307903 -0.0697224832708 0.819 1.00269617342e-38
-0.00604801919968 -0.0695522207964 0.817 8.0062417045e-39
-0.00452491032535 -0.069381958322 0.815 1.29840770419e-38
-0.00300920416729 -0.0692116958476 0.813 1.99864719668e-38
-0.0015009007255 -0.0690414333731 0.811 1.23321439509e-38
0.0 -0.0688711708987 0.809 1.81408441802e-38
0.00149349800922 -0.0687009084243 0.807 1.98906427701e-38
0.00298699601845 -0.0687009084243 0.807 8.55899649544e-39
0.00446938995326 -0.0685306459499 0.805 7.55824658546e-39
0.00595918660434 -0.0685306459499 0.805 3.04284394516e-39
0.00744898325543 -0.0685306459499 0.805 1.47453830947e-38
0.00891657175768 -0.0683603834755 0.803 5.61420700902e-39
0.0104026670506 -0.0683603834755 0.803 4.24533459116e-39
0.011873956911 -0.0682752522383 0.802 7.83842640431e-39
0.0133248893016 -0.0681049897639 0.8 4.69221988182e-39
0.0148054325574 -0.0681049897639 0.8 7.80601717343e-39
0.0162859758131 -0.0681049897639 0.8 7.62234618111e-39
0.0177665190688 -0.0681049897639 0.8 2.18246014053e-38
0.0191989446688 -0.0679347272895 0.798 2.21880856153e-38
0.0206757865664 -0.0679347272895 0.798 1.59865509796e-38
0.022152628464 -0.0679347272895 0.798 2.34751320119e-38
0.0236294703616 -0.0679347272895 0.798 1.95610896011e-38
0.0250433891708 -0.0677644648151 0.796 2.11221641163e-38
0.0265165297102 -0.0677644648151 0.796 1.24896274775e-38
0.0279896702497 -0.0677644648151 0.796 9.91823358506e-39
0.0294628107892 -0.0677644648151 0.796 8.17335915806e-39
0.0309359513286 -0.0677644648151 0.796 1.05610820582e-38
0.0324090918681 -0.0677644648151 0.796 2.14286771359e-38
0.0338822324075 -0.0677644648151 0.796 1.44457952921e-38
0.035355372947 -0.0677644648151 0.796 1.07447530505e-38
0.0368285134865 -0.0677644648151 0.796 2.08956147923e-38
0.0382054187143 -0.0675942023407 0.794 1.84134822108e-38
0.0396748578956 -0.0675942023407 0.794 1.22324163418e-38
0.0412479351048 -0.0677644648151 0.796 1.44321634607e-38
0.0427210756443 -0.0677644648151 0.796 1.40680612781e-38
0.0440831754396 -0.0675942023407 0.794 1.48981694689e-38
0.0455526146209 -0.0675942023407 0.794 1.44418982811e-38
0.0470220538022 -0.0675942023407 0.794 1.4532324071e-38
