# .PCD v0.7 - Point Cloud Data file format
VERSION 0.7
FIELDS x y z rgb
SIZE 4 4 4 4
TYPE F F F F
COUNT 1 1 1 1
WIDTH 842
HEIGHT 1
VIEWPOINT 0 0 0 1 0 0 0
POINTS 842
DATA ascii
-0.0311191685565 -0.0737032939496 0.885 1.38183723125e-39
-0.0294813175799 -0.0737032939496 0.885 1.84280837408e-39
-0.0278434666032 -0.0737032939496 0.885 1.75097287792e-39
-0.0262648373568 -0.0738698550659 0.887 2.39669121028e-39
-0.024623285022 -0.0738698550659 0.887 2.3037795169e-39
-0.0230335517011 -0.0740364161822 0.889 2.12046725699e-39
-0.021436415664 -0.0742029772985 0.891 3.49872417067e-39
-0.0198540850594 -0.0744528189729 0.894 1.74954635608e-39
-0.0181995779711 -0.0744528189729 0.894 1.56698238955e-39
-0.0165450708829 -0.0744528189729 0.894 0.0
-0.0149238760178 -0.0746193800891 0.896 0.0
-0.0132656675714 -0.0746193800891 0.896 2.38772290011e-39
-0.011633368632 -0.0747859412054 0.898 1.25991417551e-38
-0.00997145882739 -0.0747859412054 0.898 1.79640059192e-38
-0.00830954902282 -0.0747859412054 0.898 1.98079409373e-38
-0.00666984736709 -0.0750357828798 0.901 2.05437109129e-38
-0.00500238552532 -0.0750357828798 0.901 1.85154014507e-38
-0.00334232639983 -0.0752023439961 0.903 1.76881392971e-38
-0.00167671523712 -0.0754521856705 0.906 6.80874108234e-39
0.0 -0.0754521856705 0.906 6.42849454015e-39
0.00168041659526 -0.0756187467868 0.908 8.1917568056e-39
0.0033682359068 -0.075785307903 0.91 7.37205325591e-39
0.00506900997183 -0.0760351495774 0.913 1.40129846432e-45
0.00675867996244 -0.0760351495774 0.913 1.61238081642e-38
0.00846685674374 -0.0762017106937 0.915 2.93981207428e-39
0.0101602280925 -0.0762017106937 0.915 5.15786295373e-39
0.0118535994412 -0.0762017106937 0.915 6.17273374834e-39
0.01354697079 -0.0762017106937 0.915 6.90883162775e-39
0.0152903104736 -0.0764515523681 0.918 7.64567499795e-39
0.0169892338596 -0.0764515523681 0.918 7.73894262114e-39
0.0187288721851 -0.0766181134844 0.92 8.01303379816e-39
0.0204314969292 -0.0766181134844 0.92 8.01197441652e-39
0.022206298157 -0.0768679551588 0.923 8.56586706181e-39
0.0240440224732 -0.0772843579495 0.928 8.84351333304e-39
0.0257614526498 -0.0772843579495 0.928 8.84279726953e-39
0.0274788828265 -0.0772843579495 0.928 9.48816107338e-39
0.0292592360915 -0.0774509190657 0.93 9.11937575133e-39
0.0309803676263 -0.0774509190657 0.93 7.54988223493e-39
0.0328069878681 -0.0777007607401 0.933 1.17607112527e-38
0.0346076986028 -0.0778673218564 0.935 1.46018452904e-38
0.036338083533 -0.0778673218564 0.935 1.48773531802e-38
0.0381906132817 -0.0781171635308 0.938 1.4510008393e-38
0.0399265502491 -0.0781171635308 0.938 1.48773503776e-38
0.0417513198118 -0.0782837246471 0.94 1.88521320704e-38
0.0436297590675 -0.0785335663215 0.943 1.53642819758e-38
0.0453749494302 -0.0785335663215 0.943 1.36200955863e-38
0.0472700447975 -0.0787834079959 0.946 8.0029612648e-39
0.0490207871974 -0.0787834079959 0.946 9.94015689954e-39
0.0508788689834 -0.0789499691122 0.948 6.42848473106e-40
0.0526333127414 -0.0789499691122 0.948 1.83199399331e-38
0.054559869653 -0.0791998107866 0.951 8.37138365055e-39
0.0563198654482 -0.0791998107866 0.951 2.04425231508e-38
0.0582630784714 -0.079449652461 0.954 1.85096042789e-38
0.0601544724806 -0.0796162135772 0.956 1.76809548398e-38
0.0619237216712 -0.0796162135772 0.956 1.41724790332e-38
0.0638928442013 -0.0798660552517 0.959 1.31324759506e-38
0.0656676454291 -0.0798660552517 0.959 1.37875213255e-38
0.0676534240709 -0.0801158969261 0.962 1.83133356134e-38
0.0695781303034 -0.0802824580423 0.964 2.14574009519e-38
0.0713621849265 -0.0802824580423 0.964 1.60200041779e-38
0.0731462395497 -0.0802824580423 0.964 1.21222854929e-38
0.0749302941728 -0.0802824580423 0.964 1.37774838246e-38
0.076953086396 -0.0805322997167 0.967 2.34946773229e-38
0.0789869826936 -0.0807821413911 0.97 2.32080291104e-38
-0.0707940264521 -0.0759740771681 0.933 2.1733243752e-38
-0.0690673428801 -0.0759740771681 0.933 2.33956615734e-38
-0.0673406593081 -0.0759740771681 0.933 3.03057137321e-39
-0.0650513692989 -0.0753226381356 0.925 2.85230098518e-39
-0.0633394911595 -0.0753226381356 0.925 3.40580827339e-39
-0.0612944907875 -0.0749154887403 0.92 3.40688166802e-39
-0.0594623185085 -0.0747526289822 0.918 3.86139562752e-39
-0.0575746258575 -0.074508339345 0.915 3.85852576826e-39
-0.0557591096901 -0.0743454795868 0.913 7.2690396019e-39
-0.0538917745088 -0.0741011899496 0.91 9.57781895172e-39
-0.0520929144531 -0.0739383301915 0.908 5.88536386706e-39
-0.0501348959974 -0.0735311807962 0.903 4.04077023874e-39
-0.0483563934114 -0.073368321038 0.901 2.66574051543e-39
-0.0465334745278 -0.0731240314008 0.898 6.07948153943e-39
-0.0447716280535 -0.0729611716427 0.896 1.00431102977e-38
-0.0430171842954 -0.0727983118846 0.894 7.1782480731e-39
-0.0412238762769 -0.0725540222474 0.891 1.65303893084e-39
-0.0394860886305 -0.0723911624893 0.889 1.56227963191e-39
-0.0378408349376 -0.0723911624893 0.889 1.01019045774e-39
-0.0361141513656 -0.0722283027311 0.887 4.5917748079e-40
-0.0344725990308 -0.0722283027311 0.887 5.51371709355e-40
-0.032831046696 -0.0722283027311 0.887 2.57820980815e-39
-0.0311191685565 -0.072065442973 0.885 1.84174198595e-39
-0.0294813175799 -0.072065442973 0.885 1.75061414551e-39
-0.0278434666032 -0.072065442973 0.885 1.75061414551e-39
-0.0262648373568 -0.0722283027311 0.887 1.75061414551e-39
-0.024623285022 -0.0722283027311 0.887 1.84280837408e-39
-0.0230335517011 -0.0723911624893 0.889 2.76116333566e-39
-0.0215085921477 -0.0727983118846 0.894 7.34683969264e-40
-0.0198540850594 -0.0727983118846 0.894 2.20405190779e-39
-0.0182402929107 -0.0729611716427 0.896 7.25751812593e-39
-0.0165820844643 -0.0729611716427 0.896 1.41800992942e-38
-0.0149238760178 -0.0729611716427 0.896 1.84285363602e-38
-0.0132952784365 -0.0731240314008 0.898 1.97146733141e-38
-0.011633368632 -0.0731240314008 0.898 1.98972667079e-38
-0.00997145882739 -0.0731240314008 0.898 1.67647564766e-38
-0.00833730920887 -0.073368321038 0.901 1.6394869734e-38
-0.00668465279965 -0.0735311807962 0.903 1.43607757117e-38
-0.00501348959974 -0.0735311807962 0.903 9.94802519041e-39
-0.00335343047424 -0.0737754704334 0.906 1.11504948169e-38
-0.00167671523712 -0.0737754704334 0.906 1.54833615167e-38
0.0 -0.0739383301915 0.908 2.47958642224e-39
0.00168041659526 -0.0739383301915 0.908 8.09489204925e-39
0.0033682359068 -0.0741011899496 0.91 1.83707426076e-40
0.00506900997183 -0.0743454795868 0.913 1.19835793657e-38
0.006773485395 -0.074508339345 0.915 1.65894344205e-38
0.00846685674374 -0.074508339345 0.915 1.46936793853e-39
0.0101602280925 -0.074508339345 0.915 6.35679710422e-39
0.0118535994412 -0.074508339345 0.915 5.80070301904e-39
0.0135913870877 -0.0747526289822 0.918 7.27366388683e-39
0.0153236226969 -0.0749154887403 0.92 7.82934318767e-39
0.017026247441 -0.0749154887403 0.92 9.2115615721e-39
0.0187288721851 -0.0749154887403 0.92 8.93319223086e-39
0.0204981213757 -0.0751597783775 0.923 9.11760310877e-39
0.0222544158128 -0.0753226381356 0.925 1.11441048959e-38
0.0240440224732 -0.0755669277728 0.928 1.05926967528e-38
0.0257614526498 -0.0755669277728 0.928 1.07785271461e-38
0.0275381045567 -0.0757297875309 0.93 9.21085251508e-39
0.0293536207241 -0.0759740771681 0.933 9.20977211396e-39
0.0310803042961 -0.0759740771681 0.933 7.64317227889e-39
0.0328773136727 -0.0761369369263 0.935 1.09323981252e-38
0.0346076986028 -0.0761369369263 0.935 1.4510008393e-38
0.0364546763144 -0.0763812265635 0.938 1.56120343469e-38
0.0381906132817 -0.0763812265635 0.938 1.93134633469e-38
0.0399265502491 -0.0763812265635 0.938 1.57301736165e-38
0.0417513198118 -0.0765440863216 0.94 1.37126569551e-38
0.0436297590675 -0.0767883759588 0.943 3.21424236553e-39
0.0453749494302 -0.0767883759588 0.943 1.02135264079e-38
0.0472700447975 -0.077032665596 0.946 1.06841861283e-38
0.0490207871974 -0.077032665596 0.946 9.39456414505e-39
0.0508788689834 -0.0771955253541 0.948 1.65303893084e-39
0.0527998738577 -0.0774398149913 0.951 1.70252158222e-38
0.054559869653 -0.0774398149913 0.951 1.92529244506e-38
0.0564975306389 -0.0776841046285 0.954 1.84196156941e-38
0.05838522329 -0.0778469643866 0.956 1.94315829983e-38
0.0601544724806 -0.0778469643866 0.956 1.30711705441e-38
0.0621180429735 -0.0780912540238 0.959 1.91525298234e-38
0.0638928442013 -0.0780912540238 0.959 1.9244686217e-38
0.0658730708059 -0.078335543661 0.962 1.94283880378e-38
0.0676534240709 -0.078335543661 0.962 2.02613730944e-38
0.0695781303034 -0.0784984034192 0.964 1.95255933097e-38
0.0713621849265 -0.0784984034192 0.964 9.18713693987e-39
0.0733738730752 -0.0787426930564 0.967 1.35916534314e-38
0.0751634797356 -0.0787426930564 0.967 1.88442833977e-38
0.076953086396 -0.0787426930564 0.967 2.34925095142e-38
0.0789869826936 -0.0789869826936 0.97 2.34871299294e-38
-0.0725207100241 -0.0742473935961 0.933 2.05365054362e-38
-0.0707940264521 -0.0742473935961 0.933 2.10878743429e-38
-0.0690673428801 -0.0742473935961 0.933 2.34878586046e-38
-0.0673406593081 -0.0742473935961 0.933 3.489748854e-39
-0.0650513692989 -0.0736107599962 0.925 6.15909210779e-39
-0.0633394911595 -0.0736107599962 0.925 4.78442952467e-39
-0.061494364127 -0.0734516015962 0.923 4.41563719613e-39
-0.0597861873457 -0.0734516015962 0.923 6.71942652212e-39
-0.0577633951226 -0.0730537055962 0.918 5.70349354327e-39
-0.0558812545087 -0.0728149679962 0.915 3.76562808787e-39
-0.0538917745088 -0.0724170719962 0.91 7.17501107365e-39
-0.0520929144531 -0.0722579135962 0.908 1.03085862918e-38
-0.0503014571137 -0.0720987551962 0.906 6.71912804554e-39
-0.0484637327975 -0.0718600175963 0.903 2.66358812099e-39
-0.0466889315697 -0.0717008591963 0.901 2.94339939834e-39
-0.0448715647232 -0.0714621215963 0.898 2.93873587706e-39
-0.0431134196071 -0.0713029631963 0.896 9.20256943986e-39
-0.0413626772071 -0.0711438047963 0.894 4.68361030406e-39
-0.0395749212258 -0.0709050671963 0.891 1.1020259539e-39
-0.0378408349376 -0.0707459087963 0.889 7.35760166485e-40
-0.0361955812446 -0.0707459087963 0.889 1.28605567862e-39
-0.0344725990308 -0.0705867503963 0.887 2.76223953288e-40
-0.032831046696 -0.0705867503963 0.887 2.39561641436e-39
-0.0311894943612 -0.0705867503963 0.887 1.75133161033e-39
-0.0295479420264 -0.0705867503963 0.887 1.65841991695e-39
-0.0279063896916 -0.0705867503963 0.887 2.11939105977e-39
-0.0262648373568 -0.0705867503963 0.887 1.75133161033e-39
-0.0246788053941 -0.0707459087963 0.889 2.02899049324e-39
-0.0230853707151 -0.0709050671963 0.891 1.93500260264e-39
-0.0215085921477 -0.0711438047963 0.894 0.0
-0.0198540850594 -0.0711438047963 0.894 2.07326886225e-38
-0.0182402929107 -0.0713029631963 0.896 2.02664107624e-38
-0.0165820844643 -0.0713029631963 0.896 1.88842063909e-38
-0.0149571882411 -0.0714621215963 0.898 1.74094224338e-38
-0.0132952784365 -0.0714621215963 0.898 1.48311565737e-38
-0.011633368632 -0.0714621215963 0.898 1.43683777559e-38
-0.0100047710506 -0.0717008591963 0.901 1.2161461594e-38
-0.00833730920887 -0.0717008591963 0.901 1.85186090229e-38
-0.00668465279965 -0.0718600175963 0.903 1.3999532178e-38
-0.00501348959974 -0.0718600175963 0.903 1.20724553195e-38
-0.00335343047424 -0.0720987551962 0.906 1.51978217312e-38
-0.00168041659526 -0.0722579135962 0.908 7.17500827105e-39
0.0 -0.0722579135962 0.908 1.68552018847e-38
0.0016841179534 -0.0724170719962 0.91 1.9071782802e-38
0.0033682359068 -0.0724170719962 0.91 1.75124430943e-38
0.00506900997183 -0.0726558095962 0.913 1.28094065896e-38
0.006773485395 -0.0728149679962 0.915 6.25916303502e-39
0.00846685674374 -0.0728149679962 0.915 5.70205160715e-39
0.0101602280925 -0.0728149679962 0.915 1.01299333493e-38
0.0118924637017 -0.0730537055962 0.918 1.51970580235e-38
0.0135913870877 -0.0730537055962 0.918 1.3170568848e-38
0.0153236226969 -0.0732128639962 0.92 8.74015636091e-39
0.0170817678131 -0.0734516015962 0.923 1.25166094794e-38
0.0188306595339 -0.0736107599962 0.925 1.26223794875e-38
0.0205425376733 -0.0736107599962 0.925 1.29897593072e-38
0.0222544158128 -0.0736107599962 0.925 1.27110480491e-38
0.0240440224732 -0.0738494975962 0.928 1.20685274799e-38
0.0258169730219 -0.0740086559961 0.93 1.12395094993e-38
0.0275381045567 -0.0740086559961 0.93 1.14245845927e-38
0.0293536207241 -0.0742473935961 0.933 1.00391418205e-38
0.0310803042961 -0.0742473935961 0.933 8.74805548035e-39
0.0328773136727 -0.0744065519961 0.935 1.03860206436e-38
0.0346076986028 -0.0744065519961 0.935 1.68102145988e-38
0.0364546763144 -0.0746452895961 0.938 1.80364810758e-38
0.0381906132817 -0.0746452895961 0.938 1.30658400047e-38
0.0399265502491 -0.0746452895961 0.938 4.77544580022e-39
0.0417513198118 -0.0748044479961 0.94 9.29230579091e-39
0.0436297590675 -0.0750431855961 0.943 1.02275015574e-38
0.0455193023976 -0.0752819231961 0.946 9.94953438886e-39
0.0472700447975 -0.0752819231961 0.946 6.25593444336e-39
0.0491244252253 -0.0754410815961 0.948 2.93873587706e-39
0.0508788689834 -0.0754410815961 0.948 2.38772290011e-39
0.0527998738577 -0.0756798191961 0.951 1.38059273809e-38
0.054559869653 -0.0756798191961 0.951 1.98993756621e-38
0.0564975306389 -0.075918556796 0.954 1.82341258164e-38
0.05838522329 -0.076077715196 0.956 1.92482973631e-38
0.0603432417457 -0.076316452796 0.959 1.4545972718e-38
0.0621180429735 -0.076316452796 0.959 1.58395477642e-38
0.0638928442013 -0.076316452796 0.959 1.87912652703e-38
0.0658730708059 -0.076555190396 0.962 1.92454162935e-38
0.0677940756802 -0.076714348796 0.964 1.97989502063e-38
0.0695781303034 -0.076714348796 0.964 7.07240940139e-39
0.0715842664149 -0.076953086396 0.967 1.30406404544e-38
0.0733738730752 -0.076953086396 0.967 1.46018438891e-38
0.0751634797356 -0.076953086396 0.967 2.34544376362e-38
0.077191823996 -0.077191823996 0.97 2.34907256612e-38
0.0789869826936 -0.077191823996 0.97 2.34864180698e-38
0.0807821413911 -0.077191823996 0.97 2.34838845221e-38
-0.0725207100241 -0.0725207100241 0.933 2.016951798e-38
-0.0707940264521 -0.0725207100241 0.933 2.09978465218e-38
-0.0690673428801 -0.0725207100241 0.933 2.34896676809e-38
-0.0673406593081 -0.0725207100241 0.933 2.8469003809e-39
-0.0652623467129 -0.0721320674195 0.928 6.99101357879e-39
-0.0635449165362 -0.0721320674195 0.928 7.08783489488e-39
-0.06162761302 -0.0718988818567 0.925 5.14996243298e-39
-0.0597861873457 -0.0717434248149 0.923 4.96594391865e-39
-0.0578892412993 -0.0715102392521 0.92 1.16037209831e-38
-0.0558812545087 -0.0711215966475 0.915 5.98078668729e-39
-0.0540694396995 -0.0709661396056 0.913 3.94892913739e-39
-0.0522076565554 -0.0707329540428 0.91 3.94964379961e-39
-0.0504124978578 -0.070577497001 0.908 9.11971486556e-39
-0.0484637327975 -0.0701888543963 0.903 7.92152900844e-39
-0.0466889315697 -0.0700333973545 0.901 4.9677263703e-39
-0.0448715647232 -0.0698002117917 0.898 3.03057137321e-39
-0.0431134196071 -0.0696447547499 0.896 6.06724119734e-39
-0.0413626772071 -0.069489297708 0.894 7.81897638163e-39
-0.0395749212258 -0.0692561121452 0.891 8.65588227127e-39
-0.0379259661748 -0.0692561121452 0.891 2.57139389242e-39
-0.0361955812446 -0.0691006551034 0.889 6.42848473106e-40
-0.0344725990308 -0.0689451980615 0.887 0.0
-0.032831046696 -0.0689451980615 0.887 2.85335756422e-39
-0.0311894943612 -0.0689451980615 0.887 2.66968657191e-39
-0.0295479420264 -0.0689451980615 0.887 1.75133161033e-39
-0.0279063896916 -0.0689451980615 0.887 2.02719683121e-39
-0.0262648373568 -0.0689451980615 0.887 2.85335756422e-39
-0.0246788053941 -0.0691006551034 0.889 2.57785107575e-39
-0.0230853707151 -0.0692561121452 0.891 1.38147849885e-39
-0.0215085921477 -0.069489297708 0.894 4.14555653531e-39
-0.0198985013571 -0.0696447547499 0.896 1.75069934446e-38
-0.0182402929107 -0.0696447547499 0.896 1.29818139449e-38
-0.0165820844643 -0.0696447547499 0.896 1.21571455948e-38
-0.0149571882411 -0.0698002117917 0.898 1.23451143695e-38
-0.0133396947342 -0.0700333973545 0.901 1.34567938685e-38
-0.0116722328924 -0.0700333973545 0.901 1.0501905224e-38
-0.0100047710506 -0.0700333973545 0.901 1.45545921049e-38
-0.00835581599956 -0.0701888543963 0.903 1.98013968735e-38
-0.00670686094849 -0.0704220399591 0.906 1.8238752904e-38
-0.00503014571137 -0.0704220399591 0.906 1.98108248095e-38
-0.00335343047424 -0.0704220399591 0.906 1.94384353478e-38
-0.00168041659526 -0.070577497001 0.908 1.83346227384e-38
0.0 -0.070577497001 0.908 1.26195110295e-38
0.0016841179534 -0.0707329540428 0.91 5.14278778485e-39
0.0033682359068 -0.0707329540428 0.91 2.66322938858e-39
0.00506900997183 -0.0709661396056 0.913 1.47008540334e-39
0.006773485395 -0.0711215966475 0.915 6.98776396765e-39
0.00846685674374 -0.0711215966475 0.915 1.48290041793e-38
0.0101602280925 -0.0711215966475 0.915 1.55651637158e-38
0.0118924637017 -0.0713547822102 0.918 1.73121765243e-38
0.0135913870877 -0.0713547822102 0.918 1.74965831983e-38
0.0153236226969 -0.0715102392521 0.92 1.83274382812e-38
0.0170817678131 -0.0717434248149 0.923 5.78994104684e-39
0.0188306595339 -0.0718988818567 0.925 1.43730833161e-38
0.0205425376733 -0.0718988818567 0.925 1.2715714373e-38
0.0223265922965 -0.0721320674195 0.928 1.14256916184e-38
0.0240440224732 -0.0721320674195 0.928 1.0594861759e-38
0.0258169730219 -0.0722875244614 0.93 8.84566292489e-39
0.027626937152 -0.0725207100241 0.933 6.62798899472e-39
0.0294165438124 -0.072676167066 0.935 6.07155019012e-39
0.0311469287426 -0.072676167066 0.935 1.06831365557e-38
0.0328773136727 -0.072676167066 0.935 8.91666391548e-39
0.0346076986028 -0.072676167066 0.935 2.34512006368e-38
0.0364546763144 -0.0729093526288 0.938 5.32681750957e-39
0.0381906132817 -0.0729093526288 0.938 4.41350161727e-39
0.0399265502491 -0.0729093526288 0.938 1.03189559004e-38
0.0417513198118 -0.0730648096706 0.94 9.39672634858e-39
0.0437685599977 -0.0735311807962 0.946 6.62903996857e-39
0.0455193023976 -0.0735311807962 0.946 8.65836537215e-39
0.0473699814673 -0.073686637838 0.948 1.270814596e-38
0.0491244252253 -0.073686637838 0.948 6.15979415832e-39
0.0510398780625 -0.0739198234008 0.951 4.13295605952e-39
0.0527998738577 -0.0739198234008 0.951 6.16089698021e-39
0.0547319828065 -0.0741530089636 0.954 1.95309813023e-38
0.0564975306389 -0.0741530089636 0.954 1.88794924229e-38
0.05838522329 -0.0743084660054 0.956 1.80511512694e-38
0.0603432417457 -0.0745416515682 0.959 1.73139898045e-38
0.0621180429735 -0.0745416515682 0.959 6.33665764269e-39
0.0640927175408 -0.074774837131 0.962 1.69290363008e-38
0.066010021057 -0.0749302941728 0.964 1.897027134e-38
0.0677940756802 -0.0749302941728 0.964 1.28795738076e-38
0.0697946597545 -0.0751634797356 0.967 1.2214120989e-38
0.0715842664149 -0.0751634797356 0.967 1.52454168335e-38
0.0733738730752 -0.0751634797356 0.967 1.4510008393e-38
0.0751634797356 -0.0751634797356 0.967 2.34565970371e-38
0.077191823996 -0.0753966652984 0.97 2.34882271461e-38
0.0789869826936 -0.0753966652984 0.97 2.34835538157e-38
-0.0707940264521 -0.0707940264521 0.933 2.05368683725e-38
-0.0690673428801 -0.0707940264521 0.933 2.321091018e-38
-0.0673406593081 -0.0707940264521 0.933 2.38772290011e-39
-0.0654029983222 -0.0705663929266 0.93 3.86249004162e-39
-0.0635449165362 -0.0704146372428 0.928 7.26974025113e-39
-0.06162761302 -0.0701870037173 0.925 8.01051286222e-39
-0.0597861873457 -0.0700352480336 0.923 4.32416043238e-39
-0.0578892412993 -0.069807614508 0.92 5.05419629463e-39
-0.0560644717366 -0.0696558588243 0.918 1.04994235244e-38
-0.0540694396995 -0.069276469615 0.913 9.76146892456e-39
-0.0522076565554 -0.0690488360894 0.91 4.22909634456e-39
-0.0504124978578 -0.0688970804057 0.908 3.3067953265e-39
-0.0484637327975 -0.0685176911964 0.903 6.90133327967e-39
-0.0466889315697 -0.0683659355127 0.901 9.20866368688e-39
-0.0448715647232 -0.0681383019871 0.898 1.04051203417e-38
-0.0432096549187 -0.0681383019871 0.898 4.04076183095e-39
-0.0414552111606 -0.0679865463034 0.896 5.33257824756e-39
-0.0397081701189 -0.0678347906197 0.894 7.1789739457e-39
-0.0379259661748 -0.0676071570942 0.891 8.83349825292e-39
-0.0361955812446 -0.0674554014104 0.889 8.09300309892e-39
-0.0345503275517 -0.0674554014104 0.889 1.83670992316e-39
-0.032831046696 -0.0673036457267 0.887 5.89940627897e-39
-0.0311894943612 -0.0673036457267 0.887 1.84137344445e-39
-0.0295479420264 -0.0673036457267 0.887 1.84280837408e-39
-0.0279693127799 -0.0674554014104 0.889 1.84280837408e-39
-0.026324059087 -0.0674554014104 0.889 2.39597374547e-39
-0.0247343257662 -0.0676071570942 0.891 3.13101924973e-39
-0.023163099236 -0.0678347906197 0.894 9.1835496158e-41
-0.0215085921477 -0.0678347906197 0.894 6.7216335672e-39
-0.0198985013571 -0.0679865463034 0.896 1.40057273185e-38
-0.0182402929107 -0.0679865463034 0.896 1.67657429907e-38
-0.0166190980456 -0.0681383019871 0.898 1.19699054952e-38
-0.0149571882411 -0.0681383019871 0.898 1.55654173508e-38
-0.0133396947342 -0.0683659355127 0.901 1.79622276715e-38
-0.0116981423994 -0.0685176911964 0.903 1.78732396138e-38
-0.0100269791995 -0.0685176911964 0.903 2.02685659594e-38
-0.00838357618561 -0.068745324722 0.906 1.89771082752e-38
-0.00670686094849 -0.068745324722 0.906 1.63995542747e-38
-0.00503014571137 -0.068745324722 0.906 7.91579629642e-39
-0.00336083319052 -0.0688970804057 0.908 3.85709083864e-39
-0.00168041659526 -0.0688970804057 0.908 0.0
0.0 -0.0688970804057 0.908 1.29107793231e-39
0.0016841179534 -0.0690488360894 0.91 3.31432870705e-39
0.00337933998122 -0.069276469615 0.913 5.52376160094e-39
0.00506900997183 -0.069276469615 0.913 1.06787588993e-38
0.006773485395 -0.0694282252987 0.915 1.71324894235e-38
0.00846685674374 -0.0694282252987 0.915 1.54718722706e-38
0.0101602280925 -0.0694282252987 0.915 1.7773165884e-38
0.0118924637017 -0.0696558588243 0.918 1.7404779932e-38
0.0136209979528 -0.069807614508 0.92 1.71303019966e-38
0.0153735910318 -0.0700352480336 0.923 1.59314210954e-38
0.0171187813945 -0.0701870037173 0.925 1.41847305856e-38
0.0188306595339 -0.0701870037173 0.925 3.85710064772e-39
0.0206091621199 -0.0704146372428 0.928 8.26519465422e-40
0.0223265922965 -0.0704146372428 0.928 9.1835496158e-40
0.0240958414871 -0.0705663929266 0.93 1.02315443035e-38
0.02590025358 -0.0707940264521 0.933 2.8573036207e-39
0.0276861588823 -0.0709457821358 0.935 3.76525814507e-39
0.0294165438124 -0.0709457821358 0.935 4.4088212804e-39
0.0311469287426 -0.0709457821358 0.935 4.22445524404e-39
0.0329828023797 -0.0711734156614 0.938 1.07523200622e-38
0.034718739347 -0.0711734156614 0.938 2.34501146304e-38
0.0364546763144 -0.0711734156614 0.938 7.26433123906e-39
0.0381906132817 -0.0711734156614 0.938 1.13137727127e-38
0.0400116814863 -0.0713251713451 0.94 5.51945681206e-39
0.0418845687048 -0.0715528048707 0.943 1.05909339194e-38
0.0437685599977 -0.0717804383963 0.946 1.12369661426e-38
0.0455193023976 -0.0717804383963 0.946 8.84347129409e-39
0.0473699814673 -0.07193219408 0.948 8.93136073377e-39
0.0491244252253 -0.07193219408 0.948 9.66714191973e-39
0.0510398780625 -0.0721598276055 0.951 4.49993931174e-39
0.052966434974 -0.0723874611311 0.954 3.03057137321e-39
0.0547319828065 -0.0723874611311 0.954 2.02667064363e-38
0.0566159740994 -0.0725392168148 0.956 1.89706244672e-38
0.05838522329 -0.0725392168148 0.956 1.8236983064e-38
0.0603432417457 -0.0727668503404 0.959 9.74785250738e-39
0.0621180429735 -0.0727668503404 0.959 1.30406404544e-38
0.0640927175408 -0.072994483866 0.962 1.2030451398e-38
0.066010021057 -0.0731462395497 0.964 1.31324759506e-38
0.0677940756802 -0.0731462395497 0.964 1.46018438891e-38
0.0697946597545 -0.0733738730752 0.967 1.56120343469e-38
0.0715842664149 -0.0733738730752 0.967 1.55201988507e-38
0.0733738730752 -0.0733738730752 0.967 1.46018438891e-38
0.0751634797356 -0.0733738730752 0.967 2.34624096232e-38
0.077191823996 -0.0736015066008 0.97 2.34896564705e-38
-0.0709457821358 -0.0692153972057 0.935 2.08138139945e-38
-0.0692153972057 -0.0692153972057 0.935 2.32119933837e-38
-0.0673406593081 -0.0690673428801 0.933 2.38772290011e-39
-0.0654029983222 -0.0688452613918 0.93 4.04687990005e-39
-0.0635449165362 -0.0686972070662 0.928 7.91185023995e-39
-0.06162761302 -0.0684751255778 0.925 5.88645267597e-39
-0.0597861873457 -0.0683270712523 0.923 8.19637128144e-39
-0.0578892412993 -0.0681049897639 0.92 4.60074311807e-39
-0.0560644717366 -0.0679569354383 0.918 3.94892633479e-39
-0.05418788316 -0.06773485395 0.915 8.28284540968e-39
-0.0523797697089 -0.0675867996244 0.913 1.09608528919e-38
-0.050523538602 -0.067364718136 0.91 6.62793994928e-39
-0.0484637327975 -0.0668465279965 0.903 3.58158435016e-39
-0.0466889315697 -0.0666984736709 0.901 4.22588316718e-39
-0.0450214697279 -0.0666984736709 0.901 9.1132829056e-39
-0.0432096549187 -0.0664763921826 0.898 8.93281388028e-39
-0.0413626772071 -0.0661802835314 0.894 5.42475145665e-39
-0.0397081701189 -0.0661802835314 0.894 1.65303893084e-39
-0.0379259661748 -0.0659582020431 0.891 3.58159275795e-39
-0.0361955812446 -0.0658101477175 0.889 9.93797367653e-39
-0.0345503275517 -0.0658101477175 0.889 1.92854541932e-39
-0.0329050738588 -0.0658101477175 0.889 2.11868900924e-39
-0.0312598201658 -0.0658101477175 0.889 2.02719683121e-39
-0.0296145664729 -0.0658101477175 0.889 2.11903653126e-39
-0.0279693127799 -0.0658101477175 0.889 1.84244964167e-39
-0.0263832808172 -0.0659582020431 0.891 2.39597374547e-39
-0.0248176063243 -0.0661802835314 0.894 2.76116333566e-39
-0.023163099236 -0.0661802835314 0.894 0.0
-0.0215085921477 -0.0661802835314 0.894 8.10096807939e-39
-0.0199429176548 -0.0664763921826 0.898 1.74126342099e-38
-0.0182810078502 -0.0664763921826 0.898 2.05397228174e-38
-0.0166190980456 -0.0664763921826 0.898 2.02646002847e-38
-0.015007156576 -0.0666984736709 0.901 1.9712184608e-38
-0.013413721897 -0.0670686094849 0.906 1.86094005517e-38
-0.0117370066599 -0.0670686094849 0.906 1.45563619449e-38
-0.0100602914227 -0.0670686094849 0.906 5.05382354924e-39
-0.00838357618561 -0.0670686094849 0.906 2.57139389242e-39
-0.00672166638105 -0.0672166638105 0.908 0.0
-0.00504124978578 -0.0672166638105 0.908 1.74918341978e-39
-0.00336083319052 -0.0672166638105 0.908 2.76223953288e-39
-0.0016841179534 -0.067364718136 0.91 3.22392814052e-39
0.0 -0.067364718136 0.91 7.45845031273e-39
0.00168966999061 -0.0675867996244 0.913 8.84386646026e-39
0.00337933998122 -0.0675867996244 0.913 1.19748871113e-38
0.00508011404625 -0.06773485395 0.915 1.82359811356e-38
0.006773485395 -0.06773485395 0.915 1.53760837114e-38
0.00846685674374 -0.06773485395 0.915 1.72207221813e-38
0.0101935403157 -0.0679569354383 0.918 1.76827527058e-38
0.0118924637017 -0.0679569354383 0.918 1.62058471828e-38
0.0136209979528 -0.0681049897639 0.92 1.56537425944e-38
0.0153735910318 -0.0683270712523 0.923 1.65757058995e-38
0.0171187813945 -0.0684751255778 0.925 1.59325014966e-38
0.0188306595339 -0.0684751255778 0.925 3.85709083864e-39
0.0206091621199 -0.0686972070662 0.928 5.15178692359e-39
0.0223265922965 -0.0686972070662 0.928 5.33578581974e-39
0.024173570008 -0.0690673428801 0.933 3.12240686937e-39
0.0259557739521 -0.0692153972057 0.935 4.87015115563e-39
0.0276861588823 -0.0692153972057 0.935 5.79137597646e-39
0.0294165438124 -0.0692153972057 0.935 7.63348370131e-39
0.0311469287426 -0.0692153972057 0.935 3.03057137321e-39
0.0329828023797 -0.0694374786941 0.938 1.09392028306e-38
0.034718739347 -0.0694374786941 0.938 2.262034135e-38
0.0364546763144 -0.0694374786941 0.938 9.2933217323e-39
0.0381906132817 -0.0694374786941 0.938 6.70434995194e-39
0.0400116814863 -0.0695855330196 0.94 4.49993931174e-39
0.0418845687048 -0.069807614508 0.943 1.1143391635e-38
0.0437685599977 -0.0700296959964 0.946 4.13582591877e-39
0.0456155377093 -0.0701777503219 0.948 9.56891650258e-39
0.0475198864719 -0.0703998318103 0.951 1.08696087437e-38
0.0494353393091 -0.0706219132986 0.954 3.86175435992e-39
0.0512008871415 -0.0706219132986 0.954 1.03932036995e-38
0.0530774757182 -0.0707699676242 0.956 1.10357368805e-38
0.0548467249088 -0.0707699676242 0.956 1.36174891712e-38
0.0566159740994 -0.0707699676242 0.956 1.32369133238e-38
0.0585684405179 -0.0709920491126 0.959 1.19390040615e-38
0.0603432417457 -0.0709920491126 0.959 1.30406404544e-38
0.0623123642758 -0.0712141306009 0.962 1.51528694778e-38
0.0640927175408 -0.0712141306009 0.962 1.57957053392e-38
0.066010021057 -0.0713621849265 0.964 1.57957053392e-38
0.0680050530941 -0.0715842664149 0.967 1.55202310806e-38
0.0697946597545 -0.0715842664149 0.967 1.5703869843e-38
0.0718063479032 -0.0718063479032 0.97 1.56120343469e-38
0.0736015066008 -0.0718063479032 0.97 1.43263374006e-38
0.0753966652984 -0.0718063479032 0.97 2.34782106647e-38
0.077430561596 -0.0720284293916 0.973 2.31204998044e-38
-0.0709457821358 -0.0674850122756 0.935 2.10896946296e-38
-0.0692153972057 -0.0674850122756 0.935 2.33952916306e-38
-0.0674850122756 -0.0674850122756 0.935 2.66322938858e-39
-0.0654029983222 -0.067124129857 0.93 4.32346819094e-39
-0.0636818667874 -0.067124129857 0.93 9.29552597478e-39
-0.0618274863596 -0.0669797768895 0.928 1.04962649977e-38
-0.0599157348806 -0.0667632474384 0.925 5.06027933127e-39
-0.0580780105644 -0.0666188944709 0.923 7.64210028556e-39
-0.0560644717366 -0.0662580120524 0.918 5.88895959892e-39
-0.05418788316 -0.0660414826012 0.915 2.94052953909e-39
-0.0523797697089 -0.0658971296338 0.913 3.95179619405e-39
-0.050523538602 -0.0656806001826 0.91 1.10522231569e-38
-0.0487320812626 -0.0655362472152 0.908 1.01288095079e-38
-0.0466889315697 -0.0650310118292 0.901 3.3067953265e-39
-0.0450214697279 -0.0650310118292 0.901 2.47955839627e-39
-0.0432096549187 -0.064814482378 0.898 6.16842055166e-39
-0.0413626772071 -0.0645257764432 0.894 1.00341644083e-38
-0.0397081701189 -0.0645257764432 0.894 6.25994215696e-39
-0.0379259661748 -0.064309246992 0.891 6.0812443729e-39
-0.0361955812446 -0.0641648940246 0.889 1.01019045774e-39
-0.0345503275517 -0.0641648940246 0.889 8.26519465422e-40
-0.0329050738588 -0.0641648940246 0.889 2.67186138712e-39
-0.0312598201658 -0.0641648940246 0.889 2.11940787535e-39
-0.0296145664729 -0.0641648940246 0.889 2.67291516357e-39
-0.0279693127799 -0.0641648940246 0.889 2.76116333566e-39
-0.0264721134126 -0.0645257764432 0.894 2.39597374547e-39
-0.0248176063243 -0.0645257764432 0.894 2.48816797403e-39
-0.023163099236 -0.0645257764432 0.894 1.01054919014e-39
-0.0215085921477 -0.0645257764432 0.894 4.05336090544e-39
-0.0199429176548 -0.064814482378 0.898 2.05494282106e-38
-0.0182810078502 -0.064814482378 0.898 1.71346053842e-38
-0.0166190980456 -0.064814482378 0.898 1.04065300479e-38
-0.015007156576 -0.0650310118292 0.901 4.86729250676e-39
-0.013413721897 -0.0653918942478 0.906 6.42848473106e-40
-0.0117370066599 -0.0653918942478 0.906 0.0
-0.0100602914227 -0.0653918942478 0.906 1.19565511209e-39
-0.00840208297631 -0.0655362472152 0.908 2.6696921771e-39
-0.00672166638105 -0.0655362472152 0.908 3.22428687292e-39
-0.00504124978578 -0.0655362472152 0.908 4.14443549654e-39
-0.0033682359068 -0.0656806001826 0.91 3.03774602135e-39
-0.0016841179534 -0.0656806001826 0.91 9.02858562382e-39
0.0 -0.0656806001826 0.91 1.10540602592e-38
0.00168966999061 -0.0658971296338 0.913 9.39412834123e-39
0.00337933998122 -0.0658971296338 0.913 1.79640479582e-38
0.00508011404625 -0.0660414826012 0.915 1.65760716384e-38
0.006773485395 -0.0660414826012 0.915 1.66668197269e-38
0.00849461692979 -0.0662580120524 0.918 1.72210781111e-38
0.0101935403157 -0.0662580120524 0.918 1.66675694216e-38
0.0119183732087 -0.0664023650198 0.92 1.6759020962e-38
0.0136209979528 -0.0664023650198 0.92 1.46384990544e-38
0.0153735910318 -0.0666188944709 0.923 1.67572188922e-38
0.0171187813945 -0.0667632474384 0.925 1.09557283434e-38
0.0188917319432 -0.0669797768895 0.928 3.30607786169e-39
0.0206091621199 -0.0669797768895 0.928 6.25490729158e-39
0.0223747099523 -0.067124129857 0.93 6.53288146665e-39
0.024173570008 -0.0673406593081 0.933 6.25629457706e-39
0.0259557739521 -0.0674850122756 0.935 6.52965427629e-39
0.0276861588823 -0.0674850122756 0.935 5.5165869528e-39
0.0294165438124 -0.0674850122756 0.935 1.03096779033e-38
0.0311469287426 -0.0674850122756 0.935 4.86907495841e-39
0.0329828023797 -0.0677015417267 0.938 1.12211496868e-38
0.034718739347 -0.0677015417267 0.938 2.1146290272e-38
0.0364546763144 -0.0677015417267 0.938 1.06748002311e-38
0.0382720431608 -0.0678458946941 0.94 3.489748854e-39
0.0401393783421 -0.0680624241453 0.943 5.42726258349e-39
0.0420178175978 -0.0682789535964 0.946 3.21639756257e-39
0.0438610939512 -0.0684233065639 0.948 9.1835496158e-41
0.0456155377093 -0.0684233065639 0.948 1.0497698526e-38
0.0475198864719 -0.068639836015 0.951 9.01386918735e-39
0.0494353393091 -0.0688563654662 0.954 2.03471451721e-38
0.0513082265276 -0.0690007184336 0.956 1.81390841494e-38
0.0530774757182 -0.0690007184336 0.956 1.01087204931e-38
0.0548467249088 -0.0690007184336 0.956 1.29488049583e-38
0.0566159740994 -0.0690007184336 0.956 1.41426860265e-38
0.0585684405179 -0.0692172478848 0.959 1.50610213699e-38
0.0603432417457 -0.0692172478848 0.959 1.5703869843e-38
0.0623123642758 -0.0694337773359 0.962 1.54283633545e-38
0.0642259664339 -0.0695781303034 0.964 1.59793763315e-38
0.0662154464338 -0.0697946597545 0.967 1.57957053392e-38
0.0680050530941 -0.0697946597545 0.967 1.56120343469e-38
0.0700111892057 -0.0700111892057 0.97 1.56120343469e-38
0.0718063479032 -0.0700111892057 0.97 1.56120343469e-38
0.0736015066008 -0.0700111892057 0.97 1.42345019045e-38
0.0753966652984 -0.0700111892057 0.97 2.34817965874e-38
0.077430561596 -0.0702277186568 0.973 2.34885690629e-38
0.0792312723308 -0.0702277186568 0.973 2.34892795212e-38
-0.0709457821358 -0.0657546273454 0.935 2.14595337281e-38
-0.0692153972057 -0.0657546273454 0.935 2.3395288828e-38
-0.0673406593081 -0.0656139757361 0.933 2.93873587706e-39
-0.0654029983222 -0.0654029983222 0.93 4.04687990005e-39
-0.0636818667874 -0.0654029983222 0.93 5.70276907197e-39
-0.0618274863596 -0.0652623467129 0.928 7.44981831419e-39
-0.0599157348806 -0.0650513692989 0.925 1.00377251077e-38
-0.0580780105644 -0.0649107176896 0.923 4.78728396964e-39
-0.0560644717366 -0.0645590886664 0.918 6.07154598623e-39
-0.05418788316 -0.0643481112525 0.915 7.09071876712e-39
-0.0523797697089 -0.0642074596432 0.913 4.2316074714e-39
-0.050523538602 -0.0639964822292 0.91 2.66322938858e-39
-0.0487320812626 -0.0638558306199 0.908 9.66614839912e-39
-0.0467925695976 -0.0635042015967 0.903 1.04097866656e-38
-0.0450214697279 -0.0633635499874 0.901 5.33722074937e-39
-0.0432096549187 -0.0631525725735 0.898 4.68432776887e-39
-0.0414552111606 -0.0630119209642 0.896 1.744874427e-39
-0.0397081701189 -0.0628712693549 0.894 8.75095196428e-39
-0.0379259661748 -0.0626602919409 0.891 4.79123002612e-39
-0.0362770111237 -0.0626602919409 0.891 1.83670992316e-39
-0.0346280560726 -0.0626602919409 0.891 1.19386145005e-39
-0.0329791010215 -0.0626602919409 0.891 3.31757831818e-39
-0.0313301459705 -0.0626602919409 0.891 1.75169034273e-39
-0.0296811909194 -0.0626602919409 0.891 2.3037795169e-39
-0.0280322358683 -0.0626602919409 0.891 1.75061414551e-39
-0.0264721134126 -0.0628712693549 0.894 2.39597374547e-39
-0.0248176063243 -0.0628712693549 0.894 2.67291516357e-39
-0.02321491825 -0.0630119209642 0.896 2.76582685695e-39
-0.0215567098035 -0.0630119209642 0.896 0.0
-0.0199429176548 -0.0631525725735 0.898 2.75506488474e-39
-0.0182810078502 -0.0631525725735 0.898 0.0
-0.0166746184177 -0.0633635499874 0.901 0.0
-0.015007156576 -0.0633635499874 0.901 2.30090965765e-39
-0.013413721897 -0.0637151790106 0.906 3.13101924973e-39
-0.0117370066599 -0.0637151790106 0.906 3.59199739905e-39
-0.0100824995716 -0.0638558306199 0.908 3.22393514701e-39
-0.00840208297631 -0.0638558306199 0.908 3.500880769e-39
-0.0067364718136 -0.0639964822292 0.91 3.87000520528e-39
-0.0050523538602 -0.0639964822292 0.91 4.14479422894e-39
-0.00337933998122 -0.0642074596432 0.913 4.05118048503e-39
-0.00168966999061 -0.0642074596432 0.913 1.05029716122e-38
0.0 -0.0642074596432 0.913 1.0316104258e-38
0.00169337134875 -0.0643481112525 0.915 9.85584777743e-39
0.0033867426975 -0.0643481112525 0.915 1.98986890258e-38
0.00509677015787 -0.0645590886664 0.918 1.66654030142e-38
0.00679569354383 -0.0645590886664 0.918 1.79579116722e-38
0.00849461692979 -0.0645590886664 0.918 1.76831226486e-38
0.0102157484646 -0.0646997402757 0.92 1.49183481668e-38
0.0119572374691 -0.0649107176896 0.923 1.353400121e-38
0.0136654142505 -0.0649107176896 0.923 1.51005912359e-38
0.015406903255 -0.0650513692989 0.925 1.69448163228e-38
0.0171187813945 -0.0650513692989 0.925 7.2715058872e-39
0.0188917319432 -0.0652623467129 0.928 4.31626831943e-39
0.0206535784175 -0.0654029983222 0.93 8.36821951861e-39
0.022446886436 -0.0656139757361 0.933 7.63275222351e-39
0.024173570008 -0.0656139757361 0.933 6.98523742652e-39
0.0259557739521 -0.0657546273454 0.935 7.9986760941e-39
0.0276861588823 -0.0657546273454 0.935 7.07744286547e-39
0.0294165438124 -0.0657546273454 0.935 9.20223873342e-39
0.0311469287426 -0.0657546273454 0.935 7.44911766495e-39
0.0329828023797 -0.0659656047594 0.938 1.09381210282e-38
0.034718739347 -0.0659656047594 0.938 2.095973821e-38
0.0365324048353 -0.0661062563686 0.94 1.3623605839e-38
0.0383941879794 -0.0663172337826 0.943 4.95911679253e-39
0.0402670751979 -0.0665282111965 0.946 5.15285611431e-39
0.0420178175978 -0.0665282111965 0.946 1.19386145005e-39
0.0438610939512 -0.0666688628058 0.948 1.14002034007e-38
0.0456155377093 -0.0666688628058 0.948 2.06219972542e-38
0.0475198864719 -0.0668798402198 0.951 1.81376338055e-38
0.0494353393091 -0.0670908176337 0.954 1.24896274775e-38
0.0513082265276 -0.067231469243 0.956 1.35916534314e-38
0.0530774757182 -0.067231469243 0.956 1.49691914789e-38
0.0550188380623 -0.067442446657 0.959 1.54283661571e-38
0.0567936392901 -0.067442446657 0.959 1.56120343469e-38
0.0585684405179 -0.067442446657 0.959 1.54283633545e-38
0.0605320110108 -0.0676534240709 0.962 1.54283633545e-38
0.0624419118107 -0.0677940756802 0.964 1.5428370361e-38
0.0642259664339 -0.0677940756802 0.964 1.54283633545e-38
0.0662154464338 -0.0680050530941 0.967 1.54283633545e-38
0.0680050530941 -0.0680050530941 0.967 1.51528568661e-38
0.0700111892057 -0.0682160305081 0.97 1.72668809527e-38
0.0720284293916 -0.068427007922 0.973 1.55201988507e-38
0.0736015066008 -0.0682160305081 0.97 1.40508309122e-38
0.0753966652984 -0.0682160305081 0.97 2.34879062487e-38
0.077430561596 -0.068427007922 0.973 2.34864054581e-38
-0.0709457821358 -0.0640242424153 0.935 2.11822531958e-38
-0.0692153972057 -0.0640242424153 0.935 2.34900208081e-38
-0.0673406593081 -0.0638872921641 0.933 2.57139389242e-39
-0.0656139757361 -0.0638872921641 0.933 3.39899095636e-39
-0.0636818667874 -0.0636818667874 0.93 1.14152869774e-38
-0.0618274863596 -0.0635449165362 0.928 6.34310641823e-39
-0.0599157348806 -0.0633394911595 0.925 4.96020560144e-39
-0.0580780105644 -0.0632025409083 0.923 1.0317564411e-38
-0.0561866165552 -0.0629971155316 0.92 6.99635813113e-39
-0.0543655483507 -0.0628601652804 0.918 6.34993494564e-39
-0.0524945118112 -0.0626547399037 0.915 8.28889201255e-39
-0.0506900997183 -0.0625177896526 0.913 4.41671339335e-39
-0.0487320812626 -0.0621754140247 0.908 2.38951656214e-39
-0.0467925695976 -0.0618330383968 0.903 5.42514522151e-39
-0.0450214697279 -0.0616960881456 0.901 1.28060574863e-38
-0.0432096549187 -0.0614906627689 0.898 2.8469003809e-39
-0.0414552111606 -0.0613537125177 0.896 3.21999189313e-39
-0.0397081701189 -0.0612167622666 0.894 2.66681671265e-39
-0.0380536630306 -0.0612167622666 0.894 2.66645798024e-39
-0.0363991559423 -0.0612167622666 0.894 2.66645798024e-39
-0.034744648854 -0.0612167622666 0.894 1.56263836431e-39
-0.0330901417657 -0.0612167622666 0.894 1.84209231056e-39
-0.0314356346774 -0.0612167622666 0.894 2.57856854056e-39
-0.0297811275891 -0.0612167622666 0.894 2.02719683121e-39
-0.0281266205009 -0.0612167622666 0.894 2.11939105977e-39
-0.0264721134126 -0.0612167622666 0.894 2.48565684718e-39
-0.0248176063243 -0.0612167622666 0.894 2.02719683121e-39
-0.02321491825 -0.0613537125177 0.896 2.11974979218e-39
-0.0215567098035 -0.0613537125177 0.896 2.58036360389e-39
-0.0199429176548 -0.0614906627689 0.898 3.13101924973e-39
-0.0183420802595 -0.0616960881456 0.901 3.13209264436e-39
-0.0167116319991 -0.0618330383968 0.903 3.13101924973e-39
-0.0150904371341 -0.0620384637735 0.906 3.31648110149e-39
-0.013413721897 -0.0620384637735 0.906 3.31541191076e-39
-0.0117370066599 -0.0620384637735 0.906 3.68489928334e-39
-0.0100824995716 -0.0621754140247 0.908 3.68489928334e-39
-0.008420589767 -0.0623123642758 0.91 3.500880769e-39
-0.0067364718136 -0.0623123642758 0.91 4.23806745733e-39
-0.00506900997183 -0.0625177896526 0.913 4.32882395367e-39
-0.00337933998122 -0.0625177896526 0.913 7.00248881191e-39
-0.00168966999061 -0.0625177896526 0.913 1.07799887004e-38
0.0 -0.0626547399037 0.915 9.85552127489e-39
0.00169337134875 -0.0626547399037 0.915 1.23429437581e-38
0.0033867426975 -0.0626547399037 0.915 1.86076026857e-38
0.00509677015787 -0.0628601652804 0.918 1.65742737724e-38
0.00681049897639 -0.0629971155316 0.92 1.29847412574e-38
0.00851312372049 -0.0629971155316 0.92 1.4363401745e-38
0.0102490606878 -0.0632025409083 0.923 1.30668769656e-38
0.0119572374691 -0.0632025409083 0.923 1.42708501854e-38
0.0136654142505 -0.0632025409083 0.923 1.39967618109e-38
0.015406903255 -0.0633394911595 0.925 1.63895097673e-38
0.0171187813945 -0.0633394911595 0.925 1.92854541932e-39
0.0189324468827 -0.0636818667874 0.93 4.41241981485e-39
0.0206535784175 -0.0636818667874 0.93 8.92957968342e-39
0.022446886436 -0.0638872921641 0.933 9.10821581036e-39
0.024225389022 -0.0640242424153 0.935 7.54163138957e-39
0.0259557739521 -0.0640242424153 0.935 9.20327989818e-39
0.0276861588823 -0.0640242424153 0.935 9.66173991415e-39
0.029510928445 -0.064229667792 0.938 3.39827209025e-39
0.0312468654123 -0.064229667792 0.938 7.54238528814e-39
0.0329828023797 -0.064229667792 0.938 1.15824058322e-38
0.034718739347 -0.064229667792 0.938 1.85622916999e-38
0.0366489976167 -0.0645720434199 0.943 1.3990235964e-38
0.0383941879794 -0.0645720434199 0.943 3.30607786169e-39
0.0402670751979 -0.0647774687966 0.946 1.08491455822e-38
0.0421066501932 -0.0649144190478 0.948 2.08081485448e-38
0.0439998948814 -0.0651198444245 0.951 1.88766267675e-38
0.0460004789557 -0.0654622200524 0.956 1.23978101982e-38
0.0477697281463 -0.0654622200524 0.956 1.31324759506e-38
0.049538977337 -0.0654622200524 0.956 1.54283675584e-38
0.0514692356066 -0.0656676454291 0.959 1.52446923622e-38
0.0532440368344 -0.0656676454291 0.959 1.50610213699e-38
0.0550188380623 -0.0656676454291 0.959 1.53365278584e-38
0.0569713044808 -0.0658730708059 0.962 1.56120343469e-38
0.0587516577458 -0.0658730708059 0.962 1.52446923622e-38
0.0605320110108 -0.0658730708059 0.962 1.52446951648e-38
0.0624419118107 -0.066010021057 0.964 1.57038936651e-38
0.0644258397734 -0.0662154464338 0.967 1.53365600882e-38
0.0662154464338 -0.0662154464338 0.967 1.51528736817e-38
0.0682160305081 -0.0664208718105 0.97 1.94964070653e-38
0.0700111892057 -0.0664208718105 0.97 1.8768220917e-38
0.0720284293916 -0.0666262971872 0.973 1.43263528149e-38
0.0736015066008 -0.0664208718105 0.97 1.40508309122e-38
0.0753966652984 -0.0664208718105 0.97 2.34889950576e-38
0.077191823996 -0.0664208718105 0.97 2.34867655918e-38
-0.0732979952334 -0.0628268530572 0.943 2.07226847527e-38
-0.0711734156614 -0.0624937308247 0.938 2.12747865386e-38
-0.0692153972057 -0.0622938574851 0.935 2.34882075279e-38
-0.0674850122756 -0.0622938574851 0.935 2.38772290011e-39
-0.0656139757361 -0.0621606085921 0.933 3.31183719838e-39
-0.0636818667874 -0.0619607352526 0.93 7.35832613615e-39
-0.0618274863596 -0.0618274863596 0.928 7.44909944807e-39
-0.0599157348806 -0.06162761302 0.925 6.07118725382e-39
-0.0580780105644 -0.061494364127 0.923 4.77939185669e-39
-0.0561866165552 -0.0612944907875 0.92 9.02288654297e-39
-0.0543655483507 -0.0611612418945 0.918 9.39567537473e-39
-0.0524945118112 -0.060961368555 0.915 6.35279219321e-39
-0.0506900997183 -0.0608281196619 0.913 6.62617431321e-39
-0.0488394206486 -0.0606282463224 0.91 7.08677831584e-39
-0.0467925695976 -0.0601618751969 0.903 4.59356846993e-39
-0.0450214697279 -0.0600286263038 0.901 5.78600339815e-39
-0.0432096549187 -0.0598287529643 0.898 5.05490254906e-39
-0.0414552111606 -0.0596955040713 0.896 3.12994024992e-39
-0.0397970027142 -0.0596955040713 0.896 3.49907589658e-39
-0.0380536630306 -0.0595622551783 0.894 2.76044587084e-39
-0.0363991559423 -0.0595622551783 0.894 2.75865220881e-39
-0.034744648854 -0.0595622551783 0.894 1.65519132529e-39
-0.0330901417657 -0.0595622551783 0.894 2.48601557959e-39
-0.0314356346774 -0.0595622551783 0.894 2.12046725699e-39
-0.0297811275891 -0.0595622551783 0.894 2.02719683121e-39
-0.0281266205009 -0.0595622551783 0.894 1.84280837408e-39
-0.0264721134126 -0.0595622551783 0.894 2.48493938237e-39
-0.0248731266964 -0.0596955040713 0.896 2.94520006687e-39
-0.02321491825 -0.0596955040713 0.896 2.11903653126e-39
-0.0215567098035 -0.0596955040713 0.896 2.58036360389e-39
-0.0200095421013 -0.0600286263038 0.901 3.22393514701e-39
-0.0183420802595 -0.0600286263038 0.901 3.31648110149e-39
-0.0167116319991 -0.0601618751969 0.903 3.03953968339e-39
-0.0150904371341 -0.0603617485364 0.906 3.50051082621e-39
-0.013413721897 -0.0603617485364 0.906 3.13101924973e-39
-0.0117629161668 -0.0604949974294 0.908 3.22392814052e-39
-0.0100824995716 -0.0604949974294 0.908 4.05295873279e-39
-0.008420589767 -0.0606282463224 0.91 3.59307639887e-39
-0.00675867996244 -0.0608281196619 0.913 3.77675159508e-39
-0.00506900997183 -0.0608281196619 0.913 2.20943569649e-39
-0.00337933998122 -0.0608281196619 0.913 9.3927816934e-39
-0.00168966999061 -0.0608281196619 0.913 1.14221239126e-38
0.0 -0.060961368555 0.915 1.28047024307e-38
0.00169337134875 -0.060961368555 0.915 1.58449904075e-38
0.00339784677192 -0.0611612418945 0.918 1.77778616351e-38
0.00509677015787 -0.0611612418945 0.918 1.38069629404e-38
0.00681049897639 -0.0612944907875 0.92 1.18777252797e-38
0.00851312372049 -0.0612944907875 0.92 1.39146499248e-38
0.0102490606878 -0.061494364127 0.923 1.13188299989e-38
0.0119572374691 -0.061494364127 0.923 9.37834831922e-39
0.0136950251156 -0.06162761302 0.925 8.82482141283e-39
0.015406903255 -0.06162761302 0.925 1.72185739908e-38
0.0171743017665 -0.0618274863596 0.928 1.28569694621e-39
0.0189324468827 -0.0619607352526 0.93 1.08628769058e-38
0.020720202864 -0.0621606085921 0.933 1.20592522853e-38
0.022446886436 -0.0621606085921 0.933 1.1965589496e-38
0.024225389022 -0.0622938574851 0.935 1.33417010217e-38
0.0259557739521 -0.0622938574851 0.935 1.21503478959e-38
0.0276861588823 -0.0622938574851 0.935 1.39950017801e-38
0.029510928445 -0.0624937308247 0.938 1.19386145005e-39
0.0312468654123 -0.0624937308247 0.938 9.56821164945e-39
0.0329828023797 -0.0624937308247 0.938 1.1671723195e-38
0.034903807254 -0.0628268530572 0.943 1.77325310311e-38
0.0367655903981 -0.0630267263967 0.946 1.80457772898e-38
0.038516332798 -0.0630267263967 0.946 1.82366117199e-38
0.0403522064351 -0.0631599752897 0.948 1.89688223974e-38
0.0422398990862 -0.0633598486293 0.951 1.22141378046e-38
0.0441386958117 -0.0635597219688 0.954 1.32243114468e-38
0.0460004789557 -0.0636929708618 0.956 1.4693691997e-38
0.0477697281463 -0.0636929708618 0.956 1.51528568661e-38
0.049538977337 -0.0636929708618 0.956 1.57957053392e-38
0.0514692356066 -0.0638928442013 0.959 1.53365320623e-38
0.0532440368344 -0.0638928442013 0.959 1.55201988507e-38
0.0550188380623 -0.0638928442013 0.959 1.53365278584e-38
0.0569713044808 -0.0640927175408 0.962 1.53365278584e-38
0.0587516577458 -0.0640927175408 0.962 1.53365278584e-38
0.0606578571875 -0.0642259664339 0.964 1.50610395868e-38
0.062636233113 -0.0644258397734 0.967 1.71782726469e-38
0.0644258397734 -0.0644258397734 0.967 1.72812764918e-38
0.0662154464338 -0.0644258397734 0.967 2.20854110755e-38
0.0682160305081 -0.0646257131129 0.97 1.99736430794e-38
0.0700111892057 -0.0646257131129 0.97 1.09320113669e-38
0.0720284293916 -0.0648255864524 0.973 1.59793763315e-38
0.0736015066008 -0.0646257131129 0.97 1.41426664083e-38
0.0753966652984 -0.0646257131129 0.97 2.34925445467e-38
-0.0752819231961 -0.0612759839968 0.946 2.08138139945e-38
-0.0732979952334 -0.0610816626945 0.943 2.08134580646e-38
-0.0715528048707 -0.0610816626945 0.943 2.11818874569e-38
-0.0694374786941 -0.0607577938573 0.938 2.34878614072e-38
-0.0677015417267 -0.0607577938573 0.938 2.66322938858e-39
-0.0659656047594 -0.0607577938573 0.938 3.4962270568e-39
