# .PCD v0.7 - Point Cloud Data file format
VERSION 0.7
FIELDS x y z rgb
SIZE 4 4 4 4
TYPE F F F F
COUNT 1 1 1 1
WIDTH 864
HEIGHT 1
VIEWPOINT 0 0 0 1 0 0 0
POINTS 864
DATA ascii
0.0207276055803 -0.00148054325574 0.8 8.38144357222e-39
0.0222636692081 -0.00148424461388 0.802 9.02714228641e-39
0.0237775246871 -0.00148609529295 0.803 8.9338928801e-39
0.0252636199801 -0.00148609529295 0.803 9.1183023567e-39
0.026749715273 -0.00148609529295 0.803 9.39272143757e-39
0.028235810566 -0.00148609529295 0.803 8.83954485579e-39
0.0297959330217 -0.00148979665109 0.805 9.11576460518e-39
0.0312857296728 -0.00148979665109 0.805 8.83849388194e-39
0.0327755263239 -0.00148979665109 0.805 1.26195530685e-38
0.034265322975 -0.00148979665109 0.805 1.01263502291e-38
0.035755119626 -0.00148979665109 0.805 1.00319965996e-38
0.0372449162771 -0.00148979665109 0.805 1.06719387797e-38
0.0387347129282 -0.00148979665109 0.805 1.15964286259e-38
0.0401245729095 -0.00148609529295 0.803 8.653749495e-39
0.0416106682025 -0.00148609529295 0.803 1.16982960178e-38
0.0432041028815 -0.00148979665109 0.805 1.15135768542e-38
0.0446938995326 -0.00148979665109 0.805 1.28969036658e-38
0.0461836961836 -0.00148979665109 0.805 1.0498327709e-38
0.0476734928347 -0.00148979665109 0.805 1.32556066454e-38
0.0491632894858 -0.00148979665109 0.805 1.44541105972e-38
0.0507789323136 -0.00149349800922 0.807 1.4637802609e-38
0.0522724303229 -0.00149349800922 0.807 1.76867323934e-38
0.0537659283321 -0.00149349800922 0.807 1.40968691719e-38
0.0555333268436 -0.0015009007255 0.811 1.27117669152e-38
0.0570342275691 -0.0015009007255 0.811 1.17826597905e-38
0.0586794812621 -0.00150460208364 0.813 1.20555920937e-38
0.0601840833457 -0.00150460208364 0.813 1.34396069428e-38
0.0616886854293 -0.00150460208364 0.813 9.38590832444e-39
0.0633487445548 -0.00150830344178 0.815 9.47989481374e-39
0.0648570479966 -0.00150830344178 0.815 1.0219630464e-38
0.0665282111965 -0.00151200479992 0.817 9.66861188182e-39
0.0680402159965 -0.00151200479992 0.817 9.85120247302e-39
0.0695522207964 -0.00151200479992 0.817 1.04972739326e-38
0.0712381894288 -0.00151570615806 0.819 4.87302101488e-39
0.0727538955869 -0.00151570615806 0.819 2.08063086399e-38
0.074269601745 -0.00151570615806 0.819 2.35098309645e-38
0.0107135811343 0.0 0.827 1.52777391839e-38
0.0122440927249 0.0 0.827 1.61039027195e-38
0.0137746043156 0.0 0.827 1.75779411858e-38
0.0148979665109 0.0 0.805 1.3069339047e-38
0.0163877631619 0.0 0.805 9.38627686593e-39
0.017877559813 0.0 0.805 9.4842136156e-39
0.0194154741199 0.0 0.807 9.02540327501e-39
0.0209089721291 0.0 0.807 9.20941898675e-39
0.0224024701384 0.0 0.807 8.65769975538e-39
0.0238367464174 0.0 0.805 9.02574379054e-39
0.0253265430684 0.0 0.805 9.39271863497e-39
0.0268163397195 0.0 0.805 1.18815928634e-38
0.0283061363706 0.0 0.805 8.00977718053e-39
0.0297959330217 0.0 0.805 1.20595815905e-38
0.0312857296728 0.0 0.805 1.25223155668e-38
0.0328569562029 0.0 0.807 1.10508162533e-38
0.0343504542122 0.0 0.807 1.0867868331e-38
0.0358439522214 0.0 0.807 1.21571876337e-38
0.0373374502306 0.0 0.807 1.19709774886e-38
0.0387347129282 0.0 0.805 1.27971242086e-38
0.0402245095793 0.0 0.805 1.25172961157e-38
0.0417143062304 0.0 0.805 1.71288194228e-38
0.0433114422675 0.0 0.807 1.44605916026e-38
0.0448049402767 0.0 0.807 1.40965160447e-38
0.046298438286 0.0 0.807 1.27142668317e-38
0.0477919362952 0.0 0.807 1.20653409272e-38
0.049407579123 0.0 0.809 1.27974801384e-38
0.0509047784904 0.0 0.809 1.26091414209e-38
0.0525315253926 0.0 0.811 9.6592287873e-39
0.0541656750111 0.0 0.813 1.03086031074e-38
0.0558072273459 0.0 0.815 1.28014808455e-38
0.0573155307877 0.0 0.815 1.30794550206e-38
0.0588238342295 0.0 0.815 1.32638532868e-38
0.0603321376713 0.0 0.815 1.22489909e-38
0.0618404411131 0.0 0.815 1.24315842938e-38
0.0635042015967 0.0 0.817 1.21546540861e-38
0.0651753647966 0.0 0.819 1.28929506028e-38
0.0666910709547 0.0 0.819 1.40003169051e-38
0.0682067771127 0.0 0.819 1.04050951183e-38
0.0697224832708 0.0 0.819 1.05891234417e-38
0.0714121532614 0.0 0.821 4.5967970616e-39
0.0729315607776 0.0 0.821 2.29264143619e-38
0.0744509682938 0.0 0.821 2.35098477801e-38
0.0929040892975 0.0 1.004 2.35098351684e-38
0.0947621710834 0.0 1.004 2.35098295632e-38
0.0966202528694 0.0 1.004 2.3508753366e-38
0.0984783346553 0.0 1.004 2.35098435762e-38
0.0107135811343 0.00153051159062 0.827 1.6202247247e-38
0.0122144818598 0.00152681023248 0.825 1.60156699617e-38
0.0137412920923 0.00152681023248 0.825 1.60102973834e-38
0.015009007255 0.0015009007255 0.811 1.52795118265e-38
0.016469193041 0.00149719936736 0.809 9.56922338694e-39
0.0179663924084 0.00149719936736 0.809 9.02610952944e-39
0.0195117094315 0.0015009007255 0.811 9.02610672684e-39
0.021012610157 0.0015009007255 0.811 9.57746582451e-39
0.0224579905105 0.00149719936736 0.809 9.39307456478e-39
0.0239551898778 0.00149719936736 0.809 8.56222508711e-39
0.0254523892452 0.00149719936736 0.809 8.2849263379e-39
0.0269495886125 0.00149719936736 0.809 1.46471688879e-38
0.0283764621753 0.00149349800922 0.807 1.11473138694e-38
0.0298699601845 0.00149349800922 0.807 1.28893198385e-38
0.0313634581937 0.00149349800922 0.807 1.15971166635e-38
0.0328569562029 0.00149349800922 0.807 1.29858398754e-38
0.0344355854494 0.00149719936736 0.809 1.59374424749e-38
0.0360216174121 0.0015009007255 0.811 1.54768314658e-38
0.0375225181376 0.0015009007255 0.811 1.57552358395e-38
0.0390234188631 0.0015009007255 0.811 1.39095463958e-38
0.0406242562583 0.00150460208364 0.813 1.19712591496e-38
0.042128858342 0.00150460208364 0.813 1.19637860249e-38
0.0436334604256 0.00150460208364 0.813 1.03992979466e-38
0.0452491032535 0.00150830344178 0.815 1.05855066904e-38
0.0467574066952 0.00150830344178 0.815 1.29800567166e-38
0.0483841535975 0.00151200479992 0.817 1.30758550848e-38
0.050018303216 0.00151570615806 0.819 1.28962002139e-38
0.0516598555508 0.0015194075162 0.821 1.09590101844e-38
0.053179263067 0.0015194075162 0.821 1.1969552368e-38
0.0546986705832 0.0015194075162 0.821 1.24315716821e-38
0.0562180780994 0.0015194075162 0.821 1.10500399339e-38
0.0577374856156 0.0015194075162 0.821 1.2523767312e-38
0.0591125401644 0.00151570615806 0.819 1.33549685156e-38
0.0606282463224 0.00151570615806 0.819 1.15139664152e-38
0.0622957081642 0.0015194075162 0.821 1.12358955505e-38
0.0638151156804 0.0015194075162 0.821 1.10482967186e-38
0.0653345231966 0.0015194075162 0.821 1.19684579539e-38
0.0668539307128 0.0015194075162 0.821 1.08624382994e-38
0.068373338229 0.0015194075162 0.821 1.0866056452e-38
0.0700630082196 0.00152310887434 0.823 1.04050783027e-38
0.0715861170939 0.00152310887434 0.823 3.30607786169e-39
0.0731092259683 0.00152310887434 0.823 2.34907382729e-38
0.0929040892975 0.00185808178595 1.004 2.35098575892e-38
0.0947621710834 0.00185808178595 1.004 2.35098393723e-38
0.0966202528694 0.00185808178595 1.004 2.35098491814e-38
0.0984783346553 0.00185808178595 1.004 2.35098323658e-38
0.0106876716274 0.00305362046496 0.825 1.55586799078e-38
0.0122144818598 0.00305362046496 0.825 1.37129554316e-38
0.0136746676458 0.0030388150324 0.821 1.65677773528e-38
0.0151200479992 0.00302400959984 0.817 1.38036642838e-38
0.0165913378596 0.00301660688356 0.815 1.00273148614e-38
0.0180996413014 0.00301660688356 0.815 9.48456674282e-39
0.0196079447432 0.00301660688356 0.815 9.11650449077e-39
0.0211680671989 0.00302400959984 0.817 9.39272143757e-39
0.0225690312546 0.00300920416729 0.813 8.563689444e-39
0.0240736333383 0.00300920416729 0.813 1.56570090211e-38
0.0255782354219 0.00300920416729 0.813 1.4462011118e-38
0.0270828375056 0.00300920416729 0.813 1.63995668864e-38
0.0285171137846 0.00300180145101 0.811 1.18841936734e-38
0.0300180145101 0.00300180145101 0.811 1.42776324699e-38
0.0315189152356 0.00300180145101 0.811 1.10504351001e-38
0.0330198159611 0.00300180145101 0.811 1.12327061952e-38
0.0345207166866 0.00300180145101 0.811 1.11379910307e-38
0.0361104500074 0.00300920416729 0.813 1.12269496611e-38
0.0376150520911 0.00300920416729 0.813 1.03035668407e-38
0.0391196541747 0.00300920416729 0.813 1.10490436107e-38
0.0408241295979 0.00302400959984 0.817 1.17916000748e-38
0.0423361343978 0.00302400959984 0.817 1.27135633799e-38
0.0438481391977 0.00302400959984 0.817 1.08660788728e-38
0.0454711847418 0.00303141231612 0.819 1.17837121657e-38
0.0469868908999 0.00303141231612 0.819 1.41793552047e-38
0.0486210405184 0.0030388150324 0.821 1.23336083078e-38
0.0502625928532 0.00304621774868 0.823 1.46432032133e-38
0.0519115479043 0.00305362046496 0.825 1.34496416411e-38
0.0534383581368 0.00305362046496 0.825 1.28979182058e-38
0.0549651683692 0.00305362046496 0.825 1.18819824244e-38
0.0564919786017 0.00305362046496 0.825 9.29874755995e-39
0.0580187888342 0.00305362046496 0.825 1.12358731298e-38
0.0595455990667 0.00305362046496 0.825 1.0679870129e-38
0.0610724092991 0.00305362046496 0.825 1.23386824095e-38
0.0625992195316 0.00305362046496 0.825 1.28003289782e-38
0.0641260297641 0.00305362046496 0.825 1.39996134533e-38
0.0656528399966 0.00305362046496 0.825 1.35393737883e-38
0.0671796502291 0.00305362046496 0.825 1.05880122121e-38
0.0688730215778 0.00306102318124 0.827 1.02217828584e-38
0.0704035331684 0.00306102318124 0.827 1.05894737664e-38
0.071934044759 0.00306102318124 0.827 4.77544580022e-39
0.0734645563497 0.00306102318124 0.827 2.34951117254e-38
0.0106876716274 0.00458043069744 0.825 1.56497615054e-38
0.0122144818598 0.00458043069744 0.825 1.33441603005e-38
0.0136413554225 0.00454711847418 0.819 1.48164289269e-38
0.0150830344178 0.00452491032535 0.815 1.12233020812e-38
0.0165913378596 0.00452491032535 0.815 1.0673400334e-38
0.0180996413014 0.00452491032535 0.815 9.57639663378e-39
0.0196079447432 0.00452491032535 0.815 9.39309418296e-39
0.0211680671989 0.00453601439976 0.817 9.21012524118e-39
0.0226800719988 0.00453601439976 0.817 9.30121384525e-39
0.0241920767987 0.00453601439976 0.817 1.01277697444e-38
0.0257040815987 0.00453601439976 0.817 9.75433351278e-39
0.0271494619521 0.00452491032535 0.815 9.29188680267e-39
0.0286577653939 0.00452491032535 0.815 1.56622793046e-38
0.0301660688356 0.00452491032535 0.815 7.82363990292e-39
0.0316743722774 0.00452491032535 0.815 1.31720233959e-38
0.0331826757192 0.00452491032535 0.815 1.18841488318e-38
0.034690979161 0.00452491032535 0.815 1.14228217592e-38
0.0362881151981 0.00453601439976 0.817 1.25237827263e-38
0.037800119998 0.00453601439976 0.817 1.18769461577e-38
0.0394083601096 0.00454711847418 0.819 1.19691067551e-38
0.0409240662676 0.00454711847418 0.819 1.36282945836e-38
0.0424397724257 0.00454711847418 0.819 1.29890768748e-38
0.0440628179698 0.0045582225486 0.821 1.15139439944e-38
0.045582225486 0.0045582225486 0.821 1.20660289647e-38
0.0472163751045 0.00456932662302 0.823 1.11390700306e-38
0.0488579274393 0.00458043069744 0.825 1.1413116366e-38
0.0503847376718 0.00458043069744 0.825 1.05844515127e-38
0.0519115479043 0.00458043069744 0.825 1.16003592681e-38
0.0535679056716 0.00459153477185 0.827 1.14163379512e-38
0.0550984172622 0.00459153477185 0.827 1.20634533781e-38
0.0566289288529 0.00459153477185 0.827 1.45527900351e-38
0.0581594404435 0.00459153477185 0.827 1.29876069128e-38
0.0596899520341 0.00459153477185 0.827 1.08671354519e-38
0.0612204636247 0.00459153477185 0.827 1.17851036551e-38
0.0627509752153 0.00459153477185 0.827 1.19655292401e-38
0.064281486806 0.00459153477185 0.827 1.07706336318e-38
0.0659711567966 0.00460263884627 0.829 1.01292327e-38
0.0675053697453 0.00460263884627 0.829 1.04057943662e-38
0.0690395826941 0.00460263884627 0.829 1.06813218742e-38
0.0705737956428 0.00460263884627 0.829 1.05891234417e-38
0.0721080085916 0.00460263884627 0.829 4.86728129637e-39
0.0136413554225 0.00606282463224 0.819 1.4725679437e-38
0.0150830344178 0.00603321376713 0.815 1.30668363279e-38
0.0165913378596 0.00603321376713 0.815 1.05808515769e-38
0.0180996413014 0.00603321376713 0.815 9.67003419976e-39
0.0196079447432 0.00603321376713 0.815 9.30125168031e-39
0.0212198862128 0.00606282463224 0.819 9.48526739205e-39
0.0227355923709 0.00606282463224 0.819 1.00366657261e-38
0.024251298529 0.00606282463224 0.819 8.5647852594e-39
0.025767004687 0.00606282463224 0.819 1.01332025786e-38
0.0272827108451 0.00606282463224 0.819 1.02217660428e-38
0.0287984170032 0.00606282463224 0.819 1.28006975197e-38
0.030388150324 0.0060776300648 0.821 1.28914708316e-38
0.0318298293193 0.00606282463224 0.819 1.17869057249e-38
0.0333455354773 0.00606282463224 0.819 1.23429563698e-38
0.0348612416354 0.00606282463224 0.819 1.41886710369e-38
0.0363769477935 0.00606282463224 0.819 1.15136160906e-38
0.0378926539515 0.00606282463224 0.819 1.00359650768e-38
0.0395045954212 0.0060776300648 0.821 1.11372735659e-38
0.0410240029374 0.0060776300648 0.821 1.09521031843e-38
0.0426470484815 0.00609243549736 0.823 1.16911451917e-38
0.0441701573558 0.00609243549736 0.823 1.09532270256e-38
0.0458043069744 0.00610724092991 0.825 1.12329878562e-38
0.0473311172068 0.00610724092991 0.825 1.37233740857e-38
0.0489763708998 0.00612204636247 0.827 1.36318805064e-38
0.0505068824904 0.00612204636247 0.827 1.08639306823e-38
0.052037394081 0.00612204636247 0.827 1.11397734824e-38
0.0535679056716 0.00612204636247 0.827 1.33513503629e-38
0.0550984172622 0.00612204636247 0.827 1.41781865218e-38
0.056765879104 0.00613685179503 0.829 1.46431849964e-38
0.0583000920528 0.00613685179503 0.829 1.14231903007e-38
0.0598343050015 0.00613685179503 0.829 1.0683499492e-38
0.0613685179503 0.00613685179503 0.829 1.11440894817e-38
0.0630544865828 0.00615165722759 0.831 1.10475806551e-38
0.0645924008897 0.00615165722759 0.831 1.14171044615e-38
0.0661303151966 0.00615165722759 0.831 1.25227135355e-38
0.0676682295035 0.00615165722759 0.831 1.22457482954e-38
0.0692061438103 0.00615165722759 0.831 1.09571576678e-38
0.0709143205917 0.00616646266014 0.833 1.05912870466e-38
0.0724559362567 0.00616646266014 0.833 4.86728129637e-39
0.0150830344178 0.00754151720891 0.815 1.70301553992e-38
0.0165913378596 0.00754151720891 0.815 9.10463269018e-39
0.0181440575991 0.00756002399961 0.817 9.85406952968e-39
0.019656062399 0.00756002399961 0.817 9.76045718707e-39
0.0212198862128 0.0075785307903 0.819 1.05923436256e-38
0.0227355923709 0.0075785307903 0.819 1.29904837785e-38
0.024251298529 0.0075785307903 0.819 1.19759815254e-38
0.0258299277754 0.007597037581 0.821 1.15175439302e-38
0.0273493352916 0.007597037581 0.821 1.09621995397e-38
0.0288687428078 0.007597037581 0.821 1.10518728323e-38
0.0304621774868 0.0076155443717 0.823 1.14155980656e-38
0.0320630148821 0.00763405116239 0.825 1.14156218877e-38
0.0335898251145 0.00763405116239 0.825 1.04014657553e-38
0.0349463728726 0.007597037581 0.821 1.25209114657e-38
0.0364657803888 0.007597037581 0.821 1.07695798554e-38
0.037985187905 0.007597037581 0.821 1.18795217443e-38
0.0396970660444 0.00763405116239 0.825 1.2989058658e-38
0.0412238762769 0.00763405116239 0.825 1.08667851273e-38
0.0427506865094 0.00763405116239 0.825 1.22454175889e-38
0.0443848361279 0.00765255795309 0.827 1.20606381695e-38
0.0459153477185 0.00765255795309 0.827 1.3354186591e-38
0.0474458593092 0.00765255795309 0.827 1.14177854925e-38
0.0490948143602 0.00767106474379 0.829 1.29843923341e-38
0.050629027309 0.00767106474379 0.829 1.36329637101e-38
0.0521632402577 0.00767106474379 0.829 1.04065454622e-38
0.0538270007414 0.00768957153448 0.831 1.37226734365e-38
0.0553649150483 0.00768957153448 0.831 1.00309274089e-38
0.0569028293552 0.00768957153448 0.831 1.16878829689e-38
0.0584407436621 0.00768957153448 0.831 1.40889154018e-38
0.059978657969 0.00768957153448 0.831 1.21542771368e-38
0.0615165722759 0.00768957153448 0.831 1.39077737532e-38
0.0632062422665 0.00770807832518 0.833 1.39992407079e-38
0.0647478579315 0.00770807832518 0.833 1.26138147513e-38
0.0662894735965 0.00770807832518 0.833 1.60260647937e-38
0.0678310892616 0.00770807832518 0.833 1.43676897183e-38
0.0693727049266 0.00770807832518 0.833 1.1049378521e-38
0.0710845830661 0.00772658511588 0.835 1.00370370702e-38
0.0726299000892 0.00772658511588 0.835 5.32645877716e-39
0.0151570615806 0.00909423694836 0.819 1.38973186654e-38
0.0166727677387 0.00909423694836 0.819 9.75252583776e-39
0.0181884738967 0.00909423694836 0.819 9.6696320271e-39
0.0197041800548 0.00909423694836 0.819 9.85403309592e-39
0.0212198862128 0.00909423694836 0.819 9.67038452438e-39
0.022791112743 0.0091164450972 0.821 9.57747983749e-39
0.0243697419894 0.00913865324604 0.823 1.15164425096e-38
0.0258928508638 0.00913865324604 0.823 8.01412681096e-39
0.0274159597381 0.00913865324604 0.823 1.20685625123e-38
0.0290093944171 0.00916086139487 0.825 1.123913255e-38
0.0306102318124 0.00918306954371 0.827 1.14217259438e-38
0.032140743403 0.00918306954371 0.827 1.24358848788e-38
0.0336712549936 0.00918306954371 0.827 1.12388060475e-38
0.035116635347 0.00916086139487 0.825 1.24308416056e-38
0.0366434455795 0.00916086139487 0.825 1.24293604331e-38
0.038170255812 0.00916086139487 0.825 1.27067110304e-38
0.0397933013561 0.00918306954371 0.827 1.1509608377e-38
0.0413238129467 0.00918306954371 0.827 1.35393611766e-38
0.0428543245373 0.00918306954371 0.827 1.16040110519e-38
0.044492175514 0.00920527769254 0.829 1.1509997938e-38
0.0460263884627 0.00920527769254 0.829 1.04951103278e-38
0.0475606014115 0.00920527769254 0.829 1.1693611477e-38
0.0492132578207 0.00922748584138 0.831 1.12312264241e-38
0.0507511721276 0.00922748584138 0.831 1.24290087072e-38
0.0522890864345 0.00922748584138 0.831 1.26166790054e-38
0.0538270007414 0.00922748584138 0.831 1.40950334709e-38
0.0554981639413 0.00924969399022 0.833 1.18791293807e-38
0.0570397796063 0.00924969399022 0.833 1.47324869449e-38
0.0585813952714 0.00924969399022 0.833 1.38080195195e-38
0.0602673639038 0.00927190213905 0.835 1.43655247122e-38
0.061812680927 0.00927190213905 0.835 1.37187049592e-38
0.0633579979502 0.00927190213905 0.835 1.32591519305e-38
0.0649033149734 0.00927190213905 0.835 1.36261996424e-38
0.0664486319965 0.00927190213905 0.835 1.2428322071e-38
0.0679939490197 0.00927190213905 0.835 1.04954578498e-38
0.0695392660429 0.00927190213905 0.835 1.11433061558e-38
0.0710845830661 0.00927190213905 0.835 9.7611606389e-39
0.0726299000892 0.00927190213905 0.835 5.0513110211e-39
0.0167134826782 0.0106358526134 0.821 8.46324717267e-39
0.0181884738967 0.0106099431064 0.819 1.02214129156e-38
0.0197041800548 0.0106099431064 0.819 9.39380323998e-39
0.0212717052268 0.0106358526134 0.821 9.1183051593e-39
0.0228466331151 0.0106617621204 0.823 1.02228380361e-38
0.0244289637197 0.0106876716274 0.825 1.19771053668e-38
0.0259557739521 0.0106876716274 0.825 7.64387573072e-39
0.0274825841846 0.0106876716274 0.825 1.24312185549e-38
0.0290797202217 0.0107135811343 0.827 1.36304483794e-38
0.0306842589751 0.0107394906413 0.829 1.08642992238e-38
0.0322184719239 0.0107394906413 0.829 1.34486256997e-38
0.0337526848727 0.0107394906413 0.829 1.18870046781e-38
0.0352017665842 0.0107135811343 0.827 1.11462306657e-38
0.0367322781748 0.0107135811343 0.827 1.06791694798e-38
0.0383553237189 0.0107394906413 0.829 1.11397734824e-38
0.0398895366677 0.0107394906413 0.829 1.23350502439e-38
0.0414237496164 0.0107394906413 0.829 1.15027686392e-38
0.0429579625652 0.0107394906413 0.829 1.28907827941e-38
0.0445995149 0.0107654001483 0.831 1.28021492649e-38
0.0461374292069 0.0107654001483 0.831 1.35400772401e-38
0.0477900856161 0.0107913096553 0.833 1.31723569049e-38
0.0493317012812 0.0107913096553 0.833 1.27085018898e-38
0.0509954617648 0.0108172191622 0.835 1.40910677963e-38
0.052540778788 0.0108172191622 0.835 1.15110979573e-38
0.054215643346 0.0108431286692 0.837 1.39999819948e-38
0.0557646617273 0.0108431286692 0.837 1.22436001048e-38
0.0573136801086 0.0108431286692 0.837 1.59309979033e-38
0.05886269849 0.0108431286692 0.837 1.45534360337e-38
0.0604117168713 0.0108431286692 0.837 1.39978029757e-38
0.0619607352526 0.0108431286692 0.837 1.47346225238e-38
0.0635097536339 0.0108431286692 0.837 1.42750736989e-38
0.0650587720152 0.0108431286692 0.837 1.48304082803e-38
0.0666077903965 0.0108431286692 0.837 1.21556784353e-38
0.0679939490197 0.0108172191622 0.835 1.20624262264e-38
0.0695392660429 0.0108172191622 0.835 1.11440698635e-38
0.0719358954381 0.0109467666971 0.845 1.04061741181e-38
0.073499719252 0.0109467666971 0.845 6.52749487535e-39
0.0170392021945 0.0123921470505 0.837 8.55325677693e-39
0.0185882205758 0.0123921470505 0.837 9.85372481026e-39
0.0198485330222 0.0122144818598 0.825 9.57748544269e-39
0.0213753432547 0.0122144818598 0.825 9.48708767875e-39
0.0229021534872 0.0122144818598 0.825 9.11615416616e-39
0.0244881854499 0.0122440927249 0.827 8.7473786532e-39
0.0260186970405 0.0122440927249 0.827 9.76113121163e-39
0.0275492086311 0.0122440927249 0.827 1.16893473258e-38
0.0291500460264 0.0122737035901 0.829 1.07688161477e-38
0.0307582861379 0.0123033144552 0.831 1.12305369852e-38
0.0322962004448 0.0123033144552 0.831 1.02174164124e-38
0.0338341147517 0.0123033144552 0.831 1.26152721017e-38
0.0352868978214 0.0122737035901 0.829 1.16975897634e-38
0.0368211107702 0.0122737035901 0.829 1.29897775241e-38
0.0385403916259 0.0123329253203 0.833 1.23422375037e-38
0.0400820072909 0.0123329253203 0.833 1.28910980862e-38
0.0415236862862 0.0123033144552 0.831 1.40881741149e-38
0.0430616005931 0.0123033144552 0.831 1.50115975731e-38
0.0445995149 0.0123033144552 0.831 1.3170221326e-38
0.0462484699511 0.0123329253203 0.833 1.17851611083e-38
0.0479048277184 0.0123625361854 0.835 1.2704972019e-38
0.0494501447416 0.0123625361854 0.835 1.26148811394e-38
0.0511176065834 0.0123921470505 0.837 1.29869062635e-38
0.0527924711414 0.0124217579156 0.839 1.1884154437e-38
0.0544747384158 0.0124513687807 0.841 1.28017933351e-38
0.0560311595134 0.0124513687807 0.841 1.40910705989e-38
0.057587580611 0.0124513687807 0.841 1.43690994246e-38
0.0590033500993 0.0124217579156 0.839 1.27102969532e-38
0.0605560698387 0.0124217579156 0.839 1.11390700306e-38
0.0621087895782 0.0124217579156 0.839 1.19684579539e-38
0.0636615093176 0.0124217579156 0.839 1.1138330145e-38
0.0652142290571 0.0124217579156 0.839 1.08638676238e-38
0.0667669487965 0.0124217579156 0.839 1.11401266096e-38
0.0684825282941 0.0124513687807 0.841 1.10482785018e-38
0.070205510508 0.0124809796459 0.843 1.16046598531e-38
0.0719358954381 0.012510590511 0.845 9.20763092991e-39
0.073499719252 0.012510590511 0.845 9.1053459511e-39
0.0170392021945 0.0139411654318 0.837 1.00315930256e-38
0.0185882205758 0.0139411654318 0.837 9.39453611908e-39
0.0201372389571 0.0139411654318 0.837 9.66968107255e-39
0.0215826193105 0.0138745409853 0.833 7.73501758414e-39
0.0230687146034 0.0138412287621 0.831 1.41843928727e-38
0.0246066289103 0.0138412287621 0.831 1.10496896093e-38
0.0261445432172 0.0138412287621 0.831 1.38152376079e-38
0.0276824575241 0.0138412287621 0.831 1.35400618258e-38
0.0292906976357 0.0138745409853 0.833 1.38155599065e-38
0.0309063404635 0.0139078532086 0.835 1.27981765837e-38
0.0324516574867 0.0139078532086 0.835 1.33527810887e-38
0.0339969745099 0.0139078532086 0.835 1.51048469794e-38
0.035542291533 0.0139078532086 0.835 1.27081487626e-38
0.0370876085562 0.0139078532086 0.835 1.20624514497e-38
0.0386329255794 0.0139078532086 0.835 1.19709620743e-38
0.0401782426026 0.0139078532086 0.835 1.33542496495e-38
0.0417235596257 0.0139078532086 0.835 1.28936414429e-38
0.0432688766489 0.0139078532086 0.835 1.59342769417e-38
0.0448141936721 0.0139078532086 0.835 1.37216042458e-38
0.0464705514394 0.0139411654318 0.837 1.38112537163e-38
0.0481343119231 0.0139744776551 0.839 1.44602258637e-38
0.049805475123 0.0140077898783 0.841 1.29876125179e-38
0.0513618962206 0.0140077898783 0.841 1.16972786751e-38
0.0530441634949 0.0140411021016 0.843 9.48460878177e-39
0.0546042859506 0.0140411021016 0.843 1.09589975727e-38
0.0561644084064 0.0140411021016 0.843 1.03100142149e-38
0.0577245308621 0.0140411021016 0.843 1.03125323483e-38
0.0592846533178 0.0140411021016 0.843 1.04969264106e-38
0.0607004228061 0.0140077898783 0.841 1.03143316155e-38
0.0622568439037 0.0140077898783 0.841 1.03132147806e-38
0.0638132650013 0.0140077898783 0.841 1.1415637302e-38
0.0655251431408 0.0140411021016 0.843 1.20609884941e-38
0.0670852655965 0.0140411021016 0.843 1.14174379705e-38
0.0686453880522 0.0140411021016 0.843 1.08664067767e-38
0.070205510508 0.0140411021016 0.843 1.12358983531e-38
0.0722764203869 0.0141410387714 0.849 8.93028453655e-39
0.0125402013761 0.0156752517201 0.847 1.56472461747e-38
0.0141077265481 0.0156752517201 0.847 1.51851708087e-38
0.0156012245573 0.0156012245573 0.843 1.72105992012e-38
0.0170392021945 0.0154901838131 0.837 9.56703455874e-39
0.0185882205758 0.0154901838131 0.837 9.94407773264e-39
0.0201372389571 0.0154901838131 0.837 9.7604305624e-39
0.0216344383245 0.0154531702318 0.835 1.23422851479e-38
0.0231797553476 0.0154531702318 0.835 1.31706164922e-38
0.0247250723708 0.0154531702318 0.835 1.27099494311e-38
0.026270389394 0.0154531702318 0.835 1.3725896423e-38
0.0278157064172 0.0154531702318 0.835 1.20631717171e-38
0.0293610234403 0.0154531702318 0.835 1.37194140163e-38
0.0310543947891 0.0155271973945 0.839 1.31651710464e-38
0.0326071145285 0.0155271973945 0.839 1.51970426092e-38
0.034159834268 0.0155271973945 0.839 1.27070977888e-38
0.0357125540074 0.0155271973945 0.839 1.27974759345e-38
0.0373541063422 0.0155642109759 0.841 1.50104835408e-38
0.0388179934863 0.0155271973945 0.839 1.29836860797e-38
0.0403707132258 0.0155271973945 0.839 1.4093235605e-38
0.0418234962955 0.0154901838131 0.837 1.19716809404e-38
0.0433725146768 0.0154901838131 0.837 1.08621131982e-38
0.0450288724442 0.0155271973945 0.839 1.20602458059e-38
0.0466926329278 0.0155642109759 0.841 1.06769736451e-38
0.0483637961277 0.0156012245573 0.843 9.57460857694e-39
0.0499239185834 0.0156012245573 0.843 1.02196276614e-38
0.0514840410392 0.0156012245573 0.843 1.03135679078e-38
0.0531700096716 0.0156382381387 0.845 1.01292327e-38
0.0547338334855 0.0156382381387 0.845 1.02214297312e-38
0.0561644084064 0.0156012245573 0.843 9.57426105492e-39
0.0577245308621 0.0156012245573 0.843 1.01248634514e-38
0.0594253049271 0.0156382381387 0.845 1.12315935643e-38
0.060989128741 0.0156382381387 0.845 1.45520417417e-38
0.0625529525549 0.0156382381387 0.845 1.27984960798e-38
0.0641167763688 0.0156382381387 0.845 1.09553401837e-38
0.0656806001826 0.0156382381387 0.845 1.14174127471e-38
0.0674035823965 0.0156752517201 0.847 1.16007894668e-38
0.0689711075685 0.0156752517201 0.847 1.08664067767e-38
0.0708717549731 0.0157492788829 0.851 1.16939589991e-38
0.0724466828613 0.0157492788829 0.851 1.04943774487e-38
0.0110892689855 0.01742599412 0.856 1.34360070071e-38
0.0125402013761 0.0172427768921 0.847 1.55543008501e-38
0.0140744143248 0.0172020619526 0.845 1.51859317137e-38
0.0156012245573 0.0171613470131 0.843 1.79503012203e-38
0.017079917134 0.017079917134 0.839 9.10606341592e-39
0.0186326368734 0.017079917134 0.839 9.94482602602e-39
0.0201853566129 0.017079917134 0.839 1.00370188533e-38
0.0216862573384 0.0170392021945 0.837 8.28567463128e-39
0.0232352757197 0.0170392021945 0.837 1.2425843174e-38
0.024784294101 0.0170392021945 0.837 1.13219899269e-38
0.0263333124823 0.0170392021945 0.837 1.40914237261e-38
0.0278823308637 0.0170392021945 0.837 1.25233847575e-38
0.0295720008543 0.0171206320735 0.841 1.28932462768e-38
0.0311284219519 0.0171206320735 0.841 1.33542216235e-38
0.0326848430495 0.0171206320735 0.841 1.22475237405e-38
0.0342412641471 0.0171206320735 0.841 1.17865497951e-38
0.0357976852446 0.0171206320735 0.841 1.0955031898e-38
0.0373541063422 0.0171206320735 0.841 1.06777219384e-38
0.0389105274398 0.0171206320735 0.841 1.02181338772e-38
0.0403707132258 0.017079917134 0.839 9.48349755209e-39
0.0419234329653 0.017079917134 0.839 9.94161424994e-39
0.0434761527047 0.017079917134 0.839 9.66786358844e-39
0.0451362118302 0.0171206320735 0.841 9.57677638566e-39
0.046803673672 0.0171613470131 0.843 8.83737844837e-39
0.0483637961277 0.0171613470131 0.843 1.03085512593e-38
0.0500423620439 0.0172020619526 0.845 1.24308261913e-38
0.0516061858578 0.0172020619526 0.845 1.04018553163e-38
0.0532958558484 0.0172427768921 0.847 1.01299361519e-38
0.0548633810204 0.0172427768921 0.847 9.850854951e-39
0.0564309061924 0.0172427768921 0.847 1.94347569394e-38
0.0579984313644 0.0172427768921 0.847 1.91586212679e-38
0.0595659565364 0.0172427768921 0.847 1.37161896285e-38
0.0611334817084 0.0172427768921 0.847 1.55568652263e-38
0.0627010068805 0.0172427768921 0.847 1.58359884661e-38
0.0644202877362 0.0172834918317 0.849 1.11365266738e-38
0.0661469713082 0.0173242067712 0.851 1.16933130005e-38
0.0677218991965 0.0173242067712 0.851 1.09546787708e-38
0.0692968270848 0.0173242067712 0.851 1.1139734246e-38
0.0711215966475 0.0173852791805 0.854 1.15095901601e-38
0.072702076573 0.0173852791805 0.854 7.45159095674e-39
0.00952729585067 0.0190545917013 0.858 1.34417481269e-38
0.0110892689855 0.0190101754037 0.856 1.48182281941e-38
0.0125402013761 0.0188103020641 0.847 1.35274627513e-38
0.0140744143248 0.0187658857665 0.845 1.58323282745e-38
0.0156012245573 0.0187214694688 0.843 1.67538964135e-38
0.0171206320735 0.0186770531711 0.841 9.10642214832e-39
0.0186326368734 0.0186326368734 0.839 9.94482602602e-39
0.0201853566129 0.0186326368734 0.839 9.76222702703e-39
0.0217380763524 0.0186326368734 0.839 8.28571246633e-39
0.0232907960918 0.0186326368734 0.839 1.21503338829e-38
0.0248435158313 0.0186326368734 0.839 1.1597485205e-38
0.0264591586591 0.0186770531711 0.841 1.11390279916e-38
0.0280822042032 0.0187214694688 0.843 9.20688824172e-39
0.0296423266589 0.0187214694688 0.843 9.57385047447e-39
0.0312024491147 0.0187214694688 0.843 9.02072153684e-39
0.0327625715704 0.0187214694688 0.843 1.02185164317e-38
0.0343226940261 0.0187214694688 0.843 8.37751713393e-39
0.0358828164819 0.0187214694688 0.843 9.57604630916e-39
0.0374429389376 0.0187214694688 0.843 9.67111039698e-39
0.0389105274398 0.0186770531711 0.841 9.57892737881e-39
0.0404669485374 0.0186770531711 0.841 9.94662389195e-39
0.042023369635 0.0186770531711 0.841 8.1931244729e-39
0.0435797907326 0.0186770531711 0.841 1.31651710464e-38
0.0452435512162 0.0187214694688 0.843 1.17793653379e-38
0.046803673672 0.0187214694688 0.843 1.79590229019e-38
0.04847853823 0.0187658857665 0.845 1.64842263331e-38
0.0500423620439 0.0187658857665 0.845 1.98043227847e-38
0.0517283306764 0.0188103020641 0.847 8.46178701967e-39
0.0534217020251 0.0188547183618 0.849 9.85546662425e-39
0.0549929285553 0.0188547183618 0.849 9.94591763752e-39
0.0565641550854 0.0188547183618 0.849 1.72210360722e-38
0.0581353816156 0.0188547183618 0.849 1.73085051223e-38
0.059847259755 0.0188991346595 0.851 1.47299113584e-38
0.0614221876433 0.0188991346595 0.851 1.3532874566e-38
0.06321919702 0.018965759106 0.854 1.21503058569e-38
0.0647996769455 0.018965759106 0.854 1.23350558491e-38
0.0665356139128 0.0190101754037 0.856 1.33506497137e-38
0.0681197951965 0.0190101754037 0.856 1.45484712332e-38
0.0698668362382 0.0190545917013 0.858 1.34460893495e-38
0.07145471888 0.0190545917013 0.858 1.40972012797e-38
0.0730426015218 0.0190545917013 0.858 8.3803715789e-39
0.006321919702 0.0205462390315 0.854 1.3161568308e-38
0.0079023996275 0.0205462390315 0.854 1.09503207326e-38
0.00948287955299 0.0205462390315 0.854 1.36246974505e-38
0.0110633594785 0.0205462390315 0.854 1.66621337849e-38
0.0125402013761 0.0203778272361 0.847 1.35285613693e-38
0.0141077265481 0.0203778272361 0.847 1.30679517615e-38
0.0156382381387 0.0203297095803 0.845 1.56479636395e-38
0.0172020619526 0.0203297095803 0.845 8.37030324943e-39
0.0187214694688 0.0202815919245 0.843 9.66860627663e-39
0.0202815919245 0.0202815919245 0.843 9.02609131256e-39
0.0218417143803 0.0202815919245 0.843 9.3945207048e-39
0.023401836836 0.0202815919245 0.843 9.30125168031e-39
0.0249619592917 0.0202815919245 0.843 9.02214385478e-39
0.0265220817475 0.0202815919245 0.843 1.00366713313e-38
0.0280822042032 0.0202815919245 0.843 9.76187950501e-39
0.0297126524636 0.0203297095803 0.845 8.74916951263e-39
0.0312764762774 0.0203297095803 0.845 8.83633027711e-39
0.0328403000913 0.0203297095803 0.845 1.20538222538e-38
0.0344041239052 0.0203297095803 0.845 1.43615618401e-38
0.0359679477191 0.0203297095803 0.845 1.63005189071e-38
0.0375317715329 0.0203297095803 0.845 1.2982922372e-38
0.0390955953468 0.0203297095803 0.845 1.01205670703e-38
0.0406594191607 0.0203297095803 0.845 8.47113788433e-39
0.0422232429745 0.0203297095803 0.845 1.52873983342e-38
0.0437870667884 0.0203297095803 0.845 1.90642970656e-38
0.0453508906023 0.0203297095803 0.845 1.62943700094e-38
0.0470257551603 0.0203778272361 0.847 2.15476782041e-38
0.0487080224347 0.020425944892 0.849 1.8129748699e-38
0.0503976924253 0.0204740625478 0.851 1.59123592324e-38
0.0519726203136 0.0204740625478 0.851 1.06672668506e-38
0.0535475482019 0.0204740625478 0.851 1.0406539857e-38
0.0551224760902 0.0204740625478 0.851 1.07767671152e-38
0.056897277318 0.0205462390315 0.854 1.39992827469e-38
0.0584777572435 0.0205462390315 0.854 1.20602458059e-38
0.0601988887783 0.0205943566873 0.856 1.36250505777e-38
0.0619274230293 0.0206424743431 0.858 1.4737158874e-38
0.0635153056711 0.0206424743431 0.858 1.33535630132e-38
0.0651031883129 0.0206424743431 0.858 1.49204991599e-38
0.0666910709547 0.0206424743431 0.858 1.6488840809e-38
0.0682789535964 0.0206424743431 0.858 1.63005385252e-38
0.0700296959964 0.0206905919989 0.86 1.54754245622e-38
0.0716212799963 0.0206905919989 0.86 1.40028770774e-38
0.0732128639962 0.0206905919989 0.86 6.71622175253e-39
0.006321919702 0.022126718957 0.854 1.30701013533e-38
0.0079023996275 0.022126718957 0.854 1.21506870101e-38
0.00948287955299 0.022126718957 0.854 1.60218034451e-38
0.0110633594785 0.022126718957 0.854 1.38973789212e-38
0.0125994231063 0.0220489904361 0.851 1.408282676e-38
0.0141410387714 0.0219971714221 0.849 1.26091386183e-38
0.0156752517201 0.0219453524082 0.847 1.38087411882e-38
0.0172020619526 0.0218935333942 0.845 9.47737808169e-39
0.0187658857665 0.0218935333942 0.845 9.39380323998e-39
0.0203297095803 0.0218935333942 0.845 9.21117901762e-39
0.0218417143803 0.0218417143803 0.843 9.48631976719e-39
0.023401836836 0.0218417143803 0.843 9.67003419976e-39
0.0249619592917 0.0218417143803 0.843 9.57746582451e-39
0.0265220817475 0.0218417143803 0.843 9.39310118945e-39
0.0281488286497 0.0218935333942 0.845 8.47038959095e-39
0.0297126524636 0.0218935333942 0.845 1.21538539447e-38
0.0312764762774 0.0218935333942 0.845 1.77792811505e-38
0.0328403000913 0.0218935333942 0.845 1.49139943324e-38
0.0344041239052 0.0218935333942 0.845 2.0442097156e-38
0.0359679477191 0.0218935333942 0.845 2.10875212157e-38
0.0375317715329 0.0218935333942 0.845 1.5093328306e-38
0.0390955953468 0.0218935333942 0.845 1.17714451989e-38
0.0406594191607 0.0218935333942 0.845 7.92045281122e-39
0.0422232429745 0.0218935333942 0.845 1.66710964898e-38
0.0445643519977 0.0222821759988 0.86 1.73121498996e-38
0.0458339178395 0.022126718957 0.854 1.36250155452e-38
0.047414397765 0.022126718957 0.854 1.38008476739e-38
0.0489948776905 0.022126718957 0.854 1.37925856182e-38
0.050575357616 0.022126718957 0.854 1.47149174648e-38
0.0521558375415 0.022126718957 0.854 1.50015012176e-38
0.053736317467 0.022126718957 0.854 1.28910952836e-38
0.0553167973925 0.022126718957 0.854 1.35397297181e-38
0.056897277318 0.022126718957 0.854 1.12373753217e-38
0.0586147074946 0.0221785379709 0.856 1.42754772729e-38
0.0604801919968 0.0222821759988 0.86 1.31665555292e-38
0.0620717759968 0.0222821759988 0.86 1.48250385046e-38
0.0636633599967 0.0222821759988 0.86 1.41822278666e-38
0.0652549439966 0.0222821759988 0.86 1.37226762391e-38
0.0668465279965 0.0222821759988 0.86 1.22457539005e-38
0.0685972703964 0.0223339950128 0.862 1.22450504487e-38
0.0701925557545 0.0223339950128 0.862 1.05866053084e-38
0.0723708050195 0.0225153615616 0.869 1.06773533969e-38
0.073979045131 0.0225153615616 0.869 7.17213701049e-39
0.006321919702 0.0237071988825 0.854 1.44551587685e-38
0.0079023996275 0.0237071988825 0.854 1.15049392505e-38
0.00948287955299 0.0237071988825 0.854 1.36228645521e-38
0.0110633594785 0.0237071988825 0.854 1.36222017379e-38
0.0125994231063 0.0236239183244 0.851 1.50973290131e-38
0.0141410387714 0.0235683979523 0.849 1.35282208538e-38
0.0157122653015 0.0235683979523 0.849 1.38073468962e-38
0.0172834918317 0.0235683979523 0.849 9.47632430525e-39
0.0188547183618 0.0235683979523 0.849 9.20941898675e-39
0.020425944892 0.0235683979523 0.849 9.48527019465e-39
0.0218935333942 0.0234573572081 0.845 9.39272143757e-39
0.0234573572081 0.0234573572081 0.845 9.02394031941e-39
0.0250804027522 0.0235128775802 0.847 9.76290245289e-39
0.0266479279242 0.0235128775802 0.847 9.48602829711e-39
0.0282154530962 0.0235128775802 0.847 8.47076934283e-39
0.0297829782682 0.0235128775802 0.847 1.67655468089e-38
0.0313505034402 0.0235128775802 0.847 1.78692893534e-38
0.0329180286122 0.0235128775802 0.847 1.75844810458e-38
0.0344855537843 0.0235128775802 0.847 1.47217698143e-38
0.0360530789563 0.0235128775802 0.847 1.41624093024e-38
0.037931518212 0.0237071988825 0.854 1.33348122385e-38
0.0395119981375 0.0237071988825 0.854 1.07645267731e-38
0.041092478063 0.0237071988825 0.854 1.01292327e-38
0.0429727679978 0.0238737599988 0.86 1.05862493786e-38
0.0445643519977 0.0238737599988 0.86 1.34403706505e-38
0.0462632753836 0.0239292803708 0.862 1.23350530465e-38
0.0478585607417 0.0239292803708 0.862 1.29872986271e-38
0.0492243618951 0.0238182396267 0.858 1.29883580087e-38
0.0508122445369 0.0238182396267 0.858 1.39045689837e-38
0.0524001271787 0.0238182396267 0.858 1.46370571182e-38
0.0539880098204 0.0238182396267 0.858 1.51930825398e-38
0.0555758924622 0.0238182396267 0.858 1.48293545039e-38
0.057163775104 0.0238182396267 0.858 1.25295448655e-38
0.0588886079969 0.0238737599988 0.86 1.21542981563e-38
0.0604801919968 0.0238737599988 0.86 1.12301754502e-38
0.0622161289642 0.0239292803708 0.862 1.13220165516e-38
0.0638114143223 0.0239292803708 0.862 1.12301726476e-38
0.0654066996803 0.0239292803708 0.862 1.15078357344e-38
0.0670019850384 0.0239292803708 0.862 1.04047279781e-38
0.0687564287964 0.0239848007429 0.864 1.0221372278e-38
0.0705997051498 0.0240680813011 0.867 1.12323404563e-38
0.0723708050195 0.0241236016732 0.869 1.11393937305e-38
0.073979045131 0.0241236016732 0.869 4.77544580022e-39
0.006321919702 0.025287678808 0.854 1.38105348502e-38
0.0079023996275 0.025287678808 0.854 1.18730379363e-38
0.00948287955299 0.025287678808 0.854 1.39005977038e-38
0.0110633594785 0.025287678808 0.854 1.52835181388e-38
0.012643839404 0.025287678808 0.854 1.54671456908e-38
0.0142243193295 0.025287678808 0.854 1.28828514448e-38
0.015804799255 0.025287678808 0.854 1.3805867125e-38
0.0173852791805 0.025287678808 0.854 8.55649657898e-39
0.018965759106 0.025287678808 0.854 9.20835259862e-39
0.0205462390315 0.025287678808 0.854 9.30125448291e-39
0.022126718957 0.025287678808 0.854 9.39345011277e-39
0.0237071988825 0.025287678808 0.854 8.19310905862e-39
0.025287678808 0.025287678808 0.854 9.48276607429e-39
0.0268681587335 0.025287678808 0.854 9.7615235752e-39
0.028448638659 0.025287678808 0.854 8.00656260185e-39
0.0300291185845 0.025287678808 0.854 8.56298038698e-39
0.0316836256728 0.0253469005382 0.856 1.27956262205e-38
0.0333455354773 0.0254061222684 0.858 1.38000881702e-38
0.0349334181191 0.0254061222684 0.858 1.37107988333e-38
0.0366064319981 0.0254653439987 0.86 1.22446749007e-38
0.038198015998 0.0254653439987 0.86 1.44606098195e-38
0.0397895999979 0.0254653439987 0.86 1.18834776099e-38
0.0413811839978 0.0254653439987 0.86 1.27128403099e-38
0.0429727679978 0.0254653439987 0.86 1.1972031265e-38
0.0445643519977 0.0254653439987 0.86 1.38129997342e-38
0.0462632753836 0.0255245657289 0.862 1.51037553679e-38
0.0478585607417 0.0255245657289 0.862 1.4463109736e-38
0.0494538460997 0.0255245657289 0.862 1.26173824572e-38
0.0510491314578 0.0255245657289 0.862 1.14159876266e-38
0.0526444168159 0.0255245657289 0.862 1.15053316141e-38
0.0542397021739 0.0255245657289 0.862 1.11386930813e-38
0.055834987532 0.0255245657289 0.862 8.10127916765e-39
0.05743027289 0.0255245657289 0.862 1.02206660235e-38
0.0590255582481 0.0255245657289 0.862 1.19699054952e-38
0.0606208436061 0.0255245657289 0.862 1.26116777711e-38
0.0623604819316 0.0255837874591 0.864 1.15060182503e-38
0.0639594686478 0.0255837874591 0.864 1.05891206391e-38
0.065558455364 0.0255837874591 0.864 1.04029146979e-38
0.0671574420802 0.0255837874591 0.864 9.94410435731e-39
0.0689951663964 0.0256726200545 0.867 1.08671354519e-38
0.0709254246661 0.0257910635149 0.871 1.25277484009e-38
0.0725373661358 0.0257910635149 0.871 1.00362733625e-38
0.0747452262659 0.0259983395707 0.878 4.22443282327e-39
0.00950508770183 0.0269310818219 0.856 1.32552142818e-38
0.0110892689855 0.0269310818219 0.856 1.50962556185e-38
0.0126734502691 0.0269310818219 0.856 1.50980296624e-38
0.0142576315527 0.0269310818219 0.856 1.27924382665e-38
0.0158418128364 0.0269310818219 0.856 1.39927793207e-38
0.01742599412 0.0269310818219 0.856 8.1859189962e-39
0.0190101754037 0.0269310818219 0.856 1.14163855953e-38
0.0205943566873 0.0269310818219 0.856 1.12333942328e-38
0.0221785379709 0.0269310818219 0.856 1.05894737664e-38
0.0238182396267 0.0269940049102 0.858 1.02224849089e-38
0.0254061222684 0.0269940049102 0.858 1.28947106337e-38
0.0269940049102 0.0269940049102 0.858 1.54765259828e-38
0.028581887552 0.0269940049102 0.858 1.52953773277e-38
0.0302400959984 0.0270569279986 0.86 1.0498022226e-38
0.0318316799983 0.0270569279986 0.86 1.35375464951e-38
0.0334232639983 0.0270569279986 0.86 1.41786153191e-38
0.0350148479982 0.0270569279986 0.86 1.52882068834e-38
0.0366915632353 0.027119851087 0.862 1.2985814652e-38
0.0382868485934 0.027119851087 0.862 1.13291799893e-38
0.0398821339514 0.027119851087 0.862 1.30816228293e-38
0.0415736546211 0.0271827741753 0.864 1.0037740522e-38
0.0433225463419 0.0272771588079 0.867 1.04043748509e-38
0.0449270850953 0.0272771588079 0.867 1.10453834191e-38
0.0465316238487 0.0272771588079 0.867 9.93943803343e-39
0.0482472033463 0.0273400818963 0.869 9.66535946809e-39
0.0497407013555 0.0272771588079 0.867 9.57424564064e-39
0.051345240109 0.0272771588079 0.867 1.35415121697e-38
0.0529497788624 0.0272771588079 0.867 9.66968107255e-39
0.0545543176158 0.0272771588079 0.867 1.54736673339e-38
0.0561588563692 0.0272771588079 0.867 1.37230083468e-38
0.057563521783 0.0271827741753 0.864 1.58457344969e-38
0.0591625084992 0.0271827741753 0.864 1.38180962567e-38
0.0609724726294 0.0272771588079 0.867 1.28932462768e-38
0.0625770113828 0.0272771588079 0.867 1.08595992687e-38
0.0643296044618 0.0273400818963 0.869 1.41818369043e-38
0.066089600257 0.0274030049846 0.871 1.56569221406e-38
0.0678569987686 0.027465928073 0.873 1.60293466347e-38
0.0696317999964 0.0275288511614 0.875 1.45571256525e-38
0.0712511441823 0.0275288511614 0.875 1.32685378276e-38
0.0728704883683 0.0275288511614 0.875 1.03139154298e-38
0.0747452262659 0.0276232357939 0.878 4.31626831943e-39
0.00950508770183 0.0285152631055 0.856 1.3623643674e-38
0.0110892689855 0.0285152631055 0.856 1.38977138316e-38
0.0126734502691 0.0285152631055 0.856 1.56519321167e-38
0.0142576315527 0.0285152631055 0.856 1.50065627077e-38
0.0158788264178 0.028581887552 0.858 1.33456120457e-38
0.0175074239991 0.0286485119985 0.86 9.38587469327e-39
0.0191434242967 0.028715136445 0.862 1.04915356154e-38
0.0207387096547 0.028715136445 0.862 1.41804089812e-38
0.0223339950128 0.028715136445 0.862 1.20627793536e-38
0.0239292803708 0.028715136445 0.862 1.20634800028e-38
0.0254653439987 0.0286485119985 0.86 1.28003471951e-38
0.0270569279986 0.0286485119985 0.86 1.44630929204e-38
0.028715136445 0.028715136445 0.862 1.12384290982e-38
0.0303104218031 0.028715136445 0.862 1.18816349024e-38
0.0319057071611 0.028715136445 0.862 1.09553626045e-38
0.0335009925192 0.028715136445 0.862 1.04929229009e-38
0.0350962778772 0.028715136445 0.862 9.937633161e-39
0.0367766944725 0.0287817608915 0.864 9.93980377232e-39
0.0383756811887 0.0287817608915 0.864 8.55863776304e-39
0.0399746679049 0.0287817608915 0.864 1.16904263256e-38
0.0417180075885 0.0288816975613 0.867 1.22457286772e-38
0.0434224830117 0.0289483220078 0.869 1.21535582707e-38
0.0450307231232 0.0289483220078 0.869 1.38134229263e-38
0.0466389632348 0.0289483220078 0.869 1.41811278473e-38
0.0482472033463 0.0289483220078 0.869 1.40896763069e-38
0.0498554434579 0.0289483220078 0.869 1.30830717719e-38
0.0514636835694 0.0289483220078 0.869 1.31774113884e-38
0.053071923681 0.0289483220078 0.869 1.06834868803e-38
0.0546801637925 0.0289483220078 0.869 1.45502438758e-38
0.056288403904 0.0289483220078 0.869 1.3252712964e-38
0.0578966440156 0.0289483220078 0.869 1.52900019468e-38
0.0595048841271 0.0289483220078 0.869 1.23401299508e-38
0.0611131242387 0.0289483220078 0.869 1.19716809404e-38
0.0628657173177 0.0290149464543 0.871 9.38988941337e-39
0.0647737674385 0.0291481953473 0.875 1.75955386919e-38
0.0663931116244 0.0291481953473 0.875 1.16886270584e-38
0.0682456413732 0.0292481320171 0.878 1.51016450124e-38
0.0700296959964 0.0293147564636 0.88 9.29655032396e-39
0.0716582935777 0.0293147564636 0.88 1.12304851372e-38
0.073286891159 0.0293147564636 0.88 1.06773660086e-38
0.0749154887403 0.0293147564636 0.88 4.5917748079e-39
0.0765440863216 0.0293147564636 0.88 2.35087337478e-38
0.0126734502691 0.0300994443891 0.856 1.5557934417e-38
0.0142576315527 0.0300994443891 0.856 1.68501025596e-38
0.0158788264178 0.0301697701938 0.858 1.3808693544e-38
0.017690641227 0.0305565621193 0.869 9.7532166779e-39
0.0192988813385 0.0305565621193 0.869 9.84616620634e-39
0.0209071214501 0.0305565621193 0.869 1.05851507606e-38
0.0224635425477 0.0304862363147 0.867 1.18773189031e-38
0.0240680813011 0.0304862363147 0.867 1.07723908601e-38
0.0256726200545 0.0304862363147 0.867 9.20368627473e-39
0.0272771588079 0.0304862363147 0.867 8.83669601601e-39
0.0288816975613 0.0304862363147 0.867 8.65410262222e-39
0.0303807476077 0.0303807476077 0.864 1.10490253938e-38
0.0319797343239 0.0303807476077 0.864 1.25227261472e-38
0.0335787210401 0.0303807476077 0.864 1.24294290968e-38
0.0351777077563 0.0303807476077 0.864 1.36247352855e-38
0.0369043913283 0.0304862363147 0.867 1.66696167187e-38
0.0385089300817 0.0304862363147 0.867 1.41850837128e-38
0.0401134688351 0.0304862363147 0.867 1.48304909569e-38
0.0418142429001 0.0305565621193 0.869 1.27110872855e-38
0.0434224830117 0.0305565621193 0.869 1.18795091326e-38
0.0450307231232 0.0305565621193 0.869 1.0952876701e-38
0.0467463026208 0.030626887924 0.871 1.30704544806e-38
0.0483582440905 0.030626887924 0.871 1.78635089973e-38
0.0499701855602 0.030626887924 0.871 1.59270476429e-38
0.0515821270299 0.030626887924 0.871 1.38166725375e-38
0.0533162133182 0.0306972137286 0.873 1.30791467349e-38
0.054931856146 0.0306972137286 0.873 1.37241209778e-38
0.0565474989738 0.0306972137286 0.873 1.0861422358e-38
0.0581631418016 0.0306972137286 0.873 1.408644211e-38
0.0597787846294 0.0306972137286 0.873 1.28828234188e-38
0.0615350790666 0.0307675395333 0.875 1.44552064126e-38
0.0633709527037 0.0308730282403 0.878 1.66718573949e-38
0.0649958489268 0.0308730282403 0.878 1.7688434971e-38
0.06662074515 0.0308730282403 0.878 1.48300999947e-38
0.068401098415 0.0309433540449 0.88 1.24326408728e-38
0.0700296959964 0.0309433540449 0.88 1.05876562822e-38
0.0718211533358 0.0310136798495 0.882 1.18784133172e-38
0.0737032939496 0.0311191685565 0.885 1.04947726148e-38
0.0753411449263 0.0311191685565 0.885 4.5917748079e-39
0.076978995903 0.0311191685565 0.885 2.35087785894e-38
0.017690641227 0.0321648022309 0.869 9.84397597684e-39
0.0192988813385 0.0321648022309 0.869 1.06755667414e-38
0.0209071214501 0.0321648022309 0.869 9.57639663378e-39
0.0225153615616 0.0321648022309 0.869 8.93139016104e-39
0.0241236016732 0.0321648022309 0.869 9.20977491656e-39
0.0257318417847 0.0321648022309 0.869 8.37751713393e-39
0.0273400818963 0.0321648022309 0.869 8.74663316241e-39
0.0289483220078 0.0321648022309 0.869 8.0083422509e-39
0.0305565621193 0.0321648022309 0.869 1.13259822262e-38
0.0321648022309 0.0321648022309 0.869 1.33549685156e-38
0.0338507708634 0.0322388293937 0.871 1.24308626251e-38
0.035462712333 0.0322388293937 0.871 1.40813820213e-38
