# .PCD v0.7 - Point Cloud Data file format
VERSION 0.7
FIELDS x y z rgb
SIZE 4 4 4 4
TYPE F F F F
COUNT 1 1 1 1
WIDTH 834
HEIGHT 1
VIEWPOINT 0 0 0 1 0 0 0
POINTS 834
DATA ascii
0.0324516574867 -0.0231797553476 0.835 1.84076570131e-38
0.0343226940261 -0.023401836836 0.843 2.06261549067e-38
0.0358828164819 -0.023401836836 0.843 2.06257443263e-38
0.0374429389376 -0.023401836836 0.843 1.26073883965e-38
0.0390955953468 -0.0234573572081 0.845 2.34915033819e-38
0.0406594191607 -0.0234573572081 0.845 1.42625110582e-38
0.0434224830117 -0.0241236016732 0.869 1.84948233827e-38
0.0451343611511 -0.0241791220453 0.871 2.08801024183e-38
0.0469609813929 -0.0242901627894 0.875 2.10591239023e-38
0.0487468866951 -0.0243734433476 0.878 2.12449248683e-38
0.0504865250206 -0.0244289637197 0.88 2.15222502422e-38
0.0522335660624 -0.0244844840917 0.882 2.14278896062e-38
0.0542933718669 -0.0246788053941 0.889 2.17948938779e-38
0.0562532410017 -0.0248176063243 0.894 2.34572920812e-38
0.05790774809 -0.0248176063243 0.894 2.25385531638e-38
0.0596955040713 -0.0248731266964 0.896 2.1705552693e-38
0.0614906627689 -0.0249286470685 0.898 2.24409695414e-38
0.0631525725735 -0.0249286470685 0.898 2.21650889062e-38
0.0650310118292 -0.0250119276266 0.901 2.2808673061e-38
0.0670686094849 -0.0251507285568 0.906 2.30084954194e-38
-0.0352868978214 -0.0214789812826 0.829 1.32595498992e-38
-0.0336712549936 -0.0214271622687 0.827 1.01306241894e-38
-0.0318298293193 -0.0212198862128 0.819 1.09597388596e-38
-0.0301660688356 -0.0211162481849 0.815 1.18808711947e-38
-0.0286577653939 -0.0211162481849 0.815 1.16018488484e-38
-0.0270828375056 -0.021064429171 0.813 1.14152841748e-38
-0.0255153123336 -0.021012610157 0.811 1.06791638746e-38
-0.0240144116081 -0.021012610157 0.811 1.39030892125e-38
-0.0224024701384 -0.0209089721291 0.807 9.20292116577e-39
-0.0208571531152 -0.0208571531152 0.805 1.21489045585e-38
-0.0193192388083 -0.0208053341012 0.803 1.26127763891e-38
-0.0177221027712 -0.0206757865664 0.798 8.65443472995e-39
-0.016204545934 -0.0206239675524 0.796 1.42707534958e-38
-0.0147314053946 -0.0206239675524 0.796 7.54163138957e-39
-0.0131916404086 -0.0205203295245 0.792 1.46456891168e-38
-0.0116962917203 -0.0204685105106 0.79 2.05401726342e-38
-0.0102213005018 -0.0204426010036 0.789 1.28871029843e-38
-0.00873890656699 -0.0203907819896 0.787 3.21424236553e-39
-0.00726391534846 -0.0203389629757 0.785 2.23797552193e-38
-0.00581113227877 -0.0203389629757 0.785 1.04915131946e-38
-0.00434724513466 -0.0202871439617 0.783 9.01925017345e-39
-0.0028981634231 -0.0202871439617 0.783 8.37859192985e-39
-0.00144908171155 -0.0202871439617 0.783 7.36444000135e-39
0.0 -0.0202871439617 0.783 4.68612143091e-39
0.00144908171155 -0.0202871439617 0.783 2.22917901095e-38
0.0028981634231 -0.0202871439617 0.783 2.34878067565e-38
0.00434724513466 -0.0202871439617 0.783 1.84095599764e-38
0.00581113227877 -0.0203389629757 0.785 1.6287903017e-38
0.00726391534846 -0.0203389629757 0.785 1.96066107817e-38
0.00873890656699 -0.0203907819896 0.787 2.16374355747e-38
0.0102342552553 -0.0204685105106 0.79 2.23743223851e-38
0.011873956911 -0.0207794245943 0.802 2.34806124902e-38
0.0133748576365 -0.0208053341012 0.803 2.34831614521e-38
0.0148979665109 -0.0208571531152 0.805 2.34874872605e-38
0.0163877631619 -0.0208571531152 0.805 2.15427414296e-38
0.0179219761107 -0.0209089721291 0.807 2.34805942733e-38
0.0194635917757 -0.0209607911431 0.809 1.99750625947e-38
0.021064429171 -0.021064429171 0.813 2.12622112862e-38
0.0226800719988 -0.0211680671989 0.817 2.18163968028e-38
0.024251298529 -0.0212198862128 0.819 1.97895853287e-38
0.0261445432172 -0.0215308002966 0.831 2.11732386428e-38
0.0275492086311 -0.0214271622687 0.827 1.93275099627e-38
0.0290797202217 -0.0214271622687 0.827 1.97895853287e-38
0.0311284219519 -0.0217898953663 0.841 2.02544843111e-38
0.0327625715704 -0.0218417143803 0.843 2.27437901395e-38
0.0343226940261 -0.0218417143803 0.843 1.42614698934e-38
0.0359679477191 -0.0218935333942 0.845 2.19151210822e-38
0.0375317715329 -0.0218935333942 0.845 1.5378152028e-38
0.0390955953468 -0.0218935333942 0.845 1.76708949182e-38
0.0406594191607 -0.0218935333942 0.845 1.52727001146e-38
0.0434224830117 -0.0225153615616 0.869 1.9966063456e-38
0.0451343611511 -0.0225671805756 0.871 2.14285776437e-38
0.0469609813929 -0.0226708186035 0.875 2.17026239792e-38
0.0487468866951 -0.0227485471244 0.878 2.1888499214e-38
0.0504865250206 -0.0228003661383 0.88 2.11538432707e-38
0.0522335660624 -0.0228521851523 0.882 2.17955202583e-38
0.0542933718669 -0.0230335517011 0.889 2.28090261882e-38
0.0562532410017 -0.023163099236 0.894 2.24405995986e-38
0.05790774809 -0.023163099236 0.894 2.17948798649e-38
0.0596955040713 -0.02321491825 0.896 2.29019476907e-38
0.0616960881456 -0.0233444657848 0.901 2.22558496064e-38
0.0635042015967 -0.0233962847988 0.903 2.20710351546e-38
0.0651753647966 -0.0233962847988 0.903 2.34716385749e-38
0.0672166638105 -0.0235258323337 0.908 1.81347106969e-38
-0.0373541063422 -0.0202334742687 0.841 1.09539585034e-38
-0.0357976852446 -0.0202334742687 0.841 1.36265373554e-38
-0.0339155446308 -0.0200410036455 0.833 1.18751454892e-38
-0.0318298293193 -0.0197041800548 0.819 1.10475778525e-38
-0.0303141231612 -0.0197041800548 0.819 1.23358167541e-38
-0.0287984170032 -0.0197041800548 0.819 1.19709592717e-38
-0.0272160863986 -0.019656062399 0.817 1.25198170516e-38
-0.0257040815987 -0.019656062399 0.817 1.13230731306e-38
-0.0241920767987 -0.019656062399 0.817 1.21535526655e-38
-0.0226800719988 -0.019656062399 0.817 1.42733893382e-38
-0.0211162481849 -0.0196079447432 0.815 1.00320022048e-38
-0.0193673564641 -0.0193673564641 0.805 1.03089562346e-38
-0.0178109353665 -0.0192951799804 0.802 1.35429190734e-38
-0.0162859758131 -0.0192470623246 0.8 1.05883751484e-38
-0.0148054325574 -0.0192470623246 0.8 1.12345054625e-38
-0.0132915770784 -0.0191989446688 0.798 9.94626796214e-39
-0.0117851243157 -0.019150827013 0.796 1.17797156625e-38
-0.0102860742692 -0.0191027093571 0.794 1.59332231653e-38
-0.00877221879024 -0.0190064740455 0.79 7.82502999099e-39
-0.00730092892985 -0.0189824152176 0.789 2.00737448352e-38
-0.00582593771132 -0.0189342975618 0.787 1.95281296599e-38
-0.00434724513466 -0.0188380622502 0.783 7.26074391499e-39
-0.0028981634231 -0.0188380622502 0.783 8.93284470885e-39
-0.00144908171155 -0.0188380622502 0.783 8.74879816854e-39
0.0 -0.0188380622502 0.783 3.489748854e-39
0.00144908171155 -0.0188380622502 0.783 2.34917430039e-38
0.0028981634231 -0.0188380622502 0.783 1.93317895282e-38
0.00435834920908 -0.018886179906 0.785 1.5085773906e-38
0.00581113227877 -0.018886179906 0.785 1.78534518782e-38
0.00728242213916 -0.0189342975618 0.787 2.08980964919e-38
0.00877221879024 -0.0190064740455 0.79 2.17274633958e-38
0.0103897122971 -0.0192951799804 0.802 2.24668277019e-38
0.0118887623436 -0.0193192388083 0.803 2.34846075921e-38
0.0134081698598 -0.0193673564641 0.805 2.34852900245e-38
0.0148979665109 -0.0193673564641 0.805 2.30199622448e-38
0.0164284781015 -0.0194154741199 0.807 2.28331046997e-38
0.0179663924084 -0.0194635917757 0.809 2.19140252668e-38
0.0195117094315 -0.0195117094315 0.811 1.94222573571e-38
0.0211162481849 -0.0196079447432 0.815 2.11703813952e-38
0.0227355923709 -0.0197041800548 0.819 2.12646873805e-38
0.0243105202592 -0.0197522977106 0.821 2.34795376943e-38
0.0261445432172 -0.0199928859897 0.831 2.20937249793e-38
0.0278157064172 -0.0200891213013 0.835 2.19089609742e-38
0.0295720008543 -0.0202334742687 0.841 1.67481608989e-38
0.0311284219519 -0.0202334742687 0.841 2.13533153045e-38
0.0327625715704 -0.0202815919245 0.843 1.76698019054e-38
0.0343226940261 -0.0202815919245 0.843 1.33416842061e-38
0.0359679477191 -0.0203297095803 0.845 1.98939624461e-38
0.0375317715329 -0.0203297095803 0.845 1.76835164134e-38
0.0395119981375 -0.0205462390315 0.854 1.32540862365e-38
0.0417180075885 -0.0208590037943 0.867 1.78520673953e-38
0.0435224196815 -0.0209552391059 0.871 2.10626986147e-38
0.045237999179 -0.0210033567617 0.873 2.20685870862e-38
0.0469609813929 -0.0210514744175 0.875 2.2440249274e-38
0.0487468866951 -0.0211236509012 0.878 2.08714956431e-38
0.0504865250206 -0.021171768557 0.88 2.27154026352e-38
0.0522335660624 -0.0212198862128 0.882 2.19799493531e-38
0.0542933718669 -0.0213882980082 0.889 2.1978545252e-38
0.0563790871785 -0.0215567098035 0.896 2.1885996495e-38
0.0580372956249 -0.0215567098035 0.896 2.22547832183e-38
0.0598287529643 -0.0216048274593 0.898 2.23484039687e-38
0.0618330383968 -0.0217251215989 0.903 2.24413030504e-38
0.0637151790106 -0.0217972980826 0.906 2.34651771876e-38
0.0653918942478 -0.0217972980826 0.906 2.05253468965e-38
0.067364718136 -0.0218935333942 0.91 1.68461551018e-38
-0.041092478063 -0.018965759106 0.854 2.11825754944e-38
-0.0393731972073 -0.0188991346595 0.851 6.70614361397e-39
-0.0373541063422 -0.0186770531711 0.841 1.15059958295e-38
-0.0357976852446 -0.0186770531711 0.841 1.22410819715e-38
-0.0339969745099 -0.0185438042781 0.835 1.27942557506e-38
-0.0323739289658 -0.0184993879804 0.833 1.05880122121e-38
-0.0306842589751 -0.0184105553851 0.829 1.32581275813e-38
-0.0290797202217 -0.0183661390874 0.827 1.09550276941e-38
-0.0274159597381 -0.0182773064921 0.823 1.18765986357e-38
-0.0258299277754 -0.0182328901944 0.821 1.37201945395e-38
-0.0243105202592 -0.0182328901944 0.821 1.1331643472e-38
-0.022791112743 -0.0182328901944 0.821 9.38663279574e-39
-0.0212198862128 -0.0181884738967 0.819 1.64824144542e-38
-0.0193673564641 -0.017877559813 0.805 1.05880094095e-38
-0.0178109353665 -0.0178109353665 0.802 9.47525231192e-39
-0.0163266907526 -0.0178109353665 0.802 1.12351963026e-38
-0.0148609529295 -0.0178331435154 0.803 1.36300924496e-38
-0.0132915770784 -0.0177221027712 0.798 9.38695089049e-39
-0.0118147351808 -0.0177221027712 0.798 1.62097848315e-38
-0.0103119837762 -0.0176776864735 0.796 8.92382735323e-39
-0.00879442693908 -0.0175888538782 0.792 1.52856439085e-38
-0.0073101823252 -0.0175444375805 0.79 1.56544908877e-38
-0.00584074314388 -0.0175222294316 0.789 2.04463879319e-38
-0.00436945328349 -0.017477813134 0.787 7.9979390111e-39
-0.00290556613938 -0.0174333968363 0.785 9.66856704027e-39
-0.00145278306969 -0.0174333968363 0.785 8.93174328825e-39
0.0 -0.0174333968363 0.785 3.489748854e-39
0.00145278306969 -0.0174333968363 0.785 1.88776048738e-38
0.00290556613938 -0.0174333968363 0.785 1.74825211682e-38
0.00436945328349 -0.017477813134 0.787 1.71166099093e-38
0.00582593771132 -0.017477813134 0.787 2.12632412405e-38
0.0073101823252 -0.0175444375805 0.79 2.27408950569e-38
0.00883884323675 -0.0176776864735 0.796 2.11728448779e-38
0.0103897122971 -0.0178109353665 0.802 1.82215351497e-38
0.0118887623436 -0.0178331435154 0.803 2.34874606358e-38
0.0134081698598 -0.017877559813 0.805 2.34827943119e-38
0.0148979665109 -0.017877559813 0.805 2.27419460307e-38
0.0164284781015 -0.0179219761107 0.807 2.23721139387e-38
0.018010808706 -0.018010808706 0.811 2.1728915141e-38
0.0195598270874 -0.0180552250037 0.813 2.00690308672e-38
0.0211680671989 -0.0181440575991 0.817 2.32954547202e-38
0.022791112743 -0.0182328901944 0.821 2.16356180905e-38
0.0244881854499 -0.0183661390874 0.827 2.34817125095e-38
0.0262074663056 -0.0184993879804 0.833 2.32904731042e-38
0.0278823308637 -0.0185882205758 0.837 2.20962234945e-38
0.0295720008543 -0.0186770531711 0.841 1.70243694379e-38
0.0312024491147 -0.0187214694688 0.843 2.02552424136e-38
0.0327625715704 -0.0187214694688 0.843 1.2793905426e-38
0.0344041239052 -0.0187658857665 0.845 1.57481116381e-38
0.0359679477191 -0.0187658857665 0.845 1.78642516855e-38
0.0375317715329 -0.0187658857665 0.845 1.25183372804e-38
0.0401134688351 -0.0192544650409 0.867 1.62000822409e-38
0.0417180075885 -0.0192544650409 0.867 2.04248920135e-38
0.0435224196815 -0.0193432976362 0.871 2.22590711916e-38
0.0453416372069 -0.0194321302315 0.875 2.29033321736e-38
0.047121990472 -0.0194987546781 0.878 2.13349905245e-38
0.0488579274393 -0.0195431709757 0.88 2.2258373345e-38
0.0504865250206 -0.0195431709757 0.88 2.05120289559e-38
0.052648118174 -0.0197430443153 0.889 1.89468934777e-38
0.0544155166855 -0.0197874606129 0.891 2.06979027894e-38
0.0563790871785 -0.0198985013571 0.896 2.17087938964e-38
0.0581668431598 -0.0199429176548 0.898 2.21640323272e-38
0.0601618751969 -0.020053958399 0.903 2.20703723404e-38
0.0623123642758 -0.0202094154408 0.91 2.34612213221e-38
0.0638558306199 -0.0201649991431 0.908 2.20861663754e-38
0.0655362472152 -0.0201649991431 0.908 1.83169537661e-38
-0.041092478063 -0.0173852791805 0.854 2.34925291324e-38
-0.0393731972073 -0.0173242067712 0.851 6.24481373874e-39
-0.0376206041283 -0.0172427768921 0.847 1.11379742152e-38
-0.0360530789563 -0.0172427768921 0.847 1.18755392541e-38
-0.0339969745099 -0.0169984872549 0.835 1.0030547657e-38
-0.0323739289658 -0.0169577723154 0.833 1.17861966679e-38
-0.0307582861379 -0.0169170573759 0.831 1.09553401837e-38
-0.0291500460264 -0.0168763424363 0.829 1.17833436242e-38
-0.0275492086311 -0.0168356274968 0.827 1.22482299949e-38
-0.0259557739521 -0.0167949125573 0.825 8.7466485767e-39
-0.0243697419894 -0.0167541976177 0.823 1.28050163216e-38
-0.0228466331151 -0.0167541976177 0.823 1.24301353512e-38
-0.0212717052268 -0.0167134826782 0.821 1.17818792673e-38
-0.0197522977106 -0.0167134826782 0.821 1.18751889294e-38
-0.017877559813 -0.0163877631619 0.805 1.52867551382e-38
-0.0163470482224 -0.0163470482224 0.803 8.00941844812e-39
-0.0148609529295 -0.0163470482224 0.803 1.05833234674e-38
-0.0133748576365 -0.0163470482224 0.803 1.57491654146e-38
-0.0118147351808 -0.0162452608736 0.798 9.48566536081e-39
-0.0103119837762 -0.016204545934 0.796 1.3076935486e-38
-0.00881663508791 -0.0161638309945 0.794 5.05633327479e-39
-0.0073101823252 -0.0160824011154 0.79 1.1129381453e-38
-0.00584814586016 -0.0160824011154 0.79 1.73142854785e-38
-0.00438055735791 -0.0160620436457 0.789 8.28313127456e-39
-0.00292037157194 -0.0160620436457 0.789 9.02609411515e-39
-0.00146018578597 -0.0160620436457 0.789 9.76186128813e-39
0.0 -0.0160213287061 0.787 5.05848566923e-39
0.00145648442783 -0.0160213287061 0.787 1.63862475445e-38
0.00291296885566 -0.0160213287061 0.787 2.08090047381e-38
0.00438055735791 -0.0160620436457 0.789 2.191328398e-38
0.00584814586016 -0.0160824011154 0.79 2.12657565713e-38
0.0073286891159 -0.016123116055 0.792 2.1356885813e-38
0.00886105138558 -0.0162452608736 0.798 2.07118695312e-38
0.0103897122971 -0.0163266907526 0.802 1.96033737823e-38
0.0118887623436 -0.0163470482224 0.803 2.31064321691e-38
0.0134081698598 -0.0163877631619 0.805 2.20944130169e-38
0.0148979665109 -0.0163877631619 0.805 2.34770223636e-38
0.0164284781015 -0.0164284781015 0.807 2.33866119879e-38
0.018010808706 -0.0165099079805 0.811 2.0619338991e-38
0.019656062399 -0.0166320527991 0.817 2.09899235803e-38
0.0212198862128 -0.0166727677387 0.819 2.34795320891e-38
0.0228466331151 -0.0167541976177 0.823 2.31989837288e-38
0.0246066289103 -0.0169170573759 0.831 2.3479508267e-38
0.0263333124823 -0.0170392021945 0.837 2.19997342861e-38
0.0279489553102 -0.017079917134 0.839 2.03398822421e-38
0.0296423266589 -0.0171613470131 0.843 2.05346052754e-38
0.0312764762774 -0.0172020619526 0.845 1.26138091461e-38
0.0329180286122 -0.0172427768921 0.847 1.50119899366e-38
0.0346484135424 -0.0173242067712 0.851 1.74079454652e-38
0.0366915632353 -0.0175481389386 0.862 1.38080475454e-38
0.0385977626771 -0.017690641227 0.869 1.38080377363e-38
0.0402060027886 -0.017690641227 0.869 1.91409691111e-38
0.0419104782118 -0.0177313561665 0.871 2.03243978941e-38
0.043722293021 -0.0178127860456 0.875 2.20732407984e-38
0.0453416372069 -0.0178127860456 0.875 2.12463289694e-38
0.047121990472 -0.0178738584549 0.878 1.98716944122e-38
0.0488579274393 -0.0179145733944 0.88 1.79434979162e-38
0.0504865250206 -0.0179145733944 0.88 1.61964935156e-38
0.0521151226019 -0.0179145733944 0.88 1.72163613405e-38
0.054720878732 -0.0182402929107 0.896 1.69387206745e-38
0.0563790871785 -0.0182402929107 0.896 1.82208345005e-38
0.0586850332993 -0.0184438676083 0.906 2.17091652404e-38
0.0604949974294 -0.0184845825479 0.908 2.34576017681e-38
0.0623123642758 -0.0185252974874 0.91 2.24563964362e-38
0.0642074596432 -0.0185863698967 0.913 1.61989822216e-38
-0.0427728946582 -0.0158418128364 0.856 2.34849565155e-38
-0.0411887133746 -0.0158418128364 0.856 2.34947053489e-38
-0.0395119981375 -0.015804799255 0.854 6.15297824259e-39
-0.037798269319 -0.0157492788829 0.851 1.2424744556e-38
-0.0360530789563 -0.0156752517201 0.847 1.30765851613e-38
-0.0343226940261 -0.0156012245573 0.843 1.19691417876e-38
-0.0324516574867 -0.0154531702318 0.835 1.18780447757e-38
-0.0308323133007 -0.0154161566504 0.833 1.16972366362e-38
-0.029220371831 -0.015379143069 0.831 1.11401420239e-38
-0.0275492086311 -0.0153051159062 0.827 1.2431937421e-38
-0.0260186970405 -0.0153051159062 0.827 1.01288613559e-38
-0.0244289637197 -0.0152681023248 0.825 1.02174598526e-38
-0.0229021534872 -0.0152681023248 0.825 1.31662808747e-38
-0.0213235242407 -0.0152310887434 0.823 1.2242896653e-38
-0.0197522977106 -0.015194075162 0.821 1.22468202887e-38
-0.0182328901944 -0.015194075162 0.821 1.04943578305e-38
-0.0163877631619 -0.0148979665109 0.805 1.4646389766e-38
-0.0148609529295 -0.0148609529295 0.803 9.11579122986e-39
-0.0133748576365 -0.0148609529295 0.803 8.00838008596e-39
-0.0118887623436 -0.0148609529295 0.803 1.25273952737e-38
-0.0103378932832 -0.014768418976 0.798 1.10493364821e-38
-0.00883884323675 -0.0147314053946 0.796 1.00316308607e-38
-0.00736570269729 -0.0147314053946 0.796 8.46931339373e-39
-0.00587775672528 -0.0146943918132 0.794 6.90380517016e-39
-0.00438610939512 -0.0146203646504 0.79 8.10377908411e-39
-0.00292407293008 -0.0146203646504 0.79 8.65334311845e-39
-0.00146203646504 -0.0146203646504 0.79 1.01288613559e-38
0.0 -0.0146203646504 0.79 3.49405364289e-39
0.00146203646504 -0.0146203646504 0.79 1.97002553542e-38
0.00292407293008 -0.0146203646504 0.79 2.20987696538e-38
0.00439721346954 -0.0146573782318 0.792 2.04341630041e-38
0.00589256215783 -0.0147314053946 0.796 2.13550459081e-38
0.00738420948799 -0.014768418976 0.798 2.08951845937e-38
0.00888325953442 -0.0148054325574 0.8 2.03416548847e-38
0.0104026670506 -0.0148609529295 0.803 2.02494620574e-38
0.0119183732087 -0.0148979665109 0.805 1.90526634858e-38
0.013441482083 -0.0149349800922 0.807 2.31089965453e-38
0.0149349800922 -0.0149349800922 0.807 2.301675187e-38
0.0165099079805 -0.015009007255 0.811 2.27398370765e-38
0.0180552250037 -0.0150460208364 0.813 2.08959118676e-38
0.0197522977106 -0.015194075162 0.821 2.29216877822e-38
0.0213235242407 -0.0152310887434 0.823 2.34781069686e-38
0.0229576738593 -0.0153051159062 0.827 2.34759111339e-38
0.0247250723708 -0.0154531702318 0.835 2.22777224742e-38
0.0264591586591 -0.0155642109759 0.841 2.17231473965e-38
0.0280822042032 -0.0156012245573 0.843 2.3483127821e-38
0.0297126524636 -0.0156382381387 0.845 9.8472045685e-39
0.0312764762774 -0.0156382381387 0.845 1.54718344355e-38
0.0329957571332 -0.0157122653015 0.849 1.69459079343e-38
0.034770558361 -0.015804799255 0.854 1.31673486642e-38
0.0366915632353 -0.0159528535806 0.862 1.29818868124e-38
0.0387754278677 -0.0161564282782 0.873 1.74882594854e-38
0.0403910706956 -0.0161564282782 0.873 2.09762539137e-38
0.042102948835 -0.0161934418596 0.875 2.05999085865e-38
0.0438721980256 -0.0162489622317 0.878 1.92234705582e-38
0.0454970942488 -0.0162489622317 0.878 1.81264836736e-38
0.047229329858 -0.0162859758131 0.88 1.48157380867e-38
0.0488579274393 -0.0162859758131 0.88 1.52860390747e-38
0.0504865250206 -0.0162859758131 0.88 1.51956581264e-38
0.05418788316 -0.0169337134875 0.915 1.57459424281e-38
0.0558812545087 -0.0169337134875 0.915 1.62069163735e-38
0.0574487796807 -0.0168966999061 0.913 1.6759020962e-38
0.058944128369 -0.016841179534 0.91 1.87671811536e-38
0.0606282463224 -0.016841179534 0.91 2.34709463334e-38
0.0626547399037 -0.0169337134875 0.915 1.51830660584e-38
0.0643481112525 -0.0169337134875 0.915 1.42625264725e-38
-0.041092478063 -0.0142243193295 0.854 2.34932451959e-38
-0.0395119981375 -0.0142243193295 0.854 8.18734972193e-39
-0.037798269319 -0.0141743509946 0.851 1.17793625353e-38
-0.0360530789563 -0.0141077265481 0.847 1.14159722123e-38
-0.0343226940261 -0.0140411021016 0.843 1.27067264447e-38
-0.0325293860076 -0.0139411654318 0.837 1.15085363837e-38
-0.0309063404635 -0.0139078532086 0.835 1.1785469394e-38
-0.0292906976357 -0.0138745409853 0.833 1.20595423541e-38
-0.0276824575241 -0.0138412287621 0.831 1.21499527297e-38
-0.0261445432172 -0.0138412287621 0.831 1.10482813044e-38
-0.0245474071801 -0.0138079165388 0.829 1.11401294122e-38
-0.0229576738593 -0.0137746043156 0.827 1.10500945846e-38
-0.0213235242407 -0.0137079798691 0.823 1.05880248237e-38
-0.0198004153664 -0.0137079798691 0.823 1.33542188209e-38
-0.0182328901944 -0.0136746676458 0.821 1.03150322647e-38
-0.0165913378596 -0.013574730976 0.815 9.57604350657e-39
-0.015009007255 -0.0135081065295 0.811 1.17891085661e-38
-0.0134747943063 -0.0134747943063 0.809 1.18773189031e-38
-0.0119183732087 -0.0134081698598 0.805 9.57314982524e-39
-0.0104026670506 -0.0133748576365 0.803 1.15992998865e-38
-0.00883884323675 -0.0132582648551 0.796 1.51048623937e-38
-0.00736570269729 -0.0132582648551 0.796 9.30056784666e-39
-0.00587775672528 -0.0132249526319 0.794 9.1161149298e-39
-0.00439721346954 -0.0131916404086 0.792 8.56298318957e-39
-0.00293147564636 -0.0131916404086 0.792 8.65338095351e-39
-0.00146573782318 -0.0131916404086 0.792 7.18041448052e-39
0.0 -0.0131916404086 0.792 4.78477284279e-39
0.00146573782318 -0.0131916404086 0.792 1.99754577609e-38
0.00293887836264 -0.0132249526319 0.794 2.18221827642e-38
0.00440831754396 -0.0132249526319 0.794 2.2187309296e-38
0.00589256215783 -0.0132582648551 0.796 2.09866767717e-38
0.00740271627868 -0.0133248893016 0.8 2.1538733716e-38
0.00890546768326 -0.0133582015249 0.802 2.17234949185e-38
0.0104285765576 -0.0134081698598 0.805 1.89583729147e-38
0.0119479840738 -0.013441482083 0.807 2.23717790284e-38
0.013441482083 -0.013441482083 0.807 2.32958498864e-38
0.0149349800922 -0.013441482083 0.807 2.26504804774e-38
0.0165506229201 -0.0135414187528 0.813 2.04346016105e-38
0.0183217227897 -0.0137412920923 0.825 1.88672702977e-38
0.0198485330222 -0.0137412920923 0.825 2.34766762428e-38
0.0213753432547 -0.0137412920923 0.825 2.34770013441e-38
0.0229576738593 -0.0137746043156 0.827 2.34769873311e-38
0.024784294101 -0.0139411654318 0.837 2.13550332964e-38
0.0265220817475 -0.0140411021016 0.843 2.34788174269e-38
0.0281488286497 -0.0140744143248 0.845 1.35285557641e-38
0.0297126524636 -0.0140744143248 0.845 1.43647806227e-38
0.0313505034402 -0.0141077265481 0.847 1.58424274326e-38
0.0330734856541 -0.0141743509946 0.851 1.31644802062e-38
0.0350962778772 -0.0143575682225 0.862 2.02584317689e-38
0.0367766944725 -0.0143908804458 0.864 1.38026077048e-38
0.0388642604631 -0.0145740976737 0.875 2.01537211424e-38
0.0404836046491 -0.0145740976737 0.875 1.92235027881e-38
0.042102948835 -0.0145740976737 0.875 1.81264864762e-38
0.0438721980256 -0.0146240660085 0.878 1.58313193396e-38
0.0456007322767 -0.0146573782318 0.88 1.43651743876e-38
0.047229329858 -0.0146573782318 0.88 1.51023862993e-38
0.0488579274393 -0.0146573782318 0.88 1.58413750574e-38
0.0504865250206 -0.0146573782318 0.88 1.47346771744e-38
0.05418788316 -0.0152403421387 0.915 1.72210725059e-38
0.0558812545087 -0.0152403421387 0.915 1.76827723239e-38
0.0575746258575 -0.0152403421387 0.915 1.64845640461e-38
0.0591384496713 -0.0152070299155 0.913 1.92374835428e-38
0.0608281196619 -0.0152070299155 0.913 2.34706128244e-38
0.0626547399037 -0.0152403421387 0.915 1.74878517076e-38
0.0645590886664 -0.0152903104736 0.918 2.06200690675e-38
-0.041092478063 -0.012643839404 0.854 2.3491818674e-38
-0.0395119981375 -0.012643839404 0.854 1.30733355502e-38
-0.037931518212 -0.012643839404 0.854 1.03024359928e-38
-0.0362233414307 -0.0125994231063 0.851 1.1785441368e-38
-0.0344041239052 -0.012510590511 0.845 1.30755075628e-38
-0.0326071145285 -0.0124217579156 0.839 1.23379789577e-38
-0.0309803676263 -0.0123921470505 0.837 1.26152342666e-38
-0.0293610234403 -0.0123625361854 0.835 1.15985445866e-38
-0.0277490819706 -0.0123329253203 0.833 1.21513876594e-38
-0.0262074663056 -0.0123329253203 0.833 1.09560842732e-38
-0.0246066289103 -0.0123033144552 0.831 1.03146847427e-38
-0.0230687146034 -0.0123033144552 0.831 1.08681864257e-38
-0.0214271622687 -0.0122440927249 0.827 9.67071803341e-39
-0.0198485330222 -0.0122144818598 0.825 9.75865231465e-39
-0.0182773064921 -0.0121848709947 0.823 1.15085517979e-38
-0.0167134826782 -0.0121552601296 0.821 1.25219792551e-38
-0.0151200479992 -0.0120960383994 0.817 1.16911297775e-38
-0.0135414187528 -0.0120368166691 0.813 1.18769125266e-38
-0.012007205804 -0.012007205804 0.811 1.19713516353e-38
-0.0104285765576 -0.0119183732087 0.805 8.10309384916e-39
-0.00893877990651 -0.0119183732087 0.805 8.10304760632e-39
-0.00738420948799 -0.0118147351808 0.798 1.16058145231e-38
-0.00589256215783 -0.0117851243157 0.796 1.12337291431e-38
-0.00441942161837 -0.0117851243157 0.796 9.57174292158e-39
-0.00293887836264 -0.0117555134506 0.794 8.37537034468e-39
-0.00146943918132 -0.0117555134506 0.794 8.37931780245e-39
0.0 -0.0117555134506 0.794 2.57247008964e-39
0.00146943918132 -0.0117555134506 0.794 2.06229333215e-38
0.00294628107892 -0.0117851243157 0.796 2.12693593096e-38
0.00441942161837 -0.0117851243157 0.796 2.05245859914e-38
0.00589256215783 -0.0117851243157 0.796 2.09841446254e-38
0.00742122306938 -0.011873956911 0.802 2.24585446267e-38
0.00891657175768 -0.0118887623436 0.803 2.08919644098e-38
0.0104285765576 -0.0119183732087 0.805 1.97881321822e-38
0.0119479840738 -0.0119479840738 0.807 2.3478118179e-38
0.013441482083 -0.0119479840738 0.807 2.25561296505e-38
0.0153051159062 -0.0122440927249 0.827 2.09899263829e-38
0.0168356274968 -0.0122440927249 0.827 2.00661652118e-38
0.0183217227897 -0.0122144818598 0.825 2.25543570079e-38
0.0198485330222 -0.0122144818598 0.825 2.34788300386e-38
0.0214271622687 -0.0122440927249 0.827 2.34756056508e-38
0.0230131942314 -0.0122737035901 0.829 2.31978893147e-38
0.0249619592917 -0.0124809796459 0.843 2.3482766286e-38
0.0265220817475 -0.0124809796459 0.843 1.37072297261e-38
0.0282154530962 -0.0125402013761 0.847 1.50014801982e-38
0.0297829782682 -0.0125402013761 0.847 1.47328821111e-38
0.0313505034402 -0.0125402013761 0.847 1.4642774416e-38
0.0338507708634 -0.0128955317575 0.871 2.02591898714e-38
0.035462712333 -0.0128955317575 0.871 1.91503788303e-38
0.0371597850399 -0.0129251426226 0.873 1.6469441233e-38
0.0388642604631 -0.0129547534877 0.875 1.81297332847e-38
0.0406224055793 -0.0129991697854 0.878 1.55511367182e-38
0.0422473018025 -0.0129991697854 0.878 1.88787917736e-38
0.0439721346954 -0.0130287806505 0.88 1.4825063728e-38
0.0456007322767 -0.0130287806505 0.88 1.54721903653e-38
0.047229329858 -0.0130287806505 0.88 1.51956413108e-38
0.0488579274393 -0.0130287806505 0.88 1.584065479e-38
0.0504865250206 -0.0130287806505 0.88 1.56544628618e-38
0.0540694396995 -0.0135173599249 0.913 1.76813444008e-38
0.0557591096901 -0.0135173599249 0.913 1.80522582952e-38
0.0574487796807 -0.0135173599249 0.913 1.72221416967e-38
0.0591384496713 -0.0135173599249 0.913 1.85971504005e-38
0.0608281196619 -0.0135173599249 0.913 2.34644737358e-38
0.0626547399037 -0.01354697079 0.915 2.34748713704e-38
0.0645590886664 -0.0135913870877 0.918 2.06982376997e-38
-0.0412849486862 -0.0111151784924 0.858 2.34863914451e-38
-0.0396970660444 -0.0111151784924 0.858 1.95245367307e-38
-0.0381091834027 -0.0111151784924 0.858 9.289395294e-39
-0.0365213007609 -0.0111151784924 0.858 1.13216396023e-38
-0.0349334181191 -0.0111151784924 0.858 1.15982306958e-38
-0.0326848430495 -0.0108949476832 0.841 1.30751390213e-38
-0.0309803676263 -0.0108431286692 0.837 1.30758396706e-38
-0.0293610234403 -0.0108172191622 0.835 1.18772964823e-38
-0.0278157064172 -0.0108172191622 0.835 1.11411986029e-38
-0.026270389394 -0.0108172191622 0.835 1.14174351679e-38
-0.0246658506406 -0.0107913096553 0.833 1.07760090127e-38
-0.0231242349755 -0.0107913096553 0.833 1.05912464089e-38
-0.0215308002966 -0.0107654001483 0.831 1.04997920659e-38
-0.0199447683338 -0.0107394906413 0.829 1.09607533997e-38
-0.0183661390874 -0.0107135811343 0.827 1.09575458275e-38
-0.0167949125573 -0.0106876716274 0.825 1.12333942328e-38
-0.0151200479992 -0.0105840335994 0.817 1.28886374061e-38
-0.013574730976 -0.0105581240925 0.815 1.09571506613e-38
-0.0120368166691 -0.0105322145855 0.813 9.85407513487e-39
-0.0105063050785 -0.0105063050785 0.811 8.93176290643e-39
-0.00900540435302 -0.0105063050785 0.811 9.48636601004e-39
-0.00748599683682 -0.0104803955715 0.809 8.65588507386e-39
-0.00595918660434 -0.0104285765576 0.805 1.16010823381e-38
-0.00443052569279 -0.0103378932832 0.798 1.38159228428e-38
-0.00294628107892 -0.0103119837762 0.796 1.00341475927e-38
-0.00147314053946 -0.0103119837762 0.796 8.92279739886e-39
0.0 -0.0103119837762 0.796 3.67341984632e-39
0.00147314053946 -0.0103119837762 0.796 1.76712452428e-38
0.00295368379519 -0.0103378932832 0.798 2.1543813423e-38
0.00443052569279 -0.0103378932832 0.798 2.05252922458e-38
0.00592217302295 -0.0103638027902 0.8 2.20922872471e-38
0.00742122306938 -0.0103897122971 0.802 2.14472289263e-38
0.00891657175768 -0.0104026670506 0.803 1.80302495015e-38
0.0104285765576 -0.0104285765576 0.805 2.06203745505e-38
0.0119479840738 -0.0104544860646 0.807 2.28349025657e-38
0.013441482083 -0.0104544860646 0.807 2.10809967701e-38
0.0152681023248 -0.0106876716274 0.825 2.10788738029e-38
0.0168356274968 -0.0107135811343 0.827 2.01561523953e-38
0.0183661390874 -0.0107135811343 0.827 2.3479188771e-38
0.019896650678 -0.0107135811343 0.827 2.34770041467e-38
0.0214789812826 -0.0107394906413 0.829 2.34745028289e-38
0.0233463164639 -0.0108949476832 0.841 2.34802131202e-38
0.0249619592917 -0.0109208571901 0.843 1.74865022571e-38
0.0265220817475 -0.0109208571901 0.843 1.35267564969e-38
0.0282154530962 -0.0109726762041 0.847 1.45456448142e-38
0.0297829782682 -0.0109726762041 0.847 2.29395431272e-38
0.0319057071611 -0.0111669975064 0.862 1.32527101614e-38
0.0335009925192 -0.0111669975064 0.862 2.1001814999e-38
0.035381282454 -0.0112576807808 0.869 1.20573549272e-38
0.0371597850399 -0.0113094997948 0.873 1.573876778e-38
0.0388642604631 -0.0113354093017 0.875 2.00765712542e-38
0.0406224055793 -0.0113742735622 0.878 1.7033084113e-38
0.0423435371141 -0.0114001830692 0.88 1.81386903845e-38
0.0439721346954 -0.0114001830692 0.88 1.44523099287e-38
0.0457043703046 -0.0114260925761 0.882 1.55604777738e-38
0.047336669244 -0.0114260925761 0.882 1.56530293334e-38
0.0489689681835 -0.0114260925761 0.882 1.5928907166e-38
0.0506012671229 -0.0114260925761 0.882 1.82334251672e-38
0.0540694396995 -0.0118276899343 0.913 2.03549602136e-38
0.0557591096901 -0.0118276899343 0.913 1.69448485526e-38
0.0574487796807 -0.0118276899343 0.913 1.52824055078e-38
0.0591384496713 -0.0118276899343 0.913 1.91445956715e-38
0.0608281196619 -0.0118276899343 0.913 2.30935037895e-38
0.0626547399037 -0.0118535994412 0.915 2.34655807616e-38
0.0645590886664 -0.0118924637017 0.918 2.17019345404e-38
-0.0404836046491 -0.00971606511577 0.875 2.33016428543e-38
-0.0383756811887 -0.00959392029717 0.864 6.88766221185e-39
-0.0366064319981 -0.0095495039995 0.86 1.23382746317e-38
-0.0349334181191 -0.00952729585067 0.858 1.09550150825e-38
-0.0330734856541 -0.00944956732974 0.851 1.04915328128e-38
-0.0311284219519 -0.00933852658556 0.841 1.2981889615e-38
-0.029431349245 -0.00929411028789 0.837 1.19713123989e-38
-0.0278823308637 -0.00929411028789 0.837 1.22486195559e-38
-0.026270389394 -0.00927190213905 0.835 1.09557479616e-38
-0.0247250723708 -0.00927190213905 0.835 1.05901772182e-38
-0.0231797553476 -0.00927190213905 0.835 1.04954340277e-38
-0.0215826193105 -0.00924969399022 0.833 1.01295830246e-38
-0.0199928859897 -0.00922748584138 0.831 1.05897806507e-38
-0.0184105553851 -0.00920527769254 0.829 1.23390607601e-38
-0.0167949125573 -0.00916086139487 0.825 1.15135558348e-38
-0.0152310887434 -0.00913865324604 0.823 8.92672103456e-39
-0.0136413554225 -0.00909423694836 0.819 1.33542440443e-38
-0.0121256492645 -0.00909423694836 0.819 1.08692430048e-38
-0.0105840335994 -0.00907202879953 0.817 1.16018180198e-38
-0.00902761250186 -0.00902761250186 0.813 9.11363603282e-39
-0.00750450362752 -0.00900540435302 0.811 9.6664412705e-39
-0.00598879746946 -0.00898319620418 0.809 9.20653791711e-39
-0.00443052569279 -0.00886105138558 0.798 8.10020717433e-39
-0.00294628107892 -0.00883884323675 0.796 1.4827932186e-38
-0.00147314053946 -0.00883884323675 0.796 1.51953078017e-38
0.0 -0.00886105138558 0.798 5.05418088035e-39
0.0014768418976 -0.00886105138558 0.798 1.51852030385e-38
0.00296108651147 -0.00888325953442 0.8 2.05314537552e-38
0.00444162976721 -0.00888325953442 0.8 2.05256453731e-38
0.00592217302295 -0.00888325953442 0.8 2.31060818445e-38
0.00743047646473 -0.00891657175768 0.803 1.96040772341e-38
0.00891657175768 -0.00891657175768 0.803 1.88658213551e-38
0.0104285765576 -0.00893877990651 0.805 2.04353022598e-38
0.0120664275343 -0.00904982065069 0.815 2.06186047106e-38
0.0136413554225 -0.00909423694836 0.819 2.14505065634e-38
0.0152681023248 -0.00916086139487 0.825 2.27390915858e-38
0.0168356274968 -0.00918306954371 0.827 2.23699237092e-38
0.0184105553851 -0.00920527769254 0.829 2.32915324858e-38
0.0199447683338 -0.00920527769254 0.829 2.34766468156e-38
0.0215308002966 -0.00922748584138 0.831 2.34820684393e-38
0.0233463164639 -0.00933852658556 0.841 1.94243522983e-38
0.025021181022 -0.00938294288323 0.845 1.25140212812e-38
0.0265850048358 -0.00938294288323 0.845 1.16918906825e-38
0.0283487019892 -0.00944956732974 0.851 2.18333328961e-38
0.0300291185845 -0.00948287955299 0.854 1.23350558491e-38
0.0317576528356 -0.00952729585067 0.858 1.7665448071e-38
0.0335009925192 -0.00957171214834 0.862 1.09513997324e-38
0.035381282454 -0.00964944066926 0.869 1.58370422426e-38
0.0372449162771 -0.00971606511577 0.875 1.92486336747e-38
0.0389975093561 -0.00974937733903 0.878 1.85989678846e-38
0.0407149395328 -0.00977158548786 0.88 1.79503586735e-38
0.0423435371141 -0.00977158548786 0.88 1.39009312128e-38
0.0440720713651 -0.0097937936367 0.882 1.50058718675e-38
0.0458598273464 -0.00982710585995 0.885 1.62966134882e-38
0.0474976783231 -0.00982710585995 0.885 1.68529892344e-38
0.0491355292998 -0.00982710585995 0.885 1.69455520045e-38
0.0540694396995 -0.0101380199437 0.913 1.79557887051e-38
0.0557591096901 -0.0101380199437 0.913 1.47274002315e-38
0.0575746258575 -0.0101602280925 0.915 1.62011752537e-38
0.0592679972062 -0.0101602280925 0.915 1.96977526351e-38
0.060961368555 -0.0101602280925 0.915 2.16162241198e-38
0.0626547399037 -0.0101602280925 0.915 2.18845587627e-38
-0.0438721980256 -0.00812448111586 0.878 2.2838505304e-38
-0.0422473018025 -0.00812448111586 0.878 2.30221819015e-38
-0.0404836046491 -0.00809672092981 0.875 2.34943087814e-38
-0.0387754278677 -0.00807821413911 0.873 6.15297824259e-39
-0.0366064319981 -0.00795791999959 0.86 1.15052895751e-38
-0.0349334181191 -0.00793941320889 0.858 1.12305201696e-38
-0.0331900784355 -0.0079023996275 0.854 1.08628348669e-38
-0.0314985577658 -0.00787463944145 0.851 1.05866025058e-38
-0.0297126524636 -0.00781911906936 0.845 1.25251840247e-38
-0.0281488286497 -0.00781911906936 0.845 1.16947633444e-38
-0.0263333124823 -0.00774509190657 0.837 1.23397389885e-38
-0.024784294101 -0.00774509190657 0.837 1.10511511636e-38
-0.0232352757197 -0.00774509190657 0.837 1.05894709638e-38
-0.0216344383245 -0.00772658511588 0.835 1.08635383187e-38
-0.0200410036455 -0.00770807832518 0.833 1.24308682303e-38
-0.0184549716828 -0.00768957153448 0.831 1.02181338772e-38
-0.0168356274968 -0.00765255795309 0.827 1.15085391863e-38
-0.0152681023248 -0.00763405116239 0.825 1.10489833549e-38
-0.0136746676458 -0.007597037581 0.821 1.06824064792e-38
-0.0121256492645 -0.0075785307903 0.819 1.11440922843e-38
-0.0105840335994 -0.00756002399961 0.817 1.29830008447e-38
-0.00904982065069 -0.00754151720891 0.815 1.15092426381e-38
-0.00752301041821 -0.00752301041821 0.813 9.11506115336e-39
-0.00600360290201 -0.00750450362752 0.811 9.20725818452e-39
-0.00445828587884 -0.00743047646473 0.803 9.02177531329e-39
-0.00296108651147 -0.00740271627868 0.8 9.29728600566e-39
-0.0014768418976 -0.00738420948799 0.798 1.42758304001e-38
0.0 -0.00738420948799 0.798 5.8875162615e-39
0.00148054325574 -0.00740271627868 0.8 1.2606244937e-38
0.00296108651147 -0.00740271627868 0.8 2.09013152745e-38
0.00445273384163 -0.00742122306938 0.802 2.28323465973e-38
0.00594438117178 -0.00743047646473 0.803 2.01583426248e-38
0.00743047646473 -0.00743047646473 0.803 2.04324085784e-38
0.00896098805535 -0.00746749004612 0.807 2.02490935159e-38
0.0106358526134 -0.007597037581 0.821 2.10792269301e-38
0.0121552601296 -0.007597037581 0.821 2.31110858813e-38
0.0137079798691 -0.0076155443717 0.823 1.93325097956e-38
0.0153051159062 -0.00765255795309 0.827 2.34773726882e-38
0.0168356274968 -0.00765255795309 0.827 2.34794914515e-38
0.0184105553851 -0.00767106474379 0.829 2.32918968234e-38
0.0199447683338 -0.00767106474379 0.829 2.34856193296e-38
0.0218935333942 -0.00781911906936 0.845 2.24671836317e-38
0.0234573572081 -0.00781911906936 0.845 1.06719303719e-38
0.025021181022 -0.00781911906936 0.845 1.22436183217e-38
0.0266479279242 -0.00783762586006 0.847 2.14641594143e-38
0.028448638659 -0.0079023996275 0.854 1.70302703057e-38
0.0300291185845 -0.0079023996275 0.854 2.1453725346e-38
0.0317576528356 -0.00793941320889 0.858 2.34924716791e-38
0.0335009925192 -0.00797642679028 0.862 1.22353408517e-38
0.035381282454 -0.00804120055772 0.869 1.85089554777e-38
0.0374577443701 -0.00814298790655 0.88 1.97974466131e-38
0.0391751745468 -0.00816149469725 0.882 1.72160292327e-38
0.0408074734862 -0.00816149469725 0.882 1.39913738183e-38
0.0425841253931 -0.00818925488329 0.885 1.4825077741e-38
0.0443219130396 -0.00820776167399 0.887 1.54697044618e-38
0.0460671034023 -0.00822626846469 0.889 1.58388597267e-38
0.0477123570952 -0.00822626846469 0.889 1.76827723239e-38
0.05418788316 -0.00846685674374 0.915 1.40845966e-38
0.0558812545087 -0.00846685674374 0.915 1.76737521657e-38
0.0575746258575 -0.00846685674374 0.915 1.56451344179e-38
0.0592679972062 -0.00846685674374 0.915 1.99729102003e-38
0.060961368555 -0.00846685674374 0.915 2.19810479711e-38
0.0628601652804 -0.00849461692979 0.918 2.34572850747e-38
-0.0438721980256 -0.00649958489268 0.878 2.33905790639e-38
-0.0422473018025 -0.00649958489268 0.878 2.33906197016e-38
-0.0404836046491 -0.00647737674385 0.875 2.3489996986e-38
-0.0387754278677 -0.00646257131129 0.873 1.05833234674e-38
-0.0371597850399 -0.00646257131129 0.873 1.16875550651e-38
-0.0350148479982 -0.00636633599967 0.86 1.14163435564e-38
-0.0331900784355 -0.006321919702 0.854 1.0955031898e-38
-0.0314985577658 -0.00629971155316 0.851 1.03125295457e-38
-0.0298533040729 -0.0062849061206 0.849 9.75970609109e-39
-0.0282820775427 -0.0062849061206 0.849 1.16932555472e-38
-0.0265220817475 -0.00624048982293 0.843 1.16947030885e-38
-0.0248435158313 -0.00621087895782 0.839 1.12362654933e-38
-0.0232907960918 -0.00621087895782 0.839 1.16990415086e-38
-0.0216862573384 -0.00619607352526 0.837 1.04990465752e-38
-0.0200891213013 -0.0061812680927 0.835 1.02174598526e-38
-0.0184993879804 -0.00616646266014 0.833 1.18816152842e-38
-0.0168763424363 -0.00613685179503 0.829 1.00369768143e-38
-0.0153051159062 -0.00612204636247 0.827 1.0681316269e-38
-0.0137079798691 -0.00609243549736 0.823 1.14170568173e-38
-0.0121552601296 -0.0060776300648 0.821 1.0220687043e-38
-0.0106099431064 -0.00606282463224 0.819 1.11400761629e-38
-0.00904982065069 -0.00603321376713 0.815 1.24305123005e-38
-0.00752301041821 -0.00601840833457 0.813 1.12348165507e-38
-0.00601840833457 -0.00601840833457 0.813 9.93837865179e-39
-0.00450270217651 -0.00600360290201 0.811 9.57424564064e-39
-0.00297219058589 -0.00594438117178 0.803 9.48276607429e-39
-0.00148424461388 -0.0059369784555 0.802 9.02394592461e-39
0.0 -0.0059369784555 0.802 6.44319275974e-39
0.00148609529295 -0.00594438117178 0.803 1.13119356104e-38
0.00297219058589 -0.00594438117178 0.803 2.21023415636e-38
0.00445828587884 -0.00594438117178 0.803 2.16348992244e-38
0.00595918660434 -0.00595918660434 0.805 2.08047840272e-38
0.00744898325543 -0.00595918660434 0.805 2.16320279639e-38
0.0091164450972 -0.0060776300648 0.821 2.1351500623e-38
0.0106358526134 -0.0060776300648 0.821 2.28298705029e-38
0.0121552601296 -0.0060776300648 0.821 1.82225903275e-38
0.0137412920923 -0.00610724092991 0.825 2.34852129531e-38
0.0153051159062 -0.00612204636247 0.827 2.34830633612e-38
0.0168763424363 -0.00613685179503 0.829 2.30164015454e-38
0.0184105553851 -0.00613685179503 0.829 2.34813145408e-38
0.0199928859897 -0.00615165722759 0.831 2.34831236171e-38
0.0219453524082 -0.00627010068805 0.847 1.26058665864e-38
0.0235128775802 -0.00627010068805 0.847 1.14120079389e-38
0.0250804027522 -0.00627010068805 0.847 1.62051058959e-38
0.0268681587335 -0.006321919702 0.854 2.34939654633e-38
0.0288816975613 -0.00641815501362 0.867 2.11836446852e-38
0.0303807476077 -0.00639594686478 0.864 2.09091905718e-38
0.0319797343239 -0.00639594686478 0.864 1.96112799082e-38
0.0336953138215 -0.00641815501362 0.867 1.94308164881e-38
0.0357477169098 -0.00649958489268 0.878 1.74987089681e-38
0.0374577443701 -0.00651439032524 0.88 1.62962449467e-38
0.0391751745468 -0.0065291957578 0.882 1.39024137866e-38
0.0409462744165 -0.00655140390664 0.885 1.44562601891e-38
0.0426803607048 -0.00656620933919 0.887 1.51931371904e-38
0.0444218497093 -0.00658101477175 0.889 1.55611938373e-38
0.0460671034023 -0.00658101477175 0.889 1.64831571424e-38
0.0558812545087 -0.006773485395 0.915 1.85960363682e-38
0.0575746258575 -0.006773485395 0.915 2.17289123384e-38
-0.0422473018025 -0.00487468866951 0.878 2.34842418533e-38
-0.0406224055793 -0.00487468866951 0.878 2.34900011899e-38
-0.0388642604631 -0.00485803255789 0.875 1.18726119416e-38
-0.0372449162771 -0.00485803255789 0.875 1.32541170651e-38
-0.0356255720912 -0.00485803255789 0.875 1.04940537487e-38
-0.0331900784355 -0.0047414397765 0.854 1.08614097463e-38
-0.0314985577658 -0.00472478366487 0.851 1.12301726476e-38
-0.0299236298775 -0.00472478366487 0.851 1.17829961022e-38
-0.0282820775427 -0.00471367959045 0.849 1.00319839879e-38
-0.0265850048358 -0.00469147144162 0.845 1.04962215574e-38
-0.0249619592917 -0.0046803673672 0.843 1.22471762185e-38
-0.0233463164639 -0.00466926329278 0.841 1.2062429029e-38
-0.0217380763524 -0.00465815921836 0.839 1.18769881967e-38
-0.0201372389571 -0.00464705514394 0.837 1.17833310125e-38
-0.0185438042781 -0.00463595106953 0.835 1.13241423213e-38
-0.0169577723154 -0.00462484699511 0.833 1.05919358478e-38
-0.0153421294876 -0.00460263884627 0.829 9.85336888045e-39
-0.0137412920923 -0.00458043069744 0.825 1.06816721988e-38
-0.0121848709947 -0.00456932662302 0.823 1.04940537487e-38
-0.0106358526134 -0.0045582225486 0.821 1.24318925795e-38
-0.00907202879953 -0.00453601439976 0.817 1.04961641042e-38
-0.00754151720891 -0.00452491032535 0.815 1.40017840646e-38
-0.00601840833457 -0.00451380625093 0.813 1.16010879433e-38
-0.00451380625093 -0.00451380625093 0.813 9.47917594762e-39
-0.00297219058589 -0.00445828587884 0.803 9.11613875187e-39
-0.00148609529295 -0.00445828587884 0.803 9.11576180259e-39
0.0 -0.00446938995326 0.805 8.19562438936e-39
0.00148979665109 -0.00446938995326 0.805 8.45783395671e-39
0.00297959330217 -0.00446938995326 0.805 2.29328281049e-38
0.00446938995326 -0.00446938995326 0.805 2.3018183997e-38
0.0059739920369 -0.00448049402767 0.807 2.09866613574e-38
0.00756002399961 -0.00453601439976 0.817 2.16316930535e-38
0.0091164450972 -0.0045582225486 0.821 2.06146362333e-38
0.0106358526134 -0.0045582225486 0.821 1.84940905036e-38
0.0121848709947 -0.00456932662302 0.823 2.28333849594e-38
0.0137746043156 -0.00459153477185 0.827 2.34805704513e-38
0.0153421294876 -0.00460263884627 0.829 2.34801963046e-38
0.0169170573759 -0.00461374292069 0.831 2.34769971402e-38
0.0184549716828 -0.00461374292069 0.831 2.34773824973e-38
0.0199928859897 -0.00461374292069 0.831 1.44450848338e-38
0.0219971714221 -0.00471367959045 0.849 1.20530725591e-38
0.0235683979523 -0.00471367959045 0.849 1.1967678832e-38
0.0251396244824 -0.00471367959045 0.849 2.18254996377e-38
0.0269310818219 -0.00475254385092 0.856 1.90686032558e-38
0.0288816975613 -0.00481361626021 0.867 1.98986497895e-38
0.0304862363147 -0.00481361626021 0.867 1.4641741659e-38
0.0321648022309 -0.00482472033463 0.869 1.87894926277e-38
0.0339284993843 -0.00484692848347 0.873 1.72235387912e-38
0.0357477169098 -0.00487468866951 0.878 1.7590538859e-38
0.0374577443701 -0.00488579274393 0.88 1.65789036626e-38
0.0391751745468 -0.00489689681835 0.882 1.39942436776e-38
0.04103880837 -0.00492465700439 0.887 1.50073039946e-38
0.0426803607048 -0.00492465700439 0.887 1.4824730219e-38
0.0445217863791 -0.00494686515323 0.891 1.69448513552e-38
0.0461707414302 -0.00494686515323 0.891 2.00787250499e-38
-0.0422473018025 -0.00324979244634 0.878 2.26530546626e-38
-0.0406224055793 -0.00324979244634 0.878 2.34860397192e-38
-0.0389975093561 -0.00324979244634 0.878 1.83259529048e-38
-0.0373726131329 -0.00324979244634 0.878 1.14048318895e-38
-0.0357477169098 -0.00324979244634 0.878 1.29815182709e-38
-0.0341228206866 -0.00324979244634 0.878 1.33481301791e-38
-0.0324979244634 -0.00324979244634 0.878 1.14156527162e-38
-0.0300291185845 -0.003160959851 0.854 1.59360930245e-38
-0.0283487019892 -0.00314985577658 0.851 1.23333126338e-38
-0.0267108510126 -0.0031424530603 0.849 9.84546555711e-39
-0.0250804027522 -0.00313505034402 0.847 1.10472247253e-38
-0.0235128775802 -0.00313505034402 0.847 1.25219624396e-38
-0.0219453524082 -0.00313505034402 0.847 1.16003788863e-38
-0.0202815919245 -0.00312024491147 0.843 1.20610039084e-38
-0.0186326368734 -0.00310543947891 0.839 1.14170624225e-38
-0.0170392021945 -0.00309803676263 0.837 1.01306396037e-38
-0.0154531702318 -0.00309063404635 0.835 1.06816721988e-38
-0.0138079165388 -0.00306842589751 0.829 1.16043249428e-38
-0.0122144818598 -0.00305362046496 0.825 9.20507356021e-39
-0.0106617621204 -0.00304621774868 0.823 1.09578415015e-38
-0.0091164450972 -0.0030388150324 0.821 1.1233705321e-38
-0.00756002399961 -0.00302400959984 0.817 9.85155139634e-39
-0.00603321376713 -0.00301660688356 0.815 1.27060229928e-38
-0.00451380625093 -0.00300920416729 0.813 1.05877165381e-38
-0.00300920416729 -0.00300920416729 0.813 8.84065888807e-39
-0.0015009007255 -0.00300180145101 0.811 9.5771126973e-39
0.0 -0.00300180145101 0.811 8.37893945187e-39
0.0015009007255 -0.00300180145101 0.811 6.98990094781e-39
0.00300180145101 -0.00300180145101 0.811 2.21037666841e-38
0.00450270217651 -0.00300180145101 0.811 2.17249592754e-38
0.00601840833457 -0.00300920416729 0.813 2.20922578198e-38
0.0075785307903 -0.00303141231612 0.819 2.03398303941e-38
0.0091164450972 -0.0030388150324 0.821 2.024657258e-38
0.0106617621204 -0.00304621774868 0.823 2.20969143346e-38
0.0121848709947 -0.00304621774868 0.823 2.34834234949e-38
0.0138079165388 -0.00306842589751 0.829 2.34837934377e-38
0.015379143069 -0.00307582861379 0.831 2.30167350544e-38
0.0169170573759 -0.00307582861379 0.831 2.30156406403e-38
0.0187658857665 -0.00312764762774 0.845 1.63808455389e-38
0.0203778272361 -0.00313505034402 0.847 1.158924557e-38
0.0219971714221 -0.0031424530603 0.849 2.10870756028e-38
0.0235683979523 -0.0031424530603 0.849 1.0485416145e-38
0.0251988462126 -0.00314985577658 0.851 2.10944001899e-38
0.0270569279986 -0.00318316799983 0.86 1.83291786939e-38
0.0288816975613 -0.00320907750681 0.867 1.8136580029e-38
0.0305565621193 -0.00321648022309 0.869 2.1546358181e-38
0.0322388293937 -0.00322388293937 0.871 1.5837748497e-38
0.0339284993843 -0.00323128565565 0.873 1.50087431281e-38
0.0357477169098 -0.00324979244634 0.878 1.78689053977e-38
0.0375428756073 -0.0032645978789 0.882 1.30729712126e-38
0.0393084234398 -0.00327570195332 0.885 1.58355975039e-38
0.04103880837 -0.0032831046696 0.887 1.53786032461e-38
0.0427765960164 -0.00329050738588 0.889 1.47350303017e-38
0.0445217863791 -0.00329791010215 0.891 1.906138797e-38
0.0461707414302 -0.00329791010215 0.891 1.8872628863e-38
