# .PCD v0.7 - Point Cloud Data file format
VERSION 0.7
FIELDS x y z rgb
SIZE 4 4 4 4
TYPE F F F F
COUNT 1 1 1 1
WIDTH 859
HEIGHT 1
VIEWPOINT 0 0 0 1 0 0 0
POINTS 859
DATA ascii
-0.027040271887 -0.15227942589 0.769 1.27172361832e-38
-0.0256170996824 -0.15227942589 0.769 1.25349959166e-38
-0.0241939274778 -0.15227942589 0.769 1.65303893084e-39
-0.0227707552732 -0.15227942589 0.769 4.50102812065e-39
-0.0212920626966 -0.151883380569 0.767 5.69418331628e-39
-0.0198725918501 -0.151883380569 0.767 3.48975866309e-39
-0.0184290621758 -0.151685357908 0.766 1.5285758815e-38
-0.0170114420084 -0.151685357908 0.766 2.03675831102e-38
-0.015593821841 -0.151685357908 0.766 2.0826854478e-38
-0.0141391880923 -0.151289312587 0.764 2.10108757949e-38
-0.0127252692831 -0.151289312587 0.764 1.6218872252e-38
-0.0112817396087 -0.150893267267 0.762 1.95371568246e-38
-0.00987152215763 -0.150893267267 0.762 1.95368387299e-38
-0.00846130470654 -0.150893267267 0.762 1.94457192972e-38
-0.00705108725545 -0.150893267267 0.762 1.84326393621e-38
-0.00564086980436 -0.150893267267 0.762 1.89851096894e-38
-0.00422510031606 -0.150695244606 0.761 1.82471522869e-38
-0.00281673354404 -0.150695244606 0.761 1.76061283044e-38
-0.00140836677202 -0.150695244606 0.761 1.86195739785e-38
0.0 -0.150695244606 0.761 1.91698582803e-38
0.00140836677202 -0.150695244606 0.761 1.88014246841e-38
0.00280933082776 -0.150299199285 0.759 1.93538767946e-38
0.00421399624164 -0.150299199285 0.759 2.1197785188e-38
0.00561866165552 -0.150299199285 0.759 8.01377648635e-39
0.0070233270694 -0.150299199285 0.759 2.29588740395e-39
0.00842799248328 -0.150299199285 0.759 6.43535389613e-39
0.00985856740414 -0.150695244606 0.761 4.13259872841e-39
0.011237323311 -0.150299199285 0.759 1.84146691106e-38
0.0126419887249 -0.150299199285 0.759 5.41865300573e-39
0.0140836677202 -0.150695244606 0.761 7.44877714943e-39
0.0154920344922 -0.150695244606 0.761 8.09306195346e-39
0.0169004012642 -0.150695244606 0.761 8.27924547392e-39
0.0183087680363 -0.150695244606 0.761 8.55548764409e-39
0.0197171348083 -0.150695244606 0.761 8.742724941e-39
0.0211255015803 -0.150695244606 0.761 9.01860837876e-39
0.0225634792174 -0.150893267267 0.762 9.11117395142e-39
0.0239736966685 -0.150893267267 0.762 8.83496541241e-39
0.0253839141196 -0.150893267267 0.762 9.48068094217e-39
0.0267941315707 -0.150893267267 0.762 9.75654896565e-39
0.0282783761846 -0.151289312587 0.764 1.09554228603e-38
0.0296922949938 -0.151289312587 0.764 1.14160478824e-38
0.031106213803 -0.151289312587 0.764 1.16000888175e-38
0.0325201326123 -0.151289312587 0.764 1.18763029617e-38
0.0339340514215 -0.151289312587 0.764 1.20606984253e-38
-0.0269699460823 -0.150463909722 0.767 1.27179550493e-38
-0.0255504752359 -0.150463909722 0.767 1.18892733803e-38
-0.0241310043894 -0.150463909722 0.767 5.89402108898e-39
-0.022711533543 -0.150463909722 0.767 4.04077584394e-39
-0.0212920626966 -0.150463909722 0.767 5.8782144423e-39
-0.0198466823432 -0.150267737741 0.766 3.2142661876e-39
-0.0184290621758 -0.150267737741 0.766 1.11434238649e-38
-0.0169670257107 -0.149875393778 0.764 2.04594858687e-38
-0.0155531069015 -0.149875393778 0.764 1.89840180779e-38
-0.0141021745109 -0.149483049815 0.762 1.79705906207e-38
-0.0126919570598 -0.149483049815 0.762 1.75099641973e-38
-0.0112669341762 -0.149286877834 0.761 1.77833491199e-38
-0.00985856740414 -0.149286877834 0.761 1.81553462181e-38
-0.00845020063212 -0.149286877834 0.761 1.96290371623e-38
-0.0070418338601 -0.149286877834 0.761 1.93538922089e-38
-0.00563346708808 -0.149286877834 0.761 1.91698610829e-38
-0.00422510031606 -0.149286877834 0.761 1.59419574586e-38
-0.00281673354404 -0.149286877834 0.761 1.20701221575e-38
-0.00140466541388 -0.148894533871 0.759 1.9631167136e-38
0.0 -0.148894533871 0.759 1.78779788052e-38
0.00140466541388 -0.148894533871 0.759 1.89868571086e-38
0.00280192811148 -0.148502189909 0.757 1.96301315764e-38
0.0041917880928 -0.148109845946 0.755 1.98141472882e-38
0.00558905079041 -0.148109845946 0.755 1.55730978677e-38
0.00698631348801 -0.148109845946 0.755 1.46938755671e-39
0.00838357618561 -0.148109845946 0.755 6.80232593797e-39
0.00980674839019 -0.148502189909 0.757 2.75507469383e-39
0.0112077124459 -0.148502189909 0.757 2.09936131991e-38
0.0126086765017 -0.148502189909 0.757 4.59428593475e-39
0.0140466541388 -0.148894533871 0.759 8.91670875703e-39
0.0154920344922 -0.149286877834 0.761 7.72535843382e-39
0.0169004012642 -0.149286877834 0.761 8.09343049495e-39
0.0183087680363 -0.149286877834 0.761 8.18779113095e-39
0.0197171348083 -0.149286877834 0.761 8.55620090501e-39
0.0211255015803 -0.149286877834 0.761 8.46400527514e-39
0.0225338683523 -0.149286877834 0.761 8.28069301523e-39
0.0239422351243 -0.149286877834 0.761 9.38053574612e-39
0.0253839141196 -0.149483049815 0.762 9.83719649487e-39
0.0267941315707 -0.149483049815 0.762 1.01170245878e-38
0.0282043490218 -0.149483049815 0.762 1.05848747048e-38
0.0296145664729 -0.149483049815 0.762 1.10487044965e-38
0.031024783924 -0.149483049815 0.762 1.13238522526e-38
0.0324350013751 -0.149483049815 0.762 1.21536129213e-38
0.0338452188261 -0.149483049815 0.762 1.19685013942e-38
0.0352554362772 -0.149483049815 0.762 1.19681524709e-38
-0.0269699460823 -0.149044438876 0.767 1.22566139636e-38
-0.0255504752359 -0.149044438876 0.767 1.29030665764e-38
-0.0241310043894 -0.149044438876 0.767 8.29182352894e-39
-0.022711533543 -0.149044438876 0.767 3.030579781e-39
-0.0212643025105 -0.148850117574 0.766 5.60344924071e-39
-0.0197948633292 -0.148461474969 0.764 3.94894735427e-39
-0.01838094452 -0.148461474969 0.764 1.19386145005e-39
-0.0169226094131 -0.148072832364 0.762 2.02765547619e-38
-0.015512391962 -0.148072832364 0.762 1.80609855821e-38
-0.0141021745109 -0.148072832364 0.762 1.76957959919e-38
-0.0126753009482 -0.147878511062 0.761 1.84333456165e-38
-0.0112669341762 -0.147878511062 0.761 1.70465057497e-38
-0.00983265789716 -0.147489868457 0.759 1.89861816827e-38
-0.00842799248328 -0.147489868457 0.759 1.92616741582e-38
-0.0070233270694 -0.147489868457 0.759 1.83397458856e-38
-0.00561866165552 -0.147489868457 0.759 1.93538922089e-38
-0.00421399624164 -0.147489868457 0.759 1.43720533617e-38
-0.00280192811148 -0.147101225853 0.757 1.74127449125e-38
-0.00140096405574 -0.147101225853 0.757 2.00881599925e-38
0.0 -0.147101225853 0.757 1.53926848943e-38
0.0013972626976 -0.146712583248 0.755 1.78852137092e-38
0.0027945253952 -0.146712583248 0.755 1.86174033672e-38
0.0041917880928 -0.146712583248 0.755 2.04595012829e-38
0.00558164807413 -0.146518261946 0.754 2.03673028505e-38
0.00697706009266 -0.146518261946 0.754 2.93876530432e-39
0.00837247211119 -0.146518261946 0.754 6.9863444523e-39
0.00978083888321 -0.146712583248 0.755 3.58160116574e-39
0.0111781015808 -0.146712583248 0.755 1.60190106573e-38
0.0125753642784 -0.146712583248 0.755 6.35214058942e-39
0.0140466541388 -0.147489868457 0.759 8.64121628154e-39
0.0154513195527 -0.147489868457 0.759 8.00088173788e-39
0.0168559849666 -0.147489868457 0.759 8.18779113095e-39
0.0182606503804 -0.147489868457 0.759 8.28104894504e-39
0.0196653157943 -0.147489868457 0.759 8.0955828894e-39
0.0210699812082 -0.147489868457 0.759 6.25021854692e-39
0.0224746466221 -0.147489868457 0.759 1.5006310474e-38
0.023879312036 -0.147489868457 0.759 1.91652045681e-38
0.0252839774498 -0.147489868457 0.759 2.1010096673e-38
0.0267589686684 -0.147878511062 0.761 2.2574527298e-38
0.0281673354404 -0.147878511062 0.761 7.90650288501e-39
0.0295757022124 -0.147878511062 0.761 1.07717700849e-38
0.0309840689844 -0.147878511062 0.761 1.11405526043e-38
0.0323924357565 -0.147878511062 0.761 1.1509354742e-38
0.0338008025285 -0.147878511062 0.761 1.22454582266e-38
0.0352091693005 -0.147878511062 0.761 1.27057301215e-38
-0.0269699460823 -0.14762496803 0.767 1.25321218534e-38
-0.0255171630126 -0.147432497406 0.766 1.25321190508e-38
-0.0240995428453 -0.147432497406 0.766 1.04134244364e-38
-0.0226819226779 -0.147432497406 0.766 3.03057417581e-39
-0.0212087821384 -0.14704755616 0.764 4.68364954041e-39
-0.0197430443153 -0.146662614913 0.762 5.32646298106e-39
-0.0183328268642 -0.146662614913 0.762 1.83670992316e-40
-0.0169226094131 -0.146662614913 0.762 2.09218793294e-38
-0.0154920344922 -0.14647014429 0.761 1.84322890375e-38
-0.0140836677202 -0.14647014429 0.761 1.3915059104e-38
-0.0126419887249 -0.146085203044 0.759 1.87067025131e-38
-0.011237323311 -0.146085203044 0.759 1.34551571519e-38
-0.00983265789716 -0.146085203044 0.759 1.88043183655e-38
-0.00840578433445 -0.145700261797 0.757 1.8893620314e-38
-0.0070048202787 -0.145700261797 0.757 1.84326449673e-38
-0.00560385622296 -0.145700261797 0.757 1.97233781802e-38
-0.00420289216722 -0.145700261797 0.757 1.81574817969e-38
-0.00280192811148 -0.145700261797 0.757 1.76997490548e-38
-0.0013972626976 -0.145315320551 0.755 2.07353622999e-38
0.0 -0.145315320551 0.755 1.7509976809e-38
0.00139541201853 -0.145122849927 0.754 1.78841697418e-38
0.00279082403706 -0.145122849927 0.754 1.9079083567e-38
0.0041862360556 -0.145122849927 0.754 1.9999595127e-38
0.00558164807413 -0.145122849927 0.754 2.08279236687e-38
0.00697706009266 -0.145122849927 0.754 1.10208620973e-39
0.00837247211119 -0.145122849927 0.754 5.33077617773e-39
0.00978083888321 -0.145315320551 0.755 5.96966598268e-39
0.0111781015808 -0.145315320551 0.755 1.06777765891e-38
0.0125753642784 -0.145315320551 0.755 1.05941975435e-38
0.0140096405574 -0.145700261797 0.757 9.10002101694e-39
0.0154106046132 -0.145700261797 0.757 8.18814425816e-39
0.0168115686689 -0.145700261797 0.757 7.82118202541e-39
0.0182125327246 -0.145700261797 0.757 8.55872184094e-39
0.0196134967804 -0.145700261797 0.757 8.19027002793e-39
0.0210144608361 -0.145700261797 0.757 6.89558795596e-39
0.0224154248919 -0.145700261797 0.757 1.56384334086e-38
0.0238163889476 -0.145700261797 0.757 1.73190442881e-38
0.0252839774498 -0.146085203044 0.759 1.21615610862e-38
0.0266886428637 -0.146085203044 0.759 9.93411590186e-39
0.0280192811148 -0.145700261797 0.757 1.2408654847e-38
0.0294202451706 -0.145700261797 0.757 1.04026344382e-38
0.0308212092263 -0.145700261797 0.757 1.17855688862e-38
0.032222173282 -0.145700261797 0.757 1.1600795072e-38
0.0337119699331 -0.146085203044 0.759 1.21528912526e-38
0.035116635347 -0.146085203044 0.759 1.25209661163e-38
-0.0269699460823 -0.146205497183 0.767 1.40058043899e-38
-0.0255171630126 -0.146014877239 0.766 1.25339239232e-38
-0.0240366197569 -0.145633637351 0.764 1.05056354805e-38
-0.0226227009477 -0.145633637351 0.764 2.5714191158e-39
-0.0211532617663 -0.145252397462 0.762 5.78605804879e-39
-0.0197430443153 -0.145252397462 0.762 5.41975442632e-39
-0.0183328268642 -0.145252397462 0.762 5.51012976948e-40
-0.0169004012642 -0.145061777518 0.761 1.98148773647e-38
-0.0154513195527 -0.14468053763 0.759 1.8893620314e-38
-0.0140096405574 -0.144299297741 0.757 1.64950863962e-38
-0.0126086765017 -0.144299297741 0.757 1.47415169123e-38
-0.0111781015808 -0.143918057853 0.755 8.02430163911e-39
-0.00978083888321 -0.143918057853 0.755 1.85316747297e-38
-0.00838357618561 -0.143918057853 0.755 1.8893620314e-38
-0.00698631348801 -0.143918057853 0.755 1.89858159439e-38
-0.00558905079041 -0.143918057853 0.755 1.97241236709e-38
-0.0041917880928 -0.143918057853 0.755 1.42863541516e-38
-0.0027945253952 -0.143918057853 0.755 1.26303935134e-38
-0.0013972626976 -0.143918057853 0.755 1.77851217625e-38
0.0 -0.143727437909 0.754 1.76932792598e-38
0.00139541201853 -0.143727437909 0.754 1.52101153226e-38
0.00279082403706 -0.143727437909 0.754 1.898798095e-38
0.0041862360556 -0.143727437909 0.754 1.95393428502e-38
0.00556684264157 -0.14334619802 0.752 2.16594864073e-38
0.00695855330196 -0.14334619802 0.752 1.01019045774e-39
0.00835026396236 -0.14334619802 0.752 4.23127256107e-39
0.00976788412972 -0.143727437909 0.754 6.06547415998e-39
0.0111632961483 -0.143727437909 0.754 4.31626831943e-39
0.0125753642784 -0.143918057853 0.755 1.61205291258e-38
0.013972626976 -0.143918057853 0.755 6.79585474166e-39
0.0153698896736 -0.143918057853 0.755 7.81899179591e-39
0.0168115686689 -0.144299297741 0.757 7.91155736857e-39
0.0182125327246 -0.144299297741 0.757 8.09665208012e-39
0.0195616777664 -0.143918057853 0.755 8.4650464399e-39
0.020958940464 -0.143918057853 0.755 4.04076183095e-39
0.0223562031616 -0.143918057853 0.755 2.08096100991e-38
0.0237534658592 -0.143918057853 0.755 1.74156035613e-38
0.0251507285568 -0.143918057853 0.755 2.12946121093e-38
0.0265479912544 -0.143918057853 0.755 7.09004053866e-39
0.027945253952 -0.143918057853 0.755 1.14006013694e-38
0.0293425166496 -0.143918057853 0.755 1.04022658967e-38
0.0308212092263 -0.144299297741 0.757 1.12291581075e-38
0.032222173282 -0.144299297741 0.757 1.17859220134e-38
0.0337119699331 -0.14468053763 0.759 1.18773749551e-38
0.035116635347 -0.14468053763 0.759 1.2338004181e-38
-0.0266886428637 -0.143275872216 0.759 1.30834809511e-38
-0.0252839774498 -0.143275872216 0.759 1.28097849402e-38
-0.023879312036 -0.143275872216 0.759 1.11509992844e-38
-0.0225338683523 -0.143653410746 0.761 1.744874427e-39
-0.0211255015803 -0.143653410746 0.761 5.05169777947e-39
-0.0197171348083 -0.143653410746 0.761 5.60198768641e-39
-0.0182606503804 -0.143275872216 0.759 1.92854541932e-39
-0.0168115686689 -0.142898333686 0.757 2.10034222884e-38
-0.0154106046132 -0.142898333686 0.757 1.78798355257e-38
-0.013972626976 -0.142520795155 0.755 1.88929014479e-38
-0.0125753642784 -0.142520795155 0.755 1.51143001388e-38
-0.0111781015808 -0.142520795155 0.755 8.57706764044e-39
-0.00978083888321 -0.142520795155 0.755 1.91745035847e-38
-0.00837247211119 -0.14233202589 0.754 1.88921713714e-38
-0.00697706009266 -0.14233202589 0.754 1.82482509049e-38
-0.00558164807413 -0.14233202589 0.754 1.9447873093e-38
-0.0041862360556 -0.14233202589 0.754 1.52036315146e-38
-0.00279082403706 -0.14233202589 0.754 1.54794925316e-38
-0.00139541201853 -0.14233202589 0.754 1.69564583104e-38
0.0 -0.14195448736 0.752 1.7699393125e-38
0.00139171066039 -0.14195448736 0.752 1.603990682e-38
0.00278342132079 -0.14195448736 0.752 1.99092141786e-38
0.00417513198118 -0.14195448736 0.752 1.81560552751e-38
0.00555203720901 -0.14157694883 0.75 2.17506030373e-38
0.00694004651127 -0.14157694883 0.75 2.5753413502e-39
0.00832805581352 -0.14157694883 0.75 2.38772430141e-39
0.00974197462275 -0.14195448736 0.752 6.06477351075e-39
0.0111336852831 -0.14195448736 0.752 3.76525534248e-39
0.0125587081668 -0.14233202589 0.754 2.03553890109e-38
0.0139541201853 -0.14233202589 0.754 4.95911679253e-39
0.0153495322039 -0.14233202589 0.754 8.37074325715e-39
0.0167671523712 -0.142520795155 0.755 7.635679536e-39
0.0181644150688 -0.142520795155 0.755 8.00410332305e-39
0.0195616777664 -0.142520795155 0.755 8.46579333198e-39
0.020958940464 -0.142520795155 0.755 5.6073854881e-39
0.0223265922965 -0.14233202589 0.754 1.52876155355e-38
0.023722004315 -0.14233202589 0.754 1.85310385402e-38
0.0251174163336 -0.14233202589 0.754 7.37354423747e-39
0.0265128283521 -0.14233202589 0.754 1.82514977135e-38
0.0279082403706 -0.14233202589 0.754 5.79721378587e-39
0.0293036523892 -0.14233202589 0.754 1.04040637626e-38
0.0307397793472 -0.142520795155 0.755 1.04955307173e-38
0.0321370420448 -0.142520795155 0.755 1.11412784769e-38
0.0335343047424 -0.142520795155 0.755 1.16958563572e-38
0.03493156744 -0.142520795155 0.755 1.15114650974e-38
-0.0266886428637 -0.141871206802 0.759 1.4372416298e-38
-0.0252839774498 -0.141871206802 0.759 1.29009015703e-38
-0.023879312036 -0.141871206802 0.759 1.22569993207e-38
-0.0225338683523 -0.142245043974 0.761 1.56123706585e-39
-0.0210699812082 -0.141871206802 0.759 4.77654021432e-39
-0.0196134967804 -0.14149736963 0.757 5.2346260836e-39
-0.0182125327246 -0.14149736963 0.757 2.29588740395e-39
-0.0167671523712 -0.141123532458 0.755 1.98970719274e-38
-0.0153698896736 -0.141123532458 0.755 1.83404437322e-38
-0.0139541201853 -0.140936613872 0.754 1.97215677025e-38
-0.0125587081668 -0.140936613872 0.754 7.37492451646e-39
-0.0111632961483 -0.140936613872 0.754 1.36481972257e-38
-0.00976788412972 -0.140936613872 0.754 1.91691548284e-38
-0.00835026396236 -0.1405627767 0.752 1.84329952919e-38
-0.00695855330196 -0.1405627767 0.752 1.89843684025e-38
-0.00555203720901 -0.140188939528 0.75 1.82475292362e-38
-0.00416402790676 -0.140188939528 0.75 2.06431666701e-38
-0.00277601860451 -0.140188939528 0.75 1.82478949751e-38
-0.00138615862318 -0.140002020942 0.749 1.86209934939e-38
0.0 -0.140002020942 0.749 1.67774186095e-38
0.00138615862318 -0.140002020942 0.749 1.53895053481e-38
0.00277231724637 -0.140002020942 0.749 1.92613238336e-38
0.00415847586955 -0.140002020942 0.749 1.96308322257e-38
0.00554463449273 -0.140002020942 0.749 2.02758330932e-38
0.00693079311592 -0.140002020942 0.749 1.41909187197e-38
0.0083169517391 -0.140002020942 0.749 1.28570115011e-39
0.00971606511577 -0.140188939528 0.75 6.70551302967e-39
0.011104074418 -0.140188939528 0.75 3.489748854e-39
0.0125253959435 -0.1405627767 0.752 1.81413486477e-38
0.0139171066039 -0.1405627767 0.752 6.53360453666e-39
0.0153088172643 -0.1405627767 0.752 8.55153177852e-39
0.0167449442224 -0.140936613872 0.754 8.46399546605e-39
0.0181403562409 -0.140936613872 0.754 8.46505905159e-39
0.0195357682594 -0.140936613872 0.754 8.37466128766e-39
0.020931180278 -0.140936613872 0.754 7.54240911022e-39
0.0222673705663 -0.1405627767 0.752 9.38380077154e-39
0.0236590812267 -0.1405627767 0.752 2.00900797714e-38
0.0250507918871 -0.1405627767 0.752 1.99974259169e-38
0.0264425025475 -0.1405627767 0.752 2.20274926074e-38
0.0278342132079 -0.1405627767 0.752 4.22769784869e-39
0.0292259238682 -0.1405627767 0.752 1.04937062267e-38
0.0306990644077 -0.140936613872 0.754 1.04951803927e-38
0.0320944764262 -0.140936613872 0.754 1.04029875654e-38
0.0334898884448 -0.140936613872 0.754 1.14178597613e-38
0.0348853004633 -0.140936613872 0.754 1.11416091834e-38
0.0362807124818 -0.140936613872 0.754 1.21536101187e-38
-0.0252173530033 -0.140096405574 0.757 1.17023611846e-38
-0.0238163889476 -0.140096405574 0.757 1.32697037079e-38
-0.0224746466221 -0.140466541388 0.759 1.83742878927e-39
-0.0210144608361 -0.140096405574 0.757 4.41134501893e-39
-0.0195616777664 -0.13972626976 0.755 5.32863779628e-39
-0.0181644150688 -0.13972626976 0.755 2.29588740395e-39
-0.0167671523712 -0.13972626976 0.755 1.437464156e-38
-0.0153495322039 -0.139541201853 0.754 1.88025008813e-38
-0.0139541201853 -0.139541201853 0.754 2.03651378444e-38
-0.0125587081668 -0.139541201853 0.754 5.43416958362e-39
-0.0111336852831 -0.139171066039 0.752 1.78833962251e-38
-0.00974197462275 -0.139171066039 0.752 1.8797128303e-38
-0.00832805581352 -0.138800930225 0.75 1.85255608645e-38
-0.00694004651127 -0.138800930225 0.75 1.93538725907e-38
-0.00554463449273 -0.138615862318 0.749 1.93524250494e-38
-0.00415847586955 -0.138615862318 0.749 1.88007002128e-38
-0.00277231724637 -0.138615862318 0.749 1.45582803225e-38
-0.00138615862318 -0.138615862318 0.749 1.54827547544e-38
0.0 -0.138245726504 0.747 1.93528005974e-38
0.00138245726504 -0.138245726504 0.747 1.64932843264e-38
0.00276491453009 -0.138245726504 0.747 1.92609580947e-38
0.00414737179513 -0.138245726504 0.747 1.88932699894e-38
0.00554463449273 -0.138615862318 0.749 2.05531430528e-38
0.00693079311592 -0.138615862318 0.749 1.89843655999e-38
0.0083169517391 -0.138615862318 0.749 2.8469003809e-39
0.00967720085531 -0.138245726504 0.747 6.43066375017e-39
0.0110596581204 -0.138245726504 0.747 4.31626831943e-39
0.0124754276087 -0.138615862318 0.749 1.42680419832e-38
0.0138245726504 -0.138245726504 0.747 8.47334352811e-39
0.0152070299155 -0.138245726504 0.747 9.19583199684e-39
0.0166339034782 -0.138615862318 0.749 8.37073765196e-39
0.0180441209293 -0.138800930225 0.75 8.55548764409e-39
0.0194321302315 -0.138800930225 0.75 8.83279480109e-39
0.0208201395338 -0.138800930225 0.75 8.83421711903e-39
0.0221785379709 -0.138615862318 0.749 7.63351172728e-39
0.0235646965941 -0.138615862318 0.749 7.90944421048e-39
0.0249841674406 -0.138800930225 0.75 1.40003897727e-38
0.0263721767428 -0.138800930225 0.75 1.03126164262e-38
0.0277601860451 -0.138800930225 0.75 8.37317310869e-39
0.0291481953473 -0.138800930225 0.75 1.10429045221e-38
0.0306176345286 -0.139171066039 0.752 1.02196598912e-38
0.032009345189 -0.139171066039 0.752 1.08646915873e-38
0.0334010558494 -0.139171066039 0.752 1.0865041912e-38
0.0348853004633 -0.139541201853 0.754 1.1692634772e-38
0.0362807124818 -0.139541201853 0.754 1.19688937578e-38
-0.0252173530033 -0.138695441518 0.757 1.28105038063e-38
-0.0238163889476 -0.138695441518 0.757 1.29945587544e-38
-0.0223562031616 -0.138329007063 0.755 5.52633018103e-39
-0.020958940464 -0.138329007063 0.755 3.030579781e-39
-0.0195616777664 -0.138329007063 0.755 5.053498448e-39
-0.0181403562409 -0.138145789835 0.754 2.66323639507e-39
-0.0167449442224 -0.138145789835 0.754 8.1081735561e-39
-0.0153495322039 -0.138145789835 0.754 1.64983065801e-38
-0.0139171066039 -0.137779355379 0.752 1.84289875783e-38
-0.0125253959435 -0.137779355379 0.752 9.02941659381e-39
-0.0111336852831 -0.137779355379 0.752 1.87070864689e-38
-0.00971606511577 -0.137412920923 0.75 1.89793321359e-38
-0.00832805581352 -0.137412920923 0.75 1.86177564944e-38
-0.00693079311592 -0.137229703695 0.749 1.85241091193e-38
-0.00554463449273 -0.137229703695 0.749 1.92609608973e-38
-0.00415847586955 -0.137229703695 0.749 1.93538767946e-38
-0.00276491453009 -0.136863269239 0.747 1.57571289938e-38
-0.00138245726504 -0.136863269239 0.747 1.76947113869e-38
0.0 -0.136680052011 0.746 1.93517496235e-38
0.00137690522784 -0.136313617556 0.744 1.64946968353e-38
0.00275381045567 -0.136313617556 0.744 1.76922044639e-38
0.00414737179513 -0.136863269239 0.747 1.95379177297e-38
0.00552982906018 -0.136863269239 0.747 1.93535418843e-38
0.00688452613918 -0.136313617556 0.744 2.17502246867e-38
0.00826143136701 -0.136313617556 0.744 2.02048321026e-39
0.00963833659485 -0.136313617556 0.744 5.69812096496e-39
0.0110152418227 -0.136313617556 0.744 5.05096910427e-39
0.0124421153854 -0.136863269239 0.747 1.00302421739e-38
0.0138245726504 -0.136863269239 0.747 1.30802733789e-38
0.0152070299155 -0.136863269239 0.747 8.18347793427e-39
0.0165894871805 -0.136863269239 0.747 8.55478419226e-39
0.0179719444456 -0.136863269239 0.747 8.74095229844e-39
0.0193544017106 -0.136863269239 0.747 8.8335164698e-39
0.0207368589757 -0.136863269239 0.747 8.74167116455e-39
0.0221193162407 -0.136863269239 0.747 8.46506185419e-39
0.0235017735058 -0.136863269239 0.747 1.02146110129e-38
0.0249508552173 -0.137229703695 0.749 1.11416442158e-38
0.0263370138405 -0.137229703695 0.749 1.30802341425e-38
0.0277231724637 -0.137229703695 0.749 9.11865828651e-39
0.0291093310869 -0.137229703695 0.749 9.75691470455e-39
0.03049548971 -0.137229703695 0.749 9.75582589564e-39
0.0318816483332 -0.137229703695 0.749 1.06788710032e-38
0.0332678069564 -0.137229703695 0.749 1.10490576237e-38
0.0346539655796 -0.137229703695 0.749 1.132384945e-38
0.0360401242028 -0.137229703695 0.749 1.23365748566e-38
0.037426282826 -0.137229703695 0.749 1.01224504155e-38
-0.0252173530033 -0.137294477463 0.757 1.21637120794e-38
-0.0238163889476 -0.137294477463 0.757 1.28090814884e-38
-0.0223562031616 -0.136931744365 0.755 8.66027814455e-39
-0.020958940464 -0.136931744365 0.755 2.02038091548e-39
-0.0195357682594 -0.136750377816 0.754 5.41975442632e-39
-0.0181403562409 -0.136750377816 0.754 4.40810381558e-39
-0.0167005279247 -0.136387644718 0.752 4.5917748079e-40
-0.0153088172643 -0.136387644718 0.752 2.02743841506e-38
-0.0139171066039 -0.136387644718 0.752 1.40032638358e-38
-0.0125253959435 -0.136387644718 0.752 1.53945023785e-38
-0.011104074418 -0.136024911621 0.75 1.86156069026e-38
-0.00970311036229 -0.135843545072 0.749 1.41901732289e-38
-0.0083169517391 -0.135843545072 0.749 1.92641978968e-38
-0.00691228632522 -0.135480811974 0.747 1.86159390103e-38
-0.00552982906018 -0.135480811974 0.747 1.8800705818e-38
-0.00414737179513 -0.135480811974 0.747 1.98152276893e-38
-0.00276121317195 -0.135299445426 0.746 1.87099521243e-38
-0.00138060658597 -0.135299445426 0.746 1.898653481e-38
0.0 -0.134936712328 0.744 1.99052330897e-38
0.00137690522784 -0.134936712328 0.744 1.695604773e-38
0.00275381045567 -0.134936712328 0.744 1.60312411903e-38
0.00411961160909 -0.13457397923 0.742 1.99977944584e-38
0.00549281547878 -0.13457397923 0.742 1.83411682035e-38
0.00686601934848 -0.13457397923 0.742 2.11988683917e-38
0.00823922321818 -0.13457397923 0.742 7.34683969264e-40
0.00961242708787 -0.13457397923 0.742 4.5038993812e-39
0.0109856309576 -0.13457397923 0.742 5.69488116291e-39
0.0123921470505 -0.134936712328 0.744 2.8469003809e-39
0.0137690522784 -0.134936712328 0.744 1.53861408305e-38
0.0151459575062 -0.134936712328 0.744 7.2651173675e-39
0.016522862734 -0.134936712328 0.744 8.3728886451e-39
0.0179719444456 -0.135480811974 0.747 9.01858315538e-39
0.0193544017106 -0.135480811974 0.747 8.9271344176e-39
0.0207368589757 -0.135480811974 0.747 8.92786169151e-39
0.0221193162407 -0.135480811974 0.747 8.65055453451e-39
0.0235017735058 -0.135480811974 0.747 8.55544560513e-39
0.0248842307708 -0.135480811974 0.747 1.12270071144e-38
0.0262666880358 -0.135480811974 0.747 1.10447640452e-38
0.0276491453009 -0.135480811974 0.747 9.11332774715e-39
0.0291093310869 -0.135843545072 0.749 9.85161445477e-39
0.03049548971 -0.135843545072 0.749 9.85088998346e-39
0.0318816483332 -0.135843545072 0.749 1.01271237458e-38
0.0332678069564 -0.135843545072 0.749 1.05880794744e-38
0.0346539655796 -0.135843545072 0.749 1.11409001263e-38
0.0360401242028 -0.135843545072 0.749 1.15082435123e-38
0.037426282826 -0.135843545072 0.749 1.15075400605e-38
-0.0237534658592 -0.135534481667 0.755 1.29016330481e-38
-0.0223562031616 -0.135534481667 0.755 1.1151002087e-38
-0.020931180278 -0.135354965798 0.754 1.65304173344e-39
-0.0195357682594 -0.135354965798 0.754 5.14315072115e-39
-0.0181403562409 -0.135354965798 0.754 4.95911819383e-39
-0.0167005279247 -0.134995934058 0.752 1.1020259539e-39
-0.0152681023248 -0.134636902319 0.75 2.03657964546e-38
-0.0138615862318 -0.134457386449 0.749 1.05002026464e-38
-0.0124754276087 -0.134457386449 0.749 1.76082666859e-38
-0.0110892689855 -0.134457386449 0.749 1.73245569962e-38
-0.00967720085531 -0.134098354709 0.747 9.21737275683e-39
-0.00829474359027 -0.134098354709 0.747 1.95429525951e-38
-0.00690303292987 -0.13391883884 0.746 1.90761954909e-38
-0.0055224263439 -0.13391883884 0.746 1.86159544246e-38
-0.00414181975792 -0.13391883884 0.746 1.88925455181e-38
-0.00276121317195 -0.13391883884 0.746 1.89858159439e-38
-0.00138060658597 -0.13391883884 0.746 1.85234056675e-38
0.0 -0.1335598071 0.744 1.94460752271e-38
0.0013732038697 -0.133200775361 0.742 1.95393428502e-38
0.00274640773939 -0.133200775361 0.742 1.97215803142e-38
0.00411961160909 -0.133200775361 0.742 1.97222893713e-38
0.00549281547878 -0.133200775361 0.742 1.95393400476e-38
0.00686601934848 -0.133200775361 0.742 2.11988810034e-38
0.00823922321818 -0.133200775361 0.742 3.67341984632e-40
0.00961242708787 -0.133200775361 0.742 2.75506488474e-39
0.0109856309576 -0.133200775361 0.742 5.4183124902e-39
0.0123588348273 -0.133200775361 0.742 9.19507389437e-39
0.013732038697 -0.133200775361 0.742 9.01937208642e-39
0.0151459575062 -0.1335598071 0.744 9.01540360917e-39
0.016522862734 -0.1335598071 0.744 8.74167116455e-39
0.0179478856177 -0.13391883884 0.746 8.9271344176e-39
0.0192766731897 -0.1335598071 0.744 8.83421711903e-39
0.0206535784175 -0.1335598071 0.744 9.47884383989e-39
0.0220897053756 -0.13391883884 0.746 9.11117395142e-39
0.0234703119616 -0.13391883884 0.746 9.29592394355e-39
0.0248509185475 -0.13391883884 0.746 9.29557361893e-39
0.0262315251335 -0.13391883884 0.746 9.84946065903e-39
0.0276491453009 -0.134098354709 0.747 9.57535967292e-39
0.0290316025659 -0.134098354709 0.747 9.75793344854e-39
0.030414059831 -0.134098354709 0.747 9.84909211753e-39
0.031796517096 -0.134098354709 0.747 1.01274768731e-38
0.0331789743611 -0.134098354709 0.747 1.04951803927e-38
0.0345614316261 -0.134098354709 0.747 1.07717756901e-38
0.0359438888912 -0.134098354709 0.747 1.15990098177e-38
0.0373263461562 -0.134098354709 0.747 1.15078931877e-38
0.0386569844073 -0.13391883884 0.746 8.84252121373e-39
0.0400375909933 -0.13391883884 0.746 1.52003398645e-38
-0.0236590812267 -0.133604223398 0.752 1.22573468427e-38
-0.0222673705663 -0.133604223398 0.752 1.25342896621e-38
-0.0208756599059 -0.133604223398 0.752 1.37753244237e-39
-0.0194321302315 -0.133248893016 0.75 5.32830148464e-39
-0.0180441209293 -0.133248893016 0.75 5.97039746047e-39
-0.0166339034782 -0.133071227826 0.749 1.19386145005e-39
-0.0152070299155 -0.132715897444 0.747 2.2111447201e-38
-0.0138245726504 -0.132715897444 0.747 1.39153687909e-38
-0.0124754276087 -0.133071227826 0.749 1.90794310891e-38
-0.0110892689855 -0.133071227826 0.749 1.34483566504e-38
-0.00967720085531 -0.132715897444 0.747 8.94622010269e-39
-0.00829474359027 -0.132715897444 0.747 1.8252213777e-38
-0.00688452613918 -0.132182901872 0.744 1.89832964092e-38
-0.00550762091134 -0.132182901872 0.744 1.87063549911e-38
-0.00413071568351 -0.132182901872 0.744 1.90758633832e-38
-0.00275381045567 -0.132182901872 0.744 1.88021477541e-38
-0.00137690522784 -0.132182901872 0.744 1.85251951256e-38
0.0 -0.131827571491 0.742 1.92609552921e-38
0.0013732038697 -0.131827571491 0.742 1.8895066454e-38
0.00274640773939 -0.131827571491 0.742 1.88014190789e-38
0.00411961160909 -0.131827571491 0.742 1.93542285205e-38
0.00549281547878 -0.131827571491 0.742 2.02754603478e-38
0.00685676595313 -0.1316499063 0.741 2.0921924171e-38
0.00822811914376 -0.1316499063 0.741 1.12406235316e-38
0.00961242708787 -0.131827571491 0.742 2.38772290011e-39
0.0109856309576 -0.131827571491 0.742 9.93412150705e-39
0.0123588348273 -0.131827571491 0.742 7.26839080071e-39
0.013732038697 -0.131827571491 0.742 9.19477822039e-39
0.0151052425667 -0.131827571491 0.742 8.92641555149e-39
0.0164784464364 -0.131827571491 0.742 8.83531573703e-39
0.0178997679619 -0.132182901872 0.744 8.83493878774e-39
0.0192766731897 -0.132182901872 0.744 9.38704057359e-39
0.0206535784175 -0.132182901872 0.744 9.20339060076e-39
0.0220304836454 -0.132182901872 0.744 9.84694252569e-39
0.0234073888732 -0.132182901872 0.744 9.75687967209e-39
0.0248509185475 -0.132538232254 0.746 9.57430309387e-39
0.0262315251335 -0.132538232254 0.746 1.02196907198e-38
0.0276121317195 -0.132538232254 0.746 1.04033350874e-38
0.0290316025659 -0.132715897444 0.747 1.04040413419e-38
0.030414059831 -0.132715897444 0.747 9.75902506004e-39
0.031796517096 -0.132715897444 0.747 1.04958684302e-38
0.0331789743611 -0.132715897444 0.747 1.04951803927e-38
0.0345614316261 -0.132715897444 0.747 1.10476535226e-38
0.0359438888912 -0.132715897444 0.747 1.10487044965e-38
0.0372763778213 -0.132538232254 0.746 1.14160478824e-38
0.0386569844073 -0.132538232254 0.746 8.83998486351e-39
0.0400375909933 -0.132538232254 0.746 1.57528382179e-38
-0.0235646965941 -0.131685069202 0.749 1.27190340491e-38
-0.0221785379709 -0.131685069202 0.749 1.29034211049e-38
-0.0207923793478 -0.131685069202 0.749 8.26560103077e-40
-0.0194062207246 -0.131685069202 0.749 4.86765264047e-39
-0.0180200621014 -0.131685069202 0.749 5.14280319913e-39
-0.0165672790317 -0.131157625668 0.746 2.38772290011e-39
-0.0151866724457 -0.131157625668 0.746 2.31231356468e-38
-0.0138060658597 -0.131157625668 0.746 5.62030125604e-39
-0.0124754276087 -0.131685069202 0.749 2.08297103242e-38
-0.0110596581204 -0.131333440179 0.747 8.56237922994e-39
-0.00967720085531 -0.131333440179 0.747 1.19876207104e-38
-0.00826143136701 -0.130805996644 0.744 1.99081575996e-38
-0.00688452613918 -0.130805996644 0.744 1.83382927391e-38
-0.00550762091134 -0.130805996644 0.744 1.85230427312e-38
-0.00411961160909 -0.130454367621 0.742 1.91702114075e-38
-0.00274640773939 -0.130454367621 0.742 1.90780143763e-38
-0.00137690522784 -0.130805996644 0.744 1.96304664868e-38
0.0 -0.130454367621 0.742 1.99070491725e-38
0.0013732038697 -0.130454367621 0.742 2.02765519593e-38
0.00274270638125 -0.130278553109 0.741 2.11977823854e-38
0.00411405957188 -0.130278553109 0.741 2.02772582138e-38
0.0054854127625 -0.130278553109 0.741 1.91719868526e-38
0.00685676595313 -0.130278553109 0.741 1.58550096915e-38
0.00822811914376 -0.130278553109 0.741 1.36405741621e-38
0.00959947233438 -0.130278553109 0.741 9.5803917357e-39
0.010970825525 -0.130278553109 0.741 6.7216363698e-39
0.0123588348273 -0.130454367621 0.742 4.22916500818e-39
0.013732038697 -0.130454367621 0.742 9.85128094574e-39
0.0151052425667 -0.130454367621 0.742 9.7586943536e-39
0.0164784464364 -0.130454367621 0.742 9.39315724139e-39
0.0178997679619 -0.130805996644 0.744 9.85233191958e-39
0.0192248541757 -0.130454367621 0.742 9.39135377027e-39
0.0205980580454 -0.130454367621 0.742 9.39099083397e-39
0.0220304836454 -0.130805996644 0.744 9.66614839912e-39
0.0234073888732 -0.130805996644 0.744 9.85194656251e-39
0.024784294101 -0.130805996644 0.744 9.02255163264e-39
0.0261611993289 -0.130805996644 0.744 9.66900284409e-39
0.0275381045567 -0.130805996644 0.744 1.1233789399e-38
0.0289150097845 -0.130805996644 0.744 1.08639699186e-38
0.0303733448914 -0.131157625668 0.746 1.02203731521e-38
0.0317539514774 -0.131157625668 0.746 8.93035600277e-39
0.0331345580634 -0.131157625668 0.746 1.14181988756e-38
0.0345151646494 -0.131157625668 0.746 9.94271286794e-39
0.0358957712353 -0.131157625668 0.746 1.10508428779e-38
0.0371764411516 -0.130805996644 0.744 1.04962369717e-38
0.0384497083515 -0.130454367621 0.742 9.38989221597e-39
0.0398229122212 -0.130454367621 0.742 1.78730013931e-38
-0.0235017735058 -0.129950982914 0.747 1.23498984024e-38
-0.0220897053756 -0.129777019082 0.746 1.32722078283e-38
-0.0207090987896 -0.129777019082 0.746 4.5917748079e-40
-0.0193284922036 -0.129777019082 0.746 4.40883249079e-39
-0.0179478856177 -0.129777019082 0.746 5.41975442632e-39
-0.016522862734 -0.129429091417 0.744 2.66322938858e-39
-0.0151459575062 -0.129429091417 0.744 1.93413744097e-38
-0.013732038697 -0.129081163751 0.742 9.58436021295e-39
-0.0123588348273 -0.129081163751 0.742 2.09190669234e-38
-0.0109856309576 -0.129081163751 0.742 1.02265248524e-38
-0.00961242708787 -0.129081163751 0.742 1.67741746036e-38
-0.00823922321818 -0.129081163751 0.742 1.88893043147e-38
-0.00686601934848 -0.129081163751 0.742 1.98141472882e-38
-0.00549281547878 -0.129081163751 0.742 1.98144793959e-38
-0.00411961160909 -0.129081163751 0.742 2.08279236687e-38
-0.00274640773939 -0.129081163751 0.742 2.05538619189e-38
-0.0013732038697 -0.129081163751 0.742 2.06467638032e-38
0.0 -0.129081163751 0.742 1.8803907785e-38
0.00137135319063 -0.128907199919 0.741 1.54851761982e-38
0.00274270638125 -0.128907199919 0.741 9.58295611189e-39
0.00411405957188 -0.128907199919 0.741 1.47136338754e-43
0.0054854127625 -0.128907199919 0.741 5.6051938573e-45
0.00685676595313 -0.128907199919 0.741 0.0
0.00822811914376 -0.128907199919 0.741 0.0
0.00959947233438 -0.128907199919 0.741 0.0
0.010970825525 -0.128907199919 0.741 0.0
0.0123421787156 -0.128907199919 0.741 0.0
0.0137135319063 -0.128907199919 0.741 1.56126789442e-39
0.0151052425667 -0.129081163751 0.742 3.12240686937e-39
0.0164784464364 -0.129081163751 0.742 2.57140089892e-39
0.017851650306 -0.129081163751 0.742 4.13262955697e-39
0.0192248541757 -0.129081163751 0.742 4.8705463218e-39
0.0205980580454 -0.129081163751 0.742 5.98051203279e-39
0.0219712619151 -0.129081163751 0.742 6.80919370174e-39
0.0233444657848 -0.129081163751 0.742 8.10133381829e-39
0.0247176696545 -0.129081163751 0.742 8.56410983354e-39
0.0260908735242 -0.129081163751 0.742 8.28788307766e-39
0.0274640773939 -0.129081163751 0.742 8.19461825706e-39
0.0288372812636 -0.129081163751 0.742 9.48607313867e-39
0.0302919150124 -0.129429091417 0.744 9.11834719825e-39
0.0316688202402 -0.129429091417 0.744 1.17941910756e-38
0.033045725468 -0.129429091417 0.744 1.29945433402e-38
0.0344226306959 -0.129429091417 0.744 9.11872975273e-39
0.0357995359237 -0.129429091417 0.744 8.47549592255e-39
0.0371764411516 -0.129429091417 0.744 8.6609619782e-39
0.0384497083515 -0.129081163751 0.742 7.64287940751e-39
0.0398229122212 -0.129081163751 0.742 1.7781509215e-38
-0.0235017735058 -0.128568525649 0.747 1.24413751662e-38
-0.0220897053756 -0.128396412496 0.746 1.42860066295e-38
-0.0207090987896 -0.128396412496 0.746 9.1835496158e-40
-0.0193284922036 -0.128396412496 0.746 4.22623629439e-39
-0.0179478856177 -0.128396412496 0.746 5.41832370059e-39
-0.016522862734 -0.128052186189 0.744 3.03057137321e-39
-0.0151459575062 -0.128052186189 0.744 1.34523433446e-38
-0.013732038697 -0.127707959882 0.742 1.18006482589e-38
-0.0123588348273 -0.127707959882 0.742 1.73306050004e-38
-0.010970825525 -0.127535846728 0.741 1.34537026041e-38
-0.00959947233438 -0.127535846728 0.741 1.99963329041e-38
-0.00823922321818 -0.127707959882 0.742 2.06380897657e-38
-0.00686601934848 -0.127707959882 0.742 1.95396903723e-38
-0.00549281547878 -0.127707959882 0.742 1.78827081875e-38
-0.00411405957188 -0.127535846728 0.741 1.43778042906e-38
-0.00274270638125 -0.127535846728 0.741 4.41828284763e-39
-0.0013732038697 -0.127707959882 0.742 4.90454462514e-44
0.0 -0.127535846728 0.741 0.0
0.00137135319063 -0.127535846728 0.741 0.0
0.00274270638125 -0.127535846728 0.741 0.0
0.00411405957188 -0.127535846728 0.741 0.0
0.0054854127625 -0.127535846728 0.741 0.0
0.00685676595313 -0.127535846728 0.741 5.51012976948e-40
0.00822811914376 -0.127535846728 0.741 2.47956540276e-39
0.00959947233438 -0.127535846728 0.741 2.93874848874e-39
0.010970825525 -0.127535846728 0.741 2.93873587706e-39
0.0123421787156 -0.127535846728 0.741 2.75506488474e-39
0.0137135319063 -0.127535846728 0.741 1.19386145005e-39
0.0151052425667 -0.127707959882 0.742 5.51012976948e-40
0.0164784464364 -0.127707959882 0.742 1.37753244237e-39
0.017851650306 -0.127707959882 0.742 9.1835496158e-41
0.0192248541757 -0.127707959882 0.742 0.0
0.0205980580454 -0.127707959882 0.742 0.0
0.0219712619151 -0.127707959882 0.742 0.0
0.0233444657848 -0.127707959882 0.742 0.0
0.0247176696545 -0.127707959882 0.742 0.0
0.0260908735242 -0.127707959882 0.742 0.0
0.0274640773939 -0.127707959882 0.742 0.0
0.0288372812636 -0.127707959882 0.742 0.0
0.0302104851333 -0.127707959882 0.742 3.67341984632e-40
0.031583689003 -0.127707959882 0.742 1.83670992316e-40
0.033045725468 -0.128052186189 0.744 0.0
0.0343300967424 -0.127707959882 0.742 0.0
0.0357033006121 -0.127707959882 0.742 1.26116861789e-44
0.0370265361469 -0.127535846728 0.741 9.66505258372e-39
0.0383978893375 -0.127535846728 0.741 9.9456668051e-39
0.0397692425282 -0.127535846728 0.741 1.84279324005e-38
-0.0248842307708 -0.127186068384 0.747 1.31753402693e-38
-0.0235017735058 -0.127186068384 0.747 1.28098031571e-38
-0.0220897053756 -0.12701580591 0.746 1.38250312828e-38
-0.0207090987896 -0.12701580591 0.746 1.65303893084e-39
-0.0192766731897 -0.126675280961 0.744 3.67342965541e-39
-0.0178997679619 -0.126675280961 0.744 5.69418331628e-39
-0.0164784464364 -0.126334756012 0.742 4.13261694529e-39
-0.0151052425667 -0.126334756012 0.742 6.07954179526e-39
-0.013732038697 -0.126334756012 0.742 2.05570821028e-38
-0.0123421787156 -0.126164493538 0.741 1.92656412342e-38
-0.010970825525 -0.126164493538 0.741 1.9173781916e-38
-0.00959947233438 -0.126164493538 0.741 1.54833979504e-38
-0.00822811914376 -0.126164493538 0.741 5.79504597714e-39
-0.00685676595313 -0.126164493538 0.741 1.82168800362e-44
-0.0054854127625 -0.126164493538 0.741 0.0
-0.00411405957188 -0.126164493538 0.741 0.0
-0.00274270638125 -0.126164493538 0.741 0.0
-0.00137135319063 -0.126164493538 0.741 0.0
0.0 -0.126164493538 0.741 1.37753944886e-39
0.00137135319063 -0.126164493538 0.741 2.75506488474e-39
0.00274270638125 -0.126164493538 0.741 2.47956400146e-39
0.00411405957188 -0.126164493538 0.741 2.66323779637e-39
0.0054854127625 -0.126164493538 0.741 3.48976146569e-39
0.00685676595313 -0.126164493538 0.741 3.67342685281e-39
0.00822811914376 -0.126164493538 0.741 3.76526094767e-39
0.00959947233438 -0.126164493538 0.741 3.67342685281e-39
0.010970825525 -0.126164493538 0.741 3.85710905552e-39
0.0123421787156 -0.126164493538 0.741 3.94893754518e-39
0.0137135319063 -0.126164493538 0.741 3.67342685281e-39
0.0151052425667 -0.126334756012 0.742 3.58159836315e-39
0.0164784464364 -0.126334756012 0.742 4.04076183095e-39
0.017851650306 -0.126334756012 0.742 3.2142717928e-39
0.0192248541757 -0.126334756012 0.742 2.75506488474e-39
0.0205980580454 -0.126334756012 0.742 3.12240686937e-39
0.02194165105 -0.126164493538 0.741 3.12240686937e-39
0.0233130042406 -0.126164493538 0.741 3.12240686937e-39
0.0246843574313 -0.126164493538 0.741 6.61793187565e-39
0.0260908735242 -0.126334756012 0.742 6.89272089931e-39
0.0274640773939 -0.126334756012 0.742 6.34242118328e-39
0.0288372812636 -0.126334756012 0.742 7.44807650019e-39
0.0302104851333 -0.126334756012 0.742 3.85711746331e-39
0.031583689003 -0.126334756012 0.742 6.7047549272e-39
0.0329568928727 -0.126334756012 0.742 5.60196526564e-39
0.0343300967424 -0.126334756012 0.742 7.53160930295e-39
0.0356551829563 -0.126164493538 0.741 1.1507542863e-38
0.0370265361469 -0.126164493538 0.741 1.56646503016e-38
0.0383978893375 -0.126164493538 0.741 1.4558217264e-38
0.0397692425282 -0.126164493538 0.741 1.61284744881e-38
0.0411405957188 -0.126164493538 0.741 1.59379105086e-38
-0.0248842307708 -0.125803611119 0.747 1.28079674561e-38
-0.0235017735058 -0.125803611119 0.747 1.28101506791e-38
-0.0220897053756 -0.125635199324 0.746 1.38250284802e-38
-0.0207090987896 -0.125635199324 0.746 3.68423226527e-39
-0.0192248541757 -0.124961552142 0.742 2.02038091548e-39
-0.017851650306 -0.124961552142 0.742 5.32646858625e-39
-0.0164784464364 -0.124961552142 0.742 6.79872319962e-39
-0.0151052425667 -0.124961552142 0.742 4.40882688559e-39
-0.0137135319063 -0.124793140347 0.741 1.38228606715e-38
-0.0123421787156 -0.124793140347 0.741 2.75608783262e-40
-0.010970825525 -0.124793140347 0.741 0.0
-0.00959947233438 -0.124793140347 0.741 4.20389539297e-45
-0.00822811914376 -0.124793140347 0.741 0.0
-0.00685676595313 -0.124793140347 0.741 9.1835496158e-40
-0.0054854127625 -0.124793140347 0.741 2.93874288355e-39
-0.00411405957188 -0.124793140347 0.741 2.57139389242e-39
-0.00274270638125 -0.124793140347 0.741 2.75507329253e-39
-0.00137135319063 -0.124793140347 0.741 3.03057137321e-39
0.0 -0.124793140347 0.741 3.6734352606e-39
0.00137135319063 -0.124793140347 0.741 3.76527215806e-39
0.00274270638125 -0.124793140347 0.741 3.58159836315e-39
0.00411405957188 -0.124793140347 0.741 3.67344647099e-39
0.0054854127625 -0.124793140347 0.741 3.58158435016e-39
0.00685676595313 -0.124793140347 0.741 3.67341984632e-39
0.00822811914376 -0.124793140347 0.741 3.85709083864e-39
0.00959947233438 -0.124793140347 0.741 4.13259732711e-39
0.010970825525 -0.124793140347 0.741 5.8778487034e-39
0.0123421787156 -0.124793140347 0.741 6.70651495807e-39
0.013732038697 -0.124961552142 0.742 8.09515549336e-39
0.0151052425667 -0.124961552142 0.742 6.06186021124e-39
0.0164784464364 -0.124961552142 0.742 5.60197927862e-39
0.017851650306 -0.124961552142 0.742 5.60196526564e-39
0.0191989446688 -0.124793140347 0.741 9.93163980747e-39
0.0205702978594 -0.124793140347 0.741 1.07685232763e-38
0.02194165105 -0.124793140347 0.741 6.15835922869e-39
0.0233130042406 -0.124793140347 0.741 8.08907245673e-39
0.0246843574313 -0.124793140347 0.741 8.18275906816e-39
0.0260908735242 -0.124961552142 0.742 9.38312954958e-39
0.0274640773939 -0.124961552142 0.742 9.29775684194e-39
0.0288372812636 -0.124961552142 0.742 1.16069860086e-38
0.0302104851333 -0.124961552142 0.742 1.37306496274e-38
0.031583689003 -0.124961552142 0.742 1.65890028206e-38
0.0329568928727 -0.124961552142 0.742 1.76018067e-38
0.0343300967424 -0.124961552142 0.742 2.06442428673e-38
0.0356551829563 -0.124793140347 0.741 1.83670992316e-40
0.0370265361469 -0.124793140347 0.741 3.67341984632e-40
0.0383978893375 -0.124793140347 0.741 8.27965605437e-40
0.0397692425282 -0.124793140347 0.741 9.40225587232e-39
0.0411405957188 -0.124793140347 0.741 1.38198941227e-38
-0.0235017735058 -0.124421153854 0.747 1.22573328298e-38
-0.0220897053756 -0.124254592738 0.746 1.27193843737e-38
-0.0206535784175 -0.123921470505 0.744 9.48753749556e-39
-0.0192248541757 -0.123588348273 0.742 9.94872864224e-39
-0.017851650306 -0.123588348273 0.742 8.01096828422e-39
-0.0164784464364 -0.123588348273 0.742 4.50001077796e-39
-0.0151052425667 -0.123588348273 0.742 3.39791335785e-39
-0.0137135319063 -0.123421787156 0.741 8.26519465422e-40
-0.0123421787156 -0.123421787156 0.741 6.42848473106e-40
-0.0109412146599 -0.123088664924 0.739 3.03060220178e-39
-0.00957356282741 -0.123088664924 0.739 3.30607786169e-39
-0.00820591099492 -0.123088664924 0.739 3.30607786169e-39
-0.00683825916243 -0.123088664924 0.739 3.489748854e-39
-0.00547060732995 -0.123088664924 0.739 3.12240686937e-39
-0.00410295549746 -0.123088664924 0.739 4.31628233241e-39
-0.00274270638125 -0.123421787156 0.741 5.97074498249e-39
-0.00137135319063 -0.123421787156 0.741 6.24983599244e-39
0.0 -0.123421787156 0.741 4.132601531e-39
0.00137135319063 -0.123421787156 0.741 5.78998448709e-39
0.00274270638125 -0.123421787156 0.741 4.86728129637e-39
0.00411405957188 -0.123421787156 0.741 6.06365387328e-39
0.0054854127625 -0.123421787156 0.741 7.35586265345e-39
0.00685676595313 -0.123421787156 0.741 8.37249488023e-39
0.00822811914376 -0.123421787156 0.741 5.05095228869e-39
0.00959947233438 -0.123421787156 0.741 8.45033280603e-39
0.010970825525 -0.123421787156 0.741 7.44264646865e-39
0.0123421787156 -0.123421787156 0.741 7.62888183715e-39
0.013732038697 -0.123588348273 0.742 7.81330532674e-39
0.0151052425667 -0.123588348273 0.742 1.00346128238e-38
0.0164784464364 -0.123588348273 0.742 1.11456295087e-38
0.017851650306 -0.123588348273 0.742 1.36377659599e-38
0.0191989446688 -0.123421787156 0.741 1.55748705103e-38
0.0205702978594 -0.123421787156 0.741 1.67738438971e-38
0.02194165105 -0.123421787156 0.741 1.76950771258e-38
0.0233130042406 -0.123421787156 0.741 1.87081514557e-38
0.0246843574313 -0.123421787156 0.741 1.89854656192e-38
0.0260557106219 -0.123421787156 0.741 1.88950692566e-38
0.0274640773939 -0.123588348273 0.742 1.85270056033e-38
0.0288372812636 -0.123588348273 0.742 1.82511417837e-38
0.0302104851333 -0.123588348273 0.742 1.76054248526e-38
0.031583689003 -0.123588348273 0.742 1.68678570111e-38
0.032912476575 -0.123421787156 0.741 1.73302798991e-38
0.0342838297657 -0.123421787156 0.741 1.83455108275e-38
0.0356551829563 -0.123421787156 0.741 1.83670992316e-40
0.0370265361469 -0.123421787156 0.741 3.03525030879e-39
0.0383978893375 -0.123421787156 0.741 2.20405190779e-39
0.0398229122212 -0.123588348273 0.742 1.17024410587e-38
-0.0234703119616 -0.122873986152 0.746 1.17967246232e-38
-0.0220304836454 -0.122544565277 0.744 1.31789430077e-38
-0.0205980580454 -0.122215144403 0.742 1.56664019247e-38
-0.0192248541757 -0.122215144403 0.742 1.28677314343e-39
-0.017851650306 -0.122215144403 0.742 7.00649232162e-45
-0.0164562382875 -0.122050433966 0.741 3.21424236553e-39
-0.0150848850969 -0.122050433966 0.741 5.05095228869e-39
-0.0137135319063 -0.122050433966 0.741 6.61215572338e-39
-0.0123421787156 -0.122050433966 0.741 4.95911679253e-39
-0.0109412146599 -0.121721013091 0.739 7.62958248638e-39
-0.00957356282741 -0.121721013091 0.739 1.02188723615e-38
-0.00820591099492 -0.121721013091 0.739 6.07264880812e-39
-0.00683825916243 -0.121721013091 0.739 8.09446605452e-39
-0.00547060732995 -0.121721013091 0.739 4.49993931174e-39
-0.00410295549746 -0.121721013091 0.739 8.26959753399e-39
-0.00274270638125 -0.122050433966 0.741 6.15303009063e-39
-0.00137135319063 -0.122050433966 0.741 8.4625885624e-39
0.0 -0.122050433966 0.741 6.1595321155e-39
0.00137135319063 -0.122050433966 0.741 6.99181091761e-39
0.00274270638125 -0.122050433966 0.741 1.02233004646e-38
0.00411405957188 -0.122050433966 0.741 1.26200407204e-38
0.0054854127625 -0.122050433966 0.741 1.59411545146e-38
0.00685676595313 -0.122050433966 0.741 1.78744054941e-38
0.00822811914376 -0.122050433966 0.741 1.9076914357e-38
0.00959947233438 -0.122050433966 0.741 1.95379177297e-38
0.010970825525 -0.122050433966 0.741 1.92606077701e-38
0.0123588348273 -0.122215144403 0.742 1.90783618983e-38
