# .PCD v0.7 - Point Cloud Data file format
VERSION 0.7
FIELDS x y z rgb
SIZE 4 4 4 4
TYPE F F F F
COUNT 1 1 1 1
WIDTH 865
HEIGHT 1
VIEWPOINT 0 0 0 1 0 0 0
POINTS 865
DATA ascii
-0.0124217579156 -0.128875738375 0.839 4.5917748079e-39
-0.0108690381762 -0.128875738375 0.839 4.31626831943e-39
-0.00931631843672 -0.128875738375 0.839 4.40810381558e-39
-0.00778210548797 -0.1291829511 0.841 4.31626831943e-39
-0.00624048982293 -0.129490163826 0.843 4.40810381558e-39
-0.0046803673672 -0.129490163826 0.843 4.5917748079e-39
-0.00312764762774 -0.129797376551 0.845 5.05095228869e-39
-0.00156752517201 -0.130104589277 0.847 2.8469003809e-39
0.0 -0.130411802003 0.849 5.32645877716e-39
0.0015804799255 -0.131179833816 0.854 2.15528027526e-38
0.00316836256728 -0.131487046542 0.856 1.89724363461e-38
0.00476364792533 -0.131794259268 0.858 1.91535835999e-38
0.00636633599967 -0.132101471993 0.86 1.05610820582e-38
0.00795791999959 -0.132101471993 0.86 2.3461986431e-38
0.0095495039995 -0.132101471993 0.86 7.35078574911e-39
0.0111669975064 -0.132408684719 0.862 8.99987862348e-39
0.0127622828645 -0.132408684719 0.862 2.04432266026e-38
0.0143575682225 -0.132408684719 0.862 1.7497990102e-38
0.015989867162 -0.132715897444 0.864 1.85125175784e-38
0.0176499262875 -0.133176716533 0.867 1.72221318876e-38
0.0192988813385 -0.133483929258 0.869 1.75891319554e-38
0.0209552391059 -0.133791141984 0.871 1.80493940412e-38
0.0226708186035 -0.134405567435 0.875 1.80497443658e-38
0.0243734433476 -0.134866386523 0.878 1.8049388436e-38
0.0259983395707 -0.134866386523 0.878 1.79579116722e-38
0.0276861588823 -0.135173599249 0.88 1.82337754918e-38
0.0293147564636 -0.135173599249 0.88 1.79571956087e-38
0.0310136798495 -0.135480811974 0.882 1.85110826488e-38
0.032831046696 -0.136248843788 0.887 1.82355705551e-38
0.0345503275517 -0.136556056514 0.889 1.78653629151e-38
0.0362770111237 -0.136863269239 0.891 1.91553982814e-38
0.0379259661748 -0.136863269239 0.891 1.85107155086e-38
0.0395749212258 -0.136863269239 0.891 1.94315829983e-38
0.0414552111606 -0.137631301053 0.896 1.98940170968e-38
0.0433540078861 -0.138399332867 0.901 1.54736673339e-38
0.0450214697279 -0.138399332867 0.901 1.58474538902e-38
0.0469480266394 -0.139167364681 0.906 2.16515004073e-38
0.0486247418765 -0.139167364681 0.906 4.22802014734e-39
0.0504124978578 -0.139474577407 0.908 0.0
0.0520929144531 -0.139474577407 0.908 7.62809290612e-39
0.0537733310484 -0.139474577407 0.908 1.56120343469e-39
0.0555758924622 -0.139781790132 0.91 1.92436744795e-38
0.0575746258575 -0.140549821946 0.915 1.78693313924e-38
0.0595918660434 -0.14131785376 0.92 1.09284240428e-38
0.061494364127 -0.141778672848 0.923 1.9982646422e-38
0.0633394911595 -0.142085885574 0.925 6.61215572338e-39
0.0650513692989 -0.142085885574 0.925 4.31626831943e-39
0.0667632474384 -0.142085885574 0.925 1.81304045067e-38
-0.0659378445733 -0.131875689147 0.869 1.95179954694e-38
-0.0643296044618 -0.131875689147 0.869 3.94892633479e-39
-0.0627213643502 -0.131875689147 0.869 1.49208887209e-38
-0.0607614952154 -0.131116910728 0.864 1.08653319807e-38
-0.0590255582481 -0.130813399361 0.862 5.51736747605e-39
-0.057297023997 -0.130509887993 0.86 1.0315047679e-38
-0.0555758924622 -0.130206376626 0.858 8.93038402874e-39
-0.0539880098204 -0.130206376626 0.858 7.91865914919e-39
-0.0522779823601 -0.129902865258 0.856 9.94737919182e-39
-0.050575357616 -0.129599353891 0.854 6.53471856894e-39
-0.048822764537 -0.12914408684 0.851 8.93213565182e-39
-0.0472478366487 -0.12914408684 0.851 1.05034046134e-38
-0.0455655693744 -0.128840575472 0.849 1.15146726696e-38
-0.0438907048163 -0.128537064105 0.847 1.09600639608e-38
-0.0422232429745 -0.128233552738 0.845 1.22504524543e-38
-0.0406594191607 -0.128233552738 0.845 1.02231883608e-38
-0.0390030613933 -0.12793004137 0.843 4.96629144067e-39
-0.0374429389376 -0.12793004137 0.843 9.76187389982e-39
-0.0357976852446 -0.127626530003 0.841 8.56233999358e-39
-0.0342412641471 -0.127626530003 0.841 6.35137968436e-39
-0.0326071145285 -0.127323018635 0.839 8.47293995415e-39
-0.0309803676263 -0.127019507268 0.837 1.0411619564e-38
-0.0292906976357 -0.126412484533 0.833 1.14235462305e-38
-0.0277490819706 -0.126412484533 0.833 1.13252563536e-38
-0.0261445432172 -0.126108973166 0.831 1.5748866938e-38
-0.0246066289103 -0.126108973166 0.831 1.92854541932e-39
-0.0230687146034 -0.126108973166 0.831 1.65303893084e-39
-0.0215826193105 -0.126412484533 0.833 3.85709083864e-39
-0.0200891213013 -0.1267159959 0.835 4.22443282327e-39
-0.0185438042781 -0.1267159959 0.835 4.5917748079e-39
-0.0170392021945 -0.127019507268 0.837 4.49993931174e-39
-0.0154901838131 -0.127019507268 0.837 4.49993931174e-39
-0.0139744776551 -0.127323018635 0.839 4.5917748079e-39
-0.0124217579156 -0.127323018635 0.839 4.5917748079e-39
-0.0108949476832 -0.127626530003 0.841 4.49993931174e-39
-0.0093607347344 -0.12793004137 0.843 4.49993931174e-39
-0.00781911906936 -0.128233552738 0.845 4.49993931174e-39
-0.00625529525549 -0.128233552738 0.845 4.49993931174e-39
-0.00470257551603 -0.128537064105 0.847 5.14278778485e-39
-0.0031424530603 -0.128840575472 0.849 3.12240686937e-39
-0.00157492788829 -0.12914408684 0.851 7.90289033757e-39
0.0 -0.129599353891 0.854 2.13670452269e-38
0.00158418128364 -0.129902865258 0.856 1.96181742967e-38
0.00317576528356 -0.130206376626 0.858 8.44886564654e-39
0.00477475199975 -0.130509887993 0.86 1.46173072177e-38
0.00636633599967 -0.130509887993 0.86 1.06529175543e-38
0.00795791999959 -0.130509887993 0.86 2.2646290595e-38
0.00957171214834 -0.130813399361 0.862 1.0394271489e-38
0.0111669975064 -0.130813399361 0.862 1.01937400735e-38
0.0127622828645 -0.130813399361 0.862 2.04375877776e-38
0.0143908804458 -0.131116910728 0.864 1.77745966097e-38
0.016045387534 -0.131572177779 0.867 1.80511764928e-38
0.017690641227 -0.131875689147 0.869 1.80515324226e-38
0.0193432976362 -0.132179200514 0.871 1.75898508215e-38
0.0209552391059 -0.132179200514 0.871 1.90642816514e-38
0.0226708186035 -0.132786223249 0.875 1.87883757928e-38
0.0243734433476 -0.1332414903 0.878 1.87883912071e-38
0.026057561301 -0.133545001667 0.88 1.7865718845e-38
0.0276861588823 -0.133545001667 0.88 1.83259739243e-38
0.0293813809101 -0.133848513035 0.882 1.82337754918e-38
0.0311191685565 -0.134303780086 0.885 1.80504478176e-38
0.032831046696 -0.134607291453 0.887 1.86961955772e-38
0.0345503275517 -0.134910802821 0.889 1.77746022149e-38
0.0362770111237 -0.135214314188 0.891 1.77720784764e-38
0.0379259661748 -0.135214314188 0.891 2.01680886556e-38
0.0395749212258 -0.135214314188 0.891 2.00773573826e-38
0.0414552111606 -0.135973092607 0.896 3.76525674378e-39
0.0433540078861 -0.136731871025 0.901 0.0
0.0450214697279 -0.136731871025 0.901 0.0
0.0469480266394 -0.137490649444 0.906 2.34952770787e-38
0.0486247418765 -0.137490649444 0.906 3.39791335785e-39
0.0504124978578 -0.137794160811 0.908 5.80615967526e-39
0.0520929144531 -0.137794160811 0.908 1.88830110833e-38
0.0538917745088 -0.138097672179 0.91 7.53051068496e-39
0.0557591096901 -0.13855293923 0.913 2.05211920465e-38
0.0577633951226 -0.139311717649 0.918 1.74958601283e-38
0.0597861873457 -0.140070496067 0.923 1.57200744585e-38
0.061494364127 -0.140070496067 0.923 1.73143555434e-38
0.0633394911595 -0.140374007435 0.925 7.71418167727e-39
0.0652623467129 -0.140829274486 0.928 9.3718841294e-39
0.0669797768895 -0.140829274486 0.928 1.28716774908e-38
-0.066089600257 -0.130567259044 0.871 1.99782295293e-38
-0.0644776587873 -0.130567259044 0.871 4.5917748079e-39
-0.0627213643502 -0.130267449035 0.869 1.61183178768e-38
-0.0607614952154 -0.129517924012 0.864 1.12312810747e-38
-0.0590255582481 -0.129218114003 0.862 4.22981380937e-39
-0.05743027289 -0.129218114003 0.862 1.06824457156e-38
-0.0557054399971 -0.128918303993 0.86 6.25670796011e-39
-0.0539880098204 -0.128618493984 0.858 8.47365882026e-39
-0.0522779823601 -0.128318683975 0.856 7.4610287019e-39
-0.050575357616 -0.128018873965 0.854 7.45878101916e-39
-0.0489948776905 -0.128018873965 0.854 1.04973313858e-38
-0.0472478366487 -0.127569158951 0.851 5.34152834085e-39
-0.0456729087604 -0.127569158951 0.851 6.71623716681e-39
-0.0439943428442 -0.127269348942 0.849 1.12345629157e-38
-0.0423231796443 -0.126969538933 0.847 1.15135908672e-38
-0.0406594191607 -0.126669728924 0.845 1.11455594437e-38
-0.0390955953468 -0.126669728924 0.845 1.15135936698e-38
-0.0375317715329 -0.126669728924 0.845 1.15142901152e-38
-0.0358828164819 -0.126369918914 0.843 5.43194572296e-39
-0.0342412641471 -0.126070108905 0.841 1.25277049607e-38
-0.0326071145285 -0.125770298896 0.839 1.07760062101e-38
-0.0309803676263 -0.125470488886 0.837 5.06103603244e-39
-0.0292906976357 -0.124870868868 0.833 1.01316793671e-38
-0.0277490819706 -0.124870868868 0.833 1.13245332836e-38
-0.0261445432172 -0.124571058859 0.831 1.57491808289e-38
-0.0246066289103 -0.124571058859 0.831 1.92854541932e-39
-0.0230687146034 -0.124571058859 0.831 4.5917748079e-40
-0.0215826193105 -0.124870868868 0.833 5.87854935263e-39
-0.0200891213013 -0.125170678877 0.835 5.14278778485e-39
-0.0185438042781 -0.125170678877 0.835 5.05095228869e-39
-0.0170392021945 -0.125470488886 0.837 4.49993931174e-39
-0.0154901838131 -0.125470488886 0.837 4.49993931174e-39
-0.0139744776551 -0.125770298896 0.839 4.49993931174e-39
-0.0124513687807 -0.126070108905 0.841 4.95911679253e-39
-0.0109208571901 -0.126369918914 0.843 4.40810381558e-39
-0.0093607347344 -0.126369918914 0.843 4.49993931174e-39
-0.00781911906936 -0.126669728924 0.845 4.49993931174e-39
-0.00627010068805 -0.126969538933 0.847 4.77544580022e-39
-0.00470257551603 -0.126969538933 0.847 2.93873587706e-39
-0.0031424530603 -0.127269348942 0.849 8.54825974661e-39
-0.00157492788829 -0.127569158951 0.851 2.18262451284e-38
0.0 -0.128018873965 0.854 1.7407244816e-38
0.00158418128364 -0.128318683975 0.856 8.63253663885e-39
0.00317576528356 -0.128618493984 0.858 1.0469246562e-38
0.00477475199975 -0.128918303993 0.86 2.15483452222e-38
0.00636633599967 -0.128918303993 0.86 1.97049426976e-38
0.00795791999959 -0.128918303993 0.86 1.94308963621e-38
0.00957171214834 -0.129218114003 0.862 1.90650033201e-38
0.0111669975064 -0.129218114003 0.862 1.92461477713e-38
0.0127918937296 -0.129517924012 0.864 1.7864995775e-38
0.0144408487806 -0.129967639026 0.867 1.8510365184e-38
0.0160824011154 -0.130267449035 0.869 1.77738721384e-38
0.017690641227 -0.130267449035 0.869 1.77735162086e-38
0.0193432976362 -0.130567259044 0.871 1.80483080349e-38
0.0210033567617 -0.130867069054 0.873 1.81397904038e-38
0.0227485471244 -0.131616594077 0.878 1.80486639647e-38
0.0244289637197 -0.131916404086 0.88 1.7864995775e-38
0.026057561301 -0.131916404086 0.88 1.81412127217e-38
0.0277490819706 -0.132216214095 0.882 1.75891319554e-38
0.0294813175799 -0.132665929109 0.885 1.8050473041e-38
0.0311894943612 -0.132965739119 0.887 1.86951418008e-38
0.0329050738588 -0.133265549128 0.889 1.81416022827e-38
0.0346280560726 -0.133565359137 0.891 1.84196184967e-38
0.0362770111237 -0.133565359137 0.891 1.92490008149e-38
0.0379259661748 -0.133565359137 0.891 2.04475692265e-38
0.0397081701189 -0.134015074151 0.894 3.12240686937e-39
0.0415477451141 -0.13461469417 0.898 0.0
0.0433540078861 -0.135064409184 0.901 0.0
0.0450214697279 -0.135064409184 0.901 0.0
0.0469480266394 -0.135813934207 0.906 2.15459812317e-38
0.0487320812626 -0.136113744216 0.908 4.40810381558e-39
0.0504124978578 -0.136113744216 0.908 1.33518001797e-38
0.0522076565554 -0.136413554225 0.91 2.08199642934e-38
0.0540694396995 -0.136863269239 0.913 1.98950764784e-38
0.0560644717366 -0.137612794263 0.918 1.93394238022e-38
0.0578892412993 -0.137912604272 0.92 1.47292653598e-38
0.0597861873457 -0.138362319286 0.923 1.81207607707e-38
0.06162761302 -0.138662129295 0.925 1.41804145864e-38
0.0633394911595 -0.138662129295 0.925 6.61215572338e-39
0.0652623467129 -0.139111844309 0.928 1.23117200258e-38
0.0669797768895 -0.139111844309 0.928 1.47094636112e-38
-0.0682456413732 -0.129991697854 0.878 1.93274272861e-38
-0.0662413559407 -0.129251426226 0.873 2.10845967058e-38
-0.0646257131129 -0.129251426226 0.873 4.95911679253e-39
-0.0628657173177 -0.128955317575 0.871 1.57481116381e-38
-0.0607614952154 -0.127918937296 0.864 5.96930725027e-39
-0.0590255582481 -0.127622828645 0.862 1.24316669704e-38
-0.05743027289 -0.127622828645 0.862 1.00399307515e-38
-0.0557054399971 -0.127326719993 0.86 8.6558542453e-39
-0.0539880098204 -0.127030611342 0.858 7.27548417354e-39
-0.0524001271787 -0.127030611342 0.858 4.69586325783e-39
-0.0506938010764 -0.126734502691 0.856 9.1183093632e-39
-0.0489948776905 -0.12643839404 0.854 9.30096161153e-39
-0.047414397765 -0.12643839404 0.854 1.216398253e-38
-0.0456729087604 -0.125994231063 0.851 1.00402838787e-38
-0.0439943428442 -0.125698122412 0.849 1.00402586553e-38
-0.0424231163141 -0.125698122412 0.849 5.70563893122e-39
-0.0407556544723 -0.125402013761 0.847 8.92789532267e-39
-0.0390955953468 -0.12510590511 0.845 1.0227546399e-38
-0.0375317715329 -0.12510590511 0.845 1.07781712163e-38
-0.0358828164819 -0.124809796459 0.843 1.17891113687e-38
-0.0343226940261 -0.124809796459 0.843 1.11448111504e-38
-0.0326071145285 -0.124217579156 0.839 1.1512181161e-38
-0.0309803676263 -0.123921470505 0.837 1.16983324516e-38
-0.0293610234403 -0.123625361854 0.835 1.10522441764e-38
-0.0277490819706 -0.123329253203 0.833 1.12363033284e-38
-0.0262074663056 -0.123329253203 0.833 1.52892606599e-38
-0.0246658506406 -0.123329253203 0.833 1.92854541932e-39
-0.0231242349755 -0.123329253203 0.833 3.67341984632e-40
-0.0216344383245 -0.123625361854 0.835 1.28836824147e-38
-0.0200891213013 -0.123625361854 0.835 5.6938007618e-39
-0.0185882205758 -0.123921470505 0.837 4.40810381558e-39
-0.017079917134 -0.124217579156 0.839 4.40810381558e-39
-0.0155271973945 -0.124217579156 0.839 4.5917748079e-39
-0.0140077898783 -0.124513687807 0.841 4.5917748079e-39
-0.0124809796459 -0.124809796459 0.843 4.49993931174e-39
-0.0109467666971 -0.12510590511 0.845 4.49993931174e-39
-0.00938294288323 -0.12510590511 0.845 4.40810381558e-39
-0.00781911906936 -0.12510590511 0.845 4.40810381558e-39
-0.00627010068805 -0.125402013761 0.847 2.93873587706e-39
-0.00471367959045 -0.125698122412 0.849 7.99508596743e-39
-0.00314985577658 -0.125994231063 0.851 2.22875722011e-38
-0.00157492788829 -0.125994231063 0.851 1.72218067863e-38
0.0 -0.126734502691 0.856 8.63253663885e-39
0.00158788264178 -0.127030611342 0.858 1.39669155549e-38
0.00317576528356 -0.127030611342 0.858 2.15428044881e-38
0.00477475199975 -0.127326719993 0.86 1.83245193765e-38
0.00636633599967 -0.127326719993 0.86 1.90638920904e-38
0.00797642679028 -0.127622828645 0.862 1.74976369747e-38
0.00957171214834 -0.127622828645 0.862 1.84181695541e-38
0.0111929070134 -0.127918937296 0.864 1.8049388436e-38
0.0127918937296 -0.127918937296 0.864 1.78657412657e-38
0.0144408487806 -0.128363100272 0.867 1.79568452841e-38
0.0160824011154 -0.128659208924 0.869 1.78646426477e-38
0.0177313561665 -0.128955317575 0.871 1.89727894733e-38
0.0194321302315 -0.129547534877 0.875 1.79579144748e-38
0.0210514744175 -0.129547534877 0.875 1.82330692374e-38
0.0228003661383 -0.130287806505 0.88 1.82348572942e-38
0.0244289637197 -0.130287806505 0.88 1.82341636515e-38
0.026057561301 -0.130287806505 0.88 1.81426714734e-38
0.0277490819706 -0.130583915156 0.882 1.83281613512e-38
0.0294813175799 -0.131028078133 0.885 1.89716936579e-38
0.0311894943612 -0.131324186784 0.887 2.05379403658e-38
0.0329050738588 -0.131620295435 0.889 1.19670062087e-38
0.0346280560726 -0.131916404086 0.891 1.67690374434e-38
0.0362770111237 -0.131916404086 0.891 1.96228406205e-38
0.0380536630306 -0.132360567063 0.894 1.88838112247e-38
0.0397970027142 -0.132656675714 0.896 2.66322938858e-39
0.0415477451141 -0.132952784365 0.898 6.71371482958e-39
0.0433540078861 -0.133396947342 0.901 5.6938007618e-39
0.0451214063976 -0.133693055993 0.903 0.0
0.0469480266394 -0.13413721897 0.906 1.96102807824e-38
0.0487320812626 -0.134433327621 0.908 5.14278778485e-39
0.050523538602 -0.134729436272 0.91 1.46936793853e-39
0.0523797697089 -0.135173599249 0.913 4.31626831943e-39
0.0544839918111 -0.136209979528 0.92 1.88778178712e-38
0.0563698337831 -0.136654142505 0.923 2.00820012857e-38
0.0580780105644 -0.136654142505 0.923 1.15034987157e-38
0.0599157348806 -0.136950251156 0.925 2.04281724532e-38
0.06162761302 -0.136950251156 0.925 1.26127553697e-38
0.0635449165362 -0.137394414132 0.928 3.12240686937e-39
0.0652623467129 -0.137394414132 0.928 1.94169268177e-38
0.067124129857 -0.137690522784 0.93 1.00154500673e-38
0.0692153972057 -0.138430794411 0.935 1.69289410125e-38
-0.0682456413732 -0.128366801631 0.878 1.96976545443e-38
-0.0663931116244 -0.127928190691 0.875 2.04388741696e-38
-0.0647737674385 -0.127928190691 0.875 4.86728129637e-39
-0.0630100702851 -0.127635783398 0.873 1.5746308167e-38
-0.061253775848 -0.127343376105 0.871 5.96930725027e-39
-0.0591625084992 -0.126319950579 0.864 6.89666275189e-39
-0.057563521783 -0.126319950579 0.864 6.43530064679e-39
-0.055834987532 -0.126027543286 0.862 1.2525908496e-38
-0.0541138559972 -0.125735135993 0.86 1.15135936698e-38
-0.0524001271787 -0.1254427287 0.858 4.68755636053e-39
-0.0506938010764 -0.125150321407 0.856 1.04065034233e-38
-0.0489948776905 -0.124857914114 0.854 5.89042395582e-39
-0.047414397765 -0.124857914114 0.854 5.70420400159e-39
-0.0456729087604 -0.124419303175 0.851 1.07757371608e-38
-0.0439943428442 -0.124126895882 0.849 1.15164453122e-38
-0.0424231163141 -0.124126895882 0.849 1.18820286673e-38
-0.0407556544723 -0.123834488589 0.847 9.6718264605e-39
-0.0391881293003 -0.123834488589 0.847 3.77278872302e-39
-0.0375317715329 -0.123542081296 0.845 9.85725468109e-39
-0.0359679477191 -0.123542081296 0.845 1.07806781392e-38
-0.0343226940261 -0.123249674003 0.843 1.12398654291e-38
-0.0326848430495 -0.12295726671 0.841 1.07767517009e-38
-0.0310543947891 -0.122664859417 0.839 1.0960792636e-38
-0.029431349245 -0.122372452124 0.837 1.11444608257e-38
-0.0278157064172 -0.122080044831 0.835 1.05909339194e-38
-0.0262074663056 -0.121787637538 0.833 1.54733043976e-38
-0.0246658506406 -0.121787637538 0.833 1.92854541932e-39
-0.0231242349755 -0.121787637538 0.833 1.65303893084e-39
-0.0216344383245 -0.122080044831 0.835 6.42848473106e-39
-0.0200891213013 -0.122080044831 0.835 5.60196526564e-39
-0.0185882205758 -0.122372452124 0.837 4.49993931174e-39
-0.017079917134 -0.122664859417 0.839 4.49993931174e-39
-0.0155642109759 -0.12295726671 0.841 4.5917748079e-39
-0.0140077898783 -0.12295726671 0.841 4.5917748079e-39
-0.0124809796459 -0.123249674003 0.843 4.40810381558e-39
-0.0109467666971 -0.123542081296 0.845 4.40810381558e-39
-0.00938294288323 -0.123542081296 0.845 4.49993931174e-39
-0.00783762586006 -0.123834488589 0.847 3.30607786169e-39
-0.00627010068805 -0.123834488589 0.847 5.05095228869e-39
-0.00471367959045 -0.124126895882 0.849 2.17354718165e-38
-0.00314985577658 -0.124419303175 0.851 1.57481088355e-38
-0.0015804799255 -0.124857914114 0.854 7.98968816575e-39
0.0 -0.125150321407 0.856 1.8483063686e-38
0.00158788264178 -0.1254427287 0.858 2.08099183847e-38
0.00317576528356 -0.1254427287 0.858 1.86018321387e-38
0.00477475199975 -0.125735135993 0.86 1.85114343747e-38
0.00636633599967 -0.125735135993 0.86 1.7865718845e-38
0.00797642679028 -0.126027543286 0.862 1.79575417294e-38
0.00957171214834 -0.126027543286 0.862 1.79575487359e-38
0.0111929070134 -0.126319950579 0.864 1.78657160424e-38
0.0127918937296 -0.126319950579 0.864 1.82352202305e-38
0.0144408487806 -0.126758561519 0.867 1.768059891e-38
0.0161194146968 -0.127343376105 0.871 1.9063185836e-38
0.0177313561665 -0.127343376105 0.871 1.72210907228e-38
0.0194321302315 -0.127928190691 0.875 1.80508261682e-38
0.0210514744175 -0.127928190691 0.875 1.79582647994e-38
0.0227485471244 -0.128366801631 0.878 1.78657160424e-38
0.0244289637197 -0.128659208924 0.88 1.75902235669e-38
0.026057561301 -0.128659208924 0.88 1.84206848849e-38
0.0277490819706 -0.128951616217 0.882 1.99865840707e-38
0.0295479420264 -0.129682634449 0.887 1.84253596166e-38
0.0311894943612 -0.129682634449 0.887 9.48813585e-39
0.0329050738588 -0.129975041742 0.889 0.0
0.0346280560726 -0.130267449035 0.891 0.0
0.0363991559423 -0.130706059975 0.894 2.2757379932e-38
0.0380536630306 -0.130706059975 0.894 1.04933082579e-38
0.0398858353096 -0.131290874561 0.898 1.83670992316e-40
0.0415477451141 -0.131290874561 0.898 2.19179657181e-38
0.0433540078861 -0.1317294855 0.901 1.17808395038e-38
0.0450214697279 -0.1317294855 0.901 9.1835496158e-40
0.0469480266394 -0.132460503733 0.906 1.96145295193e-38
0.0487320812626 -0.132752911026 0.908 5.41829427332e-39
0.0506900997183 -0.133483929258 0.913 0.0
0.0526666249647 -0.134214947491 0.918 0.0
0.0544839918111 -0.134507354784 0.92 3.31652454174e-39
0.0563698337831 -0.134945965723 0.923 2.16514976047e-38
0.0582038567412 -0.135238373016 0.925 7.72350871985e-39
0.0599157348806 -0.135238373016 0.925 2.34637885009e-38
0.06162761302 -0.135238373016 0.925 1.15978831737e-38
0.0635449165362 -0.135676983956 0.928 5.05095228869e-39
0.0652623467129 -0.135676983956 0.928 1.52716057005e-38
0.0673406593081 -0.136408002188 0.933 1.14794370197e-38
0.0692153972057 -0.136700409481 0.935 1.9220586686e-38
-0.06662074515 -0.126741905407 0.878 2.06232486137e-38
-0.0647737674385 -0.126308846505 0.875 4.49993931174e-39
-0.0630100702851 -0.12602014057 0.873 1.55637399966e-38
-0.061253775848 -0.125731434635 0.871 1.17840008332e-38
-0.0595048841271 -0.1254427287 0.869 8.83564223957e-39
-0.0577633951226 -0.125154022766 0.867 6.89412500037e-39
-0.055834987532 -0.124432257928 0.862 5.41829847722e-39
-0.0541138559972 -0.124143551994 0.86 6.61506341769e-39
-0.0524001271787 -0.123854846059 0.858 1.31702185234e-38
-0.0508122445369 -0.123854846059 0.858 1.17005282863e-38
-0.0491096197928 -0.123566140124 0.856 6.2580868378e-39
-0.0475254385092 -0.123566140124 0.856 9.30054542588e-39
-0.0456729087604 -0.122844375287 0.851 7.45995670857e-39
-0.0440979808721 -0.122844375287 0.851 4.97095496196e-39
-0.0424231163141 -0.122555669352 0.849 1.08700193241e-38
-0.0408518897839 -0.122555669352 0.849 1.11465865955e-38
-0.0391881293003 -0.122266963417 0.847 1.18823930049e-38
-0.0375317715329 -0.121978257482 0.845 1.05926967528e-38
-0.0359679477191 -0.121978257482 0.845 6.99891970472e-39
-0.0343226940261 -0.121689551547 0.843 6.62832670765e-39
-0.0326848430495 -0.121400845612 0.841 1.01332123877e-38
-0.0310543947891 -0.121112139677 0.839 1.16997827955e-38
-0.029431349245 -0.120823433743 0.837 1.13288268621e-38
-0.0278157064172 -0.120534727808 0.835 1.09593506999e-38
-0.026270389394 -0.120534727808 0.835 1.54736701365e-38
-0.0247250723708 -0.120534727808 0.835 1.56120343469e-39
-0.0231797553476 -0.120534727808 0.835 1.56120343469e-39
-0.0216344383245 -0.120534727808 0.835 3.76525534248e-39
-0.0200891213013 -0.120534727808 0.835 4.49993931174e-39
-0.0185882205758 -0.120823433743 0.837 4.49993931174e-39
-0.017079917134 -0.121112139677 0.839 5.05095228869e-39
-0.0155642109759 -0.121400845612 0.841 4.5917748079e-39
-0.0140411021016 -0.121689551547 0.843 4.5917748079e-39
-0.012510590511 -0.121978257482 0.845 4.49993931174e-39
-0.0109726762041 -0.122266963417 0.847 4.5917748079e-39
-0.00940515103207 -0.122266963417 0.847 3.489748854e-39
-0.00783762586006 -0.122266963417 0.847 2.11221641163e-39
-0.0062849061206 -0.122555669352 0.849 2.15514140658e-38
-0.00472478366487 -0.122844375287 0.851 1.80526716783e-38
-0.00314985577658 -0.122844375287 0.851 8.17335915806e-39
-0.0015804799255 -0.123277434189 0.854 1.99589126299e-38
0.0 -0.123566140124 0.856 1.98904606013e-38
0.00158788264178 -0.123854846059 0.858 1.84178318412e-38
0.00317576528356 -0.123854846059 0.858 1.80515324226e-38
0.00477475199975 -0.124143551994 0.86 1.86965360928e-38
0.00638114143223 -0.124432257928 0.862 1.84206904901e-38
0.00797642679028 -0.124432257928 0.862 1.76842016484e-38
0.00959392029717 -0.124720963863 0.864 1.79600626654e-38
0.0112317712738 -0.125154022766 0.867 1.77738959605e-38
0.0128363100272 -0.125154022766 0.867 1.78667978448e-38
0.0144741610039 -0.1254427287 0.869 1.80497569775e-38
0.0161564282782 -0.12602014057 0.873 1.85110826488e-38
0.0178127860456 -0.126308846505 0.875 1.75898508215e-38
0.0194987546781 -0.126741905407 0.878 1.84188856176e-38
0.0211236509012 -0.126741905407 0.878 1.86029111385e-38
0.0227485471244 -0.126741905407 0.878 1.78667950422e-38
0.0244289637197 -0.127030611342 0.88 1.84206904901e-38
0.026057561301 -0.127030611342 0.88 1.93433628522e-38
0.0278434666032 -0.127752376179 0.885 6.15767259244e-39
0.0295479420264 -0.128041082114 0.887 0.0
0.0312598201658 -0.128329788049 0.889 0.0
0.0329791010215 -0.128618493984 0.891 0.0
0.034744648854 -0.129051552886 0.894 0.0
0.0363991559423 -0.129051552886 0.894 2.32095088815e-38
0.0381387942678 -0.129340258821 0.896 1.37753244237e-39
0.0398858353096 -0.129628964756 0.898 2.75506488474e-39
0.0415477451141 -0.129628964756 0.898 2.14570478246e-38
0.0433540078861 -0.130062023658 0.901 2.66322938858e-39
0.0450214697279 -0.130062023658 0.901 0.0
0.0469480266394 -0.130783788496 0.906 2.12776606017e-38
0.0487320812626 -0.13107249443 0.908 4.86728129637e-39
0.0506900997183 -0.131794259268 0.913 0.0
0.052781367067 -0.13280473004 0.92 0.0
0.0544839918111 -0.13280473004 0.92 3.95864714224e-39
0.0564919786017 -0.133526494877 0.925 2.19284404241e-38
0.0582038567412 -0.133526494877 0.925 6.33951909416e-39
0.0599157348806 -0.133526494877 0.925 2.34666653666e-38
0.0618274863596 -0.133959553779 0.928 4.86728129637e-39
0.0636818667874 -0.134248259714 0.93 9.00347715794e-39
0.0654029983222 -0.134248259714 0.93 1.49867637617e-38
0.0674850122756 -0.134970024551 0.935 1.23149247953e-38
0.0694374786941 -0.135403083453 0.938 1.99542042671e-38
0.0713251713451 -0.135691789388 0.94 1.88686071364e-38
0.0730648096706 -0.135691789388 0.94 1.99691981607e-38
-0.06662074515 -0.125117009184 0.878 2.04406496147e-38
-0.0649958489268 -0.125117009184 0.878 4.31626831943e-39
-0.0631544232525 -0.124689502319 0.875 1.58377849308e-38
-0.0613944274573 -0.124404497742 0.873 1.14173763134e-38
-0.0596418343783 -0.124119493166 0.871 1.15089077278e-38
-0.0577633951226 -0.123549484012 0.867 1.22478768677e-38
-0.0559645350669 -0.123121977147 0.864 9.02214385478e-39
-0.0542397021739 -0.12283697257 0.862 7.72458491707e-39
-0.0525222719973 -0.122551967994 0.86 2.20405190779e-39
-0.0508122445369 -0.122266963417 0.858 6.15837604427e-39
-0.0492243618951 -0.122266963417 0.858 1.28010352326e-38
-0.0475254385092 -0.12198195884 0.856 1.11444734374e-38
-0.0456729087604 -0.121269447398 0.851 8.65657171011e-39
-0.0440979808721 -0.121269447398 0.851 9.48310098462e-39
-0.0425230529838 -0.121269447398 0.851 6.35354469049e-39
-0.0408518897839 -0.120984442822 0.849 7.6457156356e-39
-0.0392806632538 -0.120984442822 0.849 8.56372868036e-39
-0.0376206041283 -0.120699438245 0.847 1.06856532878e-38
-0.0359679477191 -0.120414433668 0.845 1.12395123019e-38
-0.0343226940261 -0.120129429091 0.843 1.18841516344e-38
-0.0327625715704 -0.120129429091 0.843 5.06140177134e-39
-0.0311284219519 -0.119844424515 0.841 7.63708083447e-39
-0.0295016750496 -0.119559419938 0.839 7.35803046218e-39
-0.0278823308637 -0.119274415361 0.837 1.0591364118e-38
-0.026270389394 -0.118989410784 0.835 1.53836843543e-38
-0.0247250723708 -0.118989410784 0.835 2.29588740395e-39
-0.0231797553476 -0.118989410784 0.835 2.11221641163e-39
-0.0216862573384 -0.119274415361 0.837 3.85709083864e-39
-0.0201372389571 -0.119274415361 0.837 4.5917748079e-39
-0.0186326368734 -0.119559419938 0.839 4.40810381558e-39
-0.0171206320735 -0.119844424515 0.841 4.5917748079e-39
-0.0155642109759 -0.119844424515 0.841 4.31626831943e-39
-0.0140411021016 -0.120129429091 0.843 4.5917748079e-39
-0.012510590511 -0.120414433668 0.845 4.77544580022e-39
-0.0109726762041 -0.120699438245 0.847 4.13259732711e-39
-0.00940515103207 -0.120699438245 0.847 8.26519465422e-40
-0.00785613265075 -0.120984442822 0.849 2.0815586637e-38
-0.00629971155316 -0.121269447398 0.851 1.98954856575e-38
-0.00472478366487 -0.121269447398 0.851 8.17335915806e-39
-0.00314985577658 -0.121269447398 0.851 1.82082746624e-38
-0.0015804799255 -0.121696954263 0.854 1.99815870404e-38
0.0 -0.122266963417 0.858 1.85089148401e-38
0.00158788264178 -0.122266963417 0.858 1.9340492993e-38
0.00318316799983 -0.122551967994 0.86 1.95281240547e-38
0.00477475199975 -0.122551967994 0.86 1.57534982294e-38
0.00638114143223 -0.12283697257 0.862 3.03057137321e-39
0.00797642679028 -0.12283697257 0.862 1.2513034767e-38
0.00959392029717 -0.123121977147 0.864 1.88809427668e-38
0.0112576807808 -0.123834488589 0.869 1.77739141774e-38
0.0128659208924 -0.123834488589 0.869 1.80501129073e-38
0.0145074732272 -0.124119493166 0.871 1.80504632319e-38
0.0161934418596 -0.124689502319 0.875 1.80497443658e-38
0.0178127860456 -0.124689502319 0.875 1.80511792954e-38
0.0194987546781 -0.125117009184 0.878 1.98915143777e-38
0.0211236509012 -0.125117009184 0.878 1.75909676564e-38
0.0227485471244 -0.125117009184 0.878 1.13280953843e-38
0.0244289637197 -0.125402013761 0.88 1.84239891467e-38
0.026057561301 -0.125402013761 0.88 2.07266700456e-38
0.0278434666032 -0.126114525203 0.885 2.38772290011e-39
0.0295479420264 -0.126399529779 0.887 0.0
0.0313301459705 -0.126969538933 0.891 2.02038792197e-39
0.0329791010215 -0.126969538933 0.891 3.67341984632e-40
0.034744648854 -0.127397045798 0.894 0.0
0.0363991559423 -0.127397045798 0.894 2.16357175827e-38
0.0381387942678 -0.127682050375 0.896 1.13230731306e-38
0.0397970027142 -0.127682050375 0.896 1.97074608309e-38
0.0415477451141 -0.127967054951 0.898 1.54697465008e-38
0.0433540078861 -0.128394561817 0.901 1.19386145005e-39
0.0450214697279 -0.128394561817 0.901 0.0
0.0470516646673 -0.129392077835 0.908 2.22028384855e-38
0.0487320812626 -0.129392077835 0.908 8.64582234959e-39
0.0512453034392 -0.131529612161 0.923 8.63755889255e-39
0.0529534802205 -0.131529612161 0.923 1.19386145005e-39
0.0546616570018 -0.131529612161 0.923 5.61672794496e-39
0.0564919786017 -0.131814616737 0.925 2.18348154698e-38
0.0583926260063 -0.132242123602 0.928 6.70578488157e-39
0.0601100561829 -0.132242123602 0.928 2.34648801124e-38
0.0618274863596 -0.132242123602 0.928 3.39791335785e-39
0.0636818667874 -0.132527128179 0.93 1.4437977448e-38
0.0657546273454 -0.133239639621 0.935 1.65540656473e-38
0.0677015417267 -0.133667146486 0.938 1.01119490848e-38
0.0695855330196 -0.133952151063 0.94 2.11520440035e-38
0.0713251713451 -0.133952151063 0.94 1.89611839194e-38
0.0730648096706 -0.133952151063 0.94 2.03368988777e-38
-0.068401098415 -0.12377341618 0.88 1.90526606832e-38
-0.06662074515 -0.123492112961 0.878 1.97945767538e-38
-0.0649958489268 -0.123492112961 0.878 4.40810381558e-39
-0.0633709527037 -0.123492112961 0.878 1.59325014966e-38
-0.0615350790666 -0.123070158133 0.875 9.75468663999e-39
-0.0596418343783 -0.122507551696 0.871 1.08602648855e-38
-0.0578966440156 -0.122226248477 0.869 1.14171044615e-38
-0.0561588563692 -0.121944945259 0.867 1.07727467899e-38
-0.0542397021739 -0.121241687212 0.862 1.27023908272e-38
-0.0526444168159 -0.121241687212 0.862 1.11347512287e-38
-0.0509306879973 -0.120960383994 0.86 7.91112576864e-39
-0.0492243618951 -0.120679080775 0.858 7.53197223925e-39
-0.0476364792533 -0.120679080775 0.858 5.14278778485e-39
-0.0459412572255 -0.120397777557 0.856 1.2334684505e-38
-0.044253437914 -0.120116474338 0.854 1.20660864179e-38
-0.0425230529838 -0.11969451951 0.851 9.58138385501e-39
-0.0409481250955 -0.11969451951 0.851 5.52125047409e-39
-0.0392806632538 -0.119413216291 0.849 1.00381735232e-38
-0.0376206041283 -0.119131913073 0.847 5.24973628494e-39
-0.0359679477191 -0.118850609854 0.845 8.93494805784e-39
-0.0344041239052 -0.118850609854 0.845 1.07788998915e-38
-0.0327625715704 -0.118569306636 0.843 1.14243015304e-38
-0.0311284219519 -0.118288003417 0.841 1.22511362879e-38
-0.0295720008543 -0.118288003417 0.841 1.05908960843e-38
-0.0279489553102 -0.118006700199 0.839 5.88859245872e-39
-0.0263333124823 -0.11772539698 0.837 1.53839772257e-38
-0.0247250723708 -0.117444093761 0.835 1.28569694621e-39
-0.0231797553476 -0.117444093761 0.835 1.744874427e-39
-0.0216862573384 -0.11772539698 0.837 4.31626831943e-39
-0.0201372389571 -0.11772539698 0.837 4.77544580022e-39
-0.0186326368734 -0.118006700199 0.839 4.49993931174e-39
-0.0171206320735 -0.118288003417 0.841 4.5917748079e-39
-0.0156012245573 -0.118569306636 0.843 4.5917748079e-39
-0.0140744143248 -0.118850609854 0.845 4.49993931174e-39
-0.0125402013761 -0.119131913073 0.847 4.68361030406e-39
-0.0109726762041 -0.119131913073 0.847 3.30607786169e-39
-0.0094273591809 -0.119413216291 0.849 1.26977847592e-38
-0.00785613265075 -0.119413216291 0.849 2.10950616027e-38
-0.00629971155316 -0.11969451951 0.851 7.16316870032e-39
-0.00472478366487 -0.11969451951 0.851 1.23091962872e-38
-0.003160959851 -0.120116474338 0.854 2.11786826873e-38
-0.0015804799255 -0.120116474338 0.854 2.03539400683e-38
0.0 -0.120679080775 0.858 1.86072313416e-38
0.00158788264178 -0.120679080775 0.858 1.3170559039e-38
0.00318316799983 -0.120960383994 0.86 3.21424236553e-39
0.00477475199975 -0.120960383994 0.86 0.0
0.00638114143223 -0.121241687212 0.862 0.0
0.00797642679028 -0.121241687212 0.862 1.55558506862e-38
0.00959392029717 -0.121522990431 0.864 1.95245367307e-38
0.0112576807808 -0.122226248477 0.869 1.8143011989e-38
0.0128955317575 -0.122507551696 0.871 1.79571928061e-38
0.0145740976737 -0.123070158133 0.875 1.84185198787e-38
0.0161934418596 -0.123070158133 0.875 1.93419055018e-38
0.0178738584549 -0.123492112961 0.878 1.88823622821e-38
0.0195431709757 -0.12377341618 0.88 2.05393752954e-38
0.021171768557 -0.12377341618 0.88 2.57139389242e-39
0.0228003661383 -0.12377341618 0.88 0.0
0.0244289637197 -0.12377341618 0.88 1.31746242058e-38
0.026057561301 -0.12377341618 0.88 2.12812885635e-38
0.0278434666032 -0.124476674226 0.885 3.39791335785e-39
0.0295479420264 -0.124757977445 0.887 0.0
0.0313301459705 -0.125320583882 0.891 1.75951701505e-38
0.0329791010215 -0.125320583882 0.891 2.38772290011e-39
0.034744648854 -0.12574253871 0.894 0.0
0.0363991559423 -0.12574253871 0.894 2.20037616179e-38
0.0381387942678 -0.126023841928 0.896 2.21063829083e-38
0.0397970027142 -0.126023841928 0.896 3.94892633479e-39
0.0415477451141 -0.126305145147 0.898 9.1835496158e-41
0.0434502431977 -0.127008403193 0.903 0.0
0.0452713114023 -0.127430358021 0.906 6.62583800158e-39
0.0470516646673 -0.12771166124 0.908 2.1003960387e-38
0.0487320812626 -0.12771166124 0.908 2.0265338769e-38
0.0513563441834 -0.130102738598 0.925 2.1830872216e-38
0.0530682223228 -0.130102738598 0.925 3.94892633479e-39
0.0547801004623 -0.130102738598 0.925 1.26167574781e-38
0.0566751958296 -0.130524693426 0.928 2.14638693456e-38
0.0583926260063 -0.130524693426 0.928 5.96930725027e-39
0.0602396037178 -0.130805996644 0.93 2.34576578201e-38
0.0619607352526 -0.130805996644 0.93 3.21424236553e-39
0.0638872921641 -0.131227951472 0.933 2.07022608276e-38
0.0657546273454 -0.131509254691 0.935 1.41602442963e-38
0.0677015417267 -0.131931209519 0.938 7.53051068496e-39
0.0695855330196 -0.132212512737 0.94 2.19857745508e-38
0.0713251713451 -0.132212512737 0.94 1.89619125946e-38
-0.068401098415 -0.122144818598 0.88 1.93285427197e-38
-0.06662074515 -0.121867216738 0.878 2.0992396872e-38
-0.0649958489268 -0.121867216738 0.878 4.40810381558e-39
-0.0633709527037 -0.121867216738 0.878 1.53768306035e-38
-0.0615350790666 -0.121450813947 0.875 1.01227278726e-38
-0.0596418343783 -0.120895610226 0.871 1.22460790018e-38
-0.0578966440156 -0.120618008366 0.869 8.28246846039e-39
-0.0561588563692 -0.120340406505 0.867 1.17829932996e-38
-0.0543655483507 -0.119924003715 0.864 1.19659524323e-38
-0.0526444168159 -0.119646401854 0.862 1.26148671264e-38
-0.0510491314578 -0.119646401854 0.862 1.16918332293e-38
-0.0493391039974 -0.119368799994 0.86 1.1969862055e-38
-0.0476364792533 -0.119091198133 0.858 4.96198665179e-39
-0.0459412572255 -0.118813596273 0.856 3.30607786169e-39
-0.0443570759419 -0.118813596273 0.856 8.82960824838e-39
-0.0425230529838 -0.118119591622 0.851 9.20333034492e-39
-0.0409481250955 -0.118119591622 0.851 1.30780509195e-38
-0.0392806632538 -0.117841989761 0.849 1.09618842475e-38
-0.0376206041283 -0.117564387901 0.847 6.9945644691e-39
-0.0360530789563 -0.117564387901 0.847 9.39131453391e-39
-0.0344041239052 -0.11728678604 0.845 5.06468361234e-39
-0.0327625715704 -0.11700918418 0.843 6.72018742718e-39
-0.0311284219519 -0.11673158232 0.841 9.7586971562e-39
-0.0295720008543 -0.11673158232 0.841 1.17919560046e-38
-0.0279489553102 -0.116453980459 0.839 1.22522124852e-38
-0.0263333124823 -0.116176378599 0.837 1.53829612843e-38
-0.024784294101 -0.116176378599 0.837 2.20405190779e-39
-0.0232352757197 -0.116176378599 0.837 2.11221641163e-39
-0.0217380763524 -0.116453980459 0.839 4.49993931174e-39
-0.0202334742687 -0.11673158232 0.841 4.5917748079e-39
-0.0186770531711 -0.11673158232 0.841 4.49993931174e-39
-0.0171613470131 -0.11700918418 0.843 4.77544580022e-39
-0.0156012245573 -0.11700918418 0.843 4.68361030406e-39
-0.0140744143248 -0.11728678604 0.845 4.5917748079e-39
-0.0125402013761 -0.117564387901 0.847 3.85709083864e-39
-0.0109985857111 -0.117841989761 0.849 1.83670992316e-39
-0.0094273591809 -0.117841989761 0.849 2.22896671423e-38
-0.00787463944145 -0.118119591622 0.851 1.3535057789e-38
-0.006321919702 -0.118535994412 0.854 7.89785266959e-39
-0.0047414397765 -0.118535994412 0.854 2.34781784348e-38
-0.003160959851 -0.118535994412 0.854 1.71328453533e-38
-0.00158418128364 -0.118813596273 0.856 6.43925931495e-39
0.0 -0.119091198133 0.858 1.46936793853e-39
0.00159158399992 -0.119368799994 0.86 0.0
0.00318316799983 -0.119368799994 0.86 0.0
0.00478585607417 -0.119646401854 0.862 9.1835496158e-40
0.00638114143223 -0.119646401854 0.862 0.0
0.00797642679028 -0.119646401854 0.862 1.97867687188e-38
0.00959392029717 -0.119924003715 0.864 1.86032838839e-38
0.0112576807808 -0.120618008366 0.869 1.79568186594e-38
0.0128955317575 -0.120895610226 0.871 1.7772081279e-38
0.0145740976737 -0.121450813947 0.875 1.88787917736e-38
0.0161934418596 -0.121450813947 0.875 1.55648133912e-38
0.0178738584549 -0.121867216738 0.878 3.94893894648e-39
0.0195431709757 -0.122144818598 0.88 7.62522444816e-39
0.021171768557 -0.122144818598 0.88 1.92854541932e-39
0.0228003661383 -0.122144818598 0.88 0.0
0.0244289637197 -0.122144818598 0.88 2.66790832415e-39
0.0261167830312 -0.122422420459 0.882 2.00870081252e-38
0.0278434666032 -0.122838823249 0.885 3.58158435016e-39
0.0295479420264 -0.12311642511 0.887 1.19386285135e-39
0.0313301459705 -0.123671628831 0.891 2.34942611373e-38
0.0329791010215 -0.123671628831 0.891 2.66322938858e-39
0.034744648854 -0.124088031621 0.894 0.0
0.0363991559423 -0.124088031621 0.894 2.32977360341e-38
0.0381387942678 -0.124365633482 0.896 2.8469003809e-39
0.0398858353096 -0.124643235342 0.898 0.0
0.0416865460443 -0.125059638133 0.901 1.25158737977e-38
0.0435945961652 -0.125753642784 0.906 2.66322938858e-39
0.0452713114023 -0.125753642784 0.906 1.61079412617e-38
0.0470516646673 -0.126031244645 0.908 5.87751519436e-39
0.0487320812626 -0.126031244645 0.908 1.6563158673e-38
0.0513563441834 -0.128390860458 0.925 1.69510254763e-38
0.0530682223228 -0.128390860458 0.925 1.56120343469e-39
0.0547801004623 -0.128390860458 0.925 1.79529356614e-38
0.0566751958296 -0.128807263249 0.928 2.04475664239e-38
0.0583926260063 -0.128807263249 0.928 6.15333697499e-39
0.0602396037178 -0.12908486511 0.93 2.34623535712e-38
0.0619607352526 -0.12908486511 0.93 4.22443282327e-39
0.0638872921641 -0.1295012679 0.933 1.49900147741e-38
0.0659656047594 -0.130195272551 0.938 1.39593597536e-38
0.0678458946941 -0.130472874412 0.94 6.06114274643e-39
0.0695855330196 -0.130472874412 0.94 2.20837084979e-38
0.0713251713451 -0.130472874412 0.94 1.89612231558e-38
-0.0682456413732 -0.120242320515 0.878 1.86835054184e-38
-0.06662074515 -0.120242320515 0.878 2.07147253774e-38
-0.0649958489268 -0.120242320515 0.878 3.85709083864e-39
-0.0633709527037 -0.120242320515 0.878 1.5377602719e-38
-0.0615350790666 -0.119831469761 0.875 1.01223523246e-38
-0.0596418343783 -0.119283668757 0.871 1.21517954372e-38
-0.0578966440156 -0.119009768254 0.869 8.28205507734e-39
-0.056288403904 -0.119009768254 0.869 1.41807452928e-38
-0.0545543176158 -0.118735867752 0.867 9.57244357081e-39
-0.0527665616345 -0.118325016998 0.864 1.10478861382e-38
-0.0510491314578 -0.118051116496 0.862 1.14203218427e-38
-0.0493391039974 -0.117777215994 0.86 9.57923146057e-39
-0.0476364792533 -0.117503315492 0.858 1.28921742834e-38
-0.0460485966116 -0.117503315492 0.858 1.10493911327e-38
-0.0443570759419 -0.117229414989 0.856 5.42475145665e-39
-0.0427728946582 -0.117229414989 0.856 1.02120928795e-38
-0.0409481250955 -0.116544663733 0.851 6.62185270875e-39
-0.0392806632538 -0.116270763231 0.849 6.52713614295e-39
-0.0377094367236 -0.116270763231 0.849 1.29865587415e-38
-0.0360530789563 -0.115996862729 0.847 1.18834776099e-38
-0.0344041239052 -0.115722962227 0.845 7.27114715479e-39
-0.0327625715704 -0.115449061724 0.843 1.20620604875e-38
-0.0312024491147 -0.115449061724 0.843 8.2867466246e-39
-0.0295720008543 -0.115175161222 0.841 6.52860049984e-39
-0.0280155797567 -0.115175161222 0.841 6.99495403007e-39
-0.0263962355707 -0.11490126072 0.839 1.56602109881e-38
-0.0248435158313 -0.11490126072 0.839 3.03057137321e-39
-0.0232907960918 -0.11490126072 0.839 2.02038091548e-39
-0.0217898953663 -0.115175161222 0.841 4.31626831943e-39
-0.0202334742687 -0.115175161222 0.841 4.49993931174e-39
-0.0187214694688 -0.115449061724 0.843 4.31626831943e-39
-0.0171613470131 -0.115449061724 0.843 4.49993931174e-39
-0.0156012245573 -0.115449061724 0.843 4.5917748079e-39
-0.0140744143248 -0.115722962227 0.845 4.49993931174e-39
-0.0125402013761 -0.115996862729 0.847 3.30607786169e-39
-0.0109985857111 -0.116270763231 0.849 1.58299152386e-38
-0.00944956732974 -0.116544663733 0.851 2.06319787031e-38
-0.0079023996275 -0.116955514487 0.854 8.35703015038e-39
-0.006321919702 -0.116955514487 0.854 2.27287668187e-38
-0.0047414397765 -0.116955514487 0.854 2.03553735967e-38
-0.00316836256728 -0.117229414989 0.856 1.56120343469e-39
-0.00158788264178 -0.117503315492 0.858 0.0
0.0 -0.117777215994 0.86 1.83670992316e-40
0.00159158399992 -0.117777215994 0.86 6.42848473106e-40
0.00319057071611 -0.118051116496 0.862 2.75506488474e-40
0.00478585607417 -0.118051116496 0.862 0.0
0.00639594686478 -0.118325016998 0.864 0.0
0.00799493358098 -0.118325016998 0.864 2.10836606384e-38
0.00962723252043 -0.118735867752 0.867 1.87919939455e-38
0.0112835902878 -0.119283668757 0.871 1.56634535927e-38
0.0129251426226 -0.119557569259 0.873 1.934626354e-38
0.0145740976737 -0.119831469761 0.875 2.09078271084e-38
0.0161934418596 -0.119831469761 0.875 1.46936793853e-39
0.0178738584549 -0.120242320515 0.878 0.0
0.0195431709757 -0.120516221017 0.88 0.0
0.021171768557 -0.120516221017 0.88 0.0
0.0228003661383 -0.120516221017 0.88 0.0
0.0244289637197 -0.120516221017 0.88 0.0
0.0261167830312 -0.120790121519 0.882 1.63999620526e-38
0.0279063896916 -0.121474872775 0.887 1.19386145005e-39
0.0296145664729 -0.121748773277 0.889 1.32574395437e-38
0.0314356346774 -0.122433524533 0.894 2.31212032562e-38
0.0329791010215 -0.12202267378 0.891 2.57139389242e-39
0.0346280560726 -0.12202267378 0.891 0.0
0.0363991559423 -0.122433524533 0.894 1.97081867035e-38
0.0380536630306 -0.122433524533 0.894 2.93873587706e-39
0.0397970027142 -0.122707425035 0.896 1.16026041483e-38
0.0416865460443 -0.123392176291 0.901 2.03538798125e-38
0.0436908314768 -0.124350828049 0.908 4.40810381558e-39
0.0453712480721 -0.124350828049 0.908 2.08902450166e-38
0.0470516646673 -0.124350828049 0.908 4.86728129637e-39
0.0495371266579 -0.126405081817 0.923 1.37754645535e-39
0.0512453034392 -0.126405081817 0.923 1.83670992316e-39
0.0529534802205 -0.126405081817 0.923 0.0
0.054957765653 -0.127089833072 0.928 2.01692026879e-38
0.0569805578761 -0.127774584328 0.933 2.03542903929e-38
0.0587072414481 -0.127774584328 0.933 6.61215572338e-39
0.060563472555 -0.128048484831 0.935 2.347062964e-38
0.0622938574851 -0.128048484831 0.935 7.80601717343e-39
0.0640242424153 -0.128048484831 0.935 2.09705043861e-38
0.0661062563686 -0.128733236086 0.94 1.01087204931e-38
0.0678458946941 -0.128733236086 0.94 4.77544580022e-39
0.0695855330196 -0.128733236086 0.94 2.10803213442e-38
-0.0682456413732 -0.118617424291 0.878 1.84069185288e-38
-0.06662074515 -0.118617424291 0.878 2.11753461957e-38
-0.0649958489268 -0.118617424291 0.878 3.67341984632e-39
-0.0633709527037 -0.118617424291 0.878 1.67576532947e-38
-0.0615350790666 -0.118212125575 0.875 1.0309610641e-38
-0.0597787846294 -0.117941926431 0.873 1.11416035782e-38
-0.0580298929086 -0.117671727287 0.871 9.94050161896e-39
-0.056288403904 -0.117401528143 0.869 1.27946481142e-38
-0.0545543176158 -0.117131328999 0.867 1.1597137683e-38
-0.0529497788624 -0.117131328999 0.867 1.23364991865e-38
-0.0511675749183 -0.116726030282 0.864 7.17721952003e-39
-0.0494538460997 -0.116455831138 0.862 9.0235899948e-39
-0.0477475199975 -0.116185631994 0.86 1.11455594437e-38
-0.0460485966116 -0.11591543285 0.858 8.1045231736e-39
-0.0444607139698 -0.11591543285 0.858 1.21535134291e-38
-0.0427728946582 -0.115645233706 0.856 1.21560595884e-38
-0.0411887133746 -0.115645233706 0.856 8.0955828894e-39
-0.0393731972073 -0.114969735845 0.851 4.86728129637e-39
-0.0377094367236 -0.114699536701 0.849 6.70722821899e-39
-0.0361382101935 -0.114699536701 0.849 6.89304319795e-39
-0.0344855537843 -0.114429337557 0.847 1.29782420351e-38
-0.0328403000913 -0.114159138413 0.845 1.37201553032e-38
-0.0312024491147 -0.113888939268 0.843 1.24359030957e-38
-0.0296423266589 -0.113888939268 0.843 1.25252470832e-38
-0.0280155797567 -0.113618740124 0.841 1.02228744699e-38
-0.0264591586591 -0.113618740124 0.841 1.5106709305e-38
-0.0248435158313 -0.11334854098 0.839 3.12240686937e-39
-0.0232907960918 -0.11334854098 0.839 2.75506488474e-39
-0.0217898953663 -0.113618740124 0.841 5.05096910427e-39
-0.0202815919245 -0.113888939268 0.843 4.49993931174e-39
-0.0187214694688 -0.113888939268 0.843 4.49993931174e-39
-0.0171613470131 -0.113888939268 0.843 4.40810381558e-39
-0.0156012245573 -0.113888939268 0.843 4.40810381558e-39
-0.0140744143248 -0.114159138413 0.845 5.14278778485e-39
-0.0125402013761 -0.114429337557 0.847 1.65303893084e-39
-0.0109985857111 -0.114699536701 0.849 2.29321975206e-38
-0.00944956732974 -0.114969735845 0.851 1.29790127493e-38
-0.0079023996275 -0.115375034561 0.854 8.63253663885e-39
-0.00633672513455 -0.115645233706 0.856 2.13637802015e-38
-0.00475254385092 -0.115645233706 0.856 2.05415585184e-38
-0.00316836256728 -0.115645233706 0.856 2.20405190779e-39
-0.00158788264178 -0.11591543285 0.858 1.83670992316e-40
0.0 -0.116185631994 0.86 8.26519465422e-40
0.00159528535806 -0.116455831138 0.862 4.5917748079e-40
0.00319797343239 -0.116726030282 0.864 0.0
0.00479696014859 -0.116726030282 0.864 5.05095228869e-39
0.00643296044618 -0.117401528143 0.869 1.53621590086e-38
0.00804120055772 -0.117401528143 0.869 1.55655000275e-38
0.0096716488181 -0.117671727287 0.871 2.20405190779e-39
0.0112835902878 -0.117671727287 0.871 0.0
0.0129547534877 -0.118212125575 0.875 1.64850124616e-38
0.0145740976737 -0.118212125575 0.875 2.24797967192e-38
0.0161934418596 -0.118212125575 0.875 1.46936793853e-39
0.0178738584549 -0.118617424291 0.878 0.0
0.0194987546781 -0.118617424291 0.878 6.06798108293e-39
0.021171768557 -0.118887623436 0.88 1.50980703e-38
0.0228003661383 -0.118887623436 0.88 4.13259732711e-39
0.0244289637197 -0.118887623436 0.88 1.10382381983e-39
0.0261167830312 -0.11915782258 0.882 1.08714654641e-38
0.0279693127799 -0.120103519584 0.889 6.42848473106e-40
0.0296145664729 -0.120103519584 0.889 1.96045873067e-38
0.0315059604821 -0.121049216589 0.896 2.21989302641e-38
0.0329791010215 -0.120373718729 0.891 1.83670992316e-39
0.0346280560726 -0.120373718729 0.891 4.5917748079e-40
0.0363991559423 -0.120779017445 0.894 9.11718412053e-39
0.0380536630306 -0.120779017445 0.894 6.42848473106e-40
0.0397970027142 -0.121049216589 0.896 2.17351060776e-38
0.0414552111606 -0.121049216589 0.896 1.38112018683e-38
0.0441720080349 -0.124021407175 0.918 1.28569694621e-39
0.0458709314209 -0.124021407175 0.918 2.25572436827e-38
