# .PCD v0.7 - Point Cloud Data file format
VERSION 0.7
FIELDS x y z rgb
SIZE 4 4 4 4
TYPE F F F F
COUNT 1 1 1 1
WIDTH 845
HEIGHT 1
VIEWPOINT 0 0 0 1 0 0 0
POINTS 845
DATA ascii
0.0060776300648 -0.10787793365 0.821 1.03774110659e-38
0.0075785307903 -0.107615137222 0.819 9.36793807293e-39
0.00909423694836 -0.107615137222 0.819 1.07476229097e-38
0.0106099431064 -0.107615137222 0.819 1.00100746864e-38
0.0121256492645 -0.107615137222 0.819 1.08376647439e-38
0.0136413554225 -0.107615137222 0.819 1.09284240428e-38
0.0150830344178 -0.107089544367 0.815 1.21258742182e-38
0.0165913378596 -0.107089544367 0.815 1.14837418086e-38
0.0180996413014 -0.107089544367 0.815 1.03842578101e-38
0.0195598270874 -0.106826747939 0.813 1.12129030453e-38
0.021064429171 -0.106826747939 0.813 1.1490198992e-38
0.0225690312546 -0.106826747939 0.813 8.63289537126e-39
0.0240736333383 -0.106826747939 0.813 1.52666815377e-38
0.0255782354219 -0.106826747939 0.813 1.29660241138e-38
0.0270828375056 -0.106826747939 0.813 1.91456382376e-38
0.0285874395892 -0.106826747939 0.813 1.25861559222e-38
0.0300920416729 -0.106826747939 0.813 1.99722487874e-38
0.0315966437565 -0.106826747939 0.813 1.14830481659e-38
0.0331012458401 -0.106826747939 0.813 1.39765915208e-38
0.0346058479238 -0.106826747939 0.813 1.34259484867e-38
0.0361992826028 -0.107089544367 0.815 1.30582421644e-38
0.0377075860445 -0.107089544367 0.815 1.2965306649e-38
0.0392158894863 -0.107089544367 0.815 1.30575008776e-38
0.0407241929281 -0.107089544367 0.815 1.31486259154e-38
0.0422324963699 -0.107089544367 0.815 1.3517052505e-38
0.0437407998117 -0.107089544367 0.815 1.30542722859e-38
0.0452491032535 -0.107089544367 0.815 1.16695848136e-38
0.0467574066952 -0.107089544367 0.815 1.24914211395e-38
0.0485025970579 -0.107615137222 0.819 2.14527009968e-38
0.050018303216 -0.107615137222 0.819 9.83429020186e-39
0.0515340093741 -0.107615137222 0.819 1.32278987708e-38
0.0530497155321 -0.107615137222 0.819 9.09171411964e-39
-0.0153421294876 -0.107394906413 0.829 9.09817130296e-39
-0.0138079165388 -0.107394906413 0.829 1.43615618401e-38
-0.0122440927249 -0.107135811343 0.827 1.8136875703e-38
-0.0107135811343 -0.107135811343 0.827 1.73075228121e-38
-0.00916086139487 -0.106876716274 0.825 4.31626831943e-39
-0.0076155443717 -0.106617621204 0.823 7.53158688218e-39
-0.0060776300648 -0.106358526134 0.821 8.81620763117e-39
-0.0045582225486 -0.106358526134 0.821 8.44886564654e-39
-0.00303141231612 -0.106099431064 0.819 9.73456259275e-39
-0.00151570615806 -0.106099431064 0.819 9.64272709659e-39
0.0 -0.106099431064 0.819 9.36722060812e-39
0.00151570615806 -0.106099431064 0.819 9.45905610427e-39
0.00303141231612 -0.106099431064 0.819 9.27538511196e-39
0.00453601439976 -0.105840335994 0.817 9.45905610427e-39
0.00604801919968 -0.105840335994 0.817 1.01937400735e-38
0.0075785307903 -0.106099431064 0.819 9.1835496158e-39
0.00909423694836 -0.106099431064 0.819 9.45905610427e-39
0.0105581240925 -0.105581240925 0.815 1.00100690812e-38
0.0120664275343 -0.105581240925 0.815 1.06529175543e-38
0.013574730976 -0.105581240925 0.815 1.07447530505e-38
0.0150460208364 -0.105322145855 0.813 1.13883189884e-38
0.0165506229201 -0.105322145855 0.813 1.1022053201e-38
0.0180552250037 -0.105322145855 0.813 1.03792047279e-38
0.0195598270874 -0.105322145855 0.813 1.13022302172e-38
0.021064429171 -0.105322145855 0.813 1.14876878651e-38
0.0225690312546 -0.105322145855 0.813 1.17603244943e-38
0.0240736333383 -0.105322145855 0.813 1.16713854821e-38
0.0255153123336 -0.105063050785 0.811 1.24117825452e-38
0.0270162130591 -0.105063050785 0.811 2.10760179566e-38
0.0285874395892 -0.105322145855 0.813 1.02023496513e-38
0.0300180145101 -0.105063050785 0.811 2.19061541734e-38
0.0315189152356 -0.105063050785 0.811 1.0018678659e-38
0.0331012458401 -0.105322145855 0.813 1.41581031122e-38
0.0346058479238 -0.105322145855 0.813 1.33333899205e-38
0.0361992826028 -0.105581240925 0.815 1.32429921566e-38
0.0377075860445 -0.105581240925 0.815 1.33333899205e-38
0.0392158894863 -0.105581240925 0.815 1.27802161413e-38
0.0407241929281 -0.105581240925 0.815 1.16649016741e-38
0.0422324963699 -0.105581240925 0.815 1.65425946181e-38
0.0437407998117 -0.105581240925 0.815 1.12039305313e-38
0.0451380625093 -0.105322145855 0.813 2.31789423581e-38
0.0466426645929 -0.105322145855 0.813 8.63254364534e-39
0.048265710137 -0.105581240925 0.815 2.34823234757e-38
0.0497740135788 -0.105581240925 0.815 8.72760072667e-39
0.0515340093741 -0.106099431064 0.819 1.28584071943e-38
0.0530497155321 -0.106099431064 0.819 9.55089160043e-39
-0.015379143069 -0.106116087176 0.831 2.2009837648e-38
-0.0138079165388 -0.105860693464 0.829 2.13662212634e-38
-0.0122440927249 -0.105605299753 0.827 2.11814950933e-38
-0.0106876716274 -0.105349906041 0.825 1.48156820348e-38
-0.00913865324604 -0.105094512329 0.823 8.47110705576e-39
-0.007597037581 -0.104839118618 0.821 5.78563625795e-39
-0.0060776300648 -0.104839118618 0.821 9.09171411964e-39
-0.0045582225486 -0.104839118618 0.821 9.36722060812e-39
-0.00303141231612 -0.104583724906 0.819 1.00100690812e-38
-0.00151570615806 -0.104583724906 0.819 1.01937428761e-38
0.0 -0.104583724906 0.819 9.1835496158e-39
0.00151570615806 -0.104583724906 0.819 9.36722060812e-39
0.00302400959984 -0.104328331195 0.817 9.643085829e-39
0.00453601439976 -0.104328331195 0.817 8.54070114269e-39
0.00604801919968 -0.104328331195 0.817 1.20322436587e-38
0.00756002399961 -0.104328331195 0.817 8.81620763117e-39
0.00907202879953 -0.104328331195 0.817 2.07144058814e-38
0.0105581240925 -0.104072937483 0.815 7.71848646615e-39
0.0120664275343 -0.104072937483 0.815 1.05610960712e-38
0.013574730976 -0.104072937483 0.815 1.11135299647e-38
0.0150460208364 -0.103817543771 0.813 1.093094638e-38
0.0165506229201 -0.103817543771 0.813 1.11142474296e-38
0.0180552250037 -0.103817543771 0.813 1.05650281146e-38
0.0195598270874 -0.103817543771 0.813 1.07501340366e-38
0.021064429171 -0.103817543771 0.813 1.13958523689e-38
0.0225135108825 -0.10356215006 0.811 1.06543594904e-38
0.0240144116081 -0.10356215006 0.811 1.46366437352e-38
0.0255153123336 -0.10356215006 0.811 1.16828438996e-38
0.0270162130591 -0.10356215006 0.811 1.99617292399e-38
0.0285171137846 -0.10356215006 0.811 1.61028461405e-38
0.0300180145101 -0.10356215006 0.811 1.96718566395e-38
0.0315189152356 -0.10356215006 0.811 1.56429301754e-38
0.0331012458401 -0.103817543771 0.813 1.42427527498e-38
0.0346058479238 -0.103817543771 0.813 1.39769600623e-38
0.0361104500074 -0.103817543771 0.813 1.25958248816e-38
0.0376150520911 -0.103817543771 0.813 1.40681131261e-38
0.0391196541747 -0.103817543771 0.813 1.07515745714e-38
0.0406242562583 -0.103817543771 0.813 2.05236106877e-38
0.042128858342 -0.103817543771 0.813 2.34893215602e-38
0.0436334604256 -0.103817543771 0.813 8.17335915806e-39
0.0451380625093 -0.103817543771 0.813 2.34576858461e-38
0.0466426645929 -0.103817543771 0.813 1.77666834773e-38
0.0481472666766 -0.103817543771 0.813 2.24498972139e-38
0.0497740135788 -0.104072937483 0.815 1.55550225188e-38
0.0512823170206 -0.104072937483 0.815 1.18467790044e-38
0.0527906204624 -0.104072937483 0.815 1.05611044789e-38
-0.015379143069 -0.104578172869 0.831 2.00733370573e-38
-0.0137746043156 -0.104074788162 0.827 2.06236367734e-38
-0.0122440927249 -0.104074788162 0.827 2.3023635048e-38
-0.0106876716274 -0.103823095809 0.825 1.70334204247e-38
-0.00913865324604 -0.103571403455 0.823 1.2525908496e-38
-0.007597037581 -0.103319711102 0.821 3.5816390008e-39
-0.00606282463224 -0.103068018748 0.819 8.90876059214e-39
-0.00454711847418 -0.103068018748 0.819 9.1835496158e-39
-0.00303141231612 -0.103068018748 0.819 9.36722060812e-39
-0.00151570615806 -0.103068018748 0.819 9.643085829e-39
0.0 -0.102816326395 0.817 9.27538511196e-39
0.00151200479992 -0.102816326395 0.817 9.82639808891e-39
0.00302400959984 -0.102816326395 0.817 9.82639808891e-39
0.00453601439976 -0.102816326395 0.817 9.45905610427e-39
0.00603321376713 -0.102564634041 0.815 2.13647793273e-38
0.00754151720891 -0.102564634041 0.815 6.88768183003e-39
0.00904982065069 -0.102564634041 0.815 2.34751740509e-38
0.0105581240925 -0.102564634041 0.815 7.25500419648e-39
0.0120368166691 -0.102312941688 0.813 9.27538511196e-39
0.0135414187528 -0.102312941688 0.813 1.01937400735e-38
0.0150460208364 -0.102312941688 0.813 1.08373060115e-38
0.0165506229201 -0.102312941688 0.813 1.12046479961e-38
0.0180552250037 -0.102312941688 0.813 1.06565048784e-38
0.0195598270874 -0.102312941688 0.813 1.07483403746e-38
0.021064429171 -0.102312941688 0.813 1.11160452955e-38
0.0225135108825 -0.102061249334 0.811 1.00100690812e-38
0.0240144116081 -0.102061249334 0.811 1.33229768716e-38
0.0255153123336 -0.102061249334 0.811 1.28789137961e-38
0.0270162130591 -0.102061249334 0.811 1.42431114823e-38
0.0285171137846 -0.102061249334 0.811 2.12535596694e-38
0.0300180145101 -0.102061249334 0.811 1.23059845111e-38
0.0315189152356 -0.102061249334 0.811 2.03484974251e-38
0.0331012458401 -0.102312941688 0.813 1.30521297005e-38
0.0346058479238 -0.102312941688 0.813 1.35156456014e-38
0.0361104500074 -0.102312941688 0.813 1.33319409779e-38
0.0376150520911 -0.102312941688 0.813 1.3604567798e-38
0.0391196541747 -0.102312941688 0.813 2.12718620287e-38
0.0406242562583 -0.102312941688 0.813 8.72437213501e-39
0.042128858342 -0.102312941688 0.813 2.34868132359e-38
0.0436334604256 -0.102312941688 0.813 9.83034414538e-39
0.0451380625093 -0.102312941688 0.813 1.45179215254e-38
0.0466426645929 -0.102312941688 0.813 2.34877731254e-38
0.0481472666766 -0.102312941688 0.813 9.36722901591e-39
0.0496518687602 -0.102312941688 0.813 2.34918074637e-38
0.0511564708438 -0.102312941688 0.813 8.72437213501e-39
0.0527906204624 -0.102564634041 0.815 1.35041241254e-38
0.0542989239041 -0.102564634041 0.815 9.73456259275e-39
-0.015379143069 -0.103040258562 0.831 2.10903924763e-38
-0.0137746043156 -0.102544276571 0.827 2.20058677695e-38
-0.0122440927249 -0.102544276571 0.827 2.20102061895e-38
-0.0106617621204 -0.102048294581 0.823 2.04446152894e-38
-0.0091164450972 -0.101800303585 0.821 1.39974624602e-38
-0.0075785307903 -0.10155231259 0.819 4.785501518e-39
-0.00606282463224 -0.10155231259 0.819 6.42848473106e-39
-0.00454711847418 -0.10155231259 0.819 8.99987862348e-39
-0.00302400959984 -0.101304321595 0.817 9.36722060812e-39
-0.00151200479992 -0.101304321595 0.817 9.36722060812e-39
0.0 -0.101056330599 0.815 9.55089160043e-39
0.00150830344178 -0.101056330599 0.815 8.99989263647e-39
0.00301660688356 -0.101056330599 0.815 9.27538511196e-39
0.00452491032535 -0.101056330599 0.815 7.62234618111e-39
0.00603321376713 -0.101056330599 0.815 2.14540756706e-38
0.00752301041821 -0.100808339604 0.813 6.06114274643e-39
0.00902761250186 -0.100808339604 0.813 2.19943518987e-38
0.0105322145855 -0.100808339604 0.813 1.38009051272e-38
0.0120368166691 -0.100808339604 0.813 8.90804312733e-39
0.0135414187528 -0.100808339604 0.813 1.13901126504e-38
0.0150460208364 -0.100808339604 0.813 1.09302177048e-38
0.0165506229201 -0.100808339604 0.813 1.0745483127e-38
0.0180552250037 -0.100808339604 0.813 1.07472641773e-38
0.0195598270874 -0.100808339604 0.813 1.08398171383e-38
0.021064429171 -0.100808339604 0.813 1.07498019289e-38
0.0225135108825 -0.100560348609 0.811 9.36722060812e-39
0.0240144116081 -0.100560348609 0.811 1.68257059533e-38
0.0255153123336 -0.100560348609 0.811 1.18564647794e-38
0.0270162130591 -0.100560348609 0.811 1.07465551203e-38
0.0285171137846 -0.100560348609 0.811 2.30999904e-38
0.0300180145101 -0.100560348609 0.811 1.01966099328e-38
0.0315189152356 -0.100560348609 0.811 1.92224588207e-38
0.0331012458401 -0.100808339604 0.813 1.0934523895e-38
0.0346058479238 -0.100808339604 0.813 1.3880484867e-38
0.0361104500074 -0.100808339604 0.813 1.31471839793e-38
0.0376150520911 -0.100808339604 0.813 1.25911529525e-38
0.0391196541747 -0.100808339604 0.813 2.2463583696e-38
0.0406242562583 -0.100808339604 0.813 9.64776056067e-39
0.042128858342 -0.100808339604 0.813 1.92065793065e-38
0.0436334604256 -0.100808339604 0.813 1.31450315848e-38
0.0450270217651 -0.100560348609 0.811 1.37753244237e-38
0.0465279224906 -0.100560348609 0.811 1.50653387705e-38
0.0481472666766 -0.100808339604 0.813 2.19108176947e-38
0.0496518687602 -0.100808339604 0.813 2.34863423996e-38
0.0511564708438 -0.100808339604 0.813 9.01243425772e-39
0.0526610729275 -0.100808339604 0.813 1.39604317469e-38
0.0541656750111 -0.100808339604 0.813 9.73456259275e-39
0.0555333268436 -0.100560348609 0.811 1.45251326073e-38
-0.0106358526134 -0.100280896069 0.821 2.03524602972e-38
-0.0091164450972 -0.100280896069 0.821 1.60232509864e-38
-0.0075785307903 -0.100036606432 0.819 9.48711009953e-39
-0.00604801919968 -0.0997923167948 0.817 5.32648960573e-39
-0.00453601439976 -0.0997923167948 0.817 9.45905610427e-39
-0.00302400959984 -0.0997923167948 0.817 9.36722060812e-39
-0.00150830344178 -0.0995480271576 0.815 9.1835496158e-39
0.0 -0.0995480271576 0.815 8.90804312733e-39
0.00150830344178 -0.0995480271576 0.815 8.99987862348e-39
0.00301660688356 -0.0995480271576 0.815 9.27538511196e-39
0.00452491032535 -0.0995480271576 0.815 7.89785266959e-39
0.00601840833457 -0.0993037375204 0.813 2.00518285272e-38
0.00752301041821 -0.0993037375204 0.813 1.13144215139e-38
0.00902761250186 -0.0993037375204 0.813 1.56224754217e-38
0.0105322145855 -0.0993037375204 0.813 1.50005245126e-38
0.012007205804 -0.0990594478832 0.811 9.09171411964e-39
0.0135081065295 -0.0990594478832 0.811 1.05610820582e-38
0.015009007255 -0.0990594478832 0.811 1.1020259539e-38
0.0165099079805 -0.0990594478832 0.811 1.04703227592e-38
0.018010808706 -0.0990594478832 0.811 1.08390996735e-38
0.0195117094315 -0.0990594478832 0.811 1.0836947279e-38
0.021012610157 -0.0990594478832 0.811 1.06529175543e-38
0.0225135108825 -0.0990594478832 0.811 1.11128124999e-38
0.0240144116081 -0.0990594478832 0.811 9.91823358506e-39
0.0255153123336 -0.0990594478832 0.811 1.12975596895e-38
0.0270162130591 -0.0990594478832 0.811 1.07447530505e-38
0.0285171137846 -0.0990594478832 0.811 1.46990799896e-38
0.0299439873473 -0.098815158246 0.809 1.83069695145e-38
0.0314411867146 -0.098815158246 0.809 1.79291219953e-38
0.0330198159611 -0.0990594478832 0.811 1.77648940192e-38
0.0345207166866 -0.0990594478832 0.811 1.36903048433e-38
0.0361104500074 -0.0993037375204 0.813 1.4437564065e-38
0.0375225181376 -0.0990594478832 0.811 1.10274341871e-38
0.0390234188631 -0.0990594478832 0.811 2.22691731522e-38
0.0405243195886 -0.0990594478832 0.811 1.71219824876e-38
0.0420252203141 -0.0990594478832 0.811 2.10497730377e-38
0.0435261210396 -0.0990594478832 0.811 2.34813411654e-38
0.0450270217651 -0.0990594478832 0.811 1.28569694621e-38
0.0465279224906 -0.0990594478832 0.811 1.7186559926e-38
0.0480288232161 -0.0990594478832 0.811 2.3203341767e-38
0.0495297239416 -0.0990594478832 0.811 1.55209163155e-38
0.0510306246671 -0.0990594478832 0.811 2.32033025306e-38
0.0525315253926 -0.0990594478832 0.811 1.27652054322e-38
0.0540324261181 -0.0990594478832 0.811 1.23124136685e-38
0.0555333268436 -0.0990594478832 0.811 9.45905610427e-39
-0.0106099431064 -0.0985209002739 0.819 2.00766118919e-38
-0.00909423694836 -0.0985209002739 0.819 1.56533740529e-38
-0.00756002399961 -0.0982803119949 0.817 1.63048797479e-38
-0.00604801919968 -0.0982803119949 0.817 3.94892633479e-39
-0.00453601439976 -0.0982803119949 0.817 8.72437213501e-39
-0.00301660688356 -0.0980397237158 0.815 9.27538511196e-39
-0.00150830344178 -0.0980397237158 0.815 9.36722060812e-39
0.0 -0.0980397237158 0.815 9.1835496158e-39
0.00150830344178 -0.0980397237158 0.815 9.27574384436e-39
0.00300920416729 -0.0977991354368 0.813 9.55125033284e-39
0.00451380625093 -0.0977991354368 0.813 8.44886564654e-39
0.00601840833457 -0.0977991354368 0.813 8.81620763117e-39
0.00752301041821 -0.0977991354368 0.813 2.08098455172e-38
0.00902761250186 -0.0977991354368 0.813 9.64272709659e-39
0.0105063050785 -0.0975585471577 0.811 1.83152105508e-38
0.012007205804 -0.0975585471577 0.811 6.9841612293e-39
0.0135081065295 -0.0975585471577 0.811 9.82639808891e-39
0.015009007255 -0.0975585471577 0.811 1.10227706658e-38
0.0165099079805 -0.0975585471577 0.811 1.04696052944e-38
0.018010808706 -0.0975585471577 0.811 1.06529175543e-38
0.0195117094315 -0.0975585471577 0.811 1.08373060115e-38
0.021012610157 -0.0975585471577 0.811 1.1020259539e-38
0.0225135108825 -0.0975585471577 0.811 1.1848213934e-38
0.0240144116081 -0.0975585471577 0.811 1.01019045774e-38
0.0255153123336 -0.0975585471577 0.811 1.41584996797e-38
0.0270162130591 -0.0975585471577 0.811 1.25021831117e-38
0.0284467879799 -0.0973179588787 0.809 1.17596070295e-38
0.0299439873473 -0.0973179588787 0.809 2.32873131762e-38
0.0314411867146 -0.0973179588787 0.809 8.72437213501e-39
0.0330198159611 -0.0975585471577 0.811 2.22791756207e-38
0.0345207166866 -0.0975585471577 0.811 1.21326957391e-38
0.0360216174121 -0.0975585471577 0.811 1.36960445618e-38
0.0375225181376 -0.0975585471577 0.811 1.3513465181e-38
0.0390234188631 -0.0975585471577 0.811 1.24989559214e-38
0.0405243195886 -0.0975585471577 0.811 1.88550860075e-38
0.0420252203141 -0.0975585471577 0.811 1.19386145005e-38
0.0434187816536 -0.0973179588787 0.809 2.34838172598e-38
0.0449159810209 -0.0973179588787 0.809 9.27538511196e-39
0.0464131803883 -0.0973179588787 0.809 1.02855755697e-38
0.0479103797556 -0.0973179588787 0.809 2.34834066794e-38
0.0495297239416 -0.0975585471577 0.811 1.7939205739e-38
0.0510306246671 -0.0975585471577 0.811 2.34745588809e-38
0.0525315253926 -0.0975585471577 0.811 1.01937400735e-38
0.0540324261181 -0.0975585471577 0.811 1.49788842604e-38
0.0555333268436 -0.0975585471577 0.811 9.64272709659e-39
0.0570342275691 -0.0975585471577 0.811 2.34670745458e-38
-0.0121256492645 -0.0970051941159 0.819 1.98878738043e-38
-0.0106099431064 -0.0970051941159 0.819 2.12736949271e-38
-0.00909423694836 -0.0970051941159 0.819 1.53753830622e-38
-0.00756002399961 -0.096768307195 0.817 1.98979729623e-38
-0.00603321376713 -0.096531420274 0.815 4.5917762092e-39
-0.00452491032535 -0.096531420274 0.815 6.61215572338e-39
-0.00301660688356 -0.096531420274 0.815 9.45905610427e-39
-0.00150460208364 -0.0962945333531 0.813 9.45905610427e-39
0.0 -0.0962945333531 0.813 8.44886564654e-39
0.00150460208364 -0.0962945333531 0.813 8.81620763117e-39
0.00300920416729 -0.0962945333531 0.813 9.09171411964e-39
0.00451380625093 -0.0962945333531 0.813 8.99987862348e-39
0.00601840833457 -0.0962945333531 0.813 7.80601717343e-39
0.00752301041821 -0.0962945333531 0.813 1.68342804986e-38
0.00902761250186 -0.0962945333531 0.813 7.25500419648e-39
0.0105063050785 -0.0960576464322 0.811 2.0886626864e-38
0.012007205804 -0.0960576464322 0.811 9.93513184324e-39
0.0135081065295 -0.0960576464322 0.811 9.73456259275e-39
0.015009007255 -0.0960576464322 0.811 1.04696052944e-38
0.0165099079805 -0.0960576464322 0.811 1.05610820582e-38
0.018010808706 -0.0960576464322 0.811 1.08373060115e-38
0.0195117094315 -0.0960576464322 0.811 1.08380290815e-38
0.021012610157 -0.0960576464322 0.811 1.04703227592e-38
0.0224579905105 -0.0958207595113 0.809 1.10206182714e-38
0.0239551898778 -0.0958207595113 0.809 1.06532762867e-38
0.0254523892452 -0.0958207595113 0.809 1.2129474154e-38
0.0269495886125 -0.0958207595113 0.809 1.14884053299e-38
0.0284467879799 -0.0958207595113 0.809 1.13018644783e-38
0.0299439873473 -0.0958207595113 0.809 2.11661074349e-38
0.0314411867146 -0.0958207595113 0.809 1.19573078221e-38
0.032938386082 -0.0958207595113 0.809 2.03308971164e-38
0.0344355854494 -0.0958207595113 0.809 1.32462263534e-38
0.0359327848167 -0.0958207595113 0.809 1.47977173885e-38
0.0374299841841 -0.0958207595113 0.809 1.45272611797e-38
0.0389271835515 -0.0958207595113 0.809 9.64524382863e-39
0.0404243829188 -0.0958207595113 0.809 2.34677457677e-38
0.0419215822862 -0.0958207595113 0.809 1.52731233068e-38
0.0434187816536 -0.0958207595113 0.809 2.34680414417e-38
0.0449159810209 -0.0958207595113 0.809 1.69286467398e-38
0.0464131803883 -0.0958207595113 0.809 1.19386145005e-38
0.0479103797556 -0.0958207595113 0.809 2.34745070328e-38
0.049407579123 -0.0958207595113 0.809 1.72989566746e-38
0.0510306246671 -0.0960576464322 0.811 2.3004840833e-38
0.0525315253926 -0.0960576464322 0.811 1.26029869181e-38
0.0540324261181 -0.0960576464322 0.811 1.40562118983e-38
0.0555333268436 -0.0960576464322 0.811 1.14797957522e-38
0.0570342275691 -0.0960576464322 0.811 9.64272709659e-39
0.0585351282946 -0.0960576464322 0.811 2.35065519261e-38
-0.0121256492645 -0.0954894879578 0.819 2.06240081175e-38
-0.0106099431064 -0.0954894879578 0.819 2.17328934273e-38
-0.00907202879953 -0.095256302395 0.817 1.64806362065e-38
-0.00756002399961 -0.095256302395 0.817 1.98957631146e-38
-0.00603321376713 -0.0950231168323 0.815 8.46330182331e-39
-0.00452491032535 -0.0950231168323 0.815 5.32646298106e-39
-0.00301660688356 -0.0950231168323 0.815 9.45905610427e-39
-0.00150460208364 -0.0947899312695 0.813 8.99987862348e-39
0.0 -0.0947899312695 0.813 8.72437213501e-39
0.00150460208364 -0.0947899312695 0.813 9.1835496158e-39
0.00300920416729 -0.0947899312695 0.813 9.09171411964e-39
0.00451380625093 -0.0947899312695 0.813 9.1835496158e-39
0.00601840833457 -0.0947899312695 0.813 7.89785266959e-39
0.00752301041821 -0.0947899312695 0.813 1.82169192726e-38
0.00902761250186 -0.0947899312695 0.813 1.10422080768e-38
0.0105063050785 -0.0945567457067 0.811 1.06529175543e-38
0.012007205804 -0.0945567457067 0.811 1.88716339411e-38
0.0135081065295 -0.0945567457067 0.811 9.82639808891e-39
0.015009007255 -0.0945567457067 0.811 1.07447530505e-38
0.016469193041 -0.0943235601439 0.809 1.07472641773e-38
0.0179663924084 -0.0943235601439 0.809 1.01940988059e-38
0.0194635917757 -0.0943235601439 0.809 1.0836947279e-38
0.0209607911431 -0.0943235601439 0.809 1.08394584059e-38
0.0224024701384 -0.0940903745811 0.807 1.09320113669e-38
0.0238959681476 -0.0940903745811 0.807 1.04717576889e-38
0.0253894661568 -0.0940903745811 0.807 1.12997134852e-38
0.0269495886125 -0.0943235601439 0.809 1.23170869989e-38
0.0283764621753 -0.0940903745811 0.807 1.10263579899e-38
0.0298699601845 -0.0940903745811 0.807 1.43360526029e-38
0.0313634581937 -0.0940903745811 0.807 1.88701401569e-38
0.0328569562029 -0.0940903745811 0.807 1.4144101338e-38
0.0344355854494 -0.0943235601439 0.809 1.80421745515e-38
0.0358439522214 -0.0940903745811 0.807 1.24960846608e-38
0.0373374502306 -0.0940903745811 0.807 1.32386733547e-38
0.0388309482398 -0.0940903745811 0.807 1.17657054804e-38
0.0403244462491 -0.0940903745811 0.807 1.99578014003e-38
0.0418179442583 -0.0940903745811 0.807 2.2557287123e-38
0.0433114422675 -0.0940903745811 0.807 1.34079824391e-38
0.0448049402767 -0.0940903745811 0.807 2.34853012349e-38
0.046298438286 -0.0940903745811 0.807 9.82641210189e-39
0.0477919362952 -0.0940903745811 0.807 1.46990799896e-38
0.049407579123 -0.0943235601439 0.809 2.34810721161e-38
0.0509047784904 -0.0943235601439 0.809 1.0469246562e-38
0.0524019778577 -0.0943235601439 0.809 2.12607245085e-38
0.0538991772251 -0.0943235601439 0.809 1.25987465889e-38
0.0553963765925 -0.0943235601439 0.809 1.44231951505e-38
0.0568935759598 -0.0943235601439 0.809 1.06529175543e-38
-0.0122737035901 -0.095121202823 0.829 2.09917102358e-38
-0.0106099431064 -0.0939737817998 0.819 2.0256338229e-38
-0.00907202879953 -0.0937442975951 0.817 1.76795325219e-38
-0.00756002399961 -0.0937442975951 0.817 1.87883239448e-38
-0.00603321376713 -0.0935148133905 0.815 1.36265527696e-38
-0.00452491032535 -0.0935148133905 0.815 4.22443282327e-39
-0.00301660688356 -0.0935148133905 0.815 8.17335915806e-39
-0.00150460208364 -0.0932853291858 0.813 9.36722060812e-39
0.0 -0.0932853291858 0.813 8.99987862348e-39
0.00150460208364 -0.0932853291858 0.813 9.64272709659e-39
0.00300920416729 -0.0932853291858 0.813 9.1835496158e-39
0.00451380625093 -0.0932853291858 0.813 9.27538511196e-39
0.00601840833457 -0.0932853291858 0.813 9.09171411964e-39
0.00752301041821 -0.0932853291858 0.813 8.35703015038e-39
0.00900540435302 -0.0930558449812 0.811 1.35184720204e-38
0.0105063050785 -0.0930558449812 0.811 1.01019045774e-38
0.012007205804 -0.0930558449812 0.811 2.34751880639e-38
0.0134747943063 -0.0928263607766 0.809 9.0059770744e-39
0.0149719936736 -0.0928263607766 0.809 9.82639808891e-39
0.016469193041 -0.0928263607766 0.809 1.02866517669e-38
0.0179219761107 -0.0925968765719 0.807 1.04703227592e-38
0.0194154741199 -0.0925968765719 0.807 1.06529175543e-38
0.0209089721291 -0.0925968765719 0.807 1.06529175543e-38
0.0224024701384 -0.0925968765719 0.807 1.092950024e-38
0.0238959681476 -0.0925968765719 0.807 1.07465467125e-38
0.0253894661568 -0.0925968765719 0.807 1.07454705153e-38
0.026882964166 -0.0925968765719 0.807 1.42488918384e-38
0.0283061363706 -0.0923673923673 0.805 1.21362760567e-38
0.0297959330217 -0.0923673923673 0.805 9.73456259275e-39
0.0312857296728 -0.0923673923673 0.805 2.08884471507e-38
0.0327755263239 -0.0923673923673 0.805 9.82890921575e-39
0.0343504542122 -0.0925968765719 0.807 2.02526654257e-38
0.035755119626 -0.0923673923673 0.805 1.26891443528e-38
0.0372449162771 -0.0923673923673 0.805 1.40658976733e-38
0.0387347129282 -0.0923673923673 0.805 1.31504125709e-38
0.0402245095793 -0.0923673923673 0.805 1.1484100541e-38
0.0418179442583 -0.0925968765719 0.807 2.34799272553e-38
0.0432041028815 -0.0923673923673 0.805 7.80601717343e-39
0.0446938995326 -0.0923673923673 0.805 2.34728156656e-38
0.0461836961836 -0.0923673923673 0.805 1.10274341871e-38
0.0476734928347 -0.0923673923673 0.805 1.15712725159e-38
0.0492854343044 -0.0925968765719 0.807 2.34842698792e-38
0.0507789323136 -0.0925968765719 0.807 7.99327548981e-39
0.0522724303229 -0.0925968765719 0.807 2.34867529801e-38
0.0537659283321 -0.0925968765719 0.807 9.74532456495e-39
0.0552594263413 -0.0925968765719 0.807 1.46032844239e-38
0.0567529243505 -0.0925968765719 0.807 1.01019045774e-38
0.0582464223598 -0.0925968765719 0.807 1.77508992514e-38
-0.0122737035901 -0.0935869898742 0.829 2.09027445989e-38
-0.0107135811343 -0.0933612070277 0.827 2.03492373107e-38
-0.00907202879953 -0.0922322927952 0.817 1.99840659374e-38
-0.00754151720891 -0.0920065099487 0.815 1.78685256458e-38
-0.00603321376713 -0.0920065099487 0.815 1.51009864021e-38
-0.00451380625093 -0.0917807271022 0.813 7.08532376803e-39
-0.00300920416729 -0.0917807271022 0.813 7.16317150292e-39
-0.00150460208364 -0.0917807271022 0.813 9.09171411964e-39
0.0 -0.0917807271022 0.813 9.64272709659e-39
0.00150460208364 -0.0917807271022 0.813 9.45905610427e-39
0.00300920416729 -0.0917807271022 0.813 8.72437213501e-39
0.00451380625093 -0.0917807271022 0.813 8.90804312733e-39
0.00601840833457 -0.0917807271022 0.813 9.27538511196e-39
0.00752301041821 -0.0917807271022 0.813 1.28677748746e-38
0.00900540435302 -0.0915549442557 0.811 2.01616090515e-38
0.0105063050785 -0.0915549442557 0.811 7.71776900134e-39
0.012007205804 -0.0915549442557 0.811 2.13411240079e-38
0.0134747943063 -0.0913291614092 0.809 1.04807330055e-38
0.0149719936736 -0.0913291614092 0.809 9.64272709659e-39
0.0164284781015 -0.0911033785627 0.807 1.0469246562e-38
0.0179219761107 -0.0911033785627 0.807 1.08376647439e-38
0.0194154741199 -0.0911033785627 0.807 1.12961541871e-38
0.0208571531152 -0.0908775957162 0.805 1.08365885466e-38
0.0223469497663 -0.0908775957162 0.805 1.09291415076e-38
0.0238367464174 -0.0908775957162 0.805 1.08365885466e-38
0.0253265430684 -0.0908775957162 0.805 1.12075178553e-38
0.0268163397195 -0.0908775957162 0.805 1.16670694828e-38
0.0283061363706 -0.0908775957162 0.805 1.21334146053e-38
0.0297959330217 -0.0908775957162 0.805 1.05621582554e-38
0.0312857296728 -0.0908775957162 0.805 1.78376914744e-38
0.0327755263239 -0.0908775957162 0.805 1.40759421807e-38
0.034265322975 -0.0908775957162 0.805 1.87588798614e-38
0.035755119626 -0.0908775957162 0.805 1.59188486456e-38
0.0372449162771 -0.0908775957162 0.805 1.36888867292e-38
0.0387347129282 -0.0908775957162 0.805 1.35166993778e-38
0.0402245095793 -0.0908775957162 0.805 9.82747428613e-39
0.0417143062304 -0.0908775957162 0.805 2.34713555126e-38
0.0432041028815 -0.0908775957162 0.805 1.69383703498e-38
0.0446938995326 -0.0908775957162 0.805 1.75502879619e-38
0.0461836961836 -0.0908775957162 0.805 1.78480134389e-38
0.0476734928347 -0.0908775957162 0.805 1.26733082789e-38
0.0492854343044 -0.0911033785627 0.807 2.0879429795e-38
0.0507789323136 -0.0911033785627 0.807 1.85928344012e-38
0.0522724303229 -0.0911033785627 0.807 2.34461223311e-38
0.0537659283321 -0.0911033785627 0.807 2.34853502803e-38
0.0552594263413 -0.0911033785627 0.807 9.82890921575e-39
0.0567529243505 -0.0911033785627 0.807 1.34155158196e-38
0.0582464223598 -0.0911033785627 0.807 9.82639808891e-39
0.059739920369 -0.0911033785627 0.807 2.35033373474e-38
-0.0122737035901 -0.0920527769254 0.829 2.28381493742e-38
-0.0107135811343 -0.0918306954371 0.827 2.04396364759e-38
-0.00907202879953 -0.0907202879953 0.817 1.91507277536e-38
-0.00754151720891 -0.0904982065069 0.815 1.77753000615e-38
-0.00603321376713 -0.0904982065069 0.815 1.60247335602e-38
-0.00451380625093 -0.0902761250186 0.813 9.66966565827e-39
-0.00300920416729 -0.0902761250186 0.813 5.69383719556e-39
-0.00150460208364 -0.0902761250186 0.813 9.36722060812e-39
0.0 -0.0900540435302 0.811 9.1835496158e-39
0.0015009007255 -0.0900540435302 0.811 9.09171411964e-39
0.00300180145101 -0.0900540435302 0.811 1.23059564852e-38
0.00450270217651 -0.0900540435302 0.811 1.59793763315e-38
0.00600360290201 -0.0900540435302 0.811 1.97679618921e-38
0.00750450362752 -0.0900540435302 0.811 9.36722060812e-39
0.00900540435302 -0.0900540435302 0.811 1.73831957318e-38
0.0105063050785 -0.0900540435302 0.811 1.39870185827e-38
0.012007205804 -0.0900540435302 0.811 8.90804312733e-39
0.0134747943063 -0.0898319620418 0.809 2.06290850218e-38
0.0149349800922 -0.0896098805535 0.807 7.71418167727e-39
0.0164284781015 -0.0896098805535 0.807 1.11124537675e-38
0.0179219761107 -0.0896098805535 0.807 1.02855755697e-38
0.0193673564641 -0.0893877990651 0.805 1.0469246562e-38
0.0208571531152 -0.0893877990651 0.805 1.0469246562e-38
0.0223469497663 -0.0893877990651 0.805 1.1020259539e-38
0.0238367464174 -0.0893877990651 0.805 1.092950024e-38
0.0253265430684 -0.0893877990651 0.805 1.10206182714e-38
0.0268163397195 -0.0893877990651 0.805 9.55089160043e-39
0.0283061363706 -0.0893877990651 0.805 1.95908167467e-38
0.0297959330217 -0.0893877990651 0.805 1.11174760212e-38
0.0312857296728 -0.0893877990651 0.805 1.14794370197e-38
0.0327755263239 -0.0893877990651 0.805 2.09887717129e-38
0.034265322975 -0.0893877990651 0.805 1.09323700993e-38
0.035755119626 -0.0893877990651 0.805 1.76687425237e-38
0.0372449162771 -0.0893877990651 0.805 1.332480977e-38
0.0387347129282 -0.0893877990651 0.805 1.37007627337e-38
0.0402245095793 -0.0893877990651 0.805 1.29631906883e-38
0.0417143062304 -0.0893877990651 0.805 1.35066450613e-38
0.0432041028815 -0.0893877990651 0.805 2.34924702778e-38
0.0446938995326 -0.0893877990651 0.805 8.17335915806e-39
0.0461836961836 -0.0893877990651 0.805 2.30185553411e-38
0.0476734928347 -0.0893877990651 0.805 9.55268526247e-39
0.0491632894858 -0.0893877990651 0.805 1.14794370197e-38
0.0506530861369 -0.0893877990651 0.805 2.0783984554e-38
0.052142882788 -0.0893877990651 0.805 1.32243114468e-38
0.0536326794391 -0.0893877990651 0.805 2.34957563227e-38
0.0551224760902 -0.0893877990651 0.805 9.45941483668e-39
0.0566122727412 -0.0893877990651 0.805 1.47948475292e-38
0.0581020693923 -0.0893877990651 0.805 1.08365885466e-38
-0.0122737035901 -0.0905185639767 0.829 2.34874452215e-38
-0.0107394906413 -0.0905185639767 0.829 2.09020411471e-38
-0.00909423694836 -0.0894266633256 0.819 1.98897319261e-38
-0.00754151720891 -0.0889899030651 0.815 1.84174632997e-38
-0.00603321376713 -0.0889899030651 0.815 1.66664694023e-38
-0.00451380625093 -0.0887715229349 0.813 1.72264604985e-38
-0.00300920416729 -0.0887715229349 0.813 5.23467793165e-39
-0.00150460208364 -0.0887715229349 0.813 8.63253663885e-39
0.0 -0.0885531428047 0.811 8.44886564654e-39
0.0015009007255 -0.0885531428047 0.811 1.32243114468e-38
0.00300180145101 -0.0885531428047 0.811 1.82752637354e-38
0.00450270217651 -0.0885531428047 0.811 1.84589445368e-38
0.00600360290201 -0.0885531428047 0.811 2.34566727073e-38
0.00750450362752 -0.0885531428047 0.811 1.15712725159e-38
0.00900540435302 -0.0885531428047 0.811 7.34683969264e-39
0.0105063050785 -0.0885531428047 0.811 2.06258017795e-38
0.0119775949389 -0.0883347626745 0.809 8.26519465422e-39
0.0134747943063 -0.0883347626745 0.809 1.97988955557e-38
0.0149349800922 -0.0881163825442 0.807 6.06114274643e-39
0.0164284781015 -0.0881163825442 0.807 1.03774110659e-38
0.017877559813 -0.087898002414 0.805 9.1835496158e-39
0.0193673564641 -0.087898002414 0.805 2.19850556847e-38
0.0208571531152 -0.087898002414 0.805 1.37015166323e-38
0.0223469497663 -0.087898002414 0.805 1.09284240428e-38
0.0238367464174 -0.087898002414 0.805 1.01019045774e-38
0.0253265430684 -0.087898002414 0.805 1.12046479961e-38
0.0268163397195 -0.087898002414 0.805 9.27538511196e-39
0.0283061363706 -0.087898002414 0.805 2.34674206665e-38
0.0297959330217 -0.087898002414 0.805 1.41711323853e-38
0.0312857296728 -0.087898002414 0.805 1.1020259539e-38
0.0327755263239 -0.087898002414 0.805 2.16284280281e-38
0.034265322975 -0.087898002414 0.805 9.37618891829e-39
0.035755119626 -0.087898002414 0.805 1.85832256976e-38
0.0372449162771 -0.087898002414 0.805 1.14938129407e-38
0.0387347129282 -0.087898002414 0.805 1.41581059148e-38
0.0402245095793 -0.087898002414 0.805 1.34241352065e-38
0.0417143062304 -0.087898002414 0.805 9.82639808891e-39
0.0432041028815 -0.087898002414 0.805 2.34953989916e-38
0.0445828587884 -0.0876796222838 0.803 7.80746751734e-39
0.0460689540813 -0.0876796222838 0.803 2.3467789208e-38
0.0475550493743 -0.0876796222838 0.803 1.32523570342e-38
0.0491632894858 -0.087898002414 0.805 1.21222854929e-38
0.0506530861369 -0.087898002414 0.805 2.34706338439e-38
0.052142882788 -0.087898002414 0.805 1.14923611955e-38
0.0536326794391 -0.087898002414 0.805 2.34820362095e-38
0.0551224760902 -0.087898002414 0.805 1.13133439154e-38
0.0566122727412 -0.087898002414 0.805 1.53394033228e-38
0.0581020693923 -0.087898002414 0.805 1.15730661779e-38
-0.00909423694836 -0.0879109571675 0.819 1.91485613462e-38
-0.00756002399961 -0.0876962783954 0.817 2.02574102223e-38
-0.00604801919968 -0.0876962783954 0.817 1.6110783095e-38
-0.00452491032535 -0.0874815996233 0.815 1.88830951612e-38
-0.00300920416729 -0.0872669208513 0.813 7.54062665857e-39
-0.0015009007255 -0.0870522420792 0.811 7.25500419648e-39
0.0 -0.0870522420792 0.811 7.80601717343e-39
0.0015009007255 -0.0870522420792 0.811 2.34530013053e-38
0.00299439873473 -0.0868375633071 0.809 1.84754658457e-38
0.00449159810209 -0.0868375633071 0.809 2.18907020552e-38
0.00600360290201 -0.0870522420792 0.811 2.34629729452e-38
0.00750450362752 -0.0870522420792 0.811 2.10684075046e-38
0.00898319620418 -0.0868375633071 0.809 1.03774110659e-38
0.0104803955715 -0.0868375633071 0.809 1.719556467e-38
0.0119775949389 -0.0868375633071 0.809 7.80816956787e-39
0.0134747943063 -0.0868375633071 0.809 1.1387960256e-38
0.0149349800922 -0.086622884535 0.807 1.74792589454e-38
0.0164284781015 -0.086622884535 0.807 8.99987862348e-39
0.017877559813 -0.0864082057629 0.805 8.72437213501e-39
0.0193673564641 -0.0864082057629 0.805 1.14859194264e-38
0.0208571531152 -0.0864082057629 0.805 2.3509786123e-38
0.0223469497663 -0.0864082057629 0.805 2.35037114941e-38
0.0237775246871 -0.0861935269909 0.803 8.99994868841e-39
0.0252636199801 -0.0861935269909 0.803 1.1848213934e-38
0.026749715273 -0.0861935269909 0.803 9.55089160043e-39
0.0283061363706 -0.0864082057629 0.805 1.06554356877e-38
0.0297959330217 -0.0864082057629 0.805 2.3492208235e-38
0.0312857296728 -0.0864082057629 0.805 8.81620763117e-39
0.0327755263239 -0.0864082057629 0.805 1.48902983754e-38
0.034265322975 -0.0864082057629 0.805 1.54578901145e-38
0.035755119626 -0.0864082057629 0.805 1.50735980236e-38
0.0371523823236 -0.0861935269909 0.803 1.62919864007e-38
0.0386384776166 -0.0861935269909 0.803 1.36982025614e-38
0.0401245729095 -0.0861935269909 0.803 1.42535147221e-38
0.0416106682025 -0.0861935269909 0.803 1.12143351724e-38
0.0430967634954 -0.0861935269909 0.803 1.97866678253e-38
0.0445828587884 -0.0861935269909 0.803 1.45351378783e-38
0.0460689540813 -0.0861935269909 0.803 2.02236081008e-38
0.0475550493743 -0.0861935269909 0.803 2.23765084107e-38
0.0490411446672 -0.0861935269909 0.803 1.25814629736e-38
0.0505272399602 -0.0861935269909 0.803 1.89397188296e-38
0.052142882788 -0.0864082057629 0.805 2.16406795806e-38
0.0536326794391 -0.0864082057629 0.805 1.13022232108e-38
0.0551224760902 -0.0864082057629 0.805 2.34831320249e-38
0.0566122727412 -0.0864082057629 0.805 1.25814629736e-38
0.0581020693923 -0.0864082057629 0.805 1.36028063659e-38
0.0595918660434 -0.0864082057629 0.805 1.01937400735e-38
0.0610816626945 -0.0864082057629 0.805 2.34883532629e-38
-0.00909423694836 -0.0863952510095 0.819 1.98893535755e-38
-0.0075785307903 -0.0863952510095 0.819 2.09978269036e-38
-0.00603321376713 -0.0859732961816 0.815 1.75891319554e-38
-0.00451380625093 -0.0857623187676 0.813 1.71338598934e-38
-0.00300920416729 -0.0857623187676 0.813 9.75652654488e-39
-0.0015009007255 -0.0855513413537 0.811 5.14278778485e-39
0.0 -0.0855513413537 0.811 7.89785266959e-39
0.0015009007255 -0.0855513413537 0.811 1.68228192785e-38
0.00299439873473 -0.0853403639397 0.809 1.5818311086e-38
0.00449159810209 -0.0853403639397 0.809 2.34591656172e-38
0.00600360290201 -0.0855513413537 0.811 2.01241845734e-38
0.00750450362752 -0.0855513413537 0.811 2.15258683948e-38
0.00898319620418 -0.0853403639397 0.809 1.2214120989e-38
0.0104803955715 -0.0853403639397 0.809 1.24111155271e-38
0.0119775949389 -0.0853403639397 0.809 1.54679416284e-38
0.013441482083 -0.0851293865258 0.807 1.0469246562e-38
0.0149349800922 -0.0851293865258 0.807 2.0803088456e-38
0.0163877631619 -0.0849184091119 0.805 8.35703015038e-39
0.017877559813 -0.0849184091119 0.805 9.36722060812e-39
0.0193673564641 -0.0849184091119 0.805 7.4386751888e-39
0.0208053341012 -0.0847074316979 0.803 2.35096529996e-38
0.0222914293942 -0.0847074316979 0.803 1.16958017065e-38
0.0237775246871 -0.0847074316979 0.803 8.90804312733e-39
0.0252636199801 -0.0847074316979 0.803 1.12997260969e-38
0.026749715273 -0.0847074316979 0.803 1.10242055954e-38
0.028235810566 -0.0847074316979 0.803 9.09171411964e-39
0.0297219058589 -0.0847074316979 0.803 2.34946759216e-38
0.0312080011519 -0.0847074316979 0.803 7.07137244052e-39
0.0326940964448 -0.0847074316979 0.803 1.25861264949e-38
0.0341801917378 -0.0847074316979 0.803 2.0804844283e-38
0.0356662870307 -0.0847074316979 0.803 9.55483765691e-39
0.0371523823236 -0.0847074316979 0.803 2.11735455271e-38
0.0386384776166 -0.0847074316979 0.803 1.1951213575e-38
0.0401245729095 -0.0847074316979 0.803 1.38883559604e-38
0.0416106682025 -0.0847074316979 0.803 1.39791068516e-38
0.0430967634954 -0.0847074316979 0.803 1.15788058965e-38
0.0445273384163 -0.0846019429909 0.802 2.31915820703e-38
0.0460115830302 -0.0846019429909 0.802 1.01937400735e-38
0.047495827644 -0.0846019429909 0.802 2.34810020512e-38
0.0490411446672 -0.0847074316979 0.803 9.73779118441e-39
0.0505272399602 -0.0847074316979 0.803 1.09284240428e-38
0.0520133352531 -0.0847074316979 0.803 2.03406613641e-38
0.0534994305461 -0.0847074316979 0.803 1.20433643633e-38
0.054985525839 -0.0847074316979 0.803 2.34766314013e-38
0.0566122727412 -0.0849184091119 0.805 9.27538511196e-39
0.0581020693923 -0.0849184091119 0.805 1.47001519829e-38
0.0595918660434 -0.0849184091119 0.805 9.73456259275e-39
-0.0091164450972 -0.0850868209072 0.821 2.00733370573e-38
-0.0075785307903 -0.0848795448514 0.819 1.91514312055e-38
-0.00603321376713 -0.0844649927398 0.815 1.92461295544e-38
-0.00451380625093 -0.084257716684 0.813 1.66700272991e-38
-0.00300920416729 -0.084257716684 0.813 1.27986165915e-38
-0.0015009007255 -0.0840504406282 0.811 4.96485651104e-39
0.0 -0.0840504406282 0.811 7.62234618111e-39
0.00149719936736 -0.0838431645724 0.809 7.98968816575e-39
0.00299439873473 -0.0838431645724 0.809 2.34780298972e-38
0.00449159810209 -0.0838431645724 0.809 2.34493593306e-38
0.00598879746946 -0.0838431645724 0.809 1.42409590878e-38
0.00748599683682 -0.0838431645724 0.809 2.34651912006e-38
0.00898319620418 -0.0838431645724 0.809 1.23995856434e-38
0.0104803955715 -0.0838431645724 0.809 8.35703015038e-39
0.0119775949389 -0.0838431645724 0.809 1.61817378427e-38
0.013441482083 -0.0836358885166 0.807 7.98968816575e-39
0.0148979665109 -0.0834286124608 0.805 2.13493482286e-38
0.0163877631619 -0.0834286124608 0.805 1.23261099597e-38
0.017877559813 -0.0834286124608 0.805 9.73456259275e-39
0.0193192388083 -0.083221336405 0.803 8.26519465422e-39
0.0208053341012 -0.083221336405 0.803 2.34712924541e-38
0.0222914293942 -0.083221336405 0.803 7.16352743273e-39
0.0237775246871 -0.083221336405 0.803 9.45905610427e-39
0.0252636199801 -0.083221336405 0.803 1.1023499341e-38
0.026749715273 -0.083221336405 0.803 1.14851767383e-38
0.028235810566 -0.083221336405 0.803 9.45905610427e-39
0.0297219058589 -0.083221336405 0.803 1.09284240428e-38
0.0312080011519 -0.083221336405 0.803 1.32318448273e-38
0.0326940964448 -0.083221336405 0.803 1.08401758707e-38
0.0341801917378 -0.083221336405 0.803 1.91392483166e-38
0.0356662870307 -0.083221336405 0.803 1.04821609287e-38
0.0371523823236 -0.083221336405 0.803 2.09715973989e-38
0.0386384776166 -0.083221336405 0.803 1.26019681741e-38
0.0401245729095 -0.083221336405 0.803 1.48016578397e-38
0.0416106682025 -0.083221336405 0.803 1.40680612781e-38
0.0430967634954 -0.083221336405 0.803 1.36978466316e-38
0.0445273384163 -0.0831176983771 0.802 2.08901917673e-38
0.0460115830302 -0.0831176983771 0.802 1.45261513513e-38
0.047495827644 -0.0831176983771 0.802 2.31838847378e-38
0.0490411446672 -0.083221336405 0.803 2.17303626823e-38
0.0505272399602 -0.083221336405 0.803 9.55089160043e-39
0.0520133352531 -0.083221336405 0.803 2.34717478761e-38
0.0534994305461 -0.083221336405 0.803 2.12719348962e-38
0.054985525839 -0.083221336405 0.803 2.08779402148e-38
0.0564716211319 -0.083221336405 0.803 1.71152240251e-38
0.0579577164249 -0.083221336405 0.803 1.38671599199e-38
0.0594438117178 -0.083221336405 0.803 1.13929825097e-38
-0.00603321376713 -0.082956689298 0.815 2.21023569779e-38
-0.00451380625093 -0.0827531146003 0.813 1.70348371374e-38
-0.00300920416729 -0.0827531146003 0.813 1.39049767615e-38
-0.0015009007255 -0.0825495399027 0.811 7.36590716084e-39
0.0 -0.082345965205 0.809 6.3366492349e-39
0.00149719936736 -0.082345965205 0.809 7.16316870032e-39
0.00298699601845 -0.0821423905073 0.807 2.34678480625e-38
0.00448049402767 -0.0821423905073 0.807 1.26754508642e-38
0.0059739920369 -0.0821423905073 0.807 2.29084062753e-38
0.00746749004612 -0.0821423905073 0.807 2.34568730929e-38
0.00896098805535 -0.0821423905073 0.807 2.2450667928e-38
0.0104544860646 -0.0821423905073 0.807 1.08365885466e-38
0.0119479840738 -0.0821423905073 0.807 2.1437677676e-38
0.0134081698598 -0.0819388158097 0.805 8.63468903329e-39
0.0148979665109 -0.0819388158097 0.805 1.75636241194e-38
0.0163877631619 -0.0819388158097 0.805 1.81387352261e-38
0.017877559813 -0.0819388158097 0.805 1.00100732851e-38
0.0193192388083 -0.081735241112 0.803 1.01019171891e-38
0.0208053341012 -0.081735241112 0.803 9.27538511196e-39
0.0222914293942 -0.081735241112 0.803 1.12046479961e-38
0.023747913822 -0.0816334537632 0.802 1.06554286812e-38
0.0252321584359 -0.0816334537632 0.802 1.11149648944e-38
0.0267164030498 -0.0816334537632 0.802 1.10224119334e-38
0.0282006476636 -0.0816334537632 0.802 1.12975596895e-38
0.0296848922775 -0.0816334537632 0.802 1.22180754533e-38
0.0312080011519 -0.081735241112 0.803 1.28716774908e-38
0.0326940964448 -0.081735241112 0.803 1.17606832267e-38
0.0341801917378 -0.081735241112 0.803 1.442860136e-38
0.0356662870307 -0.081735241112 0.803 1.88740876147e-38
0.0371523823236 -0.081735241112 0.803 1.20365484476e-38
0.0385903599608 -0.0816334537632 0.802 1.97974494157e-38
0.0400746045747 -0.0816334537632 0.802 1.13018798926e-38
0.0415588491885 -0.0816334537632 0.802 1.38811687006e-38
0.0430430938024 -0.0816334537632 0.802 1.48953178265e-38
0.0445273384163 -0.0816334537632 0.802 1.57286588129e-38
0.0460115830302 -0.0816334537632 0.802 2.34796596073e-38
0.047495827644 -0.0816334537632 0.802 1.00100690812e-38
0.0489800722579 -0.0816334537632 0.802 2.34936193426e-38
0.0504643168718 -0.0816334537632 0.802 9.37009046737e-39
0.0520133352531 -0.081735241112 0.803 1.01019045774e-38
0.0534994305461 -0.081735241112 0.803 2.34917093728e-38
0.054985525839 -0.081735241112 0.803 9.64272709659e-39
0.0564716211319 -0.081735241112 0.803 2.34817223186e-38
0.0579577164249 -0.081735241112 0.803 9.83464893426e-39
0.0594438117178 -0.081735241112 0.803 1.41523521833e-38
0.0610816626945 -0.0819388158097 0.805 9.91823358506e-39
0.0625714593456 -0.0819388158097 0.805 2.3470010266e-38
-0.00451380625093 -0.0812485125167 0.813 1.60207076297e-38
-0.00300920416729 -0.0812485125167 0.813 1.82366719757e-38
-0.0015009007255 -0.0810486391772 0.811 7.08714685734e-39
0.0 -0.0808487658376 0.809 5.32937628057e-39
0.00149719936736 -0.0808487658376 0.809 7.71418167727e-39
0.00298699601845 -0.0806488924981 0.807 1.57222324581e-38
0.00446938995326 -0.0804490191586 0.805 2.02451852945e-38
0.00595918660434 -0.0804490191586 0.805 2.34701447907e-38
0.00744898325543 -0.0804490191586 0.805 1.68059308294e-38
0.00893877990651 -0.0804490191586 0.805 2.34626478439e-38
0.0104285765576 -0.0804490191586 0.805 1.21222882955e-38
0.0119183732087 -0.0804490191586 0.805 8.0815236619e-39
0.0134081698598 -0.0804490191586 0.805 1.95172962215e-38
0.0148609529295 -0.0802491458191 0.803 1.00100690812e-38
0.0163470482224 -0.0802491458191 0.803 2.23792199232e-38
0.0178331435154 -0.0802491458191 0.803 7.16316870032e-39
0.0193192388083 -0.0802491458191 0.803 1.0378129932e-38
0.0207794245943 -0.0801492091493 0.802 1.10227706658e-38
0.0222636692081 -0.0801492091493 0.802 1.09305764372e-38
0.0236886920918 -0.0799493358098 0.8 1.13926237773e-38
0.0251692353475 -0.0799493358098 0.8 1.09345224937e-38
0.0266497786033 -0.0799493358098 0.8 1.10267167223e-38
0.0282006476636 -0.0801492091493 0.802 1.14855354707e-38
0.0296848922775 -0.0801492091493 0.802 1.24071372408e-38
0.0311691368914 -0.0801492091493 0.802 1.23192295842e-38
0.0326533815053 -0.0801492091493 0.802 1.19472338874e-38
0.0341376261192 -0.0801492091493 0.802 1.10245685317e-38
0.035621870733 -0.0801492091493 0.802 2.25511956786e-38
0.0371061153469 -0.0801492091493 0.802 8.54070114269e-39
0.0385903599608 -0.0801492091493 0.802 2.04398915122e-38
0.0400746045747 -0.0801492091493 0.802 1.15831555269e-38
0.0415588491885 -0.0801492091493 0.802 1.39762159728e-38
0.0430430938024 -0.0801492091493 0.802 1.35141672315e-38
0.0445273384163 -0.0801492091493 0.802 1.37882387903e-38
0.0460115830302 -0.0801492091493 0.802 2.34867978216e-38
0.047495827644 -0.0801492091493 0.802 7.89787929426e-39
0.0489800722579 -0.0801492091493 0.802 2.34849396999e-38
0.0504643168718 -0.0801492091493 0.802 1.14955799781e-38
0.0520133352531 -0.0802491458191 0.803 1.12039305313e-38
0.0534994305461 -0.0802491458191 0.803 2.34813453693e-38
0.054985525839 -0.0802491458191 0.803 1.13047343376e-38
0.0564716211319 -0.0802491458191 0.803 2.3478893097e-38
0.0579577164249 -0.0802491458191 0.803 1.05779424813e-38
0.0594438117178 -0.0802491458191 0.803 1.51611217244e-38
0.0610816626945 -0.0804490191586 0.805 1.01040569718e-38
-0.00451380625093 -0.0797439104331 0.813 1.62065506346e-38
-0.00300920416729 -0.0797439104331 0.813 1.81437672888e-38
-0.0015009007255 -0.0795477384517 0.811 1.21567602377e-38
0.0 -0.0795477384517 0.811 5.24075816568e-39
0.00149349800922 -0.0791553944889 0.807 7.62234618111e-39
0.00297959330217 -0.0789592225075 0.805 7.80601717343e-39
0.00446938995326 -0.0789592225075 0.805 2.34777202102e-38
0.00595918660434 -0.0789592225075 0.805 2.34514851003e-38
0.00744898325543 -0.0789592225075 0.805 1.76485890492e-38
0.00893877990651 -0.0789592225075 0.805 2.34766790454e-38
0.0104285765576 -0.0789592225075 0.805 1.32268225736e-38
0.0119183732087 -0.0789592225075 0.805 8.35703015038e-39
0.0134081698598 -0.0789592225075 0.805 2.14576335674e-38
